x,y,z,nx,ny,nz,curvature,density,label
45.78112030029297,-23.591693878173828,0.1537950038909912,-0.7412491060326754,0.5025029765507756,0.44501743939240207,0.076443361677675,5.0,1
46.03495788574219,-23.402610778808594,0.13678765296936035,0.1977119324002934,-0.3981552717407172,-0.8957579870543255,0.1452343444240391,8.0,1
46.81623077392578,-22.733062744140625,0.08456087112426758,-0.0,-0.0,-1.0,0.03655954937565273,2.0,1
47.130271911621094,-22.516639709472656,0.06222367286682129,-0.0,-0.0,-1.0,0.043360851421461545,2.0,1
47.70606231689453,-22.112812042236328,0.020657062530517578,-0.0,-0.0,-1.0,0.22597062095069118,2.0,1
45.86113739013672,-23.385408401489258,0.0793602466583252,-0.0,-0.0,-1.0,0.1013463488733125,2.0,1
46.00231170654297,-23.41898536682129,0.07223653793334961,-0.0,-0.0,-1.0,0.1749841982518864,1.0,1
46.186256408691406,-23.23875617980957,0.06812357902526855,-0.0,-0.0,-1.0,0.08727123035749,2.0,1
46.44340896606445,-23.0595760345459,0.060523271560668945,0.15345974948689012,0.9385982257241293,-0.30900400637360165,0.08082067690154934,4.0,1
46.63124084472656,-22.914705276489258,0.05518841743469238,-0.0,-0.0,-1.0,0.053397272604006674,2.0,1
46.86878204345703,-22.691537857055664,0.04919862747192383,-0.0,-0.0,-1.0,0.030072693761849217,1.0,1
47.106536865234375,-22.512311935424805,0.04205012321472168,0.6373499036886434,-0.07804440166426276,-0.7666121389835566,0.046021736068418896,3.0,1
47.29301834106445,-22.397192001342773,0.035733699798583984,-0.0,-0.0,-1.0,0.05336500474889653,1.0,1
47.47282791137695,-21.95182991027832,0.18351173400878906,-0.0,-0.0,-1.0,0.14225225381902704,1.0,1
45.75179672241211,-23.41635513305664,0.09384918212890625,-0.0,-0.0,-1.0,0.04152030455363443,1.0,1
46.02634811401367,-23.373214721679688,0.08072304725646973,-0.7215085257403272,-0.03153997429955944,-0.6916868347057089,0.15094852890101768,6.0,1
46.27002716064453,-23.153759002685547,0.07330989837646484,0.177695441711616,-0.5521809167954854,-0.8145677167196168,0.09802075486182665,5.0,1
46.51844787597656,-22.934123992919922,0.06551599502563477,-0.07900081801783364,0.8087817772378673,-0.582778609388222,0.0695429903061949,3.0,1
46.70612716674805,-22.79196548461914,0.05892491340637207,-0.0,-0.0,-1.0,0.04860416457955234,1.0,1
46.95290756225586,-22.591228485107422,0.05045366287231445,-0.0,-0.0,-1.0,0.036127289983595934,2.0,1
47.15349578857422,-22.460777282714844,0.042664527893066406,-0.0,-0.0,-1.0,0.055891891247640026,2.0,1
47.398292541503906,-22.300609588623047,0.03301692008972168,-0.0,-0.0,-1.0,0.041787759350795345,1.0,1
45.76091384887695,-23.12745475769043,0.0451890230178833,-0.0,-0.0,-1.0,0.07147819145551798,1.0,1
46.019187927246094,-23.08479118347168,0.030594229698181152,-0.0,-0.0,-1.0,0.09111421534535781,2.0,1
46.4202995300293,-22.903085708618164,0.010571122169494629,-0.0,-0.0,-1.0,0.04982597317611858,2.0,1
46.604488372802734,-22.710771560668945,0.004032015800476074,0.7103299298210362,-0.2812024683353305,-0.6452569740828523,0.042954153022578205,3.0,1
46.917240142822266,-22.521581649780273,-0.010782837867736816,-0.0,-0.0,-1.0,0.03723109287710053,2.0,0
47.03962326049805,-22.409147262573242,-0.015670418739318848,-0.0,-0.0,-1.0,0.05426226478681025,1.0,0
47.413143157958984,-22.196992874145508,-0.034192681312561035,-0.393054954303223,-0.7142133631603881,-0.5791433974248686,0.07565595831398372,3.0,0
45.49214553833008,-23.35187530517578,0.10340285301208496,-0.0,-0.0,-1.0,0.03190817544791037,1.0,1
45.758140563964844,-23.250492095947266,0.08885431289672852,-0.0,-0.0,-1.0,0.09404344375941165,1.0,1
45.961612701416016,-23.204059600830078,0.07682061195373535,-0.0,-0.0,-1.0,0.0976571409108812,1.0,1
46.3702278137207,-23.143787384033203,0.05151200294494629,-0.0,-0.0,-1.0,0.0989380480242306,1.0,1
46.48452377319336,-22.94940185546875,0.04891204833984375,-0.07900081801783364,0.8087817772378673,-0.582778609388222,0.07120349735076681,3.0,1
46.66936492919922,-22.717941284179688,0.04250168800354004,-0.0,-0.0,-1.0,0.03397043379924087,1.0,1
46.92909240722656,-22.58249282836914,0.028499126434326172,0.3015654810576179,0.952043122243242,0.051692881752009104,0.051892419004833795,3.0,1
47.11652374267578,-22.41667938232422,0.02003026008605957,-0.0,-0.0,-1.0,0.05111680395422342,2.0,1
47.363094329833984,-22.231605529785156,0.007886648178100586,-0.0,-0.0,-1.0,0.048098085189026224,1.0,1
45.4107666015625,-23.78632354736328,0.17196989059448242,-0.0,-0.0,-1.0,0.06894847519152726,1.0,1
45.684749603271484,-23.651569366455078,0.15880584716796875,-0.8575331198580605,0.32093195130324087,0.4020443146957754,0.10296401654211107,4.0,1
46.018959045410156,-23.33822250366211,0.14639925956726074,-0.4765573463673325,-0.8569129401677101,0.19645179713216257,0.14590981716995952,3.0,1
47.46611404418945,-23.428089141845703,0.052121877670288086,-0.0,-0.0,-1.0,0.006278410911870943,1.0,1
47.66586685180664,-23.283119201660156,0.0428164005279541,-0.0,-0.0,-1.0,0.006102015711686295,1.0,1
46.41434097290039,-23.11856460571289,0.12744474411010742,0.7967337462471298,-0.4598732565192636,0.3920866301334208,0.09140971223230364,4.0,1
46.67610168457031,-22.90314483642578,0.11651086807250977,-0.0,-0.0,-1.0,0.05406674774422941,1.0,1
47.1842041015625,-22.46764373779297,0.09525299072265625,-0.0,-0.0,-1.0,0.039910992679179254,1.0,1
45.46589279174805,-23.779260635375977,0.12820088863372803,-0.0,-0.0,-1.0,0.07560111458422629,2.0,1
45.5981559753418,-23.778627395629883,0.1214064359664917,-0.0,-0.0,-1.0,0.10520578738773297,2.0,1
45.23906707763672,-24.011001586914062,0.13476133346557617,-0.0,-0.0,-1.0,0.08808802684587488,1.0,1
45.37786102294922,-24.03400421142578,0.13034343719482422,-0.0,-0.0,-1.0,0.0964092234632552,1.0,1
45.66645050048828,-23.827987670898438,0.12906277179718018,-0.0,-0.0,-1.0,0.10780299462836922,1.0,1
45.319419860839844,-23.533447265625,0.10156059265136719,-0.0,-0.0,-1.0,0.03695354420498853,2.0,1
45.78224182128906,-23.570205688476562,0.092110276222229,-0.0,-0.0,-1.0,0.0901528809475898,2.0,1
46.06843566894531,-23.398212432861328,0.09312868118286133,-0.04265166198721935,-0.9937562029540774,-0.10309919893006882,0.10510445498959735,4.0,1
46.55643081665039,-24.141677856445312,0.05720388889312744,-0.0,-0.0,-1.0,0.10246040429356121,1.0,1
46.34720993041992,-23.184154510498047,0.09570634365081787,0.37686280820145146,-0.5444333866152863,0.7493775492588006,0.1099195717120266,4.0,1
46.716583251953125,-24.056884765625,1.3775060176849365,-0.0,-0.0,-1.0,0.014020216692311063,2.0,2
45.39517593383789,-22.624080657958984,-0.023602604866027832,-0.0,-0.0,-1.0,0.029407840094708915,1.0,0
45.545738220214844,-22.866790771484375,-0.03149759769439697,-0.0,-0.0,-1.0,0.021565730427883623,1.0,0
45.788055419921875,-22.934123992919922,-0.03220009803771973,-0.0,-0.0,-1.0,0.05287435418953047,1.0,0
46.16202926635742,-22.92843246459961,-0.029322385787963867,-0.0,-0.0,-1.0,0.02449884116011867,1.0,0
46.68937301635742,-22.734848022460938,-0.018617868423461914,-0.0,-0.0,-1.0,0.028151396078389013,2.0,0
46.40709686279297,-22.979385375976562,-0.02959728240966797,-0.0,-0.0,-1.0,0.06608193171906564,1.0,0
47.15447235107422,-22.42978286743164,-0.004405498504638672,-0.5741603828808,-0.16879165298399718,-0.8011549367089383,0.060532569133247706,3.0,0
46.956546783447266,-22.58901596069336,-0.011525511741638184,-0.4717057436385446,0.7598233838438787,-0.44739481085775346,0.03860788820806125,3.0,0
47.35201644897461,-22.315933227539062,0.0009555816650390625,0.781770226697258,0.037337508683105654,-0.6224477673628984,0.04631446963578985,3.0,1
47.51393508911133,-23.14862060546875,-0.029704809188842773,-0.0,-0.0,-1.0,0.005567426235224297,1.0,0
47.6469612121582,-23.137676239013672,-0.028657197952270508,-0.0,-0.0,-1.0,0.005906186532728247,1.0,0
45.26368713378906,-22.957386016845703,0.01631450653076172,-0.0,-0.0,-1.0,0.028222282243207414,1.0,1
45.868064880371094,-23.10699462890625,0.016000747680664062,-0.0,-0.0,-1.0,0.04366146487401226,1.0,1
45.61155319213867,-23.136825561523438,0.012804985046386719,-0.0,-0.0,-1.0,0.05119350068104183,1.0,1
46.1173095703125,-23.169174194335938,0.015674114227294922,-0.0,-0.0,-1.0,0.0386223610942396,2.0,1
46.65904235839844,-22.796184539794922,0.03324770927429199,-0.0,-0.0,-1.0,0.061476260583674024,1.0,1
46.379615783691406,-23.084552764892578,0.020732402801513672,-0.0,-0.0,-1.0,0.10766499817328784,2.0,1
47.19049072265625,-23.624847412109375,0.006345629692077637,-0.0,-0.0,-1.0,0.042476660454314565,1.0,1
47.51658630371094,-23.51937484741211,0.012109756469726562,-0.0,-0.0,-1.0,0.026223140004801724,2.0,1
46.720558166503906,-24.007488250732422,0.8481627702713013,-0.0,-0.0,-1.0,0.004596716177911073,1.0,1
46.452781677246094,-24.13160514831543,1.6985881328582764,-0.0,-0.0,-1.0,0.05512858227647513,1.0,2
45.43464660644531,-23.380661010742188,0.10133886337280273,-0.0,-0.0,-1.0,0.034259995802001314,2.0,1
45.736995697021484,-23.749732971191406,0.09835362434387207,-0.0,-0.0,-1.0,0.11135559504653342,1.0,1
45.43193435668945,-23.474349975585938,0.09816169738769531,-0.0,-0.0,-1.0,0.04621778055162788,1.0,1
46.63035583496094,-23.100772857666016,0.22774183750152588,-0.0,-0.0,-1.0,0.0584922854162865,1.0,1
46.069217681884766,-23.155742645263672,0.24899685382843018,-0.0,-0.0,-1.0,0.09042638830702077,1.0,1
45.69268798828125,-23.136680603027344,0.2649942636489868,-0.0,-0.0,-1.0,0.0680421901763873,1.0,1
45.48066711425781,-22.62868881225586,-0.061255812644958496,-0.0,-0.0,-1.0,0.03188651995292099,1.0,0
46.92325973510742,-23.804977416992188,1.3917546272277832,-0.0,-0.0,-1.0,0.00944924597036347,1.0,2
46.90483856201172,-23.879947662353516,1.0016043186187744,-0.0,-0.0,-1.0,0.005909400386145477,1.0,2
46.87159729003906,-23.97113609313965,0.8549899458885193,-0.0,-0.0,-1.0,0.004596716177911056,1.0,1
46.740455627441406,-24.02825927734375,1.404115915298462,-0.0,-0.0,-1.0,0.013752700499389165,2.0,2
45.35228729248047,-23.888710021972656,0.1726928949356079,-0.0,-0.0,-1.0,0.0928310338939804,2.0,1
45.58924865722656,-23.72353744506836,0.15110266208648682,-0.37871004582380474,-0.4385385132377667,-0.8150231123099152,0.09585477091706616,6.0,1
45.94001007080078,-23.450435638427734,0.11842679977416992,0.02421047596939615,-0.9730596525636502,-0.22927879406095072,0.1644899102726657,3.0,1
46.25088119506836,-23.24777603149414,0.09031069278717041,0.8351968989208846,-0.08679959482825753,0.5430579806711138,0.10417217507794006,6.0,1
46.430362701416016,-23.11651611328125,0.07372176647186279,0.9169175657081428,-0.25727170698141144,0.3050794101258306,0.09132440162172702,3.0,1
46.51835632324219,-24.152252197265625,1.6118102073669434,-0.0,-0.0,-1.0,0.04058405193702267,1.0,2
45.41138458251953,-23.86411476135254,0.18766331672668457,-0.2333122591034784,-0.3863794292684413,-0.8923431662708157,0.09063638648908465,3.0,1
45.8070182800293,-23.546979904174805,0.1560676097869873,-0.21015569392321182,-0.969173169599858,0.12859996749384592,0.06856610035300441,5.0,1
46.04728698730469,-23.385717391967773,0.13724195957183838,-0.15230984653387683,-0.31944935167797395,-0.9352827499539104,0.15203272369176593,6.0,1
46.221885681152344,-23.2570743560791,0.12329745292663574,0.8316869803048221,0.10722570283581556,0.544793002380548,0.05774742659193272,5.0,1
46.518531799316406,-23.0501766204834,0.09965884685516357,-0.13345352107895983,0.34361420633239925,-0.9295802466264987,0.08662490982765639,4.0,1
47.65140914916992,-22.278059005737305,0.008227825164794922,-0.0,-0.0,-1.0,0.1529576497828861,2.0,1
46.63634490966797,-24.05698585510254,1.5931782722473145,0.49521229781530485,-0.02632437923062124,-0.8683730806229591,0.038185005200083784,3.0,2
46.763954162597656,-24.051433563232422,0.3366248607635498,-0.0,-0.0,-1.0,0.12239320387346252,1.0,1
47.56626510620117,-21.961750030517578,0.33198511600494385,-0.0,-0.0,-1.0,0.20397346518976486,1.0,1
46.5531005859375,-24.089584350585938,1.8486953973770142,-0.0,-0.0,-1.0,0.05519938140835769,1.0,2
45.890350341796875,-23.049240112304688,-0.03286182880401611,-0.0,-0.0,-1.0,0.04292462517641072,1.0,0
46.61888122558594,-24.130603790283203,1.3394333124160767,-0.0,-0.0,-1.0,0.009650350488143404,1.0,2
45.444557189941406,-23.356414794921875,0.07456088066101074,-0.0,-0.0,-1.0,0.031488894676689784,2.0,1
45.803077697753906,-23.30364990234375,0.057070255279541016,-0.0,-0.0,-1.0,0.06736090680276882,2.0,1
47.11750793457031,-22.47705078125,-0.005859851837158203,-0.44282530326043157,0.8663345106375935,0.2310200564250379,0.042955259889025654,4.0,0
47.308448791503906,-22.40015411376953,-0.015731334686279297,-0.0,-0.0,-1.0,0.0543147637816138,1.0,0
47.483680725097656,-22.186546325683594,-0.024274587631225586,-0.48509697956612297,0.6622979045408021,-0.5710012312216911,0.0663467850848556,4.0,0
45.47737121582031,-23.618183135986328,0.07674252986907959,-0.0,-0.0,-1.0,0.06215631370499727,1.0,1
46.083927154541016,-23.39429473876953,0.046213626861572266,-0.036233447281995325,-0.9948140632762507,-0.09503744949154948,0.12709799709335856,3.0,1
46.79864501953125,-22.790584564208984,0.012164711952209473,-0.0,-0.0,-1.0,0.040893714462789846,2.0,1
46.922645568847656,-22.633769989013672,0.006534457206726074,-0.0,-0.0,-1.0,0.035636255871254366,2.0,1
47.08657455444336,-22.497230529785156,-0.0015090703964233398,-0.5184344719376803,0.834726049028114,0.18562898852445725,0.04448144399653926,3.0,0
47.34006881713867,-22.320789337158203,-0.014341473579406738,0.7456127640689701,-0.02326204734401654,-0.6659733352100478,0.04806981742008335,4.0,0
47.60814666748047,-22.138137817382812,-0.028058409690856934,-0.0,-0.0,-1.0,0.1234029229693138,1.0,0
45.481117248535156,-23.843503952026367,0.14203941822052002,0.19761480400173076,0.5440581983634576,-0.8154440912980278,0.08253577952592857,4.0,1
46.43151092529297,-23.09006690979004,0.1252143383026123,0.8078520198490802,-0.4576677311544831,0.3713695758751241,0.08084289472873002,3.0,1
46.587074279785156,-22.986520767211914,0.12184631824493408,0.22486508571390484,-0.28356321316574434,-0.9322164970466882,0.0705308308034316,3.0,1
46.63330078125,-24.118709564208984,1.75162935256958,-0.6385852633500918,0.5516982935461954,-0.5365052230223951,0.05519938140835763,5.0,2
46.570804595947266,-24.042016983032227,1.8428289890289307,-0.0,-0.0,-1.0,0.05519938140835766,1.0,2
46.66838455200195,-24.02709197998047,1.6105434894561768,-0.0,-0.0,-1.0,0.04051131620085939,2.0,2
46.53565979003906,-24.03738021850586,1.7476770877838135,-0.0,-0.0,-1.0,0.055199381408357645,1.0,2
47.487525939941406,-21.886199951171875,0.21970367431640625,-0.0,-0.0,-1.0,0.20271237073075565,1.0,1
45.32546615600586,-24.02075958251953,0.23857295513153076,-0.0,-0.0,-1.0,0.07613528011362529,1.0,1
45.48512268066406,-23.983766555786133,0.22954142093658447,-0.0,-0.0,-1.0,0.09740503853886512,2.0,1
47.556365966796875,-21.94965171813965,0.22713470458984375,-0.0,-0.0,-1.0,0.13961871545386384,2.0,1
45.6969108581543,-24.040096282958984,0.2363337278366089,-0.0,-0.0,-1.0,0.05510820150367201,1.0,1
46.5977897644043,-24.14656639099121,1.7692198753356934,-0.6317500370768867,0.5719467261751642,-0.5232292356805613,0.05519938140835763,4.0,2
45.26074981689453,-23.806577682495117,0.1148601770401001,-0.0,-0.0,-1.0,0.06533635731485521,1.0,1
45.38482666015625,-23.8990478515625,0.10578131675720215,-0.0,-0.0,-1.0,0.0975422763311446,1.0,1
46.23115539550781,-23.174964904785156,0.08830201625823975,0.01535033287616015,-0.562899424389909,-0.8263828442689864,0.12042626253650018,4.0,1
46.07595443725586,-23.30117416381836,0.09187889099121094,-0.0,-0.0,-1.0,0.08424640638832143,2.0,1
46.581905364990234,-22.912900924682617,0.07921695709228516,-0.0,-0.0,-1.0,0.04967868753587867,2.0,1
47.003753662109375,-22.607080459594727,0.06754958629608154,-0.0,-0.0,-1.0,0.040037370473409564,2.0,1
46.77859115600586,-22.773033142089844,0.07375717163085938,0.9994246418685253,-0.010429431310347301,-0.03227401723542622,0.040893714462789846,4.0,1
47.184730529785156,-22.5654296875,0.05949437618255615,-0.0,-0.0,-1.0,0.039795248516034464,2.0,1
46.526649475097656,-24.11148452758789,1.954352855682373,-0.0,-0.0,-1.0,0.05519938140835769,1.0,2
45.317684173583984,-23.66106414794922,0.12073314189910889,-0.0,-0.0,-1.0,0.03255389256390282,1.0,1
46.24421691894531,-23.211767196655273,0.11197316646575928,0.4516714901973739,-0.15870148026085346,-0.8779559813031047,0.07926896172871953,6.0,1
46.601287841796875,-22.94261932373047,0.11192083358764648,0.6228402488562342,-0.358827504293245,-0.6952070530190166,0.05465096865669446,3.0,1
46.4515380859375,-23.040203094482422,0.11261570453643799,0.23109811518548948,0.872179563606578,-0.43115712911275605,0.0789540127114328,3.0,1
46.79078674316406,-22.859949111938477,0.10929059982299805,-0.0,-0.0,-1.0,0.053838302169290114,1.0,1
47.507598876953125,-21.936317443847656,0.12294673919677734,-0.0,-0.0,-1.0,0.1753843772225658,2.0,1
46.666236877441406,-24.11748695373535,0.9433696269989014,-0.0,-0.0,-1.0,0.004512432067581492,1.0,1
46.55828094482422,-24.149215698242188,1.8259773254394531,-0.0,-0.0,-1.0,0.05519938140835766,1.0,2
45.229217529296875,-23.453142166137695,0.1291046142578125,-0.0,-0.0,-1.0,0.03702725053338266,1.0,1
45.363338470458984,-23.62963104248047,0.11765801906585693,-0.0,-0.0,-1.0,0.048637696509525784,1.0,1
46.54499053955078,-22.980188369750977,0.10976886749267578,0.42252556575984956,-0.38016153211199283,-0.8227693211232303,0.06221408709078866,4.0,1
46.335662841796875,-23.132829666137695,0.10984086990356445,-0.0,-0.0,-1.0,0.10113697362252871,2.0,1
46.720001220703125,-22.85288429260254,0.10956871509552002,-0.0,-0.0,-1.0,0.05696933815790687,1.0,1
47.46562576293945,-21.95438575744629,0.1223992109298706,-0.0,-0.0,-1.0,0.1774121725266854,2.0,1
46.54487609863281,-24.11353874206543,1.7794575691223145,-0.0,-0.0,-1.0,0.05519938140835765,1.0,2
46.62316131591797,-24.132360458374023,1.2661579847335815,-0.0,-0.0,-1.0,0.009445038416587663,1.0,2
45.99259948730469,-23.52883529663086,0.1846323013305664,-0.0,-0.0,-1.0,0.09064741575023814,1.0,1
45.549285888671875,-23.52642822265625,0.210502028465271,-0.0,-0.0,-1.0,0.05968050352083391,1.0,1
47.22779083251953,-21.876867294311523,-0.0729517936706543,-0.0,-0.0,-1.0,0.076830304170507,1.0,0
47.174659729003906,-22.00668716430664,-0.08230090141296387,-0.0,-0.0,-1.0,0.030387293488312976,1.0,0
45.35175323486328,-22.51072883605957,0.038390278816223145,-0.0,-0.0,-1.0,0.027967318561910745,1.0,1
47.49571228027344,-22.200191497802734,-0.03883683681488037,-0.0,-0.0,-1.0,0.0697191063169408,2.0,0
47.311683654785156,-22.338424682617188,-0.04398477077484131,-0.0,-0.0,-1.0,0.049748398188013826,2.0,0
46.59832000732422,-24.07701873779297,0.6815256476402283,-0.0,-0.0,-1.0,0.015050833116011717,1.0,1
46.707176208496094,-24.051651000976562,1.2545979022979736,-0.0,-0.0,-1.0,0.006948076566950816,1.0,2
46.57163619995117,-24.12721061706543,1.1090214252471924,-0.0,-0.0,-1.0,0.005514352119400756,2.0,2
45.67736053466797,-23.775299072265625,0.12039029598236084,-0.0,-0.0,-1.0,0.11652364760408392,1.0,1
45.932395935058594,-23.444522857666016,0.09252893924713135,0.02421047596939615,-0.9730596525636502,-0.22927879406095072,0.16123142342077024,3.0,1
46.23987579345703,-23.305404663085938,0.06624507904052734,0.551605400566579,-0.7649532467207025,0.33253272379908755,0.07572642226453585,3.0,1
46.429229736328125,-23.150959014892578,0.048081398010253906,-0.0,-0.0,-1.0,0.09140971223230362,2.0,1
46.499122619628906,-24.186607360839844,1.7395895719528198,-0.0,-0.0,-1.0,0.053438491957379486,1.0,2
46.64803695678711,-24.058109283447266,1.1311476230621338,-0.0,-0.0,-1.0,0.00551435211940082,2.0,2
46.666385650634766,-24.09563446044922,0.7121005654335022,-0.0,-0.0,-1.0,0.0150508331160116,1.0,1
46.569664001464844,-24.154529571533203,1.1336346864700317,-0.0,-0.0,-1.0,0.004957271767493924,2.0,2
45.34868621826172,-24.04959487915039,0.18136239051818848,-0.0,-0.0,-1.0,0.0854342689796067,1.0,1
45.53388214111328,-23.802921295166016,0.16244006156921387,-0.0,-0.0,-1.0,0.08872008848024074,2.0,1
45.74283981323242,-23.588973999023438,0.1424884796142578,-0.15513245498206335,-0.9416508865782577,0.29870977422511547,0.09707808069129432,3.0,1
45.918033599853516,-23.452930450439453,0.1266942024230957,0.02421047596939615,-0.9730596525636502,-0.22927879406095072,0.1152625571709976,3.0,1
46.23331832885742,-23.25566864013672,0.09928774833679199,0.8351968989208846,-0.08679959482825753,0.5430579806711138,0.07914121672392928,6.0,1
46.453914642333984,-23.057586669921875,0.07872462272644043,0.216264233992304,0.9105627718098755,-0.35228570747283916,0.08082067690154932,5.0,1
46.58836364746094,-24.127826690673828,1.612061619758606,-0.0,-0.0,-1.0,0.038185005200083805,2.0,2
45.57677459716797,-23.69854736328125,0.1259317398071289,-0.0323855823987498,0.9460701745776676,0.32233895021743053,0.07647276104520195,6.0,1
45.797119140625,-23.511924743652344,0.10809183120727539,-0.9055480334636773,-0.4193827287170881,-0.06403816006004756,0.06627597399464599,3.0,1
46.201622009277344,-23.327953338623047,0.07782983779907227,-0.0,-0.0,-1.0,0.07293526481026055,2.0,1
46.459266662597656,-23.063648223876953,0.05610799789428711,0.15345974948689012,0.9385982257241293,-0.30900400637360165,0.08082067690154932,4.0,1
46.567481994628906,-24.116687774658203,1.546156644821167,-0.0,-0.0,-1.0,0.03162237159581463,2.0,2
45.35979461669922,-23.927474975585938,0.2001415491104126,-0.02061957569971869,-0.7102286542770697,-0.7036690214452718,0.09226547107598554,5.0,1
45.48728942871094,-23.864234924316406,0.19018757343292236,-0.8535994631245746,0.5203695251040398,-0.02415603229907302,0.08796233739357061,3.0,1
45.694061279296875,-23.683547973632812,0.17264032363891602,-0.8267185152630356,0.43564028320475706,0.35602533641661066,0.1040163258209222,5.0,1
46.02710723876953,-23.437843322753906,0.14511942863464355,0.7993870307054706,-0.30097441714548684,-0.5199949762871033,0.10247040466800474,4.0,1
46.412574768066406,-23.1335506439209,0.11281836032867432,0.8919457129811522,-0.364294570987248,0.2678102138525737,0.09679931517959746,6.0,1
46.5914306640625,-24.134342193603516,1.5587023496627808,-0.0,-0.0,-1.0,0.0316223715958145,2.0,2
45.51127624511719,-23.882328033447266,0.11715495586395264,-0.0,-0.0,-1.0,0.09055182639853634,2.0,1
45.799522399902344,-23.691375732421875,0.11202478408813477,-0.0,-0.0,-1.0,0.1130865976882884,1.0,1
46.126609802246094,-23.434165954589844,0.10676038265228271,-0.0,-0.0,-1.0,0.1332400982787078,2.0,1
47.69050598144531,-22.43819808959961,0.07704687118530273,-0.0,-0.0,-1.0,0.1382038234688698,1.0,1
45.46434783935547,-22.755313873291016,0.08755457401275635,-0.0,-0.0,-1.0,0.0537367919429654,1.0,1
45.77686309814453,-22.742034912109375,0.0848853588104248,-0.0,-0.0,-1.0,0.050801945746119674,1.0,1
46.21702575683594,-22.997047424316406,0.07240653038024902,-0.0,-0.0,-1.0,0.04701093487383161,1.0,1
46.49779510498047,-22.931724548339844,0.07164561748504639,-0.07900081801783364,0.8087817772378673,-0.582778609388222,0.06954299030619496,3.0,1
46.94416046142578,-22.860130310058594,0.0693514347076416,-0.0,-0.0,-1.0,0.04081624694804874,1.0,1
47.144657135009766,-23.77657699584961,1.3887158632278442,-0.0,-0.0,-1.0,0.008435516359050465,1.0,2
46.727996826171875,-24.070655822753906,0.6439787745475769,-0.0,-0.0,-1.0,0.01501112664389692,1.0,1
46.615875244140625,-24.094654083251953,1.9023584127426147,-0.0,-0.0,-1.0,0.05519938140835769,1.0,2
46.72607421875,-24.080339431762695,0.5673669576644897,-0.0,-0.0,-1.0,0.015011126643896932,1.0,1
46.63745880126953,-24.081344604492188,1.7906538248062134,-0.0,-0.0,-1.0,0.05519938140835763,2.0,2
45.343605041503906,-23.966121673583984,0.1655278205871582,-0.0,-0.0,-1.0,0.08563296338008401,2.0,1
45.83775329589844,-23.568115234375,0.14154982566833496,-0.563390797024322,-0.632127532283271,0.531982699679004,0.08621249978626298,5.0,1
45.606773376464844,-23.758056640625,0.15272271633148193,-0.7958083715123484,-0.38196363929491356,0.46988595859788046,0.09758609279862966,3.0,1
46.24129104614258,-23.26004981994629,0.12209224700927734,0.9603483184980764,-0.022436772299138527,-0.2778987196924692,0.07666937586203112,7.0,1
46.06747055053711,-23.402395248413086,0.1304394006729126,-0.31052464719218253,-0.5232576044011868,-0.7935842254748399,0.11601774406668007,8.0,1
46.333072662353516,-23.198444366455078,0.1176680326461792,0.8796048751046625,-0.2859993983232914,0.3801310403674322,0.1128883297131494,3.0,1
47.523956298828125,-21.95494842529297,0.06202554702758789,-0.0,-0.0,-1.0,0.22034371416579535,1.0,1
46.66045379638672,-24.11024284362793,1.6843215227127075,-0.0,-0.0,-1.0,0.047353967138735395,1.0,2
47.54823303222656,-21.90376091003418,0.2571842670440674,-0.0,-0.0,-1.0,0.1284557091919519,1.0,1
46.64790725708008,-24.110984802246094,1.3986592292785645,-0.0,-0.0,-1.0,0.01600202846624906,1.0,2
46.58997344970703,-24.129701614379883,1.9947998523712158,-0.0,-0.0,-1.0,0.055199381408357624,1.0,2
45.40455627441406,-23.93094253540039,0.2146693468093872,0.2598513318749323,-0.7948013138211756,-0.5484233372778342,0.10945821352945062,4.0,1
45.221012115478516,-24.027523040771484,0.2364104986190796,-0.0,-0.0,-1.0,0.057699133112072504,1.0,1
45.676353454589844,-23.70247459411621,0.18027937412261963,-0.49791482751985694,0.41820460431557904,-0.7597274073410285,0.11560850295589693,4.0,1
46.06256866455078,-23.365522384643555,0.13098061084747314,0.0961909931918178,-0.2838652226299666,-0.9540271632453716,0.1319600454161246,5.0,1
45.90186309814453,-23.498790740966797,0.15134179592132568,-0.0,-0.0,-1.0,0.09224036823652183,2.0,1
46.39078140258789,-23.18869400024414,0.09175121784210205,0.060718313189968114,0.9200449487547143,-0.387079550886249,0.08257788804312277,3.0,1
46.78038024902344,-22.79400062561035,0.04033529758453369,0.9751776987115063,0.03827287777820166,0.21809090481334903,0.04089371446278978,5.0,1
46.632415771484375,-23.003944396972656,0.06142699718475342,-0.0,-0.0,-1.0,0.07583803977987198,1.0,1
46.982887268066406,-22.55837059020996,0.0127485990524292,0.14796604349247064,0.5327990148604704,-0.8332054126905903,0.037482213762972706,3.0,1
46.63505935668945,-24.101417541503906,1.5937920808792114,-0.0,-0.0,-1.0,0.038185005200083874,2.0,2
46.763389587402344,-23.97138786315918,1.5590821504592896,-0.0,-0.0,-1.0,0.02374588849718403,1.0,2
45.64800262451172,-22.46615982055664,-0.04715406894683838,-0.0,-0.0,-1.0,0.03363140031406525,1.0,0
46.184410095214844,-22.16469383239746,-0.07552039623260498,-0.0,-0.0,-1.0,0.04468110879404461,1.0,0
46.06827926635742,-22.35107421875,-0.07328677177429199,-0.0,-0.0,-1.0,0.03698649839758721,1.0,0
46.35130310058594,-22.123994827270508,-0.08619582653045654,-0.0,-0.0,-1.0,0.04697919594383747,1.0,0
45.757781982421875,-23.59193229675293,0.191758394241333,-0.8410321540139115,-0.15597834672720676,-0.5180112655792023,0.06306121659657432,3.0,1
46.52521896362305,-22.998733520507812,0.09271907806396484,0.7561804876884459,-0.25036342996527094,-0.6045735877255051,0.06898605592125852,3.0,1
46.78547668457031,-22.749427795410156,0.057778358459472656,0.8284454762965408,-0.5527596703178327,0.09019334606232901,0.04007460601004983,4.0,1
47.21758270263672,-22.396121978759766,0.0007567405700683594,-0.16924188351575517,-0.1656197531708095,-0.9715592016051724,0.04774418193405453,3.0,1
47.03877258300781,-22.584178924560547,0.025350093841552734,-0.0,-0.0,-1.0,0.05284272732328458,2.0,1
47.500213623046875,-23.542316436767578,-0.006220579147338867,-0.0,-0.0,-1.0,0.028869529076585253,2.0,0
47.44994354248047,-22.22085952758789,-0.029735565185546875,0.13567649046213578,0.024233230395544852,-0.9904567837520596,0.07437275018428088,3.0,0
47.67694854736328,-22.035110473632812,-0.05996131896972656,-0.0,-0.0,-1.0,0.22529150664557973,1.0,0
46.6617431640625,-24.000883102416992,1.8955106735229492,-0.0,-0.0,-1.0,0.05213132064359918,1.0,2
45.24799346923828,-23.277996063232422,0.16756606101989746,-0.0,-0.0,-1.0,0.03867283264588196,1.0,1
45.455413818359375,-23.249305725097656,0.14114689826965332,-0.0,-0.0,-1.0,0.04825116618464102,1.0,1
45.93645477294922,-22.942781448364258,0.06824731826782227,0.7928819753543289,0.1255860270970186,-0.5962938226715119,0.050459277751064915,3.0,1
45.873207092285156,-23.142427444458008,0.08552265167236328,-0.0,-0.0,-1.0,0.10478816352154437,1.0,1
46.16468811035156,-22.733442306518555,0.030382394790649414,-0.0,-0.0,-1.0,0.02548057232470662,1.0,1
46.07606887817383,-21.892005920410156,-0.0007958412170410156,-0.0,-0.0,-1.0,0.028647956170650968,1.0,0
46.206119537353516,-22.180557250976562,-0.002053976058959961,-0.0,-0.0,-1.0,0.045097227878247395,1.0,0
46.300148010253906,-22.418777465820312,-0.0015637874603271484,-0.0,-0.0,-1.0,0.06428681810133198,1.0,0
46.71233367919922,-24.040790557861328,1.8030104637145996,-0.0,-0.0,-1.0,0.052131320643599315,1.0,2
45.38080596923828,-23.95401954650879,0.2513747215270996,-0.0,-0.0,-1.0,0.08441849050523025,2.0,1
45.65406036376953,-23.674602508544922,0.20541906356811523,-0.0,-0.0,-1.0,0.08654704142008779,2.0,1
45.94679260253906,-23.410207748413086,0.15743327140808105,-0.0,-0.0,-1.0,0.14033162392578533,1.0,1
46.283538818359375,-23.151592254638672,0.10404682159423828,0.7147862422621467,-0.49023183790370845,-0.49875181501254906,0.10194072202899934,5.0,1
46.639678955078125,-22.90522003173828,0.04854989051818848,-0.0,-0.0,-1.0,0.05588099542479792,2.0,1
46.7952766418457,-22.53177833557129,0.010120153427124023,-0.0,-0.0,-1.0,0.043637673724343386,1.0,1
46.90643310546875,-22.029809951782227,-0.03053879737854004,-0.5594474189082886,0.3734489465357763,-0.7399692357173863,0.027117406485152172,3.0,0
46.956581115722656,-22.259506225585938,-0.024020671844482422,-0.0,-0.0,-1.0,0.024446663397302948,2.0,0
46.65892791748047,-23.973026275634766,1.845192790031433,-0.0,-0.0,-1.0,0.052131320643599245,1.0,2
45.73456954956055,-23.722644805908203,0.24554872512817383,-0.0,-0.0,-1.0,0.10373724957212198,2.0,1
46.19019317626953,-23.391292572021484,0.17596912384033203,-0.0,-0.0,-1.0,0.10576412757461107,2.0,1
46.38587951660156,-23.154022216796875,0.14302873611450195,-0.007932104556692233,-0.3673952915955584,-0.9300310647665039,0.10242931776423878,5.0,1
46.54127883911133,-23.010974884033203,0.11787557601928711,0.774907309090309,-0.20155667937948424,-0.5990772632273169,0.06943982986926385,4.0,1
46.78467559814453,-22.81538963317871,0.07893514633178711,0.9898499483077974,0.13807828898103855,-0.03363727020909197,0.040854622267166914,3.0,1
46.98731994628906,-22.64718246459961,0.046105146408081055,-0.04184636555531904,0.48442696684265574,-0.8738303013088043,0.035335808958565786,3.0,1
47.21491241455078,-22.436450958251953,0.008096694946289062,-0.0,-0.0,-1.0,0.04774418193405453,2.0,1
47.34996032714844,-22.054725646972656,-0.02364492416381836,-0.0,-0.0,-1.0,0.09207389503156328,1.0,0
45.24888610839844,-22.811460494995117,0.023416757583618164,-0.0,-0.0,-1.0,0.01880240120051823,1.0,1
45.396297454833984,-22.49948501586914,-0.010327816009521484,-0.0,-0.0,-1.0,0.027967318561910752,1.0,0
45.41367721557617,-22.066667556762695,-0.025233983993530273,-0.0,-0.0,-1.0,0.020121073238881373,1.0,0
45.28990936279297,-23.988862991333008,0.20643830299377441,-0.0,-0.0,-1.0,0.08581929239941162,2.0,1
45.49859619140625,-23.846738815307617,0.1675429344177246,-0.8545110917843347,0.44847137534896375,0.2620767435507257,0.08253577952592862,4.0,1
45.686187744140625,-23.658899307250977,0.13120102882385254,-0.8575331198580605,0.32093195130324087,0.4020443146957754,0.1029640165421111,4.0,1
45.88502502441406,-23.3544864654541,0.08995723724365234,-0.0,-0.0,-1.0,0.11600719173311527,2.0,1
45.9630012512207,-23.034086227416992,0.06910109519958496,-0.0,-0.0,-1.0,0.07944501347270656,1.0,1
46.160125732421875,-22.954402923583984,0.03139686584472656,-0.0,-0.0,-1.0,0.027136225360519472,1.0,1
46.27460861206055,-22.611225128173828,0.0016021728515625,-0.0,-0.0,-1.0,0.042181576311387296,1.0,1
46.219520568847656,-22.0463809967041,-0.005202293395996094,-0.0,-0.0,-1.0,0.03693274239201026,1.0,0
46.29249572753906,-22.239181518554688,-0.012541055679321289,-0.0,-0.0,-1.0,0.046013182868233554,1.0,0
46.600154876708984,-24.14398193359375,1.7558705806732178,-0.6317500370768867,0.5719467261751642,-0.5232292356805613,0.055199381408357624,4.0,2
46.54636764526367,-23.093008041381836,0.0976104736328125,0.004624213902392939,-0.03709127651481602,-0.999301182753371,0.0913690090000532,3.0,1
46.75746536254883,-22.940673828125,0.06502580642700195,-0.0,-0.0,-1.0,0.057905848781365364,1.0,1
47.00040054321289,-22.677288055419922,0.028789043426513672,-0.0,-0.0,-1.0,0.034951826755775066,2.0,1
47.14939880371094,-22.46698570251465,0.007068634033203125,-0.753220527822834,0.5451891940478714,0.3680048629566243,0.04282683080186542,4.0,1
47.232139587402344,-22.263702392578125,-0.003893613815307617,-0.0,-0.0,-1.0,0.041943436500473906,1.0,0
47.371761322021484,-21.905311584472656,-0.02318716049194336,-0.0,-0.0,-1.0,0.2018804894196474,2.0,0
45.3189697265625,-24.277626037597656,0.26510167121887207,-0.0,-0.0,-1.0,0.05843181680538001,1.0,1
45.484466552734375,-23.961734771728516,0.2501044273376465,-0.0,-0.0,-1.0,0.09906876520550492,2.0,1
45.66377258300781,-23.78925323486328,0.22643828392028809,-0.0,-0.0,-1.0,0.08772881010051399,1.0,1
45.86188507080078,-23.61800765991211,0.19882893562316895,-0.0,-0.0,-1.0,0.07200314052383307,2.0,1
46.11888885498047,-23.413204193115234,0.1617739200592041,0.38693117041636005,-0.8796657955241493,-0.2765363584505508,0.11268276512515549,3.0,1
46.31318283081055,-23.262182235717773,0.13301491737365723,-0.0,-0.0,-1.0,0.07281007779805643,2.0,1
45.342437744140625,-22.840320587158203,0.031412601470947266,-0.0,-0.0,-1.0,0.03486180073640631,1.0,1
45.51628112792969,-22.626827239990234,0.02064371109008789,-0.0,-0.0,-1.0,0.031886519952920994,1.0,1
45.82793426513672,-22.35692024230957,-0.01052093505859375,-0.0,-0.0,-1.0,0.030927065393629764,1.0,0
46.03377914428711,-21.95786476135254,-0.014154672622680664,-0.0,-0.0,-1.0,0.028021474880165834,1.0,0
47.638404846191406,-22.07107162475586,0.24208426475524902,-0.0,-0.0,-1.0,0.1685930610304612,1.0,1
45.221458435058594,-24.063488006591797,0.17087388038635254,-0.0,-0.0,-1.0,0.06076835137754872,1.0,1
45.493553161621094,-23.886131286621094,0.1324930191040039,-0.6517593784020799,-0.020353020910538,-0.7581526674784898,0.09199944222048867,3.0,1
45.720218658447266,-23.59644889831543,0.10717654228210449,-0.0,-0.0,-1.0,0.08258759763934564,2.0,1
46.02467346191406,-23.3287296295166,0.06487011909484863,0.5640913613048842,-0.25825667068529035,-0.7842859351969484,0.15144862028748943,3.0,1
46.35708999633789,-23.05057144165039,0.015984535217285156,-0.0,-0.0,-1.0,0.11110576715494141,2.0,1
46.587493896484375,-22.71337127685547,-0.013543367385864258,0.7103299298210362,-0.2812024683353305,-0.6452569740828523,0.04089435628205677,3.0,0
46.764564514160156,-22.37106704711914,-0.03498077392578125,-0.0,-0.0,-1.0,0.03165860322301047,1.0,0
46.934288024902344,-22.041072845458984,-0.057282447814941406,-0.5594474189082886,0.3734489465357763,-0.7399692357173863,0.026713603024317852,3.0,0
47.46677017211914,-22.029747009277344,0.3746638298034668,-0.0,-0.0,-1.0,0.1722332285594372,1.0,1
46.60139465332031,-24.167322158813477,1.480447769165039,-0.0,-0.0,-1.0,0.02058031062336994,1.0,2
46.53767395019531,-24.191635131835938,1.9969146251678467,-0.0,-0.0,-1.0,0.055199381408357645,2.0,2
45.28657913208008,-23.91712760925293,0.14963650703430176,-0.8370739915337488,0.11081340390987408,0.5357494957642652,0.08989088652234761,3.0,1
45.533714294433594,-23.645296096801758,0.11680269241333008,-0.0,-0.0,-1.0,0.07840221421738146,1.0,1
45.812076568603516,-23.333354949951172,0.07807493209838867,-0.0,-0.0,-1.0,0.08121701133003309,2.0,1
46.04591751098633,-23.054279327392578,0.04459834098815918,-0.0,-0.0,-1.0,0.09080523757648078,2.0,1
46.139400482177734,-23.06195640563965,0.025963783264160156,-0.0,-0.0,-1.0,0.06693456935714479,1.0,1
46.36664581298828,-22.713878631591797,-0.005679607391357422,-0.0,-0.0,-1.0,0.034672135166821015,2.0,0
46.619140625,-22.150598526000977,-0.03869223594665527,-0.0,-0.0,-1.0,0.051880075449390314,1.0,0
46.55731964111328,-22.376169204711914,-0.0326235294342041,-0.0,-0.0,-1.0,0.06771530339085188,2.0,0
47.52532958984375,-21.939218521118164,0.30353856086730957,-0.0,-0.0,-1.0,0.22297247415842641,1.0,1
46.031864166259766,-22.809011459350586,0.01034235954284668,-0.0,-0.0,-1.0,0.02643302638536699,1.0,1
46.16047668457031,-22.24888038635254,-0.009584426879882812,-0.0,-0.0,-1.0,0.04777264766198518,1.0,0
46.11505889892578,-22.59711456298828,-0.003964424133300781,-0.0,-0.0,-1.0,0.04815025988526111,1.0,0
45.327842712402344,-23.555334091186523,0.14128613471984863,-0.0,-0.0,-1.0,0.04330633199855723,2.0,1
45.777015686035156,-23.06355857849121,0.059660911560058594,-0.0,-0.0,-1.0,0.06810610260241153,1.0,1
45.71369934082031,-23.28527069091797,0.06751251220703125,-0.0,-0.0,-1.0,0.070454180229377,1.0,1
45.90894317626953,-22.930238723754883,0.034307241439819336,-0.0,-0.0,-1.0,0.050459277751064915,2.0,1
45.974639892578125,-21.87557029724121,0.0334625244140625,-0.0,-0.0,-1.0,0.02768012838428914,1.0,1
46.61585998535156,-24.1511173248291,1.739809513092041,-0.6317500370768867,0.5719467261751642,-0.5232292356805613,0.05595742297405347,4.0,2
46.428306579589844,-24.018531799316406,0.08675241470336914,-0.0,-0.0,-1.0,0.10195635827271497,1.0,1
46.24357223510742,-24.157785415649414,0.11896252632141113,-0.0,-0.0,-1.0,0.06645556766699907,1.0,1
46.58563232421875,-23.91422462463379,0.05830192565917969,-0.0,-0.0,-1.0,0.10326691548294684,1.0,1
45.69704818725586,-24.113208770751953,0.231414794921875,-0.0,-0.0,-1.0,0.0542288626846254,1.0,1
45.793697357177734,-23.757448196411133,0.2251272201538086,-0.0,-0.0,-1.0,0.09658093063414006,1.0,1
46.6214485168457,-21.99878692626953,-0.06001472473144531,-0.0,-0.0,-1.0,0.03633653527591431,1.0,0
46.61817169189453,-22.2380313873291,-0.05295729637145996,-0.0,-0.0,-1.0,0.04584340110458908,1.0,0
47.571739196777344,-22.146554946899414,0.25070762634277344,-0.0,-0.0,-1.0,0.15822365424638357,1.0,1
46.53968811035156,-22.255760192871094,-0.052106618881225586,-0.0,-0.0,-1.0,0.061211257663383055,1.0,0
46.50175094604492,-21.9771785736084,-0.05123543739318848,-0.0,-0.0,-1.0,0.038177685190679184,1.0,0
46.31471252441406,-22.800861358642578,-0.014662504196166992,-0.0,-0.0,-1.0,0.035872125756401474,1.0,0
46.38872528076172,-22.55553436279297,-0.027599096298217773,-0.0,-0.0,-1.0,0.04750862929136245,1.0,0
46.074432373046875,-22.985565185546875,0.01988816261291504,-0.0,-0.0,-1.0,0.05426518621877644,1.0,1
46.03111267089844,-22.910240173339844,0.025010108947753906,-0.0,-0.0,-1.0,0.05047414092147301,1.0,1
45.7919921875,-23.16512680053711,0.05993223190307617,-0.0,-0.0,-1.0,0.0793508607258329,1.0,1
45.5986213684082,-23.56154441833496,0.08921384811401367,-0.0,-0.0,-1.0,0.07540712274770137,1.0,1
46.54010009765625,-24.171646118164062,2.0008389949798584,-0.0,-0.0,-1.0,0.055199381408357645,2.0,3
46.944984436035156,-22.007307052612305,-0.048328399658203125,-0.5594474189082886,0.3734489465357763,-0.7399692357173863,0.02671360302431787,3.0,0
46.730621337890625,-22.45563507080078,-0.013636589050292969,-0.0,-0.0,-1.0,0.032215104153598906,1.0,0
46.53876495361328,-22.835678100585938,0.016077280044555664,-0.0,-0.0,-1.0,0.046868351554868924,1.0,1
46.575469970703125,-22.665447235107422,0.009135723114013672,-0.0,-0.0,-1.0,0.047760650769098016,1.0,1
45.85533142089844,-23.489648818969727,0.1096489429473877,-0.0,-0.0,-1.0,0.09984837117677516,1.0,1
45.876556396484375,-23.242929458618164,0.1046755313873291,-0.0,-0.0,-1.0,0.0537804242035591,1.0,1
45.511741638183594,-23.77537727355957,0.15526223182678223,-0.7666198765001537,-0.6370902008503213,-0.08006273125110186,0.08355503090699432,3.0,1
47.64768981933594,-21.8631591796875,-0.08415794372558594,-0.0,-0.0,-1.0,0.24042783172632878,2.0,0
47.39130401611328,-22.349231719970703,-0.04223513603210449,-0.0,-0.0,-1.0,0.04090624060489043,2.0,0
47.43364715576172,-22.079734802246094,-0.05279040336608887,-0.0,-0.0,-1.0,0.10676554361701679,2.0,0
47.21070098876953,-22.56253433227539,-0.015755891799926758,-0.0,-0.0,-1.0,0.04674383296938808,2.0,0
47.07447814941406,-22.73748779296875,0.00422978401184082,-0.0,-0.0,-1.0,0.035199978912956065,1.0,1
46.80866241455078,-22.934154510498047,0.04055452346801758,-0.0,-0.0,-1.0,0.0538383021692901,1.0,1
47.45686721801758,-22.18344497680664,0.011238813400268555,-0.0,-0.0,-1.0,0.07313009554168391,2.0,1
47.519317626953125,-21.921247482299805,0.007838249206542969,-0.0,-0.0,-1.0,0.23658814305621728,1.0,1
46.87489318847656,-22.840293884277344,0.06830692291259766,-0.0,-0.0,-1.0,0.042017842534829694,2.0,1
47.077903747558594,-22.597352981567383,0.04898881912231445,-0.0,-0.0,-1.0,0.05284272732328464,2.0,1
46.718807220458984,-22.998178482055664,0.0834188461303711,-0.0,-0.0,-1.0,0.05748075788061131,1.0,1
46.1970329284668,-23.36040496826172,0.13666987419128418,-0.0,-0.0,-1.0,0.08982561655375365,2.0,1
47.627525329589844,-22.285356521606445,-0.023436784744262695,-0.0,-0.0,-1.0,0.06380711750822886,2.0,0
47.36482238769531,-22.432491302490234,0.005539655685424805,-0.0,-0.0,-1.0,0.045142307346873065,1.0,1
45.77751159667969,-23.671825408935547,0.1675395965576172,-0.0,-0.0,-1.0,0.10550607369918484,1.0,1
45.85401916503906,-23.55877685546875,0.16138267517089844,-0.25958896514241664,-0.7741019663164739,0.5773904354258546,0.08732217804592936,3.0,1
45.42127990722656,-23.905750274658203,0.20310401916503906,-0.09067656218410769,-0.3651545829145243,-0.9265203136720703,0.10265075298939677,3.0,1
47.507667541503906,-22.030292510986328,0.2707252502441406,-0.0,-0.0,-1.0,0.23171748880453039,1.0,1
45.51007843017578,-22.11250877380371,-0.012554168701171875,-0.0,-0.0,-1.0,0.02449669651050466,1.0,0
46.85325241088867,-23.889835357666016,0.5791671276092529,-0.0,-0.0,-1.0,0.01571861531313186,1.0,1
46.02761459350586,-23.640323638916016,0.13802051544189453,-0.0,-0.0,-1.0,0.06422898578888613,1.0,1
46.28218078613281,-23.459125518798828,0.12439680099487305,-0.0,-0.0,-1.0,0.08619845188714856,1.0,1
46.611473083496094,-23.197315216064453,0.10684490203857422,-0.0,-0.0,-1.0,0.08891707808013496,1.0,1
45.30150604248047,-23.908935546875,0.1712644100189209,-0.8370739915337488,0.11081340390987408,0.5357494957642652,0.08989088652234761,3.0,1
45.54737854003906,-23.70571517944336,0.1576063632965088,-0.3502765538454466,-0.8558953420596912,-0.38045958953176906,0.06167544444058937,4.0,1
45.862464904785156,-23.603466033935547,0.13898372650146484,-0.0,-0.0,-1.0,0.08801019452475763,2.0,1
45.58946228027344,-23.48729705810547,0.0795137882232666,-0.0,-0.0,-1.0,0.05730772614549434,1.0,1
45.26166915893555,-22.768556594848633,0.06077313423156738,-0.0,-0.0,-1.0,0.03920578384280035,1.0,1
46.68603515625,-24.045639038085938,1.0318515300750732,-0.0,-0.0,-1.0,0.004927580367866009,1.0,2
46.6832275390625,-24.037275314331055,1.1293315887451172,-0.0,-0.0,-1.0,0.005514352119400757,2.0,2
46.586456298828125,-24.08957290649414,1.6417925357818604,-0.0,-0.0,-1.0,0.04477667555641902,2.0,2
45.60944366455078,-23.692867279052734,0.1349163055419922,-0.2574324698425771,0.8204115256963135,0.510542311640668,0.09289911874641428,4.0,1
45.9953727722168,-23.384292602539062,0.1183006763458252,-0.9263823992909376,-0.30026194152150426,-0.22728488017838516,0.18589064224207205,5.0,1
45.81517791748047,-23.553565979003906,0.12543344497680664,-0.9494887809599715,-0.23827015305715193,0.20420183396157007,0.08654212490043657,7.0,1
46.4574089050293,-23.049266815185547,0.0974276065826416,0.216264233992304,0.9105627718098755,-0.35228570747283916,0.0789540127114328,5.0,1
46.27067565917969,-23.198795318603516,0.10552167892456055,0.13062989445809023,-0.2604616423186541,-0.9566062740514186,0.12661905774153864,5.0,1
46.154090881347656,-23.391441345214844,0.1418008804321289,0.33838213104353576,-0.8719897939937232,-0.3537390741227485,0.11022918538286415,3.0,1
45.907127380371094,-23.505107879638672,0.1590566635131836,-0.0,-0.0,-1.0,0.08951293965928633,2.0,1
45.65520477294922,-23.72823715209961,0.17387890815734863,-0.0,-0.0,-1.0,0.10566714732462829,2.0,1
47.118438720703125,-23.02643394470215,-0.00586700439453125,-0.0,-0.0,-1.0,0.014837027767373055,1.0,0
46.63780975341797,-23.744810104370117,0.06414127349853516,-0.0,-0.0,-1.0,0.06780700935773658,1.0,1
46.531558990478516,-22.398332595825195,0.07358169555664062,-0.0,-0.0,-1.0,0.05770280985750437,1.0,1
46.6353645324707,-22.092363357543945,0.057927608489990234,-0.0,-0.0,-1.0,0.049158959000179824,1.0,1
47.378623962402344,-22.14364242553711,-0.07896566390991211,-0.0,-0.0,-1.0,0.05892386219167836,1.0,0
47.615211486816406,-21.916622161865234,-0.1051936149597168,-0.0,-0.0,-1.0,0.25872454770003844,1.0,0
46.936885833740234,-22.49919891357422,-0.028686046600341797,-0.0,-0.0,-1.0,0.043704138806981215,2.0,0
47.19286346435547,-22.280513763427734,-0.057599544525146484,-0.0,-0.0,-1.0,0.039752712674898896,2.0,0
46.72570037841797,-22.733726501464844,-0.005788326263427734,-0.0,-0.0,-1.0,0.032254519402760494,2.0,0
46.12710952758789,-23.107223510742188,0.06447553634643555,-0.0,-0.0,-1.0,0.10980974646963894,1.0,1
45.38518524169922,-22.240297317504883,-0.09018135070800781,-0.0,-0.0,-1.0,0.020723522487770492,1.0,0
45.450157165527344,-21.907228469848633,-0.08292579650878906,-0.0,-0.0,-1.0,0.01887164250627889,1.0,0
45.7073974609375,-23.4788818359375,0.12678289413452148,-0.0,-0.0,-1.0,0.054770944017803296,1.0,1
46.0059928894043,-23.3363037109375,0.12331533432006836,0.9156944069086321,-0.40169782603309584,0.01194193102195754,0.13271693996783623,4.0,1
46.23274612426758,-23.13457489013672,0.13126182556152344,-0.0,-0.0,-1.0,0.0697688170035083,1.0,1
46.57546615600586,-22.89618682861328,0.13568639755249023,-0.0,-0.0,-1.0,0.050610609385887406,1.0,1
45.29374313354492,-23.870258331298828,0.15113544464111328,-0.8370739915337488,0.11081340390987408,0.5357494957642652,0.08967413712482043,3.0,1
45.7098388671875,-23.637813568115234,0.16541433334350586,-0.8575331198580605,0.32093195130324087,0.4020443146957754,0.09351925004037648,4.0,1
46.90562438964844,-23.940929412841797,0.05912971496582031,-0.0,-0.0,-1.0,0.12104039578299355,1.0,1
46.69319534301758,-22.405794143676758,0.0411524772644043,-0.0,-0.0,-1.0,0.03906995574868993,1.0,1
46.85497283935547,-22.311721801757812,0.04268312454223633,-0.0,-0.0,-1.0,0.025512007289905336,1.0,1
47.07699966430664,-22.261747360229492,0.033583641052246094,-0.0,-0.0,-1.0,0.04853088215220135,1.0,1
47.52463150024414,-22.160614013671875,0.014935970306396484,-0.0,-0.0,-1.0,0.07740133785701757,1.0,1
45.52385330200195,-22.703704833984375,0.08150434494018555,-0.0,-0.0,-1.0,0.03463126029740531,1.0,1
45.81272888183594,-22.594995498657227,0.07688379287719727,-0.0,-0.0,-1.0,0.044808487570989014,1.0,1
46.05302810668945,-22.56512451171875,0.06422662734985352,-0.0,-0.0,-1.0,0.06078782640121539,1.0,1
46.30302810668945,-22.541175842285156,0.04992961883544922,-0.0,-0.0,-1.0,0.0667968148439654,1.0,1
46.524932861328125,-22.494321823120117,0.040749549865722656,-0.0,-0.0,-1.0,0.04093465796498565,1.0,1
45.375099182128906,-23.792064666748047,0.08478593826293945,-0.0,-0.0,-1.0,0.0627057823414749,1.0,1
45.578365325927734,-23.6365966796875,0.0686955451965332,-0.0,-0.0,-1.0,0.08604539975273479,1.0,1
45.92832946777344,-23.48284149169922,0.03256702423095703,-0.0,-0.0,-1.0,0.09104845345429848,1.0,1
46.348384857177734,-23.1746826171875,-0.0034770965576171875,-0.0,-0.0,-1.0,0.07951377871498787,1.0,0
46.18994903564453,-23.36498260498047,0.0053844451904296875,-0.0,-0.0,-1.0,0.08293786580538684,1.0,1
46.54948043823242,-22.918502807617188,-0.014249801635742188,-0.0,-0.0,-1.0,0.05717124584608111,1.0,0
46.85427474975586,-22.628684997558594,-0.03781318664550781,-0.0,-0.0,-1.0,0.031201536591897363,1.0,0
47.20499038696289,-22.260223388671875,-0.06389760971069336,-0.0,-0.0,-1.0,0.04134448201917643,2.0,0
47.100730895996094,-22.38936996459961,-0.05716657638549805,-0.0,-0.0,-1.0,0.04884279121166055,1.0,0
47.415618896484375,-22.100711822509766,-0.08388185501098633,-0.0,-0.0,-1.0,0.0735247069767655,2.0,0
47.666748046875,-21.877857208251953,-0.10626745223999023,-0.0,-0.0,-1.0,0.24042783172632873,2.0,0
45.450748443603516,-23.779129028320312,0.1352534294128418,-0.0,-0.0,-1.0,0.07433643804972692,2.0,1
45.80220031738281,-23.520963668823242,0.09543561935424805,-0.9055480334636773,-0.4193827287170881,-0.06403816006004756,0.066275973994646,3.0,1
46.223575592041016,-23.216712951660156,0.046373844146728516,-0.0,-0.0,-1.0,0.12222654387475455,2.0,1
46.05924606323242,-23.39501190185547,0.06313037872314453,-0.4458743498150901,-0.8777640876918725,-0.17528910558110997,0.12893032716680047,4.0,1
