x,y,z,nx,ny,nz,curvature,density,label
33.56058883666992,21.443872451782227,-1.8953367471694946,-0.0,-0.0,-1.0,0.11390573752767989,2.0,0
33.375030517578125,21.28557014465332,-1.9065946340560913,-0.0,-0.0,-1.0,0.034553845619381775,2.0,0
33.256866455078125,21.00531768798828,-1.8977667093276978,-0.0,-0.0,-1.0,0.09635135721268444,1.0,0
34.62642288208008,21.08487892150879,-1.7138673067092896,-0.0,-0.0,-1.0,0.22409396402083723,2.0,0
33.46955871582031,20.958511352539062,-1.8635302782058716,-0.0,-0.0,-1.0,0.23708663151162104,2.0,0
33.39980697631836,20.65286636352539,-1.8461886644363403,-0.0,-0.0,-1.0,0.07983521962352813,1.0,0
34.768653869628906,20.91919708251953,-1.6784828901290894,-0.0,-0.0,-1.0,0.16935711896833858,1.0,0
34.630924224853516,20.828798294067383,-1.6890634298324585,0.7856936993657739,-0.6178564022942011,-0.03064109856044913,0.15588384819759848,3.0,0
33.533241271972656,23.05382537841797,-2.0867116451263428,-0.0,-0.0,-1.0,0.014289362515600996,1.0,0
33.7549934387207,21.783740997314453,-1.9266846179962158,-0.0,-0.0,-1.0,0.012350920627643583,2.0,0
33.77103805541992,21.610511779785156,-1.9074194431304932,-0.0,-0.0,-1.0,0.04360620220759193,1.0,0
33.668277740478516,21.315780639648438,-1.8937604427337646,-0.0,-0.0,-1.0,0.08984901361445177,2.0,0
34.56824493408203,20.926788330078125,-1.727085828781128,-0.0,-0.0,-1.0,0.23243426769436867,1.0,0
33.49939727783203,21.05340003967285,-1.8934173583984375,-0.0,-0.0,-1.0,0.17632313824299914,1.0,0
34.42362976074219,20.7664737701416,-1.732515811920166,-0.0,-0.0,-1.0,0.16215350932010103,2.0,0
34.697547912597656,20.914897918701172,-1.707432746887207,-0.0,-0.0,-1.0,0.18383443856546638,2.0,0
35.04511642456055,22.811901092529297,-1.2204747200012207,-0.0,-0.0,-1.0,0.113334638419302,1.0,0
33.704383850097656,22.841907501220703,-2.0480053424835205,-0.0,-0.0,-1.0,0.02181792606256733,1.0,0
33.586578369140625,22.592361450195312,-2.0435171127319336,-0.0,-0.0,-1.0,0.01786560493173728,2.0,0
33.72634506225586,21.35082244873047,-1.9090824127197266,-0.0,-0.0,-1.0,0.07064442251832219,2.0,0
33.76277542114258,20.793210983276367,-1.8564491271972656,-0.0,-0.0,-1.0,0.0709783583921093,1.0,0
34.357826232910156,20.806915283203125,-1.7553491592407227,-0.0,-0.0,-1.0,0.1752386017267976,1.0,0
33.10682678222656,22.459318161010742,-1.9969854354858398,-0.0,-0.0,-1.0,0.021142773998049518,1.0,0
33.13512420654297,22.129520416259766,-1.9617743492126465,-0.0,-0.0,-1.0,0.014757882229112097,2.0,0
33.14067077636719,22.240577697753906,-1.971144437789917,0.4466250928342175,-0.17310046700775994,-0.877816754666099,0.01815698793512059,3.0,0
34.36672592163086,20.814002990722656,-1.6427252292633057,-0.0,-0.0,-1.0,0.14656800172223652,2.0,0
33.56007385253906,21.568832397460938,-1.8418443202972412,0.2697478908866426,0.26111830144420334,-0.9268512868918622,0.06380796564433251,3.0,0
33.23967742919922,21.94159698486328,-1.9276587963104248,0.5851969595377865,0.16112895749705708,-0.7947213207179242,0.014008170470048516,3.0,0
33.318687438964844,21.08716583251953,-1.8387978076934814,-0.0,-0.0,-1.0,0.12433303348875963,1.0,0
33.160728454589844,21.418289184570312,-1.8936834335327148,-0.0,-0.0,-1.0,0.04867951688861332,1.0,0
33.171165466308594,20.758834838867188,-1.8354589939117432,-0.0,-0.0,-1.0,0.06273136782911264,1.0,0
33.02378463745117,21.098739624023438,-1.8886034488677979,-0.0,-0.0,-1.0,0.008643561429544318,1.0,0
34.79933547973633,22.249465942382812,-1.9015977382659912,-0.0,-0.0,-1.0,0.07783934257024129,1.0,0
34.18531799316406,22.76762580871582,-2.0686373710632324,-0.0,-0.0,-1.0,0.05671421667528768,2.0,0
34.74298095703125,20.95490264892578,-1.7775213718414307,-0.033458879801841056,0.9551597800706221,-0.29419431996190265,0.1860046936971278,3.0,0
34.57044219970703,20.98447036743164,-1.8129541873931885,-0.0,-0.0,-1.0,0.1877995617844754,2.0,0
34.210693359375,21.046649932861328,-1.8870744705200195,-0.0,-0.0,-1.0,0.011238440583386258,2.0,0
34.315006256103516,20.68868637084961,-1.8333866596221924,-0.0,-0.0,-1.0,0.182613813638621,2.0,0
34.12425994873047,21.04218864440918,-1.903090000152588,-0.0,-0.0,-1.0,0.016293608929023744,1.0,0
34.41863250732422,21.2103271484375,-1.3157331943511963,-0.0,-0.0,-1.0,0.14930573758338844,1.0,0
32.925750732421875,23.12671661376953,-2.0502781867980957,-0.0,-0.0,-1.0,0.011484723397520269,1.0,0
32.898521423339844,22.681182861328125,-2.002420425415039,-0.0,-0.0,-1.0,0.021326383429844917,1.0,0
32.89284133911133,22.89920425415039,-2.028667449951172,-0.0,-0.0,-1.0,0.010073118024661046,1.0,0
33.01127624511719,22.045665740966797,-1.911805272102356,-0.0,-0.0,-1.0,0.027324930627283157,1.0,0
32.95204162597656,22.29278564453125,-1.9493180513381958,-0.0,-0.0,-1.0,0.038808572492574904,1.0,0
32.96851348876953,21.793893814086914,-1.8922077417373657,-0.0,-0.0,-1.0,0.016768378112847086,1.0,0
32.951934814453125,21.953998565673828,-1.912117600440979,-0.0,-0.0,-1.0,0.02655489932622711,1.0,0
32.91094970703125,21.44114112854004,-1.8656481504440308,-0.0,-0.0,-1.0,0.00925453556613156,1.0,0
32.81352996826172,21.01581573486328,-1.8412147760391235,-0.0,-0.0,-1.0,0.08975462314769637,1.0,0
32.7816162109375,20.65469741821289,-1.8132554292678833,-0.0,-0.0,-1.0,0.10167190515136036,1.0,0
35.06654357910156,21.980846405029297,-1.5630742311477661,-0.0,-0.0,-1.0,0.079956148657973,1.0,0
33.487247467041016,20.935680389404297,-1.711718201637268,-0.47071399557912413,-0.8054480002881699,-0.3601136670521187,0.20661817456046336,3.0,0
34.54515838623047,23.0089111328125,-2.105942726135254,-0.0,-0.0,-1.0,0.03025543772789007,1.0,0
34.49871063232422,23.038854598999023,-2.1193292140960693,-0.0,-0.0,-1.0,0.02936254348686847,2.0,0
34.45283126831055,22.7191162109375,-2.086076498031616,-0.0,-0.0,-1.0,0.02522119442403677,1.0,0
34.76171112060547,22.32424545288086,-1.9715867042541504,0.530387237575257,-0.4191688445933348,-0.7368764197201434,0.06315286195660984,3.0,0
34.7305908203125,22.287681579589844,-1.9731872081756592,0.6641091017059774,-0.20616885555507097,-0.7186469954229213,0.11767048519572686,5.0,0
34.81209945678711,21.050785064697266,-1.8025202751159668,0.09204187711423988,0.03282323418008424,-0.9952140112333864,0.18038432448286965,3.0,0
34.56062698364258,21.199790954589844,-1.8741817474365234,-0.0,-0.0,-1.0,0.09976694762798596,2.0,0
34.408790588378906,21.50421142578125,-1.9427454471588135,-0.41768083539111767,0.751851112511395,-0.5101594107358554,0.08039058852246996,3.0,0
34.77645492553711,21.02190399169922,-1.8067693710327148,-0.0,-0.0,-1.0,0.17918045390452442,2.0,0
34.60826110839844,20.908897399902344,-1.8300518989562988,0.35922399884922607,0.6793334114111083,0.6398939246401057,0.21151045769257137,5.0,0
34.258575439453125,20.970054626464844,-1.9132194519042969,-0.0,-0.0,-1.0,0.012705406014061778,1.0,0
35.17671203613281,22.75428009033203,-2.102072238922119,-0.0,-0.0,-1.0,0.02881508321429522,2.0,0
32.96472930908203,22.929302215576172,-2.092308521270752,-0.0,-0.0,-1.0,0.010962490073946233,2.0,0
32.97085189819336,22.4866943359375,-2.038463592529297,-0.0,-0.0,-1.0,0.023734641355063056,1.0,0
33.05198669433594,22.17911148071289,-1.9856222867965698,-0.0,-0.0,-1.0,0.020360387886904214,1.0,0
33.03764724731445,21.970640182495117,-1.9650899171829224,-0.0,-0.0,-1.0,0.019715879866986533,2.0,0
32.96987533569336,21.676658630371094,-1.9473124742507935,-0.0,-0.0,-1.0,0.014817961521623978,1.0,0
33.41941452026367,20.986175537109375,-1.7747334241867065,0.23425901157529028,-0.9258450690881008,-0.29653604088039226,0.16117238578645696,3.0,0
32.91423797607422,21.16716957092285,-1.9056297540664673,-0.0,-0.0,-1.0,0.04459922211008923,1.0,0
32.8591423034668,20.83734893798828,-1.8848234415054321,-0.0,-0.0,-1.0,0.07460651445117851,2.0,0
34.66915512084961,22.737091064453125,-2.1065750122070312,-0.0,-0.0,-1.0,0.02698027064626542,2.0,0
32.74267578125,22.979167938232422,-2.0641722679138184,-0.0,-0.0,-1.0,0.010402292500643125,1.0,0
34.35747528076172,21.528427124023438,-1.9544717073440552,-0.0,-0.0,-1.0,0.02591512671252457,2.0,0
34.66044235229492,21.107587814331055,-1.8125358819961548,-0.0,-0.0,-1.0,0.19614487889170767,1.0,0
34.36309051513672,21.288368225097656,-1.911927342414856,-0.0,-0.0,-1.0,0.03540505272413034,1.0,0
34.100486755371094,20.867380142211914,-1.903138518333435,-0.0,-0.0,-1.0,0.01378154559490899,1.0,0
33.396095275878906,23.008432388305664,-2.105656147003174,-0.0,-0.0,-1.0,0.009001505424865358,1.0,0
33.30467224121094,22.674720764160156,-2.0640363693237305,-0.0,-0.0,-1.0,0.00964569742749381,2.0,0
33.21847915649414,22.196548461914062,-1.9978636503219604,-0.0,-0.0,-1.0,0.019260007450069287,2.0,0
33.20721435546875,22.20484161376953,-2.001718521118164,-0.0,-0.0,-1.0,0.01891115732999566,2.0,0
33.16725158691406,21.847665786743164,-1.949198603630066,-0.0,-0.0,-1.0,0.021924751626519728,1.0,0
33.03977584838867,21.482666015625,-1.9172662496566772,-0.0,-0.0,-1.0,0.01398061360095923,1.0,0
33.40037536621094,20.973487854003906,-1.750160574913025,0.3995169631017917,-0.7427212748470977,-0.5373558449327815,0.16624114733493978,4.0,0
32.89341735839844,21.09891700744629,-1.889877200126648,-0.0,-0.0,-1.0,0.04415055080964003,1.0,0
32.8523063659668,21.046409606933594,-1.8912640810012817,-0.0,-0.0,-1.0,0.066467955682484,1.0,0
32.76853942871094,20.69012451171875,-1.8569086790084839,-0.0,-0.0,-1.0,0.10167190515136032,2.0,0
32.77362060546875,20.805927276611328,-1.8730989694595337,-0.0,-0.0,-1.0,0.10352986357464151,1.0,0
34.59846115112305,20.910964965820312,-1.4678386449813843,-0.0,-0.0,-1.0,0.15236745665597445,1.0,0
34.35460662841797,21.117647171020508,-1.5577977895736694,-0.0,-0.0,-1.0,0.13437314448831048,2.0,0
33.34442138671875,22.95189666748047,-2.054287910461426,-0.0,-0.0,-1.0,0.010485481614386791,2.0,0
33.284210205078125,22.530452728271484,-2.0027823448181152,-0.0,-0.0,-1.0,0.016033619784757105,1.0,0
33.15129089355469,22.139347076416016,-1.943061351776123,-0.0,-0.0,-1.0,0.01539973705805001,2.0,0
32.853599548339844,20.865985870361328,-1.8557113409042358,-0.0,-0.0,-1.0,0.10500678473238058,2.0,0
33.070533752441406,20.698833465576172,-1.8540741205215454,-0.0,-0.0,-1.0,0.06977149751178735,2.0,0
34.37112808227539,21.131128311157227,-1.5343929529190063,0.6662505127532582,-0.7445761933545552,-0.04143122669751196,0.1343731444883105,3.0,0
35.115535736083984,21.060501098632812,-1.8130918741226196,-0.0,-0.0,-1.0,0.16859736070938833,1.0,0
34.86360168457031,21.834224700927734,-1.9281588792800903,-0.0,-0.0,-1.0,0.12392920987902269,2.0,0
35.07306671142578,21.783790588378906,-1.9399570226669312,-0.0,-0.0,-1.0,0.07869887338148131,1.0,0
34.77027130126953,22.174869537353516,-1.9821583032608032,-0.784150294918326,-0.28079833551324795,-0.5534081764416676,0.10402356244126383,3.0,0
34.993194580078125,22.157485961914062,-2.0007405281066895,-0.0,-0.0,-1.0,0.05124238155428752,2.0,0
34.96133804321289,22.703014373779297,-2.099292278289795,-0.0,-0.0,-1.0,0.03444379039957156,2.0,0
34.004417419433594,23.086288452148438,-2.0842719078063965,-0.0,-0.0,-1.0,0.06633532310347541,2.0,0
34.40882110595703,22.96759033203125,-2.097722053527832,-0.0,-0.0,-1.0,0.05416575241120197,1.0,0
34.81740188598633,22.945446014404297,-2.1313419342041016,-0.0,-0.0,-1.0,0.033497296285021134,1.0,0
35.16813659667969,20.693756103515625,-1.7531496286392212,-0.0,-0.0,-1.0,0.0576960420583829,1.0,0
34.523963928222656,20.97076416015625,-1.7356454133987427,-0.0,-0.0,-1.0,0.24348354833704078,1.0,0
35.12665557861328,20.764474868774414,-1.7612920999526978,0.2801896805407243,0.9180729758152397,0.2804206732682832,0.07028020566459664,3.0,0
34.529205322265625,22.289886474609375,-2.0331788063049316,-0.0,-0.0,-1.0,0.027607877846948185,2.0,0
34.55954360961914,22.14435386657715,-2.006901741027832,-0.0,-0.0,-1.0,0.06931443755358233,1.0,0
33.37161636352539,22.929895401000977,-2.0599207878112793,0.5800406516081195,0.7784208575112406,-0.24002877134521464,0.008572105557797133,3.0,0
33.60401916503906,22.851886749267578,-2.063598155975342,0.33549249128732467,0.9331021010576024,0.12948072169907082,0.015959496347609473,3.0,0
33.97901916503906,22.663576126098633,-2.0579023361206055,-0.0,-0.0,-1.0,0.013373413585745427,2.0,0
34.35159683227539,22.516033172607422,-2.0620334148406982,-0.0,-0.0,-1.0,0.021420569651018757,1.0,0
33.25249481201172,23.093822479248047,-2.084246873855591,-0.0,-0.0,-1.0,0.009085804788160772,1.0,0
34.51532745361328,20.812274932861328,-1.7389276027679443,-0.0,-0.0,-1.0,0.22718502284445022,1.0,0
35.069366455078125,20.680011749267578,-1.7719902992248535,-0.0,-0.0,-1.0,0.07754158873897012,2.0,0
34.65061569213867,21.027645111083984,-1.7950503826141357,-0.0,-0.0,-1.0,0.22059431449291453,2.0,0
34.976497650146484,20.996536254882812,-1.8230199813842773,0.9146970774298095,-0.1018045116932779,-0.39110752733776216,0.045003916307290705,3.0,0
34.639549255371094,21.456340789794922,-1.878143548965454,-0.5296766226338538,0.773193718573707,-0.3487322024037316,0.11902013883598342,3.0,0
34.45901107788086,21.649274826049805,-1.8982574939727783,-0.0,-0.0,-1.0,0.03251218156911364,2.0,0
34.69245529174805,21.66326141357422,-1.9243266582489014,-0.0,-0.0,-1.0,0.0870685178153315,1.0,0
34.5975456237793,22.0655517578125,-1.9948363304138184,-0.775956329001415,0.4863493750364646,-0.40169149964156314,0.06973794296317938,3.0,0
34.91756820678711,21.398666381835938,-1.8200594186782837,-0.0,-0.0,-1.0,0.1642617659425343,2.0,0
35.12946319580078,21.411706924438477,-1.8206759691238403,-0.0,-0.0,-1.0,0.11932945620384965,2.0,0
34.936275482177734,22.222747802734375,-2.0481796264648438,-0.0,-0.0,-1.0,0.05410945481996908,1.0,0
35.0930290222168,22.111541748046875,-2.014037609100342,-0.0,-0.0,-1.0,0.053766168332162814,2.0,0
35.096248626708984,22.350719451904297,-2.080451011657715,-0.0,-0.0,-1.0,0.04153138849096001,1.0,0
34.396785736083984,20.835407257080078,-1.6731046438217163,-0.0,-0.0,-1.0,0.16811329239189457,2.0,0
34.67708969116211,21.034149169921875,-1.723549723625183,-0.0,-0.0,-1.0,0.24819987025462834,1.0,0
33.89148712158203,20.95225715637207,-1.932910680770874,-0.16659697272882434,-0.9412325018402737,-0.2938142715340601,0.03598237608418934,3.0,0
34.03293228149414,20.780662536621094,-1.9108483791351318,-0.0,-0.0,-1.0,0.012674292499398186,1.0,0
34.67255401611328,20.902816772460938,-1.5411465167999268,-0.0,-0.0,-1.0,0.15507307998189415,1.0,0
34.45419692993164,21.12411117553711,-1.5602378845214844,-0.0,-0.0,-1.0,0.1447207960667484,1.0,0
34.91086959838867,21.588653564453125,-1.6961524486541748,-0.0,-0.0,-1.0,0.17124579057610007,2.0,0
35.10131072998047,20.68781280517578,-1.7957154512405396,-0.0,-0.0,-1.0,0.0710084171778093,2.0,0
33.2110710144043,20.76307487487793,-1.8716710805892944,-0.0,-0.0,-1.0,0.08522562317021481,1.0,0
33.07854461669922,20.674030303955078,-1.8584855794906616,-0.0,-0.0,-1.0,0.06977149751178736,2.0,0
34.63256072998047,21.143157958984375,-1.5650959014892578,-0.0,-0.0,-1.0,0.1853480503112455,1.0,0
34.79877853393555,21.589866638183594,-1.6984654664993286,-0.0,-0.0,-1.0,0.15856918874625164,1.0,0
34.65579605102539,21.478408813476562,-1.69613778591156,-0.0,-0.0,-1.0,0.10856301188369459,1.0,0
35.195621490478516,20.81229019165039,-1.6115232706069946,-0.0,-0.0,-1.0,0.05722544569292022,1.0,0
33.33390426635742,20.943649291992188,-1.7756686210632324,-0.0,-0.0,-1.0,0.11088506367455869,1.0,0
34.69599151611328,20.77739715576172,-1.3885422945022583,0.2689821253873982,-0.562508888877482,-0.781813511111121,0.15104867256975638,3.0,0
34.47167205810547,20.87610626220703,-1.956062912940979,-0.0,-0.0,-1.0,0.07865653496092485,2.0,0
32.90574645996094,22.456008911132812,-1.855379343032837,-0.0,-0.0,-1.0,0.025160356478909796,1.0,0
32.755619049072266,22.355390548706055,-1.8434779644012451,-0.0,-0.0,-1.0,0.0255075013788954,1.0,0
32.84027099609375,22.448570251464844,-2.0507755279541016,-0.0,-0.0,-1.0,0.024123214016074316,1.0,0
34.9080810546875,21.293981552124023,-1.7269763946533203,-0.0,-0.0,-1.0,0.21925314809350477,2.0,0
34.6488037109375,20.850358963012695,-1.6653566360473633,0.7856936993657739,-0.6178564022942011,-0.03064109856044913,0.151219899614025,3.0,0
35.026885986328125,22.10584259033203,-1.529568076133728,-0.0,-0.0,-1.0,0.10834609706036488,1.0,0
34.694175720214844,20.744873046875,-1.365766167640686,0.2689821253873982,-0.562508888877482,-0.781813511111121,0.13851859796478638,3.0,0
34.63413619995117,22.99901008605957,-2.1003990173339844,-0.0,-0.0,-1.0,0.02919969894795864,2.0,0
34.2119026184082,22.74224281311035,-2.0635499954223633,-0.0,-0.0,-1.0,0.05926714777254788,2.0,0
35.01044845581055,21.063701629638672,-1.8150027990341187,0.7565401356884807,0.36125386053013125,-0.5451079446719995,0.060288876132580396,4.0,0
34.654232025146484,20.867536544799805,-1.7854329347610474,0.4431486519448806,0.8447811688991207,0.29994007560322855,0.18876120241657315,3.0,0
34.49087142944336,21.567461013793945,-1.8886035680770874,-0.0,-0.0,-1.0,0.036730834915029514,1.0,0
34.4559211730957,20.873764038085938,-1.7861851453781128,-0.0,-0.0,-1.0,0.2109944010530527,1.0,0
34.326690673828125,21.563539505004883,-1.8881911039352417,-0.0,-0.0,-1.0,0.07341464454703002,1.0,0
34.09578323364258,21.853004455566406,-1.9316684007644653,-0.0,-0.0,-1.0,0.008370330316951556,1.0,0
33.670326232910156,21.28646469116211,-1.8489292860031128,-0.0,-0.0,-1.0,0.08382257390713815,2.0,0
33.43690872192383,21.046628952026367,-1.8142634630203247,-0.0,-0.0,-1.0,0.1949972908977005,1.0,0
33.63329315185547,21.42603302001953,-1.8699053525924683,-0.0,-0.0,-1.0,0.10514543105070936,2.0,0
33.47554016113281,21.706111907958984,-1.9125791788101196,-0.0,-0.0,-1.0,0.034706826992603974,2.0,0
32.94287109375,21.522666931152344,-1.8889390230178833,-0.0,-0.0,-1.0,0.013814376324634753,1.0,0
32.97389221191406,21.628250122070312,-1.904523253440857,-0.0,-0.0,-1.0,0.01439744397124343,2.0,0
34.480445861816406,21.196752548217773,-1.4470101594924927,-0.0,-0.0,-1.0,0.18670447854091693,1.0,0
34.82109451293945,20.98543357849121,-1.844071626663208,-0.0,-0.0,-1.0,0.07647425639861904,1.0,0
34.647132873535156,21.5841121673584,-1.9333112239837646,0.6661170230155293,-0.23139783041666337,-0.7090438320212581,0.06255854363211501,4.0,0
34.56813049316406,20.930662155151367,-1.8261828422546387,-0.0,-0.0,-1.0,0.24223452681274865,2.0,0
34.33308410644531,21.657541275024414,-1.9348523616790771,-0.5625539630827653,-0.26626520694105216,-0.7827105967038605,0.02903878647814183,3.0,0
34.052459716796875,21.76227569580078,-1.9431202411651611,-0.0,-0.0,-1.0,0.011199408220898956,1.0,0
33.73966598510742,21.459348678588867,-1.8848330974578857,-0.26876418181512196,0.915356468350219,-0.29981385962403845,0.0705780246062826,3.0,0
33.45001220703125,21.648799896240234,-1.9079957008361816,-0.0,-0.0,-1.0,0.057299041472814456,1.0,0
33.09048843383789,21.913814544677734,-1.9429264068603516,-0.0,-0.0,-1.0,0.020337478543298124,2.0,0
32.74431228637695,21.97281265258789,-1.9452497959136963,-0.0,-0.0,-1.0,0.02353931902819043,1.0,0
35.023277282714844,21.96222496032715,-1.682861328125,-0.41948834936386525,0.9076613643421917,-0.013430280281906737,0.1702866877950995,3.0,0
35.03203582763672,21.966869354248047,-1.6425472497940063,-0.6775071659441964,0.7354974370297808,-0.005249782556139235,0.16778983602872835,4.0,0
34.90220260620117,21.409643173217773,-1.6888707876205444,-0.7159522669474865,-0.5974948487834951,-0.36112637279758963,0.17796757646147804,4.0,0
34.624629974365234,20.804365158081055,-1.5745214223861694,0.8363372711140658,-0.16025553639929685,-0.5242691408035105,0.13591248937816394,3.0,0
34.4239616394043,20.82889747619629,-1.564900279045105,-0.0,-0.0,-1.0,0.15555826132018424,1.0,0
34.95613098144531,21.43911361694336,-1.7016490697860718,-0.0,-0.0,-1.0,0.18990917814654276,2.0,0
34.43758010864258,20.904014587402344,-1.57947838306427,-0.0,-0.0,-1.0,0.24762037416742078,1.0,0
34.940731048583984,20.69934844970703,-1.793755054473877,-0.0,-0.0,-1.0,0.0694460778083802,2.0,0
34.8129768371582,20.849773406982422,-1.8073999881744385,-0.0,-0.0,-1.0,0.1419964883137136,2.0,0
34.63701629638672,21.167816162109375,-1.8462886810302734,-0.0,-0.0,-1.0,0.1732545543408752,2.0,0
34.646697998046875,21.552349090576172,-1.915402889251709,0.8512569513789171,-0.26651413994330303,-0.45203076879716186,0.06596581497071123,3.0,0
34.411922454833984,21.637649536132812,-1.9090101718902588,0.020634816413163122,0.0030358485499196856,-0.9997824703280095,0.026841391882037373,4.0,0
34.376461029052734,22.030872344970703,-1.9766514301300049,-0.0,-0.0,-1.0,0.013377981032866694,1.0,0
34.21919250488281,22.601070404052734,-2.066737413406372,-0.0,-0.0,-1.0,0.01768387842730357,2.0,0
34.083282470703125,22.551387786865234,-2.0460293292999268,-0.0,-0.0,-1.0,0.00906070194249756,1.0,0
33.88406753540039,22.77724838256836,-2.071063756942749,-0.0,-0.0,-1.0,0.03939010306239628,1.0,0
33.61573791503906,21.539142608642578,-1.8204007148742676,0.42455573508409367,-0.24123238056873691,-0.8726736883694529,0.11283187747229668,4.0,0
33.62540054321289,22.900066375732422,-2.072814702987671,-0.0,-0.0,-1.0,0.021002859040937988,1.0,0
33.45084762573242,23.08782958984375,-2.0941388607025146,-0.0,-0.0,-1.0,0.010295440433484649,1.0,0
33.518341064453125,20.87015151977539,-1.6900975704193115,-0.4397490651575597,-0.3224812624774074,-0.8382282475817848,0.21806770311708173,4.0,0
34.83384704589844,21.029279708862305,-1.271805763244629,-0.0,-0.0,-1.0,0.16414118160783056,1.0,0
35.015316009521484,21.958988189697266,-1.6529461145401,-0.41948834936386525,0.9076613643421917,-0.013430280281906737,0.1865424660069655,3.0,0
33.92842102050781,20.93679428100586,-1.9043174982070923,-0.16659697272882434,-0.9412325018402737,-0.2938142715340601,0.012407994493094631,3.0,0
33.44739532470703,21.209413528442383,-1.909141182899475,-0.10404029382886826,0.4185471075316581,-0.902216124904053,0.07522560839113945,3.0,0
33.24770736694336,21.26554298400879,-1.900689959526062,-0.0,-0.0,-1.0,0.061376875533569665,2.0,0
32.91960906982422,21.31139373779297,-1.878116488456726,-0.0,-0.0,-1.0,0.010076615914391657,1.0,0
32.77179718017578,21.487199783325195,-1.9009493589401245,-0.0,-0.0,-1.0,0.009963971198210998,1.0,0
34.51864242553711,21.20181655883789,-1.4814311265945435,-0.0,-0.0,-1.0,0.1751753725426838,1.0,0
35.01063919067383,22.029354095458984,-1.6850342750549316,-0.0,-0.0,-1.0,0.17511639842256546,1.0,0
34.50580978393555,20.712799072265625,-1.8897316455841064,-0.0,-0.0,-1.0,0.18825803675032807,2.0,0
34.402530670166016,20.7762451171875,-1.891808271408081,-0.0,-0.0,-1.0,0.15579114657524717,2.0,0
34.25515365600586,21.078750610351562,-1.9413578510284424,-0.0,-0.0,-1.0,0.007231524290542369,1.0,0
33.833858489990234,21.22888946533203,-1.93092942237854,-0.0,-0.0,-1.0,0.015960155402419268,1.0,0
33.53071212768555,21.376497268676758,-1.9340665340423584,-0.0,-0.0,-1.0,0.07340353286320683,2.0,0
33.36329650878906,21.468408584594727,-1.939018726348877,-0.18421275374997026,-0.1699659963445726,-0.9680791400719518,0.026875476579109013,3.0,0
33.08296203613281,21.5203914642334,-1.9252164363861084,-0.0,-0.0,-1.0,0.016917327847137658,1.0,0
32.72569274902344,21.75315284729004,-1.948397159576416,-0.0,-0.0,-1.0,0.0116245437159624,1.0,0
34.270015716552734,22.051822662353516,-2.0293807983398438,-0.0,-0.0,-1.0,0.007131086557117852,1.0,0
35.12553787231445,22.05211067199707,-1.6064941883087158,-0.0,-0.0,-1.0,0.10069431982563262,1.0,0
34.87147903442383,20.785545349121094,-1.822843313217163,-0.0,-0.0,-1.0,0.0894784558336414,1.0,0
34.747684478759766,21.089794158935547,-1.8716895580291748,-0.0,-0.0,-1.0,0.1580817770797749,1.0,0
34.67338943481445,20.86803436279297,-1.8151392936706543,0.3959300192302362,0.8116347040930082,0.4295212765209661,0.2391159065808534,5.0,0
34.63673782348633,21.176725387573242,-1.876819133758545,0.5920640593011083,-0.08901902715916551,-0.8009592764226715,0.1410752578316224,4.0,0
34.543697357177734,21.55591583251953,-1.948868751525879,-0.0,-0.0,-1.0,0.034118914068581224,2.0,0
34.24265670776367,21.686019897460938,-1.943267583847046,-0.47102917813197337,0.11139410148920505,-0.8750559224996596,0.024766161733491193,4.0,0
34.162879943847656,21.93486785888672,-1.9911561012268066,-0.0,-0.0,-1.0,0.009140352759887515,1.0,0
33.95704650878906,22.189739227294922,-2.027888536453247,-0.0,-0.0,-1.0,0.00658415728374888,1.0,0
33.66703796386719,21.523975372314453,-1.8431065082550049,-0.0,-0.0,-1.0,0.11203890979866546,2.0,0
33.7728271484375,21.77459716796875,-1.9121768474578857,-0.0,-0.0,-1.0,0.013264410835877087,2.0,0
33.66276550292969,22.311473846435547,-2.0267186164855957,-0.0,-0.0,-1.0,0.01571071614491389,1.0,0
33.36174011230469,22.440032958984375,-2.0281145572662354,-0.0,-0.0,-1.0,0.018383165708516867,2.0,0
33.205238342285156,22.588470458984375,-2.0495810508728027,-0.0,-0.0,-1.0,0.010399495345086836,1.0,0
32.9505615234375,22.67205047607422,-2.0474369525909424,-0.0,-0.0,-1.0,0.018099268913104184,1.0,0
34.47796630859375,21.189796447753906,-1.3799684047698975,-0.0,-0.0,-1.0,0.15292827462416134,1.0,0
35.20906066894531,23.063945770263672,-2.110442638397217,-0.0,-0.0,-1.0,0.08465655866410154,2.0,0
35.17359924316406,22.08144187927246,-1.9415277242660522,-0.5467812349854554,0.08448544900039388,-0.8330020948202846,0.060238548649591904,4.0,0
35.171138763427734,20.97681427001953,-1.7725263833999634,-0.0,-0.0,-1.0,0.0993720212157291,1.0,0
34.84369659423828,21.410213470458984,-1.7767852544784546,-0.0,-0.0,-1.0,0.19847437808791876,1.0,0
34.775787353515625,21.443355560302734,-1.769614338874817,-0.0,-0.0,-1.0,0.21398539961303897,1.0,0
34.71431350708008,21.074506759643555,-1.7020410299301147,-0.0,-0.0,-1.0,0.22560076455505,2.0,0
34.37586975097656,20.73667335510254,-1.588650107383728,-0.0,-0.0,-1.0,0.13162354655203867,1.0,0
35.17870330810547,22.986236572265625,-2.1245179176330566,-0.0,-0.0,-1.0,0.0846565586641015,1.0,0
35.1872673034668,22.067964553833008,-1.9776839017868042,-0.8872808548321195,0.2065336451524351,-0.4124033681584462,0.05060050478704817,3.0,0
35.125980377197266,21.55638885498047,-1.8885382413864136,-0.7122888730161131,0.2192018085077083,-0.6667796701492821,0.1591842092931882,3.0,0
35.10394287109375,22.04613494873047,-1.9588860273361206,-0.42263701644380225,0.9026700727279585,-0.08102278773766877,0.05083990226185415,4.0,0
35.175323486328125,20.734691619873047,-1.7814885377883911,0.24885457599243427,0.9190761145005983,-0.3055658615783322,0.05026014955924377,3.0,0
35.03955841064453,21.13258171081543,-1.8105121850967407,-0.0,-0.0,-1.0,0.09993605129145246,1.0,0
34.679264068603516,21.458843231201172,-1.7903417348861694,-0.0,-0.0,-1.0,0.13447545294724278,1.0,0
34.681175231933594,20.956174850463867,-1.7167261838912964,0.46976899827249513,-0.012403052027257557,-0.8827022445663458,0.25542089917335997,3.0,0
34.573936462402344,21.193016052246094,-1.73088538646698,-0.0,-0.0,-1.0,0.17797452774074188,1.0,0
34.597694396972656,21.040815353393555,-1.507415533065796,-0.0,-0.0,-1.0,0.19675585180133745,1.0,0
35.20185852050781,22.68528175354004,-1.7681975364685059,-0.0,-0.0,-1.0,0.06063552688198465,1.0,0
35.20499038696289,21.099485397338867,-1.6667463779449463,-0.0,-0.0,-1.0,0.09276536662559497,2.0,0
35.163177490234375,21.383134841918945,-1.673285961151123,-0.0,-0.0,-1.0,0.145921057597632,1.0,0
34.85087203979492,21.239917755126953,-1.6019468307495117,-0.0,-0.0,-1.0,0.16043746836860354,1.0,0
34.3373908996582,21.36469841003418,-1.5052978992462158,-0.0,-0.0,-1.0,0.13303371199669586,1.0,0
34.35895919799805,22.612804412841797,-2.095902442932129,0.7403125148308274,-0.5265064185662358,-0.41800522914601473,0.02244190003276335,3.0,0
34.35395050048828,22.844703674316406,-2.1123955249786377,-0.0,-0.0,-1.0,0.05287718128621835,1.0,0
34.289039611816406,22.283336639404297,-2.0563693046569824,0.08263633299837142,-0.5287582294924289,-0.8447401797077099,0.008311731866325379,3.0,0
34.057647705078125,21.69184112548828,-1.9648799896240234,-0.0,-0.0,-1.0,0.01255228897015156,1.0,0
34.047019958496094,21.88250160217285,-1.9741966724395752,-0.0,-0.0,-1.0,0.006012929532880997,1.0,0
34.14771270751953,21.522594451904297,-1.9760768413543701,-0.0,-0.0,-1.0,0.012142542267373655,1.0,0
34.921112060546875,22.065982818603516,-1.6569700241088867,-0.0,-0.0,-1.0,0.1511024039825005,1.0,0
35.1185302734375,21.176280975341797,-1.6567492485046387,-0.0,-0.0,-1.0,0.14238622857751368,1.0,0
34.09526062011719,21.245487213134766,-1.9489028453826904,-0.0,-0.0,-1.0,0.009137223117308768,2.0,0
34.061893463134766,20.899171829223633,-1.9244461059570312,-0.0,-0.0,-1.0,0.014533407172355281,2.0,0
34.078407287597656,21.097732543945312,-1.9375205039978027,-0.0,-0.0,-1.0,0.013317097684300705,1.0,0
35.20847702026367,21.885093688964844,-1.9603683948516846,-0.0,-0.0,-1.0,0.026046277078817296,1.0,0
35.139408111572266,22.064775466918945,-1.94281005859375,-0.4638256035503227,0.8858560123356183,0.011177428148543403,0.05603091573794774,4.0,0
35.1245002746582,21.68468475341797,-1.9450054168701172,0.5107549530524286,-0.10752775809698686,-0.8529754739563424,0.12190557641260302,3.0,0
34.832122802734375,22.206533432006836,-1.873955488204956,-0.0,-0.0,-1.0,0.06509827062990897,1.0,0
35.13457489013672,21.142314910888672,-1.8540868759155273,-0.0,-0.0,-1.0,0.17555468263516066,1.0,0
34.917293548583984,20.833024978637695,-1.8294501304626465,-0.0,-0.0,-1.0,0.08266520452262141,1.0,0
32.84288787841797,20.687515258789062,-1.2570877075195312,-0.0,-0.0,-1.0,0.25016169479320294,1.0,0
34.31443786621094,21.074115753173828,-1.450727939605713,-0.0,-0.0,-1.0,0.12611733602758385,1.0,0
34.6268310546875,21.091007232666016,-1.4913318157196045,-0.0,-0.0,-1.0,0.1436478570354139,1.0,0
33.21928405761719,20.684207916259766,-1.8217376470565796,-0.0,-0.0,-1.0,0.09364891886520561,1.0,0
33.25265121459961,21.331039428710938,-1.8789914846420288,-0.0,-0.0,-1.0,0.04221175494351405,2.0,0
33.32964324951172,21.129383087158203,-1.8732913732528687,-0.0,-0.0,-1.0,0.09626577147195021,1.0,0
33.21278381347656,21.589134216308594,-1.8948570489883423,-0.0,-0.0,-1.0,0.04194283290466629,1.0,0
33.227840423583984,21.975807189941406,-1.9294389486312866,-0.0,-0.0,-1.0,0.013430808220952247,2.0,0
33.23230743408203,21.861377716064453,-1.9203811883926392,-0.0,-0.0,-1.0,0.014565451596875265,2.0,0
33.757659912109375,21.34308433532715,-1.8801616430282593,-0.0,-0.0,-1.0,0.06853224597239918,2.0,0
33.930938720703125,21.095470428466797,-1.8872374296188354,-0.0,-0.0,-1.0,0.00989643430759899,1.0,0
34.05524444580078,20.90129852294922,-1.891342043876648,-0.0,-0.0,-1.0,0.014533407172355305,2.0,0
34.938209533691406,21.289270401000977,-1.7750675678253174,-0.44525387350585477,-0.8323773066205334,-0.3299954659554865,0.19512989250667082,3.0,0
34.597129821777344,21.53564453125,-1.9281034469604492,0.4889021941483714,0.8589524102589748,0.1522346920619814,0.06034717695430281,3.0,0
34.463897705078125,21.580867767333984,-1.9320340156555176,-0.0,-0.0,-1.0,0.02942827700116537,1.0,0
33.767574310302734,21.283935546875,-1.8846607208251953,-0.0,-0.0,-1.0,0.05070421166362502,1.0,0
33.685646057128906,21.468395233154297,-1.9076313972473145,-0.0,-0.0,-1.0,0.10136804821232039,2.0,0
33.221946716308594,21.836620330810547,-1.9507617950439453,-0.0,-0.0,-1.0,0.01602198833297578,2.0,0
33.032684326171875,21.69042205810547,-1.929957389831543,-0.0,-0.0,-1.0,0.015247072123446238,1.0,0
34.61707305908203,21.59096336364746,-1.9568190574645996,-0.0,-0.0,-1.0,0.05598610807044505,2.0,0
34.669620513916016,20.895212173461914,-1.8531947135925293,0.40579264191951936,0.7286456957202005,0.5517316212366319,0.14868668183734723,5.0,0
34.32503890991211,21.590314865112305,-1.9533209800720215,-0.0,-0.0,-1.0,0.024827778339525857,1.0,0
34.10845184326172,21.728857040405273,-1.971907615661621,-0.0,-0.0,-1.0,0.016201242551984962,1.0,0
33.57184982299805,21.251649856567383,-1.894296646118164,-0.0,-0.0,-1.0,0.0517016653014117,1.0,0
33.477149963378906,21.60556983947754,-1.9473133087158203,-0.0,-0.0,-1.0,0.04718489213718911,2.0,0
32.97924041748047,21.332494735717773,-1.9017877578735352,-0.0,-0.0,-1.0,0.008255216915659686,1.0,0
32.790382385253906,21.373647689819336,-1.9068231582641602,-0.0,-0.0,-1.0,0.00946152121766708,1.0,0
34.149383544921875,21.270336151123047,-1.9248631000518799,-0.0,-0.0,-1.0,0.008109903998613117,2.0,0
34.114036560058594,21.441059112548828,-1.923842191696167,-0.0,-0.0,-1.0,0.011441747723067072,1.0,0
34.09345626831055,20.95306968688965,-1.9011127948760986,-0.0,-0.0,-1.0,0.015853480025302773,1.0,0
34.000755310058594,22.804656982421875,-2.0508861541748047,-0.0,-0.0,-1.0,0.03848203169302476,1.0,0
34.36156463623047,21.438953399658203,-1.9282402992248535,-0.0,-0.0,-1.0,0.05568357224948481,1.0,0
34.007598876953125,22.649477005004883,-2.0334763526916504,-0.0,-0.0,-1.0,0.010204625356484387,2.0,0
33.81223678588867,22.92806053161621,-2.0488076210021973,-0.0,-0.0,-1.0,0.05166527027538064,1.0,0
33.64918899536133,22.10910415649414,-1.9391565322875977,-0.0,-0.0,-1.0,0.01264390708460046,2.0,0
34.23432159423828,21.168264389038086,-1.8862948417663574,-0.0,-0.0,-1.0,0.007533059708206032,1.0,0
34.15758514404297,20.800344467163086,-1.8384957313537598,-0.0,-0.0,-1.0,0.03925773433245159,1.0,0
33.721824645996094,21.414554595947266,-1.8663606643676758,-0.0,-0.0,-1.0,0.08646578815517526,2.0,0
33.46592330932617,20.994796752929688,-1.7955212593078613,0.4050184526123023,-0.726819995082139,-0.5547005929258915,0.14769288039322637,3.0,0
33.51984786987305,21.5908260345459,-1.868089199066162,-0.0,-0.0,-1.0,0.04696640713438714,2.0,0
33.710384368896484,22.811859130859375,-2.11566162109375,-0.0,-0.0,-1.0,0.02601726119499732,1.0,0
33.566158294677734,23.127614974975586,-2.139430522918701,-0.0,-0.0,-1.0,0.014258271790946037,1.0,0
33.646034240722656,22.609947204589844,-2.085984706878662,-0.0,-0.0,-1.0,0.01947102324298683,2.0,0
33.49568557739258,22.75551414489746,-2.0888843536376953,-0.0,-0.0,-1.0,0.01838906754157686,2.0,0
34.166812896728516,20.82487678527832,-1.9358100891113281,-0.0,-0.0,-1.0,0.025840173779484867,2.0,0
33.73119354248047,20.999563217163086,-1.9110565185546875,-0.0,-0.0,-1.0,0.0783357134212849,1.0,0
33.668617248535156,21.276655197143555,-1.935704231262207,-0.0,-0.0,-1.0,0.061261253289339526,2.0,0
33.4374885559082,21.700403213500977,-1.9610037803649902,-0.0,-0.0,-1.0,0.031384891371382576,1.0,0
33.4728889465332,21.87505531311035,-1.9844179153442383,-0.0,-0.0,-1.0,0.012450310575019146,2.0,0
33.550140380859375,20.97186851501465,-1.8899240493774414,-0.0,-0.0,-1.0,0.17531280254393353,2.0,0
33.557106018066406,21.386497497558594,-1.937047004699707,-0.0,-0.0,-1.0,0.08745287950178013,2.0,0
33.49336242675781,21.539499282836914,-1.9481234550476074,-0.0,-0.0,-1.0,0.05078933004964966,2.0,0
33.28145980834961,21.912342071533203,-1.970329761505127,-0.0,-0.0,-1.0,0.01354499890414443,1.0,0
33.97720718383789,22.502246856689453,-2.0768542289733887,-0.0,-0.0,-1.0,0.008205220212642063,1.0,0
33.8698844909668,22.821935653686523,-2.102858066558838,-0.0,-0.0,-1.0,0.046891663699311116,1.0,0
34.142860412597656,21.234888076782227,-1.951706886291504,0.08450406082052096,0.5916142824326879,-0.801780271973873,0.009308102049962573,3.0,0
34.154052734375,20.790103912353516,-1.9043469429016113,-0.0,-0.0,-1.0,0.024499114429432988,2.0,0
33.676151275634766,21.464935302734375,-1.9286761283874512,-0.0,-0.0,-1.0,0.11112193335973976,2.0,0
33.684391021728516,22.065889358520508,-1.9972858428955078,-0.0,-0.0,-1.0,0.011630754220666041,1.0,0
33.71073532104492,21.09729766845703,-1.8913230895996094,-0.0,-0.0,-1.0,0.06438743406482032,1.0,0
33.550880432128906,21.43630599975586,-1.9124665260314941,-0.0,-0.0,-1.0,0.1085073583758526,2.0,0
33.50843811035156,21.65282440185547,-1.9324650764465332,-0.0,-0.0,-1.0,0.056297825850058845,1.0,0
34.877620697021484,21.230064392089844,-1.7121715545654297,-0.0,-0.0,-1.0,0.21410392702091358,1.0,0
34.520591735839844,22.306480407714844,-2.030245065689087,-0.0,-0.0,-1.0,0.025687188910998155,2.0,0
34.57670593261719,22.62757682800293,-2.060638189315796,-0.0,-0.0,-1.0,0.021843147789054013,2.0,0
34.61798858642578,23.042341232299805,-2.0962536334991455,-0.0,-0.0,-1.0,0.020666458690696374,2.0,0
34.210166931152344,21.127727508544922,-1.9076249599456787,-0.0,-0.0,-1.0,0.0069845708470208335,1.0,0
34.276615142822266,21.433366775512695,-1.9369518756866455,-0.0,-0.0,-1.0,0.046214004368288375,1.0,0
34.15441131591797,21.592113494873047,-1.9302985668182373,-0.0,-0.0,-1.0,0.020758599251596423,1.0,0
33.70339584350586,21.45746612548828,-1.8580667972564697,-0.3588424369498797,-0.16005682794626475,-0.9195726818863487,0.10156444027683817,4.0,0
33.50389862060547,21.02002716064453,-1.8008525371551514,0.4050184526123023,-0.726819995082139,-0.5547005929258915,0.19817072130426788,3.0,0
33.57060623168945,21.54500389099121,-1.8454921245574951,-0.8222111120956523,-0.5339908047859324,-0.19703478766578952,0.11356001639251197,4.0,0
35.20283126831055,22.1871337890625,-2.0154714584350586,-0.0,-0.0,-1.0,0.06743522510263297,1.0,0
35.106239318847656,21.723371505737305,-1.9608168601989746,-0.0,-0.0,-1.0,0.11489189463260033,2.0,0
35.112056732177734,22.046310424804688,-1.990593433380127,-0.31744148098199443,0.9452273133602244,-0.07600152781207685,0.05083990226185424,3.0,0
34.91576385498047,21.27350616455078,-1.8957648277282715,-0.0,-0.0,-1.0,0.10935329087240145,1.0,0
34.82075500488281,20.77091407775879,-1.8400301933288574,-0.0,-0.0,-1.0,0.11652916471110282,2.0,0
34.97230911254883,22.840423583984375,-2.096240520477295,-0.0,-0.0,-1.0,0.037368410421779956,1.0,0
34.94002151489258,22.54494857788086,-2.0693798065185547,-0.0,-0.0,-1.0,0.032551199132920476,2.0,0
34.85691833496094,22.404903411865234,-2.0472640991210938,-0.0,-0.0,-1.0,0.04192762804815127,2.0,0
34.617164611816406,22.099987030029297,-1.991042137145996,-0.775956329001415,0.4863493750364646,-0.40169149964156314,0.0871705268818504,3.0,0
34.43413543701172,21.179645538330078,-1.900486946105957,-0.0,-0.0,-1.0,0.06056342288347024,2.0,0
34.36347579956055,21.536752700805664,-1.9148316383361816,0.6401993006842523,0.11518136936668687,-0.7595249222732648,0.08181417553899749,4.0,0
34.38500213623047,20.783884048461914,-1.8671207427978516,-0.0,-0.0,-1.0,0.1479010717498609,2.0,0
33.59507751464844,21.409019470214844,-1.796356201171875,-0.9706951404730176,-0.12393302373545047,-0.20589208311602553,0.10927115620513952,3.0,0
33.62688064575195,21.522064208984375,-1.8089141845703125,-0.0,-0.0,-1.0,0.12246542584695239,2.0,0
33.402198791503906,20.94879913330078,-1.73681640625,-0.0,-0.0,-1.0,0.18844613962755757,2.0,0
35.12718963623047,21.896345138549805,-1.879469633102417,-0.0,-0.0,-1.0,0.19903718687638705,1.0,0
35.14690017700195,22.383256912231445,-1.911754846572876,-0.0,-0.0,-1.0,0.04748611917839513,1.0,0
35.17241668701172,21.748401641845703,-1.8769137859344482,-0.0,-0.0,-1.0,0.1405873919489989,1.0,0
34.952293395996094,20.88434600830078,-1.7976129055023193,-0.0,-0.0,-1.0,0.05062037396319887,2.0,0
34.89778518676758,21.138471603393555,-1.8041722774505615,-0.297745078175398,0.15992780932475223,-0.9411540597728469,0.10616239315382422,4.0,0
34.90253829956055,21.40757942199707,-1.820077657699585,-0.0,-0.0,-1.0,0.18479255418028165,2.0,0
34.928199768066406,20.67136001586914,-1.7827441692352295,-0.0,-0.0,-1.0,0.06944607780838027,2.0,0
35.11246109008789,20.994609832763672,-1.7483947277069092,-0.0,-0.0,-1.0,0.06426128571055091,1.0,0
34.87574005126953,20.85836410522461,-1.7092483043670654,-0.0,-0.0,-1.0,0.0844217674090908,1.0,0
35.062355041503906,23.067121505737305,-2.090975761413574,-0.0,-0.0,-1.0,0.03942524736867035,1.0,0
34.93031311035156,22.554229736328125,-2.048036575317383,-0.0,-0.0,-1.0,0.030888455527899282,2.0,0
35.050777435302734,22.848491668701172,-2.0790700912475586,-0.0,-0.0,-1.0,0.03846922651927806,2.0,0
34.588279724121094,22.065967559814453,-1.9764337539672852,-0.775956329001415,0.4863493750364646,-0.40169149964156314,0.06973794296317937,3.0,0
34.64500427246094,22.285478591918945,-1.9941205978393555,-0.0,-0.0,-1.0,0.11687153280502845,2.0,0
34.39180374145508,21.50689697265625,-1.924880027770996,-0.22442843674987425,0.3628197086578387,-0.904430061302392,0.07990391636562025,4.0,0
34.48973083496094,21.88957977294922,-1.9545440673828125,-0.0,-0.0,-1.0,0.017344345564598934,2.0,0
34.30940246582031,20.93187141418457,-1.8915958404541016,-0.0,-0.0,-1.0,0.06870652573202683,1.0,0
34.327972412109375,21.239900588989258,-1.9053754806518555,-0.0,-0.0,-1.0,0.007894203698494742,1.0,0
34.15086364746094,20.70069122314453,-1.8599815368652344,-0.0,-0.0,-1.0,0.06251394060556618,2.0,0
33.64352035522461,21.5766658782959,-1.8162546157836914,-0.7539937722329524,0.5901383656200908,-0.2884962752916763,0.11336615472527516,3.0,0
33.4123649597168,21.08279037475586,-1.762969970703125,-0.0,-0.0,-1.0,0.19744391676681025,2.0,0
33.035945892333984,22.79328727722168,-2.0786123275756836,-0.0,-0.0,-1.0,0.010519262523090758,2.0,0
32.7336311340332,22.525419235229492,-2.0145483016967773,-0.0,-0.0,-1.0,0.021930464539778163,1.0,0
34.8278923034668,22.226055145263672,-1.9388325214385986,-0.0,-0.0,-1.0,0.07150610247522134,1.0,0
35.08140563964844,22.482912063598633,-1.9880340099334717,-0.0,-0.0,-1.0,0.04123502926319098,2.0,0
34.44353485107422,20.69243621826172,-1.816540002822876,-0.0,-0.0,-1.0,0.2083419856360311,1.0,0
34.626338958740234,21.213375091552734,-1.8642919063568115,-0.33487309839141527,0.21829658991959175,-0.9166278453130319,0.10064319170137379,3.0,0
34.85881042480469,21.100364685058594,-1.2924153804779053,-0.0,-0.0,-1.0,0.1949209845117254,2.0,0
35.18334197998047,20.86306381225586,-1.7242858409881592,-0.0,-0.0,-1.0,0.05722544569292018,1.0,0
35.177154541015625,21.072860717773438,-1.7330143451690674,0.9059647239698361,0.41801986753386433,-0.0669873814179176,0.1542057186485441,5.0,0
35.108497619628906,21.184402465820312,-1.7279016971588135,-0.0,-0.0,-1.0,0.15363348356291423,1.0,0
34.910736083984375,21.318965911865234,-1.704486608505249,-0.0,-0.0,-1.0,0.23137625746481294,2.0,0
34.41342544555664,20.90640640258789,-1.8943252563476562,-0.0,-0.0,-1.0,0.11229487015962235,2.0,0
34.35664367675781,21.12215805053711,-1.8943605422973633,0.3090662463083667,0.3261426460815021,-0.8933694811217874,0.01718558056025366,3.0,0
34.45759582519531,21.358078002929688,-1.9215302467346191,-0.0,-0.0,-1.0,0.046302346801692054,1.0,0
33.44718933105469,20.981611251831055,-1.7385411262512207,-0.032153381167779965,-0.8492206199327914,-0.5270583447403572,0.134411035018151,4.0,0
34.39280319213867,21.565597534179688,-1.9203462600708008,0.6879466268604131,-0.718727033120903,-0.10080124231677029,0.0838063223567451,3.0,0
34.588714599609375,21.94137191772461,-1.9706106185913086,-0.0,-0.0,-1.0,0.05021134958946412,2.0,0
34.62849044799805,22.19377326965332,-1.9895954132080078,-0.0,-0.0,-1.0,0.09349399199687233,2.0,0
34.8649787902832,22.415504455566406,-2.0400495529174805,-0.0,-0.0,-1.0,0.041322832063853315,2.0,0
34.9834098815918,22.70924186706543,-2.075054168701172,0.6035832254329749,-0.7073448288734379,-0.3679002351751535,0.036047291900501946,3.0,0
35.0172004699707,23.008955001831055,-2.0967607498168945,-0.0,-0.0,-1.0,0.039425247368670355,1.0,0
35.03630828857422,20.761043548583984,-1.7291224002838135,-0.0,-0.0,-1.0,0.06261711703330061,1.0,0
35.036468505859375,21.219635009765625,-1.750030755996704,-0.0,-0.0,-1.0,0.1333781555353284,2.0,0
32.7188606262207,21.87447738647461,-1.9106416702270508,-0.0,-0.0,-1.0,0.019492947172402214,1.0,0
32.80267333984375,22.066905975341797,-1.9346799850463867,-0.0,-0.0,-1.0,0.02310292001614074,1.0,0
32.77608108520508,22.24479866027832,-1.9358410835266113,-0.0,-0.0,-1.0,0.034820631542489905,1.0,0
32.88457489013672,22.388051986694336,-1.9636693000793457,-0.0,-0.0,-1.0,0.025815085476671017,1.0,0
33.04694366455078,22.652069091796875,-2.0078248977661133,-0.0,-0.0,-1.0,0.01827434710039744,1.0,0
33.21806335449219,23.041046142578125,-2.0599875450134277,-0.0,-0.0,-1.0,0.009215426646051128,2.0,0
34.753902435302734,20.744714736938477,-1.3581409454345703,-0.0,-0.0,-1.0,0.08695981802377228,2.0,0
35.09988784790039,21.84123992919922,-1.943373680114746,-0.0,-0.0,-1.0,0.047998134732111175,1.0,0
35.127262115478516,22.054712295532227,-1.9496092796325684,-0.42263701644380225,0.9026700727279585,-0.08102278773766877,0.056030915737947766,4.0,0
33.633907318115234,20.899324417114258,-1.6735734939575195,-0.0,-0.0,-1.0,0.2202854503633534,1.0,0
34.53131103515625,20.664344787597656,-1.838064193725586,-0.0,-0.0,-1.0,0.1611227430673427,2.0,0
34.681949615478516,21.03048324584961,-1.8649024963378906,-0.0,-0.0,-1.0,0.12460501603647214,1.0,0
34.78810119628906,21.389263153076172,-1.8845887184143066,-0.0,-0.0,-1.0,0.1336958709441347,2.0,0
34.887046813964844,21.706132888793945,-1.9035964012145996,-0.0,-0.0,-1.0,0.15734674341575441,1.0,0
34.84030532836914,20.87560272216797,-1.7980797290802002,-0.0,-0.0,-1.0,0.12239985796829306,2.0,0
34.871253967285156,21.303159713745117,-1.8046848773956299,0.14946714039484646,0.21375992127216203,-0.9653840013175619,0.20490943864661595,4.0,0
35.02606964111328,21.269100189208984,-1.8336069583892822,-0.0,-0.0,-1.0,0.13570562313601453,1.0,0
35.166839599609375,21.585693359375,-1.8613626956939697,0.3516903125422589,-0.9306632573892321,-0.1008951208413577,0.1620108496906167,3.0,0
34.862144470214844,20.82578468322754,-1.7534310817718506,-0.0,-0.0,-1.0,0.11589066127623524,1.0,0
35.02045822143555,21.294570922851562,-1.7862775325775146,-0.0,-0.0,-1.0,0.1326289430700548,2.0,0
35.02971267700195,21.062694549560547,-1.7864811420440674,0.7565401356884807,0.36125386053013125,-0.5451079446719995,0.06532933121740171,4.0,0
32.78620529174805,22.615625381469727,-2.0063083171844482,-0.0,-0.0,-1.0,0.020825523786841837,1.0,0
33.13394546508789,23.050296783447266,-2.0867631435394287,-0.0,-0.0,-1.0,0.00880342385603929,2.0,0
33.000755310058594,22.80636215209961,-2.0551822185516357,-0.6058066371830567,-0.42317372239221007,-0.6737375742985374,0.010524542827935687,3.0,0
34.5902099609375,20.758689880371094,-1.582183599472046,-0.2775556285344711,-0.5751164348958964,-0.7695478928445383,0.12565674446529862,3.0,0
35.14899826049805,21.60491371154785,-1.6868798732757568,-0.0,-0.0,-1.0,0.22668714343893281,2.0,0
35.013519287109375,21.055639266967773,-1.8097507953643799,0.7565401356884807,0.36125386053013125,-0.5451079446719995,0.060116632073030855,4.0,0
34.83225631713867,20.685218811035156,-1.7682545185089111,-0.0,-0.0,-1.0,0.08679842618224953,2.0,0
33.98362731933594,22.943557739257812,-2.306107997894287,-0.0,-0.0,-1.0,0.07348494091517427,1.0,0
34.16766357421875,22.878795623779297,-2.3300986289978027,-0.0,-0.0,-1.0,0.06241569646545303,1.0,0
34.739990234375,21.700397491455078,-2.0938658714294434,-0.0,-0.0,-1.0,0.05808961669168787,1.0,0
34.588645935058594,22.131790161132812,-2.113675594329834,-0.0,-0.0,-1.0,0.06931443755358233,1.0,0
34.74541473388672,21.38157844543457,-2.059495449066162,-0.0,-0.0,-1.0,0.08546556191857692,1.0,0
35.001522064208984,21.098480224609375,-1.8006081581115723,0.7565401356884807,0.36125386053013125,-0.5451079446719995,0.09632503765374863,4.0,0
34.86791229248047,20.69477081298828,-1.7727093696594238,-0.0,-0.0,-1.0,0.08107355647156349,2.0,0
34.94170379638672,21.079158782958984,-1.7869534492492676,-0.0,-0.0,-1.0,0.09428823508051651,2.0,0
33.87857437133789,22.706729888916016,-2.031979560852051,-0.0,-0.0,-1.0,0.01594021143969347,1.0,0
32.83460235595703,20.683372497558594,-1.8125686645507812,-0.0,-0.0,-1.0,0.1016719051513603,1.0,0
32.92390441894531,20.978946685791016,-1.8278913497924805,-0.0,-0.0,-1.0,0.09712826165089859,1.0,0
33.072105407714844,21.367406845092773,-1.8562650680541992,-0.0,-0.0,-1.0,0.038066851492164294,1.0,0
33.23524856567383,21.67996597290039,-1.8905315399169922,-0.0,-0.0,-1.0,0.011940893088289283,1.0,0
33.482421875,22.100025177001953,-1.9440698623657227,-0.0,-0.0,-1.0,0.013967501307080306,1.0,0
33.6776237487793,22.368824005126953,-1.9879388809204102,-0.13020043678814816,0.9682559533066775,0.2133735108825659,0.014402332445315549,3.0,0
33.96683883666992,20.837371826171875,-1.8889141082763672,-0.0,-0.0,-1.0,0.012635489948747896,1.0,0
33.908206939697266,21.02572250366211,-1.8800420761108398,-0.0,-0.0,-1.0,0.0337632819864272,1.0,0
34.00777816772461,21.315628051757812,-1.9142093658447266,-0.0,-0.0,-1.0,0.008564847392677625,1.0,0
34.1097297668457,21.7979679107666,-1.9557361602783203,-0.0,-0.0,-1.0,0.014371482051434264,1.0,0
34.30290603637695,22.127573013305664,-2.015378952026367,-0.0,-0.0,-1.0,0.01134390830046466,1.0,0
34.41709899902344,22.36669921875,-2.0523691177368164,-0.0,-0.0,-1.0,0.009754564737972052,1.0,0
34.42294692993164,22.640270233154297,-2.063899040222168,-0.0,-0.0,-1.0,0.02502433508774768,1.0,0
