x,y,z,nx,ny,nz,curvature,density,label
41.771846771240234,25.77828598022461,-2.277958631515503,-0.1263133414144364,0.019207791911725423,-0.9918044164605218,0.08305290773506209,3.0,0
40.710365295410156,26.077659606933594,-2.112470865249634,0.13248249298112294,0.7064844002112153,-0.6952180818359845,0.10154606877017931,7.0,0
41.6954345703125,26.125476837158203,-2.323312520980835,-0.0,-0.0,-1.0,0.09176819066316508,1.0,0
41.792625427246094,26.00836944580078,-2.322736978530884,-0.0,-0.0,-1.0,0.07207601808267232,2.0,0
42.305091857910156,25.999813079833984,-2.4281718730926514,-0.0,-0.0,-1.0,0.03469934375234663,2.0,0
40.72857666015625,26.375022888183594,-2.1708195209503174,-0.0,-0.0,-1.0,0.18930493327119255,1.0,0
40.965728759765625,26.658164978027344,-2.271186113357544,-0.0,-0.0,-1.0,0.151733828032045,1.0,0
40.9171142578125,26.959712982177734,-2.317876100540161,-0.0,-0.0,-1.0,0.06951461687097771,2.0,0
40.99262619018555,26.865264892578125,-2.3152406215667725,-0.0,-0.0,-1.0,0.04338503034420219,2.0,0
40.83127975463867,27.206335067749023,-2.3476035594940186,0.36690573455836517,0.03666436210350683,-0.9295353175107063,0.021385486811196418,3.0,0
40.48304748535156,27.62676239013672,-2.3604252338409424,-0.0,-0.0,-1.0,0.05751064363183455,2.0,0
40.73743438720703,27.597469329833984,-2.404289484024048,-0.0,-0.0,-1.0,0.1486755456923323,2.0,0
40.59396743774414,27.91948127746582,-2.439274549484253,-0.0,-0.0,-1.0,0.12811008882547886,1.0,0
40.72145080566406,25.653961181640625,-2.2428297996520996,-0.0,-0.0,-1.0,0.10470471973656709,2.0,0
40.38898849487305,26.07632827758789,-2.2653656005859375,-0.0,-0.0,-1.0,0.0593925068966758,1.0,0
40.564701080322266,25.870513916015625,-2.2566518783569336,-0.0,-0.0,-1.0,0.1281752143972967,1.0,0
40.26536560058594,26.440189361572266,-2.3215389251708984,-0.0,-0.0,-1.0,0.0883954516504856,2.0,0
42.52143859863281,28.047626495361328,-2.4578371047973633,0.6718431299637453,-0.7325730933307754,-0.10937765607425086,0.07806650945627411,4.0,0
40.53935241699219,25.65091896057129,-2.203474998474121,-0.0,-0.0,-1.0,0.06303529466790839,1.0,0
40.28699493408203,25.891721725463867,-2.2030625343322754,-0.0,-0.0,-1.0,0.04779443272730612,1.0,0
41.93672180175781,27.337162017822266,-2.2119784355163574,-0.0,-0.0,-1.0,0.12580920862206582,1.0,0
40.85881805419922,27.762022018432617,-2.109261989593506,-0.0,-0.0,-1.0,0.20619445368748965,1.0,0
40.65058898925781,28.135751724243164,-2.152066230773926,-0.0,-0.0,-1.0,0.20222891636075777,1.0,0
42.34108352661133,28.068035125732422,-2.429980754852295,-0.5020551811694653,-0.7816677938987554,-0.3700487198226041,0.05689512863431561,3.0,0
40.72411346435547,26.04448699951172,-2.1095175743103027,0.3506001772709352,0.599295948271508,-0.7196692866052732,0.12104779693254275,4.0,0
41.81793212890625,25.998798370361328,-2.2918004989624023,-0.20044325081584818,-0.9701931905526358,-0.1361898535415625,0.07433656778363641,3.0,0
40.88730239868164,26.637351989746094,-2.2479729652404785,-0.0,-0.0,-1.0,0.11525524807074065,2.0,0
41.718143463134766,26.383176803588867,-2.3434348106384277,-0.0,-0.0,-1.0,0.14671315664902124,2.0,0
41.82210159301758,26.28417205810547,-2.343708038330078,-0.0,-0.0,-1.0,0.09126573263497952,1.0,0
40.89610290527344,26.977252960205078,-2.313992977142334,-0.0,-0.0,-1.0,0.0695146168709777,2.0,0
40.988773345947266,26.83487319946289,-2.3023977279663086,-0.0,-0.0,-1.0,0.07399789279560803,2.0,0
40.762020111083984,27.310029983520508,-2.3559322357177734,-0.0,-0.0,-1.0,0.03264925173816818,2.0,0
40.48606872558594,27.667184829711914,-2.381213665008545,-0.0,-0.0,-1.0,0.06658243897501658,2.0,0
40.68747329711914,27.588260650634766,-2.398054599761963,-0.0,-0.0,-1.0,0.19822313647304668,2.0,0
40.361053466796875,25.645130157470703,-2.299542188644409,-0.0,-0.0,-1.0,0.043879943105864176,1.0,0
40.71090316772461,27.752538681030273,-2.1898856163024902,-0.8608962439611517,0.4365338346918878,-0.26133478203786253,0.16713445255446213,3.0,0
42.194217681884766,27.751121520996094,-2.417383909225464,-0.0,-0.0,-1.0,0.04490432895214164,1.0,0
42.704105377197266,27.773880004882812,-2.501624822616577,-0.0,-0.0,-1.0,0.03215439784678199,1.0,0
42.15757751464844,28.05835723876953,-2.4616713523864746,-0.0,-0.0,-1.0,0.061947544123170314,1.0,0
40.30073547363281,25.753742218017578,-1.796891212463379,-0.0,-0.0,-1.0,0.09132652263020072,1.0,0
40.58482360839844,26.079177856445312,-1.8940982818603516,-0.0,-0.0,-1.0,0.05525068021121699,2.0,0
41.94978332519531,27.325403213500977,-2.3632631301879883,-0.0,-0.0,-1.0,0.19148832848015462,1.0,0
42.623600006103516,27.374710083007812,-2.4784398078918457,-0.0,-0.0,-1.0,0.019423593528217906,1.0,0
40.73308563232422,27.89080810546875,-2.2849700450897217,-0.0,-0.0,-1.0,0.1933671783379108,1.0,0
41.68431091308594,27.836532592773438,-2.4166042804718018,-0.0,-0.0,-1.0,0.04719358191855638,1.0,0
41.92484664916992,27.574661254882812,-2.405034303665161,-0.0,-0.0,-1.0,0.06570289489261784,1.0,0
42.40616226196289,27.606887817382812,-2.4859976768493652,-0.0,-0.0,-1.0,0.029794881320458922,1.0,0
40.59345626831055,28.136310577392578,-2.3119237422943115,-0.0,-0.0,-1.0,0.21519237470001237,1.0,0
40.791236877441406,28.001323699951172,-2.3146567344665527,-0.0,-0.0,-1.0,0.15933476590970788,2.0,0
41.20037841796875,28.115272521972656,-2.3964719772338867,-0.0,-0.0,-1.0,0.061225187469883396,1.0,0
41.46688461303711,28.117990493774414,-2.4366090297698975,-0.0,-0.0,-1.0,0.07245157906388722,1.0,0
42.08790588378906,27.946014404296875,-2.4986119270324707,-0.0,-0.0,-1.0,0.057882066157194725,1.0,0
40.55754089355469,26.041902542114258,-1.911841630935669,0.7912452049831804,-0.33590054439985667,-0.5109812617533096,0.04414916049866129,3.0,0
41.68198013305664,26.575164794921875,-2.1852052211761475,-0.632741441829529,-0.5603797944390457,-0.534427500954004,0.16878954843111132,4.0,0
41.788211822509766,26.46167755126953,-2.181779384613037,-0.2688739405362518,-0.8579556306236426,-0.43774300677646033,0.1428479588424393,4.0,0
40.96172332763672,26.89513397216797,-2.1314351558685303,-0.0,-0.0,-1.0,0.09005080342486733,1.0,0
40.387001037597656,27.96383285522461,-2.2489380836486816,-0.0,-0.0,-1.0,0.16421115089983804,2.0,0
40.72504425048828,25.824663162231445,-2.139019250869751,0.9324220410545468,-0.09191690025459287,-0.3494859379191961,0.10876883139104415,4.0,0
40.942665100097656,25.863195419311523,-2.18400502204895,-0.0,-0.0,-1.0,0.16393351034034356,2.0,0
42.36370849609375,25.870532989501953,-2.4343879222869873,-0.0,-0.0,-1.0,0.030232896897334157,1.0,0
40.67692947387695,26.181556701660156,-2.2081189155578613,-0.4170612562503979,-0.9005884645301592,-0.12247581838897661,0.16463789657189304,4.0,0
41.574668884277344,26.123947143554688,-2.347484827041626,-0.0,-0.0,-1.0,0.0906356513522164,2.0,0
41.66942596435547,26.13290023803711,-2.3657188415527344,-0.0,-0.0,-1.0,0.09139401546196198,1.0,0
42.333744049072266,25.94358253479004,-2.4438488483428955,-0.0,-0.0,-1.0,0.03211834008224103,1.0,0
40.455230712890625,26.521739959716797,-2.246485948562622,-0.10851109090091307,-0.45295888629477504,-0.8849031531631529,0.05626690116338358,3.0,0
40.574031829833984,26.632781982421875,-2.290137529373169,-0.0,-0.0,-1.0,0.024024653457257728,1.0,0
40.44746780395508,26.867759704589844,-2.3221075534820557,-0.0,-0.0,-1.0,0.017259838418914174,1.0,0
40.52118682861328,26.911401748657227,-2.3435161113739014,-0.0,-0.0,-1.0,0.03232653346755903,1.0,0
40.36859130859375,27.336151123046875,-2.4149835109710693,-0.0,-0.0,-1.0,0.04479890885436102,1.0,0
40.29982376098633,27.571521759033203,-2.457787275314331,-0.0,-0.0,-1.0,0.05286445559021241,1.0,0
41.751121520996094,27.404661178588867,-2.111246347427368,0.08347979597165943,-0.26816340128567046,-0.9597497141835628,0.09003614071799038,3.0,0
40.844730377197266,27.810762405395508,-2.064887762069702,-0.0,-0.0,-1.0,0.23645274702702562,1.0,0
40.72964096069336,26.25578498840332,-2.0753419399261475,-0.8452497256574234,-0.4957279161863448,0.1995162509411075,0.1534756955900171,4.0,0
40.94928741455078,26.11590003967285,-2.081744432449341,-0.0,-0.0,-1.0,0.07911292582716047,1.0,0
41.90411376953125,26.247638702392578,-2.275923728942871,-0.6188289021542495,-0.5774133455901839,-0.5325829683654153,0.09783936085137827,3.0,0
41.833988189697266,26.524723052978516,-2.322558879852295,-0.0,-0.0,-1.0,0.17794118390163913,1.0,0
42.108699798583984,26.342987060546875,-2.3324787616729736,-0.0,-0.0,-1.0,0.03259591953989555,1.0,0
42.474029541015625,26.573688507080078,-2.4464271068573,-0.0,-0.0,-1.0,0.023223420143447682,1.0,0
40.8807258605957,26.9595890045166,-2.2561914920806885,-0.0,-0.0,-1.0,0.06951461687097772,1.0,0
40.684043884277344,27.496431350708008,-2.3454110622406006,0.03948151305303687,0.28376722994230724,-0.9580800432833954,0.17795782706706587,3.0,0
40.95391082763672,27.35277557373047,-2.356114387512207,-0.0,-0.0,-1.0,0.04098000398969133,1.0,0
41.417320251464844,27.29644012451172,-2.4191646575927734,-0.0,-0.0,-1.0,0.04953207020297369,1.0,0
40.625579833984375,27.668415069580078,-2.3753607273101807,-0.0,-0.0,-1.0,0.1442322553661362,2.0,0
40.563289642333984,28.112144470214844,-2.4674530029296875,-0.0,-0.0,-1.0,0.21067622394686356,2.0,0
40.21720504760742,25.743000030517578,-1.87709641456604,-0.0,-0.0,-1.0,0.14269027476082852,1.0,0
41.80718994140625,27.40717315673828,-1.9905874729156494,-0.0,-0.0,-1.0,0.09572280478947169,1.0,0
41.931495666503906,28.06800079345703,-2.134284734725952,-0.0,-0.0,-1.0,0.1815096261538689,1.0,0
41.817020416259766,25.664833068847656,-2.339587450027466,-0.0,-0.0,-1.0,0.06360550078883534,1.0,0
40.56333923339844,25.76122283935547,-2.1455845832824707,-0.0,-0.0,-1.0,0.05511289929402199,1.0,0
41.10979461669922,25.83682632446289,-2.2573537826538086,-0.0,-0.0,-1.0,0.16919129092242086,1.0,0
41.724456787109375,25.68395233154297,-2.327486038208008,-0.0,-0.0,-1.0,0.06919084776535513,1.0,0
40.43973159790039,26.124103546142578,-2.2208805084228516,-0.0,-0.0,-1.0,0.08817250293565809,2.0,0
41.262046813964844,25.979665756225586,-2.3202013969421387,-0.0,-0.0,-1.0,0.07403528304144968,1.0,0
40.645938873291016,27.73789405822754,-2.192819118499756,-0.0,-0.0,-1.0,0.21108532223316379,1.0,0
42.214569091796875,27.680278778076172,-2.399569511413574,-0.0,-0.0,-1.0,0.045891184429826454,2.0,0
42.58502197265625,27.68918228149414,-2.457331418991089,-0.0,-0.0,-1.0,0.035407314126709354,1.0,0
42.07987594604492,28.014137268066406,-2.4559166431427,-0.0,-0.0,-1.0,0.06906691813243018,2.0,0
42.60124206542969,27.86569595336914,-2.499361038208008,-0.0,-0.0,-1.0,0.058692928498239344,1.0,0
42.420928955078125,26.093616485595703,-2.467461109161377,-0.0,-0.0,-1.0,0.01800781784759371,1.0,0
40.27279281616211,27.32349395751953,-2.4535484313964844,-0.0,-0.0,-1.0,0.03606240860660364,1.0,0
40.775203704833984,25.897659301757812,-2.1329455375671387,0.0836678280419315,-0.8831143580604662,-0.46163700581538764,0.09743581967648333,4.0,0
41.05500411987305,25.92422866821289,-2.1854543685913086,-0.0,-0.0,-1.0,0.16225168080427818,2.0,0
41.7169303894043,25.78719711303711,-2.2613959312438965,-0.729586355166476,-0.0678936526588631,-0.6805102514169307,0.08632906123908259,3.0,0
42.39910888671875,25.808456420898438,-2.3898820877075195,-0.0,-0.0,-1.0,0.024209681509140397,2.0,0
42.693138122558594,25.84821319580078,-2.4548544883728027,-0.0,-0.0,-1.0,0.01324867063691015,1.0,0
40.5798454284668,26.282896041870117,-2.2079830169677734,-0.0,-0.0,-1.0,0.16467647018861187,1.0,0
40.653846740722656,26.21169090270996,-2.1997833251953125,-0.648804623365702,-0.09684000784137153,-0.7547678938458982,0.1922723833630807,4.0,0
41.31694793701172,26.214340209960938,-2.306990146636963,-0.0,-0.0,-1.0,0.09397252721649627,1.0,0
41.60350799560547,26.12045669555664,-2.3302483558654785,-0.0,-0.0,-1.0,0.08655824347767031,2.0,0
41.994808197021484,26.056278228759766,-2.3812179565429688,-0.0,-0.0,-1.0,0.06807317488859925,1.0,0
42.327232360839844,25.995948791503906,-2.425206184387207,-0.0,-0.0,-1.0,0.03212941911985793,2.0,0
42.62687301635742,25.90449333190918,-2.4567999839782715,-0.0,-0.0,-1.0,0.01324867063691015,1.0,0
40.4649543762207,26.561092376708984,-2.267821788787842,-0.23799699699571827,-0.401652184011956,-0.8843262703886196,0.051780581204745546,4.0,0
40.295780181884766,26.90958023071289,-2.3403263092041016,-0.0,-0.0,-1.0,0.03320911777346449,1.0,0
40.71764373779297,27.778188705444336,-2.1692447662353516,-0.8608962439611517,0.4365338346918878,-0.26133478203786253,0.20538316471299714,3.0,0
42.105438232421875,28.038982391357422,-2.4216208457946777,0.5091390354115962,0.47076589623952336,-0.7205254426860634,0.06705336017695844,3.0,0
42.48999786376953,28.027790069580078,-2.474954128265381,0.5998761554343433,-0.7865528815157119,-0.14657135709490535,0.0780665094562741,5.0,0
40.922279357910156,25.815399169921875,-2.2606449127197266,-0.0,-0.0,-1.0,0.12720060663937946,1.0,0
41.60249328613281,25.88060760498047,-2.3706400394439697,-0.0,-0.0,-1.0,0.06719027199306912,2.0,0
42.03956604003906,25.821685791015625,-2.4143168926239014,-0.0,-0.0,-1.0,0.026449181569335817,1.0,0
42.32716751098633,25.72536849975586,-2.4274675846099854,-0.0,-0.0,-1.0,0.013693982636638157,1.0,0
41.54586410522461,25.962329864501953,-2.3887948989868164,-0.0,-0.0,-1.0,0.06380543008652649,1.0,0
42.32785415649414,25.920692443847656,-2.48791766166687,-0.0,-0.0,-1.0,0.0319712714709156,1.0,0
41.897216796875,27.47979736328125,-2.446005344390869,-0.0,-0.0,-1.0,0.0779971398594496,1.0,0
41.960758209228516,27.409603118896484,-2.4331703186035156,-0.0,-0.0,-1.0,0.13009584854969242,1.0,0
42.565818786621094,27.418895721435547,-2.5077226161956787,-0.0,-0.0,-1.0,0.026507444058022023,1.0,0
41.87632751464844,27.58681869506836,-2.474283456802368,-0.0,-0.0,-1.0,0.03149753033240416,1.0,0
42.249507904052734,27.65615463256836,-2.536715269088745,-0.0,-0.0,-1.0,0.04374261361898868,1.0,0
42.42033767700195,27.65020751953125,-2.5552175045013428,-0.0,-0.0,-1.0,0.029794881320458943,1.0,0
42.4289436340332,26.70420265197754,-2.48754620552063,-0.0,-0.0,-1.0,0.02116325367334011,1.0,0
42.7066650390625,26.626140594482422,-2.4971015453338623,-0.0,-0.0,-1.0,0.01925976156063184,1.0,0
42.396514892578125,26.834190368652344,-2.5247561931610107,-0.0,-0.0,-1.0,0.01881721798673563,1.0,0
42.52167510986328,26.76675796508789,-2.518339157104492,-0.0,-0.0,-1.0,0.019806384522125287,1.0,0
40.34050369262695,27.781665802001953,-2.498917579650879,-0.0,-0.0,-1.0,0.15225145809411594,1.0,0
40.42967987060547,25.997303009033203,-1.915311574935913,-0.0,-0.0,-1.0,0.1361503397796555,1.0,0
40.54465866088867,26.03369903564453,-1.9263968467712402,0.6003068665234571,-0.7954533631291644,-0.08297959442712509,0.061259422697000486,3.0,0
41.16287612915039,27.69590950012207,-2.455393075942993,-0.0,-0.0,-1.0,0.0525485306668131,1.0,0
41.285682678222656,27.85348129272461,-2.5057919025421143,-0.0,-0.0,-1.0,0.051094955197014666,1.0,0
41.50068664550781,27.94601058959961,-2.535388231277466,-0.0,-0.0,-1.0,0.04641592450498079,1.0,0
41.23661804199219,27.63738250732422,-2.43565034866333,-0.0,-0.0,-1.0,0.08885320161422801,1.0,0
41.42057418823242,27.65430450439453,-2.44010066986084,-0.0,-0.0,-1.0,0.06855322104822938,1.0,0
42.23983383178711,27.704689025878906,-2.398153781890869,-0.0,-0.0,-1.0,0.04623804264302689,2.0,0
42.32685852050781,27.945648193359375,-2.474491596221924,-0.0,-0.0,-1.0,0.04202838531434076,2.0,0
42.46461486816406,28.010400772094727,-2.4937496185302734,0.49275982813045327,-0.8603247818305324,0.1304952932066639,0.08211452702930715,3.0,0
40.57746505737305,27.849098205566406,-2.303360939025879,-0.2503030955665421,0.4619207023571762,-0.8508687472716693,0.1683677290671723,3.0,0
40.73122787475586,27.95663070678711,-2.3127408027648926,-0.0,-0.0,-1.0,0.18684618728118155,2.0,0
40.79263687133789,27.666248321533203,-2.2352852821350098,-0.0,-0.0,-1.0,0.20548049062900964,2.0,0
40.274986267089844,25.842344284057617,-2.1921327114105225,-0.0,-0.0,-1.0,0.05039179758568662,2.0,0
40.74919509887695,25.734329223632812,-2.1167328357696533,-0.0,-0.0,-1.0,0.05998941644143798,1.0,0
41.74858093261719,28.071269989013672,-2.479607343673706,-0.0,-0.0,-1.0,0.07743306163055656,2.0,0
41.464996337890625,27.921253204345703,-2.480492115020752,-0.0,-0.0,-1.0,0.048196749600834664,1.0,0
41.36212921142578,27.489368438720703,-2.4126908779144287,-0.0,-0.0,-1.0,0.042621620744144294,2.0,0
41.25859832763672,27.30376434326172,-2.390162229537964,-0.0,-0.0,-1.0,0.03785144849658788,1.0,0
41.08888626098633,26.812744140625,-2.320974349975586,-0.0,-0.0,-1.0,0.05104641106615797,2.0,0
40.57026290893555,25.697052001953125,-2.1868789196014404,-0.0,-0.0,-1.0,0.051703780602602306,1.0,0
42.12726593017578,27.976638793945312,-2.425379514694214,0.9683589972211902,0.07304671367283622,-0.23863157821706996,0.07063529684275698,3.0,0
41.859153747558594,27.79788589477539,-2.418466567993164,-0.0,-0.0,-1.0,0.0398880685419517,1.0,0
41.66919708251953,27.231700897216797,-2.3342626094818115,-0.0,-0.0,-1.0,0.2411638151076094,1.0,0
41.21485137939453,26.701065063476562,-2.287381887435913,-0.0,-0.0,-1.0,0.03691106110898,1.0,0
41.13554382324219,26.339675903320312,-2.232423782348633,-0.0,-0.0,-1.0,0.09378939336273019,1.0,0
41.01882553100586,25.97610855102539,-2.182260036468506,-0.0,-0.0,-1.0,0.15152905291773566,1.0,0
40.83843231201172,25.782047271728516,-2.169589042663574,-0.0,-0.0,-1.0,0.11426589045075981,2.0,0
42.3759651184082,28.037694931030273,-2.4132168292999268,-0.0,-0.0,-1.0,0.05965388307261542,2.0,0
41.60591506958008,26.544368743896484,-2.217210292816162,-0.0,-0.0,-1.0,0.18174520882083955,1.0,0
41.62241744995117,26.313892364501953,-2.1743361949920654,-0.0,-0.0,-1.0,0.06656848974065643,1.0,0
40.628150939941406,28.039854049682617,-2.299154043197632,-0.0,-0.0,-1.0,0.23068784192923045,1.0,0
40.387351989746094,27.79887580871582,-2.282604217529297,-0.0,-0.0,-1.0,0.16758705707398716,1.0,0
42.35685729980469,26.261438369750977,-2.445138692855835,-0.0,-0.0,-1.0,0.02509942536385159,1.0,0
42.12867736816406,25.938119888305664,-2.405949592590332,-0.0,-0.0,-1.0,0.04213609439170022,1.0,0
41.94694519042969,25.725337982177734,-2.384751796722412,-0.0,-0.0,-1.0,0.04324414173780758,1.0,0
42.63138961791992,26.48104476928711,-2.460134983062744,-0.0,-0.0,-1.0,0.021279066203136552,1.0,0
42.57781982421875,26.284860610961914,-2.425957202911377,-0.0,-0.0,-1.0,0.016573615192028796,1.0,0
41.71192169189453,27.372276306152344,-2.085623025894165,-0.10643241222152393,-0.9940301236835589,-0.024005308545321704,0.10235387856237371,3.0,0
40.606197357177734,26.040773391723633,-1.974592924118042,-0.0,-0.0,-1.0,0.08309347087411376,1.0,0
42.472843170166016,27.295928955078125,-2.5509114265441895,-0.0,-0.0,-1.0,0.015979444509018417,1.0,0
40.71307373046875,28.019046783447266,-2.1808977127075195,-0.0,-0.0,-1.0,0.16342526187920833,1.0,0
40.2181282043457,27.811342239379883,-2.195340633392334,-0.0,-0.0,-1.0,0.1655801656081475,1.0,0
40.77356719970703,27.6572265625,-2.1177783012390137,-0.0,-0.0,-1.0,0.19089640018021659,1.0,0
42.38920974731445,26.86472511291504,-2.474393844604492,-0.0,-0.0,-1.0,0.012480438708546562,1.0,0
42.115394592285156,26.55267333984375,-2.4420413970947266,-0.0,-0.0,-1.0,0.02175336764343234,1.0,0
42.30440902709961,26.576828002929688,-2.4268369674682617,-0.0,-0.0,-1.0,0.023380613520340376,1.0,0
41.964805603027344,26.106271743774414,-2.372370719909668,-0.0,-0.0,-1.0,0.0781236869444654,1.0,0
41.721527099609375,25.74872589111328,-2.3319101333618164,-0.0,-0.0,-1.0,0.0824480556934269,1.0,0
41.496742248535156,25.758647918701172,-2.35969877243042,-0.0,-0.0,-1.0,0.03823073104787644,1.0,0
40.485191345214844,25.79030990600586,-1.8572651147842407,-0.0,-0.0,-1.0,0.08191444208012162,1.0,0
42.10287094116211,28.126312255859375,-2.4844117164611816,-0.0,-0.0,-1.0,0.1572180491381618,1.0,0
41.73297119140625,28.043827056884766,-2.5018410682678223,-0.0,-0.0,-1.0,0.07543363201356544,2.0,0
41.571067810058594,27.825092315673828,-2.476212501525879,-0.0,-0.0,-1.0,0.027645054166830697,1.0,0
42.21342849731445,28.04144859313965,-2.459066390991211,-0.0,-0.0,-1.0,0.04812595510239012,1.0,0
41.944679260253906,27.85961151123047,-2.448763370513916,-0.0,-0.0,-1.0,0.052385214054999775,2.0,0
42.60259246826172,28.037120819091797,-2.425546646118164,-0.9218178128683434,-0.2655544038474557,-0.2823699319613306,0.07252364485743057,3.0,0
42.36843490600586,27.85828971862793,-2.4116859436035156,-0.0,-0.0,-1.0,0.049626512851506176,2.0,0
42.03828430175781,27.66887855529785,-2.40510892868042,-0.0,-0.0,-1.0,0.02898524926107111,2.0,0
41.5893669128418,27.36176300048828,-2.3897151947021484,-0.0,-0.0,-1.0,0.09319603660959816,2.0,0
41.317562103271484,27.137344360351562,-2.374912738800049,-0.0,-0.0,-1.0,0.024309894603238735,1.0,0
41.36112594604492,26.79782485961914,-2.3093738555908203,-0.0,-0.0,-1.0,0.008704187568115059,1.0,0
41.78874206542969,26.651935577392578,-2.2414698600769043,-0.0,-0.0,-1.0,0.1258165012092909,1.0,0
41.81807327270508,26.46784782409668,-2.205221652984619,-0.6102916418237955,-0.050089789697453736,-0.7905916296597636,0.16029786460572468,3.0,0
41.33692932128906,26.41317367553711,-2.2426795959472656,-0.0,-0.0,-1.0,0.08113051594508525,1.0,0
41.227848052978516,26.11039924621582,-2.1997904777526855,-0.0,-0.0,-1.0,0.05192761506643959,1.0,0
41.00796890258789,25.802268981933594,-2.168402671813965,-0.0,-0.0,-1.0,0.1257684292879869,1.0,0
40.66400146484375,25.709671020507812,-2.1893234252929688,-0.0,-0.0,-1.0,0.11567253164918806,2.0,0
42.4920539855957,28.014150619506836,-2.439072847366333,0.6221123627002835,-0.7193337970899312,-0.30908752245869253,0.0780665094562741,3.0,0
41.99891662597656,27.957944869995117,-2.4711179733276367,-0.0,-0.0,-1.0,0.0713949089151959,1.0,0
42.33509063720703,27.890108108520508,-2.428959369659424,0.1064168878637597,-0.3859499582072821,-0.9163613237894699,0.03455690116480114,3.0,0
42.056297302246094,27.712656021118164,-2.4201107025146484,-0.0,-0.0,-1.0,0.05596453890971963,2.0,0
41.618682861328125,27.725088119506836,-2.462240219116211,-0.0,-0.0,-1.0,0.026358782274430198,1.0,0
41.918312072753906,27.435216903686523,-2.380617141723633,-0.0,-0.0,-1.0,0.19586953097356596,2.0,0
41.69655990600586,27.332420349121094,-2.3821778297424316,-0.0,-0.0,-1.0,0.16066211226935656,1.0,0
41.271236419677734,27.207740783691406,-2.4000518321990967,-0.0,-0.0,-1.0,0.028360527944810424,1.0,0
41.676025390625,26.94686508178711,-2.3127849102020264,-0.0,-0.0,-1.0,0.020647724221287966,1.0,0
41.331390380859375,26.746715545654297,-2.3098299503326416,-0.0,-0.0,-1.0,0.008534219962468661,1.0,0
41.76742172241211,26.48426055908203,-2.2188074588775635,-0.5875012842000814,-0.7943211042303807,-0.15458403681326188,0.1838316250620001,3.0,0
41.31732940673828,26.31821632385254,-2.2332985401153564,-0.0,-0.0,-1.0,0.0952781299285184,2.0,0
41.27245330810547,26.1512451171875,-2.2076539993286133,-0.0,-0.0,-1.0,0.053883811082067246,1.0,0
41.07821273803711,25.942615509033203,-2.1905252933502197,-0.0,-0.0,-1.0,0.14598509001913604,2.0,0
40.866310119628906,25.785465240478516,-2.1850666999816895,-0.0,-0.0,-1.0,0.10798111453858049,2.0,0
40.65979766845703,25.68033218383789,-2.1891446113586426,-0.0,-0.0,-1.0,0.1018259624118839,2.0,0
42.3935432434082,28.114822387695312,-2.415367603302002,-0.0,-0.0,-1.0,0.059003677432839755,2.0,0
42.05214309692383,28.041065216064453,-2.4239211082458496,-0.0,-0.0,-1.0,0.11865065140871821,2.0,0
41.589839935302734,27.841880798339844,-2.4184651374816895,-0.0,-0.0,-1.0,0.04922470188625152,1.0,0
41.30913543701172,28.021873474121094,-2.474081516265869,-0.0,-0.0,-1.0,0.0456039529402324,1.0,0
41.453956604003906,27.687435150146484,-2.398986339569092,-0.0,-0.0,-1.0,0.06959363798832542,1.0,0
41.12752914428711,27.578582763671875,-2.403769016265869,-0.0,-0.0,-1.0,0.10535251932452652,2.0,0
40.833526611328125,27.117313385009766,-2.3402457237243652,-0.0,-0.0,-1.0,0.028732324081269946,2.0,0
41.707618713378906,26.53342628479004,-2.158761501312256,-0.0,-0.0,-1.0,0.1512239650183857,2.0,0
41.25566482543945,26.66012191772461,-2.219058036804199,-0.0,-0.0,-1.0,0.035998498073108794,1.0,0
40.96293640136719,26.98651123046875,-2.3048181533813477,-0.0,-0.0,-1.0,0.060042487734220766,1.0,0
41.11406707763672,26.33487319946289,-2.169651508331299,-0.0,-0.0,-1.0,0.08384004287894954,2.0,0
40.215694427490234,26.513568878173828,-2.282308578491211,-0.0,-0.0,-1.0,0.08146881410713956,1.0,0
41.13660430908203,25.972328186035156,-2.0998568534851074,-0.0,-0.0,-1.0,0.09006629676179552,1.0,0
40.946380615234375,25.870155334472656,-2.097520351409912,-0.3945287152003788,0.6634654534414828,-0.63573633290227,0.11033595885960096,3.0,0
40.35426330566406,25.958038330078125,-2.1675586700439453,-0.0,-0.0,-1.0,0.20640066204575996,1.0,0
40.77360534667969,25.804283142089844,-2.100734233856201,-0.0,-0.0,-1.0,0.07577905683373841,2.0,0
41.69297790527344,27.570045471191406,-1.4755280017852783,-0.0,-0.0,-1.0,0.28638973310484594,1.0,0
42.70123291015625,26.521163940429688,-2.5480151176452637,-0.0,-0.0,-1.0,0.01835692548982944,1.0,0
42.48125457763672,26.671064376831055,-2.6032321453094482,-0.0,-0.0,-1.0,0.021232309687668878,1.0,0
40.70810317993164,27.927249908447266,-2.4232888221740723,-0.0,-0.0,-1.0,0.1732044479737767,2.0,0
40.458030700683594,27.946075439453125,-2.4525866508483887,-0.0,-0.0,-1.0,0.17549637206717653,2.0,0
42.23347473144531,26.265213012695312,-2.537621021270752,-0.0,-0.0,-1.0,0.02770628223566051,1.0,0
42.090415954589844,25.967926025390625,-2.4869000911712646,-0.0,-0.0,-1.0,0.0432493949139441,1.0,0
41.95859146118164,25.724647521972656,-2.4478039741516113,-0.0,-0.0,-1.0,0.03519279675051116,1.0,0
40.7404670715332,26.200830459594727,-2.1048552989959717,-0.9079302035795949,-0.08834667062660903,-0.40970429728904284,0.14247240416435478,3.0,0
40.30645751953125,26.57699966430664,-2.221107244491577,-0.0,-0.0,-1.0,0.08806152158766076,1.0,0
42.70522689819336,27.042726516723633,-2.5397236347198486,-0.0,-0.0,-1.0,0.009930312920485448,1.0,0
42.62456512451172,26.75360107421875,-2.484501600265503,-0.0,-0.0,-1.0,0.014445353296513714,1.0,0
42.61077117919922,26.44892120361328,-2.4190990924835205,-0.0,-0.0,-1.0,0.01807349384188782,1.0,0
41.86485290527344,27.50677490234375,-2.119356393814087,-0.0,-0.0,-1.0,0.12299573618345269,1.0,0
42.48883819580078,26.38636016845703,-2.418565511703491,-0.0,-0.0,-1.0,0.020422158588602357,1.0,0
42.33669662475586,26.40900230407715,-2.4401471614837646,-0.0,-0.0,-1.0,0.02313276357902125,1.0,0
41.57676315307617,27.430740356445312,-2.13433575630188,-0.0,-0.0,-1.0,0.09712376599229385,1.0,0
40.717594146728516,28.069873809814453,-2.339876651763916,-0.0,-0.0,-1.0,0.153953851283488,1.0,0
40.612789154052734,28.054893493652344,-2.348518133163452,-0.0,-0.0,-1.0,0.21407287087694074,2.0,0
42.107601165771484,26.085403442382812,-2.395803451538086,-0.0,-0.0,-1.0,0.03943788973374387,1.0,0
41.97639465332031,25.978988647460938,-2.388118028640747,-0.0,-0.0,-1.0,0.04697436898935805,1.0,0
40.54810333251953,27.815715789794922,-2.3128461837768555,-0.0,-0.0,-1.0,0.1821903222141854,2.0,0
40.281375885009766,27.66820526123047,-2.3164613246917725,-0.0,-0.0,-1.0,0.10362120700211663,1.0,0
41.813323974609375,25.74996566772461,-2.358421564102173,-0.0,-0.0,-1.0,0.08305290773506202,2.0,0
41.9000244140625,25.889179229736328,-2.3778433799743652,-0.0,-0.0,-1.0,0.04245451927084842,1.0,0
40.744544982910156,26.93645668029785,-2.134505033493042,-0.0,-0.0,-1.0,0.07403788010876525,1.0,0
40.95297622680664,26.679603576660156,-2.065561532974243,-0.0,-0.0,-1.0,0.07910529728596007,1.0,0
40.569580078125,26.29691505432129,-2.041661262512207,-0.0,-0.0,-1.0,0.16646504340271126,1.0,0
41.15370178222656,27.771915435791016,-2.400073528289795,-0.0,-0.0,-1.0,0.08443367601273816,2.0,0
40.82727813720703,27.90650177001953,-2.463028907775879,-0.0,-0.0,-1.0,0.13657984710060025,1.0,0
42.69130325317383,26.19296646118164,-2.45656681060791,-0.0,-0.0,-1.0,0.017046571465665766,2.0,0
40.82522201538086,27.3253116607666,-2.347270965576172,-0.09795677042644801,-0.9346133912716544,-0.3419097541505909,0.03959835601587478,4.0,0
42.421409606933594,25.96595573425293,-2.431122064590454,-0.0,-0.0,-1.0,0.015604908712078635,1.0,0
40.22920227050781,26.67306137084961,-2.290273427963257,-0.0,-0.0,-1.0,0.060352480401485616,2.0,0
41.07387924194336,26.56156349182129,-2.166612148284912,-0.0,-0.0,-1.0,0.07280424241933622,1.0,0
41.031978607177734,26.156959533691406,-2.0912423133850098,-0.0,-0.0,-1.0,0.06595616923657659,1.0,0
40.85481262207031,26.013200759887695,-2.0841214656829834,-0.0,-0.0,-1.0,0.07203018922788286,1.0,0
40.57059860229492,26.166118621826172,-2.148848295211792,0.18015703737164104,0.480006919140734,-0.8585667122958436,0.15785639924016517,3.0,0
40.39265441894531,26.445295333862305,-2.2254550457000732,-0.0,-0.0,-1.0,0.09875836546041276,1.0,0
40.265350341796875,26.071115493774414,-2.1688947677612305,-0.0,-0.0,-1.0,0.07659301348674087,1.0,0
42.565093994140625,28.10708236694336,-2.4713194370269775,-0.0,-0.0,-1.0,0.07806650945627408,1.0,0
42.056610107421875,28.10064697265625,-2.509648084640503,-0.0,-0.0,-1.0,0.15982440619911742,1.0,0
41.83230209350586,28.132457733154297,-2.536137819290161,-0.0,-0.0,-1.0,0.20092699046612048,1.0,0
42.327388763427734,27.934772491455078,-2.4486653804779053,-0.978532792004695,-0.19635484293526778,-0.06259673016510317,0.04202838531434077,3.0,0
42.10013198852539,27.854816436767578,-2.4483091831207275,-0.0,-0.0,-1.0,0.037086543107470435,2.0,0
41.6776008605957,28.015567779541016,-2.5224287509918213,-0.0,-0.0,-1.0,0.1076249453264443,1.0,0
41.23651885986328,27.504993438720703,-2.4449386596679688,-0.0,-0.0,-1.0,0.04355077469352547,1.0,0
41.5798225402832,27.515487670898438,-2.4144508838653564,-0.0,-0.0,-1.0,0.054556107788104616,1.0,0
41.339561462402344,27.40253257751465,-2.411027193069458,-0.0,-0.0,-1.0,0.03861574557443888,1.0,0
41.2154655456543,27.26749038696289,-2.39197039604187,-0.0,-0.0,-1.0,0.03365414859229036,1.0,0
41.6479606628418,26.510513305664062,-2.173818349838257,-0.018776146667932057,0.12044631138387726,-0.9925422622691298,0.19164256940402963,3.0,0
41.20677947998047,26.775856018066406,-2.2791249752044678,-0.0,-0.0,-1.0,0.042397552776028864,1.0,0
41.01302719116211,26.92858123779297,-2.3344647884368896,-0.0,-0.0,-1.0,0.041366394126737316,1.0,0
41.6016731262207,26.49546241760254,-2.174769163131714,-0.018776146667932057,0.12044631138387726,-0.9925422622691298,0.19164256940402963,3.0,0
41.09929275512695,26.32016944885254,-2.1852622032165527,-0.0,-0.0,-1.0,0.08044603903297849,2.0,0
41.00059127807617,25.966089248657227,-2.114779233932495,-0.0,-0.0,-1.0,0.15007659914112634,1.0,0
40.41664505004883,26.40042495727539,-2.2803261280059814,-0.0,-0.0,-1.0,0.05782371590080545,2.0,0
40.829864501953125,25.882099151611328,-2.114588499069214,0.3373079188491075,0.7588349302063108,0.557129174052542,0.08849555885456001,4.0,0
40.73688507080078,25.86353302001953,-2.121028423309326,0.9494625849861509,-0.11689345599690924,-0.2913017673419009,0.053320702574508404,4.0,0
40.53384780883789,28.07347869873047,-2.364051342010498,-0.0,-0.0,-1.0,0.2223727951562827,1.0,0
40.411128997802734,27.900569915771484,-2.3363447189331055,-0.0,-0.0,-1.0,0.26645845838943405,1.0,0
41.873043060302734,28.063152313232422,-2.253566265106201,-0.0,-0.0,-1.0,0.19627104213633434,2.0,0
41.757659912109375,27.389942169189453,-2.106564998626709,0.08347979597165943,-0.26816340128567046,-0.9597497141835628,0.09003614071799043,3.0,0
40.69794464111328,27.785572052001953,-2.2836709022521973,-0.6614106704788733,-0.5655203770595983,-0.4926688828280684,0.2223824879195374,3.0,0
40.50313949584961,27.83871841430664,-2.313654899597168,-0.0,-0.0,-1.0,0.19500290039602897,1.0,0
40.45684814453125,25.909847259521484,-1.8828526735305786,-0.0,-0.0,-1.0,0.1277363896001788,1.0,0
42.538631439208984,28.1282901763916,-2.4106006622314453,-0.0,-0.0,-1.0,0.08211452702930716,1.0,0
42.002384185791016,28.127376556396484,-2.4326205253601074,-0.0,-0.0,-1.0,0.1482029743416148,1.0,0
41.25372314453125,27.924264907836914,-2.4212231636047363,-0.0,-0.0,-1.0,0.0503213200252416,1.0,0
40.964202880859375,27.909664154052734,-2.435849189758301,-0.0,-0.0,-1.0,0.11967394764992355,1.0,0
40.88783264160156,27.714771270751953,-2.3919472694396973,-0.0,-0.0,-1.0,0.12655921073745957,2.0,0
40.43572235107422,27.704368591308594,-2.421706199645996,-0.0,-0.0,-1.0,0.10406718686594027,1.0,0
40.80399703979492,26.879100799560547,-2.187480926513672,-0.0,-0.0,-1.0,0.09232663139946612,1.0,0
40.72272491455078,26.25921630859375,-2.0377845764160156,-0.0,-0.0,-1.0,0.15659181416246684,2.0,0
40.21809005737305,26.530139923095703,-2.1453356742858887,-0.0,-0.0,-1.0,0.09154269325422265,1.0,0
40.64182662963867,26.190067291259766,-2.026531219482422,-0.0,-0.0,-1.0,0.26416259549163384,1.0,0
41.842681884765625,28.089231491088867,-2.280078411102295,-0.0,-0.0,-1.0,0.18174877340015608,2.0,0
40.58440399169922,28.088924407958984,-2.329249382019043,-0.0,-0.0,-1.0,0.23832032850827278,2.0,0
41.72684097290039,27.371122360229492,-2.103987216949463,0.3503303618978832,-0.8103830123495662,-0.4696253941470169,0.10235387856237368,5.0,0
40.484622955322266,27.810548782348633,-2.2651162147521973,-0.0,-0.0,-1.0,0.1688909387312608,1.0,0
40.23328399658203,25.69002914428711,-1.7514034509658813,-0.0,-0.0,-1.0,0.1157675067325203,1.0,0
41.77885437011719,27.41449737548828,-1.8892484903335571,-0.0,-0.0,-1.0,0.07247553274854122,1.0,0
41.740394592285156,27.411701202392578,-2.046372652053833,-0.0,-0.0,-1.0,0.09003614071799033,1.0,0
41.756717681884766,27.378707885742188,-2.0035488605499268,-0.0,-0.0,-1.0,0.09003614071799042,1.0,0
40.89040756225586,27.890125274658203,-2.0849995613098145,-0.0,-0.0,-1.0,0.18760690649292022,1.0,0
41.70071029663086,27.374122619628906,-2.112368583679199,-0.10643241222152393,-0.9940301236835589,-0.024005308545321704,0.10235387856237371,3.0,0
40.57343292236328,28.077369689941406,-2.466477870941162,-0.0,-0.0,-1.0,0.2106762239468635,2.0,0
42.65489959716797,26.181007385253906,-2.4460651874542236,-0.0,-0.0,-1.0,0.012494678489464093,2.0,0
40.85798263549805,27.528156280517578,-2.398038387298584,-0.0,-0.0,-1.0,0.07416651006154854,2.0,0
40.594181060791016,27.61678695678711,-2.3767755031585693,-0.0,-0.0,-1.0,0.1347275156168337,2.0,0
41.21699142456055,27.09168243408203,-2.3687145709991455,-0.0,-0.0,-1.0,0.022423300306966636,1.0,0
40.91068649291992,27.200231552124023,-2.342223644256592,-0.0,-0.0,-1.0,0.02804912315534848,1.0,0
40.663963317871094,27.462600708007812,-2.3562586307525635,-0.0,-0.0,-1.0,0.10717742519787224,2.0,0
41.77085494995117,26.357444763183594,-2.323793888092041,-0.0,-0.0,-1.0,0.14295848184115553,1.0,0
41.67030334472656,26.431983947753906,-2.320244550704956,-0.0,-0.0,-1.0,0.1481508707624138,1.0,0
41.826778411865234,26.169979095458984,-2.300151824951172,-0.0,-0.0,-1.0,0.09790882676992553,2.0,0
40.61789321899414,26.254039764404297,-2.1159844398498535,0.012079956655235563,0.7915109254599197,-0.6110356205040661,0.17363073400378268,3.0,0
40.82545471191406,25.931716918945312,-2.0898005962371826,0.7262660843086833,-0.5762495530419747,-0.37479864914625366,0.12445358190761983,5.0,0
40.685752868652344,26.088926315307617,-2.0960803031921387,-0.5283741221268362,0.4796701603309199,-0.7005264622801941,0.12985940481058772,6.0,0
40.76608657836914,27.921051025390625,-2.3840932846069336,-0.0,-0.0,-1.0,0.14561559821924402,2.0,0
40.44011688232422,27.942785263061523,-2.3357720375061035,-0.0,-0.0,-1.0,0.24140499080309297,2.0,0
41.48322296142578,27.30667495727539,-2.4037184715270996,-0.0,-0.0,-1.0,0.05007924101009466,1.0,0
41.25011444091797,27.509723663330078,-2.3963394165039062,-0.0,-0.0,-1.0,0.10998709749475578,2.0,0
40.94245529174805,27.690689086914062,-2.3744449615478516,-0.0,-0.0,-1.0,0.0938754074072513,1.0,0
42.167999267578125,26.479154586791992,-2.4015707969665527,-0.0,-0.0,-1.0,0.021853255085899307,1.0,0
41.71388244628906,26.40962791442871,-2.3082547187805176,-0.0,-0.0,-1.0,0.1527048302908565,2.0,0
42.60657501220703,25.967092514038086,-2.4129319190979004,-0.0,-0.0,-1.0,0.012165383924203932,1.0,0
41.88555908203125,26.174072265625,-2.3057498931884766,-0.0,-0.0,-1.0,0.102729811640067,1.0,0
40.32870101928711,27.19186019897461,-2.1909360885620117,-0.0,-0.0,-1.0,0.026871360017047707,1.0,0
40.69410705566406,26.843482971191406,-2.1950764656066895,-0.0,-0.0,-1.0,0.049753572400153656,1.0,0
41.51390075683594,26.005184173583984,-2.212798595428467,-0.0,-0.0,-1.0,0.048038685382557324,1.0,0
40.645957946777344,26.26875114440918,-2.0963730812072754,0.643806679828913,-0.22714795495819853,-0.7306960829003939,0.15693777718213672,4.0,0
40.857425689697266,25.94933319091797,-2.08524751663208,-0.023380147411077336,0.07813878687878001,-0.9966682992310676,0.12411310966115492,4.0,0
40.70233917236328,26.096040725708008,-2.0797457695007324,-0.05519897165422934,0.4948840622694371,-0.8672040350690347,0.10770793762709685,6.0,0
40.301849365234375,25.711322784423828,-2.2511959075927734,-0.0,-0.0,-1.0,0.03818176681832262,2.0,0
41.0046272277832,27.355133056640625,-2.2635815143585205,-0.0,-0.0,-1.0,0.06856330874558399,1.0,0
41.037841796875,27.756710052490234,-2.320091962814331,-0.0,-0.0,-1.0,0.09286169409057408,1.0,0
41.388893127441406,27.96297836303711,-2.370795488357544,-0.0,-0.0,-1.0,0.04889341236903691,1.0,0
41.536216735839844,27.974876403808594,-2.3819754123687744,-0.0,-0.0,-1.0,0.07942907414336396,1.0,0
42.605628967285156,28.068038940429688,-2.464536428451538,-0.0,-0.0,-1.0,0.0712263842801175,2.0,0
40.7717399597168,26.01260757446289,-2.083545684814453,-0.0,-0.0,-1.0,0.08272272981308199,2.0,0
40.61997985839844,26.26667022705078,-2.0995821952819824,0.012079956655235563,0.7915109254599197,-0.6110356205040661,0.14172422965782025,3.0,0
41.71281433105469,26.473953247070312,-2.2173566818237305,-0.0,-0.0,-1.0,0.1738044453971273,2.0,0
40.559410095214844,27.878704071044922,-2.2819771766662598,-0.0,-0.0,-1.0,0.21151124884124317,2.0,0
40.7518196105957,27.95368194580078,-2.306675910949707,-0.0,-0.0,-1.0,0.19346247745207212,2.0,0
42.01226806640625,27.84298324584961,-2.399430751800537,-0.0,-0.0,-1.0,0.04704962363471281,1.0,0
40.29755401611328,26.00430679321289,-2.2591004371643066,-0.0,-0.0,-1.0,0.04097646609057393,1.0,0
40.66349792480469,25.936969757080078,-2.236839771270752,-0.0,-0.0,-1.0,0.2065549096300176,1.0,0
41.011932373046875,25.890216827392578,-2.220550537109375,-0.0,-0.0,-1.0,0.17597803456061953,1.0,0
40.256649017333984,26.354351043701172,-2.341641902923584,-0.0,-0.0,-1.0,0.06635771516689885,2.0,0
40.63127136230469,26.181659698486328,-2.2939529418945312,-0.0,-0.0,-1.0,0.26150726200322916,1.0,0
41.759212493896484,26.575511932373047,-2.3662309646606445,-0.0,-0.0,-1.0,0.14894434528198489,1.0,0
40.66523742675781,25.87773895263672,-2.1698756217956543,-0.0,-0.0,-1.0,0.10229499427766593,1.0,0
40.87527847290039,25.86410903930664,-2.189563751220703,-0.0,-0.0,-1.0,0.15888654653306686,2.0,0
40.57465744018555,26.22364044189453,-2.2088427543640137,-0.29282842166373896,-0.9531662935820617,0.07566724684405,0.1743923158981134,4.0,0
40.40925979614258,26.574020385742188,-2.241457939147949,-0.0,-0.0,-1.0,0.05425187909366372,2.0,0
42.43595886230469,26.415081024169922,-2.4292430877685547,-0.0,-0.0,-1.0,0.018050889640113046,1.0,0
42.55944061279297,26.33374786376953,-2.4316258430480957,-0.0,-0.0,-1.0,0.021246577465144263,1.0,0
40.469242095947266,26.82699966430664,-2.283029556274414,-0.0,-0.0,-1.0,0.019830853891153546,1.0,0
40.563621520996094,27.563316345214844,-2.3966269493103027,-0.0,-0.0,-1.0,0.10920893708143589,1.0,0
40.49032974243164,27.794654846191406,-2.4225144386291504,-0.0,-0.0,-1.0,0.17116356060146906,1.0,0
40.725494384765625,27.61446762084961,-2.419666290283203,-0.38191995778218374,-0.752999279659449,-0.535844409021878,0.08401641807763305,3.0,0
40.46870422363281,28.04277801513672,-2.4559216499328613,-0.0,-0.0,-1.0,0.1816558378650103,1.0,0
40.641937255859375,26.167469024658203,-2.1325035095214844,0.08926876147568794,0.12955793826415796,-0.9875453553418888,0.18716747673880565,5.0,0
41.66492462158203,26.577411651611328,-2.2838125228881836,-0.0,-0.0,-1.0,0.1777968506456859,2.0,0
41.688575744628906,26.804981231689453,-2.320216178894043,-0.0,-0.0,-1.0,0.07581645648109825,1.0,0
41.05892562866211,27.570629119873047,-2.3829355239868164,-0.0,-0.0,-1.0,0.02754041771258733,2.0,0
40.8109016418457,27.72775650024414,-2.3866801261901855,-0.0,-0.0,-1.0,0.14077029422725518,2.0,0
41.050045013427734,27.738990783691406,-2.4081802368164062,-0.0,-0.0,-1.0,0.0658031798948033,1.0,0
41.328460693359375,27.664344787597656,-2.419966220855713,-0.0,-0.0,-1.0,0.07788515843134085,1.0,0
40.78362274169922,25.952613830566406,-2.1119771003723145,0.8867251937132133,0.41020601145489777,0.2131887872298374,0.12373900067871228,3.0,0
40.686317443847656,26.052902221679688,-2.1188249588012695,0.3052143611904918,0.6478534231046177,-0.6979470867441951,0.12928595839906698,5.0,0
42.14509963989258,27.761249542236328,-2.4513797760009766,-0.0,-0.0,-1.0,0.0462609304978755,1.0,0
40.85758972167969,26.10885238647461,-2.0856006145477295,-0.0,-0.0,-1.0,0.08359370790180905,2.0,0
40.73268127441406,26.223068237304688,-2.0923967361450195,-0.9512096745784485,-0.2460498976742043,-0.18617089687401686,0.15014414900671164,5.0,0
40.486873626708984,25.841552734375,-1.8716341257095337,-0.0,-0.0,-1.0,0.11711349640157342,2.0,0
41.81138229370117,26.192670822143555,-2.312802791595459,-0.0,-0.0,-1.0,0.08601505325086124,2.0,0
41.065345764160156,27.965625762939453,-2.3920986652374268,-0.0,-0.0,-1.0,0.08414699059100576,1.0,0
40.714393615722656,27.754688262939453,-2.3451337814331055,-0.923047772249354,-0.38327834764689633,0.0328712392612379,0.18788521044964757,4.0,0
40.421165466308594,27.79598617553711,-2.323538064956665,-0.0,-0.0,-1.0,0.12585198151694602,1.0,0
40.61309051513672,26.102632522583008,-2.202873945236206,-0.0,-0.0,-1.0,0.14685768145248967,1.0,0
40.59000015258789,26.597204208374023,-2.2408862113952637,-0.0,-0.0,-1.0,0.023430949538957538,2.0,0
40.70709228515625,28.13593101501465,-2.2441296577453613,-0.0,-0.0,-1.0,0.17989679119323795,2.0,0
40.65299606323242,27.73434066772461,-2.3644790649414062,-0.0,-0.0,-1.0,0.11495599516994696,1.0,0
40.57083511352539,28.026615142822266,-2.400954246520996,-0.0,-0.0,-1.0,0.21525595350848864,2.0,0
41.02156066894531,25.893817901611328,-2.136152744293213,-0.8759369367539941,0.2681487173051792,-0.4010370908502311,0.15533644465589247,3.0,0
40.73072052001953,25.791831970214844,-2.117672920227051,0.7139536642494224,-0.02906074601616521,-0.6995896213822839,0.07394574455967236,4.0,0
40.683250427246094,26.001590728759766,-2.143402576446533,0.5155280099689296,-0.32375267027299487,-0.7933568424287906,0.11927677250844618,4.0,0
40.62327194213867,26.201629638671875,-2.167752742767334,-0.45514938282578776,-0.5001056103739785,-0.7367044304100354,0.1700810212055783,6.0,0
40.55232238769531,26.69203758239746,-2.229124069213867,-0.0,-0.0,-1.0,0.02895481917178043,1.0,0
40.51526641845703,26.008872985839844,-1.9010460376739502,-0.0,-0.0,-1.0,0.0456768110664355,2.0,0
41.76490783691406,27.37549591064453,-1.9227583408355713,-0.0,-0.0,-1.0,0.06279659636090557,1.0,0
41.81158447265625,27.46747589111328,-2.1747899055480957,-0.0,-0.0,-1.0,0.09143467539419141,1.0,0
40.725337982177734,27.727779388427734,-2.148749828338623,-0.0,-0.0,-1.0,0.17949422274615084,1.0,0
40.76034927368164,27.685848236083984,-2.2060351371765137,-0.0,-0.0,-1.0,0.1689935753857436,2.0,0
40.75083541870117,28.115631103515625,-2.2656259536743164,-0.0,-0.0,-1.0,0.1537791382082374,2.0,0
40.45523452758789,27.881267547607422,-2.220679759979248,-0.0,-0.0,-1.0,0.18008607127467177,1.0,0
41.735984802246094,26.407855987548828,-2.1638174057006836,-0.0,-0.0,-1.0,0.13666685722020822,1.0,0
41.62163162231445,26.526592254638672,-2.1713690757751465,-0.018776146667932057,0.12044631138387726,-0.9925422622691298,0.19164256940402957,3.0,0
42.10475158691406,27.938926696777344,-2.396876335144043,-0.46599894004350106,0.5321509766563542,-0.7068665545363013,0.051171018242018605,3.0,0
40.77963638305664,28.00408172607422,-2.3152718544006348,-0.0,-0.0,-1.0,0.19515480884648345,2.0,0
40.4415397644043,27.871051788330078,-2.2742881774902344,-0.0,-0.0,-1.0,0.23051996303803252,1.0,0
40.82421875,26.068077087402344,-2.0521864891052246,-0.0,-0.0,-1.0,0.0712829676456295,1.0,0
40.72187805175781,26.190597534179688,-2.0614542961120605,-0.9079302035795949,-0.08834667062660903,-0.40970429728904284,0.11804240481648846,3.0,0
41.880104064941406,26.499080657958984,-2.2957029342651367,-0.0,-0.0,-1.0,0.15394118104884705,1.0,0
40.774681091308594,27.528520584106445,-2.3852391242980957,0.3315628664170456,0.6493679930732748,-0.6843882488655838,0.1360593058328219,4.0,0
41.89215850830078,26.243467330932617,-2.25750994682312,-0.7627551190743397,0.5261169013831241,-0.3760394053884645,0.10262466940602114,3.0,0
40.94369125366211,25.83745574951172,-2.129977226257324,0.032599363571020404,0.7293618463062962,-0.6833509922780789,0.12642020090767137,4.0,0
41.06937789916992,26.92404556274414,-2.3076083660125732,-0.0,-0.0,-1.0,0.03525886701777517,1.0,0
40.738746643066406,25.906208038330078,-2.126751184463501,0.22346700505737474,-0.09103396911919559,-0.9704510879570865,0.07431599123907527,5.0,0
40.7006721496582,26.181232452392578,-2.167010545730591,-0.4273892826101435,-0.8228343729648658,-0.3745423818174699,0.1481789024699414,5.0,0
40.704254150390625,26.722686767578125,-2.2523303031921387,-0.0,-0.0,-1.0,0.034186816219769746,1.0,0
40.82809829711914,27.1214599609375,-2.323460817337036,-0.0,-0.0,-1.0,0.046874346149722815,2.0,0
40.8369255065918,27.30636978149414,-2.3534839153289795,0.7800986375624592,0.38891252050970554,-0.4900950592119682,0.043218590308526,4.0,0
40.534446716308594,27.619632720947266,-2.3852927684783936,-0.0,-0.0,-1.0,0.11241940697271592,1.0,0
41.870819091796875,26.211383819580078,-2.259113311767578,-0.5979159198807499,0.43144622137376926,-0.6755373496820534,0.10212317682454362,3.0,0
41.84221267700195,26.28679847717285,-2.268630027770996,-0.0,-0.0,-1.0,0.10647813067858067,1.0,0
41.837303161621094,26.382705688476562,-2.2832393646240234,-0.0,-0.0,-1.0,0.13951508085353287,2.0,0
41.06094741821289,25.815582275390625,-2.1344263553619385,-0.0,-0.0,-1.0,0.1439745555460156,1.0,0
40.8506965637207,25.825572967529297,-2.1199400424957275,-0.0,-0.0,-1.0,0.08507451220517136,2.0,0
40.709136962890625,26.039989471435547,-2.1433935165405273,0.18105363736671437,0.39612471982160746,-0.9001693100425804,0.11686962348104232,5.0,0
40.82796096801758,26.923900604248047,-2.2951929569244385,-0.0,-0.0,-1.0,0.0762840563039195,1.0,0
40.776611328125,27.320049285888672,-2.356746196746826,0.22790092448987812,-0.9494798396882828,-0.21575264226000065,0.03319475068026435,4.0,0
40.73704147338867,27.54013442993164,-2.3906795978546143,-0.2901857420973371,-0.8626217157339678,-0.41433803907872535,0.1961991608174983,4.0,0
40.321475982666016,26.517559051513672,-2.192615270614624,-0.0,-0.0,-1.0,0.10048675534253457,1.0,0
40.61958694458008,27.689002990722656,-2.4077324867248535,-0.0,-0.0,-1.0,0.10346215288878871,2.0,0
40.60466003417969,25.6386775970459,-2.2163589000701904,-0.0,-0.0,-1.0,0.08313803862725096,1.0,0
40.34059143066406,25.889663696289062,-2.2285094261169434,-0.0,-0.0,-1.0,0.053914945979462066,2.0,0
40.31694793701172,26.41571807861328,-2.3084959983825684,-0.0,-0.0,-1.0,0.10091763764855917,1.0,0
42.07596206665039,27.39678192138672,-2.400391101837158,-0.0,-0.0,-1.0,0.10891425204272495,1.0,0
41.97142028808594,27.658348083496094,-2.4183549880981445,-0.0,-0.0,-1.0,0.02919589075087191,1.0,0
41.90641784667969,27.46039390563965,-2.387490749359131,0.14947148361070278,-0.19407919432194476,-0.9695316095510038,0.16199090047928547,3.0,0
41.76536560058594,27.691936492919922,-2.3979711532592773,-0.0,-0.0,-1.0,0.03004592272086017,1.0,0
41.36453628540039,28.10922622680664,-2.401616096496582,-0.0,-0.0,-1.0,0.04445983949405075,1.0,0
41.83848571777344,26.201351165771484,-2.2369027137756348,-0.0,-0.0,-1.0,0.09305901161114324,2.0,0
41.78675842285156,26.06979751586914,-2.216094493865967,-0.0,-0.0,-1.0,0.08696353989302831,1.0,0
40.722721099853516,27.758018493652344,-2.2853055000305176,-0.641328433954805,-0.7441561666789647,-0.18689419304715207,0.24102497474711473,5.0,0
40.58049011230469,27.928546905517578,-2.290468215942383,-0.0,-0.0,-1.0,0.12264868950023036,1.0,0
40.29273986816406,27.868986129760742,-2.250727653503418,-0.0,-0.0,-1.0,0.23711154304487037,1.0,0
40.85380172729492,25.92715835571289,-2.085062026977539,-0.023380147411077336,0.07813878687878001,-0.9966682992310676,0.10152551550957978,4.0,0
