x,y,z,nx,ny,nz,curvature,density,label
42.26093292236328,3.7284107208251953,-1.4086685180664062,-0.0,-0.0,-1.0,0.027846874930766412,2.0,0
42.43614196777344,3.5029001235961914,-1.414017677307129,0.18594247119215157,0.008134878122890822,-0.982526956966007,0.018636058363455468,3.0,0
42.675018310546875,3.377629280090332,-1.3956222534179688,0.38163852719083213,0.8796769982056298,-0.2837611907776412,0.01070636540882422,3.0,0
40.2535400390625,3.483308792114258,-1.2715139389038086,-0.0,-0.0,-1.0,0.02890042991616357,1.0,0
40.631324768066406,3.2897777557373047,-1.2375521659851074,-0.0,-0.0,-1.0,0.019190981261030766,1.0,0
40.340431213378906,5.597555160522461,-1.4490008354187012,-0.0,-0.0,-1.0,0.02219316844454959,2.0,0
40.46160888671875,5.39135217666626,-1.4475102424621582,0.42845557569683257,0.83445059192075,-0.3465804802602213,0.02196006019255772,3.0,0
40.6744384765625,5.192722797393799,-1.4288012981414795,-0.0,-0.0,-1.0,0.017979397843223482,1.0,0
40.98219299316406,4.932016849517822,-1.4010753631591797,-0.0,-0.0,-1.0,0.01034164627738951,1.0,0
41.08392333984375,4.688814163208008,-1.4117207527160645,-0.0,-0.0,-1.0,0.004808785435194551,1.0,0
41.2325439453125,4.416821479797363,-1.4190261363983154,-0.0,-0.0,-1.0,0.01088857437072211,1.0,0
42.271942138671875,5.434538841247559,-1.508558988571167,-0.0,-0.0,-1.0,0.03228861476953276,1.0,0
41.384666442871094,4.206293106079102,-1.418973684310913,-0.0,-0.0,-1.0,0.027908986251824988,2.0,0
41.515201568603516,4.058477401733398,-1.4157273769378662,0.8384035126703947,0.40893266190087213,-0.36035208889724857,0.027229566166078786,3.0,0
42.46438217163086,5.2470479011535645,-1.4966423511505127,-0.0,-0.0,-1.0,0.09652791215770191,1.0,0
41.82198715209961,3.8397951126098633,-1.3926801681518555,-0.0,-0.0,-1.0,0.03929367320495577,2.0,0
42.68294906616211,4.951408863067627,-1.4982099533081055,-0.0,-0.0,-1.0,0.09068780178410459,2.0,0
42.15308380126953,3.5610876083374023,-1.3768455982208252,-0.0,-0.0,-1.0,0.018839393315394005,1.0,0
42.432132720947266,3.2956390380859375,-1.3707950115203857,-0.0419814777401198,0.06403852814658681,-0.9970640011752374,0.021202400938093436,3.0,0
42.442848205566406,3.2193708419799805,-1.3804421424865723,-0.0,-0.0,-1.0,0.020384182196768946,2.0,0
42.68609619140625,3.190281867980957,-1.3463921546936035,-0.0,-0.0,-1.0,0.018781766700578184,1.0,0
40.258644104003906,3.2373905181884766,-1.2383220195770264,-0.0,-0.0,-1.0,0.03249474486391123,1.0,0
40.274593353271484,5.193515777587891,-1.4245927333831787,-0.0,-0.0,-1.0,0.11845365486100824,1.0,0
40.678253173828125,4.996304035186768,-1.374751091003418,-0.0,-0.0,-1.0,0.03390947855851905,1.0,0
40.49732971191406,5.004487037658691,-1.4069111347198486,-0.0,-0.0,-1.0,0.09550321740448713,1.0,0
40.841373443603516,4.70155668258667,-1.3838772773742676,-0.0,-0.0,-1.0,0.007350160903451518,1.0,0
41.97929382324219,5.618221282958984,-1.4601902961730957,0.5471254652972648,-0.25953489409668307,-0.7957985699719969,0.07582613450182991,3.0,0
41.09175109863281,4.374598503112793,-1.3842227458953857,-0.0,-0.0,-1.0,0.010185854072906687,2.0,0
42.224365234375,5.440674781799316,-1.43696928024292,-0.0,-0.0,-1.0,0.025593900055652194,1.0,0
42.2889404296875,5.195058822631836,-1.4634227752685547,-0.0,-0.0,-1.0,0.03847514662040348,1.0,0
41.33271026611328,4.046151638031006,-1.389519214630127,-0.0,-0.0,-1.0,0.02919146511533507,1.0,0
42.47441482543945,4.956759452819824,-1.4662137031555176,-0.0,-0.0,-1.0,0.0859903466127155,1.0,0
41.669769287109375,3.8280506134033203,-1.365494728088379,0.31168153729392384,-0.035388115810376035,-0.9495274090669988,0.06916249814305747,3.0,0
41.870567321777344,3.6449031829833984,-1.360633373260498,-0.0,-0.0,-1.0,0.028934264589784646,2.0,0
42.22574996948242,3.302471160888672,-1.3585522174835205,-0.0,-0.0,-1.0,0.01390105256712114,2.0,0
40.3592529296875,5.040424346923828,-0.9718954563140869,-0.6312573505416365,0.7296023354251796,-0.26304864479650375,0.13655878775194055,5.0,0
42.0578498840332,3.559048652648926,-1.3441128730773926,-0.0,-0.0,-1.0,0.019334305186898444,1.0,0
42.307003021240234,3.3094587326049805,-1.3450469970703125,-0.0,-0.0,-1.0,0.01751640214862403,2.0,0
42.347572326660156,3.2419166564941406,-1.3496136665344238,-0.0,-0.0,-1.0,0.01773313865561756,1.0,0
41.78248596191406,5.496877670288086,-1.4761236906051636,-0.01615750414040629,-0.5141938202956804,-0.857521807436806,0.025895299960814088,3.0,0
42.13655471801758,5.0748291015625,-1.4726709127426147,-0.0,-0.0,-1.0,0.024948909223783643,1.0,0
42.326175689697266,4.876466751098633,-1.4690603017807007,-0.0,-0.0,-1.0,0.04734759543478781,1.0,0
42.669532775878906,4.476259231567383,-1.4751440286636353,-0.18285062336258517,-0.9445683247653206,-0.2726835700696878,0.03814938071967149,3.0,0
40.53969192504883,4.900083541870117,-1.3994449377059937,-0.0,-0.0,-1.0,0.06175724962016033,1.0,0
42.043792724609375,5.415370941162109,-1.433935523033142,-0.3999976066614022,-0.5643385399198944,-0.7221661353360682,0.07625823663392733,3.0,0
40.79197692871094,4.601737976074219,-1.3949331045150757,-0.0,-0.0,-1.0,0.00710191819676615,1.0,0
42.15678405761719,5.251805782318115,-1.4379292726516724,-0.0,-0.0,-1.0,0.03373365788172458,2.0,0
42.035091400146484,5.296391010284424,-1.4557489156723022,-0.0,-0.0,-1.0,0.04644347381060601,1.0,0
41.031455993652344,4.290377140045166,-1.3975645303726196,-0.0,-0.0,-1.0,0.018554395882238273,1.0,0
42.507179260253906,5.025521755218506,-1.4058641195297241,-0.30719642148829146,-0.5552196620466844,-0.7728916389129552,0.13714652504597527,5.0,0
42.38246154785156,4.836312770843506,-1.465192198753357,-0.0,-0.0,-1.0,0.05249554151794612,1.0,0
41.27317428588867,3.9826440811157227,-1.4023069143295288,-0.0,-0.0,-1.0,0.02642799846866884,2.0,0
40.37161636352539,3.1461973190307617,-1.2112971544265747,-0.0,-0.0,-1.0,0.022823349995293486,2.0,0
42.59519958496094,4.592923164367676,-1.4677215814590454,-0.0,-0.0,-1.0,0.030695893974146595,1.0,0
41.63319396972656,3.7518744468688965,-1.3777462244033813,0.4229290497078443,0.04287052006156206,-0.9051481300996379,0.07330416482857781,4.0,0
42.0162353515625,3.4971542358398438,-1.356784701347351,-0.0,-0.0,-1.0,0.017662993728925446,1.0,0
41.816246032714844,3.5877132415771484,-1.3741387128829956,0.7330583248518887,0.5943990938381933,-0.33062850695255824,0.06324636212235699,3.0,0
42.28384017944336,3.242466926574707,-1.3578985929489136,-0.0,-0.0,-1.0,0.01645889882812292,2.0,0
42.1761474609375,3.2265796661376953,-1.3773752450942993,-0.0,-0.0,-1.0,0.012026760440433982,2.0,0
40.34766387939453,4.975796699523926,-0.9874454736709595,-0.6706154634106951,-0.48283910768913313,-0.563152995482063,0.137717223985266,3.0,0
41.269100189208984,5.297792434692383,-1.4694806337356567,-0.0,-0.0,-1.0,0.013424956353445682,1.0,0
41.10770797729492,5.453585147857666,-1.48428475856781,-0.5908297525981641,0.5734857266226899,-0.5674806823186473,0.0103899786776398,3.0,0
41.47944641113281,5.067037582397461,-1.4562658071517944,-0.0,-0.0,-1.0,0.004353837701797022,1.0,0
41.737144470214844,4.719679355621338,-1.453386664390564,-0.858736962963288,0.20546353967713543,-0.4694204536488908,0.02209837787645765,4.0,0
42.10980987548828,4.313881874084473,-1.4413107633590698,-0.0,-0.0,-1.0,0.03473250197682274,1.0,0
41.955284118652344,4.4418745040893555,-1.4520210027694702,-0.0,-0.0,-1.0,0.06151306604227687,2.0,0
42.29177474975586,4.085160255432129,-1.4440056085586548,-0.0,-0.0,-1.0,0.04460475479919624,1.0,0
42.56227111816406,3.7866501808166504,-1.443616509437561,-0.0,-0.0,-1.0,0.018564366437433078,2.0,0
40.28309631347656,4.544008255004883,-1.3628267049789429,-0.0,-0.0,-1.0,0.04958582246550011,2.0,0
41.65595626831055,4.904745101928711,-1.4419997930526733,-0.0,-0.0,-1.0,0.010755231714310958,1.0,0
40.52672576904297,4.184795379638672,-1.3613377809524536,-0.0,-0.0,-1.0,0.023317727896480945,1.0,0
40.751747131347656,3.8550901412963867,-1.3629363775253296,-0.0,-0.0,-1.0,0.017735730319221592,1.0,0
42.32175064086914,4.135349750518799,-1.429057240486145,-0.0,-0.0,-1.0,0.03532660541753345,2.0,0
41.134925842285156,3.5373992919921875,-1.337591290473938,0.3980722537362857,0.12872939257619453,-0.9082770636167569,0.005466842891002615,3.0,0
41.038299560546875,3.630138397216797,-1.3418771028518677,-0.0,-0.0,-1.0,0.00604125055707177,2.0,0
41.29723358154297,3.2139368057250977,-1.3561125993728638,-0.0,-0.0,-1.0,0.0038675758781948166,1.0,0
41.17845153808594,3.3854446411132812,-1.3516851663589478,-0.0,-0.0,-1.0,0.00497430984802928,2.0,0
40.30197525024414,4.961103439331055,-0.8893362283706665,-0.452197683508303,-0.5064562427745134,-0.7341793576398397,0.1634812639464892,7.0,0
40.90653610229492,5.227944374084473,-1.474581003189087,-0.0,-0.0,-1.0,0.012329367328751588,2.0,0
40.75810241699219,5.4106597900390625,-1.482945203781128,-0.0,-0.0,-1.0,0.014233880319975885,2.0,0
41.32733917236328,4.876867294311523,-1.43255615234375,-0.0,-0.0,-1.0,0.006944032552149891,1.0,0
41.12828826904297,5.036436080932617,-1.4526755809783936,-0.0,-0.0,-1.0,0.012883938494672566,1.0,0
40.293800354003906,5.015717029571533,-1.241096019744873,-0.0,-0.0,-1.0,0.1864638388315216,1.0,0
41.44285583496094,4.556304931640625,-1.4586234092712402,-0.0,-0.0,-1.0,0.022342125189015728,1.0,0
41.305206298828125,4.72175407409668,-1.4619333744049072,-0.0,-0.0,-1.0,0.004140041834501521,1.0,0
40.218265533447266,4.362536430358887,-1.3379075527191162,-0.0,-0.0,-1.0,0.03522141315236887,1.0,0
41.853309631347656,4.15389347076416,-1.4397356510162354,-0.0,-0.0,-1.0,0.0525003094799078,2.0,0
41.65070724487305,4.328908920288086,-1.4520525932312012,-0.0,-0.0,-1.0,0.027129689523920357,2.0,0
40.384647369384766,4.071796894073486,-1.3441619873046875,-0.0,-0.0,-1.0,0.017523459484448625,1.0,0
42.08843231201172,3.9328107833862305,-1.4313454627990723,-0.0,-0.0,-1.0,0.0420519266226469,1.0,0
40.7701416015625,3.6636834144592285,-1.3282158374786377,-0.0,-0.0,-1.0,0.0037888565794898794,1.0,0
40.572452545166016,3.833719253540039,-1.3409879207611084,-0.0,-0.0,-1.0,0.0221886389654366,2.0,0
42.479183197021484,3.585041046142578,-1.4192218780517578,-0.0,-0.0,-1.0,0.015870263490189645,1.0,0
42.26335906982422,3.7288661003112793,-1.4337835311889648,-0.0,-0.0,-1.0,0.027776033723260447,2.0,0
40.98150634765625,3.371220588684082,-1.3325204849243164,-0.0,-0.0,-1.0,0.005956990612536458,2.0,0
42.705162048339844,3.356494426727295,-1.420600414276123,0.38163852719083213,0.8796769982056298,-0.2837611907776412,0.011737444792647048,3.0,0
40.32970428466797,4.652711868286133,-1.4337066411972046,-0.0,-0.0,-1.0,0.060826333727394905,1.0,0
40.983951568603516,4.080015182495117,-1.3940104246139526,-0.0,-0.0,-1.0,0.02159799426468869,1.0,0
40.77685546875,4.287082195281982,-1.4005709886550903,-0.0,-0.0,-1.0,0.02102216077015792,1.0,0
40.59819030761719,4.496552467346191,-1.4025973081588745,-0.0,-0.0,-1.0,0.04366408168361782,1.0,0
41.38431930541992,3.6309475898742676,-1.396828532218933,-0.0,-0.0,-1.0,0.07288581989465315,2.0,0
41.19011688232422,3.849247932434082,-1.3943780660629272,-0.0,-0.0,-1.0,0.020403869013756012,2.0,0
41.87922286987305,3.22503662109375,-1.3844765424728394,-0.0,-0.0,-1.0,0.025880498082129288,2.0,0
41.56529235839844,3.475837230682373,-1.3923434019088745,-0.0,-0.0,-1.0,0.05760938813380923,1.0,0
40.62366485595703,4.5629143714904785,-1.3869551420211792,-0.0,-0.0,-1.0,0.04095975141260605,1.0,0
40.526092529296875,4.615959167480469,-1.2038668394088745,-0.0,-0.0,-1.0,0.1120541393373952,1.0,0
41.03693389892578,4.055892467498779,-1.3878461122512817,0.12007247278672682,0.06649176787691712,-0.9905359388146817,0.019838302841368685,3.0,0
41.06755065917969,4.03468656539917,-1.3855582475662231,0.12007247278672682,0.06649176787691712,-0.9905359388146817,0.02010476961590909,3.0,0
41.86166000366211,3.2698140144348145,-1.379163146018982,-0.7636938830755315,-0.22786535774233474,-0.6040273434985985,0.025948405455273885,3.0,0
40.74700927734375,4.24995756149292,-1.2942070960998535,-0.0,-0.0,-1.0,0.019977193364020866,1.0,0
40.51566696166992,4.393599033355713,-1.278956413269043,-0.0,-0.0,-1.0,0.03238696775912315,1.0,0
40.46559143066406,4.97041130065918,-1.38044011592865,-0.40367186771820596,0.19708783744224423,-0.8934234200787635,0.143595036929606,3.0,0
42.51291275024414,5.384079933166504,-1.504620909690857,-0.0,-0.0,-1.0,0.0494966841795475,2.0,0
42.089717864990234,5.497196197509766,-1.4425610303878784,-0.0,-0.0,-1.0,0.0884849599811749,2.0,0
41.15137481689453,5.562857627868652,-1.4885635375976562,-0.0,-0.0,-1.0,0.009714114605015273,2.0,0
42.4593620300293,4.494521141052246,-1.4567005634307861,-0.0,-0.0,-1.0,0.0395761098804088,1.0,0
41.84453582763672,5.3587541580200195,-1.4618422985076904,-0.0,-0.0,-1.0,0.05095655234131166,1.0,0
41.6392707824707,5.324676513671875,-1.4507899284362793,-0.0,-0.0,-1.0,0.006229849411822124,2.0,0
41.44322204589844,5.2369184494018555,-1.4539499282836914,-0.0,-0.0,-1.0,0.006528710029847758,1.0,0
41.19967269897461,5.20090389251709,-1.4418654441833496,-0.0,-0.0,-1.0,0.011314069370007828,2.0,0
42.50286865234375,3.769167900085449,-1.4168932437896729,-0.0,-0.0,-1.0,0.01988610787569745,1.0,0
42.568206787109375,3.7401485443115234,-1.4275553226470947,-0.0,-0.0,-1.0,0.014534342309761446,2.0,0
42.332489013671875,3.7496795654296875,-1.4085032939910889,-0.0,-0.0,-1.0,0.0230472093845105,2.0,0
41.920127868652344,3.761002540588379,-1.377802848815918,0.8437064140340501,-0.5350824147932358,0.04296855009007637,0.03860491325355905,3.0,0
41.69178771972656,3.789766311645508,-1.3568403720855713,-0.0,-0.0,-1.0,0.06666637140511185,2.0,0
41.47949981689453,4.432853698730469,-1.4291496276855469,-0.0,-0.0,-1.0,0.023114002971107255,2.0,0
41.33137130737305,4.380364418029785,-1.426027774810791,-0.0,-0.0,-1.0,0.014906737289757317,1.0,0
41.13050079345703,4.3827667236328125,-1.407940149307251,-0.0,-0.0,-1.0,0.009521281441877954,2.0,0
40.88286209106445,4.433691024780273,-1.3767659664154053,-0.0,-0.0,-1.0,0.014687154401715842,1.0,0
40.39173889160156,4.794712066650391,-1.2646381855010986,-0.0,-0.0,-1.0,0.15186593677058846,1.0,0
40.6529541015625,4.40998649597168,-1.3625190258026123,-0.0,-0.0,-1.0,0.03502132008937049,1.0,0
40.419036865234375,4.4074506759643555,-1.3444979190826416,-0.0,-0.0,-1.0,0.038455950970876736,1.0,0
40.26091003417969,4.770746231079102,-1.3136091232299805,-0.0,-0.0,-1.0,0.10500936623819213,1.0,0
40.686546325683594,3.1491003036499023,-1.1601567268371582,-0.0,-0.0,-1.0,0.018283653237083416,1.0,0
42.43891906738281,3.817042350769043,-1.3608503341674805,-0.0,-0.0,-1.0,0.02243819573266039,1.0,0
42.0418701171875,3.8006067276000977,-1.3338627815246582,-0.0,-0.0,-1.0,0.04568304644479156,1.0,0
41.75230407714844,3.7066144943237305,-1.3234050273895264,-0.0,-0.0,-1.0,0.03391169008420439,1.0,0
42.31364440917969,4.359189033508301,-1.3447716236114502,-0.0,-0.0,-1.0,0.049310751565545256,1.0,0
42.00172424316406,4.142284393310547,-1.3372037410736084,-0.0,-0.0,-1.0,0.04706079876589416,1.0,0
41.69116973876953,4.004042625427246,-1.3231124877929688,-0.0,-0.0,-1.0,0.05372998055061537,1.0,0
42.39613342285156,4.1684770584106445,-1.3801451921463013,-0.0,-0.0,-1.0,0.04437055788244516,1.0,0
40.341392517089844,4.921513557434082,-0.9838483333587646,-0.0,-0.0,-1.0,0.16023203014604603,2.0,0
42.25616455078125,4.362063407897949,-1.4126510620117188,-0.0,-0.0,-1.0,0.05315211132829772,1.0,0
42.187286376953125,4.125507831573486,-1.400303840637207,-0.0,-0.0,-1.0,0.056893446584767415,1.0,0
42.157020568847656,5.5682291984558105,-1.422166347503662,-0.0,-0.0,-1.0,0.05003021921472793,1.0,0
42.147315979003906,5.487417221069336,-1.419309139251709,-0.0,-0.0,-1.0,0.08295145958954138,1.0,0
42.431556701660156,4.867523670196533,-1.4433531761169434,-0.0,-0.0,-1.0,0.05661514146108231,1.0,0
42.283470153808594,4.525379180908203,-1.4187593460083008,-0.0,-0.0,-1.0,0.03647673565029966,1.0,0
42.527801513671875,5.31414270401001,-1.4639277458190918,-0.0,-0.0,-1.0,0.07119491604026314,1.0,0
40.415733337402344,3.1508054733276367,-1.1681392192840576,-0.0,-0.0,-1.0,0.022513656950681575,1.0,0
41.822242736816406,4.498434066772461,-1.4329053163528442,-0.0,-0.0,-1.0,0.06714886523979788,1.0,0
41.64315414428711,5.169525146484375,-1.4291547536849976,-0.0,-0.0,-1.0,0.00749492031501713,1.0,0
41.66929626464844,4.957315921783447,-1.4262131452560425,-0.0,-0.0,-1.0,0.01155453597419164,1.0,0
41.77667236328125,5.463420867919922,-1.455952525138855,-0.01615750414040629,-0.5141938202956804,-0.857521807436806,0.024268223347733556,3.0,0
40.268348693847656,5.037805557250977,-0.9079204797744751,-0.48301281147999586,-0.8676628707996926,-0.11772750987694389,0.22624553027130923,9.0,0
42.53572082519531,5.211475849151611,-1.328691005706787,-0.0,-0.0,-1.0,0.10232062144188928,1.0,0
40.360633850097656,5.059966087341309,-0.999586820602417,-0.0,-0.0,-1.0,0.14533620309423242,2.0,0
40.26153564453125,4.953014373779297,-1.0123761892318726,-0.17430434415874177,0.5536064506953422,-0.8143327902988412,0.17661958125432747,11.0,0
40.293212890625,4.939234256744385,-0.9538451433181763,0.3865694406376108,0.12924221894220342,-0.9131596335844133,0.15174874368294913,4.0,0
40.443416595458984,5.164188861846924,-1.437438726425171,-0.0,-0.0,-1.0,0.08536735405725161,2.0,0
40.50507354736328,5.476606369018555,-1.4531583786010742,0.1192787958111453,0.8419935053538965,-0.5261363946845921,0.022229001528602722,3.0,0
40.300594329833984,4.940739631652832,-0.8633952140808105,-0.10833263985161498,-0.5249582548409321,-0.8442054665880476,0.2240200950387747,5.0,0
40.378265380859375,4.946107387542725,-1.380169153213501,-0.0,-0.0,-1.0,0.1861675597613112,2.0,0
40.55181884765625,5.028687477111816,-1.414632797241211,-0.0,-0.0,-1.0,0.05591840050249834,2.0,0
40.74717330932617,5.227286338806152,-1.4522054195404053,-0.0,-0.0,-1.0,0.01611673542918617,1.0,0
40.85004806518555,5.405635356903076,-1.4715681076049805,-0.0,-0.0,-1.0,0.010989270719908715,1.0,0
40.28257369995117,4.958550930023193,-0.8855218887329102,-0.22042007766475635,-0.5237029014716736,-0.8228914025267329,0.2247308009351454,8.0,0
40.813385009765625,4.516204833984375,-1.4135771989822388,-0.7265007179684342,0.5331079509930061,-0.43358115662398006,0.01190091024339748,3.0,0
40.85291290283203,4.81008768081665,-1.4106253385543823,-0.0,-0.0,-1.0,0.0074680233277654735,1.0,0
41.02649688720703,4.911479949951172,-1.4434937238693237,-0.0,-0.0,-1.0,0.01078180101597192,1.0,0
41.12687683105469,5.1283135414123535,-1.4578121900558472,-0.0,-0.0,-1.0,0.014678646096857184,1.0,0
41.27119064331055,5.525213718414307,-1.477507472038269,-0.0,-0.0,-1.0,0.011334615190908899,1.0,0
40.27342987060547,4.96738338470459,-1.2830160856246948,0.1111081285794836,0.17170979364751507,-0.9788619568300183,0.1970666987861711,4.0,0
42.578392028808594,3.305643081665039,-1.3722330331802368,-0.0,-0.0,-1.0,0.019079288438215356,1.0,0
40.701377868652344,4.548928737640381,-1.3880265951156616,-0.29149548399846464,-0.6521185760848929,-0.6998369421040255,0.03462695482242173,3.0,0
40.293907165527344,4.9762492179870605,-1.273471713066101,0.1111081285794836,0.17170979364751507,-0.9788619568300183,0.18267003637303963,4.0,0
40.75107955932617,4.866886138916016,-1.3837372064590454,-0.0,-0.0,-1.0,0.00950606762438316,2.0,0
40.966060638427734,4.9765520095825195,-1.4283472299575806,-0.0,-0.0,-1.0,0.013279250750168153,1.0,0
41.10900115966797,5.227956295013428,-1.4515467882156372,-0.0,-0.0,-1.0,0.013892696725172739,1.0,0
41.27790832519531,5.624932765960693,-1.4777413606643677,-0.0,-0.0,-1.0,0.010023825110438513,2.0,0
40.248653411865234,4.932912349700928,-0.8593484163284302,-0.5312130336542905,-0.18803244668899194,-0.8261092614587715,0.1909136731041086,4.0,0
40.36611557006836,3.1882100105285645,-1.2266082763671875,0.784553768613131,0.3622140598113063,-0.5032656942708741,0.02266835746797948,4.0,0
40.58004379272461,3.297581195831299,-1.2631454467773438,-0.0,-0.0,-1.0,0.01908096124370711,1.0,0
40.82006072998047,3.465212821960449,-1.301903486251831,-0.0,-0.0,-1.0,0.013583028597559506,1.0,0
41.053462982177734,3.662306785583496,-1.338240623474121,-0.0,-0.0,-1.0,0.005969847341066615,2.0,0
41.33323287963867,3.819563865661621,-1.389768362045288,-0.0,-0.0,-1.0,0.045520915240685286,1.0,0
41.528594970703125,4.027160167694092,-1.420105218887329,-0.0,-0.0,-1.0,0.03331392709605927,2.0,0
41.657020568847656,4.210653781890869,-1.4381487369537354,-0.0,-0.0,-1.0,0.0344682854431751,1.0,0
41.76137924194336,4.539510726928711,-1.4434876441955566,-0.0,-0.0,-1.0,0.0677111743791595,2.0,0
40.2758903503418,5.0886077880859375,-1.438225507736206,-0.0,-0.0,-1.0,0.16085914700889953,2.0,0
41.841156005859375,4.942118167877197,-1.441751480102539,-0.0,-0.0,-1.0,0.014728672637905402,1.0,0
40.4575309753418,5.479173183441162,-1.4598288536071777,-0.0,-0.0,-1.0,0.022688048398293206,2.0,0
41.94769287109375,5.329207897186279,-1.4502935409545898,-0.0,-0.0,-1.0,0.051454115586035166,1.0,0
42.08052444458008,5.553901195526123,-1.4737932682037354,-0.0,-0.0,-1.0,0.0821387433117119,1.0,0
40.27396774291992,4.951013088226318,-1.0744893550872803,-0.17314064583364738,0.9800818326395474,0.09727239120230188,0.14877415836199898,5.0,0
40.36605453491211,3.340088367462158,-1.2716591358184814,0.07498508961651938,-0.10619334226841662,-0.9915140999466752,0.016026699762572785,3.0,0
40.58116149902344,3.4791436195373535,-1.303497314453125,-0.0,-0.0,-1.0,0.010608093241801677,2.0,0
40.83209991455078,3.6306958198547363,-1.3436501026153564,-0.0,-0.0,-1.0,0.004530086727036087,1.0,0
42.592041015625,3.193197727203369,-1.3682799339294434,-0.0,-0.0,-1.0,0.018371390735458966,2.0,0
41.05198669433594,3.8339319229125977,-1.3726718425750732,-0.0,-0.0,-1.0,0.0035637563980208606,1.0,0
41.301666259765625,3.99168062210083,-1.4158740043640137,-0.0,-0.0,-1.0,0.0276011213576013,2.0,0
41.52373504638672,4.261396408081055,-1.4435558319091797,-0.0,-0.0,-1.0,0.017923638993500576,1.0,0
41.62031555175781,4.451122283935547,-1.4497380256652832,0.5630158620448297,0.5914198106781985,-0.5772657504332656,0.02963248916318613,3.0,0
40.30670166015625,4.955722332000732,-1.078199863433838,-0.06224265948843994,0.9267652340856758,0.3704484474659447,0.14400139768222528,5.0,0
41.68547058105469,4.6638970375061035,-1.4475879669189453,-0.0,-0.0,-1.0,0.023699612364542613,1.0,0
41.807167053222656,5.066954612731934,-1.4461653232574463,-0.11728787385427526,-0.9889720462976607,0.09043144524202533,0.015413053830059299,4.0,0
41.96656799316406,5.447099685668945,-1.4605209827423096,-0.0,-0.0,-1.0,0.07157184279583027,2.0,0
42.149131774902344,5.603305339813232,-1.4983620643615723,-0.0,-0.0,-1.0,0.07743391659437159,1.0,0
41.567169189453125,3.185281276702881,-1.3741981983184814,-0.0,-0.0,-1.0,0.061286655041465056,1.0,0
41.70805358886719,3.3481669425964355,-1.387040376663208,-0.0,-0.0,-1.0,0.07575371862748426,1.0,0
41.677703857421875,3.679037570953369,-1.3415212631225586,-0.0,-0.0,-1.0,0.049623885544110194,2.0,0
41.864830017089844,3.5636043548583984,-1.399360179901123,-0.0,-0.0,-1.0,0.011979913963351244,2.0,0
42.09918975830078,3.8395252227783203,-1.4254138469696045,-0.0,-0.0,-1.0,0.04300126239439809,1.0,0
42.21379089355469,4.009462833404541,-1.4359612464904785,-0.0,-0.0,-1.0,0.04656428099197662,1.0,0
42.40672302246094,4.295637607574463,-1.4563477039337158,-0.0,-0.0,-1.0,0.04859239319957304,1.0,0
42.604103088378906,4.5327653884887695,-1.4847979545593262,-0.0,-0.0,-1.0,0.034242009593078056,1.0,0
42.598114013671875,5.042023181915283,-1.4418413639068604,-0.0,-0.0,-1.0,0.1295291282699771,1.0,0
42.393489837646484,3.1919445991516113,-1.399274468421936,-0.10175756873828624,0.9936101534450216,0.04882888669049829,0.019696067918351823,3.0,0
42.572669982910156,3.3636393547058105,-1.4165042638778687,-0.0,-0.0,-1.0,0.010252940621910978,1.0,0
41.5890007019043,5.575963020324707,-1.481893539428711,-0.0,-0.0,-1.0,0.0056704907974228355,1.0,0
41.7686882019043,5.402600288391113,-1.4645171165466309,0.8108364037765122,-0.5487078125527172,-0.203627264270738,0.019497753843476056,3.0,0
41.49310302734375,5.540037155151367,-1.460892915725708,-0.0,-0.0,-1.0,0.006997725476170609,1.0,0
40.35506057739258,4.988616943359375,-1.1912040710449219,-0.14185609676913027,0.7963043941758483,-0.5880273459845748,0.11275129655019982,3.0,0
42.1925163269043,5.195346832275391,-1.4754273891448975,-0.0,-0.0,-1.0,0.029122255333580007,1.0,0
42.63724899291992,5.3886823654174805,-1.5367144346237183,-0.0,-0.0,-1.0,0.0568378263337316,1.0,0
42.505348205566406,5.59747314453125,-1.5489050149917603,-0.0,-0.0,-1.0,0.04621850863042415,1.0,0
42.070457458496094,5.480165481567383,-1.4481009244918823,0.4218330304858983,-0.18857965843640495,-0.8868453116609978,0.08048755359987704,3.0,0
42.551170349121094,5.231128692626953,-1.492655873298645,-0.0,-0.0,-1.0,0.0961735072234742,2.0,0
42.217872619628906,5.026745796203613,-1.3937057256698608,-0.0,-0.0,-1.0,0.04457951865510363,1.0,0
40.3650016784668,4.884474754333496,-1.401436686515808,-0.0,-0.0,-1.0,0.1616877599620474,1.0,0
41.09946060180664,4.41400146484375,-1.4332319498062134,-0.0,-0.0,-1.0,0.00981933114923704,1.0,0
40.83296585083008,4.545238494873047,-1.4106882810592651,-0.7265007179684342,0.5331079509930061,-0.43358115662398006,0.007528719316378534,3.0,0
40.573516845703125,4.7147932052612305,-1.400063157081604,-0.0,-0.0,-1.0,0.042846502308402576,1.0,0
41.335330963134766,4.212306022644043,-1.4376269578933716,-0.0,-0.0,-1.0,0.02004224285426688,2.0,0
41.58451843261719,3.7221109867095947,-1.3880683183670044,-0.0,-0.0,-1.0,0.0704642341422664,1.0,0
41.445919036865234,3.808634042739868,-1.376078486442566,0.13788695706808254,-0.06319686663789335,-0.9884297360549493,0.10558567388007666,3.0,0
41.746238708496094,3.447225332260132,-1.3683382272720337,-0.0,-0.0,-1.0,0.06143935343286933,1.0,0
40.2564582824707,4.917359352111816,-1.035793662071228,0.11780856759721624,0.6475903087419386,-0.7528266290615739,0.15076153106449727,5.0,0
41.78950119018555,3.2055723667144775,-1.3305476903915405,-0.0,-0.0,-1.0,0.023719026039048918,2.0,0
40.25033187866211,4.99551248550415,-1.2796615362167358,-0.7685129957683502,-0.301180448274424,0.5645158216670045,0.17340317981295653,5.0,0
41.45362091064453,4.418369770050049,-1.429650902748108,-0.0,-0.0,-1.0,0.022382400166617356,2.0,0
41.06300735473633,4.505662441253662,-1.3984328508377075,-0.0,-0.0,-1.0,0.00767613511536698,1.0,0
40.692569732666016,4.523435115814209,-1.3606024980545044,-0.29149548399846464,-0.6521185760848929,-0.6998369421040255,0.03463903341530829,3.0,0
41.86952209472656,3.830146312713623,-1.3979490995407104,-0.0,-0.0,-1.0,0.03440603822052294,2.0,0
42.28214645385742,3.4769930839538574,-1.3992897272109985,-0.0,-0.0,-1.0,0.015488890538775443,2.0,0
41.84235382080078,3.563464641571045,-1.3598471879959106,0.6345614365864314,0.7459748216735184,0.2021221131557022,0.011717319569887433,4.0,0
41.952510833740234,3.3260512351989746,-1.341556191444397,0.21768249673734186,0.4751309024969825,-0.8525637548632946,0.0133501442126604,3.0,0
40.424774169921875,3.9006924629211426,-1.2462574243545532,-0.0,-0.0,-1.0,0.036542112740878305,1.0,0
40.248023986816406,5.039514064788818,-0.8735129833221436,-0.8509380051358576,-0.17919054990988123,-0.493756274125607,0.20488413335436662,3.0,0
42.008262634277344,5.39368200302124,-1.5780854225158691,-0.0,-0.0,-1.0,0.07959246906010685,1.0,0
42.270389556884766,4.868343830108643,-1.5377309322357178,-0.0,-0.0,-1.0,0.041901489443263426,1.0,0
42.048683166503906,5.078382968902588,-1.5402817726135254,-0.0,-0.0,-1.0,0.1028519356635553,1.0,0
42.63698196411133,4.450798511505127,-1.5267415046691895,-0.0,-0.0,-1.0,0.035169993572052964,1.0,0
42.373321533203125,4.663637638092041,-1.5229454040527344,-0.0,-0.0,-1.0,0.02942274619840835,1.0,0
40.35542297363281,4.315277576446533,-1.2497634887695312,-0.0,-0.0,-1.0,0.03410882367320461,1.0,0
40.31055450439453,3.9687905311584473,-1.1969983577728271,-0.0,-0.0,-1.0,0.02927061097052462,1.0,0
40.27863311767578,3.680014133453369,-1.153916835784912,-0.0,-0.0,-1.0,0.03251477811642826,1.0,0
42.51926040649414,3.705214023590088,-1.3507992029190063,-0.0,-0.0,-1.0,0.015271712022133224,1.0,0
42.12431335449219,3.6381497383117676,-1.305397391319275,-0.0,-0.0,-1.0,0.02343078508591165,1.0,0
41.980472564697266,3.812997341156006,-1.3230313062667847,-0.0,-0.0,-1.0,0.04716571238991266,1.0,0
41.632869720458984,4.113149166107178,-1.346652865409851,-0.0,-0.0,-1.0,0.03644493500343777,1.0,0
41.46241760253906,4.263734340667725,-1.3598397970199585,-0.0,-0.0,-1.0,0.0166411901066588,2.0,0
41.57101821899414,3.830761432647705,-1.2922242879867554,-0.0,-0.0,-1.0,0.06463597030042678,1.0,0
41.19218063354492,4.254833698272705,-1.3374601602554321,-0.0,-0.0,-1.0,0.016442774063234092,1.0,0
40.863155364990234,4.114436626434326,-1.2872298955917358,-0.0,-0.0,-1.0,0.016854479313819854,1.0,0
40.72031021118164,4.180474758148193,-1.2886334657669067,-0.0,-0.0,-1.0,0.01892278012479241,1.0,0
40.51969909667969,3.8580193519592285,-1.2150448560714722,-0.0,-0.0,-1.0,0.03398453991208903,1.0,0
40.305294036865234,4.991027355194092,-0.899734616279602,-0.27328498153784503,-0.5989560261473243,-0.7527064484961358,0.16516784586696467,7.0,0
42.54033660888672,5.007179260253906,-1.4085627794265747,-0.0,-0.0,-1.0,0.11380552017500987,2.0,0
41.422271728515625,3.9482483863830566,-1.322364091873169,-0.0,-0.0,-1.0,0.039812714564304214,1.0,0
41.221927642822266,4.130006790161133,-1.3231971263885498,-0.0,-0.0,-1.0,0.02096180304245731,1.0,0
41.71795654296875,3.2833409309387207,-1.2718722820281982,-0.0,-0.0,-1.0,0.031149737013527117,1.0,0
41.41404724121094,3.7596802711486816,-1.2968170642852783,-0.0,-0.0,-1.0,0.09375918481560792,2.0,0
40.80040740966797,4.1014604568481445,-1.2712008953094482,-0.0,-0.0,-1.0,0.014070124429716576,1.0,0
40.26084518432617,5.010917663574219,-0.8248116970062256,-0.0,-0.0,-1.0,0.19867303383554102,1.0,0
40.22008514404297,3.3796024322509766,-1.2517750263214111,-0.0,-0.0,-1.0,0.03390104540318334,2.0,0
40.2744140625,4.988646030426025,-0.945502519607544,0.024332420152746326,0.5574524218118367,-0.8298522342836875,0.24462963704573032,9.0,0
40.26474380493164,4.915301322937012,-1.026210069656372,0.16742029495732388,0.6615317143905384,-0.7309899012243041,0.15076153106449733,6.0,0
41.83350372314453,3.208218574523926,-1.3133662939071655,0.3192359003367408,0.36634139033696206,-0.8740036760003771,0.02606756914882694,3.0,0
41.82132339477539,3.5932650566101074,-1.3529003858566284,0.7330583248518887,0.5943990938381933,-0.33062850695255824,0.014265046517588175,3.0,0
41.773521423339844,4.062399387359619,-1.3985310792922974,0.7051214536946012,-0.7034403330196992,0.0893052821547942,0.05391896842786131,3.0,0
41.653743743896484,4.327113628387451,-1.4120126962661743,-0.0,-0.0,-1.0,0.031662611798037324,2.0,0
41.58898162841797,3.7258477210998535,-1.3332620859146118,-0.0,-0.0,-1.0,0.08499599480056359,1.0,0
40.63717269897461,5.57879114151001,-1.4291647672653198,-0.0,-0.0,-1.0,0.016301993120346345,2.0,0
40.23970031738281,4.939586639404297,-0.9985301494598389,0.5521062166078342,0.7202675732217987,-0.4199920815303118,0.1615069489531707,8.0,0
42.451194763183594,5.057854175567627,-1.391098141670227,-0.2706930219646937,-0.20534905061982406,-0.9405089341782771,0.14122987558830122,4.0,0
40.26609420776367,4.92312479019165,-0.9659990072250366,0.670328410757264,0.24320448605741798,-0.7010787400094144,0.1706428340102749,5.0,0
41.04864501953125,5.31516170501709,-1.4714303016662598,-0.4299175824869479,-0.1656803257060197,-0.8875364228821966,0.009450017944685913,3.0,0
41.04102325439453,5.571562767028809,-1.4874424934387207,-0.0,-0.0,-1.0,0.008804428442390856,1.0,0
40.613075256347656,3.367399215698242,-1.2953450679779053,-0.0,-0.0,-1.0,0.015000899535327903,1.0,0
40.339447021484375,3.2813212871551514,-1.243422269821167,-0.0,-0.0,-1.0,0.03484610771829412,2.0,0
42.67173767089844,3.494431972503662,-1.4090821743011475,0.8683701058773962,0.4322047341567196,-0.2431715998857575,0.018462171681284792,3.0,0
42.48362350463867,5.0585618019104,-1.4177820682525635,-0.5209446521563783,-0.46797589702718334,-0.7138733985737757,0.16638579020409414,5.0,0
42.47513961791992,3.271087408065796,-1.3741827011108398,-0.0,-0.0,-1.0,0.02077926619257639,2.0,0
40.29063415527344,4.951015472412109,-1.0614221096038818,0.4801893472816458,0.8538638060368045,-0.2008352347014071,0.16050923374885626,6.0,0
42.6881103515625,3.4672343730926514,-1.3989551067352295,0.8683701058773962,0.4322047341567196,-0.2431715998857575,0.020350197353273845,3.0,0
40.408729553222656,5.232369422912598,-1.4360454082489014,-0.0,-0.0,-1.0,0.06820133611937627,2.0,0
40.47998809814453,5.3848090171813965,-1.4405429363250732,0.42845557569683257,0.83445059192075,-0.3465804802602213,0.023163695580881435,3.0,0
40.29688262939453,5.082243919372559,-1.4239680767059326,0.12861042271669093,0.9621874218196059,0.24011398222672128,0.188471622958967,3.0,0
42.39689636230469,3.2627949714660645,-1.3714208602905273,-0.0,-0.0,-1.0,0.020465511257670498,2.0,0
42.50537872314453,3.367438316345215,-1.379216194152832,-0.0,-0.0,-1.0,0.020960306737424914,2.0,0
42.14725875854492,3.171370029449463,-1.340996503829956,-0.0,-0.0,-1.0,0.010116429101437285,1.0,0
40.23712921142578,4.994924068450928,-0.9082818031311035,-0.6413177686724568,-0.3386914230683305,-0.6884763173304732,0.17228190242317729,9.0,0
41.844635009765625,5.27219295501709,-1.472295880317688,-0.0,-0.0,-1.0,0.013871096105432282,1.0,0
41.89686584472656,5.547433853149414,-1.4890066385269165,-0.0,-0.0,-1.0,0.06310156470236516,1.0,0
41.77704620361328,4.02725076675415,-1.4397879838943481,-0.0,-0.0,-1.0,0.045730824862560374,2.0,0
41.82678985595703,4.325563907623291,-1.451356053352356,-0.0,-0.0,-1.0,0.07373474247755661,1.0,0
41.85588073730469,4.707489013671875,-1.4620519876480103,-0.0,-0.0,-1.0,0.04766674363408933,1.0,0
41.80683135986328,5.078084945678711,-1.4611173868179321,-0.11728787385427526,-0.9889720462976607,0.09043144524202533,0.017919520743310522,4.0,0
41.40438461303711,3.601820468902588,-1.3743044137954712,-0.8463873753073771,-0.5277403348543256,0.0715440415977007,0.05939973995322013,3.0,0
41.467872619628906,3.6765635013580322,-1.3852378129959106,-0.09513456301404596,-0.47800211137330567,-0.8731915004412197,0.09053356810469546,3.0,0
41.34620666503906,3.311561346054077,-1.3647247552871704,-0.0,-0.0,-1.0,0.00597727957191594,1.0,0
41.32965087890625,3.504391670227051,-1.3615561723709106,-0.0,-0.0,-1.0,0.012849795544026477,1.0,0
40.31513214111328,4.973045825958252,-1.2026580572128296,-0.12625879468648352,0.72662964525749,-0.6753281242457556,0.13595316353650158,4.0,0
40.609275817871094,5.391646385192871,-1.4503768682479858,-0.0,-0.0,-1.0,0.018385733467497972,2.0,0
40.32280731201172,4.952217102050781,-1.3805512189865112,-0.0,-0.0,-1.0,0.258526242579436,1.0,0
42.49580383300781,5.098356246948242,-1.3429996967315674,-0.0,-0.0,-1.0,0.14136908141588714,2.0,0
40.30179214477539,4.935386657714844,-1.0048589706420898,0.3519360024206874,0.3052040579758053,-0.8848680880194784,0.18241949497434756,6.0,0
40.800167083740234,5.626794338226318,-1.479418396949768,-0.0,-0.0,-1.0,0.01185129604913098,1.0,0
40.52407455444336,5.211029529571533,-1.4337815046310425,-0.0,-0.0,-1.0,0.02852887153972107,2.0,0
40.62248611450195,5.44452428817749,-1.4493049383163452,-0.0,-0.0,-1.0,0.020067694343090456,1.0,0
40.213008880615234,4.883804798126221,-0.930368185043335,-0.0,-0.0,-1.0,0.15461405511955909,2.0,0
41.48265075683594,5.472257614135742,-1.4627270698547363,-0.0,-0.0,-1.0,0.006973840761545106,1.0,0
41.69423294067383,5.617397308349609,-1.4852261543273926,-0.0,-0.0,-1.0,0.015449544724798878,1.0,0
41.14549255371094,4.924834251403809,-1.4477546215057373,-0.0,-0.0,-1.0,0.008923523863868342,1.0,0
41.360618591308594,5.26122522354126,-1.4575164318084717,-0.0,-0.0,-1.0,0.008727616123874932,1.0,0
41.183128356933594,5.073398113250732,-1.4437057971954346,-0.010217642329285898,-0.9637594197583051,-0.26657715695904344,0.012717496576082375,3.0,0
40.676937103271484,4.678112506866455,-1.3990495204925537,-0.0,-0.0,-1.0,0.027709722062536423,1.0,0
40.785675048828125,4.889908313751221,-1.399855375289917,-0.0,-0.0,-1.0,0.011499736100457953,2.0,0
40.24770736694336,5.005656719207764,-1.3175933361053467,-0.6863331410853811,0.7251958976484152,-0.05511560107431857,0.18855518317769585,4.0,0
40.33403778076172,5.527458190917969,-1.4264700412750244,-0.0,-0.0,-1.0,0.021092307588368043,1.0,0
40.25880432128906,4.917905807495117,-0.8570060729980469,-0.010243725839434012,-0.31292299082749686,-0.9497232585824678,0.18702037282978895,4.0,0
41.03424072265625,5.353593826293945,-1.4716272354125977,-0.0,-0.0,-1.0,0.009508281064256312,2.0,0
40.31370544433594,5.031093597412109,-0.9772181510925293,-0.2259169032483742,0.7650246350657746,-0.6030745066483437,0.13954653490415297,4.0,0
41.86268615722656,5.082376956939697,-1.4421149492263794,-0.0,-0.0,-1.0,0.018069630494493408,1.0,0
42.16309356689453,4.895931720733643,-1.4707168340682983,-0.32018684234457,-0.39213204449770006,-0.8623878742581363,0.03454896798298578,3.0,0
42.14030838012695,4.754612445831299,-1.4643491506576538,-0.0,-0.0,-1.0,0.06373258273810105,1.0,0
41.974945068359375,5.481379985809326,-1.4657834768295288,-0.0,-0.0,-1.0,0.072626034554541,2.0,0
42.03853988647461,5.221622943878174,-1.4656709432601929,-0.0,-0.0,-1.0,0.04406731331031219,1.0,0
40.40872573852539,5.383950710296631,-1.4332419633865356,-0.0,-0.0,-1.0,0.02951596368766194,1.0,0
41.01673889160156,5.054454803466797,-1.403457760810852,-0.0,-0.0,-1.0,0.017376773965249247,2.0,0
41.24264144897461,5.222707748413086,-1.4301296472549438,0.338311299363363,-0.16837602662174067,-0.9258482480310407,0.010951074224722808,3.0,0
41.37737274169922,5.605170249938965,-1.446771264076233,-0.0,-0.0,-1.0,0.009417314635886907,1.0,0
42.102420806884766,4.372786045074463,-1.4420636892318726,-0.0,-0.0,-1.0,0.027544471533624954,2.0,0
42.117950439453125,4.89263916015625,-1.4524589776992798,-0.0,-0.0,-1.0,0.02787886530364455,2.0,0
42.145294189453125,4.66982889175415,-1.452034831047058,-0.0,-0.0,-1.0,0.04575935527829465,1.0,0
42.04261016845703,5.440490245819092,-1.45291006565094,-0.3272191472938437,-0.022724766949644926,-0.9446751900052075,0.07902207437972421,4.0,0
42.24827575683594,5.119613170623779,-1.4721189737319946,-0.0,-0.0,-1.0,0.04341420387596536,1.0,0
40.29664993286133,4.988453388214111,-0.9185655117034912,-0.21345624062024773,-0.7847855646830538,-0.5818488212631967,0.22698983418295895,9.0,0
40.29291534423828,5.07286262512207,-1.384250283241272,-0.0,-0.0,-1.0,0.19288469855739662,2.0,0
40.593563079833984,5.524931907653809,-1.4354418516159058,-0.20344215617232503,0.800110770668441,-0.5642996046005252,0.01644118286662955,3.0,0
40.38825225830078,5.1478166580200195,-1.2674189805984497,-0.0,-0.0,-1.0,0.13254569003929928,1.0,0
41.77265167236328,5.073824882507324,-1.4621599912643433,-0.11728787385427526,-0.9889720462976607,0.09043144524202533,0.014620593149751256,4.0,0
41.75402069091797,4.837373733520508,-1.464149832725525,-0.0,-0.0,-1.0,0.014030456620282529,1.0,0
41.88954544067383,5.5010786056518555,-1.4711612462997437,-0.0,-0.0,-1.0,0.0688456428740265,1.0,0
42.133880615234375,5.2127685546875,-1.4446325302124023,-0.2847759448036186,0.3221133817391095,-0.9028541579711538,0.028468913093261914,3.0,0
42.36167907714844,5.119585037231445,-1.4472522735595703,-0.0,-0.0,-1.0,0.11018376271060279,1.0,0
41.23754119873047,5.502546310424805,-1.4256110191345215,-0.0,-0.0,-1.0,0.009521770697819298,1.0,0
41.797386169433594,4.590036392211914,-1.371870994567871,-0.0,-0.0,-1.0,0.023737244368920322,1.0,0
42.094947814941406,4.374628067016602,-1.3610820770263672,-0.0,-0.0,-1.0,0.031124138397291598,1.0,0
42.57779312133789,4.277507781982422,-1.379621982574463,-0.0,-0.0,-1.0,0.03287255785170552,1.0,0
41.61553192138672,4.732158660888672,-1.3801460266113281,-0.0,-0.0,-1.0,0.017605837568503264,1.0,0
41.96031951904297,4.206567764282227,-1.3318822383880615,-0.0,-0.0,-1.0,0.038838601960574974,1.0,0
42.39683151245117,4.013729095458984,-1.3338139057159424,-0.0,-0.0,-1.0,0.026895365648416727,1.0,0
41.66611862182617,4.445243835449219,-1.3465263843536377,-0.0,-0.0,-1.0,0.02892626281639491,1.0,0
41.444915771484375,4.511579513549805,-1.4320666790008545,-0.0,-0.0,-1.0,0.025302171978891425,2.0,0
41.458229064941406,4.251420974731445,-1.4014403820037842,-0.0,-0.0,-1.0,0.016641190106658803,2.0,0
41.51022720336914,4.094884872436523,-1.3859851360321045,-0.0,-0.0,-1.0,0.033809624495972586,2.0,0
40.23869705200195,3.748340606689453,-1.2618930339813232,-0.0,-0.0,-1.0,0.03592406914575791,1.0,0
41.59317398071289,3.599813461303711,-1.3319447040557861,-0.0,-0.0,-1.0,0.06339192235067498,2.0,0
42.26206970214844,3.4640941619873047,-1.3624775409698486,-0.0,-0.0,-1.0,0.015141425210290795,2.0,0
42.0168571472168,3.1509265899658203,-1.3076937198638916,-0.0,-0.0,-1.0,0.014054884463286342,2.0,0
41.827423095703125,3.2349720001220703,-1.3043735027313232,-0.0,-0.0,-1.0,0.02487012249369844,2.0,0
40.553855895996094,4.667774200439453,-1.3649964332580566,-0.0,-0.0,-1.0,0.046613419528455595,1.0,0
41.552001953125,4.566925048828125,-1.4254565238952637,-0.0,-0.0,-1.0,0.028211546184963847,1.0,0
40.81686782836914,4.447731018066406,-1.356203556060791,-0.0,-0.0,-1.0,0.01674472299147471,1.0,0
41.84130859375,4.280202865600586,-1.4120478630065918,-0.0,-0.0,-1.0,0.030286932113768743,1.0,0
41.720489501953125,4.413494110107422,-1.4192233085632324,-0.0,-0.0,-1.0,0.026681322422255405,1.0,0
42.1556396484375,3.961111068725586,-1.3974251747131348,-0.0,-0.0,-1.0,0.04730134745953552,2.0,0
42.38285827636719,3.77655029296875,-1.392956256866455,-0.0,-0.0,-1.0,0.026706123020424438,1.0,0
40.45128631591797,3.795419692993164,-1.2480010986328125,-0.7155607409142012,0.5407613012128879,-0.4422104037365738,0.04144311133494516,3.0,0
41.413700103759766,3.479766845703125,-1.352632761001587,-0.0,-0.0,-1.0,0.026578053260171316,1.0,0
41.145362854003906,3.4159622192382812,-1.324568510055542,-0.0,-0.0,-1.0,0.004682530634046328,2.0,0
41.521942138671875,3.3258495330810547,-1.3418223857879639,-0.0,-0.0,-1.0,0.01686369317345419,2.0,0
41.72334671020508,4.500371932983398,-1.468686819076538,-0.47371633348295705,-0.7534247456128101,-0.45600875878620606,0.07090582287405142,4.0,0
42.002777099609375,4.229875564575195,-1.4544246196746826,-0.0,-0.0,-1.0,0.02990578274901601,1.0,0
42.36177062988281,3.9081268310546875,-1.4400241374969482,-0.0,-0.0,-1.0,0.020075271829327557,1.0,0
42.39276885986328,5.175790786743164,-1.4186275005340576,-0.0,-0.0,-1.0,0.10252823901737812,1.0,0
40.370826721191406,4.959037780761719,-1.0301117897033691,-0.0,-0.0,-1.0,0.16085477044381433,2.0,0
41.997474670410156,5.615594863891602,-1.4468340873718262,-0.0,-0.0,-1.0,0.08056626258569033,2.0,0
42.072357177734375,5.37980842590332,-1.421966552734375,0.7926728858927362,0.5442043446691056,-0.274793244483467,0.08361453556431477,3.0,0
42.377830505371094,4.640420913696289,-1.4298467636108398,-0.0,-0.0,-1.0,0.03764512810098741,1.0,0
42.219810485839844,4.852764129638672,-1.4386987686157227,-0.0,-0.0,-1.0,0.04160711079510235,1.0,0
41.947593688964844,4.950153350830078,-1.4234652519226074,-0.0,-0.0,-1.0,0.017701259664569712,1.0,0
41.780303955078125,5.080776214599609,-1.4226760864257812,0.037973689249557754,-0.9986997968459532,0.03401050873817382,0.008734571071483531,5.0,0
41.69127655029297,5.364696502685547,-1.447718620300293,-0.0,-0.0,-1.0,0.005930846520965169,1.0,0
40.7645263671875,3.803638458251953,-1.3423852920532227,-0.0,-0.0,-1.0,0.018727703069800563,1.0,0
40.312232971191406,3.1488494873046875,-1.2143974304199219,-0.0,-0.0,-1.0,0.02266835746797952,2.0,0
40.209632873535156,3.6086578369140625,-1.2588820457458496,-0.0,-0.0,-1.0,0.02719208917406711,2.0,0
40.225914001464844,4.944185256958008,-1.0218067169189453,-0.010040809712506541,0.6970312169806943,-0.716970476864096,0.14576361838921648,6.0,0
41.60409927368164,4.471046447753906,-1.445141315460205,-0.10218690259073858,0.3929111342021499,-0.9138811069055379,0.028359946499244056,4.0,0
41.580299377441406,4.04350471496582,-1.4128155708312988,-0.0,-0.0,-1.0,0.04130347609680227,1.0,0
41.5724983215332,4.382180213928223,-1.4345316886901855,-0.0,-0.0,-1.0,0.028608215009530792,1.0,0
41.49414825439453,3.6522226333618164,-1.3747758865356445,-0.1742139249645451,-0.5415459044764208,-0.8224217541464128,0.08164611059982892,3.0,0
41.41459655761719,3.7220020294189453,-1.3679113388061523,-0.4844486743943529,-0.8373951848148504,-0.25313788007024357,0.10648214798608718,4.0,0
41.46342468261719,4.064519882202148,-1.3550364971160889,-0.0,-0.0,-1.0,0.040202237606356286,1.0,0
40.625450134277344,3.3901662826538086,-1.1903069019317627,-0.0,-0.0,-1.0,0.015368051349761118,1.0,0
42.501583099365234,5.062252521514893,-1.468691110610962,-0.0,-0.0,-1.0,0.1580209860125105,2.0,0
42.108192443847656,5.2330241203308105,-1.4293034076690674,-0.0,-0.0,-1.0,0.029020778018246964,2.0,0
42.017879486083984,5.3631157875061035,-1.427403211593628,-0.0,-0.0,-1.0,0.06291655406281052,2.0,0
41.79094696044922,4.0779218673706055,-1.413849115371704,0.7051214536946012,-0.7034403330196992,0.0893052821547942,0.052666989376588084,3.0,0
41.660186767578125,3.6583356857299805,-1.3690640926361084,0.31972729407190636,0.6645827230041377,-0.675354915366626,0.04212675498015553,4.0,0
41.60447692871094,3.5682907104492188,-1.355665922164917,-0.0,-0.0,-1.0,0.04408111385671767,2.0,0
42.41862487792969,5.048591613769531,-1.3980767726898193,-0.0,-0.0,-1.0,0.10779622960844065,2.0,0
40.67378234863281,5.486266136169434,-1.4746909141540527,-0.0,-0.0,-1.0,0.016247022229330287,2.0,0
40.58774185180664,5.306386947631836,-1.454801082611084,-0.0,-0.0,-1.0,0.014115640355329596,1.0,0
40.484779357910156,5.595802307128906,-1.4532451629638672,-0.0,-0.0,-1.0,0.020459245063817105,1.0,0
42.036407470703125,3.382246494293213,-1.3465394973754883,-0.0,-0.0,-1.0,0.009837053790423553,1.0,0
41.895301818847656,3.1638779640197754,-1.3265094757080078,-0.26552653718210867,0.963232572505946,-0.0409715671613371,0.02130903013114591,3.0,0
40.22124481201172,4.888522148132324,-0.9523375034332275,-0.0,-0.0,-1.0,0.14099569175502633,2.0,0
41.530418395996094,5.145594596862793,-1.456054925918579,-0.0,-0.0,-1.0,0.0045632783776778625,1.0,0
41.55249786376953,5.418818950653076,-1.4723951816558838,-0.0,-0.0,-1.0,0.007282659173461147,1.0,0
40.33837127685547,3.187750816345215,-1.221318244934082,-0.6054923445313073,0.6614545351404855,-0.4425572490153843,0.022668357467979464,4.0,0
40.97181701660156,5.637413024902344,-1.4662370681762695,-0.0,-0.0,-1.0,0.007419407266426794,1.0,0
40.66229248046875,5.342087745666504,-1.4383659362792969,-0.0,-0.0,-1.0,0.01742427337145059,1.0,0
40.64394760131836,5.523414611816406,-1.431323528289795,0.23245022363728593,0.8157272964529511,-0.5296752508401117,0.016301993120346324,3.0,0
40.46271896362305,5.258817672729492,-1.4176602363586426,0.6769071990385499,0.06873305083690433,-0.7328522440522618,0.049110232611004105,3.0,0
41.990291595458984,5.391430854797363,-1.40041184425354,-0.6630935738435916,-0.7417724550866878,0.10040187847844768,0.07233690051612073,3.0,0
41.96515655517578,5.526228904724121,-1.3935282230377197,-0.0,-0.0,-1.0,0.03202009286943198,1.0,0
42.568443298339844,3.6331796646118164,-1.442420244216919,-0.0,-0.0,-1.0,0.014805183864764452,1.0,0
41.83583068847656,3.5080184936523438,-1.3447630405426025,-0.0,-0.0,-1.0,0.01028697123446319,2.0,0
41.98782730102539,3.7616195678710938,-1.3633317947387695,-0.0,-0.0,-1.0,0.043437664390414556,1.0,0
42.115177154541016,4.030117034912109,-1.379483699798584,-0.0,-0.0,-1.0,0.058561102262293954,1.0,0
42.414634704589844,4.367940902709961,-1.4160172939300537,-0.0,-0.0,-1.0,0.0433633782445524,1.0,0
42.69693374633789,4.622264862060547,-1.4503774642944336,-0.0,-0.0,-1.0,0.02536355998611906,1.0,0
42.344539642333984,4.409284591674805,-1.4083211421966553,-0.0,-0.0,-1.0,0.046266046842008,1.0,0
40.24519729614258,5.0868377685546875,-0.8858158588409424,-0.0,-0.0,-1.0,0.22142917642147258,2.0,0
40.25111770629883,5.469516754150391,-1.393160104751587,-0.0,-0.0,-1.0,0.026993209329311443,1.0,0
40.35458755493164,5.602489471435547,-1.4078114032745361,-0.0,-0.0,-1.0,0.022193168444549657,2.0,0
40.30876159667969,5.067696571350098,-1.2765498161315918,-0.0,-0.0,-1.0,0.20467882296961087,1.0,0
40.83639144897461,4.961775779724121,-1.3532609939575195,-0.0,-0.0,-1.0,0.011788720373261776,1.0,0
41.116722106933594,4.933963775634766,-1.3939356803894043,-0.0,-0.0,-1.0,0.010069634757372008,1.0,0
41.334373474121094,5.54039192199707,-1.4236721992492676,-0.0,-0.0,-1.0,0.011280127687784762,1.0,0
41.27574157714844,5.211823463439941,-1.4160552024841309,0.47183394834543213,0.47151382939971265,-0.7450150561388535,0.009759664621519322,3.0,0
