x,y,z,nx,ny,nz,curvature,density,label
28.573715209960938,-3.0240955352783203,-0.5057604312896729,-0.6806850226027231,0.6192995470604412,0.3913259140602146,0.07142663922200215,6.0,0
29.54981231689453,-3.901888370513916,-0.5593142509460449,0.44643394056771657,0.07053198342353749,-0.8920324971790671,0.017377472308100956,3.0,0
29.776994705200195,-3.7074851989746094,-0.4205210208892822,-0.0,-0.0,-1.0,0.19647751740913766,1.0,0
28.685806274414062,-3.1924285888671875,-0.46335935592651367,-0.0,-0.0,-1.0,0.05676556621270737,2.0,0
28.160236358642578,-2.3989791870117188,-0.4486527442932129,-0.548237092155458,0.2679489107418206,-0.7922370049531895,0.0832649002661708,5.0,0
28.621971130371094,-3.5027618408203125,-0.4547007083892822,0.5925571633969218,-0.16816599310643943,-0.7877792881699284,0.11295829617343643,6.0,0
30.121963500976562,-3.3755435943603516,-0.5550136566162109,-0.0,-0.0,-1.0,0.02544283833771316,2.0,0
29.43973731994629,-1.867410659790039,-0.5094366073608398,0.7495229622570027,0.14471964000269286,-0.6459655988107873,0.1356855779481926,3.0,0
29.81049156188965,-4.288778305053711,-0.40025532245635986,-0.0,-0.0,-1.0,0.20933976057995657,2.0,0
29.521406173706055,-1.924692153930664,-0.28864943981170654,-0.0,-0.0,-1.0,0.1337935133776739,2.0,0
28.640625,-3.507722854614258,-0.4318115711212158,0.5925571633969218,-0.16816599310643943,-0.7877792881699284,0.1243976583452103,6.0,0
29.86762046813965,-3.7256622314453125,-0.4678601026535034,0.09579536727339362,-0.7109228224571648,-0.6967151413013027,0.17181991715352524,3.0,0
29.90293312072754,-3.7574119567871094,-0.48375821113586426,-0.0,-0.0,-1.0,0.2535888779946822,2.0,0
28.662626266479492,-3.514188766479492,-0.4401353597640991,0.5925571633969218,-0.16816599310643943,-0.7877792881699284,0.12007768621790371,6.0,0
28.6351318359375,-3.4835968017578125,-0.46124911308288574,0.36214314253439506,0.9292776296934705,0.07276971393786087,0.11670282067725045,7.0,0
29.92186737060547,-3.598508834838867,-0.4033299684524536,0.08655169206994405,-0.5271034953852582,-0.8453819904353727,0.2830512859028475,8.0,0
29.889511108398438,-3.7058238983154297,-0.4850931167602539,0.26385504425042167,-0.8937842961754666,-0.36267085288693107,0.20767608171744886,5.0,0
28.349613189697266,-2.8599777221679688,-0.48633885383605957,0.9182352498400975,-0.392191305454929,0.05504548915807917,0.02646489646574529,3.0,0
28.455120086669922,-3.0165328979492188,-0.49868643283843994,-0.0,-0.0,-1.0,0.04426407223813355,2.0,0
27.906204223632812,-2.450033187866211,-0.48589181900024414,0.29995622789863097,-0.13162325879431483,-0.9448288623286174,0.0495076546972097,3.0,0
29.534976959228516,-1.8909931182861328,-0.47324299812316895,0.9844053513733524,0.11512839427065208,-0.13300961251040344,0.16329542316304407,13.0,0
27.936853408813477,-2.5341548919677734,-0.5265218019485474,-0.0,-0.0,-1.0,0.06519957119532718,1.0,0
28.015316009521484,-2.305166244506836,-0.5234940052032471,-0.0,-0.0,-1.0,0.09233949017481016,1.0,0
28.5744686126709,-2.2018585205078125,-0.5943264961242676,0.5783446851057561,0.6344620015443032,0.5128112652880394,0.03399214195004947,3.0,0
29.994693756103516,-2.5084924697875977,-0.5069454908370972,-0.0,-0.0,-1.0,0.07087320436750898,1.0,0
28.01523780822754,-2.2944021224975586,-0.5750324726104736,-0.0,-0.0,-1.0,0.09265329053937112,1.0,0
29.584489822387695,-1.9075584411621094,-0.610984206199646,-0.0,-0.0,-1.0,0.08985543444306736,2.0,0
28.020668029785156,-2.1423721313476562,-0.4922703504562378,0.8949679748157712,0.10250563325079438,0.4341945637683767,0.10914137681443134,5.0,0
28.35495376586914,-2.53084659576416,-0.4924163818359375,-0.7992216159330495,0.5986460435226248,-0.053551126972946464,0.05556685658348011,3.0,0
30.13250732421875,-3.958216667175293,-0.49685895442962646,-0.0,-0.0,-1.0,0.02800506729024504,1.0,0
29.504119873046875,-3.872081756591797,-0.544644832611084,-0.0,-0.0,-1.0,0.028533996020043872,2.0,0
29.607833862304688,-1.891469955444336,-0.3788217306137085,0.8656799484895722,-0.33280170549379123,-0.37395354203900244,0.12682348667039783,5.0,0
27.856801986694336,-3.626584053039551,-0.43867039680480957,-0.5773664700866055,0.6008833184047935,-0.5527994183088261,0.033060122792987715,5.0,0
28.642011642456055,-3.4939680099487305,-0.45215415954589844,0.36214314253439506,0.9292776296934705,0.07276971393786087,0.12930575551363765,7.0,0
29.955947875976562,-2.2808971405029297,-0.696334719657898,-0.0,-0.0,-1.0,0.052223453041369175,1.0,0
29.878408432006836,-3.611233711242676,-0.4543043375015259,-0.879703521003959,-0.4638116958330473,0.10488291539478596,0.234514023827119,4.0,0
28.000883102416992,-2.524595260620117,-0.5003623962402344,-0.0,-0.0,-1.0,0.09680573967936709,2.0,0
29.501155853271484,-1.8836030960083008,-0.46400368213653564,0.40447778120199396,-0.14664931448380877,-0.9027135221515967,0.14545165536856572,9.0,0
27.836965560913086,-4.167840003967285,-0.401198148727417,-0.5720038121761719,-0.8018077000976498,-0.1729625708644598,0.03446467094125516,4.0,0
29.046058654785156,-2.081510543823242,-0.6031029224395752,-0.0719433797511422,-0.05998214003508301,-0.9956034818072881,0.020531320587364267,3.0,0
29.71040916442871,-2.2020559310913086,-0.6451634168624878,-0.0,-0.0,-1.0,0.049253204134680116,2.0,0
30.05281639099121,-2.6719446182250977,-0.5318094491958618,0.3692932906213512,-0.4682860809063425,-0.8027020692208491,0.12153465170262588,6.0,0
29.541120529174805,-1.888514518737793,-0.41169822216033936,0.10440256470568676,0.6807850711833925,0.725004683665353,0.17990411086197106,14.0,0
29.903793334960938,-3.6731481552124023,-0.1983048915863037,0.2549289754626373,0.832206343458028,0.49238584400629215,0.18035978924592075,6.0,0
30.071985244750977,-2.659486770629883,-0.5409226417541504,0.2865867222547685,-0.9414775528700645,-0.17744877590184419,0.11565919604382457,6.0,0
27.908855438232422,-4.200295448303223,-0.39230847358703613,-0.0,-0.0,-1.0,0.00985164468323138,2.0,0
29.91952896118164,-3.616024971008301,-0.2685737609863281,0.8287275574840562,-0.5476061387223328,0.11549091869115631,0.22387155766358366,8.0,0
29.911991119384766,-3.6941423416137695,-0.5132378339767456,0.3548194663961634,-0.9293198038883381,-0.10231250347480865,0.18534681399789338,3.0,0
28.767559051513672,-3.034762382507324,-0.48249220848083496,0.30561360179218294,0.5121603630414072,0.8026780730335811,0.0596652261485179,3.0,0
28.286184310913086,-2.5007057189941406,-0.446535587310791,-0.8075548661037181,-0.20693476058507543,-0.5522980563914774,0.10263424978345867,3.0,0
27.92766571044922,-2.0821428298950195,-0.4208928346633911,-0.0,-0.0,-1.0,0.09969954338106755,2.0,0
28.766714096069336,-3.4848289489746094,-0.44329535961151123,-0.0,-0.0,-1.0,0.08288597460813868,1.0,0
29.94498634338379,-3.5747575759887695,-0.3881465196609497,-0.38499734864032265,0.7331337587084571,-0.5606174572575594,0.2220687071996358,3.0,0
28.00246810913086,-2.4423294067382812,-0.47984421253204346,-0.0,-0.0,-1.0,0.06317222749373536,1.0,0
28.04074478149414,-2.377566337585449,-0.5073068141937256,0.38282547079474644,0.47772852141740535,-0.7907086180984251,0.07859146637152109,4.0,0
29.37921905517578,-3.856034755706787,-0.5145952701568604,-0.0,-0.0,-1.0,0.0361542642952345,2.0,0
27.92351531982422,-2.1419568061828613,-0.3831167221069336,-0.0,-0.0,-1.0,0.10593021952173048,1.0,0
28.268321990966797,-2.477612018585205,-0.40079164505004883,-0.0,-0.0,-1.0,0.11741914084522075,1.0,0
28.72976303100586,-3.036447048187256,-0.4421602487564087,-0.0,-0.0,-1.0,0.04762938449020383,2.0,0
27.84896469116211,-3.9862704277038574,-0.41588735580444336,-0.513297828187658,0.8581456119141015,-0.010556909131265581,0.04239911949774695,3.0,0
29.48373031616211,-1.8905644416809082,-0.4821509122848511,0.05386583816414958,0.3776994111628796,-0.9243601172087031,0.16861518425628857,6.0,0
29.88818359375,-3.6506857872009277,-0.2552649974822998,-0.47181284069003904,0.6460537184473445,-0.600006030169993,0.20355498376601347,7.0,0
29.883201599121094,-3.6349730491638184,-0.28545570373535156,0.9519078099387446,-0.040896961750677495,-0.30364281631085377,0.199900881279062,7.0,0
27.88009262084961,-2.481919765472412,-0.48973941802978516,-0.0,-0.0,-1.0,0.0651705395314816,2.0,0
27.984519958496094,-2.148007392883301,-0.4512615203857422,0.4478858104658994,0.5466654518237468,-0.7074992470424571,0.11098101898083053,3.0,0
28.676084518432617,-3.407045841217041,-0.47522616386413574,-0.0,-0.0,-1.0,0.0910161061619101,2.0,0
29.894859313964844,-4.349998474121094,-0.44425487518310547,-0.0,-0.0,-1.0,0.1792094295379334,2.0,0
29.912521362304688,-3.676039218902588,-0.36764442920684814,0.12430173130538623,-0.7343900794362934,-0.6672482977273434,0.2596659922587359,11.0,0
28.632598876953125,-3.085618495941162,-0.4726593494415283,-0.0,-0.0,-1.0,0.06369712502343783,1.0,0
29.634563446044922,-4.360953330993652,-0.4477123022079468,-0.0,-0.0,-1.0,0.06685708773211982,1.0,0
29.901714324951172,-3.721071243286133,-0.3558241128921509,-0.662380399929797,-0.7224492550023305,0.1982908967537852,0.23152467915934746,8.0,0
29.579505920410156,-1.899064540863037,-0.2628154754638672,0.34949965089605595,0.8249083592926479,0.44427040503802007,0.09925026144190165,6.0,0
27.72955322265625,-3.358161449432373,-0.5027109384536743,-0.0,-0.0,-1.0,0.030881685356159427,2.0,0
27.748214721679688,-2.178196430206299,-0.42447519302368164,-0.0,-0.0,-1.0,0.14483928700358986,2.0,0
29.919414520263672,-2.839381217956543,-0.5354413986206055,0.1953028794310267,-0.2697452955795533,-0.942917950194315,0.04168308895396759,3.0,0
27.922298431396484,-3.8119888305664062,-0.3859388828277588,-0.5886196833613069,0.7826669591107437,0.2023840395781638,0.018822199662846276,3.0,0
29.382659912109375,-3.3644368648529053,-0.5402133464813232,-0.0,-0.0,-1.0,0.01626365190947412,2.0,0
29.731578826904297,-3.7992279529571533,-0.5054665803909302,-0.0,-0.0,-1.0,0.14212973312893104,1.0,0
29.867938995361328,-4.202316761016846,-0.5101628303527832,-0.0008122512217550218,0.0737973940465333,-0.9972729239681047,0.13640616023877322,3.0,0
29.563636779785156,-1.910672664642334,-0.4145888090133667,-0.36321448146426316,0.23280986930821104,-0.9021501012621681,0.25553943452940886,15.0,0
29.91196060180664,-3.6618432998657227,-0.4147205352783203,-0.26107616154652236,-0.9193061666315803,-0.2944748034472276,0.17307502495649477,17.0,0
29.933740615844727,-4.331431865692139,-0.45014071464538574,-0.4448591395070223,0.8114551838257251,-0.37899977656910344,0.1209529997542843,3.0,0
28.020580291748047,-2.3571062088012695,-0.511003851890564,-0.04745710303527269,-0.222718713244655,-0.9737269628300044,0.09308309043205047,3.0,0
29.98882484436035,-2.7805142402648926,-0.5220052003860474,-0.19418249805185098,-0.9264565903140756,-0.32244587718555145,0.10591996003201205,5.0,0
27.884811401367188,-3.6348154544830322,-0.4127904176712036,0.7557394691331683,-0.060463099464506544,-0.6520752014894158,0.0256913214744508,4.0,0
29.553430557250977,-1.8983098268508911,-0.42653119564056396,0.9815446185800505,-0.17292155763717054,-0.08165963899551563,0.22286199675445076,21.0,0
29.9356689453125,-3.637989044189453,-0.39049649238586426,-0.16828532344285993,-0.19558769050952535,-0.9661394853927057,0.24336277222948383,12.0,0
27.93968963623047,-2.1243081092834473,-0.43178999423980713,0.2582355652331262,0.7126548635046817,-0.6522556541509252,0.12278052113819321,5.0,0
29.587181091308594,-1.8791393041610718,-0.4460054636001587,-0.08967618234968863,0.9792553400933847,-0.1817062498038386,0.17897030205741463,13.0,0
29.971424102783203,-3.6836421489715576,-0.3590472936630249,-0.24629933385459982,0.1279196145678928,-0.9607149475008611,0.23327215664788528,5.0,0
28.038898468017578,-2.751126766204834,-0.5193743705749512,-0.0,-0.0,-1.0,0.05465245563315803,2.0,0
28.304304122924805,-2.506591796875,-0.4708244800567627,-0.9363905999500182,0.07287692441978805,-0.34330977005083557,0.09144740175859234,5.0,0
28.5959415435791,-4.256280899047852,-0.4288489818572998,-0.0,-0.0,-1.0,0.14324056631328058,2.0,0
29.972375869750977,-3.6383612155914307,-0.4268134832382202,0.8027361599401859,0.06990129549910147,-0.5922233247787793,0.26494100337681237,9.0,0
29.94890594482422,-3.638029098510742,-0.15868651866912842,-0.0,-0.0,-1.0,0.1821585294024848,2.0,0
29.79983139038086,-2.5792088508605957,-0.6511578559875488,-0.0,-0.0,-1.0,0.01744869627418879,1.0,0
30.12885284423828,-2.807602882385254,-0.5602318048477173,-0.18947152646278329,-0.7795990775063167,-0.5969303301149664,0.08320123857998304,4.0,0
29.632949829101562,-1.8736709356307983,-0.44306957721710205,-0.027915194470015874,0.9804605395388711,-0.1947251199122667,0.09811305711679282,4.0,0
29.965377807617188,-3.6306354999542236,-0.33459746837615967,0.4114264791957456,-0.5528598369250008,0.7246200748888028,0.15462073596662948,3.0,0
27.942829132080078,-2.1090269088745117,-0.485012412071228,0.9704192446117051,0.20385019429394105,-0.1293506396334025,0.16486295334354764,5.0,0
28.139156341552734,-2.4222044944763184,-0.4334162473678589,-0.9442260282697006,-0.1256908998319,0.3043665639282247,0.10764003110868164,6.0,0
28.274322509765625,-4.251263618469238,-0.40908706188201904,-0.0,-0.0,-1.0,0.09005049876121993,2.0,0
27.881399154663086,-2.228299856185913,-0.5176188945770264,-0.0,-0.0,-1.0,0.19861672648880377,2.0,0
28.151105880737305,-2.442564010620117,-0.4585583209991455,-0.6548674198159181,-0.2038542830759724,-0.7277307838309599,0.1248034317400481,6.0,0
29.832704544067383,-3.50445818901062,-0.3324315547943115,-0.0,-0.0,-1.0,0.18174568018310322,1.0,0
28.373973846435547,-4.151817321777344,-0.4488567113876343,-0.0,-0.0,-1.0,0.014284151498208185,1.0,0
29.015975952148438,-1.982291340827942,-0.5990313291549683,-0.0,-0.0,-1.0,0.015243602257380707,2.0,0
28.37671661376953,-2.932358980178833,-0.49504709243774414,-0.0,-0.0,-1.0,0.04153842911554177,1.0,0
29.886960983276367,-3.6419131755828857,-0.3940242528915405,0.04471966907345921,-0.25907825641736965,-0.9648205057158021,0.253346447230173,14.0,0
29.860881805419922,-4.267859935760498,-0.4418591260910034,-0.7549480696726418,0.09972752080764849,-0.6481572600003118,0.1877297312940984,3.0,0
29.857881546020508,-3.6506741046905518,-0.17429018020629883,0.9891854372205093,0.12924082966939252,0.06934680048305918,0.18984113152809648,4.0,0
27.946910858154297,-2.284639596939087,-0.49276018142700195,-0.0,-0.0,-1.0,0.17917774879034615,2.0,0
28.20001220703125,-2.501570463180542,-0.42511892318725586,-0.33233498537802114,-0.9308452247130601,-0.15192308949821645,0.13752742071000804,6.0,0
29.87274932861328,-3.6505541801452637,-0.1996840238571167,-0.28282061413513176,-0.25748641649826925,-0.9239660413343701,0.21357327353518685,5.0,0
27.83377456665039,-2.0796573162078857,-0.4648948907852173,0.846642271283926,0.04817687054925002,-0.5299772199059842,0.13769476810332618,5.0,0
27.830249786376953,-2.11602783203125,-0.4701937437057495,0.7125845729741603,0.37753857638641036,-0.591344104307599,0.15442469108615062,8.0,0
27.961910247802734,-3.840653896331787,-0.4181884527206421,-0.0,-0.0,-1.0,0.02626775348849207,2.0,0
29.932640075683594,-3.6585092544555664,-0.39999353885650635,-0.04374182448056158,-0.908927937192434,-0.4146524542098097,0.24682862799194108,17.0,0
27.743467330932617,-3.2360634803771973,-0.45180678367614746,-0.0,-0.0,-1.0,0.06788885400942443,1.0,0
28.201255798339844,-2.5020861625671387,-0.4256918430328369,-0.33233498537802114,-0.9308452247130601,-0.15192308949821645,0.1334010524018247,6.0,0
30.107105255126953,-2.820582866668701,-0.524471640586853,-0.5432711065981978,-0.627235706467093,-0.5580608150267283,0.07093775987932557,3.0,0
29.92856216430664,-3.6988725662231445,-0.2396780252456665,-0.15119940624614572,0.5154690094575626,-0.8434633601050207,0.17442054204344887,3.0,0
27.901355743408203,-3.879702091217041,-0.39804983139038086,0.7003772186350224,0.5974669924978517,-0.3905188145181251,0.027377003176179276,4.0,0
29.54581069946289,-1.935293197631836,-0.4559897184371948,0.824749572293837,0.44916976545951676,-0.3435617336057318,0.17199024043491132,12.0,0
27.88844871520996,-2.3440849781036377,-0.4275399446487427,-0.0,-0.0,-1.0,0.14158859091940584,2.0,0
29.90974998474121,-3.742300510406494,-0.3806055784225464,-0.8220174235731397,-0.3927433228562987,-0.4123591125390227,0.22078373873415844,5.0,0
29.757564544677734,-1.9024760723114014,-0.6295440196990967,0.2694619651715482,-0.4935763583861102,-0.8269054527382157,0.07509828825214551,3.0,0
29.924346923828125,-3.7331221103668213,-0.37531983852386475,0.6993626482812043,-0.6595949607530744,-0.2753658910218381,0.209451789175569,8.0,0
29.621742248535156,-1.9426820278167725,-0.1575324535369873,-0.48661060848341336,-0.22931648923964346,-0.8429852095228048,0.09886294639243998,5.0,0
27.864212036132812,-2.899658203125,-0.49767112731933594,-0.0,-0.0,-1.0,0.021306393882411057,2.0,0
28.78435516357422,-2.5943803787231445,-0.677772045135498,-0.0,-0.0,-1.0,0.06651249520690629,1.0,0
28.865102767944336,-3.4985523223876953,-0.4963696002960205,0.7948781099160508,-0.6031723326574648,0.06596914045854514,0.03755266300026231,3.0,0
29.16041374206543,-3.16119384765625,-0.5739996433258057,-0.23114786312624788,0.6684170699207029,-0.7069577681946718,0.027082481855972566,4.0,0
28.3754825592041,-3.599794387817383,-0.4929077625274658,-0.0,-0.0,-1.0,0.02336171217907964,2.0,0
29.132848739624023,-3.1833744049072266,-0.5976147651672363,0.4693036668089539,-0.847447404362243,0.24816721209573012,0.027764522891925277,3.0,0
29.36809730529785,-1.9319648742675781,-0.5537502765655518,-0.0,-0.0,-1.0,0.1466786533522003,2.0,0
29.910781860351562,-3.717243194580078,-0.3990921974182129,-0.568281958023749,-0.5604118605702819,-0.6024899689761221,0.2411095073682199,7.0,0
29.66325569152832,-1.9490432739257812,-0.5933473110198975,0.6124369819870169,0.7698909212148899,0.17941268774956418,0.15386969799052796,3.0,0
29.99191665649414,-3.673731803894043,-0.4475994110107422,0.3348532681275828,0.13818745745423294,-0.9320823544229406,0.19864847752743534,6.0,0
28.339155197143555,-2.592564582824707,-0.49051666259765625,-0.6322474028156059,-0.23966118963527772,-0.7367670838301102,0.04975331408408711,3.0,0
27.769365310668945,-2.488406181335449,-0.4624929428100586,-0.0,-0.0,-1.0,0.043465406264244756,2.0,0
30.052005767822266,-4.18094539642334,-0.4787893295288086,0.670741947941419,0.714801709567693,0.19789834580120808,0.06582811085868695,3.0,0
28.77538299560547,-3.2455339431762695,-0.4879131317138672,-0.0,-0.0,-1.0,0.040130841388564986,1.0,0
28.629878997802734,-2.903529167175293,-0.5403470993041992,-0.0,-0.0,-1.0,0.05630708328771441,2.0,0
28.69580841064453,-2.783689498901367,-0.5584683418273926,0.5318429791987488,0.5173544142321137,-0.6704382563305481,0.027831743336512865,3.0,0
29.98435401916504,-4.222830772399902,-0.454453706741333,-0.27660519338040623,0.22030559210027997,-0.9353902998664955,0.09267636968139972,4.0,0
28.777706146240234,-3.176419258117676,-0.4872450828552246,-0.5610257017571487,0.7709343856446876,-0.3015134076596704,0.0644759219930127,3.0,0
29.9923095703125,-2.03594970703125,-0.6787240505218506,-0.0,-0.0,-1.0,0.03173477129123222,2.0,0
30.031005859375,-2.774256706237793,-0.5451798439025879,0.33304986898341393,-0.7554627148195051,-0.5642285629846063,0.13341527503054526,6.0,0
29.913352966308594,-3.672064781188965,-0.3643913269042969,-0.5896470841722138,-0.6018281850658931,-0.5386270990096016,0.2820449002449402,11.0,0
30.040084838867188,-2.8127899169921875,-0.5771870613098145,0.16558983412645772,-0.5201033157248476,-0.8378976953101086,0.07768994788156962,3.0,0
29.880229949951172,-3.605722427368164,-0.4046297073364258,0.27355119852633464,-0.4193587439830879,-0.8656257768976918,0.24874510669898783,7.0,0
29.99081039428711,-2.7677268981933594,-0.5653426647186279,-0.13773617875228109,-0.7348347119917337,-0.6641134625308734,0.10592830292145801,6.0,0
29.92997169494629,-3.69091796875,-0.3954434394836426,-0.004070616590787197,-0.260134448300883,-0.9655638243470839,0.18397052281879775,15.0,0
29.53772735595703,-1.890340805053711,-0.42009830474853516,0.22127455726228973,0.5518299937937057,0.8040654377959647,0.20334624268007737,15.0,0
28.695178985595703,-3.1621932983398438,-0.5447890758514404,-0.0,-0.0,-1.0,0.05260082865649231,1.0,0
29.88648223876953,-3.6601696014404297,-0.4111788272857666,-0.2774171334671819,-0.958777957371722,-0.06151879807799103,0.14395061648259286,13.0,0
29.557592391967773,-1.9274077415466309,-0.3995633125305176,0.761120679095789,0.6067336405243221,-0.2292806169497715,0.23454240584555563,13.0,0
29.589229583740234,-1.9712457656860352,-0.2858426570892334,-0.0,-0.0,-1.0,0.0945426430699251,2.0,0
29.590538024902344,-1.9598264694213867,-0.36367249488830566,-0.0,-0.0,-1.0,0.17229699361343798,2.0,0
29.928260803222656,-3.692770004272461,-0.319718599319458,-0.15928455867091595,0.7085588763495301,-0.6874392686741879,0.1949473551971698,6.0,0
29.91259765625,-3.6280248165130615,-0.4493124485015869,-0.7009369577588563,-0.6177786676515256,-0.3564223604692398,0.18723358308191537,9.0,0
30.025196075439453,-4.161314487457275,-0.4588286876678467,-0.0,-0.0,-1.0,0.07415927694495045,2.0,0
29.550371170043945,-1.9303061962127686,-0.45158958435058594,0.7797192897538567,0.2382596831760194,-0.5790251743737954,0.2629496017233957,15.0,0
29.570480346679688,-1.9276158809661865,-0.42282843589782715,0.8765524200071529,0.3105468780461383,-0.36771795103774935,0.17567762554951963,15.0,0
29.939414978027344,-4.20986270904541,-0.44522690773010254,-0.2663331769716896,0.2525319714851242,-0.9302119340354661,0.12473473618521566,4.0,0
30.005020141601562,-2.7454020977020264,-0.5542440414428711,0.5527652671182564,0.5261703251290661,-0.646216177777418,0.14123064391823148,7.0,0
29.974260330200195,-3.6666831970214844,-0.5415024757385254,-0.9432836624817433,0.28133090485183493,-0.17626359258302993,0.2520793220739674,3.0,0
29.968097686767578,-2.072888135910034,-0.6801397800445557,-0.0,-0.0,-1.0,0.04282539569179294,2.0,0
29.513595581054688,-3.065354347229004,-0.5827314853668213,0.21527975752078565,-0.7793485860132153,-0.5884474551572074,0.012335863027668632,3.0,0
29.438705444335938,-3.8588204383850098,-0.5781407356262207,-0.0,-0.0,-1.0,0.03232731092836502,1.0,0
29.908794403076172,-3.601728677749634,-0.3333721160888672,-0.5594898933461605,-0.6636332700621773,-0.49655003988528956,0.19765117498366272,5.0,0
30.08392333984375,-3.7373831272125244,-0.5051236152648926,-0.0,-0.0,-1.0,0.19066795867716763,1.0,0
29.163665771484375,-3.597095012664795,-0.525277853012085,0.914417685682786,-0.4005919675730696,0.05802044145363447,0.017395952994962847,7.0,0
30.045940399169922,-3.8457155227661133,-0.46608996391296387,-0.5694254788821542,-0.06850230782107591,-0.8191837753660749,0.10138353029163925,3.0,0
29.52174186706543,-1.927302360534668,-0.4538586139678955,0.8039988610812574,0.5946259560815637,-0.0024090940469788215,0.2070471470165503,9.0,0
29.587905883789062,-1.8980140686035156,-0.4464104175567627,0.8584251518557727,-0.466544013759071,0.2131735018405649,0.2377864368448946,17.0,0
29.85309410095215,-3.688718795776367,-0.3753833770751953,0.6904284994873026,-0.1745836484186891,-0.7020178322525227,0.24501276364601435,3.0,0
30.052427291870117,-2.642857313156128,-0.6157455444335938,-0.0,-0.0,-1.0,0.09471152123390339,2.0,0
29.973617553710938,-3.2304680347442627,-0.6156759262084961,-0.0,-0.0,-1.0,0.0336616849097689,2.0,0
29.368242263793945,-4.352997779846191,-0.5104999542236328,-0.0,-0.0,-1.0,0.041545071662002414,1.0,0
29.595916748046875,-3.7476139068603516,-0.5137729644775391,-0.188766061764266,-0.9570222046424444,-0.22017237280668286,0.059245967433116574,4.0,0
29.455827713012695,-1.9321680068969727,-0.48403167724609375,0.9791691295574272,-0.09998154060835081,-0.17672438218687192,0.2248103676355127,6.0,0
30.082658767700195,-3.582519292831421,-0.5048303604125977,-0.0,-0.0,-1.0,0.16221957189029318,2.0,0
29.63677406311035,-2.26985764503479,-0.5380840301513672,-0.0,-0.0,-1.0,0.05278126399321568,1.0,0
29.403305053710938,-3.1421005725860596,-0.581571102142334,0.32907328165652516,-0.014631996568043055,-0.9441910187966406,0.007282528211767053,3.0,0
29.314167022705078,-2.2411611080169678,-0.6079733371734619,-0.140410792814064,-0.1851625045955147,-0.9726251365008217,0.026402816154737604,3.0,0
29.38564109802246,-1.8888888359069824,-0.6123955249786377,-0.0,-0.0,-1.0,0.11043580146228085,1.0,0
28.653806686401367,-3.5059916973114014,-0.49564027786254883,0.8570894274722088,-0.3474800462114934,0.38033581319699444,0.12930575551363768,5.0,0
28.57430648803711,-3.18932843208313,-0.48833227157592773,-0.0,-0.0,-1.0,0.0638924518354942,2.0,0
29.248207092285156,-3.057525634765625,-0.5758626461029053,-0.0,-0.0,-1.0,0.04561577188450921,2.0,0
29.49319839477539,-2.717174530029297,-0.6108987331390381,-0.3387941749504352,-0.2423531959642787,-0.9091113437998418,0.05954253643152945,4.0,0
28.087541580200195,-2.527845859527588,-0.43286848068237305,0.08563896528932986,-0.9750423892313044,0.20483726913401862,0.1031729271099528,4.0,0
29.55428695678711,-2.356879234313965,-0.6229219436645508,-0.0,-0.0,-1.0,0.036249264606105676,1.0,0
29.428455352783203,-1.9967374801635742,-0.6113874912261963,0.39846094656858083,0.7170759155488775,-0.5718662478232214,0.22172649868847366,3.0,0
29.820554733276367,-3.7558693885803223,-0.4159059524536133,0.18695073804210763,0.3013401973524915,-0.9350098967417793,0.2153038363374806,3.0,0
29.504423141479492,-1.9747676849365234,-0.40659141540527344,-0.0,-0.0,-1.0,0.2459411891442025,1.0,0
29.843189239501953,-3.8025543689727783,-0.3471648693084717,-0.0,-0.0,-1.0,0.23215940915501576,1.0,0
29.784866333007812,-4.343987464904785,-0.7033901214599609,-0.0,-0.0,-1.0,0.1779893589512678,1.0,0
29.901031494140625,-4.132496356964111,-0.7221460342407227,-0.0,-0.0,-1.0,0.15721730312017596,1.0,0
30.052522659301758,-3.911729335784912,-0.7477712631225586,-0.0,-0.0,-1.0,0.12589858657621714,1.0,0
29.5158634185791,-1.930549144744873,-0.6506671905517578,-0.0,-0.0,-1.0,0.12709663004329944,2.0,0
29.768110275268555,-4.223592758178711,-0.5121040344238281,-0.11631048833069131,0.16635011260029264,-0.979183083157663,0.1278594551220789,4.0,0
29.84832000732422,-3.816740036010742,-0.535557746887207,-0.0,-0.0,-1.0,0.15710100683068406,2.0,0
29.951435089111328,-3.4170353412628174,-0.564030647277832,-0.0,-0.0,-1.0,0.035001595671148834,2.0,0
29.988487243652344,-2.956717014312744,-0.5820655822753906,-0.0,-0.0,-1.0,0.07841065461952267,1.0,0
30.076427459716797,-3.1069607734680176,-0.5953116416931152,-0.0,-0.0,-1.0,0.03690694049305685,2.0,0
29.9708194732666,-2.6252870559692383,-0.5871739387512207,0.539265514857283,0.486061704187365,-0.6877039509906747,0.09482506294640841,3.0,0
30.033655166625977,-2.358522653579712,-0.6064453125,-0.03346514704905084,-0.9330636362451152,0.35815127341673486,0.039647882721373276,3.0,0
30.132139205932617,-2.1774635314941406,-0.6305360794067383,-0.8358915258112823,-0.24621456269169986,-0.49057491394833985,0.026964885050311256,3.0,0
28.564315795898438,-4.33256196975708,-0.27950286865234375,-0.0,-0.0,-1.0,0.11168254846373389,1.0,0
29.624950408935547,-4.037867069244385,-0.5494537353515625,-0.0,-0.0,-1.0,0.013929654174348374,1.0,0
29.64515495300293,-3.6893861293792725,-0.5597825050354004,0.32784903651345526,0.02729403294546514,-0.9443357692170571,0.08422125754388372,4.0,0
29.70787811279297,-3.3000738620758057,-0.5804448127746582,-0.0,-0.0,-1.0,0.012668144863913988,2.0,0
29.7739200592041,-2.910189390182495,-0.602755069732666,-0.8817644190223182,-0.2242141454774653,0.41499340514524297,0.027172884340466923,3.0,0
29.847841262817383,-2.5223519802093506,-0.6276593208312988,-0.0,-0.0,-1.0,0.03333611070251033,2.0,0
29.567262649536133,-2.054744005203247,-0.5831518173217773,-0.0,-0.0,-1.0,0.12872340840415034,1.0,0
29.918254852294922,-2.2166950702667236,-0.6504116058349609,-0.7476636568532325,-0.5230692878220654,-0.40914248906483497,0.055794957132636464,3.0,0
29.74014663696289,-3.6919102668762207,-0.47585391998291016,-0.0,-0.0,-1.0,0.18389052528678668,1.0,0
29.446048736572266,-1.931201696395874,-0.46224498748779297,0.7104119733174974,-0.6295807654860301,0.31455188426897684,0.18699389496801413,5.0,0
28.106369018554688,-3.7755024433135986,-0.41300392150878906,-0.0,-0.0,-1.0,0.01940852424214878,2.0,0
28.311534881591797,-3.582618236541748,-0.46317386627197266,-0.0,-0.0,-1.0,0.06669288964507572,1.0,0
28.41607666015625,-3.334958791732788,-0.4908461570739746,-0.0,-0.0,-1.0,0.06138887518337079,1.0,0
28.464061737060547,-3.114823341369629,-0.505615234375,-0.0,-0.0,-1.0,0.03206871297866682,1.0,0
28.377731323242188,-2.803622245788574,-0.49098682403564453,-0.0,-0.0,-1.0,0.01612291127427401,1.0,0
28.14706802368164,-2.514131546020508,-0.44268178939819336,0.36316283791818826,-0.8876189704943882,-0.28327604271044493,0.12256677037318958,5.0,0
28.316650390625,-2.382678508758545,-0.48615455627441406,-0.0,-0.0,-1.0,0.05231658702396272,1.0,0
28.730121612548828,-2.1265206336975098,-0.5914473533630371,0.7394947903658111,0.6727642118807624,0.023146711089944823,0.048312236919048575,3.0,0
28.75727081298828,-1.8672857284545898,-0.6060094833374023,-0.0,-0.0,-1.0,0.031325732923984086,2.0,0
27.922157287597656,-2.2712655067443848,-0.3953537940979004,-0.0,-0.0,-1.0,0.1416221116544425,1.0,0
27.886028289794922,-2.194516897201538,-0.3888363838195801,0.9824408447755303,0.0210528147440855,0.18538275407408766,0.12990608821187727,3.0,0
29.850608825683594,-3.803741693496704,-0.24474763870239258,-0.0,-0.0,-1.0,0.15961590324404407,1.0,0
28.58527183532715,-3.912466287612915,-0.43459415435791016,-0.18884758662720155,0.9183378632671719,-0.3478392702311899,0.019841322096830157,3.0,0
28.56990623474121,-3.7195043563842773,-0.44400691986083984,-0.0,-0.0,-1.0,0.023313901668478694,1.0,0
28.529287338256836,-3.482196807861328,-0.45069265365600586,-0.0,-0.0,-1.0,0.07835212257691539,1.0,0
28.4798526763916,-3.1713736057281494,-0.4611167907714844,-0.0,-0.0,-1.0,0.036349917973793736,2.0,0
28.194385528564453,-2.6803765296936035,-0.4282102584838867,-0.0,-0.0,-1.0,0.034418606163182264,1.0,0
28.45584487915039,-2.787734270095825,-0.48412132263183594,-0.0,-0.0,-1.0,0.01622447608426888,1.0,0
28.02766990661621,-2.548490285873413,-0.39757776260375977,-0.0,-0.0,-1.0,0.04139704476856206,1.0,0
28.163785934448242,-2.455045461654663,-0.4384574890136719,-0.5747080444964782,-0.5368073591538384,-0.6176961411157719,0.1399589430737105,6.0,0
28.537076950073242,-2.0267186164855957,-0.5655431747436523,-0.0,-0.0,-1.0,0.021921072440720283,1.0,0
27.77362823486328,-2.265531063079834,-0.3577580451965332,-0.0,-0.0,-1.0,0.17989954328753566,1.0,0
30.180702209472656,-3.3796634674072266,-0.5694937705993652,0.08483039845799832,-0.46199322741627447,-0.8828171165756543,0.05623226783105179,4.0,0
29.78855323791504,-4.246615409851074,-0.5051069259643555,-0.674440557093625,-0.6836303838649939,-0.2788896434144556,0.18507738436074464,3.0,0
29.917638778686523,-3.8801779747009277,-0.5229997634887695,-0.27800390789333246,0.43049223855993385,-0.8587143062367668,0.05095017604626213,3.0,0
30.04354476928711,-3.5482468605041504,-0.5425419807434082,-0.0,-0.0,-1.0,0.148737971119836,2.0,0
30.040679931640625,-2.704678535461426,-0.5244083404541016,0.10056050617910446,-0.06813027531505705,-0.9925955118690072,0.13035535368460816,7.0,0
29.50868034362793,-1.9036378860473633,-0.39241886138916016,-0.33987184389314856,0.5403212980457319,-0.7697662142539422,0.21409573533144288,7.0,0
27.850547790527344,-3.5417087078094482,-0.4768805503845215,-0.0,-0.0,-1.0,0.039575572281422486,2.0,0
28.064910888671875,-3.226005792617798,-0.5085358619689941,-0.0,-0.0,-1.0,0.08449764378612316,2.0,0
28.095996856689453,-2.905022382736206,-0.4976673126220703,-0.0,-0.0,-1.0,0.03357580005980709,2.0,0
28.49880599975586,-2.4348113536834717,-0.5705065727233887,-0.0,-0.0,-1.0,0.031260406812055094,1.0,0
28.745967864990234,-2.208505868911743,-0.6200747489929199,0.8424840572840027,0.4663547624889111,-0.26969213693802246,0.039168600612516195,3.0,0
28.054222106933594,-2.636388063430786,-0.47325801849365234,-0.0,-0.0,-1.0,0.0841011006017348,1.0,0
28.196590423583984,-2.4612419605255127,-0.49872350692749023,-0.4354021412138017,-0.5755445014329582,0.6922235927044988,0.12740354134220944,4.0,0
29.23260498046875,-1.9628961086273193,-0.6516075134277344,-0.0,-0.0,-1.0,0.02711741942890507,2.0,0
30.147682189941406,-4.117555618286133,-0.5608820915222168,-0.0,-0.0,-1.0,0.047725523593081964,2.0,0
28.749069213867188,-2.2255961894989014,-0.6399393081665039,0.8424840572840027,0.4663547624889111,-0.26969213693802246,0.09141386253118428,3.0,0
29.032291412353516,-2.0909903049468994,-0.6517510414123535,-0.0,-0.0,-1.0,0.020628134190766576,1.0,0
28.37238311767578,-2.3294484615325928,-0.6039743423461914,-0.0,-0.0,-1.0,0.06207722765380084,2.0,0
29.57421875,-4.307831764221191,-0.5382413864135742,-0.0,-0.0,-1.0,0.07643182402718372,1.0,0
29.814849853515625,-4.198744773864746,-0.5393719673156738,-0.0,-0.0,-1.0,0.15012885930098493,2.0,0
29.81473159790039,-3.749908685684204,-0.4151492118835449,0.18695073804210763,0.3013401973524915,-0.9350098967417793,0.22960341752069505,3.0,0
29.21990203857422,-2.201404571533203,-0.6054034233093262,-0.0,-0.0,-1.0,0.018289527107963208,2.0,0
29.327396392822266,-1.9301867485046387,-0.6096339225769043,-0.0,-0.0,-1.0,0.1415781832945943,1.0,0
28.636714935302734,-2.8352608680725098,-0.5246758460998535,-0.0,-0.0,-1.0,0.046409701928194554,1.0,0
28.860198974609375,-2.6484413146972656,-0.5594468116760254,-0.0,-0.0,-1.0,0.05530758306732296,2.0,0
29.061439514160156,-2.379441738128662,-0.5831351280212402,-0.0,-0.0,-1.0,0.017529085424865847,1.0,0
28.024330139160156,-3.5846996307373047,-0.45686960220336914,-0.0,-0.0,-1.0,0.017044550180964048,2.0,0
28.261978149414062,-3.3426918983459473,-0.48656225204467773,-0.0,-0.0,-1.0,0.053133614750857844,2.0,0
28.514751434326172,-3.0370101928710938,-0.5150666236877441,-0.0,-0.0,-1.0,0.06427741291905167,1.0,0
27.890033721923828,-3.720614433288574,-0.44066810607910156,0.2329165848868137,-0.16401923436915053,-0.9585653630512742,0.03189969225269945,4.0,0
29.228946685791016,-2.83082914352417,-0.5702908039093018,-0.30660433642155355,-0.48953284367607725,-0.8163034826888297,0.03810473746296735,3.0,0
29.53292465209961,-2.470390796661377,-0.6078164577484131,-0.0,-0.0,-1.0,0.04123026376099001,1.0,0
29.594562530517578,-2.108764171600342,-0.6020796298980713,-0.0,-0.0,-1.0,0.099192079164202,1.0,0
29.01686668395996,-3.06355619430542,-0.5442125797271729,0.700619624806528,-0.19397108509825917,-0.6866639348922903,0.06759131234376978,3.0,0
28.621009826660156,-3.418600559234619,-0.4932591915130615,-0.0,-0.0,-1.0,0.11499105600073338,1.0,0
28.63933563232422,-3.273144245147705,-0.48769354820251465,0.18506715383490127,0.06236799389222749,-0.980744809779439,0.05487241525958801,3.0,0
28.320161819458008,-3.810424327850342,-0.46422839164733887,-0.0,-0.0,-1.0,0.01140110608153941,2.0,0
28.538562774658203,-3.5608372688293457,-0.48728394508361816,-0.015983343028060436,0.8554605503659177,-0.517621270344726,0.061898971950751225,3.0,0
28.62068748474121,-3.151002883911133,-0.4770333766937256,-0.0,-0.0,-1.0,0.07027048096743217,2.0,0
27.85308837890625,-4.178428649902344,-0.4066281318664551,-0.06362952809503727,-0.3019070767035146,-0.9512115433439298,0.009915841443926921,5.0,0
27.89789390563965,-3.892007827758789,-0.39435601234436035,0.5161318249217944,0.4590073901747068,-0.723132183675919,0.05567444428006074,5.0,0
30.071971893310547,-2.198932647705078,-0.6861228942871094,-0.0,-0.0,-1.0,0.028001753261349387,1.0,0
29.672504425048828,-2.5869126319885254,-0.6475393772125244,-0.0,-0.0,-1.0,0.02580221734581228,1.0,0
29.849300384521484,-2.34006404876709,-0.6596264839172363,-0.0,-0.0,-1.0,0.03974728310491393,1.0,0
29.59408950805664,-1.9807415008544922,-0.5969445705413818,-0.0,-0.0,-1.0,0.1607092265681799,2.0,0
29.251182556152344,-2.9945483207702637,-0.6090576648712158,-0.0,-0.0,-1.0,0.04713147999465009,2.0,0
29.480606079101562,-2.798116683959961,-0.6314160823822021,-0.0029725736715937806,0.28061819727588494,-0.9598148733810077,0.055180336948616696,5.0,0
29.471664428710938,-1.8669352531433105,-0.5706229209899902,-0.0,-0.0,-1.0,0.1375164237119825,1.0,0
29.100921630859375,-3.1384735107421875,-0.5957987308502197,-0.0,-0.0,-1.0,0.030907140527470556,1.0,0
28.530704498291016,-3.468050479888916,-0.5319666862487793,-0.0,-0.0,-1.0,0.06615157000227447,1.0,0
28.600296020507812,-3.187443256378174,-0.5217568874359131,-0.789659957304663,0.009459845205908923,-0.6134718112173358,0.06681259017465668,3.0,0
27.799789428710938,-3.9417123794555664,-0.45795130729675293,-0.0,-0.0,-1.0,0.048013211847561736,1.0,0
27.862712860107422,-3.657841205596924,-0.44446778297424316,-0.7607546268577089,0.0010937701415349793,-0.6490386747963985,0.02300710950090248,6.0,0
29.892854690551758,-3.5867090225219727,-0.4272124767303467,0.6491164000878904,-0.7011429711296954,-0.2950363251743103,0.20140028941217025,7.0,0
29.99776840209961,-3.4933438301086426,-0.5717055797576904,-0.0,-0.0,-1.0,0.08544343534034615,2.0,0
30.182025909423828,-3.35514497756958,-0.580324649810791,0.08483039845799832,-0.46199322741627447,-0.8828171165756543,0.05758841104186331,4.0,0
29.759357452392578,-3.6903328895568848,-0.5628747940063477,-0.0,-0.0,-1.0,0.11386783396645603,2.0,0
29.397125244140625,-3.9108481407165527,-0.5423285961151123,-0.04063853500509505,-0.6270236409499026,-0.7779394983946804,0.0365594893826932,5.0,0
29.267589569091797,-3.9348111152648926,-0.5296170711517334,-0.0,-0.0,-1.0,0.06695805608993038,2.0,0
29.06287384033203,-4.007654666900635,-0.5132272243499756,-0.42372877871299686,0.04828529033683846,-0.9045012177037018,0.06379044027462433,4.0,0
28.658634185791016,-4.0624098777771,-0.472031831741333,-0.0,-0.0,-1.0,0.046408319760093526,1.0,0
28.140972137451172,-4.2148308753967285,-0.42862963676452637,-0.0,-0.0,-1.0,0.03861607914368064,2.0,0
27.854305267333984,-4.227354526519775,-0.3972740173339844,-0.17011274242452534,0.06242377498737068,-0.9834454368093499,0.009915841443927048,6.0,0
30.067758560180664,-2.5347490310668945,-0.5793156623840332,-0.0,-0.0,-1.0,0.10545896636747036,2.0,0
29.74184226989746,-2.7866249084472656,-0.5679802894592285,-0.0,-0.0,-1.0,0.03264458761809763,2.0,0
29.52220344543457,-2.8530941009521484,-0.5496888160705566,-0.0,-0.0,-1.0,0.045268427929080216,2.0,0
29.30815315246582,-2.880136489868164,-0.5279161930084229,-0.0,-0.0,-1.0,0.033380701114258296,2.0,0
29.046417236328125,-3.00858211517334,-0.5119147300720215,-0.0,-0.0,-1.0,0.06818172655519061,2.0,0
29.188833236694336,-2.9505977630615234,-0.5218813419342041,-0.0,-0.0,-1.0,0.05131362814574562,1.0,0
28.530744552612305,-3.169796943664551,-0.4711623191833496,-0.0,-0.0,-1.0,0.05383643898687091,1.0,0
28.64847755432129,-2.976569175720215,-0.46294069290161133,-0.0,-0.0,-1.0,0.04412131851235789,1.0,0
28.268184661865234,-3.246293067932129,-0.4502091407775879,-0.0,-0.0,-1.0,0.052864818161846586,1.0,0
27.958274841308594,-3.2933340072631836,-0.42078709602355957,-0.0,-0.0,-1.0,0.1074660385610294,1.0,0
29.85147476196289,-3.5749998092651367,-0.27155494689941406,-0.0,-0.0,-1.0,0.18872991697557046,1.0,0
29.11790657043457,-2.0539722442626953,-0.6022872924804688,-0.0,-0.0,-1.0,0.024962407587088214,2.0,0
28.865196228027344,-2.230541229248047,-0.590174674987793,0.12649061453870497,-0.502252178705864,-0.8554197060033358,0.08645356366647593,6.0,0
27.748533248901367,-2.1949968338012695,-0.4583759307861328,-0.0,-0.0,-1.0,0.17972964917684503,2.0,0
27.86908531188965,-2.1337461471557617,-0.46590518951416016,0.26100781967283904,0.8530773905826279,-0.4518117791142293,0.19846337726215058,7.0,0
29.89699935913086,-3.6253128051757812,-0.2356891632080078,0.8913524036662595,-0.3773461415891945,-0.25119869009636353,0.1969455956762744,6.0,0
28.840572357177734,-2.2336549758911133,-0.6376574039459229,-0.07307985536095345,-0.012301603587962007,-0.9972502220052832,0.07935251672537416,5.0,0
27.784774780273438,-2.177755355834961,-0.5252768993377686,-0.4017699927355802,-0.7954601794025654,-0.45367827358392504,0.14308985411910352,3.0,0
30.068971633911133,-2.6710500717163086,-0.5322604179382324,0.5016109956166295,-0.8081391010707051,-0.3087030974854748,0.12353689003745905,7.0,0
30.107921600341797,-2.633000373840332,-0.4152719974517822,-0.0,-0.0,-1.0,0.1413839932756056,1.0,0
29.147247314453125,-4.055732727050781,-0.6067876815795898,-0.0,-0.0,-1.0,0.05690275597026685,1.0,0
29.293514251708984,-4.023311614990234,-0.6128027439117432,-0.0,-0.0,-1.0,0.06016952211684558,1.0,0
29.26805877685547,-3.3263587951660156,-0.5725014209747314,-0.0,-0.0,-1.0,0.012869850826175339,2.0,0
27.91876220703125,-3.4852294921875,-0.48329710960388184,-0.0,-0.0,-1.0,0.044318108809614565,1.0,0
28.935773849487305,-3.0610084533691406,-0.5276257991790771,0.8319641904907815,0.5412006924384036,0.1222186411526943,0.06869457576502264,3.0,0
29.33420753479004,-3.272563934326172,-0.564833402633667,0.7849324202550367,0.11250300231918148,-0.6092816837077416,0.01264584316287576,5.0,0
29.6871395111084,-3.3778152465820312,-0.5937833786010742,-0.0,-0.0,-1.0,0.011997831488978547,2.0,0
30.009023666381836,-3.0915679931640625,-0.6011755466461182,-0.0,-0.0,-1.0,0.029760908817365567,1.0,0
30.155935287475586,-3.0718994140625,-0.61020827293396,-0.0,-0.0,-1.0,0.05790119208221011,1.0,0
28.649003982543945,-3.2262916564941406,-0.48288965225219727,-0.0,-0.0,-1.0,0.06482442307663712,2.0,0
29.196746826171875,-3.6024208068847656,-0.5323376655578613,0.2076445754044198,0.4699344612187411,-0.8579308436372769,0.017269143791413484,5.0,0
29.612899780273438,-3.6975975036621094,-0.5591831207275391,-0.2293855935418617,0.32183931135655663,-0.9185867989150425,0.07234325270771659,4.0,0
29.942245483398438,-3.4066162109375,-0.5597705841064453,-0.6455010138923386,-0.2785608633122395,-0.7111485685106189,0.037050439008709544,3.0,0
29.99767303466797,-2.7276229858398438,-0.5242500305175781,0.015498063755593925,0.4575535751123839,-0.8890469818416254,0.14123064391823154,5.0,0
30.153079986572266,-3.3621902465820312,-0.5683698654174805,-0.04977687156027568,-0.6251819307246373,-0.7788901184076524,0.019513878664000187,5.0,0
28.86396026611328,-2.210905075073242,-0.624579906463623,0.8364642315341582,0.2185115285278556,-0.5025736774487803,0.07067774385770023,5.0,0
27.770931243896484,-4.101718902587891,-0.3993823528289795,-0.0,-0.0,-1.0,0.034504095017845474,1.0,0
27.925601959228516,-3.91790771484375,-0.4022538661956787,-0.40366561781548244,-0.1569956342494664,-0.9013359195218245,0.02927730298473037,3.0,0
28.1539249420166,-3.908536911010742,-0.4221227169036865,-0.0,-0.0,-1.0,0.017789348449655358,1.0,0
28.69598960876465,-3.424386978149414,-0.4429357051849365,-0.0,-0.0,-1.0,0.08458527717081687,2.0,0
29.019245147705078,-3.614633560180664,-0.48366379737854004,-0.0,-0.0,-1.0,0.016980602445434683,1.0,0
29.51645851135254,-3.6502037048339844,-0.5318160057067871,-0.0,-0.0,-1.0,0.05309615959632657,1.0,0
29.573753356933594,-1.9351024627685547,-0.4396512508392334,0.8762526025313409,0.14472037752269543,-0.45960568848387917,0.24236566344110583,15.0,0
29.859235763549805,-3.2324905395507812,-0.5401284694671631,-0.0,-0.0,-1.0,0.016973880960690392,2.0,0
29.900070190429688,-3.3153915405273438,-0.5487096309661865,-0.0,-0.0,-1.0,0.015647088022569696,2.0,0
30.12353515625,-2.6708545684814453,-0.5335566997528076,-0.0,-0.0,-1.0,0.21763318200927445,1.0,0
30.108549118041992,-3.2450733184814453,-0.5644657611846924,-0.48330880527432407,0.671853565119717,-0.5612712230109714,0.06730084919901251,3.0,0
29.95612335205078,-3.8082199096679688,-0.4997076988220215,-0.0,-0.0,-1.0,0.1736000161544512,2.0,0
29.849308013916016,-4.199316024780273,-0.5099256038665771,0.5143783764894617,0.2209378738512069,-0.8286141090388057,0.13640616023877314,4.0,0
28.471677780151367,-2.191946029663086,-0.5700881481170654,0.5463340502715222,0.45912830621270273,0.7005143138781456,0.04190010180746995,3.0,0
28.870101928710938,-2.0717525482177734,-0.6062905788421631,-0.0,-0.0,-1.0,0.018867182195402028,1.0,0
27.89752197265625,-3.6377124786376953,-0.4626047611236572,-0.4877937406584809,0.2661116358832663,-0.8314095644277487,0.02857139142550076,5.0,0
28.465688705444336,-3.4519805908203125,-0.5055699348449707,-0.6298333667185786,-0.40593774995924103,-0.6622118039766199,0.04940168444464711,3.0,0
28.69689178466797,-3.0955257415771484,-0.5031664371490479,-0.2717137483711844,0.32342900497179766,-0.9064024038411601,0.0665767042394985,3.0,0
29.071163177490234,-3.2185592651367188,-0.5501337051391602,0.22443789928671018,-0.8437932754465289,-0.48748388452849073,0.054420450881536755,5.0,0
29.438796997070312,-1.962381362915039,-0.4992203712463379,-0.7174726007470533,0.6525805618614097,-0.24366304081232065,0.18949267584181387,6.0,0
29.407146453857422,-3.061870574951172,-0.5735340118408203,-0.0,-0.0,-1.0,0.006504172608217508,2.0,0
29.541561126708984,-1.87078857421875,-0.5036234855651855,0.8541785933426548,-0.5156978567899142,0.06659317665836724,0.14918981447694388,7.0,0
29.795040130615234,-2.8169422149658203,-0.5965719223022461,-0.1123440990854206,0.8756185731597275,-0.46975623225073665,0.03448430197960343,4.0,0
29.648151397705078,-2.9356117248535156,-0.5895850658416748,0.484681260828061,-0.33140332701592984,-0.8094787892495354,0.0447034721517484,4.0,0
30.196741104125977,-2.3886051177978516,-0.6090672016143799,-0.0,-0.0,-1.0,0.05313620815971228,2.0,0
30.021705627441406,-2.4532337188720703,-0.5949821472167969,-0.03216481601284815,-0.9047622605324215,-0.42470069051877246,0.0588288867396969,3.0,0
27.899215698242188,-2.408773422241211,-0.49385833740234375,0.009814130276514229,-0.18796855808410828,-0.9821260122910385,0.07862480425074966,3.0,0
28.0876407623291,-2.4074649810791016,-0.517805814743042,-0.0,-0.0,-1.0,0.08415943443755013,1.0,0
28.570518493652344,-2.2202625274658203,-0.5671017169952393,0.5783446851057561,0.6344620015443032,0.5128112652880394,0.04302631994191211,3.0,0
28.50812530517578,-2.326875686645508,-0.5663402080535889,-0.0,-0.0,-1.0,0.0497641018321607,2.0,0
28.825790405273438,-1.9766407012939453,-0.5837781429290771,-0.0,-0.0,-1.0,0.03387888084710802,2.0,0
29.638957977294922,-3.644195556640625,-0.3995230197906494,-0.0,-0.0,-1.0,0.17342113149898908,2.0,0
29.90517807006836,-3.6489124298095703,-0.27249670028686523,0.9035706420129546,-0.4009778800920109,0.1509199608044407,0.24360189151140418,10.0,0
29.888866424560547,-3.6790428161621094,-0.4110424518585205,-0.3570027272894727,-0.6667530929765242,-0.6542089618112215,0.21470734141593373,15.0,0
27.744552612304688,-3.0357017517089844,-0.45459747314453125,-0.0,-0.0,-1.0,0.1101261322775637,2.0,0
28.111858367919922,-2.8738880157470703,-0.47769784927368164,-0.0,-0.0,-1.0,0.03237675437064484,2.0,0
28.307180404663086,-2.5749683380126953,-0.46880173683166504,-0.6322474028156059,-0.23966118963527772,-0.7367670838301102,0.06119921343930967,3.0,0
28.5957088470459,-2.7742557525634766,-0.5219838619232178,-0.0,-0.0,-1.0,0.020888156396554725,2.0,0
28.92521095275879,-2.7370357513427734,-0.5564637184143066,-0.0,-0.0,-1.0,0.030871800185606438,2.0,0
29.216665267944336,-2.675424575805664,-0.5848336219787598,-0.0,-0.0,-1.0,0.02325955917731241,1.0,0
29.450786590576172,-2.522916793823242,-0.5981616973876953,-0.0,-0.0,-1.0,0.04362803536844412,1.0,0
29.704086303710938,-2.0006370544433594,-0.5785813331604004,-0.0,-0.0,-1.0,0.1307408916096644,2.0,0
29.909765243530273,-2.097017288208008,-0.6139295101165771,-0.0,-0.0,-1.0,0.0751849041836932,2.0,0
30.116058349609375,-2.0244483947753906,-0.6334102153778076,-0.0,-0.0,-1.0,0.03542765531585018,1.0,0
28.13553237915039,-2.5264854431152344,-0.44457149505615234,0.181615423362298,-0.9813010694553387,0.06374989476651617,0.11800069720645144,4.0,0
29.448535919189453,-1.9602012634277344,-0.5426876544952393,0.7146412101642312,-0.6162773466889268,0.330892992813477,0.16474275397116245,4.0,0
27.712352752685547,-3.746030807495117,-0.44136977195739746,-0.0,-0.0,-1.0,0.031596745589792946,2.0,0
28.18375587463379,-3.6602954864501953,-0.4712848663330078,-0.0,-0.0,-1.0,0.054641709851509984,1.0,0
28.424022674560547,-3.5646839141845703,-0.48153114318847656,-0.8739927891669631,-0.0480582089978029,-0.48355662856802545,0.04296850402591725,3.0,0
28.611774444580078,-3.314716339111328,-0.47026753425598145,-0.0,-0.0,-1.0,0.046498495172043956,1.0,0
28.91021156311035,-3.3916568756103516,-0.5062763690948486,-0.0,-0.0,-1.0,0.023314932331007777,1.0,0
29.277849197387695,-3.4302749633789062,-0.5453190803527832,0.2819201133088287,-0.8286767150612558,-0.48354519088418557,0.017658101653741088,4.0,0
29.68292808532715,-3.2440414428710938,-0.5645513534545898,-0.0,-0.0,-1.0,0.009565571669217007,2.0,0
