x,y,z,nx,ny,nz,curvature,density,label
12.822953224182129,2.0744104385375977,0.8061367273330688,-0.0023997921614493057,-0.0019699052026557634,-0.9999951802239222,0.22752252783941895,3.0,1
12.906245231628418,1.9856882095336914,1.217044472694397,-0.0,-0.0,-1.0,0.19131804050265094,1.0,2
12.964677810668945,3.00393009185791,-0.08876156806945801,-0.0,-0.0,-1.0,0.14326550910931032,2.0,0
13.77706241607666,2.8870182037353516,-0.11603021621704102,0.14732598272552178,-0.8315068637742039,-0.5356224326056063,0.02437759095203013,3.0,0
13.943988800048828,2.7876901626586914,-0.13315653800964355,-0.0,-0.0,-1.0,0.0701411787175835,1.0,0
14.255982398986816,2.487741470336914,-0.18165040016174316,-0.0,-0.0,-1.0,0.27340047678752794,1.0,0
14.550703048706055,2.641238212585449,-0.17155981063842773,-0.0,-0.0,-1.0,0.09886475555706725,1.0,0
14.807738304138184,2.553598403930664,-0.19344139099121094,0.983168822048672,-0.16074857801448125,-0.08682719630247636,0.07826293254778076,3.0,0
15.191621780395508,2.2940168380737305,-0.24545025825500488,-0.0,-0.0,-1.0,0.038679023568696215,2.0,0
12.806493759155273,0.8873195648193359,0.08414864540100098,-0.0,-0.0,-1.0,0.15569933088034046,2.0,1
12.86754035949707,0.8718481063842773,0.08148336410522461,0.9778006981601747,-0.18436082080704405,0.09958354497018149,0.13696329408710314,4.0,1
13.2481050491333,0.66314697265625,0.05288243293762207,-0.0,-0.0,-1.0,0.1501776017536803,2.0,1
13.560771942138672,0.8456401824951172,0.06203103065490723,0.08711549398129631,-0.7906555121397393,0.6060319726148459,0.09508202613317744,5.0,1
13.831730842590332,0.7492208480834961,0.04440569877624512,-0.0,-0.0,-1.0,0.08386822504658854,1.0,1
14.100424766540527,0.6451797485351562,0.025237083435058594,-0.0,-0.0,-1.0,0.060281311991103176,1.0,1
12.907114028930664,2.1269311904907227,0.19889646768569946,-0.7358652614108384,-0.6759023685659565,0.04072229384119404,0.2223980991308671,7.0,1
14.426806449890137,0.9614276885986328,0.04363226890563965,-0.7072598164947828,-0.686151684545967,-0.17023342141453193,0.12439152716214914,4.0,1
12.900457382202148,2.849724769592285,0.26665782928466797,-0.0,-0.0,-1.0,0.16000501023304764,1.0,1
14.715208053588867,1.195521354675293,0.05448305606842041,-0.0,-0.0,-1.0,0.13688697363490349,1.0,1
14.824729919433594,1.3179922103881836,0.06161856651306152,-0.0,-0.0,-1.0,0.1754085662711707,1.0,1
13.67160701751709,3.0091352462768555,-0.09786534309387207,-0.0,-0.0,-1.0,0.016236465876332467,2.0,0
14.420337677001953,2.5116491317749023,0.19444310665130615,0.36833770629265983,0.22166066771583098,-0.9028808794690661,0.17515753844971382,5.0,1
14.467273712158203,2.9941272735595703,-0.12177979946136475,-0.0,-0.0,-1.0,0.11129151128396589,1.0,0
15.104141235351562,2.6755151748657227,0.1811736822128296,-0.0,-0.0,-1.0,0.13607756394575035,2.0,1
12.89827823638916,2.1240806579589844,0.5960365533828735,-0.3273165012270929,0.6736270421935265,-0.6626390541237781,0.25633100816210536,5.0,1
15.029905319213867,0.7992963790893555,0.43665093183517456,-0.0,-0.0,-1.0,0.10703782888784064,1.0,1
12.896434783935547,0.9537763595581055,0.011304736137390137,0.895577985310108,-0.3716924351969043,-0.2445093164795211,0.10600348358015088,4.0,1
13.2102632522583,0.8362140655517578,-0.008209228515625,-0.0,-0.0,-1.0,0.06528666686438288,2.0,0
13.553987503051758,1.0234670639038086,0.004164457321166992,0.6798916167338326,-0.6092273772253461,-0.4081536381488974,0.07530601521547962,3.0,1
13.783941268920898,1.0289278030395508,-0.0016522407531738281,-0.0,-0.0,-1.0,0.056261181399518544,1.0,0
12.918172836303711,2.1983985900878906,0.14695119857788086,-0.11384338904112348,0.9923567107617517,0.04762185819293879,0.21758294375592718,6.0,1
12.849433898925781,1.903519630432129,0.11594915390014648,0.8416827416359515,0.537738916874707,-0.049061387165519436,0.2169655827108612,3.0,1
13.98611831665039,1.1079425811767578,0.001038193702697754,-0.7673168344247415,0.35227771181261497,0.5358407313451093,0.03935099373013939,4.0,1
14.374116897583008,1.0817222595214844,-0.015409111976623535,-0.6500213745953328,0.11160724087298854,0.7516754860669013,0.1427731938268806,6.0,0
12.7388277053833,2.8033628463745117,0.21403944492340088,-0.0,-0.0,-1.0,0.1358656909672554,1.0,1
12.838577270507812,2.4797964096069336,0.17846810817718506,-0.9376716642005926,-0.2046992319580385,-0.28083816441338616,0.20645862246432228,4.0,1
14.646644592285156,1.2147245407104492,-0.0107496976852417,-0.0,-0.0,-1.0,0.15825244840542052,2.0,0
14.957621574401855,1.008580207824707,-0.047770023345947266,-0.0,-0.0,-1.0,0.09470507943586473,1.0,0
14.796985626220703,1.3693151473999023,0.0007787942886352539,-0.0,-0.0,-1.0,0.2222314965875612,1.0,1
15.205526351928711,1.1333513259887695,-0.04493999481201172,-0.0,-0.0,-1.0,0.10985438055363486,1.0,0
13.913969039916992,2.9414234161376953,-0.14238297939300537,-0.0,-0.0,-1.0,0.027782731250183428,1.0,0
14.195158958435059,2.7022790908813477,-0.18329989910125732,-0.0,-0.0,-1.0,0.0974624734650238,2.0,0
14.471185684204102,2.4530601501464844,0.1373361349105835,-0.0,-0.0,-1.0,0.15996641945414583,2.0,1
14.937292098999023,2.179523468017578,0.08783328533172607,-0.5850225581046753,-0.57070801638917,-0.576229959771097,0.15115938378981256,5.0,1
14.433036804199219,2.747030258178711,-0.18278825283050537,-0.238785285287645,0.08067905982516509,-0.9677150804011609,0.16521826628328437,3.0,0
14.677128791809082,2.71514892578125,-0.19509661197662354,-0.0,-0.0,-1.0,0.06790797371703013,2.0,0
15.135976791381836,2.5314836502075195,-0.2397075891494751,0.41079039587541544,0.08556697613528927,-0.9077056479121314,0.055677330659082314,4.0,0
14.861690521240234,2.8199691772460938,-0.1856400966644287,-0.5474977299338111,-0.6975904936670257,-0.46218366356105545,0.10421987921977136,3.0,0
13.147676467895508,0.6840600967407227,0.4090046286582947,-0.8893009677446405,0.24157145286631207,0.3883130463022137,0.08653992804729663,3.0,1
12.926551818847656,2.166299819946289,0.5277507305145264,0.12340396588650605,-0.46661352657644084,-0.8758100696037812,0.22373449875578627,3.0,1
14.428709983825684,2.627842903137207,0.15867245197296143,0.8222035887177213,-0.532269658051561,0.20166871303545075,0.19144687522083395,7.0,1
14.390973091125488,2.7428674697875977,0.5256088972091675,0.655056593279587,0.7555442692719394,0.007329172618568782,0.06445819380951977,4.0,1
15.071488380432129,2.714461326599121,0.14348483085632324,-0.08424771462032658,0.5773652377292251,0.812127887000026,0.11478796112966083,6.0,1
12.736146926879883,1.8408098220825195,0.9036391377449036,-0.0,-0.0,-1.0,0.13309656997670602,2.0,1
13.042789459228516,0.7735052108764648,0.007859587669372559,-0.0,-0.0,-1.0,0.16026427113358188,2.0,1
12.901248931884766,0.969390869140625,0.032556891441345215,0.5650711882218918,-0.7381506391019934,-0.3685487569302303,0.06819622134261762,5.0,1
13.271649360656738,0.8570995330810547,0.013925433158874512,-0.0,-0.0,-1.0,0.05592573546083363,2.0,1
13.532254219055176,0.9856767654418945,0.024369120597839355,0.684725404114108,-0.5951470055683427,-0.4206556343659336,0.07542612817219749,4.0,1
13.800803184509277,0.9692478179931641,0.016529083251953125,0.4907586379319658,0.8470960775143898,-0.20392203106799597,0.07445209953906792,3.0,1
14.09622573852539,0.8813257217407227,-0.0014473199844360352,-0.0,-0.0,-1.0,0.08227537974698572,2.0,0
12.913814544677734,2.1948928833007812,0.17312943935394287,0.5862402608494383,-0.6892396749695766,-0.4257593533993287,0.23743684666922574,5.0,1
12.982630729675293,2.0770645141601562,0.15926063060760498,0.12442335499566692,0.1707563883773443,-0.9774257437575236,0.16017501451091917,5.0,1
13.991582870483398,1.0964183807373047,0.02729165554046631,-0.7673168344247415,0.35227771181261497,0.5358407313451093,0.06508461657414964,4.0,1
14.399948120117188,1.0735149383544922,0.013033032417297363,-0.9213595736271315,-0.06837317790794482,0.3826508129200814,0.21429405417175706,7.0,1
14.779720306396484,0.6888914108276367,-0.046980857849121094,-0.0,-0.0,-1.0,0.0770126350906107,2.0,0
14.623444557189941,1.1427841186523438,0.014413952827453613,0.2519775704396988,-0.967408179299621,0.0250742620928057,0.09553882785444356,5.0,1
15.063297271728516,0.9993400573730469,-0.019449234008789062,-0.0,-0.0,-1.0,0.14352631076357503,2.0,0
14.831646919250488,1.4428606033325195,0.04413783550262451,0.7428128880676949,0.09457850333167724,0.6627849726933089,0.27264867931030534,3.0,1
13.820115089416504,2.88375186920166,-0.09911763668060303,0.14732598272552178,-0.8315068637742039,-0.5356224326056063,0.019932944040118934,3.0,0
14.135290145874023,2.699162483215332,-0.1290186643600464,-0.0,-0.0,-1.0,0.11127115562697353,1.0,0
14.477362632751465,2.5870704650878906,-0.15063846111297607,-0.0,-0.0,-1.0,0.16472766538038627,1.0,0
14.930745124816895,2.27054500579834,-0.2097851037979126,-0.85244996755565,0.234262061692968,-0.46738671276121224,0.14848743625379004,3.0,0
15.122617721557617,2.187103271484375,-0.2283409833908081,0.6241886218714774,-0.657211520117019,-0.4224471353337162,0.07745639966913873,3.0,0
14.755059242248535,2.6244373321533203,-0.1500798463821411,-0.0,-0.0,-1.0,0.11708269455586515,2.0,0
15.051508903503418,2.447336196899414,-0.18515801429748535,-0.0,-0.0,-1.0,0.07660681351990678,2.0,0
12.89245891571045,1.9229507446289062,0.5254579782485962,-0.6045660257739357,-0.700091996470055,0.37996199409741127,0.18362585251988955,6.0,1
12.841575622558594,2.086660385131836,0.5398074388504028,-0.9513487660370021,-0.0060523487343810385,0.30805664160129886,0.18919851157527073,4.0,1
14.263145446777344,1.119399070739746,0.417217493057251,-0.0,-0.0,-1.0,0.12089379124315135,2.0,1
14.439153671264648,2.473752975463867,0.18190765380859375,-0.34615355084208843,0.15975945206040115,-0.9244753305074039,0.2479974709489391,4.0,1
14.963882446289062,2.3339500427246094,0.14914453029632568,-0.0,-0.0,-1.0,0.13171574059754587,1.0,1
15.09255313873291,2.736818313598633,0.1942310333251953,-0.5511851521788904,0.7821350245128206,-0.29061956480571555,0.14051645992653677,7.0,1
12.72088623046875,1.8666763305664062,0.9098934531211853,-0.0,-0.0,-1.0,0.1583904609546188,2.0,1
12.895816802978516,1.8860130310058594,0.9048276543617249,-0.5310672954265926,-0.6804117759884964,-0.5049825173453678,0.11743230893901666,4.0,1
12.925169944763184,2.4104318618774414,0.9295325875282288,-0.0,-0.0,-1.0,0.18147414412056742,1.0,1
14.368331909179688,2.7517166137695312,0.5550961494445801,0.6590322912472865,0.745735302425274,-0.09775120362449173,0.0644581938095198,5.0,1
12.731562614440918,1.3834495544433594,-0.022608637809753418,-0.0,-0.0,-1.0,0.06304558329704799,1.0,0
12.951175689697266,1.9218788146972656,0.04591524600982666,-0.6512529714750219,-0.4931510030092854,-0.5767769546158116,0.18422033301321025,4.0,1
13.18853759765625,1.7664403915405273,0.0285872220993042,-0.9169686081268241,-0.115484489210516,0.3818794370763381,0.17296244249343154,5.0,1
13.412302017211914,1.5761356353759766,0.00567317008972168,-0.839041848179291,-0.28661901154518943,0.4624481800426274,0.07018051520881555,3.0,1
12.85886001586914,2.465259552001953,0.11097979545593262,-0.9483243509979994,-0.31431158247714014,0.04346440411347791,0.12652667343089116,4.0,1
12.966623306274414,2.187915802001953,0.07877814769744873,-0.05973324147711315,0.2679614491092612,-0.9615761028924864,0.16679236055028565,3.0,1
13.28377914428711,1.8001585006713867,0.03343689441680908,-0.2846478594123377,0.883169288179327,0.3728104136807271,0.15779381630806752,9.0,1
13.649595260620117,1.559199333190918,0.003771662712097168,0.4217577510209808,-0.5412050156871449,-0.7274733881378765,0.014549525489649355,4.0,1
14.027204513549805,1.399580955505371,-0.018167853355407715,-0.0,-0.0,-1.0,0.030398561358185906,2.0,0
14.342782974243164,1.2563514709472656,-0.039504408836364746,-0.0,-0.0,-1.0,0.07012807842586785,2.0,0
13.281620025634766,2.3128700256347656,0.09740746021270752,-0.0,-0.0,-1.0,0.16718713035797444,1.0,1
14.232824325561523,1.568943977355957,0.002864241600036621,-0.27629765670916245,0.9408949571019709,0.19589865899772155,0.15580743290610435,3.0,1
14.695189476013184,1.5121135711669922,-0.009743571281433105,-0.0,-0.0,-1.0,0.09062322419644694,2.0,0
14.933819770812988,1.1756086349487305,-0.05900847911834717,0.10497729316359798,0.9247455634314237,-0.3658215559995649,0.07865711545798053,3.0,0
15.186477661132812,1.2367401123046875,-0.0557478666305542,-0.19058000158138855,-0.4945164903900519,-0.8480169241999501,0.11926147140264379,3.0,0
13.82585620880127,3.106797218322754,-0.12948763370513916,-0.0,-0.0,-1.0,0.019664683068299525,1.0,0
14.107099533081055,2.883051872253418,-0.15912985801696777,-0.0,-0.0,-1.0,0.03159469702134533,2.0,0
14.42110824584961,2.7088613510131836,-0.18302702903747559,0.6685640434198059,-0.20446699696782614,-0.7149932636026155,0.1894745155390477,3.0,0
14.802142143249512,2.814085006713867,-0.1629180908203125,0.060343154890783506,-0.4535009908799372,-0.8892106358612349,0.11548227024437392,6.0,0
14.999320983886719,2.6154680252075195,-0.195778489112854,-0.0,-0.0,-1.0,0.1245545746670293,2.0,0
12.850690841674805,1.990239143371582,0.4314519166946411,-0.23003939500273918,-0.8254594770970193,0.5154595313091894,0.19702380614236287,5.0,1
12.823631286621094,2.412534713745117,0.4698251485824585,-0.0,-0.0,-1.0,0.13536338326984115,2.0,1
12.995527267456055,2.2463808059692383,0.4540785551071167,0.9544446605532002,0.15829612737197596,-0.2529381861256254,0.2079324468037358,4.0,1
15.014259338378906,0.8559446334838867,0.281952440738678,-0.002648475622385073,0.7550646412271527,-0.6556450054300642,0.22883674799878148,3.0,1
12.866132736206055,2.844090461730957,0.15649950504302979,-0.0,-0.0,-1.0,0.20034753155054066,1.0,1
14.994004249572754,1.8087425231933594,0.02569139003753662,-0.7376414645772779,-0.08529924242940642,-0.6697828819679239,0.11180508727524087,3.0,1
14.406916618347168,2.5460920333862305,0.12978816032409668,0.9524741325046177,0.11057291327276823,-0.28384266374163863,0.2116359391667434,7.0,1
15.044051170349121,2.647171974182129,0.13763153553009033,-0.0,-0.0,-1.0,0.11636959566449294,1.0,1
12.881763458251953,1.9013137817382812,0.8014914393424988,0.8756793101603804,0.1343773408673826,-0.4638194433380856,0.1701193051035133,3.0,1
12.865961074829102,2.313483238220215,0.826856255531311,0.5637893829870058,-0.8205671608907541,0.09386727917021204,0.14604469488323166,5.0,1
12.974488258361816,2.0359153747558594,1.1791452169418335,-0.5816554225434712,-0.48124544965291943,0.6558046863313309,0.2529583435911596,4.0,2
14.367025375366211,2.9216175079345703,-0.2721046209335327,-0.6917154942290039,0.6553860333913679,-0.30331307634036153,0.08932388243464238,4.0,0
14.600846290588379,2.9567503929138184,-0.25609076023101807,-0.0,-0.0,-1.0,0.11790224040222477,2.0,0
13.710803985595703,0.7231426239013672,0.12890160083770752,-0.0,-0.0,-1.0,0.15343973257820276,2.0,1
12.83217716217041,1.9870166778564453,0.25138479471206665,0.4392011201001321,-0.6743740965869877,-0.5935671435947859,0.185458545949101,3.0,1
12.84642219543457,2.6388120651245117,-0.04276728630065918,-0.2990027857945133,0.9320152546148115,0.20480453914014646,0.17470920049271768,4.0,0
12.937531471252441,2.1791276931762695,0.27268171310424805,-0.0,-0.0,-1.0,0.23226754703300123,2.0,1
14.322919845581055,1.0971851348876953,0.1711444854736328,0.20477835353934176,-0.9517270462915682,0.2286513837238768,0.25312488664355876,4.0,1
14.485275268554688,1.1407279968261719,0.17565453052520752,-0.0,-0.0,-1.0,0.18238042560707748,1.0,1
15.012943267822266,0.8459758758544922,0.13773441314697266,-0.26563602988753765,0.8456711624238492,-0.46290148484346305,0.23286628788627128,4.0,1
15.152725219726562,0.7067794799804688,0.11956155300140381,0.7326044937525436,0.5624293584281137,-0.3833586734530996,0.1783016753905881,3.0,1
12.910999298095703,2.8364315032958984,-0.015370011329650879,-0.0,-0.0,-1.0,0.17503157937619565,1.0,0
13.23239517211914,2.5253334045410156,-0.04052150249481201,-0.0,-0.0,-1.0,0.06678418185004854,1.0,0
13.572651863098145,2.512754440307617,-0.029110312461853027,-0.0,-0.0,-1.0,0.04885720549975228,2.0,0
13.95291519165039,2.0604171752929688,-0.07839643955230713,-0.0,-0.0,-1.0,0.01653335455248969,1.0,0
14.298259735107422,1.8783321380615234,-0.0959172248840332,-0.0,-0.0,-1.0,0.07455398944517203,1.0,0
14.494622230529785,1.8406438827514648,-0.09769690036773682,-0.0,-0.0,-1.0,0.11576530927489224,1.0,0
15.11962604522705,1.1142005920410156,0.16788232326507568,-0.815573148289563,0.08699506514246425,0.5720771787354472,0.2013101747639575,4.0,1
13.337814331054688,3.1009554862976074,0.03748464584350586,0.34327304380797036,-0.9200750302482337,0.18874733404348473,0.16378242427965128,4.0,1
13.799878120422363,2.544375419616699,-0.017174720764160156,-0.0,-0.0,-1.0,0.12003955580699154,1.0,0
14.173788070678711,2.537144660949707,-0.007007718086242676,-0.0,-0.0,-1.0,0.28527470376352,2.0,0
14.545879364013672,2.0499019622802734,-0.06687724590301514,-0.0,-0.0,-1.0,0.0810349086325059,1.0,0
14.801097869873047,1.8430919647216797,-0.09316897392272949,-0.4745767346936586,0.6918914391446226,0.5441168618283099,0.06453765398058432,3.0,0
15.1100492477417,1.7821741104125977,-0.09945619106292725,-0.0,-0.0,-1.0,0.08279165465776141,1.0,0
14.464524269104004,2.558095932006836,0.003385186195373535,0.6761573473146689,-0.5503019511988125,-0.48987651931805204,0.16568081249179423,8.0,1
14.604991912841797,2.549443244934082,0.005150198936462402,-0.0,-0.0,-1.0,0.19608591069427556,1.0,1
14.931598663330078,2.1581592559814453,-0.04564714431762695,-0.0,-0.0,-1.0,0.217689394896181,2.0,0
15.00423526763916,2.7427520751953125,0.03995788097381592,0.18118727808540858,0.6674862588569178,0.7222418324198598,0.2166034357937362,6.0,1
12.875837326049805,1.8791074752807617,0.6186937093734741,0.14409706158238889,0.5231142061508445,-0.8399925976855351,0.1623907122079024,5.0,1
14.299802780151367,1.1779956817626953,0.5539381504058838,-0.0,-0.0,-1.0,0.14133456106399214,1.0,1
15.007575988769531,2.21108341217041,0.29547107219696045,-0.0,-0.0,-1.0,0.08223574867766002,2.0,1
12.898537635803223,1.888472557067871,0.9942898750305176,-0.9456279186047727,-0.18805426147536441,0.26537414021746897,0.14195322067968374,3.0,1
13.053264617919922,1.929732322692871,-0.051467061042785645,-0.0,-0.0,-1.0,0.08757193316418524,1.0,0
13.019206047058105,2.194544792175293,-0.024190664291381836,-0.0,-0.0,-1.0,0.1662016617852243,2.0,0
13.218189239501953,1.988509178161621,-0.034852027893066406,-0.0,-0.0,-1.0,0.08404590228789639,2.0,0
13.920511245727539,1.4990453720092773,-0.055068016052246094,-0.0,-0.0,-1.0,0.03281365589348865,1.0,0
14.082951545715332,1.3604211807250977,-0.06493651866912842,-0.0,-0.0,-1.0,0.05148888512755046,1.0,0
14.02743148803711,3.1372017860412598,-0.1795971393585205,-0.0,-0.0,-1.0,0.041133828849661866,1.0,0
14.367340087890625,2.800206184387207,-0.20073318481445312,-0.0,-0.0,-1.0,0.10810743571351479,2.0,0
14.677261352539062,2.6938276290893555,-0.19446849822998047,-0.0,-0.0,-1.0,0.07306301417762327,2.0,0
15.021821022033691,2.4010462760925293,-0.2178058624267578,-0.0,-0.0,-1.0,0.09629071018316086,1.0,0
14.832643508911133,2.724543571472168,-0.17921817302703857,-0.0,-0.0,-1.0,0.10228015803208337,2.0,0
15.055401802062988,2.577826976776123,-0.18798398971557617,-0.0,-0.0,-1.0,0.06414189670374293,1.0,0
12.715296745300293,1.8368120193481445,0.30226290225982666,-0.3121099808936908,-0.043142618939883415,-0.949065895635044,0.17259002406434362,4.0,1
12.846205711364746,2.043994903564453,0.32476282119750977,-0.8533596589406149,0.038247595532306826,-0.5199176991878177,0.17024648327200162,5.0,1
12.765613555908203,2.6016883850097656,0.0023055076599121094,-0.0,-0.0,-1.0,0.09225201735768777,1.0,1
12.944308280944824,2.3472752571105957,0.1717737913131714,-0.7999617581493211,-0.11784689888548894,-0.5883649326070689,0.21308390057261584,5.0,1
13.154022216796875,2.2149815559387207,-0.01340794563293457,-0.0,-0.0,-1.0,0.07691306681823659,2.0,0
13.631481170654297,1.9008607864379883,-0.02144336700439453,-0.0,-0.0,-1.0,0.021503761960278842,1.0,0
13.801568984985352,1.6280670166015625,-0.04506850242614746,-0.7205885147216549,-0.6599223861130111,-0.2127313722941438,0.021204338632307706,3.0,0
14.290616035461426,1.4499273300170898,-0.04472053050994873,-0.0,-0.0,-1.0,0.10314043415031675,2.0,0
14.554619789123535,1.1458768844604492,0.11247289180755615,-0.0,-0.0,-1.0,0.1753400817125782,1.0,1
14.911277770996094,0.9869318008422852,0.1013176441192627,-0.0,-0.0,-1.0,0.17355097211926834,1.0,1
12.784446716308594,2.863767623901367,0.030571699142456055,0.3907196370086646,-0.3939886922520486,-0.8319321340309788,0.22082454454401412,3.0,1
13.10558795928955,2.557231903076172,0.020861148834228516,0.8109123184618825,-0.023874700683988823,-0.5846804344546037,0.08635412900084821,4.0,1
13.618346214294434,2.2852582931518555,0.022550106048583984,-0.44149772381249625,0.8824107006309468,0.16257649055255993,0.20346227885526008,5.0,1
13.645248413085938,2.236069679260254,0.01844620704650879,-0.0,-0.0,-1.0,0.16733826505003693,2.0,1
14.500757217407227,1.5797672271728516,-0.019673943519592285,-0.0,-0.0,-1.0,0.0572462924271655,1.0,0
14.740886688232422,1.4902496337890625,-0.022030353546142578,-0.0,-0.0,-1.0,0.16249870731863866,1.0,0
15.094009399414062,1.1681394577026367,-0.05333971977233887,-0.0,-0.0,-1.0,0.09966588567429263,2.0,0
13.364925384521484,3.137457847595215,0.10011458396911621,-0.0,-0.0,-1.0,0.14333207153225333,1.0,1
14.35190486907959,2.505406379699707,0.08840656280517578,0.851432359448087,-0.5062283612253353,-0.13709771542872193,0.22395326246987113,3.0,1
14.917581558227539,1.6924762725830078,0.010688304901123047,-0.836724824297142,-0.2809277637288267,-0.4700756960014391,0.14018226037800008,3.0,1
14.405561447143555,2.6331586837768555,0.10647821426391602,-0.3410120695018753,-0.3804824770145942,-0.8596184346202019,0.2127794375784046,5.0,1
14.439743041992188,2.5169262886047363,0.09420394897460938,0.21421646013891021,-0.9710426004672242,0.10577133961241797,0.2381346758391709,5.0,1
14.929752349853516,2.220104217529297,0.07926416397094727,-0.9954454259050673,0.09302847553734898,0.020835229393404535,0.1784494499752108,9.0,1
15.058929443359375,2.7633447647094727,0.15339910984039307,-0.24781959123006014,0.6417906963075556,0.7257342160430558,0.13601971100269533,5.0,1
12.865689277648926,2.1117606163024902,0.7031983137130737,0.5959304976329745,0.09675587009165376,-0.7971857647962124,0.12101562300138963,3.0,1
12.87558364868164,1.8999013900756836,0.6914160847663879,0.18918175793622583,-0.03945610859484753,-0.981149060010104,0.1712094982723512,6.0,1
12.977012634277344,2.2394142150878906,0.7123642563819885,-0.7343455984733744,0.5966581022169521,0.32362887859652884,0.12716305245992823,3.0,1
14.88764762878418,1.2798938751220703,0.3128977417945862,0.3192709248310923,0.5789614107094486,-0.7502464671471797,0.14411236745607792,3.0,1
14.934487342834473,1.2219715118408203,0.30768799781799316,-0.0,-0.0,-1.0,0.16867304125582752,2.0,1
12.90829086303711,1.9272871017456055,1.0680487155914307,0.5818182072848537,-0.8133188328846565,0.0002230403078682263,0.127689625351755,8.0,2
14.411714553833008,3.021507740020752,-0.2534506320953369,-0.0,-0.0,-1.0,0.09793167892099076,1.0,0
14.680200576782227,2.882462501525879,-0.24506330490112305,-0.0,-0.0,-1.0,0.048058442470558994,2.0,0
15.009500503540039,2.655829429626465,-0.24567461013793945,-0.3083055009094448,0.8434707551166742,-0.43989180871196415,0.12482247072959222,3.0,0
14.865453720092773,2.8439741134643555,-0.23233294486999512,-0.0,-0.0,-1.0,0.07741229975781419,1.0,0
15.074275970458984,2.679091453552246,-0.23657190799713135,-0.03242304844963997,-0.19691614615379457,-0.9798840631999124,0.12208579100494821,3.0,0
13.07007122039795,0.6726541519165039,0.12206292152404785,-0.0,-0.0,-1.0,0.1909007575924856,2.0,1
12.798253059387207,2.081751823425293,0.22430133819580078,-0.0,-0.0,-1.0,0.16080340268031373,1.0,1
12.92179012298584,2.0131988525390625,0.2261676788330078,0.5133613890060402,-0.8498334632963658,-0.11934474826942894,0.1800699180155957,4.0,1
12.963861465454102,2.307603359222412,0.25137460231781006,-0.0,-0.0,-1.0,0.20140237901693017,1.0,1
13.964365005493164,1.8396015167236328,-0.09444618225097656,-0.0,-0.0,-1.0,0.018700971406983187,1.0,0
14.146061897277832,1.6600661277770996,-0.10242342948913574,-0.0,-0.0,-1.0,0.09041847535460523,1.0,0
12.907986640930176,3.1209425926208496,-0.050685882568359375,-0.0,-0.0,-1.0,0.14505763571970723,1.0,0
13.252330780029297,2.729477882385254,-0.05655479431152344,-0.0,-0.0,-1.0,0.08193712140022767,1.0,0
13.584427833557129,2.6708474159240723,-0.034131407737731934,-0.0,-0.0,-1.0,0.031206703402540628,2.0,0
13.835945129394531,2.194998264312744,-0.06428337097167969,0.32402416270435475,0.16169976756339804,-0.9321274200202916,0.04873924973135092,3.0,0
14.515478134155273,1.962404727935791,-0.04198288917541504,0.35728945199864276,-0.8223956621864269,-0.44272973957873907,0.09507417299226112,5.0,0
13.410208702087402,3.076174736022949,-0.008955955505371094,0.07895490899978672,0.17095899538198756,-0.9821095378025901,0.07664361114553009,7.0,0
13.965232849121094,2.5938992500305176,-0.011136054992675781,-0.9556370738744492,0.2746970954063725,0.10629811292766717,0.11991806088769863,5.0,0
14.386629104614258,2.543419361114502,0.01567840576171875,0.15152868721392532,-0.02384220144842552,-0.9881652728067898,0.22150014141226712,7.0,1
14.652758598327637,1.9988899230957031,-0.028566598892211914,-0.0,-0.0,-1.0,0.09034149069554671,1.0,0
14.411498069763184,2.68001651763916,0.03272223472595215,-0.0,-0.0,-1.0,0.14316241606621488,2.0,1
14.906343460083008,3.080815315246582,-0.19533884525299072,0.4575248372353361,-0.03363616093504107,-0.8885604267523574,0.037816751025308425,3.0,0
15.025176048278809,2.803950786590576,0.09115922451019287,0.6261027619335451,0.7707656099874687,0.11796485052689162,0.13679092011092037,7.0,1
12.71200180053711,1.864358901977539,0.5916675925254822,-0.8145365281099389,0.13649879277232188,-0.5638247280372729,0.16050220693940623,3.0,1
12.84123420715332,2.215907573699951,0.6145505309104919,-0.0,-0.0,-1.0,0.12210361245568997,2.0,1
12.941761016845703,2.0530052185058594,0.6092222332954407,-0.0,-0.0,-1.0,0.1653127371580655,2.0,1
12.909666061401367,1.9395837783813477,0.9828146696090698,0.21916888531265183,-0.9657439759812253,0.13893729724873888,0.12215360139461279,6.0,1
14.474979400634766,2.955580234527588,-0.243613600730896,-0.0,-0.0,-1.0,0.10186966859659698,1.0,0
14.672718048095703,2.8922438621520996,-0.22712063789367676,-0.0,-0.0,-1.0,0.045394569290701646,2.0,0
14.916970252990723,3.032139778137207,-0.18262803554534912,-0.0,-0.0,-1.0,0.04352086968134922,2.0,0
12.854310035705566,1.8798108100891113,0.23881518840789795,0.5116959592659172,-0.8470380332423081,-0.14385345151206877,0.18901749375819027,7.0,1
12.902811050415039,2.23319673538208,0.26413387060165405,-0.0,-0.0,-1.0,0.1591770522105463,2.0,1
12.964378356933594,2.0748562812805176,0.2585258483886719,-0.0,-0.0,-1.0,0.1736623432228915,2.0,1
14.312009811401367,1.083817481994629,0.26658785343170166,-0.21351821253131514,-0.9761958989299149,0.038099079120728754,0.19342982029738254,7.0,1
12.933250427246094,2.5134963989257812,0.2831185460090637,-0.0,-0.0,-1.0,0.20924827909744736,1.0,1
14.382856369018555,1.4149060249328613,-0.06942284107208252,-0.0,-0.0,-1.0,0.10674372708953847,1.0,0
14.782768249511719,1.296076774597168,-0.05196225643157959,-0.0,-0.0,-1.0,0.1149661434373553,2.0,0
14.90034294128418,1.1804871559143066,-0.056282877922058105,-0.010566390212472883,0.4314709471518947,-0.902064949525102,0.07951762379283506,3.0,0
15.099063873291016,0.7708439826965332,0.27648061513900757,0.3027715944220133,-0.3252484148823021,-0.8958475485414368,0.14324098509440228,3.0,1
13.507048606872559,2.85982084274292,-0.013389945030212402,-0.0,-0.0,-1.0,0.03865860933519916,1.0,0
13.667057991027832,2.650014877319336,-0.015189051628112793,-0.0,-0.0,-1.0,0.03630125151948637,2.0,0
13.893861770629883,2.4071907997131348,-0.014960646629333496,0.1425077233949088,0.6638938534885488,0.7341229461561093,0.09044698733920337,5.0,0
14.76885986328125,1.5836944580078125,-0.02211141586303711,-0.0,-0.0,-1.0,0.09374411143854287,2.0,0
15.142353057861328,1.1895723342895508,-0.0385051965713501,-0.0,-0.0,-1.0,0.11790039562192439,2.0,0
13.475059509277344,3.092496395111084,0.0015386343002319336,0.1992030597974614,-0.42229256933443543,-0.8843003600882734,0.11328982702725535,6.0,1
14.261898040771484,2.596329689025879,0.035396695137023926,-0.0,-0.0,-1.0,0.12257090324247424,2.0,1
14.970664024353027,1.762418270111084,0.012207388877868652,-0.214613237899428,0.9731977293163085,-0.08262770583711357,0.16321602565724783,4.0,1
12.7543306350708,1.8918633460998535,0.6290023326873779,-0.0,-0.0,-1.0,0.21448777072723807,1.0,1
12.910198211669922,1.888439655303955,0.6348124742507935,-0.19363021950610113,0.9697432924759342,-0.14867846108953928,0.15737127016259853,3.0,1
12.882301330566406,2.2035293579101562,0.6468487977981567,-0.5326733808521449,0.8382456403344882,0.11663325337042467,0.183341894815177,5.0,1
13.070756912231445,2.201939105987549,0.6542191505432129,-0.01037301476057196,-0.7561640764628056,-0.6542998471892909,0.12799656239789325,3.0,1
14.950889587402344,1.2669787406921387,0.313054621219635,-0.21856032226223954,0.19369237151359697,-0.9564071574126081,0.13266134303004046,3.0,1
12.899808883666992,1.9264583587646484,1.025738000869751,-0.7021327568847595,-0.7119364606889927,-0.01249270391217979,0.147450403973628,7.0,2
13.184297561645508,1.204512119293213,-0.013019204139709473,-0.0,-0.0,-1.0,0.02153535215495217,1.0,0
13.382003784179688,1.1734657287597656,0.001042008399963379,-0.0,-0.0,-1.0,0.027967223144894783,2.0,1
13.326881408691406,1.75203275680542,0.037215352058410645,-0.7952149689485492,0.5985664158082571,-0.09670263195288045,0.19453270150665736,3.0,1
13.304783821105957,1.644144058227539,0.027949810028076172,-0.0,-0.0,-1.0,0.09752399097204713,2.0,1
13.684457778930664,1.1576237678527832,0.024422883987426758,-0.0,-0.0,-1.0,0.025662629480030397,2.0,1
13.92053508758545,1.0151128768920898,0.03252840042114258,0.09853456455757231,0.9473348790180455,-0.30470898671242885,0.04733943656649216,6.0,1
14.425690650939941,0.6914095878601074,0.045850157737731934,-0.6251879735480518,-0.6281024350809642,0.4632788887659827,0.04636351707283975,3.0,1
12.852254867553711,2.73170804977417,0.05716073513031006,-0.939161386083926,0.3434761682422307,0.00011286519974413441,0.13008076900797935,5.0,1
14.32397174835205,1.1181626319885254,0.07215821743011475,-0.7421463319734926,-0.48841984593071097,-0.45898243543659795,0.25655951688927175,3.0,1
14.444302558898926,1.0728940963745117,0.07791030406951904,-0.6500383978055548,-0.271820660435472,-0.70962215998291,0.19400064867269906,4.0,1
14.652462005615234,1.4268360137939453,0.12182581424713135,-0.0,-0.0,-1.0,0.23945803909583832,2.0,1
15.204999923706055,1.089447021484375,0.13647639751434326,-0.0,-0.0,-1.0,0.10593212771936007,1.0,1
14.720551490783691,2.18410062789917,-0.16342127323150635,-0.0,-0.0,-1.0,0.0841420115200273,1.0,0
14.612078666687012,2.584555149078369,-0.13953745365142822,-0.0,-0.0,-1.0,0.14739608974277613,2.0,0
14.73411750793457,2.347846031188965,-0.1469128131866455,-0.0,-0.0,-1.0,0.06556656949711999,2.0,0
14.994182586669922,2.0543112754821777,-0.14568650722503662,0.7498783140502384,0.44824606154281765,-0.48657782771980485,0.07851051702574835,3.0,0
12.726439476013184,2.959669589996338,0.44998764991760254,-0.6797880647157465,0.17357077017998562,-0.7125737679771453,0.16924341484251598,4.0,1
12.807659149169922,2.4792118072509766,0.4349587559700012,-0.0,-0.0,-1.0,0.1541895613563795,1.0,1
12.980574607849121,2.5286478996276855,0.4472846984863281,0.5719255464504105,-0.29552743138575155,-0.7652219982566754,0.19032366161214678,4.0,1
13.060911178588867,3.039100170135498,0.47342002391815186,0.5876894465880389,-0.8088226757001202,0.020663824484893782,0.1002918698064439,3.0,1
14.527242660522461,2.488473892211914,0.1894289255142212,-0.0,-0.0,-1.0,0.1536076742334791,1.0,1
15.160411834716797,2.749819278717041,0.26089584827423096,-0.9529025882337068,0.28798309667395744,0.09509149997544873,0.10519358635359426,7.0,1
14.107620239257812,2.0197014808654785,-0.12767481803894043,-0.6802776011796641,-0.21892224117402,-0.6994965601434975,0.016969969651282227,5.0,0
13.742740631103516,3.0180718898773193,-0.10085105895996094,-0.0,-0.0,-1.0,0.020791307128264925,2.0,0
14.013614654541016,2.6931352615356445,-0.0909128189086914,-0.5813324352053768,-0.17296301438732273,-0.7950700569334985,0.14456731382952473,3.0,0
14.150431632995605,2.4489517211914062,-0.09217822551727295,-0.0,-0.0,-1.0,0.19766837482813399,1.0,0
14.285367965698242,2.0233960151672363,-0.10795021057128906,-0.0,-0.0,-1.0,0.039613742918672375,1.0,0
14.637447357177734,1.7220702171325684,-0.09291863441467285,-0.0,-0.0,-1.0,0.04413309942893937,1.0,0
14.862415313720703,1.3429627418518066,-0.09994077682495117,-0.0,-0.0,-1.0,0.08742598485414871,2.0,0
14.421735763549805,2.4877076148986816,-0.05905747413635254,0.059235061017066507,0.22585877320080577,-0.9723574559361031,0.1778642674160335,3.0,0
14.83617877960205,1.7965927124023438,-0.06575238704681396,0.1783983055742815,0.40578879468090645,-0.8963869134919599,0.08048569119900582,3.0,0
14.987531661987305,1.6537799835205078,-0.061094045639038086,-0.8128218892305978,0.49097318304125587,-0.3134739381861572,0.09344664480847638,3.0,0
15.18825626373291,2.5591416358947754,-0.29772627353668213,-0.0,-0.0,-1.0,0.05234339289819026,2.0,0
15.204329490661621,3.025841236114502,-0.2549271583557129,-0.0,-0.0,-1.0,0.07779726892941428,2.0,0
12.809019088745117,0.9383106231689453,0.07589077949523926,0.9590439467858002,-0.2821006612808415,-0.02557195804835353,0.12143420943085602,4.0,1
12.78584098815918,0.7529215812683105,0.06286990642547607,-0.0,-0.0,-1.0,0.1480514695687518,2.0,1
13.109182357788086,0.6747956275939941,0.08276963233947754,-0.250895048313214,-0.9680141405686754,0.0005462517721663906,0.19090075759248565,5.0,1
13.345970153808594,0.7194123268127441,0.10352444648742676,-0.0,-0.0,-1.0,0.07873252622203626,1.0,1
12.866822242736816,2.5289053916931152,0.16858673095703125,-0.0,-0.0,-1.0,0.2071668432675762,2.0,1
12.908614158630371,2.117424488067627,0.15056145191192627,0.39891337127381865,0.7907009004798937,-0.46439229989227987,0.21498233398393535,5.0,1
12.835310935974121,1.8221096992492676,0.12878215312957764,-0.0,-0.0,-1.0,0.14830505333832858,2.0,1
13.672561645507812,0.7757081985473633,0.13171303272247314,0.7387179592476203,0.38034535735148656,0.5564469299279148,0.14406835128951032,4.0,1
13.314404487609863,2.2977957725524902,0.192984938621521,-0.0,-0.0,-1.0,0.1326451944741051,1.0,1
14.353621482849121,1.040271282196045,0.19972240924835205,-0.8113743559206889,0.3643369561767784,-0.45708887201301174,0.15037971752512985,6.0,1
15.117444038391113,0.9612617492675781,0.2506445050239563,-0.34721368875449127,0.890851809495633,0.29296024962417017,0.17762611482658167,3.0,1
15.198274612426758,0.6722521781921387,0.2364804744720459,-0.0,-0.0,-1.0,0.16888207679329695,2.0,1
14.909930229187012,2.1102685928344727,-0.03318333625793457,-0.012097277019520037,0.8517911855178744,0.5237417609497709,0.23925092257298336,3.0,0
15.072808265686035,1.6787605285644531,-0.0500335693359375,-0.0,-0.0,-1.0,0.07385220582775644,2.0,0
14.892667770385742,2.6407155990600586,0.004288077354431152,-0.0,-0.0,-1.0,0.12158333780895834,1.0,1
14.98015022277832,2.1626787185668945,0.3172875642776489,-0.0,-0.0,-1.0,0.08718440733476177,2.0,1
12.819245338439941,1.8096961975097656,0.5367051362991333,-0.335665879068034,-0.8363419163104826,-0.43342890610986484,0.10617464291298202,3.0,1
13.02623462677002,2.081378936767578,0.557477593421936,-0.0,-0.0,-1.0,0.12007012393101034,1.0,1
14.288971900939941,1.1078901290893555,0.5754523277282715,-0.0,-0.0,-1.0,0.1579749955444858,1.0,1
14.42780876159668,2.746877670288086,0.6515238285064697,-0.0,-0.0,-1.0,0.06489981697673504,1.0,1
12.898590087890625,1.84405517578125,0.9470340609550476,-0.11948221179697777,0.06843254080439394,-0.9904751326626817,0.12330509696140234,3.0,1
13.575270652770996,3.05289888381958,-0.05813932418823242,-0.0,-0.0,-1.0,0.022045014079076476,1.0,0
13.65623950958252,2.845857620239258,-0.054836153984069824,-0.29915884181480484,0.6683672325169632,-0.6810207264552527,0.026788762714525786,4.0,0
13.843157768249512,2.238055944442749,-0.054306745529174805,-0.0,-0.0,-1.0,0.06153306858085527,2.0,0
13.858247756958008,1.9424567222595215,-0.06455409526824951,0.07082696037692326,-0.28984239186820066,-0.9544500665618325,0.020961428377591133,5.0,0
13.9383544921875,1.6450352668762207,-0.06832194328308105,-0.0,-0.0,-1.0,0.03273351458773845,1.0,0
13.829662322998047,2.7151169776916504,-0.038625240325927734,-0.0,-0.0,-1.0,0.043771514779375735,2.0,0
13.950920104980469,2.507140636444092,-0.03162527084350586,-0.0444108104644371,0.7714900310129528,-0.6346895398236252,0.10496592438168763,3.0,0
14.226662635803223,1.5758233070373535,-0.03886747360229492,-0.8019251552753958,-0.5970904500262654,0.0199759811765149,0.15228648150860993,3.0,0
14.590730667114258,1.154984474182129,-0.019353508949279785,-0.0,-0.0,-1.0,0.12157249828052794,2.0,0
14.534331321716309,1.0039143562316895,-0.03362858295440674,-0.0,-0.0,-1.0,0.0914277938883367,2.0,0
14.390219688415527,2.5162110328674316,0.020024776458740234,0.5469867298470846,-0.2147816696710198,-0.8091194916355194,0.2483792200175588,9.0,1
14.486303329467773,1.9614672660827637,0.008232831954956055,-0.0,-0.0,-1.0,0.08755231435169437,1.0,1
14.587995529174805,1.5871400833129883,0.0023010969161987305,-0.0,-0.0,-1.0,0.06431159684396898,2.0,1
14.628462791442871,1.392381191253662,-0.0029369592666625977,-0.0,-0.0,-1.0,0.09601529071698832,2.0,0
14.997605323791504,0.9811806678771973,0.015447139739990234,-0.0,-0.0,-1.0,0.23189900816189152,2.0,1
14.897348403930664,2.9030954837799072,-0.23468017578125,-0.0,-0.0,-1.0,0.060795635205238244,2.0,0
14.919018745422363,2.743901252746582,-0.23922836780548096,-0.0,-0.0,-1.0,0.12897407598158897,1.0,0
15.07446002960205,2.2620961666107178,-0.241907000541687,-0.0,-0.0,-1.0,0.053115440402131335,2.0,0
15.049808502197266,1.0888171195983887,0.027138113975524902,-0.0,-0.0,-1.0,0.17378977910677057,1.0,1
15.002436637878418,2.6609668731689453,-0.2308729887008667,-0.3083055009094448,0.8434707551166742,-0.43989180871196415,0.12692877559409582,3.0,0
15.18545913696289,2.3624372482299805,-0.22001004219055176,-0.0,-0.0,-1.0,0.05694015254002945,1.0,0
12.97990608215332,0.6908278465270996,0.19641649723052979,-0.0,-0.0,-1.0,0.0841576456839431,1.0,1
12.837398529052734,2.5796024799346924,0.23779934644699097,-0.0,-0.0,-1.0,0.13340575953000317,1.0,1
12.790411949157715,1.9952950477600098,0.2200542688369751,-0.0,-0.0,-1.0,0.15687760974217338,1.0,1
13.328654289245605,2.4938621520996094,0.27740252017974854,-0.0,-0.0,-1.0,0.25132380917964603,1.0,1
14.24573040008545,1.0817995071411133,0.3106338381767273,-0.7891976753418923,-0.19291375755766565,-0.5830534378424804,0.13592164103554824,3.0,1
14.9111909866333,0.8549089431762695,0.35396766662597656,-0.0,-0.0,-1.0,0.1619770847453492,1.0,1
14.713245391845703,3.1169097423553467,0.07915151119232178,-0.34576221540741514,0.29278056019590476,-0.8914752009831394,0.12750289660077357,4.0,1
14.819945335388184,2.1412034034729004,0.054199814796447754,-0.0,-0.0,-1.0,0.14536434489058095,2.0,1
12.806716918945312,2.327730178833008,0.628999650478363,-0.0,-0.0,-1.0,0.11686543589160008,2.0,1
12.841100692749023,2.0646724700927734,0.6273250579833984,0.17116614399180047,-0.6801361833949615,-0.7128232061233089,0.13393195673924477,4.0,1
12.846912384033203,1.9677693843841553,1.0270898342132568,-0.3549674267913243,-0.6430272524499511,0.6786118762030423,0.14980344275856664,3.0,2
12.918890953063965,2.7548539638519287,-0.03613853454589844,-0.0,-0.0,-1.0,0.17269939952403807,2.0,0
13.151721000671387,2.9350686073303223,-0.003947257995605469,-0.0,-0.0,-1.0,0.07235243050845028,1.0,0
13.138993263244629,2.5131442546844482,-0.021274447441101074,0.4559469798139552,0.15180246160195043,-0.8769654293357981,0.07172054744358457,3.0,0
13.369316101074219,3.0282275676727295,0.023589491844177246,-0.0,-0.0,-1.0,0.11328887085210701,2.0,1
13.765998840332031,2.4165241718292236,0.04343760013580322,-0.0,-0.0,-1.0,0.05497995793839944,2.0,1
13.572775840759277,2.073026418685913,0.006470084190368652,-0.0,-0.0,-1.0,0.026045829261767406,1.0,1
13.63729476928711,1.7523066997528076,-0.002963542938232422,-0.0,-0.0,-1.0,0.025009200076913436,1.0,0
13.775238990783691,1.4061026573181152,-0.007639288902282715,-0.0,-0.0,-1.0,0.02358764103767592,2.0,0
14.016889572143555,1.2868387699127197,0.010512948036193848,0.41555837824297953,0.43453913258392296,0.799053800770184,0.033729123096337216,4.0,1
13.981438636779785,1.1294729709625244,-0.002895951271057129,-0.9744946476263191,-0.18998356838878697,0.11944214285552378,0.026537860516322818,3.0,0
14.300259590148926,2.9732744693756104,-0.21517693996429443,-0.0,-0.0,-1.0,0.05861613420219409,1.0,0
14.731463432312012,2.8290905952453613,-0.1591891050338745,-0.0,-0.0,-1.0,0.14993403748965836,2.0,0
14.734679222106934,2.616623640060425,-0.169694185256958,-0.0,-0.0,-1.0,0.12161058068219656,2.0,0
14.811982154846191,2.1863350868225098,-0.18345892429351807,-0.0,-0.0,-1.0,0.08287157272672967,2.0,0
15.09229850769043,2.10380220413208,-0.14913606643676758,-0.6448997150637111,0.17782807865539849,-0.7432910143089803,0.08167634617888055,4.0,0
12.872693061828613,2.4982657432556152,0.3388599157333374,-0.0,-0.0,-1.0,0.17506279380592857,1.0,1
12.84086799621582,2.0299124717712402,0.31988096237182617,-0.8577795178121311,0.005407729111348753,-0.5139893532825813,0.19556913770531784,4.0,1
12.73382568359375,1.83052396774292,0.3043028712272644,-0.3121099808936908,-0.043142618939883415,-0.949065895635044,0.16047602911493522,4.0,1
14.135967254638672,2.521674633026123,0.08852636814117432,-0.0,-0.0,-1.0,0.12031077819007865,1.0,1
14.246319770812988,1.0711944103240967,0.37875896692276,-0.687492757478104,0.15569216764751376,-0.7093050523916857,0.1660124143108435,5.0,1
14.350847244262695,2.453699827194214,0.10891842842102051,0.6150630822964495,0.6438861447677638,0.4550912407112418,0.21306346248299526,3.0,1
14.620328903198242,1.2604725360870361,0.07140469551086426,-0.0,-0.0,-1.0,0.19641988145973627,2.0,1
14.402162551879883,0.9947555065155029,0.031444668769836426,-0.908696427948192,-0.2535773398951892,0.331616245871453,0.1582585730254193,6.0,1
14.429133415222168,0.6623520851135254,0.0111006498336792,-0.0,-0.0,-1.0,0.05724919692926764,2.0,1
14.800442695617676,1.3672819137573242,0.09684491157531738,-0.0,-0.0,-1.0,0.1880179649545459,2.0,1
15.079801559448242,1.0396440029144287,0.10318934917449951,-0.0,-0.0,-1.0,0.24507482745233697,1.0,1
14.9468412399292,0.7636213302612305,0.07000434398651123,-0.0,-0.0,-1.0,0.2126444795420008,1.0,1
15.026962280273438,2.699192523956299,0.193719744682312,-0.123276421176496,0.9704559115479322,0.20740840803493826,0.12177578736112589,5.0,1
15.156717300415039,1.0200245380401611,0.10951530933380127,-0.7649992286015806,0.6377659799975317,-0.08961436824959672,0.1399265991104134,4.0,1
12.861550331115723,2.1623682975769043,0.7171512842178345,-0.48593140031697074,-0.43297649475832467,-0.7592114522139286,0.21857907713456562,4.0,1
12.828336715698242,1.850198745727539,0.7067127227783203,-0.0,-0.0,-1.0,0.2365286142791779,2.0,1
14.348814010620117,2.6716413497924805,0.4561402201652527,-0.0,-0.0,-1.0,0.06489981697673503,2.0,1
12.874077796936035,1.9175117015838623,1.1017720699310303,0.7990847594358347,-0.502599861180188,0.32993473108939286,0.15583100576416983,5.0,2
12.780143737792969,3.133673667907715,-0.051421165466308594,-0.0,-0.0,-1.0,0.09835357683434404,2.0,0
12.834370613098145,2.6333510875701904,-0.04351162910461426,-0.2990027857945133,0.9320152546148115,0.20480453914014646,0.1589641113678318,4.0,0
12.97744369506836,2.7643256187438965,-0.02693319320678711,-0.7977149456393463,0.6029279257724146,-0.011348208113550327,0.11780167321378505,3.0,0
13.072122573852539,2.292314052581787,-0.01976311206817627,-0.0,-0.0,-1.0,0.0878421337809906,1.0,0
13.191709518432617,1.914009690284729,-0.009698987007141113,-0.0,-0.0,-1.0,0.08657582768393916,2.0,0
13.340681076049805,1.524254322052002,0.0007842779159545898,-0.0,-0.0,-1.0,0.06171010504362916,1.0,1
13.329447746276855,1.2281548976898193,-0.0075882673263549805,-0.0,-0.0,-1.0,0.033495269138716484,2.0,0
13.38138198852539,2.986332893371582,0.021541953086853027,0.22552243321900453,0.11224896081813111,-0.9677498658797268,0.11978280921607351,3.0,1
13.462160110473633,1.5126821994781494,0.014742493629455566,-0.5805819288406975,-0.5848974833896974,0.5664093553500101,0.03858851279668649,4.0,1
13.603254318237305,1.1146173477172852,0.020747661590576172,-0.0,-0.0,-1.0,0.031409645867279824,2.0,1
14.256686210632324,2.8327150344848633,-0.21491014957427979,-0.0,-0.0,-1.0,0.0355428088412393,1.0,0
14.668421745300293,2.4256553649902344,-0.1570054292678833,-0.0,-0.0,-1.0,0.11465361818538956,1.0,0
14.861808776855469,2.0700483322143555,-0.13354289531707764,-0.0,-0.0,-1.0,0.14099218332045194,2.0,0
15.114217758178711,1.8755180835723877,-0.09992492198944092,-0.0,-0.0,-1.0,0.06490838225860902,2.0,0
15.183445930480957,1.7813124656677246,-0.09222137928009033,-0.0,-0.0,-1.0,0.07212841809077579,1.0,0
12.928359031677246,2.7813608646392822,0.3533058166503906,-0.0,-0.0,-1.0,0.22412948867539806,2.0,1
12.966357231140137,2.1345713138580322,0.35291749238967896,-0.0,-0.0,-1.0,0.1776693132033472,2.0,1
12.82873249053955,1.8853200674057007,0.3396604061126709,-0.0,-0.0,-1.0,0.1991678394227458,1.0,1
13.021148681640625,2.5564775466918945,0.3585914969444275,-0.0,-0.0,-1.0,0.1638124656492835,1.0,1
13.553525924682617,2.3324801921844482,0.03802525997161865,0.5485202114891299,-0.11086764424868542,-0.8287544528065398,0.17228484276754222,6.0,1
13.823029518127441,0.8463320732116699,0.03714942932128906,-0.0,-0.0,-1.0,0.10912175644946931,1.0,1
14.030357360839844,0.7630982398986816,0.05748450756072998,-0.0,-0.0,-1.0,0.12775711112709928,2.0,1
14.433992385864258,2.6849780082702637,0.1450366973876953,0.6768062944491804,0.7304381801089505,0.09161498148825668,0.1835850988798097,6.0,1
14.37913990020752,2.5645856857299805,0.1379852294921875,0.983232256808709,0.12894737080411253,0.12894535561066015,0.2612820317674838,10.0,1
14.324738502502441,1.0883266925811768,0.1026679277420044,-0.8695476447676252,-0.43455085627822143,-0.23463257827279688,0.24396667758647878,7.0,1
14.64828872680664,1.438422441482544,0.1507200002670288,-0.0,-0.0,-1.0,0.19232847956139443,2.0,1
14.99425220489502,0.8847641944885254,0.17083251476287842,-0.0,-0.0,-1.0,0.17124930112847495,2.0,1
13.005462646484375,2.259939432144165,0.7390788197517395,-0.0,-0.0,-1.0,0.11002422535893906,2.0,1
12.845842361450195,1.9746650457382202,1.1188215017318726,-0.0,-0.0,-1.0,0.14047144919942442,1.0,2
14.898971557617188,2.9460501670837402,-0.22107625007629395,0.9399932614582645,-0.0723091339204207,0.3334427350606597,0.05689073890869861,5.0,0
14.99426555633545,2.550722599029541,-0.19920051097869873,-0.0,-0.0,-1.0,0.06962430762739476,2.0,0
14.933021545410156,2.2845072746276855,-0.20693886280059814,-0.85244996755565,0.234262061692968,-0.46738671276121224,0.13810493559638937,3.0,0
15.123366355895996,3.121469497680664,-0.1885972023010254,0.7489660624214112,-0.6186389743720412,0.23735133605875494,0.06072633743059573,4.0,0
15.109787940979004,2.5046308040618896,-0.1797008514404297,-0.0,-0.0,-1.0,0.0896416248794803,1.0,0
15.124977111816406,2.1223785877227783,-0.17537474632263184,-0.5809032327988595,-0.5188516391265964,-0.6271717553425683,0.07350761706585422,5.0,0
12.74919319152832,2.864588737487793,0.22903823852539062,-0.9286421426634277,-0.11670535577613977,-0.35214149258876415,0.1526777273524598,3.0,1
12.80880069732666,2.4399523735046387,0.23896074295043945,-0.6001690502176975,0.774128914765464,-0.2012996137225103,0.14996292236639544,3.0,1
12.864492416381836,2.0127451419830322,0.2460649013519287,-0.6026162850902971,0.665978325267667,-0.439689075617809,0.1946600283494934,3.0,1
13.277589797973633,2.4944589138031006,0.28174859285354614,-0.0,-0.0,-1.0,0.18890810836424946,1.0,1
13.680388450622559,2.881460666656494,-0.05023908615112305,0.029753981522016224,0.10812396809127571,-0.9936920589940251,0.024255865906089247,3.0,0
13.802508354187012,2.308659553527832,-0.028360843658447266,0.9316267476432427,0.33628433724714085,-0.1377840614800038,0.05033106749661815,3.0,0
