x,y,z,nx,ny,nz,curvature,density,label
48.827980041503906,29.76108169555664,-2.801028251647949,-0.4029732864669509,0.3576892734435395,-0.8424196781043622,0.02877653165034637,3.0,0
48.613006591796875,30.268661499023438,-2.895857095718384,-0.0,-0.0,-1.0,0.07206992821456139,1.0,0
49.75131607055664,29.556453704833984,-2.9141721725463867,-0.0,-0.0,-1.0,0.005962619213861677,1.0,0
48.698219299316406,30.348468780517578,-2.8563036918640137,0.0327793106488951,0.9148242723451068,-0.4025196486156036,0.06314249547007315,3.0,0
48.06792068481445,30.62213134765625,-2.8023176193237305,-0.0,-0.0,-1.0,0.13147307910660405,1.0,0
48.80269241333008,29.753467559814453,-2.7921648025512695,-0.4029732864669509,0.3576892734435395,-0.8424196781043622,0.031025838480605465,3.0,0
49.336830139160156,30.38226890563965,-2.6626718044281006,-0.0,-0.0,-1.0,0.09003907048302524,2.0,0
49.17464828491211,30.143890380859375,-2.714945077896118,-0.0,-0.0,-1.0,0.036794869669268745,2.0,0
48.62596130371094,30.57494354248047,-2.7321012020111084,-0.0,-0.0,-1.0,0.09633890051918673,2.0,0
49.073883056640625,30.148685455322266,-2.705660581588745,-0.0,-0.0,-1.0,0.05984462323151446,1.0,0
48.26377487182617,30.329742431640625,-2.793940305709839,-0.0,-0.0,-1.0,0.04403975393396563,1.0,0
47.935176849365234,30.597827911376953,-2.809695243835449,0.9713635402125178,0.06277216778161823,-0.22915612079497322,0.20434664590228385,3.0,0
47.938629150390625,30.34012222290039,-3.094930648803711,-0.0,-0.0,-1.0,0.0886838519895027,1.0,0
48.964908599853516,30.036924362182617,-2.7696895599365234,-0.0,-0.0,-1.0,0.032700258176239276,1.0,0
48.91777801513672,30.386272430419922,-2.782163619995117,-0.0,-0.0,-1.0,0.06842043159183926,1.0,0
48.9478759765625,30.298078536987305,-2.763791084289551,-0.0,-0.0,-1.0,0.08789137803908018,1.0,0
48.75925827026367,30.465076446533203,-2.7465314865112305,-0.19631740104103065,0.6507397392815006,-0.7334829716962351,0.056518665746908725,3.0,0
49.46792221069336,30.509235382080078,-2.719852924346924,-0.0,-0.0,-1.0,0.06483857185741182,2.0,0
49.25025177001953,29.64079475402832,-2.794448137283325,-0.0,-0.0,-1.0,0.03223543045320672,2.0,0
48.88237380981445,30.140174865722656,-2.7936136722564697,-0.0,-0.0,-1.0,0.06206118773832509,1.0,0
48.74863815307617,30.40656280517578,-2.800384283065796,-0.8516950047443008,0.4842418460431039,-0.2003133880557467,0.0445671730994313,4.0,0
48.6126594543457,30.5900821685791,-2.800569772720337,-0.0,-0.0,-1.0,0.09868181125845416,1.0,0
49.11600875854492,29.913583755493164,-2.564108371734619,-0.0,-0.0,-1.0,0.0940714177094819,1.0,0
48.95610427856445,30.257843017578125,-2.564301013946533,-0.0,-0.0,-1.0,0.09389401311342074,1.0,0
48.82896423339844,30.525043487548828,-2.5643887519836426,-0.0,-0.0,-1.0,0.07240276361408383,1.0,0
49.60492706298828,28.826929092407227,-2.119659185409546,-0.0,-0.0,-1.0,0.05564925473555134,2.0,0
48.43169403076172,29.62744903564453,-2.9549856185913086,-0.0,-0.0,-1.0,0.0766176622037565,1.0,0
49.074302673339844,29.12735366821289,-2.887782096862793,-0.0,-0.0,-1.0,0.019334658253805752,1.0,0
48.90583038330078,29.36517333984375,-2.8786520957946777,-0.0,-0.0,-1.0,0.029797364346718164,1.0,0
48.740543365478516,29.765308380126953,-2.8780570030212402,-0.0,-0.0,-1.0,0.05782628744615322,1.0,0
48.815486907958984,30.232524871826172,-2.91015625,-0.0,-0.0,-1.0,0.08040251783386304,1.0,0
48.605796813964844,29.580982208251953,-2.8530025482177734,-0.0,-0.0,-1.0,0.12561513570049504,2.0,0
48.35631561279297,30.249874114990234,-2.8563947677612305,-0.0,-0.0,-1.0,0.052389429600206656,2.0,0
48.21744918823242,30.35745620727539,-2.845395088195801,-0.5105999355794175,-0.5792458977654331,-0.6354226118955886,0.07226775289340352,3.0,0
49.61833953857422,28.823745727539062,-1.4639883041381836,-0.0,-0.0,-1.0,0.03382940994864392,2.0,0
49.5918083190918,28.829708099365234,-1.2070908546447754,-0.0,-0.0,-1.0,0.07128258625702566,2.0,0
48.7628173828125,29.288619995117188,-2.879453420639038,-0.0,-0.0,-1.0,0.03962359719159928,1.0,0
48.547462463378906,29.597442626953125,-2.8562333583831787,0.9689093838012698,-0.03129392237984427,-0.24542880108888562,0.09287751166524519,3.0,0
48.51844787597656,29.805011749267578,-2.8558571338653564,-0.0,-0.0,-1.0,0.0687769298701712,2.0,0
48.41632080078125,30.140289306640625,-2.8484981060028076,-0.0,-0.0,-1.0,0.050022788383765095,1.0,0
48.165916442871094,30.365642547607422,-2.820364236831665,-0.0,-0.0,-1.0,0.08436596169687252,1.0,0
48.00334930419922,30.550994873046875,-2.803025960922241,-0.0,-0.0,-1.0,0.19449520301104167,2.0,0
47.76133728027344,28.819215774536133,-2.7426798343658447,-0.0,-0.0,-1.0,0.08035794605492998,1.0,0
49.05785369873047,29.223957061767578,-2.8395636081695557,-0.0,-0.0,-1.0,0.018197512672837615,2.0,0
48.90389633178711,29.47930908203125,-2.8230764865875244,-0.0,-0.0,-1.0,0.03062768143304857,2.0,0
48.875953674316406,30.042797088623047,-2.8280203342437744,-0.0,-0.0,-1.0,0.04952246573871121,1.0,0
48.699649810791016,29.65182876586914,-2.7991836071014404,-0.0,-0.0,-1.0,0.04526372340919129,1.0,0
48.795555114746094,30.02906036376953,-2.817466974258423,-0.0,-0.0,-1.0,0.0391030288084749,1.0,0
48.70408630371094,30.368019104003906,-2.8113930225372314,0.15012932669806103,0.8991720485848931,-0.4110362664155484,0.05381441960597197,3.0,0
49.266422271728516,30.278526306152344,-2.686826229095459,0.01528470473462281,0.9793349367156536,-0.20166670406718665,0.06793884962251862,3.0,0
48.761173248291016,29.068204879760742,-2.886554718017578,-0.0,-0.0,-1.0,0.029821999671118662,1.0,0
48.589202880859375,29.42460823059082,-2.8738040924072266,-0.0,-0.0,-1.0,0.06358621656027232,1.0,0
48.504974365234375,29.771543502807617,-2.872725009918213,-0.5824165941215256,0.456074593295819,-0.6728944019992555,0.08478710432730598,4.0,0
48.47079849243164,30.041471481323242,-2.8762102127075195,-0.0,-0.0,-1.0,0.08304674184513054,1.0,0
48.22956085205078,30.24205780029297,-2.850658893585205,-0.0,-0.0,-1.0,0.07036019113710346,1.0,0
48.02361297607422,30.577966690063477,-2.8341197967529297,0.6755337541835859,-0.7150222819423216,-0.17999245341020711,0.20630439398389383,3.0,0
47.95175552368164,30.43958854675293,-2.8203306198120117,-0.0,-0.0,-1.0,0.20424202565158925,1.0,0
47.809749603271484,28.816715240478516,-2.7550129890441895,-0.0,-0.0,-1.0,0.08035794605492996,1.0,0
49.62824249267578,28.804346084594727,-1.5502448081970215,-0.0,-0.0,-1.0,0.03833498663870805,1.0,0
49.27019500732422,30.365312576293945,-2.6712749004364014,-0.0,-0.0,-1.0,0.052877090460413674,2.0,0
49.54988479614258,28.91144371032715,-2.2015137672424316,-0.0,-0.0,-1.0,0.07686970265866924,1.0,0
49.14470291137695,28.758451461791992,-2.840625047683716,-0.0,-0.0,-1.0,0.14994919395647988,1.0,0
49.018009185791016,28.909812927246094,-2.829052209854126,-0.0,-0.0,-1.0,0.10115885369403523,1.0,0
48.831295013427734,29.32928466796875,-2.8193724155426025,-0.0,-0.0,-1.0,0.028731799324600876,1.0,0
48.64188766479492,29.772130966186523,-2.810739278793335,-0.0,-0.0,-1.0,0.06505121962764107,2.0,0
48.605712890625,30.043310165405273,-2.8164660930633545,-0.0,-0.0,-1.0,0.03734548666795651,2.0,0
48.40299987792969,30.19247055053711,-2.7951290607452393,-0.0,-0.0,-1.0,0.058676010508781594,1.0,0
47.72670364379883,28.68488121032715,-2.6478593349456787,-0.0,-0.0,-1.0,0.08035794605492996,1.0,0
48.21128845214844,30.33277130126953,-2.774975538253784,-0.0,-0.0,-1.0,0.057787466633867426,1.0,0
48.01145553588867,30.47892951965332,-2.7540218830108643,-0.0,-0.0,-1.0,0.2004458393270032,1.0,0
48.90391159057617,28.828609466552734,-2.855409622192383,-0.0,-0.0,-1.0,0.06346359199743906,1.0,0
48.65781784057617,29.07185173034668,-2.823558807373047,-0.0,-0.0,-1.0,0.16714169021199732,1.0,0
47.78584289550781,28.493953704833984,-2.703061580657959,-0.0,-0.0,-1.0,0.08094512461404062,1.0,0
48.57445526123047,29.56698989868164,-2.815451145172119,-0.0,-0.0,-1.0,0.08903835820517278,2.0,0
48.33329391479492,29.921707153320312,-2.785449981689453,-0.0,-0.0,-1.0,0.05860907571018399,1.0,0
48.09357833862305,30.14358901977539,-2.754812240600586,-0.0,-0.0,-1.0,0.10562881213680088,1.0,0
48.473106384277344,30.462162017822266,-2.808804512023926,-0.0,-0.0,-1.0,0.06708686205530706,1.0,0
49.61630630493164,28.15536117553711,-2.201296329498291,-0.0,-0.0,-1.0,0.15592192252761752,1.0,0
49.51169967651367,28.65509033203125,-2.1783852577209473,-0.0,-0.0,-1.0,0.020743739277743176,1.0,0
49.808109283447266,29.155139923095703,-0.8193845748901367,-0.0,-0.0,-1.0,0.12572961777357386,1.0,0
47.84201431274414,28.8035888671875,-2.802290439605713,-0.0,-0.0,-1.0,0.08035794605493,1.0,0
48.524906158447266,29.43335723876953,-2.888514995574951,-0.0,-0.0,-1.0,0.08511311582622368,1.0,0
48.538169860839844,29.562129974365234,-2.888416290283203,0.9441545996191643,-0.15466500436837208,0.2909481542160159,0.07948790913297174,4.0,0
48.09712600708008,30.376691818237305,-2.814467430114746,-0.0,-0.0,-1.0,0.09089497273881363,1.0,0
48.344600677490234,30.098649978637695,-2.853273391723633,-0.0,-0.0,-1.0,0.08396991169158922,1.0,0
48.016136169433594,30.634563446044922,-2.7998313903808594,-0.0,-0.0,-1.0,0.11768314815891595,1.0,0
49.56480407714844,28.915054321289062,-1.6939725875854492,-0.0,-0.0,-1.0,0.045081574200589954,2.0,0
49.54187774658203,28.90534210205078,-1.8513195514678955,-0.0,-0.0,-1.0,0.03717420117524375,1.0,0
49.582679748535156,28.614898681640625,-2.6245474815368652,-0.0,-0.0,-1.0,0.1419650691479364,1.0,0
49.29330062866211,30.24004364013672,-2.6037497520446777,-0.0,-0.0,-1.0,0.10412619931115467,1.0,0
49.62934875488281,28.898529052734375,-2.189180612564087,-0.0,-0.0,-1.0,0.07425656288281403,1.0,0
48.87989044189453,30.069196701049805,-2.759246826171875,-0.0,-0.0,-1.0,0.09426805752504154,2.0,0
49.092899322509766,29.849445343017578,-2.7717971801757812,-0.0,-0.0,-1.0,0.08053136306087756,1.0,0
49.42026138305664,29.611576080322266,-2.799123764038086,-0.0,-0.0,-1.0,0.021263119654484398,2.0,0
48.66356658935547,30.587337493896484,-2.770139694213867,-0.6753205040851324,0.16055095279206716,-0.7198372095965601,0.10704927907253389,3.0,0
48.87847900390625,30.315168380737305,-2.7783565521240234,-0.0,-0.0,-1.0,0.08284180625619883,2.0,0
50.03217315673828,29.540019989013672,-2.8792028427124023,-0.0,-0.0,-1.0,0.005596986169206484,2.0,0
50.190635681152344,29.35052490234375,-2.8870649337768555,-0.0,-0.0,-1.0,0.04084345198123569,1.0,0
48.135643005371094,28.408878326416016,-2.528130531311035,-0.0,-0.0,-1.0,0.07798553029410572,1.0,0
49.31230163574219,28.503063201904297,-2.4631781578063965,-0.0,-0.0,-1.0,0.21196920352036883,2.0,0
49.56020736694336,28.9542236328125,-2.5443758964538574,-0.0,-0.0,-1.0,0.0892696750575078,1.0,0
50.08830261230469,28.935691833496094,-2.607353687286377,-0.0,-0.0,-1.0,0.09562490230684613,1.0,0
49.25910949707031,30.5059871673584,-2.6854796409606934,-0.0,-0.0,-1.0,0.020606075802260815,1.0,0
49.70225143432617,28.94900131225586,-1.4452719688415527,-0.0,-0.0,-1.0,0.033448572995873144,1.0,0
48.59490203857422,29.50575828552246,-2.939755439758301,-0.0,-0.0,-1.0,0.08239496868639595,1.0,0
48.295677185058594,29.933090209960938,-2.952125072479248,-0.0,-0.0,-1.0,0.06548810561998317,2.0,0
48.42188262939453,29.72482681274414,-2.9432687759399414,0.8334775435082499,0.31877593318059566,0.4513281388217381,0.06717557014158311,3.0,0
49.63892364501953,28.886680603027344,-1.9218621253967285,-0.0,-0.0,-1.0,0.039331701571162815,1.0,0
49.654273986816406,29.28070068359375,-2.88647198677063,-0.0,-0.0,-1.0,0.005601067750028821,1.0,0
49.04001235961914,29.560028076171875,-2.828505754470825,-0.0,-0.0,-1.0,0.03060403992804291,2.0,0
49.272491455078125,29.38678741455078,-2.842818021774292,-0.0,-0.0,-1.0,0.009073368575862365,1.0,0
48.7237663269043,30.088640213012695,-2.8427255153656006,-0.0,-0.0,-1.0,0.053443313895720594,1.0,0
48.596153259277344,30.36832618713379,-2.856559991836548,-0.0,-0.0,-1.0,0.06977935029273981,2.0,0
48.757755279541016,30.28221893310547,-2.869722604751587,-0.0,-0.0,-1.0,0.08991510355203056,2.0,0
49.11076354980469,28.748249053955078,-2.749246835708618,-0.0,-0.0,-1.0,0.18176201843152792,1.0,0
48.64057540893555,29.703914642333984,-2.787144899368286,-0.0,-0.0,-1.0,0.08503646808562162,2.0,0
48.864524841308594,29.701702117919922,-2.8190929889678955,-0.0,-0.0,-1.0,0.029088740075350672,1.0,0
48.665618896484375,29.944271087646484,-2.8179633617401123,-0.920438720288362,-0.36790513524337576,-0.13205443444078496,0.04149759906800043,3.0,0
48.22517395019531,30.456539154052734,-2.8140008449554443,-0.0,-0.0,-1.0,0.05917830797693337,1.0,0
48.38084030151367,30.369882583618164,-2.8260810375213623,-0.0,-0.0,-1.0,0.06530537981701699,2.0,0
49.26543426513672,28.816783905029297,-2.8525257110595703,-0.0,-0.0,-1.0,0.16432968346032112,1.0,0
49.289581298828125,28.938148498535156,-2.8700637817382812,-0.0,-0.0,-1.0,0.11924695451106355,1.0,0
49.08275604248047,29.195743560791016,-2.868715286254883,-0.0,-0.0,-1.0,0.018566346389423043,2.0,0
48.804256439208984,29.466960906982422,-2.858630657196045,-0.0,-0.0,-1.0,0.03535393742266596,2.0,0
48.37554931640625,30.0449161529541,-2.8639726638793945,-0.0,-0.0,-1.0,0.07917051035019454,1.0,0
47.853363037109375,30.364042282104492,-2.8257036209106445,0.0007690834421764819,-0.9412304836984886,-0.33776409677076097,0.20516429934156377,3.0,0
49.28465270996094,28.31966209411621,-2.5529935359954834,-0.0,-0.0,-1.0,0.1720133645515603,2.0,0
49.49475860595703,28.793195724487305,-2.6394870281219482,-0.0,-0.0,-1.0,0.17943641235630903,1.0,0
49.055580139160156,30.306303024291992,-2.759594678878784,-0.0,-0.0,-1.0,0.05161829623928962,1.0,0
49.616519927978516,30.282230377197266,-2.8370301723480225,-0.0,-0.0,-1.0,0.11183769060791614,1.0,0
49.74242401123047,30.23824691772461,-2.8497226238250732,-0.0,-0.0,-1.0,0.047836236247077786,1.0,0
48.93694305419922,30.468202590942383,-2.762836217880249,-0.0,-0.0,-1.0,0.03414129087859766,1.0,0
49.34550857543945,28.201175689697266,-2.5185940265655518,-0.0,-0.0,-1.0,0.16215464106227415,1.0,0
49.323482513427734,28.424116134643555,-2.5416719913482666,-0.9115843286057352,0.08448490567662278,0.4023385546442733,0.13480574830224132,3.0,0
49.6358642578125,28.744129180908203,-2.626843214035034,-0.0,-0.0,-1.0,0.17501499565340092,2.0,0
49.049957275390625,29.969383239746094,-2.689593553543091,-0.0,-0.0,-1.0,0.10434773205757693,1.0,0
49.33038330078125,29.913352966308594,-2.7239625453948975,-0.0,-0.0,-1.0,0.0451288278842282,1.0,0
48.927371978759766,30.22896957397461,-2.7042486667633057,-0.0,-0.0,-1.0,0.13072409201758864,1.0,0
49.32051086425781,30.016563415527344,-2.7353599071502686,-0.0,-0.0,-1.0,0.024596545066890303,1.0,0
50.185665130615234,30.005537033081055,-2.862015962600708,-0.0,-0.0,-1.0,0.009202518846908952,1.0,0
47.91138458251953,30.582815170288086,-2.6015465259552,0.3491021675873318,-0.9259604645425558,-0.14396143473153067,0.19273195711903454,4.0,0
48.82587814331055,30.4909725189209,-2.722585916519165,-0.0,-0.0,-1.0,0.102048430651499,1.0,0
49.64118957519531,28.82805633544922,-1.6831467151641846,0.7326427628925122,0.6761652705184675,0.07768596350637154,0.04014851488734712,3.0,0
49.31873321533203,30.365680694580078,-2.734647035598755,-0.0,-0.0,-1.0,0.07286968705692597,1.0,0
49.1077880859375,30.560707092285156,-2.7299087047576904,-0.0,-0.0,-1.0,0.022473056877139592,2.0,0
50.05970001220703,30.440227508544922,-2.8541805744171143,-0.0,-0.0,-1.0,0.02964451799254622,1.0,0
49.360267639160156,28.37021255493164,-2.4801790714263916,0.4567679672329929,0.8740604615152379,-0.1654730604225634,0.16945337597108803,3.0,0
49.35431671142578,28.467571258544922,-2.491652727127075,-0.0,-0.0,-1.0,0.14646213807505978,2.0,0
49.684852600097656,28.746963500976562,-2.57731032371521,-0.0,-0.0,-1.0,0.13493158023236201,1.0,0
49.627418518066406,28.818485260009766,-2.5777742862701416,-0.0,-0.0,-1.0,0.1763960631367072,1.0,0
47.95123291015625,30.60140609741211,-2.5666706562042236,-0.0,-0.0,-1.0,0.14856182865208847,2.0,0
49.61894607543945,28.849349975585938,-1.6587083339691162,-0.22449716327295108,0.6242603446895587,-0.7482646896189018,0.03833668426998008,3.0,0
48.092308044433594,29.038719177246094,-2.8128271102905273,-0.0,-0.0,-1.0,0.08233035612258305,1.0,0
48.88136291503906,28.893552780151367,-2.9169187545776367,-0.0,-0.0,-1.0,0.06136957284390119,1.0,0
48.519866943359375,29.46044158935547,-2.949328899383545,-0.0,-0.0,-1.0,0.08511311582622375,1.0,0
48.37607192993164,29.566198348999023,-2.9435410499572754,-0.0,-0.0,-1.0,0.05876496326840251,1.0,0
49.322181701660156,28.326702117919922,-2.3528642654418945,-0.0,-0.0,-1.0,0.13080522290297708,1.0,0
49.27995300292969,28.397476196289062,-2.356187343597412,-0.2607086906093262,0.8633286529617408,0.43208172330710426,0.1226378253855582,3.0,0
49.48423767089844,30.327970504760742,-2.6248979568481445,-0.0,-0.0,-1.0,0.1267559652714524,1.0,0
48.55242919921875,29.523468017578125,-2.911170721054077,-0.0,-0.0,-1.0,0.0816202180195021,2.0,0
48.31250762939453,29.872146606445312,-2.921165704727173,-0.0,-0.0,-1.0,0.06041220263848655,1.0,0
48.419891357421875,29.68705177307129,-2.9129106998443604,0.9809511650915974,0.16064719354694187,-0.10921213719605267,0.08005582691314947,4.0,0
48.467464447021484,29.530136108398438,-2.9000117778778076,-0.0,-0.0,-1.0,0.08049886438607182,1.0,0
49.6137809753418,28.86918067932129,-1.3284919261932373,-0.0,-0.0,-1.0,0.036114128314975555,1.0,0
47.971282958984375,29.439407348632812,-2.941206455230713,-0.0,-0.0,-1.0,0.025239472181290367,1.0,0
49.71037292480469,28.94691276550293,-1.5182623863220215,-0.0,-0.0,-1.0,0.03862724765142992,1.0,0
49.35517120361328,28.291189193725586,-2.698054552078247,-0.0,-0.0,-1.0,0.08999525335022086,2.0,0
49.384613037109375,28.76506996154785,-2.767812490463257,-0.0,-0.0,-1.0,0.1448209472983417,1.0,0
50.07695770263672,29.123863220214844,-2.91288161277771,-0.0,-0.0,-1.0,0.0736843843180423,1.0,0
48.81385803222656,29.67642593383789,-2.820185899734497,-0.0,-0.0,-1.0,0.024814626672061118,1.0,0
49.0459098815918,29.52781105041504,-2.8298566341400146,-0.0,-0.0,-1.0,0.02912245771255823,2.0,0
49.67408752441406,29.35273551940918,-2.889836549758911,-0.0,-0.0,-1.0,0.005220382332352217,2.0,0
49.73588180541992,29.30331039428711,-2.8912904262542725,-0.0,-0.0,-1.0,0.004357579409575938,1.0,0
48.68316650390625,29.906951904296875,-2.83630108833313,-0.0,-0.0,-1.0,0.04777724882864487,2.0,0
48.308738708496094,30.34760856628418,-2.8519694805145264,-0.0,-0.0,-1.0,0.054003726571940254,1.0,0
48.668968200683594,30.23897361755371,-2.883033037185669,-0.0,-0.0,-1.0,0.06695954515856539,2.0,0
49.38410949707031,28.361469268798828,-2.6627066135406494,-0.0,-0.0,-1.0,0.0844550264408171,1.0,0
49.610599517822266,28.710895538330078,-2.743730306625366,-0.0,-0.0,-1.0,0.17688403961313437,1.0,0
50.17878723144531,28.679378509521484,-2.823169469833374,-0.0,-0.0,-1.0,0.07982495732508064,1.0,0
49.454124450683594,28.861892700195312,-2.741607427597046,-0.0,-0.0,-1.0,0.17327355158561117,1.0,0
50.02027130126953,29.532901763916016,-2.9169204235076904,-0.0,-0.0,-1.0,0.006028694120930876,2.0,0
49.012855529785156,29.79973602294922,-2.8097636699676514,-0.0,-0.0,-1.0,0.045623158238131165,1.0,0
49.40166473388672,29.624757766723633,-2.8404433727264404,-0.0,-0.0,-1.0,0.021263119654484398,2.0,0
49.871822357177734,29.65673828125,-2.9126603603363037,-0.0,-0.0,-1.0,0.007069293580204849,1.0,0
48.40761184692383,30.421600341796875,-2.81463885307312,-0.0,-0.0,-1.0,0.0681816147473003,1.0,0
48.7115592956543,30.267927169799805,-2.8346669673919678,0.2544467933588932,0.687307983033879,-0.680341506750307,0.08991510355203058,3.0,0
49.45493698120117,30.37592315673828,-2.6622061729431152,-0.0,-0.0,-1.0,0.115008500596289,2.0,0
49.54156494140625,30.523792266845703,-2.695129871368408,-0.0,-0.0,-1.0,0.08548998477957417,1.0,0
49.334442138671875,28.389339447021484,-2.3578944206237793,0.33660422646471805,0.48860178895651746,-0.8049632827369083,0.17431055211703939,3.0,0
49.07718276977539,30.45140266418457,-2.6780786514282227,-0.1854615004533308,0.9166036678411337,0.35417756556532465,0.053999786972375285,3.0,0
49.25749588012695,30.38921356201172,-2.692418098449707,-0.0,-0.0,-1.0,0.036624077473529804,2.0,0
49.0577392578125,30.627037048339844,-2.7028770446777344,-0.0,-0.0,-1.0,0.05345980247044272,1.0,0
49.36220932006836,30.496837615966797,-2.722989559173584,-0.0,-0.0,-1.0,0.03673586731731677,2.0,0
49.864959716796875,30.59897232055664,-2.806021213531494,0.2713491340176222,0.9141841061652526,-0.3010599068337141,0.033284067939352076,3.0,0
49.318504333496094,28.41229248046875,-2.4014620780944824,-0.0,-0.0,-1.0,0.12263782538555813,2.0,0
50.14482116699219,28.29682731628418,-2.5012259483337402,-0.0,-0.0,-1.0,0.1439952214505438,1.0,0
49.51534652709961,28.76297378540039,-2.480865478515625,-0.0,-0.0,-1.0,0.18675352428254074,1.0,0
49.6317253112793,28.838476181030273,-1.1591531038284302,-0.0,-0.0,-1.0,0.07128258625702565,2.0,0
49.58562088012695,28.813688278198242,-2.63582181930542,-0.0,-0.0,-1.0,0.1644495290629814,1.0,0
49.01426696777344,29.971635818481445,-2.781907081604004,-0.0,-0.0,-1.0,0.0517150178751204,2.0,0
49.381553649902344,29.843311309814453,-2.802492618560791,-0.0,-0.0,-1.0,0.022694444672524045,1.0,0
49.73051452636719,29.97386932373047,-2.8705263137817383,-0.0,-0.0,-1.0,0.025615900834677643,1.0,0
48.74893569946289,30.398971557617188,-2.8325119018554688,-0.8516950047443008,0.4842418460431039,-0.2003133880557467,0.0438116334573349,4.0,0
48.87383270263672,30.253307342529297,-2.8191633224487305,-0.0,-0.0,-1.0,0.08918752000747819,1.0,0
49.88562774658203,30.039810180664062,-2.9023380279541016,-0.0,-0.0,-1.0,0.024388542564277665,1.0,0
48.59157943725586,30.573928833007812,-2.8481459617614746,-0.0,-0.0,-1.0,0.08863964302579475,2.0,0
49.348236083984375,28.368350982666016,-2.523223876953125,-0.09123396661627808,0.9930023146358196,-0.07498510827734323,0.16076563341413216,4.0,0
49.328800201416016,28.47342300415039,-2.5399773120880127,-0.0,-0.0,-1.0,0.1348057483022413,2.0,0
48.820125579833984,28.399112701416016,-2.7661259174346924,-0.0,-0.0,-1.0,0.08863192277551853,1.0,0
48.80810546875,29.15185546875,-2.9254114627838135,-0.0,-0.0,-1.0,0.038641438235063726,1.0,0
47.97499084472656,29.675369262695312,-2.930455446243286,-0.0,-0.0,-1.0,0.0208100111546021,1.0,0
48.8842887878418,28.18716812133789,-2.7304813861846924,-0.0,-0.0,-1.0,0.12319218445652665,1.0,0
48.102787017822266,28.678096771240234,-2.7276060581207275,-0.0,-0.0,-1.0,0.09992753173135473,1.0,0
49.574012756347656,30.31307601928711,-2.605767250061035,-0.0,-0.0,-1.0,0.15148622437815285,1.0,0
50.15868377685547,28.334964752197266,-2.3119609355926514,-0.0,-0.0,-1.0,0.16501905623325683,1.0,0
50.198429107666016,28.2889404296875,-2.3086869716644287,-0.0,-0.0,-1.0,0.21258765264914858,1.0,0
49.67311096191406,28.84469223022461,-1.1005704402923584,-0.0,-0.0,-1.0,0.07822812826726143,1.0,0
49.906150817871094,29.00054168701172,-1.136791467666626,-0.0,-0.0,-1.0,0.08567680079145926,1.0,0
47.710453033447266,28.325408935546875,-2.6488263607025146,-0.0,-0.0,-1.0,0.07573453278420943,1.0,0
49.12255859375,30.462053298950195,-2.6818816661834717,-0.0,-0.0,-1.0,0.024159065931139024,2.0,0
49.436866760253906,30.37044906616211,-2.7033870220184326,-0.0,-0.0,-1.0,0.11432442851863013,2.0,0
50.15394592285156,30.36880111694336,-2.794545888900757,-0.0,-0.0,-1.0,0.02964451799254624,1.0,0
49.36857604980469,30.53767967224121,-2.7269442081451416,-0.0,-0.0,-1.0,0.03414565425140189,2.0,0
49.89558792114258,30.59073257446289,-2.803436040878296,-0.0,-0.0,-1.0,0.034351704922255935,2.0,0
49.438140869140625,28.375961303710938,-2.3285818099975586,-0.0,-0.0,-1.0,0.18196290289394793,1.0,0
47.90174865722656,30.56634521484375,-2.5566458702087402,0.3491021675873318,-0.9259604645425558,-0.14396143473153067,0.19273195711903454,4.0,0
48.77447509765625,28.377233505249023,-2.820587396621704,-0.0,-0.0,-1.0,0.05382803156409096,1.0,0
48.6447639465332,28.744426727294922,-2.8850276470184326,-0.0,-0.0,-1.0,0.16903646378408738,1.0,0
50.113243103027344,30.429096221923828,-2.846285581588745,-0.0,-0.0,-1.0,0.029644517992546193,2.0,0
49.852684020996094,30.589969635009766,-2.8444225788116455,-0.0,-0.0,-1.0,0.034351704922255935,2.0,0
50.06129455566406,30.524269104003906,-2.858408212661743,-0.0,-0.0,-1.0,0.029168698708886685,1.0,0
49.35620880126953,28.396081924438477,-2.3446998596191406,0.025729433826450744,0.7656628603357968,0.6427272987335892,0.1743105521170394,4.0,0
49.145111083984375,30.411540985107422,-2.718421220779419,-0.0,-0.0,-1.0,0.03172553424463239,1.0,0
49.40932083129883,30.316959381103516,-2.732724905014038,-0.0,-0.0,-1.0,0.1605590564466852,1.0,0
48.96790313720703,30.634662628173828,-2.7418625354766846,-0.0,-0.0,-1.0,0.05245808764132641,1.0,0
49.337059020996094,30.540836334228516,-2.768738031387329,-0.0,-0.0,-1.0,0.02819709723119913,1.0,0
49.678192138671875,30.49823570251465,-2.803568124771118,-0.0,-0.0,-1.0,0.06426853409816946,1.0,0
49.39911651611328,28.264225006103516,-2.6879265308380127,0.14109133138105331,0.9039564034648572,-0.4036781599789643,0.0899952533502208,3.0,0
49.25067138671875,28.792205810546875,-2.785175323486328,-0.0,-0.0,-1.0,0.21107504219624532,1.0,0
49.56182861328125,28.728374481201172,-2.8176732063293457,-0.0,-0.0,-1.0,0.13309050769072608,2.0,0
50.082374572753906,28.86159896850586,-2.92805814743042,-0.0,-0.0,-1.0,0.10873925114919043,1.0,0
48.955963134765625,29.344324111938477,-2.8691329956054688,-0.0,-0.0,-1.0,0.03440061849953454,2.0,0
49.1534309387207,29.185571670532227,-2.861156940460205,-0.0,-0.0,-1.0,0.014879908123498719,1.0,0
49.575889587402344,29.040382385253906,-2.890608787536621,-0.0,-0.0,-1.0,0.08025877070699065,1.0,0
48.500457763671875,29.665878295898438,-2.880368232727051,-0.0,-0.0,-1.0,0.10325065628817402,2.0,0
48.77584457397461,29.462276458740234,-2.871018886566162,-0.0,-0.0,-1.0,0.04025126350511961,2.0,0
47.97478485107422,30.108261108398438,-2.9152045249938965,-0.0,-0.0,-1.0,0.08653735189162398,2.0,0
48.32255554199219,29.946758270263672,-2.9226393699645996,0.6128718114488102,0.047519426227342454,-0.788752208784532,0.0654881056199832,4.0,0
49.615745544433594,28.847576141357422,-2.2865724563598633,-0.0,-0.0,-1.0,0.07925737929661929,1.0,0
49.70828628540039,28.8756046295166,-1.1923730373382568,-0.0,-0.0,-1.0,0.07128258625702566,1.0,0
49.03250503540039,29.340396881103516,-2.8255295753479004,-0.0,-0.0,-1.0,0.022803619111816224,1.0,0
49.33958053588867,29.296754837036133,-2.8605728149414062,-0.0,-0.0,-1.0,0.009276228831052991,1.0,0
49.580562591552734,29.181060791015625,-2.8697447776794434,-0.0,-0.0,-1.0,0.05940740715372984,1.0,0
50.0705680847168,29.066051483154297,-2.919017791748047,-0.0,-0.0,-1.0,0.06939009149922593,1.0,0
48.61294937133789,29.63965606689453,-2.836886405944824,-0.0,-0.0,-1.0,0.11765694339541928,2.0,0
48.85276412963867,29.50921630859375,-2.839644432067871,-0.0,-0.0,-1.0,0.027556187102456497,1.0,0
48.22667694091797,30.114116668701172,-2.8984909057617188,-0.408420664087303,0.8083970955780416,-0.42389467678595955,0.10057368197817572,3.0,0
48.43524932861328,29.92068099975586,-2.8798365592956543,-0.0,-0.0,-1.0,0.05034710496961905,1.0,0
48.0830078125,30.251789093017578,-2.912879467010498,-0.0,-0.0,-1.0,0.10477324764718966,1.0,0
49.260860443115234,28.332942962646484,-2.623629570007324,-0.0,-0.0,-1.0,0.13581459925016054,2.0,0
49.50422286987305,28.82195281982422,-2.230404853820801,-0.0,-0.0,-1.0,0.0786757460603656,1.0,0
49.576690673828125,28.901195526123047,-1.1858397722244263,-0.0,-0.0,-1.0,0.07822812826726144,1.0,0
50.105953216552734,29.347553253173828,-2.8880274295806885,-0.0,-0.0,-1.0,0.041380362922066524,1.0,0
48.90776443481445,29.750457763671875,-2.8097660541534424,0.8579089910062693,0.3093215419184944,-0.41025887785125337,0.02936267177293391,3.0,0
49.233299255371094,29.60582160949707,-2.8205549716949463,-0.0,-0.0,-1.0,0.029038152828964728,2.0,0
49.64036560058594,29.64972686767578,-2.890052556991577,-0.0,-0.0,-1.0,0.006454979848121564,1.0,0
49.29258728027344,28.384641647338867,-2.5359461307525635,-0.0,-0.0,-1.0,0.09073693348480005,1.0,0
49.38676071166992,28.84809684753418,-2.660602331161499,-0.0,-0.0,-1.0,0.1263580567193818,1.0,0
49.62751007080078,28.87495231628418,-1.140803575515747,-0.0,-0.0,-1.0,0.07822812826726137,2.0,0
49.1919059753418,29.762943267822266,-2.7564241886138916,-0.0,-0.0,-1.0,0.07397632916824047,1.0,0
49.29723358154297,29.85257339477539,-2.7873990535736084,-0.0,-0.0,-1.0,0.061896443063191274,2.0,0
47.78091049194336,30.392417907714844,-2.8372039794921875,-0.0,-0.0,-1.0,0.170661633193444,2.0,0
48.04291534423828,30.579143524169922,-2.9105277061462402,-0.0,-0.0,-1.0,0.18727976962733367,1.0,0
47.910160064697266,30.562421798706055,-2.9099864959716797,-0.0,-0.0,-1.0,0.16701412857648662,1.0,0
47.77787399291992,30.329849243164062,-2.862182140350342,-0.0,-0.0,-1.0,0.16147094642066598,1.0,0
48.42795944213867,30.294734954833984,-2.8398489952087402,-0.0,-0.0,-1.0,0.044788845931683544,1.0,0
48.14556121826172,30.284709930419922,-2.8432869911193848,-0.0,-0.0,-1.0,0.1203673447456593,2.0,0
49.760353088378906,30.59809112548828,-2.893059253692627,-0.0,-0.0,-1.0,0.022270900765257756,1.0,0
48.82185745239258,30.018957138061523,-2.772294521331787,-0.0,-0.0,-1.0,0.027819527277929808,1.0,0
49.848854064941406,30.311059951782227,-2.82928466796875,-0.0,-0.0,-1.0,0.03974802330005609,1.0,0
49.49631118774414,30.2540283203125,-2.8177523612976074,-0.0,-0.0,-1.0,0.16434833093930745,1.0,0
49.03801345825195,29.731090545654297,-2.7057299613952637,-0.0,-0.0,-1.0,0.06594248011535626,1.0,0
49.53266143798828,28.69738006591797,-2.4720044136047363,-0.0,-0.0,-1.0,0.1935630553607631,1.0,0
49.32157516479492,28.24359703063965,-2.3729753494262695,-0.0,-0.0,-1.0,0.10627810476974427,1.0,0
49.59934997558594,28.810346603393555,-1.2460871934890747,-0.0,-0.0,-1.0,0.04145828825654351,2.0,0
48.409828186035156,28.62753677368164,-2.8731131553649902,-0.0,-0.0,-1.0,0.08416040981784288,1.0,0
48.282657623291016,28.678346633911133,-2.8885574340820312,-0.0,-0.0,-1.0,0.0836737650236911,1.0,0
50.142452239990234,28.941591262817383,-2.925901412963867,-0.0,-0.0,-1.0,0.09208275865943867,1.0,0
49.77101516723633,28.936134338378906,-2.92612886428833,-0.0,-0.0,-1.0,0.05832060490860674,1.0,0
49.191917419433594,28.72556495666504,-2.8814234733581543,-0.0,-0.0,-1.0,0.11307083632057238,1.0,0
49.130104064941406,28.740314483642578,-2.8858866691589355,-0.0,-0.0,-1.0,0.15132675509374302,1.0,0
47.900203704833984,30.606565475463867,-2.6496329307556152,-0.0,-0.0,-1.0,0.16862464348670747,1.0,0
47.8410758972168,30.521404266357422,-2.6338071823120117,-0.0,-0.0,-1.0,0.13706621427728216,2.0,0
48.736061096191406,28.284778594970703,-2.783346176147461,-0.0,-0.0,-1.0,0.05578713587366885,1.0,0
48.200862884521484,28.303001403808594,-2.8007168769836426,-0.0,-0.0,-1.0,0.04554991027012626,1.0,0
48.03054428100586,28.210407257080078,-2.783475399017334,-0.0,-0.0,-1.0,0.0428556505562936,1.0,0
49.3293571472168,28.29125213623047,-2.7749571800231934,-0.0,-0.0,-1.0,0.17499970728408695,2.0,0
50.16067123413086,28.149227142333984,-2.7348499298095703,-0.0,-0.0,-1.0,0.1318963505851588,1.0,0
49.624549865722656,28.85516929626465,-1.0014973878860474,0.3414030091214496,0.8544790352062164,-0.3915476519606176,0.11843114067295751,3.0,0
49.862579345703125,28.84659194946289,-2.917154550552368,-0.0,-0.0,-1.0,0.10398219783694405,1.0,0
49.676177978515625,28.870519638061523,-2.9238851070404053,-0.0,-0.0,-1.0,0.10307217239470534,1.0,0
47.858333587646484,30.530210494995117,-2.6444478034973145,-0.0,-0.0,-1.0,0.14736858739462555,2.0,0
49.46828842163086,30.278762817382812,-2.564852237701416,-0.0,-0.0,-1.0,0.16816119631887214,1.0,0
48.87778854370117,30.11678123474121,-2.539233684539795,-0.0,-0.0,-1.0,0.09483165151359567,1.0,0
49.3348503112793,28.329172134399414,-2.796684503555298,-0.0,-0.0,-1.0,0.17738002015663168,2.0,0
49.516456604003906,28.781055450439453,-2.2591779232025146,-0.0,-0.0,-1.0,0.08073639366604844,1.0,0
49.57844924926758,28.861093521118164,-1.636760950088501,0.32806454774760735,0.9390363487605309,0.10288045595567982,0.038336684269980124,3.0,0
49.458656311035156,30.535911560058594,-2.7182798385620117,-0.0,-0.0,-1.0,0.0648385718574118,2.0,0
49.13922119140625,30.595378875732422,-2.728025436401367,-0.0,-0.0,-1.0,0.0179215615058081,2.0,0
48.724639892578125,30.624568939208984,-2.732041835784912,-0.9932253830138692,-0.1159893801490352,-0.007057069476458906,0.14167553097081964,3.0,0
49.496585845947266,30.320201873779297,-2.6737914085388184,-0.0,-0.0,-1.0,0.18235921923757564,1.0,0
49.0980110168457,30.37928009033203,-2.6826729774475098,-0.0,-0.0,-1.0,0.05358121021691218,1.0,0
48.762176513671875,30.45211410522461,-2.6961874961853027,-0.07977844331828572,-0.7615671943379804,-0.6431569081413091,0.07819888809686147,3.0,0
47.91909408569336,30.509029388427734,-2.7089829444885254,-0.0,-0.0,-1.0,0.1518501893761347,2.0,0
49.61779022216797,28.856727600097656,-0.8875868320465088,-0.0,-0.0,-1.0,0.11843114067295755,1.0,0
50.06265640258789,29.193653106689453,-2.930964469909668,-0.0,-0.0,-1.0,0.04350333280034731,2.0,0
49.5982551574707,29.19637680053711,-2.922022819519043,-0.0,-0.0,-1.0,0.004875133716181379,1.0,0
49.303321838378906,28.992103576660156,-2.8684253692626953,-0.0,-0.0,-1.0,0.0878876182220748,1.0,0
49.10789489746094,29.173343658447266,-2.909317970275879,-0.0,-0.0,-1.0,0.01689106233414074,1.0,0
48.760093688964844,29.382343292236328,-2.9564857482910156,-0.0,-0.0,-1.0,0.027570703134412004,2.0,0
48.42477035522461,29.487403869628906,-2.9807138442993164,-0.0,-0.0,-1.0,0.059844634091492904,1.0,0
49.5164794921875,28.19373321533203,-2.681955099105835,-0.0,-0.0,-1.0,0.14938365278021282,1.0,0
48.103511810302734,29.13111114501953,-2.896240234375,-0.0,-0.0,-1.0,0.0529030830169523,1.0,0
47.98164367675781,28.849666595458984,-2.8295788764953613,-0.0,-0.0,-1.0,0.07169410815108605,1.0,0
49.70492172241211,28.82474136352539,-1.5778121948242188,-0.0,-0.0,-1.0,0.03863499546891359,1.0,0
49.76649475097656,28.823360443115234,-0.9608969688415527,-0.0,-0.0,-1.0,0.11843114067295749,1.0,0
49.609764099121094,29.860763549804688,-2.8111979961395264,-0.0,-0.0,-1.0,0.007113386827364604,1.0,0
49.28560256958008,29.80646514892578,-2.8016202449798584,-0.6544455576467567,0.3686903434599453,-0.660127595784189,0.04304277311524315,3.0,0
49.04341506958008,29.941608428955078,-2.835787057876587,-0.0,-0.0,-1.0,0.034923317408233207,1.0,0
48.74596405029297,30.251266479492188,-2.911973714828491,-0.0,-0.0,-1.0,0.08991510355203061,1.0,0
48.53062438964844,30.386688232421875,-2.947434663772583,-0.0,-0.0,-1.0,0.053342026550649034,1.0,0
48.26461410522461,30.223003387451172,-2.9157378673553467,-0.0,-0.0,-1.0,0.05640244659132071,1.0,0
47.86433029174805,29.915546417236328,-2.855494737625122,-0.0,-0.0,-1.0,0.03580901145839977,1.0,0
49.66400146484375,28.259849548339844,-2.4437241554260254,-0.0,-0.0,-1.0,0.1595953605972174,1.0,0
48.026580810546875,28.675384521484375,-2.564500331878662,-0.0,-0.0,-1.0,0.11709485639177354,1.0,0
50.16917419433594,29.153507232666016,-2.9136149883270264,-0.0,-0.0,-1.0,0.06980381909341503,1.0,0
50.08473587036133,29.17334747314453,-2.9166066646575928,-0.0,-0.0,-1.0,0.06750930130566293,2.0,0
49.414024353027344,29.131778717041016,-2.895076036453247,-0.0,-0.0,-1.0,0.01807321290323553,1.0,0
49.1804313659668,28.959671020507812,-2.8500335216522217,-0.0,-0.0,-1.0,0.08842014434026439,2.0,0
48.93730926513672,29.222984313964844,-2.913986921310425,-0.0,-0.0,-1.0,0.034076535610464566,1.0,0
48.527652740478516,29.328357696533203,-2.9399592876434326,-0.0,-0.0,-1.0,0.06833313012889519,2.0,0
48.19426727294922,29.065258026123047,-2.8755738735198975,-0.0,-0.0,-1.0,0.07503904511969221,1.0,0
48.093326568603516,29.223506927490234,-2.9160120487213135,-0.0,-0.0,-1.0,0.04654592706142768,1.0,0
48.126922607421875,28.936527252197266,-2.8438470363616943,-0.0,-0.0,-1.0,0.08446785555958458,1.0,0
47.943931579589844,30.57442855834961,-2.58174204826355,0.4447970490963185,-0.88662315063929,-0.12670822335454773,0.15255916092113514,4.0,0
49.45732116699219,28.18798065185547,-2.66190242767334,-0.0,-0.0,-1.0,0.12108780304330381,1.0,0
49.65789031982422,28.788684844970703,-1.5898842811584473,-0.0,-0.0,-1.0,0.04110811317575922,2.0,0
49.61518478393555,28.93914794921875,-1.0109894275665283,-0.0,-0.0,-1.0,0.1184311406729577,1.0,0
49.47012710571289,28.96385955810547,-1.0149388313293457,-0.0,-0.0,-1.0,0.11843114067295749,1.0,0
49.268150329589844,28.996074676513672,-1.0204720497131348,-0.0,-0.0,-1.0,0.07584364550282484,1.0,0
48.699310302734375,30.532695770263672,-2.7813634872436523,-0.0,-0.0,-1.0,0.08618684110544514,1.0,0
48.463260650634766,30.633026123046875,-2.782930850982666,-0.0,-0.0,-1.0,0.05785685448188409,1.0,0
49.40709686279297,30.133647918701172,-2.7614903450012207,-0.0,-0.0,-1.0,0.10904663631025713,1.0,0
49.17302322387695,30.116050720214844,-2.735199451446533,-0.0,-0.0,-1.0,0.040509226465826054,2.0,0
48.84865951538086,30.309120178222656,-2.7466516494750977,-0.0,-0.0,-1.0,0.08594126487603997,2.0,0
47.95172119140625,30.588153839111328,-2.732497215270996,0.9834717641824752,0.03719421682764044,-0.1772001108644921,0.1513777806271316,3.0,0
49.086429595947266,29.915149688720703,-2.6841588020324707,-0.0,-0.0,-1.0,0.07708108349454793,1.0,0
49.35173034667969,28.87395477294922,-2.488267421722412,-0.0,-0.0,-1.0,0.1305761338314861,1.0,0
49.27741241455078,28.93103790283203,-2.4929070472717285,-0.0,-0.0,-1.0,0.1023854903302387,1.0,0
48.62023162841797,29.00302505493164,-2.4459404945373535,-0.0,-0.0,-1.0,0.1670217985672506,1.0,0
49.7823486328125,28.715164184570312,-2.4999256134033203,-0.0,-0.0,-1.0,0.1919359498635132,1.0,0
48.67315673828125,28.973262786865234,-2.4443249702453613,-0.0,-0.0,-1.0,0.1654686808672568,1.0,0
49.336544036865234,28.429912567138672,-2.3925838470458984,-0.7278080058828552,0.6688641830669154,0.15138101328452583,0.17431055211703944,3.0,0
49.63951110839844,28.801197052001953,-1.2977322340011597,-0.0,-0.0,-1.0,0.03238038963508925,1.0,0
49.758689880371094,30.303483963012695,-2.8845150470733643,-0.0,-0.0,-1.0,0.04433668987572659,1.0,0
49.77775955200195,30.156267166137695,-2.851571798324585,-0.0,-0.0,-1.0,0.03679666005799478,1.0,0
49.45539855957031,30.085819244384766,-2.823654890060425,-0.0,-0.0,-1.0,0.05270607969119754,1.0,0
48.623985290527344,30.343570709228516,-2.8597476482391357,-0.0,-0.0,-1.0,0.0805007311425823,2.0,0
48.266109466552734,30.432979583740234,-2.8737852573394775,-0.0,-0.0,-1.0,0.06890049206122308,2.0,0
47.96876525878906,30.538719177246094,-2.894209146499634,-0.0,-0.0,-1.0,0.19852801474590115,2.0,0
49.01668167114258,29.94753646850586,-2.7778141498565674,-0.0,-0.0,-1.0,0.05552481215535692,2.0,0
48.247928619384766,30.336475372314453,-2.8507611751556396,-0.0,-0.0,-1.0,0.052600818344027175,2.0,0
47.73508834838867,30.460840225219727,-2.8734638690948486,-0.0,-0.0,-1.0,0.16137397697824124,1.0,0
49.26164245605469,28.997451782226562,-2.566826820373535,-0.0,-0.0,-1.0,0.13002426968571945,1.0,0
49.37757110595703,28.382400512695312,-2.4306070804595947,-0.0,-0.0,-1.0,0.16775914893090346,2.0,0
48.551719665527344,28.975671768188477,-2.5398457050323486,-0.0,-0.0,-1.0,0.18250249425799941,1.0,0
48.212890625,29.01873779296875,-2.542222023010254,-0.0,-0.0,-1.0,0.12030020130153975,1.0,0
48.04057312011719,29.031307220458984,-2.541809320449829,-0.0,-0.0,-1.0,0.11750796391888323,1.0,0
49.61220932006836,28.790985107421875,-1.9265124797821045,-0.0,-0.0,-1.0,0.03824523675743632,2.0,0
49.673858642578125,28.835737228393555,-1.336193561553955,-0.0,-0.0,-1.0,0.036901501027146726,1.0,0
49.46804428100586,30.577919006347656,-2.7813925743103027,-0.0,-0.0,-1.0,0.05496763451015674,1.0,0
48.88441467285156,30.614791870117188,-2.7637367248535156,-0.0,-0.0,-1.0,0.06628439049490423,2.0,0
49.37477493286133,30.40235137939453,-2.738396644592285,-0.0,-0.0,-1.0,0.05688332131437684,2.0,0
49.05906677246094,30.49966049194336,-2.7456092834472656,-0.0,-0.0,-1.0,0.0276748426950489,1.0,0
48.659942626953125,30.627094268798828,-2.7578725814819336,-0.0,-0.0,-1.0,0.10704927907253385,2.0,0
49.0806884765625,30.406444549560547,-2.7259397506713867,-0.0,-0.0,-1.0,0.026190412841439532,1.0,0
47.93266677856445,30.537864685058594,-2.7147064208984375,-0.0,-0.0,-1.0,0.16862464348670742,2.0,0
50.132389068603516,28.24264144897461,-2.3178224563598633,-0.0,-0.0,-1.0,0.23632502238756095,1.0,0
49.60874557495117,28.786684036254883,-1.792610764503479,-0.0,-0.0,-1.0,0.03815481433917521,1.0,0
49.66752243041992,28.805461883544922,-1.1974767446517944,-0.0,-0.0,-1.0,0.07128258625702566,2.0,0
50.046913146972656,29.385028839111328,-2.904299259185791,-0.0,-0.0,-1.0,0.00490949339924002,1.0,0
48.55078125,29.774551391601562,-2.894713878631592,0.5337962472260525,-0.10471266350655717,-0.839104775667941,0.10232641942369092,3.0,0
48.33282470703125,29.960115432739258,-2.9270477294921875,-0.0938326293940382,-0.2462331128359949,-0.9646578107308815,0.06526863634711447,3.0,0
47.97409439086914,30.02389144897461,-2.9245190620422363,-0.0,-0.0,-1.0,0.051109499094555685,1.0,0
49.60477066040039,29.279911041259766,-2.8470492362976074,-0.0,-0.0,-1.0,0.006314432954562856,1.0,0
49.335365295410156,29.387920379638672,-2.8530545234680176,-0.0,-0.0,-1.0,0.008276527093475414,1.0,0
48.974857330322266,29.470176696777344,-2.848478317260742,-0.0,-0.0,-1.0,0.03293225018445877,1.0,0
48.66236114501953,29.56505584716797,-2.8516459465026855,-0.0,-0.0,-1.0,0.09401934922814674,2.0,0
48.43000411987305,29.707454681396484,-2.8721275329589844,0.8577568537872138,0.34199628101400575,-0.38378603876854345,0.08589312079758442,3.0,0
47.747703552246094,29.90813446044922,-2.88633394241333,-0.0,-0.0,-1.0,0.050786977426096544,1.0,0
49.78940963745117,28.316726684570312,-2.6415762901306152,-0.0,-0.0,-1.0,0.08261744963045824,1.0,0
49.134521484375,28.659282684326172,-2.6704792976379395,-0.0,-0.0,-1.0,0.09919670722317558,1.0,0
49.40956497192383,28.175342559814453,-2.5795540809631348,-0.0,-0.0,-1.0,0.08995318710398953,2.0,0
47.996192932128906,29.000545501708984,-2.680981159210205,-0.0,-0.0,-1.0,0.10748573971557032,1.0,0
48.20885467529297,30.16176986694336,-2.9323792457580566,-0.5752005728987514,0.511977598090217,-0.6379837301928005,0.11005600271239936,3.0,0
48.0977668762207,30.20836639404297,-2.935755729675293,0.43328275033212515,-0.17368925093344256,-0.8843631055029427,0.09882340498944513,3.0,0
49.68265914916992,29.357168197631836,-2.867342472076416,-0.0,-0.0,-1.0,0.005623575578312856,2.0,0
49.396705627441406,29.401626586914062,-2.8520069122314453,-0.0,-0.0,-1.0,0.00755719537641151,1.0,0
48.87881088256836,29.56912612915039,-2.846567153930664,-0.0,-0.0,-1.0,0.022505683653284373,2.0,0
48.589027404785156,29.769317626953125,-2.8697304725646973,-0.0,-0.0,-1.0,0.09211103840342456,2.0,0
48.34838104248047,30.016326904296875,-2.9086227416992188,-0.0,-0.0,-1.0,0.07743154342484239,1.0,0
47.858421325683594,30.089035034179688,-2.892937660217285,-0.0,-0.0,-1.0,0.0796675669766702,1.0,0
49.32897186279297,29.267745971679688,-2.8167929649353027,-0.0,-0.0,-1.0,0.010599268176904693,1.0,0
49.0118293762207,29.438785552978516,-2.8280158042907715,-0.0,-0.0,-1.0,0.01891711855104893,1.0,0
48.646644592285156,29.57249641418457,-2.8293704986572266,0.271650343690901,0.9539809781881541,-0.12698970047916497,0.060222814333897444,3.0,0
49.68406295776367,28.195707321166992,-2.61545991897583,-0.0,-0.0,-1.0,0.12818952522615543,1.0,0
49.280845642089844,28.410694122314453,-2.624014377593994,-0.0,-0.0,-1.0,0.08079944811013987,1.0,0
48.21821212768555,30.1451358795166,-2.954164505004883,-0.5752005728987514,0.511977598090217,-0.6379837301928005,0.05049619908271226,3.0,0
48.06692123413086,30.19287872314453,-2.947826385498047,-0.0,-0.0,-1.0,0.12946070234669363,2.0,0
48.527976989746094,29.74312973022461,-2.905299663543701,-0.3934727068370751,0.5369616972426469,-0.7462247413940396,0.08717933782826996,3.0,0
48.3156623840332,29.97907829284668,-2.9302186965942383,-0.44338823028354957,-0.23256773595556232,-0.8656322114145971,0.08026314843895625,4.0,0
47.92865753173828,30.117778778076172,-2.917146682739258,-0.0,-0.0,-1.0,0.08902119410112241,2.0,0
49.62709426879883,29.072364807128906,-2.9063925743103027,-0.0,-0.0,-1.0,0.08923596195360957,1.0,0
49.35073471069336,29.12420082092285,-2.8805718421936035,-0.0,-0.0,-1.0,0.019577766878849254,1.0,0
48.964229583740234,29.306007385253906,-2.868112564086914,-0.0,-0.0,-1.0,0.03210556483707459,2.0,0
48.63041687011719,29.505870819091797,-2.868422031402588,-0.0,-0.0,-1.0,0.05654321451790301,2.0,0
49.13351058959961,28.780902862548828,-2.78379487991333,-0.0,-0.0,-1.0,0.20158739405149292,1.0,0
49.34840393066406,28.287094116210938,-2.7145471572875977,-0.0,-0.0,-1.0,0.17354374061654065,2.0,0
48.05242156982422,28.268722534179688,-2.5454492568969727,-0.0,-0.0,-1.0,0.06027672718202335,1.0,0
49.94664764404297,30.113677978515625,-2.9099574089050293,-0.0,-0.0,-1.0,0.010312716453775026,1.0,0
48.58716583251953,30.615154266357422,-2.840758800506592,-0.0,-0.0,-1.0,0.08725157233020407,2.0,0
50.17375946044922,29.979129791259766,-2.9152727127075195,-0.0,-0.0,-1.0,0.00887315609776243,1.0,0
49.77665328979492,29.94936180114746,-2.8586530685424805,-0.0,-0.0,-1.0,0.027264506403366993,1.0,0
49.558067321777344,29.926952362060547,-2.8268938064575195,-0.0,-0.0,-1.0,0.02796997750326883,1.0,0
48.907108306884766,30.066753387451172,-2.773705005645752,-0.0,-0.0,-1.0,0.11202170618911957,2.0,0
48.73773193359375,30.36313247680664,-2.8097939491271973,-0.7112470287427591,0.6485681364311865,-0.27108492490504654,0.05490515832819629,4.0,0
48.359718322753906,30.538726806640625,-2.801145076751709,-0.0,-0.0,-1.0,0.05084758700604805,1.0,0
47.946807861328125,30.57065200805664,-2.7634401321411133,0.7234585219802594,-0.6611687061654088,-0.19865474814788076,0.1862100435336543,5.0,0
49.25661087036133,29.81378173828125,-2.768791675567627,-0.0,-0.0,-1.0,0.07369422810393995,2.0,0
49.04969787597656,29.785892486572266,-2.738402843475342,-0.0,-0.0,-1.0,0.0741710832145567,2.0,0
49.32880783081055,28.80436897277832,-2.5949740409851074,-0.0,-0.0,-1.0,0.15319104182315557,1.0,0
50.08892059326172,28.305438995361328,-2.6113672256469727,-0.0,-0.0,-1.0,0.1439952214505438,1.0,0
49.29033660888672,28.331153869628906,-2.505856513977051,-0.0,-0.0,-1.0,0.11137527977336693,2.0,0
50.0852165222168,29.94013214111328,-2.9893946647644043,-0.0,-0.0,-1.0,0.007779461548786559,1.0,0
49.801910400390625,29.841732025146484,-2.9352893829345703,-0.0,-0.0,-1.0,0.007534521685841159,1.0,0
48.63565444946289,30.215349197387695,-2.8661460876464844,-0.6550224044336973,0.5652118861014347,-0.5014789860996742,0.06576672050515094,3.0,0
48.26150894165039,30.387027740478516,-2.8581433296203613,0.6637285877499688,-0.2997234672887797,-0.6852957062172679,0.0719021963083708,3.0,0
47.99912643432617,30.562602996826172,-2.864988327026367,0.7538284020770445,-0.5796181533807856,-0.3094923851945601,0.21480774440115813,3.0,0
49.32949447631836,29.763229370117188,-2.861908435821533,-0.0,-0.0,-1.0,0.025946558210652303,1.0,0
48.89181900024414,29.789073944091797,-2.813994884490967,-0.0,-0.0,-1.0,0.029985503439401016,2.0,0
49.352516174316406,28.781280517578125,-2.683882713317871,-0.0,-0.0,-1.0,0.16799053788474536,1.0,0
50.11819839477539,28.243974685668945,-2.6922435760498047,-0.0,-0.0,-1.0,0.14576860969592825,1.0,0
49.262149810791016,28.36760711669922,-2.5973410606384277,-0.0,-0.0,-1.0,0.12781391180403637,2.0,0
49.668357849121094,28.834136962890625,-1.0091989040374756,0.3414030091214496,0.8544790352062164,-0.3915476519606176,0.11843114067295751,3.0,0
49.53312301635742,30.254138946533203,-2.5900654792785645,-0.0,-0.0,-1.0,0.19015746855375115,2.0,0
49.31886672973633,28.356651306152344,-2.298428535461426,-0.0,-0.0,-1.0,0.16775914893090346,2.0,0
49.632568359375,28.836963653564453,-1.034236192703247,0.3414030091214496,0.8544790352062164,-0.3915476519606176,0.1184311406729575,3.0,0
48.63691711425781,30.19658660888672,-2.8889424800872803,-0.0,-0.0,-1.0,0.0582312540333065,2.0,0
48.38565444946289,30.32369613647461,-2.870361089706421,-0.0,-0.0,-1.0,0.07279514429882988,1.0,0
48.08994674682617,30.50527572631836,-2.854292631149292,-0.0,-0.0,-1.0,0.11837004940022769,1.0,0
48.66203308105469,29.968244552612305,-2.859760046005249,-0.9964364111175652,-0.0717615254119237,0.04432563670947694,0.033914039633440064,3.0,0
48.3304443359375,30.264434814453125,-2.8534529209136963,-0.0,-0.0,-1.0,0.0604470579376444,2.0,0
49.764923095703125,29.078845977783203,-2.9097440242767334,-0.0,-0.0,-1.0,0.010514411776464616,1.0,0
49.2884521484375,29.286928176879883,-2.861267328262329,-0.0,-0.0,-1.0,0.008465356549522986,1.0,0
