x,y,z,nx,ny,nz,curvature,density,label
43.31721115112305,-22.804786682128906,0.09620857238769531,-0.0,-0.0,-1.0,0.022173804385720197,1.0,1
42.98645782470703,-22.837018966674805,0.11746549606323242,-0.0,-0.0,-1.0,0.009159150466807067,1.0,1
42.9495735168457,-22.447601318359375,0.04599785804748535,-0.0,-0.0,-1.0,0.020268847997316517,1.0,1
44.258731842041016,-24.32276153564453,0.2963695526123047,0.41158345720036255,-0.2754730025764347,-0.8687425870823421,0.07632816113287243,3.0,1
44.710235595703125,-24.206043243408203,0.2625596523284912,-0.161883380982687,-0.690599129440414,-0.7048876601117064,0.0791846253085752,3.0,1
44.901466369628906,-24.096954345703125,0.2480030059814453,-0.0,-0.0,-1.0,0.03294580486926291,2.0,1
43.1540641784668,-23.331268310546875,0.0821390151977539,-0.0,-0.0,-1.0,0.022785088986197365,1.0,1
44.2469367980957,-24.24331283569336,0.25013184547424316,-0.0,-0.0,-1.0,0.09574484039814847,1.0,1
44.692867279052734,-24.18360137939453,0.21602535247802734,0.6414106949262837,-0.27356573793778916,-0.7167664246187421,0.08505228250140351,5.0,1
44.86723709106445,-24.088218688964844,0.2025604248046875,-0.0,-0.0,-1.0,0.05432415291714963,2.0,1
43.09977722167969,-23.613834381103516,0.14948678016662598,-0.0,-0.0,-1.0,0.059201792797863244,2.0,1
43.340370178222656,-23.493858337402344,0.13332867622375488,-0.0,-0.0,-1.0,0.03101284197974292,1.0,1
43.7756462097168,-23.333534240722656,0.10356974601745605,-0.0,-0.0,-1.0,0.013708970072756472,1.0,1
44.15663528442383,-23.124401092529297,0.07802343368530273,-0.0,-0.0,-1.0,0.013027010955579194,2.0,1
44.623592376708984,-23.017433166503906,0.04542279243469238,-0.0,-0.0,-1.0,0.019552421298309225,1.0,1
44.85932922363281,-22.885818481445312,0.02955937385559082,-0.0,-0.0,-1.0,0.01834601422281656,1.0,1
45.11598205566406,-22.786773681640625,0.011910200119018555,-0.0,-0.0,-1.0,0.019323083619469498,1.0,1
43.69114685058594,-24.17198371887207,0.2003037929534912,-0.0,-0.0,-1.0,0.012986876313187507,1.0,1
44.02442932128906,-24.216611862182617,0.16882634162902832,-0.0,-0.0,-1.0,0.0428255451299788,1.0,1
44.36070251464844,-24.26264762878418,0.1370086669921875,-0.0,-0.0,-1.0,0.159722192977315,1.0,1
44.39381408691406,-23.98297691345215,0.13164424896240234,-0.0,-0.0,-1.0,0.03933792960867604,2.0,1
44.80581283569336,-23.636796951293945,0.0892326831817627,-0.0,-0.0,-1.0,0.0539143871542226,2.0,1
44.80786895751953,-23.967378616333008,0.0917215347290039,-0.0,-0.0,-1.0,0.03942616320892287,1.0,1
45.18578338623047,-23.74355125427246,0.053423166275024414,-0.0,-0.0,-1.0,0.029608121001047028,1.0,1
45.20500946044922,-23.953502655029297,0.2202916145324707,-0.0,-0.0,-1.0,0.03299535368961877,1.0,1
43.71552276611328,-24.347986221313477,0.22185564041137695,-0.0,-0.0,-1.0,0.009842770273766458,1.0,1
43.95069122314453,-24.080495834350586,0.20236730575561523,-0.0,-0.0,-1.0,0.038775192790513294,1.0,1
44.045440673828125,-23.762319564819336,0.1947033405303955,-0.0,-0.0,-1.0,0.07048718667775511,1.0,1
44.33004379272461,-23.923673629760742,0.17042851448059082,0.5366108443216031,-0.8436289904651773,0.018410002801802113,0.0608599784551339,3.0,1
44.75751495361328,-23.9563045501709,0.13407540321350098,-0.0,-0.0,-1.0,0.03838513251538647,1.0,1
44.868099212646484,-23.49139976501465,0.12493443489074707,-0.0,-0.0,-1.0,0.04713340530145602,1.0,1
45.088539123535156,-23.365861892700195,0.1061246395111084,-0.0,-0.0,-1.0,0.032076455704310225,2.0,1
43.00428771972656,-22.792377471923828,0.06651806831359863,-0.0,-0.0,-1.0,0.023125258641283813,2.0,1
43.11792755126953,-22.675464630126953,0.06067609786987305,-0.0,-0.0,-1.0,0.017524784388093077,1.0,1
42.78312683105469,-23.787555694580078,0.1486644744873047,-0.0,-0.0,-1.0,0.07792248476568125,1.0,1
42.827476501464844,-23.156269073486328,0.15714383125305176,-0.0,-0.0,-1.0,0.037708416729484745,1.0,1
43.156494140625,-22.954723358154297,0.13549137115478516,-0.0,-0.0,-1.0,0.0347592153087693,1.0,1
43.40253448486328,-22.933738708496094,0.11676669120788574,-0.0,-0.0,-1.0,0.032536928283344826,1.0,1
43.90467071533203,-22.904884338378906,0.07796716690063477,-0.0,-0.0,-1.0,0.018498720818361614,1.0,1
44.47978973388672,-22.83907699584961,0.03357100486755371,-0.0,-0.0,-1.0,0.01511165255711867,2.0,1
44.79180145263672,-22.61626434326172,0.012407541275024414,-0.35055846778014205,-0.22793360937342672,-0.9083804436389202,0.014570351264589573,3.0,1
44.232147216796875,-24.35930633544922,0.2953627109527588,-0.0,-0.0,-1.0,0.04689440804364957,2.0,1
44.87564468383789,-24.250019073486328,0.25008726119995117,-0.0,-0.0,-1.0,0.03588581413703847,2.0,1
45.06559371948242,-24.098575592041016,0.23846077919006348,-0.0,-0.0,-1.0,0.03207366956725709,1.0,1
44.37989044189453,-24.254295349121094,0.25100183486938477,-0.0,-0.0,-1.0,0.15581249291583554,2.0,1
44.75238800048828,-24.132293701171875,0.22468066215515137,-0.0,-0.0,-1.0,0.07699688363948015,2.0,1
45.12051010131836,-24.01739501953125,0.19827628135681152,-0.0,-0.0,-1.0,0.02981941168191926,1.0,1
42.834747314453125,-22.776988983154297,0.06520736217498779,-0.0,-0.0,-1.0,0.0105463700112617,1.0,1
42.98430633544922,-22.787616729736328,0.057573914527893066,-0.0,-0.0,-1.0,0.023125258641283807,2.0,1
44.25039291381836,-22.849700927734375,-0.007998347282409668,-0.0,-0.0,-1.0,0.033594202870173784,1.0,0
44.32755661010742,-24.219226837158203,0.3240790367126465,-0.48008981131943057,0.24918910341262704,-0.8410817818783645,0.10525647354761297,9.0,1
42.855384826660156,-24.333463668823242,0.1810619831085205,-0.8350021494620571,0.19451347501480346,-0.5147192617645173,0.031464274175463706,3.0,1
42.80758285522461,-23.81458854675293,0.19552302360534668,-0.0,-0.0,-1.0,0.1262448729445855,1.0,1
43.243019104003906,-23.89606285095215,0.17676067352294922,-0.0,-0.0,-1.0,0.05338466763744048,2.0,1
43.6539421081543,-23.784276962280273,0.16325640678405762,-0.0,-0.0,-1.0,0.0263055525997439,1.0,1
44.07167434692383,-23.732248306274414,0.14764142036437988,-0.0,-0.0,-1.0,0.07839337953586696,1.0,1
44.49443435668945,-23.71687126159668,0.13056039810180664,-0.0,-0.0,-1.0,0.034954997973134706,1.0,1
44.05582046508789,-23.6115779876709,0.15121722221374512,-0.0,-0.0,-1.0,0.06699906114900597,2.0,1
44.81398010253906,-23.482378005981445,0.12272906303405762,-0.0,-0.0,-1.0,0.040690933892318634,1.0,1
44.266578674316406,-24.25617027282715,0.30258703231811523,0.8890395850870415,-0.33297090544618696,0.31422761220906115,0.08282846124040508,3.0,1
44.63470458984375,-24.359743118286133,0.2830386161804199,-0.0,-0.0,-1.0,0.06057089438068704,1.0,1
44.91679382324219,-24.32627296447754,0.27011656761169434,-0.0,-0.0,-1.0,0.04405533893775799,2.0,1
43.28619384765625,-24.168045043945312,0.19520807266235352,-0.0,-0.0,-1.0,0.02309010238177229,2.0,1
42.9842414855957,-23.747596740722656,0.21947336196899414,0.9496218950771232,-0.11659678092177149,-0.2909010949941809,0.1287858094274462,5.0,1
43.554588317871094,-23.95166015625,0.18819689750671387,-0.0,-0.0,-1.0,0.027574846454139407,1.0,1
43.895626068115234,-23.766132354736328,0.17681121826171875,-0.0,-0.0,-1.0,0.05993445255462197,1.0,1
44.246944427490234,-23.74374771118164,0.16060972213745117,-0.03751310206668969,-0.33339263121067947,-0.9420414643887782,0.07599868679285145,4.0,1
44.65757751464844,-23.717811584472656,0.14134836196899414,-0.0,-0.0,-1.0,0.044513018974479936,2.0,1
42.79082107543945,-23.95158576965332,0.19363176822662354,-0.0,-0.0,-1.0,0.1068561316398454,1.0,1
42.99656295776367,-23.795129776000977,0.18658816814422607,-0.6687963016812046,-0.020520127730554536,-0.7431624527756128,0.13235502478864375,3.0,1
43.272247314453125,-23.81553077697754,0.1709824800491333,-0.0,-0.0,-1.0,0.0332140501218764,1.0,1
43.68265151977539,-23.714635848999023,0.15087616443634033,-0.0,-0.0,-1.0,0.05095854510404284,1.0,1
44.145076751708984,-23.3785343170166,0.1335822343826294,-0.0,-0.0,-1.0,0.03801595780763568,1.0,1
43.09153366088867,-23.985794067382812,0.2347245216369629,-0.0,-0.0,-1.0,0.05435326296056553,1.0,1
43.23136901855469,-24.009483337402344,0.22585463523864746,-0.0,-0.0,-1.0,0.05334672651109512,1.0,1
42.959835052490234,-23.737720489501953,0.24889373779296875,-0.5747541235838334,0.5028447705467428,-0.6456042395749686,0.127709300332969,3.0,1
43.509586334228516,-23.847469329833984,0.2135019302368164,-0.0,-0.0,-1.0,0.0411474252791889,2.0,1
43.794456481933594,-23.803356170654297,0.19752001762390137,-0.0,-0.0,-1.0,0.06396905884105222,2.0,1
44.06110382080078,-23.59765625,0.18665695190429688,-0.0,-0.0,-1.0,0.06699906114900593,2.0,1
44.4693717956543,-23.58539581298828,0.16187572479248047,-0.0,-0.0,-1.0,0.05620348085344785,1.0,1
43.53553771972656,-24.26953125,0.2690858840942383,-0.0,-0.0,-1.0,0.015108827374715025,2.0,1
43.74649429321289,-24.29677963256836,0.2564074993133545,-0.0,-0.0,-1.0,0.009842770273766453,1.0,1
43.96179962158203,-23.895221710205078,0.25458788871765137,-0.0,-0.0,-1.0,0.042199756543227565,1.0,1
44.37366485595703,-23.976314544677734,0.22864818572998047,-0.0,-0.0,-1.0,0.044762758316282396,2.0,1
42.99581527709961,-23.755908966064453,0.3126363754272461,-0.0,-0.0,-1.0,0.18241289055842536,1.0,1
44.09537887573242,-23.736103057861328,0.2510566711425781,-0.0,-0.0,-1.0,0.07885199445099703,1.0,1
43.574039459228516,-24.334630966186523,0.20501387119293213,-0.0,-0.0,-1.0,0.011684954033125916,1.0,1
43.79192352294922,-24.189558029174805,0.19896423816680908,-0.0,-0.0,-1.0,0.01230380664510069,1.0,1
44.07910919189453,-23.919301986694336,0.19315755367279053,-0.0,-0.0,-1.0,0.05851776681982776,1.0,1
45.18638229370117,-23.97907066345215,0.13653957843780518,-0.0,-0.0,-1.0,0.03299535368961876,1.0,1
42.981876373291016,-23.70969581604004,0.25109899044036865,-0.5747541235838334,0.5028447705467428,-0.6456042395749686,0.12084983038843877,3.0,1
44.38298416137695,-24.301755905151367,0.2878875732421875,-0.0,-0.0,-1.0,0.15382467860567872,1.0,1
42.853271484375,-23.92343521118164,0.1972130537033081,-0.3645892702269842,-0.720527668938974,-0.5898428115428072,0.1148334323925402,3.0,1
43.40384292602539,-24.05767059326172,0.17987585067749023,-0.0,-0.0,-1.0,0.027144435613390652,2.0,1
43.144500732421875,-23.87063980102539,0.19195175170898438,-0.0,-0.0,-1.0,0.0764375704862839,2.0,1
43.28375244140625,-23.8890380859375,0.18803930282592773,-0.0,-0.0,-1.0,0.05458361190653838,2.0,1
43.82746124267578,-24.076892852783203,0.16889476776123047,-0.0,-0.0,-1.0,0.015420919180179819,1.0,1
44.11360549926758,-23.988414764404297,0.16452693939208984,-0.0,-0.0,-1.0,0.05860819898366407,1.0,1
45.11601638793945,-23.804244995117188,0.14451730251312256,-0.0,-0.0,-1.0,0.03448217516816726,1.0,1
42.85971450805664,-23.84786605834961,0.1288241147994995,-0.0,-0.0,-1.0,0.08430845176517295,1.0,1
42.87675476074219,-23.76848602294922,0.13137423992156982,-0.0,-0.0,-1.0,0.07561009865009755,2.0,1
43.25489044189453,-23.584148406982422,0.13250529766082764,-0.0,-0.0,-1.0,0.04891924479027684,2.0,1
43.43626403808594,-23.686588287353516,0.1262294054031372,-0.0,-0.0,-1.0,0.04805448217735028,1.0,1
43.640892028808594,-23.674278259277344,0.12361705303192139,-0.0,-0.0,-1.0,0.02219168239251977,1.0,1
44.628204345703125,-23.7005615234375,0.10719799995422363,-0.12644582164369267,-0.9249453770030663,-0.35845153612379305,0.03954292250769007,3.0,1
44.93614959716797,-23.488258361816406,0.10969936847686768,-0.0,-0.0,-1.0,0.043109612465457345,1.0,1
44.78385925292969,-23.60708999633789,0.10797989368438721,-0.2654298705896933,0.3665844490349252,-0.8917190283516996,0.0546298309497742,3.0,1
45.0656623840332,-23.464515686035156,0.10837256908416748,-0.0,-0.0,-1.0,0.06086452687737115,1.0,1
45.127689361572266,-22.71538543701172,-0.029206514358520508,-0.0,-0.0,-1.0,0.01949817949567959,2.0,0
43.41368865966797,-22.203163146972656,0.024356603622436523,-0.0,-0.0,-1.0,0.016071867007954852,1.0,1
43.60117721557617,-22.458641052246094,0.01740097999572754,-0.0,-0.0,-1.0,0.022343595306908184,1.0,1
43.68132781982422,-22.679821014404297,0.010384559631347656,-0.0,-0.0,-1.0,0.016797757063242765,1.0,1
44.9671516418457,-22.90798568725586,0.015400409698486328,-0.0,-0.0,-1.0,0.019103264033533133,1.0,1
44.56262969970703,-23.373207092285156,0.3047579526901245,-0.0,-0.0,-1.0,0.08172394671219159,1.0,1
44.4389762878418,-23.314979553222656,0.3116265535354614,-0.0,-0.0,-1.0,0.05947978867236284,1.0,1
44.11026382446289,-23.630828857421875,0.3160433769226074,-0.0,-0.0,-1.0,0.07282132178167926,1.0,1
43.84877395629883,-23.717308044433594,0.32445138692855835,-0.0,-0.0,-1.0,0.05389101833643935,1.0,1
43.41022872924805,-23.659992218017578,0.34459400177001953,-0.0,-0.0,-1.0,0.09556752302243036,1.0,1
43.1357421875,-23.939250946044922,0.34794872999191284,-0.0,-0.0,-1.0,0.11439541538099636,1.0,1
42.881473541259766,-23.907119750976562,0.3596670627593994,-0.0,-0.0,-1.0,0.09163735025728684,1.0,1
44.268951416015625,-23.75299644470215,0.2047264575958252,-0.8969837243532868,-0.21756690953269237,0.3848179285346513,0.09341619916635284,3.0,1
45.0205078125,-24.283681869506836,0.21351921558380127,-0.0,-0.0,-1.0,0.03187135707157011,1.0,1
44.813934326171875,-24.148393630981445,0.21079528331756592,0.6761448471144129,-0.6867410508145425,0.2668611527494507,0.07143483827338233,3.0,1
44.67487716674805,-23.566959381103516,0.12624990940093994,-0.0,-0.0,-1.0,0.032744231999151406,1.0,1
44.33406066894531,-23.39016342163086,0.12162184715270996,-0.0,-0.0,-1.0,0.051846316769531095,1.0,1
44.946372985839844,-23.667068481445312,0.13130509853363037,-0.0,-0.0,-1.0,0.056028697927314734,1.0,1
44.68325424194336,-23.66031265258789,0.12328827381134033,-0.0,-0.0,-1.0,0.043937921804293636,1.0,1
43.94838333129883,-23.458030700683594,0.10707473754882812,-0.0,-0.0,-1.0,0.027959774041453025,1.0,1
44.17638397216797,-24.299407958984375,0.2690699100494385,-0.0,-0.0,-1.0,0.05078771119915663,1.0,1
44.69959259033203,-23.311634063720703,0.06474530696868896,-0.0,-0.0,-1.0,0.05207401532242769,2.0,1
44.48221969604492,-23.51610565185547,0.1004558801651001,-0.0,-0.0,-1.0,0.08046155526115822,1.0,1
44.149505615234375,-24.0760498046875,0.16747653484344482,-0.0,-0.0,-1.0,0.06470196276380928,1.0,1
44.81432342529297,-23.21794891357422,0.04660069942474365,-0.0,-0.0,-1.0,0.02281808964739443,1.0,1
42.93613815307617,-23.941917419433594,0.20152533054351807,0.035463380824680125,-0.7698625688462334,-0.6372236449708705,0.11157293232022511,3.0,1
43.16459655761719,-23.02228546142578,0.1536235809326172,-0.0,-0.0,-1.0,0.03565225888845597,1.0,1
44.03809356689453,-24.335926055908203,0.281241774559021,-0.0,-0.0,-1.0,0.043888911124891426,2.0,1
44.12574005126953,-24.067283630371094,0.26863622665405273,-0.7336829367255547,-0.5804583745037423,-0.3532384801040773,0.057982376562083986,3.0,1
44.72785186767578,-24.158058166503906,0.22565031051635742,0.5455041848136291,-0.8015255408639927,0.2449122122179734,0.08068817537430245,6.0,1
44.072349548339844,-24.30500602722168,0.28296589851379395,0.14987869448990587,-0.8658212240023994,-0.47737824102590676,0.04388891112489141,4.0,1
44.265907287597656,-24.073633193969727,0.26685500144958496,-0.0,-0.0,-1.0,0.0535226336589451,1.0,1
44.56478500366211,-24.263551712036133,0.2500087022781372,-0.0,-0.0,-1.0,0.05502282668142391,1.0,1
44.782379150390625,-24.20604133605957,0.23477017879486084,-0.0,-0.0,-1.0,0.07978643489815047,1.0,1
43.005638122558594,-23.21247100830078,0.08402788639068604,-0.0,-0.0,-1.0,0.051678345102084564,2.0,1
42.83162307739258,-23.141700744628906,0.09176552295684814,-0.0,-0.0,-1.0,0.060551287533137516,1.0,1
44.114688873291016,-23.12310028076172,0.041206955909729004,-0.0,-0.0,-1.0,0.017170896062020435,2.0,1
44.59722137451172,-23.148880004882812,0.02103269100189209,-0.0,-0.0,-1.0,0.018206730584506812,1.0,1
44.92504119873047,-23.053791046142578,0.008523821830749512,-0.0,-0.0,-1.0,0.020992392797780597,1.0,1
43.4954833984375,-22.715667724609375,0.07169735431671143,-0.0,-0.0,-1.0,0.022933994886882858,1.0,1
42.91254806518555,-24.1146240234375,0.18658828735351562,-0.0,-0.0,-1.0,0.033300573938131586,2.0,1
42.94916534423828,-23.748004913330078,0.18865156173706055,0.6145076158836585,-0.3744755791117998,-0.6943690882159603,0.12162758090226568,3.0,1
43.39170455932617,-23.890514373779297,0.16733193397521973,-0.053392697051349296,-0.08193108345822475,-0.9952067712113621,0.0419134994316177,3.0,1
43.72911834716797,-23.690227508544922,0.15379786491394043,-0.0,-0.0,-1.0,0.04764281493807105,2.0,1
43.97663879394531,-23.58346176147461,0.14331364631652832,-0.0,-0.0,-1.0,0.06553108686119466,2.0,1
44.16532897949219,-23.521759033203125,0.13500738143920898,-0.0,-0.0,-1.0,0.048994860099431256,1.0,1
44.57295227050781,-23.49075698852539,0.11589884757995605,-0.0,-0.0,-1.0,0.06339277206910045,2.0,1
45.06376266479492,-23.219974517822266,0.09432291984558105,-0.0,-0.0,-1.0,0.029204146912910553,1.0,1
45.054168701171875,-24.15853500366211,0.31271326541900635,-0.0,-0.0,-1.0,0.03139978045742923,1.0,1
43.44379806518555,-23.853595733642578,0.22284424304962158,-0.0,-0.0,-1.0,0.03628515082766831,1.0,1
43.8372802734375,-23.936767578125,0.2448960542678833,-0.0,-0.0,-1.0,0.04510966166835195,2.0,1
43.5841178894043,-23.847522735595703,0.23307335376739502,-0.0,-0.0,-1.0,0.031290281572992254,1.0,1
44.07611846923828,-23.83530044555664,0.2677966356277466,-0.8214840687342222,-0.5143399467719587,-0.24620792832580785,0.0882929624137095,3.0,1
43.42137908935547,-24.064655303955078,0.17899596691131592,-0.0,-0.0,-1.0,0.02889322572806942,2.0,1
42.978355407714844,-23.821823120117188,0.20371079444885254,-0.8082842636470933,0.22513652217588292,-0.5440497178779015,0.12029913043110498,5.0,1
43.659751892089844,-23.970077514648438,0.16787970066070557,-0.0,-0.0,-1.0,0.012750656763764301,1.0,1
43.93138122558594,-23.795955657958984,0.15571844577789307,-0.0,-0.0,-1.0,0.033536346380970576,1.0,1
44.29853439331055,-23.812030792236328,0.13670170307159424,-0.0,-0.0,-1.0,0.06980083110686319,1.0,1
44.49313735961914,-23.635143280029297,0.12829065322875977,-0.0,-0.0,-1.0,0.034329220005432044,1.0,1
44.7984619140625,-23.546443939208984,0.11317276954650879,-0.0,-0.0,-1.0,0.05279648317757671,1.0,1
45.063377380371094,-23.37057113647461,0.10085785388946533,-0.0,-0.0,-1.0,0.033567868283917605,2.0,1
45.16838073730469,-23.29305648803711,0.0960010290145874,-0.0,-0.0,-1.0,0.02661822722777991,1.0,1
43.116207122802734,-23.93912696838379,0.21716761589050293,-0.0,-0.0,-1.0,0.09256068700739531,1.0,1
43.49217987060547,-23.963457107543945,0.20484554767608643,-0.0,-0.0,-1.0,0.04121318957138038,2.0,1
43.798519134521484,-23.92130470275879,0.19609105587005615,-0.0,-0.0,-1.0,0.024921270966861236,1.0,1
44.22972106933594,-23.90925407409668,0.18244671821594238,-0.0,-0.0,-1.0,0.062316207387006835,1.0,1
44.07373046875,-23.804109573364258,0.1899169683456421,-0.0,-0.0,-1.0,0.052901596432058766,2.0,1
44.372413635253906,-23.780385971069336,0.18070924282073975,-0.0,-0.0,-1.0,0.051571554674901224,1.0,1
44.68968963623047,-23.77972984313965,0.17022883892059326,-0.0,-0.0,-1.0,0.05044803550308753,1.0,1
45.04072952270508,-23.6738338470459,0.16084516048431396,-0.0,-0.0,-1.0,0.0553230000797883,2.0,1
44.883392333984375,-23.57633399963379,0.16834092140197754,-0.0,-0.0,-1.0,0.0635174500122796,1.0,1
44.292572021484375,-24.212318420410156,0.34273844957351685,-0.10738220346071549,-0.6435751350666368,-0.7578127129468609,0.09559554342039889,6.0,1
44.56502151489258,-24.205551147460938,0.32859718799591064,-0.0,-0.0,-1.0,0.06449407141405279,1.0,1
44.34684753417969,-24.193626403808594,0.2946234345436096,0.8848099173245617,-0.2880312758623884,0.36626410461467174,0.19759142417572062,4.0,1
44.81536865234375,-24.28820037841797,0.2644866704940796,-0.0,-0.0,-1.0,0.06791511465141445,1.0,1
45.12617111206055,-24.16179656982422,0.24802255630493164,-0.0,-0.0,-1.0,0.03242506652508753,2.0,1
44.328857421875,-24.23804473876953,0.2944282293319702,0.9076802997420267,-0.23904972078255282,0.34492275142995155,0.20223705811466244,7.0,1
44.919429779052734,-24.321401596069336,0.2654160261154175,-0.0,-0.0,-1.0,0.04405533893775799,2.0,1
43.15053176879883,-21.998979568481445,0.056862473487854004,-0.0,-0.0,-1.0,0.010612758536716003,1.0,1
42.782249450683594,-24.17072105407715,0.21575307846069336,-0.0,-0.0,-1.0,0.0673678806854963,2.0,1
42.96466827392578,-23.858352661132812,0.21868908405303955,0.8987420476635306,-0.405325914154108,-0.16725320647658995,0.11627862739447088,3.0,1
43.175804138183594,-24.052658081054688,0.2027803659439087,-0.0,-0.0,-1.0,0.03495362559963411,1.0,1
43.53472900390625,-23.904966354370117,0.19203293323516846,-0.0,-0.0,-1.0,0.039254638284354285,1.0,1
43.357872009277344,-23.992233276367188,0.19686520099639893,-0.0,-0.0,-1.0,0.033756389982560565,1.0,1
43.84483337402344,-23.832416534423828,0.18061625957489014,-0.09970187272186416,0.017553978053151183,-0.9948625002633595,0.05870640944710622,5.0,1
44.257083892822266,-23.776506423950195,0.1637721061706543,-0.9494949763769325,-0.2873115866824948,0.12614016803919337,0.07796528428351097,4.0,1
44.79465103149414,-23.651527404785156,0.1422957181930542,-0.0,-0.0,-1.0,0.0560647591371431,2.0,1
44.557125091552734,-23.860082626342773,0.14638733863830566,-0.0,-0.0,-1.0,0.02471007113288795,1.0,1
45.041778564453125,-23.692840576171875,0.12916648387908936,-0.0,-0.0,-1.0,0.05683633937495206,2.0,1
43.061161041259766,-23.753662109375,0.175805926322937,-0.0,-0.0,-1.0,0.1323982461514291,2.0,1
42.896915435791016,-24.034175872802734,0.16769087314605713,-0.0,-0.0,-1.0,0.08288522692418579,1.0,1
43.41804885864258,-23.853975296020508,0.16291046142578125,-0.0,-0.0,-1.0,0.03944002127543938,2.0,1
43.82198715209961,-23.751239776611328,0.15720653533935547,-0.0,-0.0,-1.0,0.057607677414125986,1.0,1
44.209774017333984,-23.733165740966797,0.14798331260681152,-0.0,-0.0,-1.0,0.09005064099802086,2.0,1
44.59360122680664,-23.70808982849121,0.13883042335510254,-0.0,-0.0,-1.0,0.03862252969562285,2.0,1
45.023841857910156,-23.535171508789062,0.13427197933197021,-0.0,-0.0,-1.0,0.048997021882087315,2.0,1
43.00596618652344,-23.670284271240234,0.17773723602294922,-0.0,-0.0,-1.0,0.08982618028529316,1.0,1
42.83821105957031,-23.894962310791016,0.17174077033996582,-0.0,-0.0,-1.0,0.1306028497016874,2.0,1
43.34351348876953,-23.711158752441406,0.1678001880645752,-0.0,-0.0,-1.0,0.060862972268920255,1.0,1
43.90068054199219,-23.570940017700195,0.16001677513122559,-0.0,-0.0,-1.0,0.056157345656254624,1.0,1
43.69643020629883,-23.665088653564453,0.1610729694366455,-0.0,-0.0,-1.0,0.043944189291554484,2.0,1
44.159889221191406,-23.587818145751953,0.15253472328186035,-0.0,-0.0,-1.0,0.0632969071572241,1.0,1
44.58811950683594,-23.618850708007812,0.13975799083709717,-0.0,-0.0,-1.0,0.03189805656884411,1.0,1
44.913753509521484,-23.416269302368164,0.13960134983062744,-0.0,-0.0,-1.0,0.038899996501459644,1.0,1
43.555545806884766,-21.896949768066406,0.16410183906555176,-0.0,-0.0,-1.0,0.018751951141413373,1.0,1
42.98777389526367,-23.023345947265625,0.12672102451324463,-0.0,-0.0,-1.0,0.04273485853009199,2.0,1
42.793331146240234,-23.12401580810547,0.12773215770721436,-0.0,-0.0,-1.0,0.060551287533137495,2.0,1
43.48162841796875,-22.877843856811523,0.11814796924591064,-0.0,-0.0,-1.0,0.01595219641934328,1.0,1
43.262298583984375,-23.037893295288086,0.11729621887207031,-0.0,-0.0,-1.0,0.03077225173491097,1.0,1
44.11958312988281,-23.107769012451172,0.08560991287231445,0.326156577434443,0.8818843903884368,-0.34044354742815286,0.019435827674605156,3.0,1
43.84822463989258,-23.104581832885742,0.09485697746276855,-0.0,-0.0,-1.0,0.020003319755695075,1.0,1
44.727813720703125,-23.05881690979004,0.06695365905761719,-0.0,-0.0,-1.0,0.01638288484708342,1.0,1
44.39372634887695,-23.115873336791992,0.07582509517669678,-0.0,-0.0,-1.0,0.03643165851058117,1.0,1
45.068572998046875,-23.018678665161133,0.05675232410430908,-0.0,-0.0,-1.0,0.022488066861940686,1.0,1
44.914337158203125,-23.03191375732422,0.061646342277526855,-0.0,-0.0,-1.0,0.022138304349215633,1.0,1
45.18803405761719,-23.35059356689453,0.23607087135314941,-0.0,-0.0,-1.0,0.02990255456708062,1.0,1
45.1486930847168,-23.60689353942871,0.2315840721130371,-0.0,-0.0,-1.0,0.04876597107804888,1.0,1
44.79478454589844,-23.732481002807617,0.2486659288406372,-0.0,-0.0,-1.0,0.04362912853973231,1.0,1
44.37419891357422,-23.667036056518555,0.2745354175567627,-0.0,-0.0,-1.0,0.04828938139486042,1.0,1
44.27985763549805,-23.94013214111328,0.27265608310699463,-0.0,-0.0,-1.0,0.059414010705919104,1.0,1
44.4320182800293,-22.246753692626953,0.05800986289978027,-0.0,-0.0,-1.0,0.003363807122605773,1.0,1
44.242279052734375,-22.171255111694336,0.06334877014160156,-0.0,-0.0,-1.0,0.01448131032277076,1.0,1
45.05946731567383,-22.496068954467773,0.04024934768676758,-0.0,-0.0,-1.0,0.012689051447614421,1.0,1
44.699073791503906,-22.399383544921875,0.04749596118927002,-0.0,-0.0,-1.0,0.009060203354822709,1.0,1
43.21727752685547,-22.641239166259766,-0.09076964855194092,-0.0,-0.0,-1.0,0.015420343040961616,1.0,0
43.21348571777344,-23.13239097595215,-0.09061133861541748,-0.0,-0.0,-1.0,0.027539509944025674,1.0,0
42.807533264160156,-23.427446365356445,-0.050821781158447266,-0.0,-0.0,-1.0,0.03694738628261189,1.0,0
44.479164123535156,-24.088504791259766,0.24993330240249634,-0.0,-0.0,-1.0,0.04728453340143834,1.0,1
42.75025939941406,-23.824752807617188,0.059029579162597656,-0.0,-0.0,-1.0,0.0771304157804129,1.0,1
44.162654876708984,-24.2041015625,0.24187910556793213,-0.0,-0.0,-1.0,0.053090650138645744,2.0,1
44.09604263305664,-23.852310180664062,0.23685288429260254,-0.8214840687342222,-0.5143399467719587,-0.24620792832580785,0.066598181217483,3.0,1
44.41779327392578,-24.008331298828125,0.21801555156707764,-0.0,-0.0,-1.0,0.04182387113475151,1.0,1
44.22626495361328,-24.135391235351562,0.264575719833374,0.5469974991359327,-0.7112931723183497,-0.4414246922775545,0.06435498497048804,3.0,1
44.70486068725586,-24.172321319580078,0.23075568675994873,0.9969369717377534,0.0758885216152707,0.01891049098797289,0.08071473856879673,6.0,1
44.84503936767578,-24.114452362060547,0.2193291187286377,0.7335331843704049,-0.666317929723384,0.13397568419887584,0.051422705816672645,4.0,1
44.88554763793945,-23.920764923095703,0.2121295928955078,-0.623826520002241,-0.6909222183781114,-0.3653313031939128,0.04439238925116427,4.0,1
43.931495666503906,-24.231060028076172,0.2445991039276123,-0.0,-0.0,-1.0,0.025267627711285077,1.0,1
44.08026123046875,-23.82299041748047,0.2282578945159912,-0.8052399206536195,-0.5581433833609388,-0.20016151926920464,0.08829296241370944,4.0,1
44.568267822265625,-24.02139663696289,0.19875192642211914,-0.0,-0.0,-1.0,0.03741806855454782,1.0,1
44.81960678100586,-23.741737365722656,0.1774742603302002,-0.0,-0.0,-1.0,0.047523802072380945,1.0,1
44.31707000732422,-24.155895233154297,0.2762209177017212,-0.0,-0.0,-1.0,0.09050102788086334,2.0,1
44.72464370727539,-24.25503158569336,0.24981987476348877,0.1829256449000221,-0.6578869547956524,-0.7305634559349475,0.07918462530857524,3.0,1
45.02326965332031,-24.186084747314453,0.22797417640686035,-0.0,-0.0,-1.0,0.03382733064730236,1.0,1
43.348609924316406,-24.04395294189453,0.17448794841766357,-0.0,-0.0,-1.0,0.03275024814977967,2.0,1
43.60212707519531,-23.94715118408203,0.1690998077392578,-0.0,-0.0,-1.0,0.02646890316269671,2.0,1
43.97779083251953,-23.923316955566406,0.1591482162475586,-0.0,-0.0,-1.0,0.041287124299529715,1.0,1
44.41464614868164,-23.964038848876953,0.1464306116104126,-0.0,-0.0,-1.0,0.040722180287694,2.0,1
44.785499572753906,-23.658164978027344,0.1409543752670288,-0.0,-0.0,-1.0,0.05352948719739059,2.0,1
44.95725631713867,-23.564067840576172,0.13763821125030518,-0.0,-0.0,-1.0,0.05174382854958832,1.0,1
43.510597229003906,-22.52962875366211,0.11347627639770508,-0.0,-0.0,-1.0,0.019988044845396773,1.0,1
43.74327087402344,-22.543930053710938,0.11084914207458496,-0.0,-0.0,-1.0,0.011956907293124517,1.0,1
44.20939636230469,-24.01312828063965,0.2224748134613037,-0.0,-0.0,-1.0,0.0706846962669919,2.0,1
44.08924102783203,-24.316349029541016,0.22814404964447021,-0.0,-0.0,-1.0,0.04388891112489146,2.0,1
44.665283203125,-24.220012664794922,0.19919872283935547,-0.0,-0.0,-1.0,0.07794589148850706,2.0,1
44.92200469970703,-24.112855911254883,0.1864473819732666,-0.0,-0.0,-1.0,0.05469370859685403,1.0,1
42.9998779296875,-21.95521354675293,0.13204729557037354,-0.0,-0.0,-1.0,0.01189698024840083,1.0,1
43.14867401123047,-22.547687530517578,0.10916256904602051,-0.0,-0.0,-1.0,0.01892180835260134,1.0,1
43.64037322998047,-22.088848114013672,0.08271908760070801,-0.0,-0.0,-1.0,0.02096674398104695,1.0,1
43.680755615234375,-21.99121856689453,0.08174097537994385,-0.0,-0.0,-1.0,0.022253448946161915,1.0,1
44.21571731567383,-21.9955997467041,0.04259037971496582,-0.0,-0.0,-1.0,0.010756332684970718,1.0,1
44.52793502807617,-21.968000411987305,0.02029597759246826,-0.0,-0.0,-1.0,0.0037154061069312695,1.0,1
44.333343505859375,-24.175676345825195,0.33338212966918945,0.8456672322681291,0.07567616945643123,0.5283181329884142,0.09736700835748567,4.0,1
44.893524169921875,-24.19703483581543,0.27506911754608154,-0.0,-0.0,-1.0,0.0448760933149044,2.0,1
42.740623474121094,-23.662418365478516,0.1110994815826416,-0.0,-0.0,-1.0,0.07320185836810399,1.0,1
43.65045166015625,-22.72769546508789,0.08374369144439697,-0.0,-0.0,-1.0,0.017315162176501784,1.0,1
43.366363525390625,-23.170089721679688,0.08716797828674316,-0.0,-0.0,-1.0,0.024730617953929973,2.0,1
43.73377227783203,-23.187307357788086,0.06141507625579834,-0.0,-0.0,-1.0,0.019037165492241905,1.0,1
44.471214294433594,-22.88600730895996,0.021234869956970215,-0.0,-0.0,-1.0,0.015265238629967601,2.0,1
44.79438018798828,-22.775102615356445,0.0025391578674316406,-0.0,-0.0,-1.0,0.01193430561530767,1.0,1
44.538063049316406,-22.83747673034668,0.01828181743621826,-0.0,-0.0,-1.0,0.01225537416051113,1.0,1
45.027854919433594,-22.69108009338379,-0.010931134223937988,-0.0,-0.0,-1.0,0.01613344836261464,1.0,0
44.352779388427734,-24.108917236328125,0.31382226943969727,-0.0,-0.0,-1.0,0.05545222988886932,1.0,1
44.60174560546875,-24.023412704467773,0.2800326347351074,-0.0,-0.0,-1.0,0.044501553989570515,1.0,1
44.67134094238281,-24.215059280395508,0.28032541275024414,-0.0,-0.0,-1.0,0.08588485449115452,2.0,1
44.921974182128906,-23.479633331298828,0.21640682220458984,-0.0,-0.0,-1.0,0.05420799740947802,1.0,1
44.89910888671875,-23.94702911376953,0.24079680442810059,-0.623826520002241,-0.6909222183781114,-0.3653313031939128,0.04495969248053428,4.0,1
43.74069595336914,-21.909154891967773,0.28372859954833984,-0.0,-0.0,-1.0,0.021271602002348042,1.0,1
44.71564483642578,-24.154476165771484,0.3397963047027588,-0.0,-0.0,-1.0,0.0837588267651042,1.0,1
45.14845275878906,-24.12221336364746,0.28690648078918457,-0.0,-0.0,-1.0,0.028458577659135436,1.0,1
42.7479248046875,-22.309375762939453,0.06749629974365234,-0.0,-0.0,-1.0,0.009785403892787741,1.0,1
42.77287292480469,-22.20824432373047,0.05975055694580078,-0.0,-0.0,-1.0,0.009673761148018762,1.0,1
43.515384674072266,-24.103384017944336,0.22611117362976074,-0.0,-0.0,-1.0,0.023973091985367605,1.0,1
43.51500701904297,-24.255556106567383,0.23026251792907715,-0.0,-0.0,-1.0,0.015108827374715025,2.0,1
43.02449417114258,-23.783775329589844,0.281358003616333,0.8568512470741204,0.29515541882238455,-0.4227164760537585,0.19186675092168223,3.0,1
43.559295654296875,-24.040372848510742,0.21863555908203125,-0.0,-0.0,-1.0,0.031416826357799625,2.0,1
43.640106201171875,-23.907665252685547,0.2043161392211914,-0.0,-0.0,-1.0,0.01747446462303459,1.0,1
43.95280456542969,-23.621599197387695,0.15470194816589355,-0.0,-0.0,-1.0,0.06865531578113153,2.0,1
44.08338165283203,-23.274471282958984,0.12653136253356934,-0.0,-0.0,-1.0,0.010044499613785028,1.0,1
44.568763732910156,-22.94025421142578,0.05080533027648926,-0.0,-0.0,-1.0,0.015956279030444026,2.0,1
44.79509735107422,-22.605907440185547,0.008536815643310547,-0.35055846778014205,-0.22793360937342672,-0.9083804436389202,0.014570351264589453,3.0,1
43.62842559814453,-21.905353546142578,0.13766098022460938,-0.0,-0.0,-1.0,0.020227879664634824,1.0,1
44.823699951171875,-22.179922103881836,-0.011704444885253906,-0.0,-0.0,-1.0,0.004946082309650656,1.0,0
44.78765869140625,-21.89803695678711,-0.01817035675048828,-0.0,-0.0,-1.0,0.004932348332598902,2.0,0
44.34334182739258,-23.12957191467285,0.10099506378173828,-0.0,-0.0,-1.0,0.03398835295480762,2.0,1
44.49666976928711,-23.000255584716797,0.07822036743164062,-0.0,-0.0,-1.0,0.019208602715773675,1.0,1
44.71553039550781,-22.847585678100586,0.04582333564758301,-0.0,-0.0,-1.0,0.01336418669777464,1.0,1
44.90299606323242,-22.538917541503906,0.015128850936889648,-0.0,-0.0,-1.0,0.013506721554075939,1.0,1
44.93414306640625,-22.11777114868164,0.003599882125854492,-0.0,-0.0,-1.0,0.004756893470641732,2.0,1
43.39508056640625,-24.292667388916016,0.239180326461792,-0.0,-0.0,-1.0,0.013870680734200294,1.0,1
43.52265167236328,-23.988170623779297,0.2206406593322754,-0.0,-0.0,-1.0,0.03296670919797668,2.0,1
43.761932373046875,-23.790145874023438,0.18692898750305176,-0.0,-0.0,-1.0,0.0558458480029237,2.0,1
43.9791145324707,-23.509109497070312,0.15502023696899414,-0.0,-0.0,-1.0,0.05288095072019813,1.0,1
44.04720687866211,-23.320159912109375,0.14390850067138672,-0.0,-0.0,-1.0,0.010512312178980706,1.0,1
42.847442626953125,-24.312458038330078,0.20188426971435547,-0.8350021494620571,0.19451347501480346,-0.5147192617645173,0.030893364302324165,3.0,1
42.95859909057617,-23.856719970703125,0.18211936950683594,0.8152007071107086,-0.4997933351737893,-0.2926677796445332,0.09333624570482216,4.0,1
43.117713928222656,-23.640174865722656,0.15450644493103027,-0.0,-0.0,-1.0,0.05375337470800499,2.0,1
43.05598831176758,-23.067115783691406,0.1589522361755371,-0.0,-0.0,-1.0,0.04132927989042317,1.0,1
43.252838134765625,-23.121234893798828,0.12662267684936523,-0.0,-0.0,-1.0,0.0260146221693622,1.0,1
43.44664764404297,-22.677316665649414,0.08754396438598633,-0.0,-0.0,-1.0,0.021614849446179127,1.0,1
43.51852035522461,-22.315881729125977,0.06857895851135254,-0.0,-0.0,-1.0,0.019823779468524583,1.0,1
43.22306442260742,-21.90267562866211,0.10985040664672852,-0.0,-0.0,-1.0,0.013199801063567522,2.0,1
43.4578742980957,-24.03917694091797,0.23987054824829102,-0.0,-0.0,-1.0,0.03064486233041509,1.0,1
43.546104431152344,-24.20941734313965,0.225508451461792,-0.0,-0.0,-1.0,0.012777505978449068,1.0,1
43.040138244628906,-23.789880752563477,0.3088057041168213,-0.0,-0.0,-1.0,0.19019318242052796,2.0,1
43.779842376708984,-23.85671615600586,0.1850588321685791,-0.0,-0.0,-1.0,0.05767339318909089,1.0,1
43.951141357421875,-23.707639694213867,0.15531015396118164,-0.0,-0.0,-1.0,0.06561425806676482,2.0,1
44.04916763305664,-23.464073181152344,0.1365361213684082,-0.0,-0.0,-1.0,0.03931521397349154,1.0,1
44.31675720214844,-23.156574249267578,0.08733487129211426,-0.0,-0.0,-1.0,0.03528343146142884,2.0,1
44.55006408691406,-22.9659423828125,0.044550418853759766,-0.0,-0.0,-1.0,0.017952517670791056,2.0,1
44.736419677734375,-22.726985931396484,0.008270263671875,-0.0,-0.0,-1.0,0.01173169999146747,2.0,1
44.80434799194336,-22.338260650634766,-0.011394500732421875,-0.0,-0.0,-1.0,0.006280075050208029,1.0,0
44.750186920166016,-21.922489166259766,-0.011832237243652344,-0.0,-0.0,-1.0,0.004378247843054007,2.0,0
44.09608459472656,-24.3068904876709,0.24609661102294922,0.40129163986092475,-0.8645482177316794,0.30252503862441904,0.04388891112489142,3.0,1
44.079864501953125,-23.924373626708984,0.24642658233642578,-0.0,-0.0,-1.0,0.058517766819827774,1.0,1
44.308441162109375,-23.936622619628906,0.20671653747558594,0.5366108443216031,-0.8436289904651773,0.018410002801802113,0.06864165386222174,3.0,1
44.5662841796875,-23.784095764160156,0.16036248207092285,-0.0,-0.0,-1.0,0.04501346332010027,1.0,1
44.74900817871094,-23.588890075683594,0.12583565711975098,-0.0,-0.0,-1.0,0.055342634279558725,2.0,1
44.88271713256836,-23.2031307220459,0.09634637832641602,-0.0,-0.0,-1.0,0.025465126176890156,1.0,1
43.181915283203125,-23.74378204345703,0.4007132053375244,-0.0,-0.0,-1.0,0.1585636368658677,1.0,1
44.787696838378906,-24.321617126464844,0.298053503036499,-0.0,-0.0,-1.0,0.06543549297128802,2.0,1
42.8931999206543,-23.77892303466797,0.14840435981750488,-0.0,-0.0,-1.0,0.09103748251511842,2.0,1
45.039039611816406,-24.14344024658203,0.2524092197418213,-0.0,-0.0,-1.0,0.032425066525087524,1.0,1
42.799537658691406,-23.282468795776367,0.17237091064453125,-0.0,-0.0,-1.0,0.02987806875843186,1.0,1
42.970855712890625,-23.036300659179688,0.13751554489135742,-0.0,-0.0,-1.0,0.042583242300578646,2.0,1
43.20444107055664,-22.583799362182617,0.08755970001220703,-0.0,-0.0,-1.0,0.017089125623472784,1.0,1
43.26123046875,-22.24819564819336,0.0730900764465332,-0.0,-0.0,-1.0,0.016962441907755685,1.0,1
44.76976013183594,-24.31309700012207,0.3011157512664795,-0.0,-0.0,-1.0,0.07728451708108826,2.0,1
43.107608795166016,-23.841732025146484,0.20255160331726074,-0.0,-0.0,-1.0,0.10549636288926924,2.0,1
43.22795867919922,-23.710798263549805,0.18744349479675293,-0.0,-0.0,-1.0,0.12221027502421777,1.0,1
43.4144401550293,-23.535572052001953,0.16117334365844727,-0.0,-0.0,-1.0,0.03051836524939658,1.0,1
43.63410949707031,-23.1560115814209,0.13857650756835938,-0.0,-0.0,-1.0,0.01790567607084974,1.0,1
43.57820129394531,-22.892704010009766,0.1633443832397461,-0.0,-0.0,-1.0,0.023318555220573974,1.0,1
43.98927688598633,-22.79950714111328,0.08436703681945801,-0.0,-0.0,-1.0,0.04090875408185694,1.0,1
44.20180130004883,-22.498807907104492,0.053920745849609375,-0.0,-0.0,-1.0,0.021836993816058026,1.0,1
44.311641693115234,-22.207061767578125,0.04260087013244629,-0.0,-0.0,-1.0,0.013336451832448476,1.0,1
44.439849853515625,-22.011802673339844,0.022805213928222656,-0.0,-0.0,-1.0,0.0038385269986840435,1.0,1
42.93735885620117,-24.09111213684082,0.21906661987304688,-0.8750777626813713,-0.32729887801444235,0.35653099964947366,0.06152516287053156,4.0,1
42.992713928222656,-23.98797607421875,0.2153480052947998,-0.0,-0.0,-1.0,0.0856403470440198,2.0,1
44.563926696777344,-24.323505401611328,0.387744665145874,-0.0,-0.0,-1.0,0.045577864471403086,1.0,1
43.54069519042969,-21.946088790893555,0.211747407913208,-0.0,-0.0,-1.0,0.018751951141413366,1.0,1
43.83687973022461,-23.854412078857422,0.18157219886779785,-0.09970187272186416,0.017553978053151183,-0.9948625002633595,0.058796025783245935,5.0,1
43.871334075927734,-23.82073974609375,0.17974233627319336,-0.09970187272186416,0.017553978053151183,-0.9948625002633595,0.05835495869751637,5.0,1
44.05093765258789,-23.666975021362305,0.16715478897094727,-0.0,-0.0,-1.0,0.06472697571959898,1.0,1
42.87080383300781,-22.59052848815918,0.08106493949890137,-0.0,-0.0,-1.0,0.01898386443018034,1.0,1
44.38775634765625,-23.483402252197266,0.13070201873779297,-0.0,-0.0,-1.0,0.05919527693504588,1.0,1
44.6103630065918,-23.36257553100586,0.10573959350585938,-0.0,-0.0,-1.0,0.07213408474136028,1.0,1
43.03243637084961,-22.267654418945312,0.08491396903991699,-0.0,-0.0,-1.0,0.009505800849896667,1.0,1
44.800445556640625,-23.149066925048828,0.0950782299041748,-0.0,-0.0,-1.0,0.02037205060309777,1.0,1
43.02375411987305,-21.875873565673828,0.12912392616271973,-0.0,-0.0,-1.0,0.011859450805666421,1.0,1
43.20355224609375,-21.916667938232422,0.0870513916015625,-0.0,-0.0,-1.0,0.013199801063567522,2.0,1
45.14143371582031,-22.94023323059082,0.056844234466552734,-0.0,-0.0,-1.0,0.016424004185005617,1.0,1
43.17038345336914,-24.220909118652344,0.24631857872009277,-0.0,-0.0,-1.0,0.028199759412233606,1.0,1
43.29667282104492,-24.20335578918457,0.22808241844177246,-0.0,-0.0,-1.0,0.022142649966187127,2.0,1
43.6160774230957,-23.95870018005371,0.20568037033081055,-0.0,-0.0,-1.0,0.02277872559802756,2.0,1
44.14170837402344,-22.68122673034668,0.25515174865722656,-0.0,-0.0,-1.0,0.031767077721413586,1.0,1
42.935646057128906,-23.873043060302734,0.17638826370239258,-0.0,-0.0,-1.0,0.08556321980479199,2.0,1
43.22027587890625,-23.582679748535156,0.14250445365905762,-0.0,-0.0,-1.0,0.0764056161833709,2.0,1
44.30021667480469,-24.323522567749023,0.3162651062011719,-0.0,-0.0,-1.0,0.18707091669284395,2.0,1
43.502357482910156,-23.282672882080078,0.10679340362548828,-0.0,-0.0,-1.0,0.025893519697183887,2.0,1
44.32835388183594,-24.236793518066406,0.317246675491333,-0.4440160662729456,-0.8299255939929397,0.33774730395217917,0.10587148293124032,6.0,1
44.732696533203125,-24.248214721679688,0.2456974983215332,0.1829256449000221,-0.6578869547956524,-0.7305634559349475,0.07918462530857522,3.0,1
43.51954650878906,-22.8062744140625,0.13674211502075195,-0.2275058099484136,0.9735872842086765,-0.019206937988394804,0.015776711774348497,3.0,1
43.655174255371094,-22.92711067199707,0.09946823120117188,-0.0,-0.0,-1.0,0.022971814950080098,1.0,1
44.99645233154297,-24.115482330322266,0.20763540267944336,-0.0,-0.0,-1.0,0.03158866877400954,1.0,1
43.99505615234375,-22.606159210205078,0.04650092124938965,-0.0,-0.0,-1.0,0.029341364797640098,1.0,1
44.2088623046875,-22.347227096557617,0.014329671859741211,-0.0,-0.0,-1.0,0.016079365190217517,1.0,1
44.409690856933594,-21.921485900878906,-0.009012460708618164,-0.0,-0.0,-1.0,0.003838526998684056,2.0,0
42.72041702270508,-24.17861557006836,0.22266912460327148,-0.0,-0.0,-1.0,0.07295201211033339,1.0,1
42.887367248535156,-23.949073791503906,0.2074570655822754,-0.04765627873720058,-0.424620129178293,-0.9041164886194325,0.11225359906127289,3.0,1
42.86341094970703,-24.298355102539062,0.18130922317504883,-0.8350021494620571,0.19451347501480346,-0.5147192617645173,0.03146427417546369,3.0,1
43.089256286621094,-23.718814849853516,0.18317341804504395,-0.0,-0.0,-1.0,0.10171345500931099,2.0,1
43.56435012817383,-23.26888656616211,0.11223292350769043,-0.0,-0.0,-1.0,0.014558493256748666,2.0,1
43.44499969482422,-23.466930389404297,0.12446904182434082,-0.0,-0.0,-1.0,0.024092812491040876,1.0,1
43.65321350097656,-23.01242446899414,0.10925412178039551,-0.0,-0.0,-1.0,0.02015295069047112,1.0,1
44.68804931640625,-24.256650924682617,0.24211525917053223,0.1829256449000221,-0.6578869547956524,-0.7305634559349475,0.08615349696470796,3.0,1
43.481929779052734,-21.883575439453125,0.20912694931030273,-0.0,-0.0,-1.0,0.018751951141413366,2.0,1
43.98374557495117,-22.703628540039062,0.05287575721740723,-0.0,-0.0,-1.0,0.03908245217869328,1.0,1
44.785308837890625,-24.064353942871094,0.23566770553588867,-0.0,-0.0,-1.0,0.07740217339785004,1.0,1
44.23662567138672,-22.26483917236328,0.017296552658081055,-0.0,-0.0,-1.0,0.015831228489186805,2.0,1
44.149925231933594,-22.470434188842773,0.027348756790161133,-0.0,-0.0,-1.0,0.020401969213844615,2.0,1
44.379669189453125,-21.949024200439453,-0.0024788379669189453,-0.0,-0.0,-1.0,0.011189711404456425,2.0,0
44.30705261230469,-24.22117042541504,0.3151071071624756,-0.4792934719492388,-0.86324109207497,0.15840639096973794,0.10839186126690147,8.0,1
44.47630310058594,-24.329587936401367,0.2766139507293701,-0.0,-0.0,-1.0,0.09635494868351657,1.0,1
42.71242904663086,-22.256593704223633,0.06586813926696777,-0.0,-0.0,-1.0,0.009785403892787758,1.0,1
42.716705322265625,-22.433177947998047,0.057480812072753906,-0.0,-0.0,-1.0,0.007850403795438101,1.0,1
42.778053283691406,-22.044939041137695,0.05415225028991699,-0.0,-0.0,-1.0,0.009673761148018765,1.0,1
42.826995849609375,-22.31618309020996,0.03078603744506836,-0.0,-0.0,-1.0,0.00928765451323354,2.0,1
43.967384338378906,-22.912378311157227,0.06781721115112305,-0.0,-0.0,-1.0,0.04345076417757369,2.0,1
44.148536682128906,-22.47104263305664,0.036951303482055664,-0.0,-0.0,-1.0,0.020401969213844615,2.0,1
44.058502197265625,-22.707378387451172,0.05225825309753418,-0.0,-0.0,-1.0,0.03416188862136201,2.0,1
44.29833221435547,-21.99525260925293,0.009684085845947266,-0.0,-0.0,-1.0,0.011124147568322586,1.0,1
44.21779251098633,-22.262487411499023,0.024681568145751953,-0.0,-0.0,-1.0,0.015831228489186798,2.0,1
42.747337341308594,-24.17144775390625,0.29469990730285645,-0.0,-0.0,-1.0,0.06736788068549629,1.0,1
43.03112030029297,-23.854934692382812,0.2487950325012207,-0.0,-0.0,-1.0,0.11795957604184974,2.0,1
43.14741516113281,-24.181747436523438,0.19940495491027832,-0.0,-0.0,-1.0,0.02960634255480047,1.0,1
43.07826614379883,-23.798124313354492,0.24106049537658691,-0.0,-0.0,-1.0,0.18526832472744786,1.0,1
43.351600646972656,-23.891382217407227,0.1695549488067627,-0.0,-0.0,-1.0,0.03701474177726575,2.0,1
43.6302375793457,-23.510417938232422,0.12377333641052246,-0.0,-0.0,-1.0,0.02609510944257686,1.0,1
43.48542022705078,-23.734909057617188,0.14683079719543457,-0.0,-0.0,-1.0,0.06230681822608382,1.0,1
43.46709060668945,-21.87489891052246,0.22159290313720703,-0.0,-0.0,-1.0,0.017387708155638597,2.0,1
43.85624313354492,-23.030059814453125,0.09070301055908203,-0.0,-0.0,-1.0,0.019772279449173254,2.0,1
43.794776916503906,-23.22747802734375,0.09738755226135254,-0.0,-0.0,-1.0,0.018111322084373323,1.0,1
44.04973220825195,-22.523456573486328,0.06021285057067871,-0.0,-0.0,-1.0,0.0258046351153148,1.0,1
43.95967483520508,-22.872753143310547,0.0711977481842041,-0.0,-0.0,-1.0,0.04013276045263719,2.0,1
44.80859375,-24.147218704223633,0.22735023498535156,0.6761448471144129,-0.6867410508145425,0.2668611527494507,0.07776459855443553,3.0,1
44.07387161254883,-22.054269790649414,0.0653073787689209,-0.0,-0.0,-1.0,0.00943205239478597,1.0,1
45.05672836303711,-23.80512809753418,0.18956589698791504,-0.0,-0.0,-1.0,0.03748717344010939,1.0,1
44.9478759765625,-23.981678009033203,0.2054736614227295,-0.0,-0.0,-1.0,0.04566051280543972,1.0,1
44.63422775268555,-23.416765213012695,0.0820913314819336,-0.0,-0.0,-1.0,0.06670185759885403,1.0,1
44.5206184387207,-23.591815948486328,0.10184121131896973,-0.0,-0.0,-1.0,0.034302068261464494,1.0,1
43.655120849609375,-24.319072723388672,0.26431989669799805,-0.0,-0.0,-1.0,0.010688840793832925,2.0,1
44.00682830810547,-23.918790817260742,0.20714974403381348,-0.0,-0.0,-1.0,0.04437587745932049,1.0,1
43.893672943115234,-24.21367073059082,0.21567177772521973,-0.0,-0.0,-1.0,0.027184262678494962,1.0,1
44.27748489379883,-23.75291633605957,0.15194344520568848,-0.32009693603335276,-0.18870018958389,-0.9284019549705093,0.07155002483820225,3.0,1
42.877479553222656,-22.399810791015625,0.0475010871887207,-0.0,-0.0,-1.0,0.007778881029186284,1.0,1
42.8194580078125,-22.603845596313477,0.06875753402709961,-0.0,-0.0,-1.0,0.01898386443018034,1.0,1
42.76519012451172,-22.92435646057129,0.08897924423217773,-0.0,-0.0,-1.0,0.014729429685792595,1.0,1
42.73843002319336,-22.987327575683594,0.09716486930847168,-0.0,-0.0,-1.0,0.034896947042162695,1.0,1
44.47320556640625,-21.913423538208008,-0.013079404830932617,-0.0,-0.0,-1.0,0.003769439553635957,1.0,0
44.49798583984375,-22.23305892944336,-0.009330272674560547,-0.0,-0.0,-1.0,0.0034933170411510783,1.0,0
43.48716354370117,-21.947452545166016,0.23038983345031738,-0.0,-0.0,-1.0,0.018751951141413405,1.0,1
43.69999694824219,-22.058530807495117,0.18181681632995605,-0.0,-0.0,-1.0,0.021267017585708942,1.0,1
45.204132080078125,-23.445676803588867,0.1421496868133545,-0.6491559415761827,-0.7201128964902215,-0.2450183254877127,0.04867406797065417,3.0,1
45.039634704589844,-23.534324645996094,0.16507172584533691,-0.0,-0.0,-1.0,0.04734605129518701,2.0,1
44.79883575439453,-23.549602508544922,0.19803452491760254,-0.0,-0.0,-1.0,0.051926737070113346,1.0,1
44.81700897216797,-23.806726455688477,0.19701600074768066,-0.0,-0.0,-1.0,0.04473739499188344,1.0,1
44.340641021728516,-24.23788070678711,0.2633659839630127,-0.4244764805146107,-0.8901427212715466,-0.1657276478358844,0.19057047639502162,3.0,1
44.21208190917969,-24.066152572631836,0.28049778938293457,-0.0,-0.0,-1.0,0.05381581700113057,1.0,1
43.404136657714844,-22.354915618896484,0.053389787673950195,-0.0,-0.0,-1.0,0.01978795804229961,1.0,1
42.976318359375,-22.017057418823242,0.10365128517150879,-0.0,-0.0,-1.0,0.013094417773889536,1.0,1
42.93006896972656,-23.550174713134766,0.15564441680908203,-0.0,-0.0,-1.0,0.08372907436517055,1.0,1
42.862754821777344,-23.19794273376465,0.15699148178100586,-0.0,-0.0,-1.0,0.055041641812781504,1.0,1
42.82430648803711,-24.03982162475586,0.18067383766174316,-0.0,-0.0,-1.0,0.08835653193504986,1.0,1
42.75243377685547,-23.83183479309082,0.18743491172790527,-0.0,-0.0,-1.0,0.12355438171852753,1.0,1
44.87415313720703,-23.924461364746094,0.236741304397583,-0.623826520002241,-0.6909222183781114,-0.3653313031939128,0.044392389251164295,4.0,1
44.69318389892578,-24.152950286865234,0.26070141792297363,0.5141706224144698,-0.6147105667370303,0.598129994388976,0.08322686161861757,3.0,1
44.26441192626953,-24.196685791015625,0.31501030921936035,-0.13346983442713808,-0.6377484004805833,-0.758592631774426,0.09325682030465829,5.0,1
