x,y,z,nx,ny,nz,curvature,density,label
58.485504150390625,30.400001525878906,-3.265331268310547,-0.0,-0.0,-1.0,0.03744971144323513,1.0,0
59.921836853027344,29.849666595458984,-3.4637832641601562,-0.0,-0.0,-1.0,0.03980024833687959,1.0,0
59.530250549316406,30.29265022277832,-3.4760255813598633,-0.0,-0.0,-1.0,0.03201036700322638,1.0,0
58.97847366333008,30.5426025390625,-3.427844524383545,-0.0,-0.0,-1.0,0.014406150005173689,1.0,0
59.2492561340332,30.148834228515625,-3.460761070251465,-0.0,-0.0,-1.0,0.018641623803919996,1.0,0
60.06877136230469,29.62218475341797,-3.454958915710449,-0.0,-0.0,-1.0,0.015429512218355148,1.0,0
58.582950592041016,28.98198699951172,-3.3739802837371826,-0.0,-0.0,-1.0,0.015246303782624118,1.0,0
59.34440612792969,28.775135040283203,-3.4057233333587646,-0.0,-0.0,-1.0,0.005756213822376894,1.0,0
59.59014129638672,28.359830856323242,-3.3448617458343506,-0.0,-0.0,-1.0,0.007560617698248837,1.0,0
58.04307556152344,29.270828247070312,-3.0405313968658447,-0.0,-0.0,-1.0,0.023016001928328596,1.0,0
60.03054428100586,30.62832260131836,-3.719351291656494,-0.0,-0.0,-1.0,0.05117471195634819,1.0,0
59.41259002685547,28.204206466674805,-3.414660930633545,-0.0,-0.0,-1.0,0.005268271681970323,2.0,0
58.3889045715332,30.398941040039062,-3.3089990615844727,-0.0,-0.0,-1.0,0.03485744151985112,1.0,0
58.246131896972656,30.31587028503418,-3.359729290008545,-0.0,-0.0,-1.0,0.021248423105459366,2.0,0
58.34136199951172,30.378576278686523,-3.410386085510254,-0.14500640125896003,-0.11429478913736621,-0.9828071249080207,0.031193962676260106,3.0,0
57.971187591552734,29.959871292114258,-3.4382357597351074,-0.0,-0.0,-1.0,0.045710464522318105,1.0,0
57.73194885253906,28.900745391845703,-2.9980385303497314,-0.0,-0.0,-1.0,0.036100294555607475,1.0,0
60.09296798706055,28.422977447509766,-3.39107084274292,-0.0,-0.0,-1.0,0.006701075745509694,1.0,0
57.858272552490234,29.58277130126953,-3.143368721008301,-0.0,-0.0,-1.0,0.03326630988661594,1.0,0
59.0744514465332,29.914947509765625,-3.2811899185180664,-0.0,-0.0,-1.0,0.015233229594770836,1.0,0
59.5816764831543,30.052343368530273,-3.338789463043213,-0.0,-0.0,-1.0,0.0314021264399248,1.0,0
59.877872467041016,30.293556213378906,-3.3699402809143066,-0.0,-0.0,-1.0,0.05233378191194591,1.0,0
60.1611328125,30.538293838500977,-3.3996191024780273,-0.0,-0.0,-1.0,0.05154212005680176,1.0,0
60.10663604736328,28.164291381835938,-3.3963510990142822,-0.0,-0.0,-1.0,0.007560617698248905,1.0,0
60.00299072265625,28.74458885192871,-3.4240381717681885,-0.0,-0.0,-1.0,0.006036167037718345,1.0,0
58.47330856323242,30.580463409423828,-3.3702480792999268,-0.0,-0.0,-1.0,0.03878260634154939,1.0,0
59.41917037963867,28.198942184448242,-3.400397300720215,-0.0,-0.0,-1.0,0.005205264909972985,2.0,0
58.887794494628906,28.625457763671875,-3.376518726348877,-0.0,-0.0,-1.0,0.002680042127478633,1.0,0
59.207576751708984,28.432598114013672,-3.3983449935913086,-0.0,-0.0,-1.0,0.005891091111826381,1.0,0
58.20501708984375,29.89257049560547,-3.4370827674865723,-0.0,-0.0,-1.0,0.03101698602457085,2.0,0
58.42644500732422,29.741729736328125,-3.4488916397094727,-0.0,-0.0,-1.0,0.044682654729518344,1.0,0
57.96306228637695,30.10088539123535,-3.4299097061157227,-0.0,-0.0,-1.0,0.029954818115486188,1.0,0
57.723045349121094,28.575918197631836,-3.207306385040283,-0.0,-0.0,-1.0,0.04193061579777929,2.0,0
58.49040985107422,30.462120056152344,-3.33841872215271,-0.0,-0.0,-1.0,0.03878260634154938,2.0,0
57.869476318359375,28.512928009033203,-3.2527480125427246,-0.0,-0.0,-1.0,0.03354739677596976,1.0,0
58.404685974121094,28.5264892578125,-3.320497512817383,-0.0,-0.0,-1.0,0.02557674851866648,1.0,0
58.76402282714844,28.455114364624023,-3.357779026031494,-0.0,-0.0,-1.0,0.01575170736900643,1.0,0
59.117897033691406,28.319095611572266,-3.387883186340332,-0.0,-0.0,-1.0,0.005228035528706776,1.0,0
58.337738037109375,28.611183166503906,-3.3209662437438965,-0.0,-0.0,-1.0,0.027560070704931525,2.0,0
57.711700439453125,29.463035583496094,-3.3332972526550293,-0.0,-0.0,-1.0,0.0236476979899466,1.0,0
58.099937438964844,29.77261734008789,-3.413896083831787,-0.0,-0.0,-1.0,0.0477619981846605,1.0,0
57.77320098876953,30.026493072509766,-3.4011964797973633,-0.0,-0.0,-1.0,0.04308696608857605,1.0,0
58.06025314331055,29.876834869384766,-3.4201784133911133,-0.0,-0.0,-1.0,0.04773040809879791,1.0,0
57.74628448486328,30.368515014648438,-3.434891700744629,-0.0,-0.0,-1.0,0.016063049389737197,1.0,0
57.715980529785156,29.50635528564453,-3.084503412246704,-0.0,-0.0,-1.0,0.026496830203116783,2.0,0
59.97915267944336,30.618545532226562,-3.427483081817627,-0.0,-0.0,-1.0,0.052731276517174616,1.0,0
58.570579528808594,30.585952758789062,-3.2898151874542236,-0.0,-0.0,-1.0,0.03457232728288964,1.0,0
59.93388366699219,30.55762481689453,-3.310279369354248,-0.0,-0.0,-1.0,0.05273127651717462,1.0,0
59.970489501953125,30.553241729736328,-3.383730411529541,-0.0,-0.0,-1.0,0.05117471195634819,1.0,0
59.904541015625,30.578805923461914,-3.347600221633911,-0.0,-0.0,-1.0,0.05273127651717459,1.0,0
58.8287239074707,28.27923583984375,-3.3340654373168945,-0.0,-0.0,-1.0,0.002578754907988401,1.0,0
57.8900146484375,28.553607940673828,-3.210827350616455,-0.0,-0.0,-1.0,0.03354739677596976,1.0,0
58.33270263671875,28.570838928222656,-3.292858123779297,-0.0,-0.0,-1.0,0.02756007070493153,2.0,0
58.594642639160156,28.385841369628906,-3.309117317199707,-0.0,-0.0,-1.0,0.015814700798421764,2.0,0
58.58418273925781,28.331768035888672,-3.2995967864990234,-0.0,-0.0,-1.0,0.01581470079842177,1.0,0
58.90361404418945,28.177757263183594,-3.328756332397461,-0.0,-0.0,-1.0,0.0036505934210335623,1.0,0
57.75769805908203,28.548534393310547,-3.1927614212036133,-0.0,-0.0,-1.0,0.03070177800399044,2.0,0
58.238731384277344,28.538814544677734,-3.277707099914551,-0.0,-0.0,-1.0,0.032973866047727264,2.0,0
58.25417709350586,30.33635711669922,-3.2654013633728027,-0.0,-0.0,-1.0,0.021248423105459366,1.0,0
58.603797912597656,30.375017166137695,-3.3316750526428223,-0.0,-0.0,-1.0,0.03599756440194231,1.0,0
59.08103561401367,30.515989303588867,-3.4403018951416016,-0.0,-0.0,-1.0,0.013396831169574408,1.0,0
59.363338470458984,30.55208396911621,-3.4960551261901855,-0.0,-0.0,-1.0,0.03521240004057485,1.0,0
59.84256362915039,30.404329299926758,-3.5524630546569824,-0.0,-0.0,-1.0,0.051640421356381354,1.0,0
60.06968688964844,30.261028289794922,-3.5665273666381836,-0.0,-0.0,-1.0,0.05081502578081498,1.0,0
59.59759521484375,30.575698852539062,-3.5414204597473145,-0.0,-0.0,-1.0,0.04711404720417622,1.0,0
59.66786575317383,30.55692481994629,-3.5502114295959473,-0.0,-0.0,-1.0,0.04930154765375512,1.0,0
58.83149719238281,30.105649948120117,-3.397820472717285,-0.0,-0.0,-1.0,0.02279374710359091,1.0,0
59.09843444824219,30.102474212646484,-3.431030750274658,-0.0,-0.0,-1.0,0.016630585148626517,1.0,0
59.5651741027832,29.912752151489258,-3.4499855041503906,-0.0,-0.0,-1.0,0.024171331329163912,1.0,0
59.9456901550293,29.735843658447266,-3.4626784324645996,-0.0,-0.0,-1.0,0.019788992063470928,1.0,0
59.22243881225586,28.736867904663086,-3.385209798812866,-0.0,-0.0,-1.0,0.004361393858545815,2.0,0
58.841243743896484,28.727487564086914,-3.3448565006256104,-0.0,-0.0,-1.0,0.0026002996842609274,1.0,0
58.52183532714844,28.864721298217773,-3.343095541000366,-0.0,-0.0,-1.0,0.02242582448892517,1.0,0
58.060035705566406,28.706707000732422,-3.2658207416534424,-0.0,-0.0,-1.0,0.033547396775969726,1.0,0
59.653194427490234,28.47123146057129,-3.3748857975006104,-0.0,-0.0,-1.0,0.007667814931438132,1.0,0
59.439697265625,28.664587020874023,-3.3924429416656494,-0.0,-0.0,-1.0,0.005640134934407072,1.0,0
59.89017105102539,28.260093688964844,-3.3569138050079346,-0.0,-0.0,-1.0,0.007560617698248824,1.0,0
59.934261322021484,30.63156509399414,-3.3476505279541016,-0.0,-0.0,-1.0,0.05273127651717463,1.0,0
58.16548156738281,28.316749572753906,-3.565747022628784,-0.0,-0.0,-1.0,0.03152789197199845,1.0,0
57.82896423339844,28.449249267578125,-3.5089480876922607,-0.0,-0.0,-1.0,0.035501152962605725,1.0,0
60.191184997558594,30.5814208984375,-3.4915316104888916,-0.0,-0.0,-1.0,0.05154212005680177,1.0,0
59.07748031616211,30.417278289794922,-3.3568432331085205,-0.0,-0.0,-1.0,0.014768368761411004,1.0,0
58.91124725341797,30.360355377197266,-3.331010103225708,-0.0,-0.0,-1.0,0.023442026942217448,1.0,0
58.885520935058594,30.53327178955078,-3.3628742694854736,-0.0,-0.0,-1.0,0.021365935495061716,1.0,0
58.00116729736328,29.338729858398438,-3.0503995418548584,-0.0,-0.0,-1.0,0.023241503147470265,1.0,0
58.13325500488281,28.214563369750977,-3.3205087184906006,-0.0,-0.0,-1.0,0.03152789197199842,1.0,0
57.89180374145508,28.227214813232422,-3.2932021617889404,-0.0,-0.0,-1.0,0.03386698762211528,1.0,0
60.15268325805664,30.341140747070312,-3.7047247886657715,-0.0,-0.0,-1.0,0.05081502578081499,1.0,0
59.20888900756836,28.170490264892578,-3.386500120162964,-0.0,-0.0,-1.0,0.004945306903396115,1.0,0
58.9815788269043,28.29706573486328,-3.374315023422241,-0.0,-0.0,-1.0,0.004063170497751049,1.0,0
58.56814956665039,28.399105072021484,-3.3321292400360107,-0.0,-0.0,-1.0,0.015814700798421764,2.0,0
58.2103385925293,28.562435150146484,-3.3101437091827393,-0.0,-0.0,-1.0,0.032973866047727285,2.0,0
57.74725341796875,28.501583099365234,-3.2360222339630127,-0.0,-0.0,-1.0,0.03070177800399044,1.0,0
57.74765396118164,29.537471771240234,-3.3806967735290527,-0.0,-0.0,-1.0,0.03048121789159825,1.0,0
58.821327209472656,28.56979751586914,-3.379448413848877,-0.0,-0.0,-1.0,0.0025656858257237184,1.0,0
58.7330436706543,28.847434997558594,-3.4096407890319824,-0.0,-0.0,-1.0,0.0025844637728696645,1.0,0
59.23834228515625,28.353342056274414,-3.4100255966186523,-0.0,-0.0,-1.0,0.0050317742668426774,1.0,0
58.97403335571289,28.456979751586914,-3.3851675987243652,-0.0,-0.0,-1.0,0.003108918980316299,1.0,0
58.2740478515625,28.635730743408203,-3.3083133697509766,-0.0,-0.0,-1.0,0.030903434984609054,1.0,0
57.96035385131836,28.56814956665039,-3.251701831817627,-0.0,-0.0,-1.0,0.033547396775969726,1.0,0
60.18631362915039,30.463489532470703,-3.558867931365967,-0.0,-0.0,-1.0,0.051542120056801775,1.0,0
58.42003631591797,30.54030990600586,-3.3334708213806152,-0.0,-0.0,-1.0,0.0381724258254001,1.0,0
58.54463195800781,30.37790298461914,-3.3262953758239746,-0.0,-0.0,-1.0,0.03878260634154939,1.0,0
57.72370910644531,28.184907913208008,-3.3172850608825684,-0.0,-0.0,-1.0,0.03386698762211525,1.0,0
59.14264678955078,30.325618743896484,-3.501554012298584,-0.0,-0.0,-1.0,0.014800112827025914,1.0,0
59.396827697753906,29.803115844726562,-3.489083766937256,-0.0,-0.0,-1.0,0.014300103579825064,1.0,0
58.89368438720703,30.2925968170166,-3.458691120147705,-0.0,-0.0,-1.0,0.023442026942217465,1.0,0
58.63628387451172,30.305522918701172,-3.419559955596924,-0.0,-0.0,-1.0,0.03599756440194231,1.0,0
58.28040313720703,30.34512710571289,-3.368241310119629,-0.0,-0.0,-1.0,0.021248423105459373,2.0,0
59.346099853515625,29.543575286865234,-3.4551334381103516,-0.0,-0.0,-1.0,0.006416176415619682,1.0,0
59.326881408691406,29.20305061340332,-3.4187755584716797,-0.0,-0.0,-1.0,0.005257198514344237,1.0,0
59.49909210205078,28.6947021484375,-3.3992018699645996,-0.0,-0.0,-1.0,0.007424041824105305,1.0,0
59.259647369384766,28.93851661682129,-3.382272720336914,-0.0,-0.0,-1.0,0.0030290738687400415,1.0,0
59.48594665527344,28.270689010620117,-3.3581533432006836,-0.0,-0.0,-1.0,0.005142735301775854,1.0,0
59.50657272338867,30.59992027282715,-3.608142852783203,-0.0,-0.0,-1.0,0.03711806776744222,1.0,0
59.29279327392578,30.514877319335938,-3.566830635070801,-0.0,-0.0,-1.0,0.028376908846723448,1.0,0
59.73116683959961,29.864952087402344,-3.5635509490966797,-0.0,-0.0,-1.0,0.030198101890044612,1.0,0
59.975379943847656,29.410110473632812,-3.554645538330078,-0.0,-0.0,-1.0,0.007767872652035278,1.0,0
59.866729736328125,29.628005981445312,-3.559856414794922,-0.0,-0.0,-1.0,0.016884433833000135,1.0,0
58.86308670043945,30.505943298339844,-3.5017852783203125,-0.0,-0.0,-1.0,0.021365935495061723,1.0,0
58.36660385131836,30.625131607055664,-3.442213535308838,-0.0,-0.0,-1.0,0.03817242582540008,1.0,0
58.35226058959961,30.38990020751953,-3.413311004638672,-0.14500640125896003,-0.11429478913736621,-0.9828071249080207,0.03230288781810138,3.0,0
59.89788055419922,28.945953369140625,-3.4961624145507812,-0.0,-0.0,-1.0,0.005139508626022677,1.0,0
59.755558013916016,28.587364196777344,-3.4386239051818848,-0.0,-0.0,-1.0,0.006839965264026387,1.0,0
59.960166931152344,28.197006225585938,-3.4342384338378906,-0.0,-0.0,-1.0,0.007560617698248837,1.0,0
59.834312438964844,28.31989288330078,-3.425589084625244,-0.0,-0.0,-1.0,0.0075606176982488645,1.0,0
58.20778274536133,30.340198516845703,-3.435877799987793,-0.0,-0.0,-1.0,0.020571326876597514,1.0,0
58.342288970947266,30.500959396362305,-3.348975658416748,-0.0,-0.0,-1.0,0.03369476873181115,1.0,0
58.43158721923828,30.393949508666992,-3.343761444091797,-0.0,-0.0,-1.0,0.03610366606357816,1.0,0
57.712860107421875,29.50049591064453,-3.093400001525879,-0.0,-0.0,-1.0,0.0239927863142175,2.0,0
58.448951721191406,30.467079162597656,-3.355393886566162,-0.0,-0.0,-1.0,0.03878260634154939,2.0,0
57.725311279296875,28.694107055664062,-3.143566846847534,-0.0,-0.0,-1.0,0.03602231007029666,1.0,0
58.40032958984375,30.433223724365234,-3.3802154064178467,-0.0,-0.0,-1.0,0.03581245150785138,1.0,0
59.892677307128906,30.107410430908203,-3.491063356399536,-0.0,-0.0,-1.0,0.04968209525100361,1.0,0
58.30138397216797,30.583229064941406,-3.385847806930542,-0.0,-0.0,-1.0,0.030420811082466973,1.0,0
58.95918273925781,30.633045196533203,-3.4532902240753174,-0.0,-0.0,-1.0,0.014917167310140261,1.0,0
57.75194549560547,28.262409210205078,-3.294555425643921,-0.0,-0.0,-1.0,0.03286620979996282,1.0,0
59.00792694091797,28.785228729248047,-3.3727550506591797,-0.0,-0.0,-1.0,0.003160036432294247,1.0,0
59.22038269042969,28.779741287231445,-3.398294448852539,-0.0,-0.0,-1.0,0.004035514193611054,2.0,0
58.242713928222656,30.050491333007812,-3.4408397674560547,-0.0,-0.0,-1.0,0.013493477142909738,1.0,0
57.82285690307617,28.463932037353516,-3.2274765968322754,-0.0,-0.0,-1.0,0.033547396775969726,1.0,0
57.87040710449219,30.13330841064453,-3.4281959533691406,-0.0,-0.0,-1.0,0.02995481811548621,1.0,0
57.710289001464844,29.379730224609375,-3.0941860675811768,-0.0,-0.0,-1.0,0.024289256526346826,1.0,0
57.721351623535156,28.538185119628906,-3.104543447494507,-0.0,-0.0,-1.0,0.03070177800399047,1.0,0
58.341739654541016,30.378047943115234,-3.4103803634643555,-0.14500640125896003,-0.11429478913736621,-0.9828071249080207,0.031193962676260106,3.0,0
59.66780471801758,29.720558166503906,-3.458193778991699,-0.0,-0.0,-1.0,0.015137651117772419,1.0,0
58.9232177734375,28.53377342224121,-3.3095364570617676,-0.0,-0.0,-1.0,0.0026959045305694285,1.0,0
59.75034713745117,28.266891479492188,-3.502903938293457,-0.0,-0.0,-1.0,0.007560617698248825,1.0,0
60.05868148803711,28.67620849609375,-3.5488977432250977,-0.0,-0.0,-1.0,0.006036167037718345,1.0,0
60.07986068725586,30.500728607177734,-3.426715850830078,-0.0,-0.0,-1.0,0.051542120056801755,1.0,0
59.379058837890625,28.395263671875,-3.3957581520080566,-0.0,-0.0,-1.0,0.005574397737058016,1.0,0
58.24650573730469,29.89751434326172,-3.432335376739502,-0.0,-0.0,-1.0,0.031016986024570866,2.0,0
58.36175537109375,29.64244842529297,-3.413978099822998,-0.0,-0.0,-1.0,0.0386469072113396,1.0,0
58.1143798828125,30.038448333740234,-3.4329075813293457,-0.0,-0.0,-1.0,0.013425795907019778,1.0,0
58.8031005859375,29.522315979003906,-3.4610323905944824,-0.0,-0.0,-1.0,0.004995450541928538,1.0,0
59.150840759277344,29.35698699951172,-3.488982677459717,-0.0,-0.0,-1.0,0.0061434665802135155,1.0,0
