x,y,z,nx,ny,nz,curvature,density,label
22.04421043395996,-20.277172088623047,0.7726736068725586,-0.0,-0.0,-1.0,0.18142249847184122,2.0,1
21.802949905395508,-20.624277114868164,0.7290560007095337,0.5695316198049805,-0.031273929333157084,-0.8213742602409569,0.22447182012647404,3.0,1
21.642345428466797,-20.740110397338867,0.7171337604522705,-0.0,-0.0,-1.0,0.13218317628613702,1.0,1
22.379199981689453,-20.325761795043945,0.7512763738632202,-0.6898269752257684,-0.6934346723744996,0.20805551999343144,0.22284163528604012,4.0,1
22.032649993896484,-20.54967498779297,0.7316368818283081,-0.0,-0.0,-1.0,0.23343498539211954,2.0,1
21.73247528076172,-20.7731876373291,0.7090004682540894,-0.0,-0.0,-1.0,0.10474149232043059,1.0,1
22.70829200744629,-20.53445053100586,0.7038754224777222,-0.0,-0.0,-1.0,0.17266419097818259,1.0,1
20.34615707397461,-20.194822311401367,1.240576148033142,-0.3560913478869417,0.5693601987202301,-0.7409641800204115,0.20123057223589808,3.0,2
21.17410659790039,-19.99941635131836,1.1031863689422607,-0.0,-0.0,-1.0,0.20662333858553023,1.0,2
20.67722511291504,-20.527286529541016,1.0584417581558228,-0.0,-0.0,-1.0,0.20216965016592642,2.0,2
20.404191970825195,-20.78626251220703,1.0368558168411255,-0.0,-0.0,-1.0,0.1778567446944465,1.0,2
21.499788284301758,-20.099512100219727,1.0803477764129639,-0.0,-0.0,-1.0,0.22239195169862097,1.0,2
21.849416732788086,-20.225440979003906,1.05208158493042,-0.0,-0.0,-1.0,0.17528226825088805,1.0,2
22.508649826049805,-20.186779022216797,1.0271985530853271,-0.0,-0.0,-1.0,0.28128583070774527,1.0,2
22.345182418823242,-20.313640594482422,1.0200703144073486,0.0031537480253437285,-0.9913442020663118,-0.13125062629526735,0.19309524571187434,4.0,2
21.998628616333008,-20.576011657714844,1.005112886428833,-0.0,-0.0,-1.0,0.20981035601278358,1.0,2
21.817991256713867,-20.851905822753906,0.9806508421897888,-0.0,-0.0,-1.0,0.22344800091402156,1.0,1
21.559263229370117,-21.180564880371094,0.9529546499252319,-0.0,-0.0,-1.0,0.1767661584774094,1.0,1
21.08966064453125,-21.742374420166016,1.2258213758468628,-0.0,-0.0,-1.0,0.2737013213388399,2.0,2
22.653047561645508,-20.54071807861328,0.9785029888153076,-0.0,-0.0,-1.0,0.15372220652051732,1.0,1
20.95751953125,-19.36599349975586,0.6036814451217651,-0.0,-0.0,-1.0,0.0994067152311809,1.0,1
20.85078239440918,-19.839704513549805,0.7042516469955444,-0.0,-0.0,-1.0,0.06891421131242696,2.0,1
20.570589065551758,-19.980133056640625,0.6678951978683472,-0.0,-0.0,-1.0,0.11274451052144789,1.0,1
20.35366439819336,-20.25210189819336,0.7269152402877808,-0.0,-0.0,-1.0,0.15662472307618117,2.0,1
20.21243667602539,-20.5760498046875,0.7825198173522949,-0.0,-0.0,-1.0,0.1917318559719509,1.0,1
21.357379913330078,-19.47606086730957,0.5790305137634277,-0.0,-0.0,-1.0,0.11610845298285653,1.0,1
21.152812957763672,-19.933780670166016,0.7969784736633301,-0.0,-0.0,-1.0,0.17162224610063093,2.0,1
20.95360565185547,-19.9929256439209,0.7845053672790527,-0.0,-0.0,-1.0,0.16724511003233458,2.0,1
20.61766815185547,-20.4814453125,0.8036932945251465,-0.0,-0.0,-1.0,0.06263215184078623,2.0,1
20.5262451171875,-20.82948112487793,0.7357637882232666,-0.0,-0.0,-1.0,0.12588449604898486,1.0,1
21.855802536010742,-19.445343017578125,0.5830941200256348,-0.0,-0.0,-1.0,0.1267495102737257,1.0,1
21.641448974609375,-19.481563568115234,0.5767055749893188,-0.0,-0.0,-1.0,0.10398297378780916,1.0,1
21.516902923583984,-20.026256561279297,0.7733545303344727,-0.1542605331512596,0.31805449934217317,-0.9354384123821775,0.17501103612526536,3.0,1
20.945974349975586,-20.717561721801758,0.7565515041351318,-0.0,-0.0,-1.0,0.13618463040164314,1.0,1
20.503372192382812,-21.783781051635742,0.8422019481658936,-0.0,-0.0,-1.0,0.07527400051590727,1.0,1
22.152494430541992,-19.42588233947754,0.5804246664047241,-0.0,-0.0,-1.0,0.11627070234409288,1.0,1
22.148080825805664,-20.059629440307617,0.6348426342010498,-0.0,-0.0,-1.0,0.17136475042895852,1.0,1
21.863525390625,-20.21044921875,0.7245579957962036,-0.0,-0.0,-1.0,0.20983096346912028,1.0,1
21.643857955932617,-20.8165283203125,0.7244473695755005,-0.0,-0.0,-1.0,0.09409420870789657,1.0,1
22.425662994384766,-20.154170989990234,0.716575026512146,0.48602791963253583,0.827702975133431,-0.28050783641983323,0.17748759262375416,3.0,1
22.16383934020996,-20.28850746154785,0.6977823972702026,-0.0,-0.0,-1.0,0.28882005622655527,1.0,1
21.928787231445312,-20.761676788330078,0.7263545989990234,-0.0,-0.0,-1.0,0.18053430314166713,2.0,1
21.66706085205078,-21.023067474365234,0.6823279857635498,-0.0,-0.0,-1.0,0.15330718646366914,1.0,1
22.644865036010742,-20.23856544494629,0.6873173713684082,-0.4254302730673025,0.8458619386314513,-0.3217555959614752,0.18769656199469914,3.0,1
22.630027770996094,-20.535402297973633,0.7404588460922241,-0.0,-0.0,-1.0,0.21312537698355047,1.0,1
20.90797233581543,-19.795656204223633,0.9374158382415771,-0.0,-0.0,-1.0,0.1630530750687275,1.0,1
20.321165084838867,-20.43540382385254,1.058374285697937,-0.0,-0.0,-1.0,0.13238357965667294,2.0,2
20.31523895263672,-20.597675323486328,1.032745122909546,-0.0,-0.0,-1.0,0.17774909663702657,1.0,2
21.09346580505371,-19.931781768798828,1.0226832628250122,-0.0,-0.0,-1.0,0.22954303606926077,1.0,2
21.1065616607666,-20.097835540771484,1.1057426929473877,-0.0,-0.0,-1.0,0.19915475978307406,1.0,2
20.65496826171875,-20.499534606933594,1.0466570854187012,-0.0,-0.0,-1.0,0.1948514301025177,2.0,2
20.44817543029785,-20.718765258789062,1.013167142868042,-0.0,-0.0,-1.0,0.1636670297592505,1.0,2
21.49867820739746,-20.016544342041016,1.0005501508712769,-0.0,-0.0,-1.0,0.2055088369545102,2.0,2
20.840248107910156,-20.987213134765625,0.9659912586212158,-0.0,-0.0,-1.0,0.13666668072879357,1.0,1
21.735441207885742,-20.140880584716797,1.0836479663848877,-0.0,-0.0,-1.0,0.17685121976336388,1.0,2
21.09906578063965,-21.71632957458496,1.1250340938568115,-0.0,-0.0,-1.0,0.24859228567078562,1.0,2
22.43289566040039,-20.212013244628906,1.0434129238128662,-0.9607115296964359,0.12546241942057187,0.24757329828046923,0.20359119138417595,3.0,2
22.204147338867188,-20.34874153137207,1.0313712358474731,-0.0,-0.0,-1.0,0.19526599340952347,2.0,2
21.884199142456055,-20.746795654296875,0.9784095287322998,0.6354407766515646,-0.4809478300405009,-0.6040730122657273,0.17418039302891541,3.0,1
21.69219207763672,-21.10999298095703,0.9252110719680786,-0.0,-0.0,-1.0,0.20119593311653225,1.0,1
21.591453552246094,-21.291397094726562,0.8985987901687622,-0.0,-0.0,-1.0,0.1468242647914041,2.0,1
22.67897605895996,-20.384225845336914,1.0020005702972412,-0.0,-0.0,-1.0,0.1567664713449223,1.0,2
22.52056312561035,-20.588247299194336,0.9764454364776611,-0.0,-0.0,-1.0,0.18675076180605266,2.0,1
22.684261322021484,-21.20779800415039,0.9956800937652588,-0.0,-0.0,-1.0,0.1416677323692471,1.0,1
22.583511352539062,-21.49993133544922,1.0922188758850098,-0.0,-0.0,-1.0,0.06393908113018065,1.0,2
22.33612632751465,-21.826845169067383,1.0621262788772583,-0.0,-0.0,-1.0,0.1330761901695748,1.0,2
20.600399017333984,-19.420841217041016,0.8957078456878662,-0.0,-0.0,-1.0,0.2104089267912301,2.0,1
21.021697998046875,-19.60495948791504,0.8539524078369141,-0.0,-0.0,-1.0,0.24267085615127018,1.0,1
20.9237117767334,-20.073869705200195,0.9215757846832275,-0.0,-0.0,-1.0,0.1490355708948993,2.0,1
20.570018768310547,-20.30537986755371,0.7582384347915649,-0.0,-0.0,-1.0,0.04654723611694107,2.0,1
20.360824584960938,-20.428077697753906,0.7235971689224243,-0.10869694818877729,-0.8223119719090549,-0.558558854830436,0.11556999750170122,3.0,1
20.331401824951172,-20.858789443969727,0.7269865274429321,-0.0,-0.0,-1.0,0.12523646898116783,1.0,1
21.335071563720703,-19.904191970825195,0.7692937850952148,-0.0,-0.0,-1.0,0.2610794200555529,1.0,1
21.250469207763672,-19.998241424560547,0.8410632610321045,-0.12530385779832193,-0.9827825748479017,0.13578421777285643,0.15234113823505813,3.0,1
20.899045944213867,-20.196674346923828,0.6873379945755005,-0.0,-0.0,-1.0,0.10982764698323752,1.0,1
20.53590202331543,-21.061363220214844,0.6803860664367676,-0.0,-0.0,-1.0,0.07823682036831128,1.0,1
20.22689437866211,-21.800878524780273,0.7631163597106934,-0.0,-0.0,-1.0,0.055218204255998216,1.0,1
21.654600143432617,-20.063995361328125,0.8157072067260742,-0.0,-0.0,-1.0,0.21369779481525325,2.0,1
21.56673240661621,-20.12746238708496,0.8011263608932495,0.37696964677909034,-0.7474514809657452,-0.5470010685632727,0.22743101390065654,4.0,1
20.994159698486328,-21.019529342651367,0.8053803443908691,-0.0,-0.0,-1.0,0.13174221457732727,1.0,1
20.646381378173828,-21.721405029296875,0.7776182889938354,-0.0,-0.0,-1.0,0.05999395850734942,1.0,1
22.126779556274414,-20.218544006347656,0.753446102142334,-0.0,-0.0,-1.0,0.2404843042593308,2.0,1
21.940046310424805,-20.525081634521484,0.6833778619766235,-0.0,-0.0,-1.0,0.14083165470556364,1.0,1
21.7388858795166,-20.955703735351562,0.8027048110961914,-0.0,-0.0,-1.0,0.16431675271135746,1.0,1
21.242856979370117,-21.63172149658203,0.7862406969070435,-0.0,-0.0,-1.0,0.16276699222857174,1.0,1
21.01601791381836,-21.84313201904297,0.7467023134231567,-0.0,-0.0,-1.0,0.11324227257135872,1.0,1
22.68105697631836,-20.024871826171875,0.7747941017150879,-0.0,-0.0,-1.0,0.16716419546438527,2.0,1
22.40384864807129,-20.290210723876953,0.7198610305786133,-0.012146635319708594,-0.3381952416527127,-0.9409975758597218,0.20390190304628414,4.0,1
22.084455490112305,-20.661542892456055,0.7474433183670044,-0.0,-0.0,-1.0,0.2502595969769484,1.0,1
21.9125919342041,-20.8972225189209,0.6965134143829346,-0.0,-0.0,-1.0,0.1654354800537433,1.0,1
21.696367263793945,-21.18909454345703,0.632378339767456,-0.0,-0.0,-1.0,0.14361104298964208,1.0,1
21.514326095581055,-21.715492248535156,0.7604959011077881,-0.0,-0.0,-1.0,0.17648614204284901,1.0,1
22.6527156829834,-21.07537269592285,0.8400737047195435,-0.0,-0.0,-1.0,0.1183637844811297,2.0,1
22.665042877197266,-21.23505973815918,0.8053483963012695,-0.0,-0.0,-1.0,0.12597044137997546,1.0,1
21.035913467407227,-19.848159790039062,0.9765427112579346,-0.0,-0.0,-1.0,0.2131170974531176,2.0,1
20.454275131225586,-20.19039535522461,1.193516492843628,-0.0,-0.0,-1.0,0.1744412550729661,2.0,2
20.38187026977539,-20.53561782836914,1.130837082862854,-0.0,-0.0,-1.0,0.17910638122289144,2.0,2
21.30009651184082,-19.89889144897461,0.9616352319717407,-0.0,-0.0,-1.0,0.24735441089663146,2.0,1
21.12358856201172,-19.994495391845703,1.0379307270050049,-0.0,-0.0,-1.0,0.18868392824840252,1.0,2
20.575761795043945,-20.728595733642578,0.9838685989379883,-0.0,-0.0,-1.0,0.24632553079013222,1.0,1
21.6031551361084,-19.97400665283203,1.0329484939575195,-0.0,-0.0,-1.0,0.16144110065995546,2.0,2
22.289976119995117,-20.001466751098633,0.9012143611907959,-0.0,-0.0,-1.0,0.18350491737044516,1.0,1
22.075918197631836,-20.3477840423584,1.028315782546997,-0.0,-0.0,-1.0,0.18505597751798858,1.0,2
22.052818298339844,-20.547183990478516,0.987017035484314,-0.0,-0.0,-1.0,0.18337543008218984,2.0,1
21.81801986694336,-20.79344940185547,0.9449930191040039,-0.0,-0.0,-1.0,0.09300336293855682,1.0,1
21.330551147460938,-21.59560203552246,1.037249207496643,-0.0,-0.0,-1.0,0.12809336247682052,1.0,2
22.38597297668457,-20.378299713134766,1.0048860311508179,-0.0,-0.0,-1.0,0.20848452280061874,1.0,2
22.157155990600586,-20.586219787597656,0.9733383655548096,-0.0,-0.0,-1.0,0.21119293716112608,1.0,1
21.932218551635742,-20.844318389892578,0.9293727874755859,-0.0,-0.0,-1.0,0.21256236767884898,1.0,1
21.62200355529785,-21.691410064697266,1.009825348854065,-0.0,-0.0,-1.0,0.21161645250598685,1.0,2
21.39973258972168,-21.835050582885742,0.9929920434951782,-0.0,-0.0,-1.0,0.12371982196805166,2.0,1
22.682676315307617,-20.935352325439453,0.9792830944061279,-0.0,-0.0,-1.0,0.09359683273082174,1.0,1
22.437257766723633,-21.32757568359375,1.0351786613464355,-0.0,-0.0,-1.0,0.07985654442328573,1.0,2
22.369298934936523,-21.493694305419922,1.0098187923431396,-0.0,-0.0,-1.0,0.1286769991817982,2.0,2
22.586620330810547,-21.322187423706055,1.0272705554962158,-0.0,-0.0,-1.0,0.11445803220312561,1.0,2
20.294761657714844,-20.335140228271484,1.0542162656784058,-0.0,-0.0,-1.0,0.2065003281531345,1.0,2
20.240312576293945,-20.852886199951172,0.822665810585022,-0.0,-0.0,-1.0,0.13782431217785623,1.0,1
21.035839080810547,-19.855220794677734,1.0823924541473389,-0.0,-0.0,-1.0,0.19827099055746522,2.0,2
20.698484420776367,-20.472997665405273,0.9220873117446899,-0.0,-0.0,-1.0,0.17804837630252535,2.0,1
20.459095001220703,-20.67123794555664,0.9714728593826294,-0.0,-0.0,-1.0,0.19220803946403614,1.0,1
20.413427352905273,-20.981916427612305,0.8934313058853149,-0.0,-0.0,-1.0,0.13651435380109003,1.0,1
20.466676712036133,-21.690990447998047,0.8372033834457397,-0.0,-0.0,-1.0,0.07256167967035684,1.0,1
20.28565216064453,-21.72966194152832,0.8315945863723755,-0.0,-0.0,-1.0,0.07256167967035684,1.0,1
21.21184730529785,-19.9986629486084,1.038652777671814,-0.0,-0.0,-1.0,0.26030144194008575,1.0,2
21.018068313598633,-20.971160888671875,0.8858176469802856,-0.0,-0.0,-1.0,0.1704027439994255,1.0,1
20.809133529663086,-21.071205139160156,0.7596145868301392,-0.0,-0.0,-1.0,0.09776720281215925,1.0,1
20.6967716217041,-21.66741180419922,0.8366416692733765,-0.0,-0.0,-1.0,0.060389190348583976,1.0,1
21.60853385925293,-19.923871994018555,1.0422431230545044,-0.0,-0.0,-1.0,0.184280207059741,2.0,2
21.475223541259766,-20.13759994506836,0.9904904365539551,-0.0,-0.0,-1.0,0.22808221313314178,1.0,1
21.588581085205078,-20.557308197021484,0.8695725202560425,-0.0,-0.0,-1.0,0.2019150936441465,1.0,1
21.32828140258789,-21.00705909729004,0.7591710090637207,-0.0,-0.0,-1.0,0.1206631860408863,1.0,1
21.13228416442871,-21.745162963867188,0.9180690050125122,-0.0,-0.0,-1.0,0.12722743765450226,1.0,1
22.03466033935547,-20.330833435058594,0.9023452997207642,-0.0,-0.0,-1.0,0.19198174513351116,1.0,1
21.83778953552246,-20.698083877563477,0.9143856763839722,-0.0,-0.0,-1.0,0.11007682539362373,2.0,1
21.68069076538086,-20.93462562561035,0.8615601062774658,-0.0,-0.0,-1.0,0.17539488057435895,1.0,1
21.521841049194336,-21.574195861816406,0.8226993083953857,-0.0,-0.0,-1.0,0.15242618059430033,1.0,1
21.440425872802734,-21.74358367919922,0.9041719436645508,-0.0,-0.0,-1.0,0.20153534958780994,1.0,1
22.430374145507812,-20.132970809936523,0.9202650785446167,-0.0,-0.0,-1.0,0.23366420747244804,1.0,1
22.28501319885254,-20.3144474029541,0.8848814964294434,-0.0,-0.0,-1.0,0.24478699000781462,1.0,1
22.691566467285156,-20.564239501953125,0.8714827299118042,-0.0,-0.0,-1.0,0.13596365626097867,2.0,1
22.654895782470703,-20.84946060180664,0.8037197589874268,-0.0,-0.0,-1.0,0.1276114569742158,2.0,1
22.610939025878906,-21.10184097290039,0.8491028547286987,0.4494722109243082,-0.6096001580573156,-0.6529643014003985,0.12760042599620725,3.0,1
20.38909339904785,-20.239147186279297,1.260292410850525,-0.0,-0.0,-1.0,0.12088776566347302,2.0,2
20.414905548095703,-20.622074127197266,1.280052661895752,-0.0,-0.0,-1.0,0.17123717411088968,1.0,2
21.024932861328125,-19.796703338623047,1.0983400344848633,-0.0,-0.0,-1.0,0.19385272292209632,1.0,2
20.78316307067871,-20.456911087036133,1.1157963275909424,-0.0,-0.0,-1.0,0.205005944421268,1.0,2
21.10004997253418,-20.054927825927734,1.2006909847259521,-0.0,-0.0,-1.0,0.20840285031210196,1.0,2
21.602455139160156,-19.81890106201172,1.0713584423065186,-0.0,-0.0,-1.0,0.19193966378328187,1.0,2
21.56586265563965,-20.03972816467285,1.1842355728149414,-0.0,-0.0,-1.0,0.24837989657605308,2.0,2
21.139219284057617,-21.763275146484375,1.2601441144943237,-0.0,-0.0,-1.0,0.18067395678506948,2.0,2
22.074993133544922,-20.43009376525879,1.057681679725647,-0.0,-0.0,-1.0,0.15842471539138728,1.0,2
22.002588272094727,-20.496973037719727,1.0474200248718262,-0.0,-0.0,-1.0,0.15904643802264587,1.0,2
22.54787826538086,-20.199604034423828,1.0688300132751465,-0.0,-0.0,-1.0,0.1918907439619284,2.0,2
22.309341430664062,-20.342037200927734,1.0581110715866089,-0.0,-0.0,-1.0,0.26600270568809,2.0,2
22.220157623291016,-20.641368865966797,1.0918264389038086,-0.0,-0.0,-1.0,0.09166280954798832,1.0,2
22.07579803466797,-21.13858985900879,1.097879409790039,-0.0,-0.0,-1.0,0.09693512371210164,1.0,2
22.212690353393555,-21.41543960571289,1.0311225652694702,-0.0,-0.0,-1.0,0.11803305529221826,1.0,2
22.66992950439453,-20.54157257080078,1.0707417726516724,-0.0,-0.0,-1.0,0.10795653083707359,1.0,2
22.599733352661133,-21.052345275878906,1.0692365169525146,-0.0,-0.0,-1.0,0.17205497381121904,1.0,2
22.520343780517578,-21.208465576171875,1.0452971458435059,0.4995375875279003,0.721236176067384,-0.4798755848951924,0.12633826397626827,4.0,2
22.334196090698242,-21.464019775390625,1.011004090309143,-0.0,-0.0,-1.0,0.13916977329979258,2.0,2
21.118858337402344,-21.715673446655273,1.2467111349105835,0.5458945880650705,-0.3001060431469932,-0.7822630386180355,0.18246077316653006,4.0,2
22.619922637939453,-19.967254638671875,0.6478404998779297,-0.0,-0.0,-1.0,0.08875421662729871,2.0,1
21.410354614257812,-21.819236755371094,0.8170413970947266,0.2803505909505919,-0.4790236186923255,-0.8318292606590393,0.15659604749854064,3.0,1
21.278125762939453,-20.800567626953125,0.8131158351898193,-0.0,-0.0,-1.0,0.14188205759615363,1.0,1
22.032432556152344,-20.6221981048584,0.9317363500595093,-0.0,-0.0,-1.0,0.22449163674721404,1.0,1
22.279306411743164,-20.711801528930664,0.969147801399231,-0.0,-0.0,-1.0,0.236609837788832,1.0,1
22.583568572998047,-21.04488754272461,1.0114827156066895,-0.0,-0.0,-1.0,0.15899447012415846,1.0,2
22.228681564331055,-20.393869400024414,0.9639836549758911,-0.0,-0.0,-1.0,0.2605527081667755,1.0,1
22.387317657470703,-20.48627281188965,0.9878895282745361,-0.0,-0.0,-1.0,0.17702795829993717,2.0,1
22.65365982055664,-20.8167667388916,1.0257116556167603,-0.0,-0.0,-1.0,0.17002793506297573,2.0,2
21.087398529052734,-21.34679412841797,1.2136911153793335,-0.0,-0.0,-1.0,0.07824376028656768,1.0,2
20.67780303955078,-21.349733352661133,0.7591416835784912,-0.0,-0.0,-1.0,0.04288581857444969,1.0,1
20.98555564880371,-21.743867874145508,0.7994002103805542,-0.0,-0.0,-1.0,0.1412955757157876,1.0,1
20.397705078125,-20.226425170898438,0.7206072807312012,-0.0,-0.0,-1.0,0.13657617436342595,2.0,1
20.6884765625,-20.9199161529541,0.7637243270874023,-0.0,-0.0,-1.0,0.0938964381310645,1.0,1
20.75016975402832,-19.38068389892578,0.7652593851089478,-0.04087715274520754,0.9712818974511471,0.23439397190871702,0.1574340507783736,3.0,1
22.09725570678711,-19.429784774780273,0.5597329139709473,-0.0,-0.0,-1.0,0.09263385481175807,1.0,1
22.464107513427734,-19.774097442626953,0.6309330463409424,-0.0,-0.0,-1.0,0.08205405164394007,1.0,1
22.68004608154297,-20.113183975219727,0.6719602346420288,-0.0,-0.0,-1.0,0.12146506277931396,2.0,1
22.598064422607422,-19.67471694946289,0.6550896167755127,-0.0,-0.0,-1.0,0.08417670606229041,1.0,1
21.111913681030273,-21.82758331298828,0.8165380954742432,-0.0,-0.0,-1.0,0.11183332692676075,1.0,1
20.27635955810547,-20.041934967041016,1.170116662979126,-0.0,-0.0,-1.0,0.19800176165563976,1.0,2
21.438323974609375,-21.153152465820312,0.8728073835372925,-0.0,-0.0,-1.0,0.19165721504821595,1.0,1
22.268156051635742,-21.6577091217041,0.9877136945724487,-0.0,-0.0,-1.0,0.1328749749037908,1.0,1
21.265628814697266,-19.543943405151367,0.8443608283996582,-0.0,-0.0,-1.0,0.18004288476117966,1.0,1
21.51223373413086,-19.717571258544922,0.8831051588058472,-0.0,-0.0,-1.0,0.24128006383938064,1.0,1
22.09137725830078,-20.54960823059082,0.9724652767181396,-0.0,-0.0,-1.0,0.2167012249832817,2.0,1
22.50137710571289,-21.196367263793945,1.0284863710403442,-0.0,-0.0,-1.0,0.15053854508001374,2.0,2
21.566356658935547,-19.50971031188965,0.8888667821884155,-0.0,-0.0,-1.0,0.1285935274183042,1.0,1
22.31598472595215,-20.309040069580078,1.0058865547180176,0.0031537480253437285,-0.9913442020663118,-0.13125062629526735,0.2640879778475408,4.0,2
22.512813568115234,-20.73331642150879,1.0341088771820068,-0.0,-0.0,-1.0,0.22749277088291436,2.0,2
22.566749572753906,-20.90491485595703,1.0410075187683105,-0.0,-0.0,-1.0,0.14378538216931444,1.0,2
22.366870880126953,-19.907257080078125,1.0120322704315186,-0.0,-0.0,-1.0,0.19914207897796188,1.0,2
22.407344818115234,-20.135560989379883,1.0192103385925293,-0.0,-0.0,-1.0,0.255197116911311,2.0,2
20.472190856933594,-19.892234802246094,1.190927505493164,-0.0,-0.0,-1.0,0.16685818418505313,1.0,2
20.45028305053711,-21.78081512451172,0.8518819808959961,-0.0,-0.0,-1.0,0.07305407561642271,1.0,1
20.27027130126953,-20.59177017211914,0.8124444484710693,-0.0,-0.0,-1.0,0.25031086466119473,1.0,1
20.487838745117188,-21.540145874023438,0.8551639318466187,-0.0,-0.0,-1.0,0.06502628267064009,1.0,1
20.360631942749023,-20.462892532348633,0.8220231533050537,-0.0,-0.0,-1.0,0.24535314802893055,2.0,1
21.31338119506836,-21.811378479003906,0.9673337936401367,-0.0,-0.0,-1.0,0.11602290773969152,1.0,1
20.798038482666016,-19.446714401245117,0.8534829616546631,-0.0,-0.0,-1.0,0.14934329521248843,1.0,1
21.20807647705078,-19.738420486450195,0.9177680015563965,-0.6915894184457807,-0.6730100406957831,0.2622242578719355,0.20308896798659823,3.0,1
22.002723693847656,-19.509780883789062,0.589125394821167,-0.0,-0.0,-1.0,0.11141459698758174,1.0,1
22.04210090637207,-19.730987548828125,0.6033093929290771,-0.0,-0.0,-1.0,0.1473077997368262,1.0,1
22.316608428955078,-19.871564865112305,0.6544468402862549,-0.0,-0.0,-1.0,0.2045285713153293,1.0,1
22.50290298461914,-20.082164764404297,0.6920323371887207,-0.005257985592131933,0.9830281346986585,-0.18337949715927584,0.14611210658255816,3.0,1
22.689258575439453,-20.404727935791016,0.73140549659729,-0.0,-0.0,-1.0,0.20235091298702504,2.0,1
20.38699722290039,-20.21318817138672,1.3005800247192383,-0.0,-0.0,-1.0,0.09805913540692625,2.0,2
21.41750717163086,-21.84485626220703,0.9813573360443115,-0.0,-0.0,-1.0,0.16638048956436727,2.0,1
21.517784118652344,-21.329116821289062,0.9912124872207642,-0.0,-0.0,-1.0,0.1607850970908751,1.0,1
21.363107681274414,-19.829416275024414,0.9413449764251709,-0.0,-0.0,-1.0,0.1954021251715863,1.0,1
21.60649299621582,-20.006772994995117,0.9789804220199585,-0.0,-0.0,-1.0,0.22926072098680275,2.0,1
22.051122665405273,-20.819602966308594,1.0561929941177368,-0.0,-0.0,-1.0,0.17919248141649655,1.0,2
22.230621337890625,-20.997968673706055,1.0829541683197021,-0.0,-0.0,-1.0,0.12265110893173267,1.0,2
22.434497833251953,-21.52865219116211,1.115523099899292,-0.0,-0.0,-1.0,0.06518518255539649,1.0,2
22.339527130126953,-20.20319175720215,1.0826324224472046,-0.5254029765821884,-0.4405858678772732,-0.7278982107584867,0.17809833116834414,3.0,2
22.36578369140625,-20.62091064453125,1.0950151681900024,-0.0,-0.0,-1.0,0.1442887004492367,1.0,2
22.52684211730957,-21.278581619262695,1.1259149312973022,-0.0,-0.0,-1.0,0.05866557409686567,1.0,2
22.40763282775879,-19.981990814208984,1.0862478017807007,-0.0,-0.0,-1.0,0.1487666436905818,2.0,2
20.557071685791016,-19.473663330078125,0.6739497184753418,-0.0,-0.0,-1.0,0.22137979952175266,2.0,1
20.567665100097656,-19.699384689331055,0.6826186180114746,-0.0,-0.0,-1.0,0.13563320665928372,1.0,1
20.789047241210938,-20.479307174682617,0.7352235317230225,-0.0,-0.0,-1.0,0.0638668936501669,1.0,1
20.732131958007812,-19.431095123291016,0.697541356086731,-0.0,-0.0,-1.0,0.16932012385936895,2.0,1
21.155723571777344,-21.858572006225586,0.8112795352935791,-0.0,-0.0,-1.0,0.127714948089738,1.0,1
20.26078987121582,-20.563846588134766,1.1579046249389648,-0.0,-0.0,-1.0,0.1092594040823485,2.0,2
21.406118392944336,-19.870773315429688,0.807255744934082,-0.0,-0.0,-1.0,0.2512813588000962,1.0,1
21.508480072021484,-19.925033569335938,0.8234395980834961,-0.04981625428256756,-0.9918167665326317,0.11754931915587245,0.21663877165708853,4.0,1
22.100963592529297,-20.95713233947754,0.9330906867980957,-0.0,-0.0,-1.0,0.1648726829003675,2.0,1
21.987789154052734,-20.99925422668457,0.9176973104476929,-0.0,-0.0,-1.0,0.176514510134066,1.0,1
22.361495971679688,-20.461490631103516,0.9595804214477539,-0.0030111191851953426,-0.7537785878938952,-0.6571215820485111,0.207145704075794,3.0,1
22.39094352722168,-20.78424644470215,0.9710566997528076,-0.0,-0.0,-1.0,0.19242976288039398,1.0,1
22.46942901611328,-21.324371337890625,0.9921582937240601,-0.0,-0.0,-1.0,0.09200015853341238,1.0,1
22.443275451660156,-20.05056381225586,0.9603853225708008,-0.0,-0.0,-1.0,0.23530602147453855,1.0,1
22.524250030517578,-20.308685302734375,0.9789237976074219,-0.9400373267043329,0.05634641157068777,-0.3363850566028131,0.16565867097944015,3.0,1
22.616092681884766,-20.715320587158203,1.0017787218093872,-0.0,-0.0,-1.0,0.14772751610613463,1.0,2
22.707366943359375,-21.467998504638672,1.0282588005065918,-0.0,-0.0,-1.0,0.07287501575337767,1.0,2
20.590106964111328,-19.467782974243164,0.6958996057510376,-0.0,-0.0,-1.0,0.2213797995217527,2.0,1
20.774595260620117,-19.421194076538086,0.7199118137359619,-0.0,-0.0,-1.0,0.17623400251483884,2.0,1
20.75930404663086,-21.5712947845459,0.7828378677368164,-0.0,-0.0,-1.0,0.061304201135037054,2.0,1
20.92804718017578,-21.84319305419922,0.8118196725845337,-0.0,-0.0,-1.0,0.10623513739276734,2.0,1
22.699533462524414,-19.72470474243164,0.5826535224914551,-0.0,-0.0,-1.0,0.06158520887038912,2.0,1
22.68761444091797,-19.783891677856445,0.5832228660583496,0.981592476850248,-0.15292434315916528,-0.11441308780175871,0.059620729863854145,3.0,1
20.322355270385742,-20.343963623046875,1.184448003768921,-0.0,-0.0,-1.0,0.17902551024497929,1.0,2
20.39523696899414,-20.613632202148438,1.1995632648468018,-0.0,-0.0,-1.0,0.19529377296206343,1.0,2
22.138938903808594,-20.89883804321289,0.9613491296768188,-0.0,-0.0,-1.0,0.13990929809263794,2.0,1
22.05967140197754,-20.939983367919922,0.9512934684753418,-0.0,-0.0,-1.0,0.13291996459281746,2.0,1
22.551328659057617,-20.06345558166504,0.9928649663925171,-0.0,-0.0,-1.0,0.2634936577843991,2.0,1
22.516132354736328,-20.334470748901367,0.9972896575927734,-0.9445192728484755,-0.2960464824099982,-0.14226673353406832,0.20085556905973548,4.0,1
22.43044662475586,-20.707847595214844,0.9969291687011719,0.006083754505637387,-0.9701924262277978,-0.24225945599983098,0.23247427892941414,5.0,1
22.551034927368164,-21.233596801757812,1.027974247932434,-0.3423721688675989,0.2127077850743364,-0.9151703099170483,0.16437347896181545,3.0,2
22.577186584472656,-21.461551666259766,1.0368400812149048,-0.0,-0.0,-1.0,0.06393908113018054,1.0,2
20.686195373535156,-19.564817428588867,0.6436166763305664,-0.0,-0.0,-1.0,0.15036150909772347,1.0,1
20.860366821289062,-19.479618072509766,0.6644008159637451,-0.0,-0.0,-1.0,0.13021194604328634,2.0,1
20.31399154663086,-20.34499740600586,1.117276668548584,-0.0,-0.0,-1.0,0.2168694442575934,1.0,2
20.46177864074707,-20.626861572265625,1.1431818008422852,-0.0,-0.0,-1.0,0.2182609090413767,1.0,2
21.381467819213867,-19.84186553955078,0.7559564113616943,-0.0,-0.0,-1.0,0.25559620635336205,2.0,1
21.507671356201172,-19.92901039123535,0.777987003326416,-0.8157491735691084,0.528337203614561,-0.23539984090492191,0.2370060683034489,5.0,1
21.246265411376953,-21.836946487426758,0.8085165023803711,-0.0,-0.0,-1.0,0.16404846045959665,2.0,1
21.433277130126953,-21.838163375854492,0.8356661796569824,-0.0,-0.0,-1.0,0.13774789659769804,2.0,1
22.528820037841797,-20.392593383789062,0.9446386098861694,-0.9863847528386666,0.1405099476953754,0.08545217355951552,0.1786991781960835,3.0,1
22.358793258666992,-20.855308532714844,0.9384093284606934,-0.0,-0.0,-1.0,0.1508982227808028,1.0,1
22.640804290771484,-20.187070846557617,0.9519554376602173,-0.479567554935331,-0.8402974818015964,0.2528143633800177,0.21078937740644732,4.0,1
22.62912368774414,-20.43087387084961,0.960648775100708,-0.0,-0.0,-1.0,0.17889142089125804,2.0,1
22.64482307434082,-20.8214168548584,0.978286623954773,-0.16463882661429624,-0.9781966487505063,0.1265913628347008,0.17126765538482375,3.0,1
22.500267028808594,-21.090831756591797,0.9672631025314331,-0.0,-0.0,-1.0,0.20379005549113038,1.0,1
21.161090850830078,-20.091821670532227,1.1999765634536743,-0.0,-0.0,-1.0,0.1694668189890993,1.0,2
21.20370864868164,-21.755592346191406,1.2585444450378418,-0.0,-0.0,-1.0,0.16628729107490733,2.0,2
20.277385711669922,-20.450345993041992,0.8892714977264404,0.3918494833536779,0.4861425769133996,-0.7811013873419091,0.2617518408374139,3.0,1
20.233745574951172,-20.859514236450195,0.9049100875854492,-0.0,-0.0,-1.0,0.15037591778428538,1.0,1
20.50374984741211,-20.561025619506836,0.9228838682174683,-0.0,-0.0,-1.0,0.13193753076679832,1.0,1
20.660629272460938,-21.664756774902344,0.9946086406707764,-0.0,-0.0,-1.0,0.12948418665042846,1.0,1
22.047739028930664,-19.529075622558594,0.6163427829742432,-0.0,-0.0,-1.0,0.14398148850396492,2.0,1
21.926189422607422,-20.01643180847168,0.6313831806182861,-0.0,-0.0,-1.0,0.13058831082481556,1.0,1
22.63521957397461,-20.358535766601562,0.7648520469665527,-0.3912620263792643,-0.24591647127208024,-0.8868140255265926,0.19210909095720166,4.0,1
22.5522403717041,-20.819002151489258,0.7797058820724487,-0.0,-0.0,-1.0,0.19609536551709578,1.0,1
20.269611358642578,-19.95450210571289,1.3501973152160645,-0.0,-0.0,-1.0,0.11275599290645437,1.0,2
21.564664840698242,-20.0615234375,1.0251678228378296,-0.0,-0.0,-1.0,0.19442304539086117,2.0,2
21.683902740478516,-19.86194610595703,1.0278040170669556,-0.0,-0.0,-1.0,0.2073715663699866,1.0,2
21.586135864257812,-20.109725952148438,1.030592918395996,-0.0,-0.0,-1.0,0.2314139151425035,1.0,2
21.159297943115234,-21.02117156982422,1.0268774032592773,-0.0,-0.0,-1.0,0.19741707034475386,1.0,2
22.307937622070312,-20.27585792541504,1.1282637119293213,-0.0,-0.0,-1.0,0.18304918959983674,1.0,2
21.955862045288086,-20.953771591186523,1.121644139289856,-0.0,-0.0,-1.0,0.12332386774991391,1.0,2
21.225343704223633,-21.737056732177734,1.0675129890441895,-0.0,-0.0,-1.0,0.1801948071918001,1.0,2
22.486780166625977,-20.144115447998047,1.1423563957214355,-0.0,-0.0,-1.0,0.1424301272506817,1.0,2
22.046945571899414,-20.90084457397461,1.1301772594451904,-0.0,-0.0,-1.0,0.13722419537256528,1.0,2
20.584651947021484,-20.196491241455078,1.3899598121643066,-0.0,-0.0,-1.0,0.08277496798624194,1.0,2
20.21179962158203,-19.37535285949707,0.6281325817108154,-0.0,-0.0,-1.0,0.1745366354547492,1.0,1
20.746639251708984,-19.37873077392578,0.7027543783187866,-0.0,-0.0,-1.0,0.15743405077837352,2.0,1
20.760868072509766,-21.55006980895996,0.8036627769470215,-0.0,-0.0,-1.0,0.05909224776904713,2.0,1
22.695846557617188,-19.73599624633789,0.5898323059082031,0.962372415360502,-0.19195167234577207,0.19233795682822166,0.06158520887038913,3.0,1
20.92523956298828,-21.815805435180664,0.8354384899139404,-0.0,-0.0,-1.0,0.10623513739276728,2.0,1
20.30848503112793,-20.199602127075195,1.1645678281784058,-0.0,-0.0,-1.0,0.2206153309849401,2.0,2
20.36795425415039,-20.518335342407227,1.1836951971054077,-0.0,-0.0,-1.0,0.1798809731355796,1.0,2
22.57463836669922,-20.056472778320312,0.9961344003677368,-0.0,-0.0,-1.0,0.1808821312843183,2.0,1
22.55644989013672,-20.168724060058594,0.9997061491012573,-0.0,-0.0,-1.0,0.23568105928258537,1.0,1
22.076276779174805,-20.65048599243164,0.9560273885726929,-0.0,-0.0,-1.0,0.2466990932317585,1.0,1
22.665977478027344,-20.118629455566406,1.0123214721679688,-0.0,-0.0,-1.0,0.11126225248014207,1.0,2
22.5389404296875,-20.370065689086914,1.007685899734497,-0.8459839602793461,-0.532597973372672,0.02550564073682283,0.16866741408520797,4.0,2
22.407581329345703,-20.73543357849121,1.0067294836044312,0.6120418085773921,-0.6613518653810228,-0.4336110408077228,0.13102498749603836,3.0,2
22.247783660888672,-20.922073364257812,0.9924061298370361,-0.0,-0.0,-1.0,0.14382938159932274,2.0,1
21.64511489868164,-21.759937286376953,0.9370155334472656,-0.0,-0.0,-1.0,0.20135222906886788,1.0,1
22.622982025146484,-21.11061668395996,1.0536359548568726,-0.0,-0.0,-1.0,0.17815691880485712,2.0,2
22.406696319580078,-21.201005935668945,1.0264511108398438,-0.0,-0.0,-1.0,0.08591298833967856,1.0,2
22.634675979614258,-21.457931518554688,1.0685912370681763,-0.0,-0.0,-1.0,0.047736320819108134,1.0,2
22.462617874145508,-21.85332679748535,1.0569292306900024,-0.0,-0.0,-1.0,0.13889863469657557,1.0,2
20.799095153808594,-19.388307571411133,0.8723026514053345,-0.0,-0.0,-1.0,0.1493432952124884,1.0,1
20.246044158935547,-20.53921890258789,0.8461586236953735,-0.0,-0.0,-1.0,0.2048688217664646,1.0,1
21.814250946044922,-19.77635383605957,0.6053917407989502,-0.0,-0.0,-1.0,0.10291202702102185,2.0,1
20.4346866607666,-21.568317413330078,0.9009621143341064,-0.0,-0.0,-1.0,0.06502628267064015,1.0,1
22.63970184326172,-20.300710678100586,0.7721930742263794,-0.0,-0.0,-1.0,0.19677688077937627,2.0,1
22.580692291259766,-20.9223690032959,0.7917063236236572,-0.0,-0.0,-1.0,0.15183069511882177,1.0,1
22.017070770263672,-21.711271286010742,0.7220242023468018,-0.0,-0.0,-1.0,0.05810145262708909,1.0,1
21.657535552978516,-19.809307098388672,1.0057642459869385,-0.0,-0.0,-1.0,0.18382297628467809,1.0,2
21.310373306274414,-20.064374923706055,0.9710628986358643,-0.0,-0.0,-1.0,0.17648323543653516,2.0,1
21.568445205688477,-20.168058395385742,1.0098873376846313,-0.0,-0.0,-1.0,0.24510528980358645,1.0,2
21.288150787353516,-20.278114318847656,0.9769095182418823,-0.0,-0.0,-1.0,0.16228249128568734,1.0,1
20.977638244628906,-20.55609893798828,0.9456517696380615,-0.0,-0.0,-1.0,0.11403551625199647,1.0,1
22.307924270629883,-20.211193084716797,1.1102867126464844,-0.6158866442882126,0.5764249087682454,-0.5370455901866474,0.15689410427635433,3.0,2
21.350284576416016,-20.923873901367188,1.0084772109985352,-0.0,-0.0,-1.0,0.17831892408674158,1.0,2
20.968585968017578,-20.923004150390625,0.9566600322723389,-0.0,-0.0,-1.0,0.1591293224304321,1.0,1
22.431072235107422,-20.30179214477539,1.1306277513504028,-0.0,-0.0,-1.0,0.12151134009596258,1.0,2
22.288158416748047,-20.53968620300293,1.1211695671081543,-0.0,-0.0,-1.0,0.10056048356113846,1.0,2
21.998973846435547,-20.828590393066406,1.0930572748184204,-0.0,-0.0,-1.0,0.17117741906711778,1.0,2
21.658767700195312,-21.120519638061523,1.0564367771148682,-0.0,-0.0,-1.0,0.16619650050953977,1.0,2
21.460712432861328,-21.316558837890625,1.0350528955459595,-0.0,-0.0,-1.0,0.12679126521745424,1.0,2
21.449657440185547,-21.784971237182617,1.0447083711624146,-0.0,-0.0,-1.0,0.16679264158797188,1.0,2
21.215717315673828,-21.697803497314453,1.0107994079589844,-0.0,-0.0,-1.0,0.15160460218975336,1.0,2
20.519027709960938,-20.162792205810547,1.3257750272750854,-0.0,-0.0,-1.0,0.08848831052200873,2.0,2
22.69246482849121,-20.259355545043945,0.6174671649932861,-0.0,-0.0,-1.0,0.16489841549110754,1.0,1
22.085060119628906,-19.80452537536621,0.8699688911437988,-0.0,-0.0,-1.0,0.2365804437830722,1.0,1
22.70189666748047,-19.99469566345215,0.7878166437149048,-0.0,-0.0,-1.0,0.16252347818968707,2.0,1
22.303550720214844,-19.83559226989746,0.9039462804794312,-0.0,-0.0,-1.0,0.19593415659931943,1.0,1
22.535083770751953,-20.365896224975586,0.9730432033538818,-0.9497689318030134,-0.3057034249391042,0.06696560432240269,0.15530316477227088,5.0,1
22.11808967590332,-20.64716339111328,0.9284379482269287,-0.0,-0.0,-1.0,0.1835969029404551,1.0,1
22.455318450927734,-20.723270416259766,0.9830092191696167,-0.3791041035477552,-0.8772209520218245,0.29455641226627005,0.23655963394052382,3.0,1
22.282466888427734,-20.782663345336914,0.9606791734695435,-0.0,-0.0,-1.0,0.19465221879184755,1.0,1
21.190818786621094,-21.53829574584961,0.8338732719421387,-0.0,-0.0,-1.0,0.2196955008267538,1.0,1
20.858491897583008,-21.59358787536621,0.7857307195663452,-0.0,-0.0,-1.0,0.12196562944458966,1.0,1
22.664100646972656,-21.14531898498535,1.03746497631073,-0.0,-0.0,-1.0,0.1515968813713612,1.0,2
22.545669555664062,-21.253437042236328,1.0253701210021973,-0.0,-0.0,-1.0,0.1548327601115513,2.0,2
21.58822250366211,-21.674863815307617,0.9000527858734131,-0.0,-0.0,-1.0,0.212431582212467,1.0,1
22.47540283203125,-21.5894775390625,1.0308833122253418,-0.0,-0.0,-1.0,0.11828588069172626,1.0,2
20.29096221923828,-20.397085189819336,1.090823769569397,-0.0,-0.0,-1.0,0.16702071831587578,1.0,2
20.28726577758789,-20.64145278930664,1.101778268814087,-0.0,-0.0,-1.0,0.1626049797997132,1.0,2
21.186946868896484,-21.71583366394043,1.250018835067749,-0.0,-0.0,-1.0,0.18067395678506945,2.0,2
22.656774520874023,-21.556442260742188,1.0566514730453491,-0.0,-0.0,-1.0,0.05931059496413748,1.0,2
22.63994026184082,-19.685089111328125,0.5748484134674072,-0.0,-0.0,-1.0,0.08159672518799908,1.0,1
22.044212341308594,-19.47747039794922,0.8166040182113647,-0.0,-0.0,-1.0,0.1621524769374181,2.0,1
22.681411743164062,-19.829940795898438,0.5915567874908447,-0.0,-0.0,-1.0,0.07021372912550816,2.0,1
21.391742706298828,-19.923568725585938,1.106928825378418,-0.0,-0.0,-1.0,0.14857232583052934,1.0,2
20.43091583251953,-20.25029182434082,0.9732409715652466,-0.23799213682656017,0.9675909471128317,0.08442453360262953,0.16627226081555868,3.0,1
22.613767623901367,-20.094526290893555,0.9401870965957642,0.7451934279309491,-0.1100786035460588,-0.6577001262048461,0.2503723346899813,3.0,1
22.288249969482422,-19.883630752563477,0.8754106760025024,-0.0,-0.0,-1.0,0.22143948923061657,2.0,1
22.532691955566406,-20.35940933227539,0.9347677230834961,-0.9395638505716365,0.33525820386653044,-0.06943851553128008,0.18583615175114998,4.0,1
22.350000381469727,-20.45436668395996,0.9052112102508545,-0.0,-0.0,-1.0,0.24880230389147065,2.0,1
22.62705421447754,-20.820262908935547,0.9640940427780151,-0.0,-0.0,-1.0,0.19461132992467872,2.0,1
22.3698787689209,-20.74785804748535,0.9161938428878784,-0.0,-0.0,-1.0,0.16625370836598868,1.0,1
21.431835174560547,-20.963706970214844,1.1265169382095337,-0.0,-0.0,-1.0,0.15551347906482352,1.0,2
21.553184509277344,-21.645631790161133,0.7785935401916504,-0.0,-0.0,-1.0,0.15368885426730547,1.0,1
21.320388793945312,-21.57202911376953,1.1107897758483887,-0.0,-0.0,-1.0,0.14921514749682543,1.0,2
21.11470603942871,-21.684356689453125,1.0796200037002563,0.20650327262619272,0.6059728714070346,-0.7682143434702231,0.22319812474602746,3.0,2
22.6943302154541,-21.732498168945312,0.9896448850631714,-0.0,-0.0,-1.0,0.17272332867846188,1.0,1
21.607440948486328,-21.745744705200195,0.7887998819351196,-0.0,-0.0,-1.0,0.17437978050101957,1.0,1
21.54894256591797,-21.839101791381836,0.7779068946838379,-0.0,-0.0,-1.0,0.15941495688208435,2.0,1
20.45706558227539,-20.074600219726562,1.3888038396835327,-0.0,-0.0,-1.0,0.15489045618311306,1.0,2
21.065353393554688,-19.54475212097168,0.9197794198989868,-0.0,-0.0,-1.0,0.20421094014329927,1.0,1
20.947921752929688,-20.008337020874023,0.9239990711212158,-0.0,-0.0,-1.0,0.15565665775062093,1.0,1
22.384780883789062,-19.845190048217773,0.8238546848297119,-0.0,-0.0,-1.0,0.19667406359610598,1.0,1
20.889732360839844,-20.140756607055664,0.9201151132583618,-0.0,-0.0,-1.0,0.10039943689278993,1.0,1
22.654682159423828,-20.240833282470703,0.7478756904602051,-0.4083639717991539,0.8699758272192653,0.2763709944812857,0.16243468452356635,4.0,1
22.50667953491211,-20.465763092041016,0.8925652503967285,-0.0,-0.0,-1.0,0.2135082065046324,1.0,1
22.381122589111328,-20.643909454345703,0.8781833648681641,-0.0,-0.0,-1.0,0.21795573176757232,2.0,1
21.631473541259766,-21.40158462524414,0.7591210603713989,-0.0,-0.0,-1.0,0.08583465771550529,1.0,1
21.61516761779785,-21.639118194580078,0.7638559341430664,-0.0,-0.0,-1.0,0.13800325495227647,1.0,1
21.538516998291016,-21.801673889160156,0.752206563949585,-0.0,-0.0,-1.0,0.17673386315838252,2.0,1
21.582740783691406,-19.750064849853516,1.0172938108444214,-0.0,-0.0,-1.0,0.1731016840096,1.0,2
21.229154586791992,-19.915388107299805,0.9669785499572754,-0.0,-0.0,-1.0,0.2882582667264952,2.0,1
20.438398361206055,-20.16724967956543,1.230539321899414,-0.0,-0.0,-1.0,0.11508783246713644,2.0,2
21.807085037231445,-19.985628128051758,1.0676610469818115,-0.0,-0.0,-1.0,0.20109666757079783,1.0,2
21.379898071289062,-20.05672836303711,0.9994934797286987,-0.0,-0.0,-1.0,0.16877796725278704,1.0,1
22.221786499023438,-20.2994441986084,1.153801679611206,-0.0,-0.0,-1.0,0.18714987887016854,1.0,2
21.169952392578125,-20.699241638183594,0.9916750192642212,-0.0,-0.0,-1.0,0.18256507558753163,1.0,1
22.56942367553711,-20.677356719970703,0.9186294078826904,-0.0,-0.0,-1.0,0.19550595488641048,1.0,1
21.880741119384766,-20.831377029418945,1.120053768157959,-0.0,-0.0,-1.0,0.14265757789504355,1.0,2
21.658504486083984,-20.941038131713867,1.085573434829712,-0.0,-0.0,-1.0,0.16613544093902455,1.0,2
21.110706329345703,-20.91729164123535,0.9889957904815674,-0.0,-0.0,-1.0,0.2076323227480625,2.0,1
20.88119125366211,-20.93288230895996,0.9492820501327515,-0.0,-0.0,-1.0,0.14648044957878492,1.0,1
22.486801147460938,-20.968509674072266,0.9185967445373535,-0.0,-0.0,-1.0,0.14291654546606752,2.0,1
21.55474090576172,-21.250022888183594,1.0775521993637085,-0.0,-0.0,-1.0,0.16919655377904694,1.0,2
21.324054718017578,-21.39980125427246,1.0408908128738403,-0.0,-0.0,-1.0,0.13493351207347912,1.0,2
22.53582763671875,-21.50125503540039,0.9540524482727051,-0.0,-0.0,-1.0,0.10867209029844606,1.0,1
21.34927749633789,-21.750164031982422,1.0533760786056519,-0.0,-0.0,-1.0,0.09318098437679553,1.0,2
20.93276596069336,-21.83386993408203,0.9796900749206543,-0.0,-0.0,-1.0,0.08070845666412661,1.0,1
22.603351593017578,-21.744447708129883,0.9779270887374878,-0.0,-0.0,-1.0,0.16641576677922287,1.0,1
21.20412826538086,-21.01038360595703,0.8508069515228271,-0.0,-0.0,-1.0,0.18425512415922793,1.0,1
20.988130569458008,-21.19786834716797,0.8140685558319092,-0.0,-0.0,-1.0,0.1172532487754294,1.0,1
20.78820037841797,-21.31702995300293,0.775193452835083,-0.0,-0.0,-1.0,0.04889434269257149,1.0,1
20.83208465576172,-21.73590087890625,0.8110353946685791,-0.0,-0.0,-1.0,0.08964556851623577,1.0,1
21.465295791625977,-19.91676139831543,1.150934100151062,-0.0,-0.0,-1.0,0.1918967640944001,1.0,2
21.15375518798828,-19.921586990356445,1.0929805040359497,-0.0,-0.0,-1.0,0.238753116851273,1.0,2
22.436588287353516,-20.08983039855957,1.0377869606018066,-0.0,-0.0,-1.0,0.252234459270691,1.0,2
22.09163475036621,-20.193702697753906,0.9751105308532715,-0.0,-0.0,-1.0,0.20369851861293853,1.0,1
20.236248016357422,-20.563570022583008,0.9639995098114014,-0.0,-0.0,-1.0,0.11570197855930114,2.0,1
22.326255798339844,-20.37262725830078,1.045320987701416,-0.0,-0.0,-1.0,0.2082908836768137,2.0,2
22.118221282958984,-20.618215560913086,1.0245497226715088,-0.0,-0.0,-1.0,0.2076589728350057,1.0,2
22.405345916748047,-20.74098014831543,1.1008532047271729,-0.0,-0.0,-1.0,0.19499984572752183,2.0,2
22.064287185668945,-20.898677825927734,1.0389103889465332,-0.0,-0.0,-1.0,0.1435539996140867,2.0,2
21.89730453491211,-20.81279182434082,0.9934365749359131,-0.0,-0.0,-1.0,0.19290306063666657,1.0,1
20.34587860107422,-21.553499221801758,1.041043758392334,-0.0,-0.0,-1.0,0.09398792561434294,1.0,2
22.304155349731445,-21.231515884399414,1.1228106021881104,-0.0,-0.0,-1.0,0.04982349770935897,1.0,2
21.123918533325195,-21.632097244262695,1.0392911434173584,-0.0,-0.0,-1.0,0.23563643670636886,1.0,2
21.572265625,-21.747821807861328,0.9889206886291504,-0.0,-0.0,-1.0,0.23992265611196856,1.0,1
20.29961585998535,-20.266538619995117,1.325473666191101,-0.0,-0.0,-1.0,0.16500853549629776,1.0,2
20.676631927490234,-19.374603271484375,0.7407071590423584,-0.0,-0.0,-1.0,0.15233822375796605,1.0,1
20.997516632080078,-20.01506805419922,0.8901991844177246,-0.0,-0.0,-1.0,0.1971318164758119,1.0,1
20.556161880493164,-20.37546157836914,0.8354239463806152,-0.0,-0.0,-1.0,0.14249629118756185,2.0,1
20.230091094970703,-20.5279541015625,0.7782199382781982,-0.0,-0.0,-1.0,0.1848271496449425,1.0,1
20.721237182617188,-20.467933654785156,0.8823516368865967,-0.0,-0.0,-1.0,0.1780490732194962,2.0,1
20.351463317871094,-20.591033935546875,0.8122079372406006,-0.0,-0.0,-1.0,0.2611492169662437,1.0,1
21.289566040039062,-19.762069702148438,0.9197463989257812,-0.0,-0.0,-1.0,0.20533370658457506,1.0,1
20.226455688476562,-19.987451553344727,1.076232671737671,-0.0,-0.0,-1.0,0.1423911184923266,1.0,2
21.596233367919922,-19.94133186340332,1.0073554515838623,-0.9488709012050485,0.04384532889281084,0.3126045424823515,0.15726765920122052,3.0,2
21.25058937072754,-20.027009963989258,0.9456794261932373,-0.0,-0.0,-1.0,0.19426807143431682,2.0,1
20.43856430053711,-20.311126708984375,1.1467394828796387,-0.0,-0.0,-1.0,0.12496170345410658,1.0,2
20.361652374267578,-20.56125259399414,1.154187798500061,-0.0,-0.0,-1.0,0.15837832949870778,2.0,2
21.26689338684082,-20.906494140625,1.0517313480377197,-0.0,-0.0,-1.0,0.17787377191066714,1.0,2
21.133955001831055,-20.899913787841797,1.0211241245269775,-0.0,-0.0,-1.0,0.19224333527967516,2.0,2
21.15772819519043,-21.42565155029297,1.0781142711639404,-0.0,-0.0,-1.0,0.167812497483595,1.0,2
20.924285888671875,-21.574026107788086,1.0366125106811523,-0.0,-0.0,-1.0,0.12630470297302834,1.0,2
21.06427574157715,-21.696414947509766,1.079829216003418,-0.0,-0.0,-1.0,0.16976348398302704,2.0,2
21.219951629638672,-19.864736557006836,1.05134916305542,-0.0,-0.0,-1.0,0.248336274919821,1.0,2
21.085838317871094,-19.79890251159668,1.0152134895324707,-0.0,-0.0,-1.0,0.21051734962523055,2.0,2
20.376419067382812,-19.952049255371094,1.224928617477417,-0.0,-0.0,-1.0,0.18716753392839183,1.0,2
21.284942626953125,-19.9670467376709,1.0795564651489258,-0.0,-0.0,-1.0,0.22445688408004094,1.0,2
20.52323341369629,-20.230243682861328,1.124192476272583,-0.0,-0.0,-1.0,0.15632085937609633,1.0,2
20.247169494628906,-20.144878387451172,1.0785064697265625,0.991350465173514,0.07975542419229216,0.10422728775212903,0.16531164144459942,3.0,2
20.52164077758789,-20.13201904296875,1.368287444114685,0.8036011219238511,-0.5639831547901661,-0.19012689961091594,0.16476884329567731,5.0,2
20.27610969543457,-20.169559478759766,1.3432259559631348,-0.0,-0.0,-1.0,0.18825669298332554,1.0,2
20.33319091796875,-19.9230899810791,1.194959044456482,-0.0,-0.0,-1.0,0.21964717997968214,1.0,2
20.22643280029297,-19.976303100585938,1.1865581274032593,-0.0,-0.0,-1.0,0.18284519137707828,1.0,2
20.23061752319336,-20.197317123413086,1.3665273189544678,-0.0,-0.0,-1.0,0.2174048087855181,1.0,2
20.236156463623047,-20.389524459838867,1.2667123079299927,-0.0,-0.0,-1.0,0.1232229381323554,1.0,2
20.530014038085938,-20.13079261779785,1.3887203931808472,0.8036011219238511,-0.5639831547901661,-0.19012689961091594,0.214454395505529,5.0,2
20.52914047241211,-20.12248992919922,1.3815957307815552,0.8036011219238511,-0.5639831547901661,-0.19012689961091594,0.21445439550552897,5.0,2
21.821701049804688,-19.84032440185547,0.8967506885528564,-0.0,-0.0,-1.0,0.218939361484285,1.0,1
20.247297286987305,-20.355432510375977,0.9911942481994629,-0.0,-0.0,-1.0,0.11353867569886186,2.0,1
21.096141815185547,-19.8480281829834,0.9414166212081909,-0.6184869256690608,0.7500271204689786,0.23437841482834068,0.21393520767693652,4.0,1
21.43341636657715,-19.997663497924805,0.9128578901290894,-0.8708833668361408,-0.46181853875645035,-0.16818382392193584,0.23382736327756817,3.0,1
22.117321014404297,-20.5670108795166,0.8482530117034912,-0.0,-0.0,-1.0,0.17711924297788142,1.0,1
21.93476104736328,-20.846323013305664,0.8551535606384277,-0.0,-0.0,-1.0,0.20174011977224027,2.0,1
22.44662857055664,-20.237939834594727,0.8314669132232666,0.5116583571086295,0.20171566953670944,-0.8351745411973807,0.23642443674465277,3.0,1
22.31293487548828,-20.35735511779785,0.838645339012146,-0.0,-0.0,-1.0,0.28884654562040185,1.0,1
22.609119415283203,-20.25077247619629,0.8189296722412109,-0.0,-0.0,-1.0,0.25698247362013665,2.0,1
22.08090591430664,-20.887725830078125,1.0585697889328003,-0.0,-0.0,-1.0,0.1821388429711636,2.0,2
22.31304168701172,-20.532733917236328,1.0458245277404785,-0.0,-0.0,-1.0,0.16615207276057178,1.0,2
22.488876342773438,-20.269725799560547,1.0359827280044556,-0.10172811817822178,0.770180089786939,-0.6296618292922794,0.2656780437103227,4.0,2
20.48748779296875,-20.021709442138672,0.6904430389404297,-0.0,-0.0,-1.0,0.14373215505490283,1.0,1
20.932024002075195,-19.740711212158203,0.6883563995361328,-0.0,-0.0,-1.0,0.2035991489168711,1.0,1
21.33780860900879,-19.81863784790039,0.6673033237457275,-0.0,-0.0,-1.0,0.1757011342862533,2.0,1
21.857120513916016,-20.022315979003906,0.6340267658233643,-0.0,-0.0,-1.0,0.11813422166984142,1.0,1
22.197551727294922,-19.948410034179688,0.6233673095703125,-0.7666921749362744,0.6229075736209112,-0.1554646699967371,0.17100115621807532,3.0,1
22.057483673095703,-20.129344940185547,0.6194512844085693,-0.0,-0.0,-1.0,0.1715298338081057,1.0,1
22.346641540527344,-19.802261352539062,0.6248762607574463,-0.0,-0.0,-1.0,0.16829057929366906,1.0,1
20.35233497619629,-19.497440338134766,0.6314783096313477,-0.0,-0.0,-1.0,0.17078853344816242,1.0,1
