//X;Y;Z;R;G;B;Intensity;Return Number;Number Of Returns;Scan Direction Flag;Point Source ID;C2M signed distances[-][<0.8];C2M signed distances[<0.4];C2M signed distances[-][<0.2];Stump69
445632.71660049;5696553.99790009;470.79224994;184;179;164;45746.000000;1.000000;1.000000;1.000000;1.000000;-0.035276;0.035276;-0.035276;1.000000
445632.68230255;5696553.95889862;470.79725005;144;133;120;34438.000000;1.000000;1.000000;1.000000;1.000000;-0.069574;0.069574;-0.069574;1.000000
445632.76720245;5696554.11019905;470.78184988;121;113;102;29298.000000;1.000000;1.000000;1.000000;1.000000;0.015326;-0.015326;0.015326;1.000000
445632.19240005;5696554.08479889;470.88135006;156;149;137;38293.000000;1.000000;1.000000;1.000000;1.000000;-0.111880;0.111880;-0.111880;1.000000
445632.58010300;5696554.17819794;470.82314994;149;150;142;38036.000000;1.000000;1.000000;1.000000;1.000000;-0.151802;0.151802;-0.151802;1.000000
445632.70980270;5696553.92379959;470.78874995;104;95;81;24672.000000;1.000000;1.000000;1.000000;1.000000;-0.042074;0.042074;-0.042074;1.000000
445632.26540192;5696554.08069809;470.85905005;87;77;64;20046.000000;1.000000;1.000000;1.000000;1.000000;-0.184995;0.184995;-0.184995;1.000000
445632.76600082;5696554.14760025;470.78464987;124;118;106;30326.000000;1.000000;1.000000;1.000000;1.000000;0.014124;-0.014124;0.014124;1.000000
445632.61960037;5696554.06740006;470.80495002;160;150;140;38807.000000;1.000000;1.000000;1.000000;1.000000;-0.132277;0.132277;-0.132277;1.000000
445632.39040192;5696554.24419983;470.86424996;112;108;93;27499.000000;1.000000;1.000000;1.000000;1.000000;-0.085800;0.085800;-0.085800;1.000000
445632.53870209;5696554.21240051;470.82634999;76;68;57;17733.000000;1.000000;1.000000;1.000000;1.000000;0.117599;-0.117599;0.117599;1.000000
445632.42570313;5696554.24569901;470.86124994;92;83;66;21331.000000;1.000000;1.000000;1.000000;1.000000;-0.084301;0.084301;-0.084301;1.000000
445632.53980072;5696554.24969872;470.82684996;163;151;132;39064.000000;1.000000;1.000000;1.000000;1.000000;0.080301;-0.080301;0.080301;1.000000
445632.46220215;5696554.28439911;470.85864999;150;139;122;35980.000000;1.000000;1.000000;1.000000;1.000000;-0.050994;0.050994;-0.050994;1.000000
445632.46100052;5696554.32189949;470.85905005;32;23;16;6168.000000;1.000000;1.000000;1.000000;1.000000;-0.023091;0.023091;-0.023091;1.000000
445632.29400070;5696554.29500015;470.87684991;182;171;156;44204.000000;1.000000;1.000000;1.000000;1.000000;-0.035000;0.035000;-0.035000;1.000000
445632.28050049;5696553.96940048;470.86535003;159;152;136;39064.000000;1.000000;1.000000;1.000000;1.000000;-0.139425;0.139425;-0.139425;1.000000
445632.47160156;5696554.28359802;470.85445001;141;132;115;33924.000000;1.000000;1.000000;1.000000;1.000000;-0.056494;0.056494;-0.056494;1.000000
445632.57280167;5696554.32609947;470.82454993;149;136;120;35466.000000;1.000000;1.000000;1.000000;1.000000;0.003901;-0.003901;0.003901;1.000000
445632.60690125;5696554.36499985;470.82194998;222;211;194;54484.000000;1.000000;1.000000;1.000000;1.000000;0.011274;-0.011274;0.011274;1.000000
445632.49440201;5696554.37949951;470.85894992;186;179;162;46003.000000;1.000000;1.000000;1.000000;1.000000;-0.062848;0.062848;-0.062848;1.000000
445632.79640015;5696554.29669960;470.78075006;140;134;120;34438.000000;1.000000;1.000000;1.000000;1.000000;0.033300;-0.033300;0.033300;1.000000
445632.56470306;5696553.91569908;470.82634999;173;161;146;41634.000000;1.000000;1.000000;1.000000;1.000000;-0.085699;0.085699;-0.085699;1.000000
445632.60840042;5696554.32760056;470.81454994;218;205;187;52942.000000;1.000000;1.000000;1.000000;1.000000;-0.002399;0.002399;-0.002399;1.000000
445632.49500092;5696554.35849960;470.85404994;126;116;100;30069.000000;1.000000;1.000000;1.000000;1.000000;-0.047601;0.047601;-0.047601;1.000000
445632.52630051;5696553.87729843;470.82184984;137;128;110;32896.000000;1.000000;1.000000;1.000000;1.000000;-0.047789;0.047789;-0.047789;1.000000
445632.71320160;5696553.88609894;470.79075005;108;100;89;25957.000000;1.000000;1.000000;1.000000;1.000000;-0.038675;0.038675;-0.038675;1.000000
445632.60600098;5696553.97289856;470.80795004;172;158;142;41120.000000;1.000000;1.000000;1.000000;1.000000;-0.142899;0.142899;-0.142899;1.000000
445632.75660141;5696554.14839943;470.78655006;129;122;110;31354.000000;1.000000;1.000000;1.000000;1.000000;0.004725;-0.004725;0.004725;1.000000
445632.58380325;5696554.29009827;470.81764986;137;121;103;31611.000000;1.000000;1.000000;1.000000;1.000000;-0.039902;0.039902;-0.039902;1.000000
445632.52270325;5696554.38159950;470.85794999;197;189;170;48573.000000;1.000000;1.000000;1.000000;1.000000;-0.052642;0.052642;-0.052642;1.000000
445632.60480316;5696554.01029785;470.80834987;130;118;103;30583.000000;1.000000;1.000000;1.000000;1.000000;-0.147074;0.147074;-0.147074;1.000000
445632.67800339;5696554.01529892;470.80235006;133;127;113;32639.000000;1.000000;1.000000;1.000000;1.000000;-0.073874;0.073874;-0.073874;1.000000
445632.59750183;5696554.39150055;470.82644989;158;147;131;38036.000000;1.000000;1.000000;1.000000;1.000000;0.001875;-0.001875;0.001875;1.000000
445632.64240082;5696554.01159866;470.80534985;172;161;147;41634.000000;1.000000;1.000000;1.000000;1.000000;-0.109476;0.109476;-0.109476;1.000000
445632.67850311;5696554.21859940;470.79784991;56;51;42;13107.000000;1.000000;1.000000;1.000000;1.000000;-0.096729;0.096729;-0.096729;1.000000
445632.33329971;5696553.83149918;470.85914995;230;231;224;58853.000000;1.000000;1.000000;1.000000;1.000000;0.018982;-0.018982;0.018982;1.000000
445632.49650009;5696553.91259964;470.83014991;94;88;73;22616.000000;1.000000;1.000000;1.000000;1.000000;-0.090356;0.090356;-0.090356;1.000000
445632.67290314;5696554.13489922;470.80125000;202;200;190;51143.000000;1.000000;1.000000;1.000000;1.000000;-0.078974;0.078974;-0.078974;1.000000
445632.45210083;5696554.27599915;470.85815002;171;160;143;41377.000000;1.000000;1.000000;1.000000;1.000000;-0.055480;0.055480;-0.055480;1.000000
445632.23150070;5696554.02289780;470.87074997;41;33;23;8738.000000;1.000000;1.000000;1.000000;1.000000;-0.154766;0.154766;-0.154766;1.000000
445632.37360199;5696554.39290054;470.86994984;168;151;131;39321.000000;1.000000;1.000000;1.000000;1.000000;0.062901;-0.062901;0.062901;1.000000
445632.56390198;5696554.28019913;470.82364990;145;129;109;33667.000000;1.000000;1.000000;1.000000;1.000000;-0.049801;0.049801;-0.049801;1.000000
445632.67840012;5696554.04339798;470.80034997;120;114;101;29298.000000;1.000000;1.000000;1.000000;1.000000;-0.073477;0.073477;-0.073477;1.000000
445632.71440323;5696554.24809845;470.78814985;78;66;55;17476.000000;1.000000;1.000000;1.000000;1.000000;-0.081902;0.081902;-0.081902;1.000000
445632.68140228;5696553.92169960;470.79204990;125;116;101;30069.000000;1.000000;1.000000;1.000000;1.000000;-0.070475;0.070475;-0.070475;1.000000
445632.27340134;5696554.11730011;470.86214997;155;146;132;37779.000000;1.000000;1.000000;1.000000;1.000000;-0.190696;0.190696;-0.190696;1.000000
445632.26710327;5696554.28569992;470.88485004;137;129;115;33153.000000;1.000000;1.000000;1.000000;1.000000;-0.044300;0.044300;-0.044300;1.000000
445632.60090073;5696554.06679924;470.80414989;152;140;128;36494.000000;1.000000;1.000000;1.000000;1.000000;-0.150976;0.150976;-0.150976;1.000000
445632.28730209;5696554.24889954;470.87835004;122;117;106;30069.000000;1.000000;1.000000;1.000000;1.000000;-0.081208;0.081208;-0.081208;1.000000
445632.25220306;5696554.01639946;470.86465003;79;71;63;18504.000000;1.000000;1.000000;1.000000;1.000000;-0.175833;0.175833;-0.175833;1.000000
445632.68480118;5696553.88399895;470.79414989;125;117;107;30326.000000;1.000000;1.000000;1.000000;1.000000;-0.054192;0.054192;-0.054192;1.000000
445632.70680054;5696554.22059830;470.79674985;116;109;100;28270.000000;1.000000;1.000000;1.000000;1.000000;-0.079142;0.079142;-0.079142;1.000000
445632.66830261;5696554.25699814;470.79314997;148;134;121;34952.000000;1.000000;1.000000;1.000000;1.000000;-0.073006;0.073006;-0.073006;1.000000
445632.34140213;5696553.84239777;470.85724999;163;167;159;42148.000000;1.000000;1.000000;1.000000;1.000000;0.029733;-0.029733;0.029733;1.000000
445632.75090225;5696554.06249817;470.78754999;111;104;93;26728.000000;1.000000;1.000000;1.000000;1.000000;-0.000975;0.000975;-0.000975;1.000000
445632.75640305;5696554.35149963;470.79824998;160;152;139;39064.000000;1.000000;1.000000;1.000000;1.000000;-0.021500;0.021500;-0.021500;1.000000
445632.24730118;5696554.08930023;470.86524989;141;132;118;34181.000000;1.000000;1.000000;1.000000;1.000000;-0.166393;0.166393;-0.166393;1.000000
445632.19520004;5696554.01219948;470.87594988;218;213;200;54741.000000;1.000000;1.000000;1.000000;1.000000;-0.119203;0.119203;-0.119203;1.000000
445632.40900238;5696554.39430054;470.86695005;157;140;119;36494.000000;1.000000;1.000000;1.000000;1.000000;0.064306;-0.064306;0.064306;1.000000
445632.74170120;5696553.84139832;470.79154994;133;128;119;32896.000000;1.000000;1.000000;1.000000;1.000000;-0.010176;0.010176;-0.010176;1.000000
445632.67740067;5696554.03409775;470.80254986;139;132;118;33924.000000;1.000000;1.000000;1.000000;1.000000;-0.074476;0.074476;-0.074476;1.000000
445632.35540207;5696554.16810043;470.85944988;146;141;130;36237.000000;1.000000;1.000000;1.000000;1.000000;-0.161903;0.161903;-0.161903;1.000000
445632.35710342;5696553.90649994;470.84944989;156;150;138;38550.000000;1.000000;1.000000;1.000000;1.000000;0.087623;-0.087623;0.087623;1.000000
445632.19640167;5696553.97469910;470.87564995;120;117;107;29812.000000;1.000000;1.000000;1.000000;1.000000;-0.124453;0.124453;-0.124453;1.000000
445632.35400208;5696554.20559891;470.86454989;230;229;220;58596.000000;1.000000;1.000000;1.000000;1.000000;-0.124425;0.124425;-0.124425;1.000000
445632.52610214;5696553.84929855;470.81914999;172;164;151;42148.000000;1.000000;1.000000;1.000000;1.000000;-0.020537;0.020537;-0.020537;1.000000
445632.21460159;5696554.41390045;470.91654994;179;162;139;42148.000000;1.000000;1.000000;1.000000;1.000000;-0.037275;0.037275;-0.037275;1.000000
445632.49200256;5696553.83829887;470.82675006;156;146;134;37779.000000;1.000000;1.000000;1.000000;1.000000;-0.041953;0.041953;-0.041953;1.000000
445632.19849976;5696553.89969833;470.87944986;108;104;97;26728.000000;1.000000;1.000000;1.000000;1.000000;-0.069698;0.069698;-0.069698;1.000000
445632.32790192;5696554.38069923;470.87474992;169;151;129;39321.000000;1.000000;1.000000;1.000000;1.000000;0.050699;-0.050699;0.050699;1.000000
445632.29290207;5696554.33249863;470.87724998;96;79;57;20817.000000;1.000000;1.000000;1.000000;1.000000;0.002702;-0.002702;0.002702;1.000000
445632.22780045;5696554.34749802;470.90004994;187;175;155;45232.000000;1.000000;1.000000;1.000000;1.000000;-0.017498;0.017498;-0.017498;1.000000
445632.43020065;5696554.39469917;470.86325004;183;168;147;43690.000000;1.000000;1.000000;1.000000;1.000000;0.064699;-0.064699;0.064699;1.000000
445632.26820190;5696553.83749969;470.86325004;92;89;79;22616.000000;1.000000;1.000000;1.000000;1.000000;-0.007500;0.007500;-0.007500;1.000000
445632.28820236;5696554.40769775;470.87794997;165;144;122;37779.000000;1.000000;1.000000;1.000000;1.000000;0.036325;-0.036325;0.036325;1.000000
445632.31840332;5696553.94279869;470.85045006;137;127;114;32896.000000;1.000000;1.000000;1.000000;1.000000;0.112871;-0.112871;0.112871;1.000000
445632.70540054;5696554.00589951;470.79644992;163;157;144;40349.000000;1.000000;1.000000;1.000000;1.000000;-0.046476;0.046476;-0.046476;1.000000
445632.31330307;5696553.84039886;470.85594990;90;92;84;23130.000000;1.000000;1.000000;1.000000;1.000000;0.010399;-0.010399;0.010399;1.000000
445632.86820038;5696554.36699875;470.78714993;171;166;151;42405.000000;1.000000;1.000000;1.000000;1.000000;0.036999;-0.036999;0.036999;1.000000
445632.99540146;5696554.22449883;470.78195002;85;77;56;19789.000000;1.000000;1.000000;1.000000;1.000000;-0.108371;0.108371;-0.108371;1.000000
445632.95540054;5696554.29599960;470.77865006;194;192;181;49087.000000;1.000000;1.000000;1.000000;1.000000;0.034000;-0.034000;0.034000;1.000000
445632.78740128;5696553.85129936;470.78434994;133;127;117;32639.000000;1.000000;1.000000;1.000000;1.000000;0.035524;-0.035524;0.035524;1.000000
445632.91790207;5696554.29479797;470.77924993;86;83;70;21074.000000;1.000000;1.000000;1.000000;1.000000;0.035202;-0.035202;0.035202;1.000000
445632.83080109;5696554.13479813;470.77105000;98;91;80;23387.000000;1.000000;1.000000;1.000000;1.000000;0.078924;-0.078924;0.078924;1.000000
445632.85790070;5696553.97569855;470.77504994;162;154;140;39578.000000;1.000000;1.000000;1.000000;1.000000;0.106024;-0.106024;0.106024;1.000000
445632.82390030;5696554.11429794;470.77755000;45;38;27;9766.000000;1.000000;1.000000;1.000000;1.000000;0.072023;-0.072023;0.072023;1.000000
445632.96550186;5696554.27869995;470.77884986;134;131;116;33410.000000;1.000000;1.000000;1.000000;1.000000;-0.051300;0.051300;-0.051300;1.000000
445632.87910278;5696554.33109863;470.78024985;65;60;46;15163.000000;1.000000;1.000000;1.000000;1.000000;-0.001099;0.001099;-0.001099;1.000000
445632.84150131;5696554.32760056;470.77854993;117;109;96;28013.000000;1.000000;1.000000;1.000000;1.000000;-0.002399;0.002399;-0.002399;1.000000
445632.83160217;5696554.14179810;470.76884987;112;105;94;26985.000000;1.000000;1.000000;1.000000;1.000000;0.079725;-0.079725;0.079725;1.000000
445632.76260193;5696553.81379898;470.78985002;76;68;59;17733.000000;1.000000;1.000000;1.000000;1.000000;0.019429;-0.019429;0.019429;1.000000
445632.91680344;5696554.33230026;470.77734997;114;108;95;27756.000000;1.000000;1.000000;1.000000;1.000000;-0.002300;0.002300;-0.002300;1.000000
445632.95409973;5696554.33339890;470.78134992;192;188;177;48059.000000;1.000000;1.000000;1.000000;1.000000;-0.003399;0.003399;-0.003399;1.000000
445632.86900146;5696554.14290054;470.77055003;123;116;103;29812.000000;1.000000;1.000000;1.000000;1.000000;0.117125;-0.117125;0.117125;1.000000
445632.86960037;5696554.12419899;470.77035000;67;61;50;15677.000000;1.000000;1.000000;1.000000;1.000000;0.117723;-0.117723;0.117723;1.000000
445632.91550262;5696554.36969955;470.78005006;105;100;83;25443.000000;1.000000;1.000000;1.000000;1.000000;-0.039700;0.039700;-0.039700;1.000000
445632.87820251;5696554.37539871;470.79005005;143;139;123;35466.000000;1.000000;1.000000;1.000000;1.000000;-0.045399;0.045399;-0.045399;1.000000
445632.82840164;5696554.23319824;470.76985003;126;113;96;29555.000000;1.000000;1.000000;1.000000;1.000000;-0.096802;0.096802;-0.096802;1.000000
445632.77890213;5696553.86139877;470.78644993;151;145;135;37265.000000;1.000000;1.000000;1.000000;1.000000;0.027025;-0.027025;0.027025;1.000000
445632.87660034;5696553.97629936;470.77594997;134;127;110;32639.000000;1.000000;1.000000;1.000000;1.000000;0.124723;-0.124723;0.124723;1.000000
445632.97470291;5696554.27779968;470.77924993;77;72;57;18247.000000;1.000000;1.000000;1.000000;1.000000;-0.052359;0.052359;-0.052359;1.000000
445632.86600311;5696553.79030045;470.78024985;99;91;72;23387.000000;1.000000;1.000000;1.000000;1.000000;0.120834;-0.120834;0.120834;1.000000
445632.81060226;5696553.97299774;470.77985003;149;139;127;35980.000000;1.000000;1.000000;1.000000;1.000000;0.058725;-0.058725;0.058725;1.000000
445632.82260330;5696553.89949997;470.77724983;200;197;185;50372.000000;1.000000;1.000000;1.000000;1.000000;0.070726;-0.070726;0.070726;1.000000
445632.89090164;5696554.28319939;470.78254988;224;222;210;56797.000000;1.000000;1.000000;1.000000;1.000000;0.046801;-0.046801;0.046801;1.000000
445632.78930099;5696553.82309921;470.78644993;111;104;92;26728.000000;1.000000;1.000000;1.000000;1.000000;0.038055;-0.038055;0.038055;1.000000
445632.84850128;5696553.97659882;470.77694990;175;167;153;42919.000000;1.000000;1.000000;1.000000;1.000000;0.096624;-0.096624;0.096624;1.000000
445632.84959991;5696553.93680008;470.77425005;157;147;132;38036.000000;1.000000;1.000000;1.000000;1.000000;0.097723;-0.097723;0.097723;1.000000
445632.95710190;5696554.23969849;470.78034999;223;218;203;55769.000000;1.000000;1.000000;1.000000;1.000000;0.090302;-0.090302;0.090302;1.000000
445632.86700256;5696554.17119797;470.77084996;75;65;51;16962.000000;1.000000;1.000000;1.000000;1.000000;0.116257;-0.116257;0.116257;1.000000
445632.79240234;5696553.95369919;470.78114988;70;62;51;16191.000000;1.000000;1.000000;1.000000;1.000000;0.040525;-0.040525;0.040525;1.000000
445632.79670151;5696553.85050018;470.78244998;143;137;127;35209.000000;1.000000;1.000000;1.000000;1.000000;0.044825;-0.044825;0.044825;1.000000
445632.79950150;5696554.03009995;470.78234984;133;128;115;32896.000000;1.000000;1.000000;1.000000;1.000000;0.047625;-0.047625;0.047625;1.000000
445632.82209976;5696554.34799774;470.78484990;141;134;123;34438.000000;1.000000;1.000000;1.000000;1.000000;-0.017998;0.017998;-0.017998;1.000000
445632.81480225;5696554.31830032;470.78184988;160;153;142;39321.000000;1.000000;1.000000;1.000000;1.000000;0.011700;-0.011700;0.011700;1.000000
445632.80540283;5696554.09490021;470.78574993;166;159;146;40863.000000;1.000000;1.000000;1.000000;1.000000;0.053526;-0.053526;0.053526;1.000000
445632.81390198;5696554.08479889;470.78374984;179;172;158;44204.000000;1.000000;1.000000;1.000000;1.000000;0.062025;-0.062025;0.062025;1.000000
445632.88250168;5696554.29329880;470.78224995;221;219;208;56026.000000;1.000000;1.000000;1.000000;1.000000;0.036701;-0.036701;0.036701;1.000000
445632.93050201;5696554.20260056;470.77405002;115;104;88;26985.000000;1.000000;1.000000;1.000000;1.000000;-0.127399;0.127399;-0.127399;1.000000
445632.84020050;5696553.93759926;470.77615001;137;128;114;33153.000000;1.000000;1.000000;1.000000;1.000000;0.088324;-0.088324;0.088324;1.000000
445632.81480225;5696554.09399994;470.78384997;155;148;134;38036.000000;1.000000;1.000000;1.000000;1.000000;0.062925;-0.062925;0.062925;1.000000
445632.86460312;5696554.24609955;470.77164986;170;158;144;41120.000000;1.000000;1.000000;1.000000;1.000000;0.083900;-0.083900;0.083900;1.000000
445632.91870316;5696554.30399902;470.77944996;92;89;75;22616.000000;1.000000;1.000000;1.000000;1.000000;0.026001;-0.026001;0.026001;1.000000
445632.84550293;5696554.02120026;470.77974989;171;166;153;42662.000000;1.000000;1.000000;1.000000;1.000000;0.093626;-0.093626;0.093626;1.000000
445632.91740234;5696554.31349953;470.77714993;81;78;64;19789.000000;1.000000;1.000000;1.000000;1.000000;0.016500;-0.016500;0.016500;1.000000
445632.80920227;5696553.98250015;470.77994992;176;167;155;43176.000000;1.000000;1.000000;1.000000;1.000000;0.057325;-0.057325;0.057325;1.000000
445632.84679993;5696553.98369797;470.77694990;176;169;156;43433.000000;1.000000;1.000000;1.000000;1.000000;0.094923;-0.094923;0.094923;1.000000
445632.83020218;5696553.95489891;470.77594997;147;136;122;35209.000000;1.000000;1.000000;1.000000;1.000000;0.078325;-0.078325;0.078325;1.000000
445632.85270126;5696554.09529884;470.77394988;70;65;52;16705.000000;1.000000;1.000000;1.000000;1.000000;0.100824;-0.100824;0.100824;1.000000
445632.80920227;5696553.78619965;470.78694989;167;161;147;41377.000000;1.000000;1.000000;1.000000;1.000000;0.072143;-0.072143;0.072143;1.000000
445632.86790283;5696553.95839890;470.77534987;117;107;90;27756.000000;1.000000;1.000000;1.000000;1.000000;0.116026;-0.116026;0.116026;1.000000
445632.86690338;5696553.79959877;470.78034999;94;86;66;22102.000000;1.000000;1.000000;1.000000;1.000000;0.118976;-0.118976;0.118976;1.000000
445632.93720062;5696554.27659805;470.77994992;124;121;107;30840.000000;1.000000;1.000000;1.000000;1.000000;-0.053402;0.053402;-0.053402;1.000000
445632.85110291;5696554.12589844;470.76954987;114;108;98;27756.000000;1.000000;1.000000;1.000000;1.000000;0.099226;-0.099226;0.099226;1.000000
445632.88240250;5696554.26539810;470.77964999;174;169;156;43433.000000;1.000000;1.000000;1.000000;1.000000;0.064602;-0.064602;0.064602;1.000000
445632.86340149;5696553.83499916;470.77594997;93;86;71;22102.000000;1.000000;1.000000;1.000000;1.000000;0.111525;-0.111525;0.111525;1.000000
445632.84340103;5696554.29929932;470.78055002;167;163;151;41634.000000;1.000000;1.000000;1.000000;1.000000;-0.030701;0.030701;-0.030701;1.000000
445632.82450302;5696553.87129791;470.77935006;99;91;80;23644.000000;1.000000;1.000000;1.000000;1.000000;0.072626;-0.072626;0.072626;1.000000
445632.97860153;5696554.16769989;470.77584984;115;104;83;26728.000000;1.000000;1.000000;1.000000;1.000000;-0.162496;0.162496;-0.162496;1.000000
445632.96730240;5696554.25039871;470.78324987;228;225;211;57568.000000;1.000000;1.000000;1.000000;1.000000;-0.079601;0.079601;-0.079601;1.000000
445632.79000290;5696554.02859886;470.78195002;134;127;115;32639.000000;1.000000;1.000000;1.000000;1.000000;0.038126;-0.038126;0.038126;1.000000
445632.86230286;5696553.87249954;470.77405002;159;151;137;38807.000000;1.000000;1.000000;1.000000;1.000000;0.110426;-0.110426;0.110426;1.000000
445632.82580002;5696554.08600052;470.78195002;164;158;143;40606.000000;1.000000;1.000000;1.000000;1.000000;0.073923;-0.073923;0.073923;1.000000
445632.86520203;5696554.03100021;470.77834990;151;145;132;37265.000000;1.000000;1.000000;1.000000;1.000000;0.113325;-0.113325;0.113325;1.000000
445632.82769974;5696554.02979858;470.77904989;127;121;109;31097.000000;1.000000;1.000000;1.000000;1.000000;0.075823;-0.075823;0.075823;1.000000
445632.80220230;5696554.17949875;470.77265002;79;72;62;18761.000000;1.000000;1.000000;1.000000;1.000000;0.055946;-0.055946;0.055946;1.000000
445632.86350067;5696554.01249893;470.77804996;138;133;119;33924.000000;1.000000;1.000000;1.000000;1.000000;0.111624;-0.111624;0.111624;1.000000
445632.92770203;5696554.27519806;470.77944996;110;107;93;27242.000000;1.000000;1.000000;1.000000;1.000000;0.054802;-0.054802;0.054802;1.000000
445632.83690079;5696554.02899940;470.77944996;163;157;146;40349.000000;1.000000;1.000000;1.000000;1.000000;0.085024;-0.085024;0.085024;1.000000
445632.83230026;5696554.10420044;470.77775003;44;37;26;9509.000000;1.000000;1.000000;1.000000;1.000000;0.080423;-0.080423;0.080423;1.000000
445632.86180313;5696554.06880005;470.77635004;142;137;121;34952.000000;1.000000;1.000000;1.000000;1.000000;0.109926;-0.109926;0.109926;1.000000
445632.89850052;5696554.31289871;470.78094985;73;72;59;17990.000000;1.000000;1.000000;1.000000;1.000000;-0.017101;0.017101;-0.017101;1.000000
445632.94930084;5696554.23110016;470.77994992;222;215;199;55255.000000;1.000000;1.000000;1.000000;1.000000;0.098900;-0.098900;0.098900;1.000000
445632.82650192;5696554.06729897;470.77944996;180;174;161;44718.000000;1.000000;1.000000;1.000000;1.000000;0.074625;-0.074625;0.074625;1.000000
445633.00460251;5696554.22360046;470.78234984;94;85;63;21845.000000;1.000000;1.000000;1.000000;1.000000;-0.111692;0.111692;-0.111692;1.000000
445632.86190231;5696554.32099922;470.77935006;103;98;84;24929.000000;1.000000;1.000000;1.000000;1.000000;0.009001;-0.009001;0.009001;1.000000
445632.85950287;5696554.37479980;470.78924992;149;144;130;36751.000000;1.000000;1.000000;1.000000;1.000000;-0.044800;0.044800;-0.044800;1.000000
445632.77980240;5696553.79590042;470.78574993;132;125;113;32125.000000;1.000000;1.000000;1.000000;1.000000;0.044075;-0.044075;0.044075;1.000000
445632.79990204;5696554.00899895;470.78215005;158;151;137;38807.000000;1.000000;1.000000;1.000000;1.000000;0.048025;-0.048025;0.048025;1.000000
445632.87630280;5696553.94829948;470.77554991;125;116;99;29812.000000;1.000000;1.000000;1.000000;1.000000;0.124426;-0.124426;0.124426;1.000000
445632.80730255;5696554.23499878;470.77355005;109;97;81;25186.000000;1.000000;1.000000;1.000000;1.000000;0.095001;-0.095001;0.095001;1.000000
445632.84420212;5696553.80869873;470.78414990;118;112;91;28527.000000;1.000000;1.000000;1.000000;1.000000;0.094751;-0.094751;0.094751;1.000000
445632.81350143;5696554.15040024;470.77285006;86;78;67;20303.000000;1.000000;1.000000;1.000000;1.000000;0.061625;-0.061625;0.061625;1.000000
445632.79730042;5696553.83399780;470.78694989;115;110;98;28270.000000;1.000000;1.000000;1.000000;1.000000;0.045424;-0.045424;0.045424;1.000000
445632.96450241;5696554.26939972;470.78104999;144;141;126;35980.000000;1.000000;1.000000;1.000000;1.000000;-0.060600;0.060600;-0.060600;1.000000
445632.85130127;5696554.10479935;470.77394988;103;98;86;25186.000000;1.000000;1.000000;1.000000;1.000000;0.099424;-0.099424;0.099424;1.000000
445632.81020172;5696554.18809898;470.76845004;41;32;23;8481.000000;1.000000;1.000000;1.000000;1.000000;0.067074;-0.067074;0.067074;1.000000
445632.88790329;5696554.34899910;470.77854993;112;106;94;27242.000000;1.000000;1.000000;1.000000;1.000000;-0.018999;0.018999;-0.018999;1.000000
445632.85500153;5696553.79829987;470.78215005;112;104;84;26728.000000;1.000000;1.000000;1.000000;1.000000;0.107887;-0.107887;0.107887;1.000000
445632.81300171;5696554.16919907;470.77064993;100;92;81;23901.000000;1.000000;1.000000;1.000000;1.000000;0.062749;-0.062749;0.062749;1.000000
445632.95280273;5696554.34289940;470.77904989;165;160;148;41120.000000;1.000000;1.000000;1.000000;1.000000;-0.012899;0.012899;-0.012899;1.000000
445632.80870255;5696554.22329910;470.77114989;127;114;100;29812.000000;1.000000;1.000000;1.000000;1.000000;0.088820;-0.088820;0.088820;1.000000
445632.79530151;5696553.93469818;470.78104999;63;62;50;15420.000000;1.000000;1.000000;1.000000;1.000000;0.043425;-0.043425;0.043425;1.000000
445632.81320007;5696554.32779892;470.78425004;137;130;121;33667.000000;1.000000;1.000000;1.000000;1.000000;0.002201;-0.002201;0.002201;1.000000
445633.00320251;5696554.23309906;470.78234984;49;40;22;10280.000000;1.000000;1.000000;1.000000;1.000000;-0.102230;0.102230;-0.102230;1.000000
445632.81390198;5696554.13159950;470.77724983;78;72;61;18504.000000;1.000000;1.000000;1.000000;1.000000;0.062025;-0.062025;0.062025;1.000000
445632.92060287;5696554.24779900;470.77644994;160;153;138;39321.000000;1.000000;1.000000;1.000000;1.000000;0.082201;-0.082201;0.082201;1.000000
445632.86090286;5696554.31169899;470.78154995;166;163;150;41634.000000;1.000000;1.000000;1.000000;1.000000;0.018301;-0.018301;0.018301;1.000000
445632.88330276;5696554.24669846;470.77244999;143;133;119;34438.000000;1.000000;1.000000;1.000000;1.000000;0.083302;-0.083302;0.083302;1.000000
445632.97739990;5696554.23309906;470.78355004;105;97;79;24929.000000;1.000000;1.000000;1.000000;1.000000;-0.097137;0.097137;-0.097137;1.000000
445632.78410156;5696553.91699799;470.78504993;230;231;223;58853.000000;1.000000;1.000000;1.000000;1.000000;0.032225;-0.032225;0.032225;1.000000
445632.81950195;5696553.99320038;470.78055002;171;164;151;42148.000000;1.000000;1.000000;1.000000;1.000000;0.067625;-0.067625;0.067625;1.000000
445632.85950287;5696554.34689911;470.78184988;163;156;144;40092.000000;1.000000;1.000000;1.000000;1.000000;-0.016899;0.016899;-0.016899;1.000000
445632.85220154;5696554.11409958;470.77184989;119;114;104;29298.000000;1.000000;1.000000;1.000000;1.000000;0.100325;-0.100325;0.100325;1.000000
445632.83550079;5696553.86329849;470.77974989;98;92;81;23644.000000;1.000000;1.000000;1.000000;1.000000;0.083624;-0.083624;0.083624;1.000000
445632.79780014;5696553.86199959;470.78265001;142;137;127;35209.000000;1.000000;1.000000;1.000000;1.000000;0.045923;-0.045923;0.045923;1.000000
445632.87090118;5696553.86469849;470.77434995;150;142;128;36494.000000;1.000000;1.000000;1.000000;1.000000;0.119024;-0.119024;0.119024;1.000000
445632.79650314;5696553.89719971;470.78064992;162;158;149;40606.000000;1.000000;1.000000;1.000000;1.000000;0.044626;-0.044626;0.044626;1.000000
445632.99310120;5696554.25039871;470.78215005;58;51;36;13107.000000;1.000000;1.000000;1.000000;1.000000;-0.082713;0.082713;-0.082713;1.000000
445632.89730270;5696554.30129822;470.78304984;81;80;68;20046.000000;1.000000;1.000000;1.000000;1.000000;-0.028702;0.028702;-0.028702;1.000000
445632.85010345;5696554.31979950;470.77884986;134;128;114;32896.000000;1.000000;1.000000;1.000000;1.000000;0.010201;-0.010201;0.010201;1.000000
445632.86960037;5696553.90219887;470.77705004;184;179;163;45746.000000;1.000000;1.000000;1.000000;1.000000;0.117723;-0.117723;0.117723;1.000000
445632.99400146;5696554.25959976;470.78224995;75;69;52;17476.000000;1.000000;1.000000;1.000000;1.000000;-0.074179;0.074179;-0.074179;1.000000
445632.79490097;5696553.90669830;470.78304984;233;232;223;59367.000000;1.000000;1.000000;1.000000;1.000000;0.043024;-0.043024;0.043024;1.000000
445632.92910202;5696554.23999985;470.77915003;104;96;79;24672.000000;1.000000;1.000000;1.000000;1.000000;-0.090000;0.090000;-0.090000;1.000000
445632.86100204;5696553.90999802;470.77674987;179;173;157;44461.000000;1.000000;1.000000;1.000000;1.000000;0.109125;-0.109125;0.109125;1.000000
445632.89970215;5696554.27540024;470.78055002;219;217;205;55512.000000;1.000000;1.000000;1.000000;1.000000;-0.054600;0.054600;-0.054600;1.000000
445632.86230286;5696554.09679993;470.77204992;98;94;80;23901.000000;1.000000;1.000000;1.000000;1.000000;0.110426;-0.110426;0.110426;1.000000
445632.86320313;5696554.05929955;470.77865006;162;157;142;40092.000000;1.000000;1.000000;1.000000;1.000000;0.111326;-0.111326;0.111326;1.000000
445632.82680328;5696554.02059944;470.77884986;133;126;115;32382.000000;1.000000;1.000000;1.000000;1.000000;0.074926;-0.074926;0.074926;1.000000
445632.79269989;5696553.98169907;470.78154995;185;175;162;45232.000000;1.000000;1.000000;1.000000;1.000000;0.040823;-0.040823;0.040823;1.000000
445632.83030136;5696553.98289879;470.77854993;173;165;151;42405.000000;1.000000;1.000000;1.000000;1.000000;0.078424;-0.078424;0.078424;1.000000
445632.84399994;5696554.28059967;470.78044989;161;156;144;40092.000000;1.000000;1.000000;1.000000;1.000000;-0.049400;0.049400;-0.049400;1.000000
445632.86680038;5696553.94689949;470.77514984;135;124;107;32125.000000;1.000000;1.000000;1.000000;1.000000;0.114923;-0.114923;0.114923;1.000000
445632.82340057;5696553.90880020;470.77734997;219;217;205;55512.000000;1.000000;1.000000;1.000000;1.000000;0.071524;-0.071524;0.071524;1.000000
445632.79140289;5696553.79479797;470.78624990;190;182;171;47031.000000;1.000000;1.000000;1.000000;1.000000;0.052929;-0.052929;0.052929;1.000000
445632.85030182;5696554.34770020;470.78145005;178;172;160;44204.000000;1.000000;1.000000;1.000000;1.000000;-0.017700;0.017700;-0.017700;1.000000
445632.88800247;5696554.30219849;470.78265001;122;119;107;30326.000000;1.000000;1.000000;1.000000;1.000000;0.027802;-0.027802;0.027802;1.000000
445632.81530197;5696553.87219818;470.77895000;101;94;82;24158.000000;1.000000;1.000000;1.000000;1.000000;0.063425;-0.063425;0.063425;1.000000
445632.91850098;5696554.27599915;470.77904989;131;129;116;32896.000000;1.000000;1.000000;1.000000;1.000000;0.054001;-0.054001;0.054001;1.000000
445632.80960281;5696554.20689972;470.76864984;85;74;63;19532.000000;1.000000;1.000000;1.000000;1.000000;0.077638;-0.077638;0.077638;1.000000
445632.84440048;5696554.05869873;470.77775003;167;162;149;41634.000000;1.000000;1.000000;1.000000;1.000000;0.092524;-0.092524;0.092524;1.000000
445632.85190018;5696554.08609970;470.77374985;84;80;64;20303.000000;1.000000;1.000000;1.000000;1.000000;0.100023;-0.100023;0.100023;1.000000
445633.02150162;5696554.25249870;470.77874996;104;96;80;24672.000000;1.000000;1.000000;1.000000;1.000000;-0.092708;0.092708;-0.092708;1.000000
445632.87220200;5696554.28259857;470.78174998;214;211;201;53970.000000;1.000000;1.000000;1.000000;1.000000;-0.047401;0.047401;-0.047401;1.000000
445632.94390305;5696554.32269867;470.77845003;140;137;125;34952.000000;1.000000;1.000000;1.000000;1.000000;0.007301;-0.007301;0.007301;1.000000
445632.96920212;5696554.16629990;470.77534987;122;111;91;28784.000000;1.000000;1.000000;1.000000;1.000000;-0.163700;0.163700;-0.163700;1.000000
445632.98650177;5696554.20429810;470.78125002;165;154;132;39578.000000;1.000000;1.000000;1.000000;1.000000;-0.126700;0.126700;-0.126700;1.000000
445632.82370193;5696553.86199959;470.77915003;96;89;78;22873.000000;1.000000;1.000000;1.000000;1.000000;0.071825;-0.071825;0.071825;1.000000
445632.93500336;5696554.35159882;470.77604987;170;163;150;41891.000000;1.000000;1.000000;1.000000;1.000000;0.021599;-0.021599;0.021599;1.000000
445632.90940292;5696554.30489929;470.78134992;77;75;61;19018.000000;1.000000;1.000000;1.000000;1.000000;0.025101;-0.025101;0.025101;1.000000
445632.88170059;5696554.28409775;470.78215005;235;233;222;59624.000000;1.000000;1.000000;1.000000;1.000000;0.045902;-0.045902;0.045902;1.000000
445632.80680283;5696554.28169830;470.77874996;143;137;123;35209.000000;1.000000;1.000000;1.000000;1.000000;0.048302;-0.048302;0.048302;1.000000
445632.78300293;5696553.95450027;470.78304984;74;68;56;17476.000000;1.000000;1.000000;1.000000;1.000000;0.031126;-0.031126;0.031126;1.000000
445633.00410278;5696554.24239929;470.78014996;42;34;18;8738.000000;1.000000;1.000000;1.000000;1.000000;-0.093779;0.093779;-0.093779;1.000000
445632.91930206;5696554.28529938;470.77924993;87;85;72;21588.000000;1.000000;1.000000;1.000000;1.000000;0.044701;-0.044701;0.044701;1.000000
445632.81990250;5696553.94649895;470.77764990;149;140;128;36237.000000;1.000000;1.000000;1.000000;1.000000;0.068026;-0.068026;0.068026;1.000000
445633.00500305;5696554.25160034;470.78034999;68;60;43;15420.000000;1.000000;1.000000;1.000000;1.000000;-0.085605;0.085605;-0.085605;1.000000
445632.81720169;5696553.79709824;470.78744986;156;150;134;38550.000000;1.000000;1.000000;1.000000;1.000000;0.073143;-0.073143;0.073143;1.000000
445632.84169968;5696554.35779961;470.78584983;175;168;156;43176.000000;1.000000;1.000000;1.000000;1.000000;0.027800;-0.027800;0.027800;1.000000
445632.84150131;5696554.12449844;470.77145006;103;96;87;24929.000000;1.000000;1.000000;1.000000;1.000000;0.089624;-0.089624;0.089624;1.000000
445632.84169968;5696554.10330017;470.77584984;62;56;44;14392.000000;1.000000;1.000000;1.000000;1.000000;0.089823;-0.089823;0.089823;1.000000
445632.99360092;5696554.27839859;470.77784993;70;61;48;15934.000000;1.000000;1.000000;1.000000;1.000000;-0.056485;0.056485;-0.056485;1.000000
445632.81990250;5696554.02120026;470.77854993;119;113;100;29041.000000;1.000000;1.000000;1.000000;1.000000;0.068026;-0.068026;0.068026;1.000000
445632.92490204;5696554.36889847;470.77814986;123;117;100;29812.000000;1.000000;1.000000;1.000000;1.000000;-0.038898;0.038898;-0.038898;1.000000
445632.94280060;5696554.36019905;470.77644994;143;137;121;35209.000000;1.000000;1.000000;1.000000;1.000000;-0.030199;0.030199;-0.030199;1.000000
445632.96210297;5696554.34210022;470.77714993;124;119;106;30583.000000;1.000000;1.000000;1.000000;1.000000;0.012100;-0.012100;0.012100;1.000000
445632.92460068;5696554.34089859;470.77775003;153;147;134;37779.000000;1.000000;1.000000;1.000000;1.000000;-0.010899;0.010899;-0.010899;1.000000
445632.85510071;5696554.24469955;470.77114989;162;149;134;38807.000000;1.000000;1.000000;1.000000;1.000000;0.085300;-0.085300;0.085300;1.000000
445632.97590073;5696554.24259956;470.78355004;164;159;143;40606.000000;1.000000;1.000000;1.000000;1.000000;-0.087559;0.087559;-0.087559;1.000000
445632.85490234;5696554.02029999;470.77775003;144;138;125;35466.000000;1.000000;1.000000;1.000000;1.000000;0.103025;-0.103025;0.103025;1.000000
445632.84380157;5696553.85309799;470.77994992;101;95;83;24415.000000;1.000000;1.000000;1.000000;1.000000;0.091925;-0.091925;0.091925;1.000000
445632.94870193;5696554.24989899;470.78014996;125;121;106;30840.000000;1.000000;1.000000;1.000000;1.000000;0.080101;-0.080101;0.080101;1.000000
445632.78339966;5696553.98250015;470.78114988;184;174;160;44975.000000;1.000000;1.000000;1.000000;1.000000;0.031523;-0.031523;0.031523;1.000000
445632.82710083;5696554.27289780;470.77724983;193;187;175;48059.000000;1.000000;1.000000;1.000000;1.000000;-0.057102;0.057102;-0.057102;1.000000
445632.80630310;5696553.85190018;470.78055002;150;145;133;37265.000000;1.000000;1.000000;1.000000;1.000000;0.054426;-0.054426;0.054426;1.000000
445632.80520065;5696553.88939865;470.77865006;113;106;95;27242.000000;1.000000;1.000000;1.000000;1.000000;0.053324;-0.053324;0.053324;1.000000
445632.81860168;5696553.98390015;470.78034999;170;162;149;41634.000000;1.000000;1.000000;1.000000;1.000000;0.066725;-0.066725;0.066725;1.000000
445632.83990295;5696554.36489876;470.78824999;139;133;121;34181.000000;1.000000;1.000000;1.000000;1.000000;0.034899;-0.034899;0.034899;1.000000
445632.88100250;5696554.30279930;470.78464987;167;164;153;41891.000000;1.000000;1.000000;1.000000;1.000000;0.027201;-0.027201;0.027201;1.000000
445632.98010071;5696554.15819939;470.77574994;145;134;116;34695.000000;1.000000;1.000000;1.000000;1.000000;-0.172062;0.172062;-0.172062;1.000000
445632.79540070;5696554.11219986;470.78314998;103;96;84;24672.000000;1.000000;1.000000;1.000000;1.000000;0.043524;-0.043524;0.043524;1.000000
445632.84290131;5696553.89069946;470.77574994;138;132;120;33924.000000;1.000000;1.000000;1.000000;1.000000;0.091024;-0.091024;0.091024;1.000000
445632.84250076;5696553.86260040;470.77764990;110;104;92;26728.000000;1.000000;1.000000;1.000000;1.000000;0.090624;-0.090624;0.090624;1.000000
445632.82500275;5696553.85249908;470.78145005;100;94;82;24158.000000;1.000000;1.000000;1.000000;1.000000;0.073126;-0.073126;0.073126;1.000000
445632.82349976;5696554.33849915;470.78484990;113;105;95;27242.000000;1.000000;1.000000;1.000000;1.000000;-0.008499;0.008499;-0.008499;1.000000
445632.97510345;5696554.25899895;470.78374984;184;180;165;46003.000000;1.000000;1.000000;1.000000;1.000000;-0.071142;0.071142;-0.071142;1.000000
445632.93320282;5696554.15559967;470.77364995;182;176;160;45232.000000;1.000000;1.000000;1.000000;1.000000;-0.174400;0.174400;-0.174400;1.000000
445632.84220322;5696554.33679779;470.78094985;133;125;113;32382.000000;1.000000;1.000000;1.000000;1.000000;0.006798;-0.006798;0.006798;1.000000
445632.84560211;5696554.24320038;470.77075006;143;131;115;33924.000000;1.000000;1.000000;1.000000;1.000000;-0.086800;0.086800;-0.086800;1.000000
445632.90120132;5696554.23799904;470.77314999;128;118;101;30583.000000;1.000000;1.000000;1.000000;1.000000;-0.092001;0.092001;-0.092001;1.000000
445632.79350098;5696553.91619881;470.78314998;222;222;213;56797.000000;1.000000;1.000000;1.000000;1.000000;0.041624;-0.041624;0.041624;1.000000
445632.96720322;5696554.22239883;470.78064992;98;90;72;23130.000000;1.000000;1.000000;1.000000;1.000000;-0.107601;0.107601;-0.107601;1.000000
445632.96780212;5696554.20369919;470.78044989;120;113;95;29041.000000;1.000000;1.000000;1.000000;1.000000;-0.126301;0.126301;-0.126301;1.000000
445632.81210144;5696554.15989883;470.77055003;93;85;75;22102.000000;1.000000;1.000000;1.000000;1.000000;0.060422;-0.060422;0.060422;1.000000
445632.95600327;5696554.27719887;470.77845003;200;197;182;50372.000000;1.000000;1.000000;1.000000;1.000000;0.052801;-0.052801;0.052801;1.000000
445633.00530060;5696554.20489891;470.77985003;176;165;142;42405.000000;1.000000;1.000000;1.000000;1.000000;-0.129817;0.129817;-0.129817;1.000000
445632.78730209;5696554.07549866;470.78475000;144;137;125;35209.000000;1.000000;1.000000;1.000000;1.000000;0.035425;-0.035425;0.035425;1.000000
445632.96050079;5696554.17409904;470.77744987;107;96;76;24929.000000;1.000000;1.000000;1.000000;1.000000;-0.155901;0.155901;-0.155901;1.000000
445632.91480072;5696554.36049850;470.77755000;136;131;115;33410.000000;1.000000;1.000000;1.000000;1.000000;-0.030499;0.030499;-0.030499;1.000000
445632.78680237;5696553.86999901;470.78454997;132;125;115;32382.000000;1.000000;1.000000;1.000000;1.000000;0.034925;-0.034925;0.034925;1.000000
445632.77410324;5696553.93429955;470.78475000;98;97;87;24672.000000;1.000000;1.000000;1.000000;1.000000;0.022226;-0.022226;0.022226;1.000000
445632.95460327;5696554.28669937;470.77845003;200;197;184;50372.000000;1.000000;1.000000;1.000000;1.000000;0.043301;-0.043301;0.043301;1.000000
445632.81890305;5696554.01190002;470.78075006;127;121;108;31097.000000;1.000000;1.000000;1.000000;1.000000;0.067026;-0.067026;0.067026;1.000000
445632.96850021;5696554.18499954;470.77794983;109;98;79;25443.000000;1.000000;1.000000;1.000000;1.000000;-0.145000;0.145000;-0.145000;1.000000
445632.89019974;5696554.27400024;470.78005006;234;232;220;59367.000000;1.000000;1.000000;1.000000;1.000000;0.056000;-0.056000;0.056000;1.000000
445632.84610184;5696553.82720001;470.77974989;80;74;57;18761.000000;1.000000;1.000000;1.000000;1.000000;0.094267;-0.094267;0.094267;1.000000
445633.00600250;5696554.18619926;470.77724983;197;185;165;47802.000000;1.000000;1.000000;1.000000;1.000000;-0.148088;0.148088;-0.148088;1.000000
445632.84480103;5696553.78989990;470.78394987;152;145;127;37265.000000;1.000000;1.000000;1.000000;1.000000;0.101207;-0.101207;0.101207;1.000000
445632.85400208;5696553.83589943;470.77784993;63;56;41;14392.000000;1.000000;1.000000;1.000000;1.000000;0.102125;-0.102125;0.102125;1.000000
445632.85659988;5696554.01319893;470.77775003;152;147;132;37522.000000;1.000000;1.000000;1.000000;1.000000;0.104723;-0.104723;0.104723;1.000000
445632.78540237;5696553.87949951;470.78234984;89;82;72;21331.000000;1.000000;1.000000;1.000000;1.000000;0.033525;-0.033525;0.033525;1.000000
445632.85290344;5696553.87339981;470.77594997;124;116;102;29812.000000;1.000000;1.000000;1.000000;1.000000;0.101027;-0.101027;0.101027;1.000000
445632.86830338;5696553.93739899;470.77504994;145;136;119;34952.000000;1.000000;1.000000;1.000000;1.000000;0.116426;-0.116426;0.116426;1.000000
445632.91980179;5696554.23859985;470.77635004;122;113;96;29041.000000;1.000000;1.000000;1.000000;1.000000;0.091400;-0.091400;0.091400;1.000000
445632.85170181;5696553.91089828;470.77635004;159;155;140;39578.000000;1.000000;1.000000;1.000000;1.000000;0.099825;-0.099825;0.099825;1.000000
445632.81390198;5696553.90729912;470.77924993;233;231;220;59110.000000;1.000000;1.000000;1.000000;1.000000;0.062025;-0.062025;0.062025;1.000000
445632.97700317;5696554.20279892;470.78084995;157;147;127;37779.000000;1.000000;1.000000;1.000000;1.000000;-0.127361;0.127361;-0.127361;1.000000
445632.81280334;5696553.94479950;470.77734997;112;105;94;26985.000000;1.000000;1.000000;1.000000;1.000000;0.060926;-0.060926;0.060926;1.000000
445632.84830292;5696553.94859894;470.77434995;146;135;120;34952.000000;1.000000;1.000000;1.000000;1.000000;0.096426;-0.096426;0.096426;1.000000
445632.99480255;5696554.24320038;470.78215005;46;38;23;9766.000000;1.000000;1.000000;1.000000;1.000000;-0.090103;0.090103;-0.090103;1.000000
445632.78479965;5696553.89829834;470.78244998;148;144;135;37008.000000;1.000000;1.000000;1.000000;1.000000;0.032923;-0.032923;0.032923;1.000000
445632.81030090;5696554.01980026;470.78044989;136;129;117;33153.000000;1.000000;1.000000;1.000000;1.000000;0.058424;-0.058424;0.058424;1.000000
445632.81800278;5696554.00269897;470.78055002;147;141;129;36237.000000;1.000000;1.000000;1.000000;1.000000;0.066126;-0.066126;0.066126;1.000000
445632.87270172;5696554.31289871;470.78204991;126;123;111;31354.000000;1.000000;1.000000;1.000000;1.000000;-0.017101;0.017101;-0.017101;1.000000
445632.85580261;5696554.00389870;470.77534987;152;146;133;37522.000000;1.000000;1.000000;1.000000;1.000000;0.103926;-0.103926;0.103926;1.000000
445632.89900024;5696554.29409988;470.78304984;119;117;105;29812.000000;1.000000;1.000000;1.000000;1.000000;-0.035900;0.035900;-0.035900;1.000000
445632.84100159;5696554.09639938;470.77574994;52;46;34;11822.000000;1.000000;1.000000;1.000000;1.000000;0.089125;-0.089125;0.089125;1.000000
445632.95650299;5696554.25849922;470.78055002;173;169;155;43176.000000;1.000000;1.000000;1.000000;1.000000;0.071501;-0.071501;0.071501;1.000000
445632.81810196;5696553.80639847;470.78754999;129;123;106;31354.000000;1.000000;1.000000;1.000000;1.000000;0.070305;-0.070305;0.070305;1.000000
445632.80450256;5696554.13239868;470.77915003;120;114;102;29298.000000;1.000000;1.000000;1.000000;1.000000;0.052626;-0.052626;0.052626;1.000000
445632.78590210;5696553.86079987;470.78444983;150;144;134;37008.000000;1.000000;1.000000;1.000000;1.000000;0.034025;-0.034025;0.034025;1.000000
445632.80100067;5696554.16789825;470.77475001;89;83;73;21331.000000;1.000000;1.000000;1.000000;1.000000;0.050764;-0.050764;0.050764;1.000000
445632.82170303;5696554.16139801;470.76864984;104;96;84;24929.000000;1.000000;1.000000;1.000000;1.000000;0.070121;-0.070121;0.070121;1.000000
445632.98880203;5696554.17609985;470.77635004;110;98;77;25443.000000;1.000000;1.000000;1.000000;1.000000;-0.154970;0.154970;-0.154970;1.000000
445632.78230103;5696553.97099884;470.78094985;164;154;140;39835.000000;1.000000;1.000000;1.000000;1.000000;0.030424;-0.030424;0.030424;1.000000
445632.95770081;5696554.22099884;470.78014996;154;147;130;37779.000000;1.000000;1.000000;1.000000;1.000000;0.109001;-0.109001;0.109001;1.000000
445633.02499969;5696554.21479996;470.77845003;108;101;76;25700.000000;1.000000;1.000000;1.000000;1.000000;-0.127387;0.127387;-0.127387;1.000000
445632.95000275;5696554.21240051;470.77734997;125;117;101;30069.000000;1.000000;1.000000;1.000000;1.000000;0.117599;-0.117599;0.117599;1.000000
445632.83609970;5696553.79769905;470.78594996;158;151;133;38807.000000;1.000000;1.000000;1.000000;1.000000;0.090204;-0.090204;0.090204;1.000000
445632.91140182;5696554.24869926;470.77604987;175;168;153;43176.000000;1.000000;1.000000;1.000000;1.000000;0.081301;-0.081301;0.081301;1.000000
445632.80150040;5696554.19589813;470.77044990;69;60;50;15677.000000;1.000000;1.000000;1.000000;1.000000;0.064294;-0.064294;0.064294;1.000000
445632.93330200;5696554.18359955;470.77624990;122;111;94;28784.000000;1.000000;1.000000;1.000000;1.000000;-0.146400;0.146400;-0.146400;1.000000
445632.83480270;5696554.28139885;470.77994992;176;170;158;43690.000000;1.000000;1.000000;1.000000;1.000000;-0.048601;0.048601;-0.048601;1.000000
445632.84480103;5696553.81559952;470.78425004;101;96;76;24415.000000;1.000000;1.000000;1.000000;1.000000;0.094033;-0.094033;0.094033;1.000000
445632.98290070;5696554.28879936;470.77744987;88;83;71;21331.000000;1.000000;1.000000;1.000000;1.000000;-0.042990;0.042990;-0.042990;1.000000
445632.94740112;5696554.28499802;470.77814986;185;183;170;46774.000000;1.000000;1.000000;1.000000;1.000000;0.045002;-0.045002;0.045002;1.000000
445632.80860336;5696553.80489929;470.78714993;168;162;146;41634.000000;1.000000;1.000000;1.000000;1.000000;0.062032;-0.062032;0.062032;1.000000
445632.90979965;5696554.28380020;470.78104999;112;111;99;28013.000000;1.000000;1.000000;1.000000;1.000000;0.046200;-0.046200;0.046200;1.000000
445632.85300262;5696554.05079849;470.78044989;176;170;156;43690.000000;1.000000;1.000000;1.000000;1.000000;0.101126;-0.101126;0.101126;1.000000
445632.77110107;5696553.80369957;470.78775002;78;71;60;18247.000000;1.000000;1.000000;1.000000;1.000000;0.032577;-0.032577;0.032577;1.000000
445632.92980011;5696554.22130020;470.77654984;155;146;131;37779.000000;1.000000;1.000000;1.000000;1.000000;-0.108700;0.108700;-0.108700;1.000000
445632.81550034;5696554.29959877;470.77935006;122;116;103;29812.000000;1.000000;1.000000;1.000000;1.000000;0.030401;-0.030401;0.030401;1.000000
445632.90649994;5696554.32160004;470.77674987;82;78;63;19789.000000;1.000000;1.000000;1.000000;1.000000;-0.008400;0.008400;-0.008400;1.000000
445632.87120255;5696554.32239922;470.78215005;77;73;60;18504.000000;1.000000;1.000000;1.000000;1.000000;-0.007601;0.007601;-0.007601;1.000000
445632.83360107;5696554.31889923;470.78034999;150;144;132;37008.000000;1.000000;1.000000;1.000000;1.000000;-0.011101;0.011101;-0.011101;1.000000
445632.93210037;5696554.37059982;470.77615001;130;124;108;31868.000000;1.000000;1.000000;1.000000;1.000000;0.040600;-0.040600;0.040600;1.000000
445632.90520294;5696554.35899933;470.77944996;129;124;109;31611.000000;1.000000;1.000000;1.000000;1.000000;0.028999;-0.028999;0.028999;1.000000
445632.86280258;5696553.85379990;470.77615001;105;98;84;25186.000000;1.000000;1.000000;1.000000;1.000000;0.110926;-0.110926;0.110926;1.000000
445632.81710251;5696553.84389885;470.78335001;155;149;137;38293.000000;1.000000;1.000000;1.000000;1.000000;0.065226;-0.065226;0.065226;1.000000
445632.97080048;5696554.15909775;470.77534987;150;141;123;36237.000000;1.000000;1.000000;1.000000;1.000000;-0.170902;0.170902;-0.170902;1.000000
445632.94730194;5696554.25929840;470.78014996;126;122;107;31097.000000;1.000000;1.000000;1.000000;1.000000;0.070702;-0.070702;0.070702;1.000000
