//X;Y;Z;R;G;B;Intensity;Return Number;Number Of Returns;Scan Direction Flag;Point Source ID;C2M signed distances[-][<0.8];C2M signed distances[<0.4];C2M signed distances[-][<0.2];Stump52
445649.66209991;5696604.01519974;470.87914993;84;72;67;19275.000000;1.000000;1.000000;1.000000;1.000000;-0.185200;0.185200;-0.185200;1.000000
445649.58930023;5696604.01259811;470.88045003;117;113;109;29041.000000;1.000000;1.000000;1.000000;1.000000;-0.182708;0.182708;-0.182708;1.000000
445649.59460266;5696603.86199768;470.91855003;39;41;28;9766.000000;1.000000;1.000000;1.000000;1.000000;-0.032014;0.032014;-0.032014;1.000000
445649.59360321;5696603.89949997;470.91424992;52;56;43;13621.000000;1.000000;1.000000;1.000000;1.000000;-0.069529;0.069529;-0.069529;1.000000
445649.66830261;5696603.90489777;470.87574985;119;115;109;29555.000000;1.000000;1.000000;1.000000;1.000000;-0.074898;0.074898;-0.074898;1.000000
445649.63250168;5696604.02039917;470.87084987;86;79;75;20560.000000;1.000000;1.000000;1.000000;1.000000;-0.190399;0.190399;-0.190399;1.000000
445649.58550079;5696603.80929764;470.90814998;146;145;135;37008.000000;1.000000;1.000000;1.000000;1.000000;0.023045;-0.023045;0.023045;1.000000
445649.70850189;5696604.02449997;470.90695002;63;52;47;13878.000000;1.000000;1.000000;1.000000;1.000000;-0.194500;0.194500;-0.194500;1.000000
445649.85330017;5696603.76149948;470.88244988;87;83;76;21331.000000;1.000000;1.000000;1.000000;1.000000;-0.078788;0.078788;-0.078788;1.000000
445649.92670258;5696603.72730072;470.84344985;71;67;61;17219.000000;1.000000;1.000000;1.000000;1.000000;-0.152199;0.152199;-0.152199;1.000000
445649.89000137;5696603.65069778;470.87574985;43;43;45;11051.000000;1.000000;1.000000;1.000000;1.000000;-0.169376;0.169376;-0.169376;1.000000
445649.59870346;5696603.94829758;470.90345003;28;29;24;7196.000000;1.000000;1.000000;1.000000;1.000000;-0.118298;0.118298;-0.118298;1.000000
445649.59940155;5696603.90839966;470.90765001;40;41;30;10023.000000;1.000000;1.000000;1.000000;1.000000;-0.078400;0.078400;-0.078400;1.000000
445649.68270309;5696603.80019959;470.91014983;139;133;118;34181.000000;1.000000;1.000000;1.000000;1.000000;0.030080;-0.030080;0.030080;1.000000
445649.68660172;5696603.76489838;470.90524985;99;90;74;23130.000000;1.000000;1.000000;1.000000;1.000000;0.034023;-0.034023;0.034023;1.000000
445649.87450226;5696603.83659943;470.87964990;134;130;123;33410.000000;1.000000;1.000000;1.000000;1.000000;0.060488;-0.060488;0.060488;1.000000
445649.83680161;5696603.79989822;470.91474988;105;103;96;26214.000000;1.000000;1.000000;1.000000;1.000000;-0.037538;0.037538;-0.037538;1.000000
445649.80710037;5696603.75819977;470.91754987;99;92;86;23901.000000;1.000000;1.000000;1.000000;1.000000;-0.071800;0.071800;-0.071800;1.000000
445649.60300262;5696603.87299927;470.90975000;43;41;34;10280.000000;1.000000;1.000000;1.000000;1.000000;-0.042999;0.042999;-0.042999;1.000000
445649.66620071;5696603.71779831;470.89905002;186;182;175;46774.000000;1.000000;1.000000;1.000000;1.000000;0.054424;-0.054424;0.054424;1.000000
445649.81400116;5696603.72289856;470.89645006;91;86;74;22102.000000;1.000000;1.000000;1.000000;1.000000;-0.093376;0.093376;-0.093376;1.000000
445649.67720230;5696603.84049805;470.90804984;28;23;13;5911.000000;1.000000;1.000000;1.000000;1.000000;-0.010498;0.010498;-0.010498;1.000000
445649.76590164;5696604.01889999;470.91884996;112;111;106;28270.000000;1.000000;1.000000;1.000000;1.000000;-0.188900;0.188900;-0.188900;1.000000
445649.88150223;5696603.91300018;470.88314988;118;119;116;30326.000000;1.000000;1.000000;1.000000;1.000000;0.106748;-0.106748;0.106748;1.000000
445649.84360321;5696603.87169846;470.91354992;100;97;92;24929.000000;1.000000;1.000000;1.000000;1.000000;0.050922;-0.050922;0.050922;1.000000
445649.88500031;5696603.87529953;470.88284995;140;138;133;35466.000000;1.000000;1.000000;1.000000;1.000000;0.083905;-0.083905;0.083905;1.000000
445649.82240112;5696603.76859863;470.90905001;95;86;76;22359.000000;1.000000;1.000000;1.000000;1.000000;-0.061924;0.061924;-0.061924;1.000000
445649.97030075;5696603.81450089;470.83474996;121;115;111;29812.000000;1.000000;1.000000;1.000000;1.000000;-0.156694;0.156694;-0.156694;1.000000
445649.97150238;5696603.77699860;470.83434989;124;120;115;30840.000000;1.000000;1.000000;1.000000;1.000000;-0.165826;0.165826;-0.165826;1.000000
445649.71590240;5696603.65239914;470.90514996;148;147;145;37779.000000;1.000000;1.000000;1.000000;1.000000;0.004723;-0.004723;0.004723;1.000000
445649.84830292;5696603.78980072;470.89654996;106;102;95;26214.000000;1.000000;1.000000;1.000000;1.000000;-0.052603;0.052603;-0.052603;1.000000
445649.70400055;5696603.67230042;470.89794995;108;105;99;26985.000000;1.000000;1.000000;1.000000;1.000000;0.016624;-0.016624;0.016624;1.000000
445649.52330215;5696604.02059753;470.91014983;42;41;37;10280.000000;1.000000;1.000000;1.000000;1.000000;-0.190600;0.190600;-0.190600;1.000000
445649.59580048;5696603.67499741;470.91864993;113;106;99;27499.000000;1.000000;1.000000;1.000000;1.000000;0.124825;-0.124825;0.124825;1.000000
445649.70230301;5696603.97849854;470.89684989;129;124;120;32125.000000;1.000000;1.000000;1.000000;1.000000;-0.148499;0.148499;-0.148499;1.000000
445649.76720245;5696603.98150070;470.91604998;33;31;28;7967.000000;1.000000;1.000000;1.000000;1.000000;-0.151501;0.151501;-0.151501;1.000000
445649.80940063;5696603.90979965;470.91945006;47;47;46;11822.000000;1.000000;1.000000;1.000000;1.000000;0.079800;-0.079800;0.079800;1.000000
445649.70170029;5696603.75630005;470.91744997;92;87;73;22102.000000;1.000000;1.000000;1.000000;1.000000;0.018925;-0.018925;0.018925;1.000000
445649.81200226;5696603.76009949;470.91544988;104;97;90;25186.000000;1.000000;1.000000;1.000000;1.000000;-0.069901;0.069901;-0.069901;1.000000
445649.95980270;5696603.80599792;470.84115006;127;122;118;31611.000000;1.000000;1.000000;1.000000;1.000000;-0.147395;0.147395;-0.147395;1.000000
445649.71570023;5696603.87890060;470.91254999;17;15;9;3598.000000;1.000000;1.000000;1.000000;1.000000;-0.049148;0.049148;-0.049148;1.000000
445649.71380051;5696603.95170029;470.89704992;54;49;45;12850.000000;1.000000;1.000000;1.000000;1.000000;-0.121765;0.121765;-0.121765;1.000000
445649.80650146;5696603.74899872;470.91045000;92;86;78;22102.000000;1.000000;1.000000;1.000000;1.000000;-0.081001;0.081001;-0.081001;1.000000
445649.85220154;5696603.72419937;470.88194992;95;93;85;23644.000000;1.000000;1.000000;1.000000;1.000000;-0.112359;0.112359;-0.112359;1.000000
445649.78660019;5696603.70439728;470.89504983;120;115;107;29555.000000;1.000000;1.000000;1.000000;1.000000;-0.065975;0.065975;-0.065975;1.000000
445649.59819992;5696604.02829941;470.87174990;117;113;108;29041.000000;1.000000;1.000000;1.000000;1.000000;-0.198299;0.198299;-0.198299;1.000000
445649.73210342;5696603.90759857;470.91824986;22;20;16;5140.000000;1.000000;1.000000;1.000000;1.000000;-0.077599;0.077599;-0.077599;1.000000
445649.61219986;5696603.69470032;470.90794994;64;59;52;15163.000000;1.000000;1.000000;1.000000;1.000000;0.108425;-0.108425;0.108425;1.000000
445649.70490082;5696603.70949753;470.90304996;119;113;100;29041.000000;1.000000;1.000000;1.000000;1.000000;0.015724;-0.015724;0.015724;1.000000
445649.76830109;5696603.94399841;470.91804983;58;56;53;14392.000000;1.000000;1.000000;1.000000;1.000000;-0.113998;0.113998;-0.113998;1.000000
445649.58660324;5696603.82539948;470.91534998;142;141;131;35980.000000;1.000000;1.000000;1.000000;1.000000;0.010127;-0.010127;0.010127;1.000000
445649.82700165;5696603.91769989;470.90874984;39;39;37;9766.000000;1.000000;1.000000;1.000000;1.000000;0.088604;-0.088604;0.088604;1.000000
445649.84490021;5696603.83650024;470.91555001;111;107;100;27499.000000;1.000000;1.000000;1.000000;1.000000;0.031210;-0.031210;0.031210;1.000000
445649.72610291;5696604.01799973;470.91695001;43;38;34;10023.000000;1.000000;1.000000;1.000000;1.000000;-0.188000;0.188000;-0.188000;1.000000
445649.80590256;5696603.94520004;470.91505005;88;88;88;22616.000000;1.000000;1.000000;1.000000;1.000000;0.115200;-0.115200;0.115200;1.000000
445649.85360153;5696603.68910034;470.88154985;34;32;29;8224.000000;1.000000;1.000000;1.000000;1.000000;-0.132977;0.132977;-0.132977;1.000000
445649.95030029;5696603.80449875;470.84305002;139;134;130;34695.000000;1.000000;1.000000;1.000000;1.000000;-0.138297;0.138297;-0.138297;1.000000
445649.62660034;5696603.74259766;470.89524986;68;66;60;16705.000000;1.000000;1.000000;1.000000;1.000000;0.087403;-0.087403;0.087403;1.000000
445649.77790268;5696603.71219833;470.89704992;199;195;187;50115.000000;1.000000;1.000000;1.000000;1.000000;-0.057278;0.057278;-0.057278;1.000000
445649.60980042;5696603.89349945;470.90555002;54;54;43;13364.000000;1.000000;1.000000;1.000000;1.000000;-0.063499;0.063499;-0.063499;1.000000
445649.68340118;5696603.72789963;470.89995005;85;80;68;20560.000000;1.000000;1.000000;1.000000;1.000000;0.037224;-0.037224;0.037224;1.000000
445649.59240158;5696603.71269806;470.91664984;141;137;127;35209.000000;1.000000;1.000000;1.000000;1.000000;0.117346;-0.117346;0.117346;1.000000
445649.72450073;5696603.69140060;470.89905002;107;101;92;25957.000000;1.000000;1.000000;1.000000;1.000000;-0.003876;0.003876;-0.003876;1.000000
445649.58889969;5696603.75039871;470.91695001;118;117;105;29555.000000;1.000000;1.000000;1.000000;1.000000;0.079885;-0.079885;0.079885;1.000000
445649.85200317;5696603.92949875;470.89835002;60;60;59;15163.000000;1.000000;1.000000;1.000000;1.000000;0.106376;-0.106376;0.106376;1.000000
445649.85540207;5696603.89179810;470.90034987;119;119;116;30326.000000;1.000000;1.000000;1.000000;1.000000;0.074177;-0.074177;0.074177;1.000000
445649.82280167;5696603.74299820;470.89944984;103;96;88;24929.000000;1.000000;1.000000;1.000000;1.000000;-0.087409;0.087409;-0.087409;1.000000
445649.67609985;5696603.69829758;470.89695003;115;115;107;29298.000000;1.000000;1.000000;1.000000;1.000000;0.044525;-0.044525;0.044525;1.000000
445649.89730270;5696603.74609955;470.86095001;113;109;102;28013.000000;1.000000;1.000000;1.000000;1.000000;-0.117967;0.117967;-0.117967;1.000000
445649.75140198;5696603.70299728;470.89575006;136;131;123;33667.000000;1.000000;1.000000;1.000000;1.000000;-0.030777;0.030777;-0.030777;1.000000
445649.84580048;5696603.81780060;470.90835001;128;125;119;32125.000000;1.000000;1.000000;1.000000;1.000000;-0.033710;0.033710;-0.033710;1.000000
445649.67740067;5696603.66309937;470.89894988;186;184;177;47031.000000;1.000000;1.000000;1.000000;1.000000;0.043224;-0.043224;0.043224;1.000000
445649.75020035;5696603.66570099;470.89754989;97;91;88;23644.000000;1.000000;1.000000;1.000000;1.000000;-0.029575;0.029575;-0.029575;1.000000
445649.97960098;5696603.81360062;470.83285000;100;93;89;24158.000000;1.000000;1.000000;1.000000;1.000000;-0.166038;0.166038;-0.166038;1.000000
445649.83200272;5696603.77009781;470.90715005;106;101;95;25957.000000;1.000000;1.000000;1.000000;1.000000;-0.062442;0.062442;-0.062442;1.000000
445649.87100037;5696603.77169998;470.87404992;114;111;105;28527.000000;1.000000;1.000000;1.000000;1.000000;-0.081273;0.081273;-0.081273;1.000000
445649.98070343;5696603.77609833;470.83474996;93;88;83;22616.000000;1.000000;1.000000;1.000000;1.000000;-0.174844;0.174844;-0.174844;1.000000
445649.94440277;5696603.73749741;470.83504989;69;65;61;16705.000000;1.000000;1.000000;1.000000;1.000000;-0.159574;0.159574;-0.159574;1.000000
445649.86110123;5696603.90069778;470.89605000;115;116;113;29555.000000;1.000000;1.000000;1.000000;1.000000;0.084744;-0.084744;0.084744;1.000000
445649.90520294;5696603.75469788;470.85905005;109;105;98;26985.000000;1.000000;1.000000;1.000000;1.000000;-0.117984;0.117984;-0.117984;1.000000
445649.61300095;5696603.85339935;470.90754988;75;73;63;18504.000000;1.000000;1.000000;1.000000;1.000000;-0.023399;0.023399;-0.023399;1.000000
445649.83990295;5696603.83460052;470.91765000;112;109;100;27756.000000;1.000000;1.000000;1.000000;1.000000;0.025939;-0.025939;0.025939;1.000000
445649.65760239;5696604.01569946;470.87664988;86;76;71;20046.000000;1.000000;1.000000;1.000000;1.000000;-0.185700;0.185700;-0.185700;1.000000
445649.61620148;5696603.97500046;470.88124992;102;102;98;25957.000000;1.000000;1.000000;1.000000;1.000000;-0.145001;0.145001;-0.145001;1.000000
445649.69390305;5696603.74320038;470.90765001;123;119;102;30326.000000;1.000000;1.000000;1.000000;1.000000;0.026722;-0.026722;0.026722;1.000000
445649.75720032;5696603.72089966;470.90785005;149;145;136;37265.000000;1.000000;1.000000;1.000000;1.000000;-0.036575;0.036575;-0.036575;1.000000
445649.54090317;5696604.01180084;470.91555001;81;80;73;20303.000000;1.000000;1.000000;1.000000;1.000000;-0.181801;0.181801;-0.181801;1.000000
445649.62180145;5696603.89250000;470.89684989;45;43;34;10794.000000;1.000000;1.000000;1.000000;1.000000;-0.062706;0.062706;-0.062706;1.000000
445649.66160019;5696603.81870087;470.89774992;104;96;85;24929.000000;1.000000;1.000000;1.000000;1.000000;0.011299;-0.011299;0.011299;1.000000
445649.58060272;5696603.93580063;470.91404988;64;75;57;17733.000000;1.000000;1.000000;1.000000;1.000000;-0.106000;0.106000;-0.106000;1.000000
445649.60590179;5696603.79820068;470.89734985;80;78;67;19789.000000;1.000000;1.000000;1.000000;1.000000;0.031799;-0.031799;0.031799;1.000000
445649.72490128;5696603.90369995;470.91555001;13;10;8;2570.000000;1.000000;1.000000;1.000000;1.000000;-0.073700;0.073700;-0.073700;1.000000
445649.71899994;5696604.01629837;470.91664984;32;25;19;6682.000000;1.000000;1.000000;1.000000;1.000000;-0.186305;0.186305;-0.186305;1.000000
445649.85970123;5696603.75390060;470.88025000;63;58;51;14906.000000;1.000000;1.000000;1.000000;1.000000;-0.088575;0.088575;-0.088575;1.000000
445649.86430176;5696603.67869766;470.88194992;80;79;77;20303.000000;1.000000;1.000000;1.000000;1.000000;-0.143677;0.143677;-0.143677;1.000000
445649.57940109;5696603.82369812;470.91734983;125;126;117;31868.000000;1.000000;1.000000;1.000000;1.000000;0.008223;-0.008223;0.008223;1.000000
445649.60750015;5696603.76989944;470.90864994;86;82;65;20817.000000;1.000000;1.000000;1.000000;1.000000;0.060101;-0.060101;0.060101;1.000000
445649.79660233;5696603.94610031;470.91695001;133;132;131;33924.000000;1.000000;1.000000;1.000000;1.000000;-0.116100;0.116100;-0.116100;1.000000
445649.57830246;5696603.78639801;470.91684987;67;67;48;16448.000000;1.000000;1.000000;1.000000;1.000000;0.043802;-0.043802;0.043802;1.000000
445649.89010056;5696603.90299805;470.87874987;103;102;97;25957.000000;1.000000;1.000000;1.000000;1.000000;0.105181;-0.105181;0.105181;1.000000
445649.89140137;5696603.86549957;470.87605001;116;113;106;29041.000000;1.000000;1.000000;1.000000;1.000000;0.084813;-0.084813;0.084813;1.000000
445649.86070068;5696603.71409805;470.87984993;85;83;75;21074.000000;1.000000;1.000000;1.000000;1.000000;-0.124817;0.124817;-0.124817;1.000000
445649.66540344;5696603.78339966;470.89514997;97;89;73;22873.000000;1.000000;1.000000;1.000000;1.000000;0.046600;-0.046600;0.046600;1.000000
445649.86410339;5696603.88400085;470.89835002;127;126;121;32125.000000;1.000000;1.000000;1.000000;1.000000;0.073410;-0.073410;0.073410;1.000000
445649.79829987;5696603.73129852;470.90054991;155;150;139;38550.000000;1.000000;1.000000;1.000000;1.000000;-0.077675;0.077675;-0.077675;1.000000
445649.60230072;5696603.66749771;470.91424992;81;76;64;19532.000000;1.000000;1.000000;1.000000;1.000000;0.118324;-0.118324;0.118324;1.000000
445649.80770309;5696603.67679794;470.88864996;46;42;39;10794.000000;1.000000;1.000000;1.000000;1.000000;-0.087078;0.087078;-0.087078;1.000000
445649.73719986;5696604.01000031;470.91505005;82;79;75;20303.000000;1.000000;1.000000;1.000000;1.000000;-0.180000;0.180000;-0.180000;1.000000
445649.81789978;5696603.89969833;470.91744997;41;41;41;10280.000000;1.000000;1.000000;1.000000;1.000000;0.069787;-0.069787;0.069787;1.000000
445649.86090286;5696603.79120071;470.88074996;134;130;124;33410.000000;1.000000;1.000000;1.000000;1.000000;-0.060582;0.060582;-0.060582;1.000000
445649.71010025;5696603.74619873;470.91765000;147;143;129;36494.000000;1.000000;1.000000;1.000000;1.000000;0.010525;-0.010525;0.010525;1.000000
445649.93410309;5696603.75689896;470.84404995;110;105;100;26985.000000;1.000000;1.000000;1.000000;1.000000;-0.140280;0.140280;-0.140280;1.000000
445649.69330032;5696604.00729950;470.89674999;32;22;17;6168.000000;1.000000;1.000000;1.000000;1.000000;-0.177299;0.177299;-0.177299;1.000000
445649.69680222;5696603.89489944;470.89785006;3;2;1;514.000000;1.000000;1.000000;1.000000;1.000000;-0.064899;0.064899;-0.064899;1.000000
445649.68670090;5696603.68789871;470.89964988;131;128;121;32896.000000;1.000000;1.000000;1.000000;1.000000;0.033924;-0.033924;0.033924;1.000000
445649.68800171;5696603.65270050;470.90164997;188;189;185;48316.000000;1.000000;1.000000;1.000000;1.000000;0.032623;-0.032623;0.032623;1.000000
445649.75080307;5696603.72849854;470.91004993;150;146;134;37265.000000;1.000000;1.000000;1.000000;1.000000;-0.030178;0.030178;-0.030178;1.000000
445649.58160217;5696603.96399887;470.89814999;55;63;48;14906.000000;1.000000;1.000000;1.000000;1.000000;-0.134210;0.134210;-0.134210;1.000000
445649.62290009;5696603.85499771;470.89874985;94;93;83;23644.000000;1.000000;1.000000;1.000000;1.000000;-0.025312;0.025312;-0.025312;1.000000
445649.68580063;5696603.95199783;470.89575006;47;43;40;11051.000000;1.000000;1.000000;1.000000;1.000000;-0.122050;0.122050;-0.122050;1.000000
445649.66650208;5696603.67109879;470.89855005;109;107;102;27499.000000;1.000000;1.000000;1.000000;1.000000;0.054123;-0.054123;0.054123;1.000000
445649.69100006;5696603.79229935;470.91734983;102;96;81;24672.000000;1.000000;1.000000;1.000000;1.000000;0.029625;-0.029625;0.029625;1.000000
445649.64090164;5696603.69689758;470.89765002;90;88;82;22359.000000;1.000000;1.000000;1.000000;1.000000;0.079723;-0.079723;0.079723;1.000000
445649.85550125;5696603.81709869;470.89715006;145;140;132;35980.000000;1.000000;1.000000;1.000000;1.000000;-0.043102;0.043102;-0.043102;1.000000
445649.89610107;5696603.78359802;470.86134984;146;142;135;36494.000000;1.000000;1.000000;1.000000;1.000000;-0.093980;0.093980;-0.093980;1.000000
445649.89840134;5696603.70859726;470.86054995;42;38;34;9766.000000;1.000000;1.000000;1.000000;1.000000;-0.147645;0.147645;-0.147645;1.000000
445649.69429977;5696603.96759995;470.89634993;149;145;142;37265.000000;1.000000;1.000000;1.000000;1.000000;-0.137600;0.137600;-0.137600;1.000000
445649.61440094;5696603.74130066;470.90395000;59;57;46;14392.000000;1.000000;1.000000;1.000000;1.000000;0.088699;-0.088699;0.088699;1.000000
445649.60030182;5696603.93889816;470.89874985;38;39;36;9766.000000;1.000000;1.000000;1.000000;1.000000;-0.108898;0.108898;-0.108898;1.000000
445649.61070068;5696603.75099762;470.90164997;95;89;80;22873.000000;1.000000;1.000000;1.000000;1.000000;0.079002;-0.079002;0.079002;1.000000
445649.69480331;5696603.75699814;470.91485002;72;67;55;17219.000000;1.000000;1.000000;1.000000;1.000000;0.025822;-0.025822;0.025822;1.000000
445649.75910004;5696603.94489868;470.91524984;83;79;76;20303.000000;1.000000;1.000000;1.000000;1.000000;-0.114899;0.114899;-0.114899;1.000000
445649.60900314;5696603.73469742;470.90594985;100;97;87;24672.000000;1.000000;1.000000;1.000000;1.000000;0.095303;-0.095303;0.095303;1.000000
445649.77690323;5696603.93619736;470.91835000;83;81;78;20817.000000;1.000000;1.000000;1.000000;1.000000;0.106197;-0.106197;0.106197;1.000000
445649.76040085;5696603.67410095;470.89584996;93;89;83;22873.000000;1.000000;1.000000;1.000000;1.000000;-0.039776;0.039776;-0.039776;1.000000
445649.53180130;5696604.01499756;470.91744997;77;77;71;19532.000000;1.000000;1.000000;1.000000;1.000000;-0.185002;0.185002;-0.185002;1.000000
445649.82450302;5696603.82639893;470.93085005;114;111;104;28527.000000;1.000000;1.000000;1.000000;1.000000;-0.010749;0.010749;-0.010749;1.000000
445649.90400131;5696603.79220016;470.85944988;154;149;142;38293.000000;1.000000;1.000000;1.000000;1.000000;-0.097271;0.097271;-0.097271;1.000000
445649.79680069;5696603.71279724;470.89555003;110;107;97;27242.000000;1.000000;1.000000;1.000000;1.000000;-0.076176;0.076176;-0.076176;1.000000
445649.75910004;5696603.71159943;470.89855005;181;179;169;45746.000000;1.000000;1.000000;1.000000;1.000000;-0.038475;0.038475;-0.038475;1.000000
445649.93320282;5696603.71969803;470.83894994;47;43;40;11051.000000;1.000000;1.000000;1.000000;1.000000;-0.162131;0.162131;-0.162131;1.000000
445649.60620316;5696603.88209732;470.90995004;36;33;21;8224.000000;1.000000;1.000000;1.000000;1.000000;-0.052097;0.052097;-0.052097;1.000000
445649.59760101;5696603.74259766;470.91485002;94;94;80;23644.000000;1.000000;1.000000;1.000000;1.000000;0.087402;-0.087402;0.087402;1.000000
445649.60110291;5696603.70490082;470.91464998;106;101;92;25957.000000;1.000000;1.000000;1.000000;1.000000;0.119522;-0.119522;0.119522;1.000000
445649.81750305;5696603.85280045;470.93314983;79;76;71;19532.000000;1.000000;1.000000;1.000000;1.000000;0.023014;-0.023014;0.023014;1.000000
445649.70650299;5696603.85859879;470.91884996;12;9;7;2313.000000;1.000000;1.000000;1.000000;1.000000;-0.028599;0.028599;-0.028599;1.000000
445649.60880096;5696603.93779953;470.91534998;48;35;23;9509.000000;1.000000;1.000000;1.000000;1.000000;-0.107800;0.107800;-0.107800;1.000000
445649.57030304;5696604.00739868;470.87724998;121;125;115;31354.000000;1.000000;1.000000;1.000000;1.000000;-0.177399;0.177399;-0.177399;1.000000
445649.74180038;5696603.93250092;470.91205003;91;85;81;22102.000000;1.000000;1.000000;1.000000;1.000000;0.102501;-0.102501;0.102501;1.000000
445649.59620102;5696603.85249908;470.91614987;75;75;65;18761.000000;1.000000;1.000000;1.000000;1.000000;-0.022499;0.022499;-0.022499;1.000000
445649.58830078;5696604.00099762;470.87794997;106;106;103;26985.000000;1.000000;1.000000;1.000000;1.000000;-0.171154;0.171154;-0.171154;1.000000
445649.54930313;5696604.00169952;470.91575005;50;49;46;12336.000000;1.000000;1.000000;1.000000;1.000000;-0.171700;0.171700;-0.171700;1.000000
445649.68750198;5696603.83000000;470.91765000;58;52;40;13364.000000;1.000000;1.000000;1.000000;1.000000;-0.001873;0.001873;-0.001873;1.000000
445649.66570099;5696603.93070038;470.88294985;35;31;28;7967.000000;1.000000;1.000000;1.000000;1.000000;-0.100700;0.100700;-0.100700;1.000000
445649.68050201;5696603.77249725;470.90264990;91;82;70;21331.000000;1.000000;1.000000;1.000000;1.000000;0.040123;-0.040123;0.040123;1.000000
445649.64090164;5696603.84639938;470.89474990;71;68;58;17219.000000;1.000000;1.000000;1.000000;1.000000;-0.016399;0.016399;-0.016399;1.000000
445649.66740234;5696603.89559753;470.87564995;100;95;90;24415.000000;1.000000;1.000000;1.000000;1.000000;-0.065598;0.065598;-0.065598;1.000000
445649.59500320;5696603.88999756;470.91654994;44;47;34;11308.000000;1.000000;1.000000;1.000000;1.000000;-0.060001;0.060001;-0.060001;1.000000
445649.62250336;5696603.96739777;470.88144996;42;43;38;10794.000000;1.000000;1.000000;1.000000;1.000000;-0.137467;0.137467;-0.137467;1.000000
445649.66100128;5696604.00359924;470.87894990;85;75;72;19789.000000;1.000000;1.000000;1.000000;1.000000;-0.173599;0.173599;-0.173599;1.000000
445649.55890091;5696604.01980026;470.89544990;79;81;79;20560.000000;1.000000;1.000000;1.000000;1.000000;-0.189800;0.189800;-0.189800;1.000000
445649.90970047;5696603.67949875;470.86074998;36;35;34;8995.000000;1.000000;1.000000;1.000000;1.000000;-0.178150;0.178150;-0.178150;1.000000
445649.85340317;5696603.87319763;470.90474989;98;97;92;24672.000000;1.000000;1.000000;1.000000;1.000000;0.058217;-0.058217;0.058217;1.000000
445649.89470108;5696603.87459763;470.87395002;132;128;120;32896.000000;1.000000;1.000000;1.000000;1.000000;0.091876;-0.091876;0.091876;1.000000
445649.71500214;5696603.64309891;470.90505006;166;165;161;42148.000000;1.000000;1.000000;1.000000;1.000000;0.005623;-0.005623;0.005623;1.000000
445649.90210159;5696603.65209778;470.86934998;50;51;51;12850.000000;1.000000;1.000000;1.000000;1.000000;-0.181477;0.181477;-0.181477;1.000000
445649.85250290;5696603.75219925;470.88224985;74;70;62;17990.000000;1.000000;1.000000;1.000000;1.000000;-0.086641;0.086641;-0.086641;1.000000
445649.92580231;5696603.71800049;470.84325006;46;41;38;10794.000000;1.000000;1.000000;1.000000;1.000000;-0.157987;0.157987;-0.157987;1.000000
445649.89140137;5696603.64119919;470.87804987;85;85;86;21845.000000;1.000000;1.000000;1.000000;1.000000;-0.170776;0.170776;-0.170776;1.000000
445649.68430145;5696603.90329941;470.88115003;96;92;86;23644.000000;1.000000;1.000000;1.000000;1.000000;-0.073475;0.073475;-0.073475;1.000000
445649.61910065;5696603.71520050;470.89925005;73;70;63;17990.000000;1.000000;1.000000;1.000000;1.000000;0.101524;-0.101524;0.101524;1.000000
445649.65670212;5696603.71639832;470.89864995;197;198;194;50629.000000;1.000000;1.000000;1.000000;1.000000;0.063923;-0.063923;0.063923;1.000000
445649.76519974;5696604.00969894;470.91634991;126;124;119;31868.000000;1.000000;1.000000;1.000000;1.000000;-0.179699;0.179699;-0.179699;1.000000
445649.84520157;5696603.86450012;470.91354992;78;75;69;19275.000000;1.000000;1.000000;1.000000;1.000000;0.046266;-0.046266;0.046266;1.000000
445649.88190277;5696603.86630066;470.88034989;135;131;124;33667.000000;1.000000;1.000000;1.000000;1.000000;0.076666;-0.076666;0.076666;1.000000
445649.85370071;5696603.71470078;470.88185002;96;93;85;23901.000000;1.000000;1.000000;1.000000;1.000000;-0.121821;0.121821;-0.121821;1.000000
445649.60510071;5696603.84480103;470.90944983;108;108;100;27499.000000;1.000000;1.000000;1.000000;1.000000;-0.014801;0.014801;-0.014801;1.000000
445649.57030304;5696603.97410019;470.91174986;32;33;29;8224.000000;1.000000;1.000000;1.000000;1.000000;-0.144100;0.144100;-0.144100;1.000000
445649.61490067;5696603.81839951;470.89564993;109;105;90;26728.000000;1.000000;1.000000;1.000000;1.000000;0.011600;-0.011600;0.011600;1.000000
445649.84330185;5696603.78779800;470.90094997;106;103;94;26214.000000;1.000000;1.000000;1.000000;1.000000;-0.051164;0.051164;-0.051164;1.000000
445649.71680267;5696603.88820084;470.90804984;18;14;8;3598.000000;1.000000;1.000000;1.000000;1.000000;-0.058326;0.058326;-0.058326;1.000000
445649.71949966;5696603.87140091;470.91724994;15;10;3;2570.000000;1.000000;1.000000;1.000000;1.000000;-0.041416;0.041416;-0.041416;1.000000
445649.69480331;5696603.67320068;470.89744999;120;119;113;30326.000000;1.000000;1.000000;1.000000;1.000000;0.025822;-0.025822;0.025822;1.000000
445649.80249985;5696604.01090057;470.92034986;72;71;66;17990.000000;1.000000;1.000000;1.000000;1.000000;-0.180901;0.180901;-0.180901;1.000000
445649.76870163;5696603.97199829;470.91604998;45;45;41;11308.000000;1.000000;1.000000;1.000000;1.000000;-0.141998;0.141998;-0.141998;1.000000
445649.88290222;5696603.90360077;470.88314988;107;107;104;27242.000000;1.000000;1.000000;1.000000;1.000000;0.100564;-0.100564;0.100564;1.000000
445649.70310028;5696603.74679764;470.91734983;132;128;116;32639.000000;1.000000;1.000000;1.000000;1.000000;0.017525;-0.017525;0.017525;1.000000
445649.85470016;5696603.67719849;470.88384988;63;62;62;15934.000000;1.000000;1.000000;1.000000;1.000000;-0.134075;0.134075;-0.134075;1.000000
445649.57349976;5696603.93639954;470.91844990;73;92;66;21331.000000;1.000000;1.000000;1.000000;1.000000;-0.106400;0.106400;-0.106400;1.000000
445649.81140335;5696603.75319870;470.91534998;111;103;95;26728.000000;1.000000;1.000000;1.000000;1.000000;-0.076801;0.076801;-0.076801;1.000000
445649.60050018;5696603.92000015;470.90785005;44;45;35;11051.000000;1.000000;1.000000;1.000000;1.000000;-0.090000;0.090000;-0.090000;1.000000
445649.56320007;5696603.99589737;470.90704991;33;35;35;8738.000000;1.000000;1.000000;1.000000;1.000000;-0.165897;0.165897;-0.165897;1.000000
445649.68510254;5696603.77429779;470.90754988;90;80;66;20817.000000;1.000000;1.000000;1.000000;1.000000;0.035522;-0.035522;0.035522;1.000000
445649.95910080;5696603.79680069;470.83874990;128;124;120;31868.000000;1.000000;1.000000;1.000000;1.000000;-0.148485;0.148485;-0.148485;1.000000
445649.76740082;5696603.93469818;470.91785004;51;49;46;12593.000000;1.000000;1.000000;1.000000;1.000000;-0.104698;0.104698;-0.104698;1.000000
445649.58580215;5696603.81609924;470.91524984;170;165;154;42405.000000;1.000000;1.000000;1.000000;1.000000;0.017021;-0.017021;0.017021;1.000000
445649.62840088;5696603.71430023;470.89964988;119;115;108;29555.000000;1.000000;1.000000;1.000000;1.000000;0.092224;-0.092224;0.092224;1.000000
445649.60330017;5696603.67669876;470.91205003;95;90;83;23130.000000;1.000000;1.000000;1.000000;1.000000;0.117325;-0.117325;0.117325;1.000000
445649.82190140;5696603.76169785;470.90664985;105;96;87;24929.000000;1.000000;1.000000;1.000000;1.000000;-0.068716;0.068716;-0.068716;1.000000
445649.97039993;5696603.76539810;470.83414986;109;105;99;26985.000000;1.000000;1.000000;1.000000;1.000000;-0.168870;0.168870;-0.168870;1.000000
445649.97179993;5696603.72799881;470.82914998;64;60;58;15420.000000;1.000000;1.000000;1.000000;1.000000;-0.187582;0.187582;-0.187582;1.000000
445649.73110016;5696603.89609726;470.91804983;27;27;24;6682.000000;1.000000;1.000000;1.000000;1.000000;-0.066097;0.066097;-0.066097;1.000000
445649.72390182;5696603.89889725;470.92715003;7;8;7;1799.000000;1.000000;1.000000;1.000000;1.000000;-0.068897;0.068897;-0.068897;1.000000
445649.84180267;5696603.94679840;470.90045001;78;76;72;19532.000000;1.000000;1.000000;1.000000;1.000000;0.119976;-0.119976;0.119976;1.000000
445649.84550293;5696603.91139801;470.90014984;47;46;45;11822.000000;1.000000;1.000000;1.000000;1.000000;0.087147;-0.087147;0.087147;1.000000
445649.91909988;5696603.87729843;470.85644986;121;116;110;29812.000000;1.000000;1.000000;1.000000;1.000000;0.114911;-0.114911;0.114911;1.000000
445649.83430298;5696603.82799728;470.92424991;118;114;104;29298.000000;1.000000;1.000000;1.000000;1.000000;-0.020028;0.020028;-0.020028;1.000000
445649.80500229;5696603.93589981;470.91724994;92;92;92;23644.000000;1.000000;1.000000;1.000000;1.000000;0.105900;-0.105900;0.105900;1.000000
445649.64700134;5696603.68689926;470.89785006;61;58;53;14906.000000;1.000000;1.000000;1.000000;1.000000;0.073624;-0.073624;0.073624;1.000000
445649.87230118;5696603.68739899;470.87774994;52;50;47;12850.000000;1.000000;1.000000;1.000000;1.000000;-0.151676;0.151676;-0.151676;1.000000
445649.94660004;5696603.69039734;470.84384992;62;60;59;15420.000000;1.000000;1.000000;1.000000;1.000000;-0.192282;0.192282;-0.192282;1.000000
445649.87580307;5696603.65189941;470.88214995;67;67;67;17219.000000;1.000000;1.000000;1.000000;1.000000;-0.155178;0.155178;-0.155178;1.000000
445649.59040268;5696603.74090012;470.91684987;103;103;91;25957.000000;1.000000;1.000000;1.000000;1.000000;0.089253;-0.089253;0.089253;1.000000
445649.69700058;5696603.78240021;470.91984989;58;53;39;13364.000000;1.000000;1.000000;1.000000;1.000000;0.023624;-0.023624;0.023624;1.000000
445649.68790253;5696603.78109940;470.91014983;69;63;53;16191.000000;1.000000;1.000000;1.000000;1.000000;0.032722;-0.032722;0.032722;1.000000
445649.58699997;5696603.77869995;470.91485002;58;60;37;14392.000000;1.000000;1.000000;1.000000;1.000000;0.052020;-0.052020;0.052020;1.000000
445649.85900314;5696603.85639771;470.90244987;80;77;72;19789.000000;1.000000;1.000000;1.000000;1.000000;0.051851;-0.051851;0.051851;1.000000
445649.89470108;5696603.81870087;470.86165001;107;101;96;26214.000000;1.000000;1.000000;1.000000;1.000000;-0.081117;0.081117;-0.081117;1.000000
445649.58139999;5696604.00169952;470.87765004;148;152;145;38550.000000;1.000000;1.000000;1.000000;1.000000;-0.171858;0.171858;-0.171858;1.000000
445649.54450043;5696603.99979980;470.91555001;59;58;52;14649.000000;1.000000;1.000000;1.000000;1.000000;-0.169800;0.169800;-0.169800;1.000000
445649.61779984;5696603.96789749;470.88124992;63;64;59;16191.000000;1.000000;1.000000;1.000000;1.000000;-0.137908;0.137908;-0.137908;1.000000
445649.60930069;5696603.76050003;470.89934995;98;91;82;23644.000000;1.000000;1.000000;1.000000;1.000000;0.069500;-0.069500;0.069500;1.000000
445649.65600021;5696603.92690094;470.88244988;44;41;37;10537.000000;1.000000;1.000000;1.000000;1.000000;-0.096924;0.096924;-0.096924;1.000000
445649.65640076;5696604.00409897;470.87874987;97;88;84;23130.000000;1.000000;1.000000;1.000000;1.000000;-0.174108;0.174108;-0.174108;1.000000
445649.58220108;5696603.92859848;470.91645004;58;69;54;16448.000000;1.000000;1.000000;1.000000;1.000000;-0.098929;0.098929;-0.098929;1.000000
445649.70310028;5696603.96209915;470.89664986;156;153;148;39321.000000;1.000000;1.000000;1.000000;1.000000;-0.132099;0.132099;-0.132099;1.000000
445649.71170242;5696603.90519913;470.89864995;34;27;21;7196.000000;1.000000;1.000000;1.000000;1.000000;-0.075222;0.075222;-0.075222;1.000000
445649.85230072;5696603.83600052;470.90424993;132;128;122;32896.000000;1.000000;1.000000;1.000000;1.000000;0.038397;-0.038397;0.038397;1.000000
445649.75030334;5696603.72159775;470.90754988;150;146;135;37265.000000;1.000000;1.000000;1.000000;1.000000;-0.029678;0.029678;-0.029678;1.000000
445649.78820236;5696603.72509964;470.90464999;168;160;152;41377.000000;1.000000;1.000000;1.000000;1.000000;-0.067577;0.067577;-0.067577;1.000000
445649.78750046;5696603.68569763;470.89014985;91;88;82;22616.000000;1.000000;1.000000;1.000000;1.000000;-0.066875;0.066875;-0.066875;1.000000
445649.82500275;5696603.68689926;470.88954999;40;36;32;9252.000000;1.000000;1.000000;1.000000;1.000000;-0.104378;0.104378;-0.104378;1.000000
445649.72340210;5696603.93199738;470.90415003;46;41;39;10794.000000;1.000000;1.000000;1.000000;1.000000;-0.101997;0.101997;-0.101997;1.000000
445649.60760315;5696604.00399979;470.87185003;106;107;107;27242.000000;1.000000;1.000000;1.000000;1.000000;-0.174000;0.174000;-0.174000;1.000000
445649.81730087;5696603.87159927;470.92634990;83;81;77;20817.000000;1.000000;1.000000;1.000000;1.000000;0.041702;-0.041702;0.041702;1.000000
445649.82580002;5696603.72179993;470.89234998;99;94;84;24158.000000;1.000000;1.000000;1.000000;1.000000;-0.105175;0.105175;-0.105175;1.000000
445649.79070099;5696603.64570053;470.88984992;75;68;67;17733.000000;1.000000;1.000000;1.000000;1.000000;-0.070076;0.070076;-0.070076;1.000000
445649.82700165;5696603.87309845;470.91984989;96;95;91;24158.000000;1.000000;1.000000;1.000000;1.000000;0.044910;-0.044910;0.044910;1.000000
445649.89570053;5696603.91179855;470.87684991;98;97;94;24672.000000;1.000000;1.000000;1.000000;1.000000;0.115347;-0.115347;0.115347;1.000000
445649.92860229;5696603.87649735;470.84994986;140;135;129;34695.000000;1.000000;1.000000;1.000000;1.000000;0.123328;-0.123328;0.123328;1.000000
445649.92980011;5696603.83899887;470.84955003;145;139;134;35980.000000;1.000000;1.000000;1.000000;1.000000;0.115775;-0.115775;0.115775;1.000000
445649.85659988;5696603.79849823;470.88765003;125;121;115;31097.000000;1.000000;1.000000;1.000000;1.000000;-0.052681;0.052681;-0.052681;1.000000
445649.71310242;5696603.75749786;470.92494990;128;124;108;31611.000000;1.000000;1.000000;1.000000;1.000000;0.007523;-0.007523;0.007523;1.000000
445649.90250214;5696603.72459991;470.85624983;70;67;60;17219.000000;1.000000;1.000000;1.000000;1.000000;-0.137388;0.137388;-0.137388;1.000000
445649.82850082;5696603.64919861;470.88925006;60;56;55;14649.000000;1.000000;1.000000;1.000000;1.000000;-0.107876;0.107876;-0.107876;1.000000
445649.79880341;5696603.89900024;470.92584993;80;80;79;20303.000000;1.000000;1.000000;1.000000;1.000000;-0.069000;0.069000;-0.069000;1.000000
445649.67920120;5696603.81220062;470.91004993;125;119;102;30326.000000;1.000000;1.000000;1.000000;1.000000;0.017809;-0.017809;0.017809;1.000000
445649.86200150;5696603.83299835;470.89065005;145;141;134;36237.000000;1.000000;1.000000;1.000000;1.000000;0.047721;-0.047721;0.047721;1.000000
445649.93340118;5696603.80359848;470.85165002;139;136;132;34952.000000;1.000000;1.000000;1.000000;1.000000;-0.121919;0.121919;-0.121919;1.000000
445649.86380203;5696603.65069778;470.88625004;89;89;90;22873.000000;1.000000;1.000000;1.000000;1.000000;-0.143177;0.143177;-0.143177;1.000000
445649.52169998;5696604.02779968;470.90785005;42;40;35;10280.000000;1.000000;1.000000;1.000000;1.000000;-0.197800;0.197800;-0.197800;1.000000
445649.66790207;5696603.81109818;470.89794995;103;94;85;24415.000000;1.000000;1.000000;1.000000;1.000000;0.018902;-0.018902;0.018902;1.000000
445649.71339996;5696603.69940002;470.90094997;128;122;110;31354.000000;1.000000;1.000000;1.000000;1.000000;0.007225;-0.007225;0.007225;1.000000
445649.71500214;5696603.66430099;470.89835002;96;95;91;24158.000000;1.000000;1.000000;1.000000;1.000000;0.005623;-0.005623;0.005623;1.000000
445649.80890091;5696603.63939865;470.88824989;79;75;72;19275.000000;1.000000;1.000000;1.000000;1.000000;-0.088276;0.088276;-0.088276;1.000000
445649.84640320;5696603.64049728;470.88995006;115;113;113;29041.000000;1.000000;1.000000;1.000000;1.000000;-0.125778;0.125778;-0.125778;1.000000
445649.71050079;5696603.99619873;470.90674998;49;43;38;11308.000000;1.000000;1.000000;1.000000;1.000000;-0.166200;0.166200;-0.166200;1.000000
445649.97170074;5696603.80499847;470.83474996;105;100;95;25700.000000;1.000000;1.000000;1.000000;1.000000;-0.159300;0.159300;-0.159300;1.000000
445649.74340256;5696603.90649994;470.92575004;107;104;99;26728.000000;1.000000;1.000000;1.000000;1.000000;0.076500;-0.076500;0.076500;1.000000
445649.78080185;5696603.90759857;470.92744996;57;57;56;14392.000000;1.000000;1.000000;1.000000;1.000000;0.077599;-0.077599;0.077599;1.000000
445649.82190140;5696603.79640015;470.92794992;93;90;83;23130.000000;1.000000;1.000000;1.000000;1.000000;-0.034432;0.034432;-0.034432;1.000000
445649.63000305;5696603.90119751;470.88794996;34;30;24;7710.000000;1.000000;1.000000;1.000000;1.000000;-0.071198;0.071198;-0.071198;1.000000
445649.63140305;5696603.84490021;470.89664986;98;95;86;24158.000000;1.000000;1.000000;1.000000;1.000000;-0.014900;0.014900;-0.014900;1.000000
445649.63690002;5696603.75110062;470.89115002;68;63;57;16191.000000;1.000000;1.000000;1.000000;1.000000;0.078899;-0.078899;0.078899;1.000000
445649.64880188;5696603.89509781;470.87244989;75;74;66;18761.000000;1.000000;1.000000;1.000000;1.000000;-0.065115;0.065115;-0.065115;1.000000
445649.59399994;5696603.82489975;470.90634992;142;142;133;36237.000000;1.000000;1.000000;1.000000;1.000000;0.005353;-0.005353;0.005353;1.000000
445649.89180191;5696603.83989914;470.86644985;102;100;95;25700.000000;1.000000;1.000000;1.000000;1.000000;0.078057;-0.078057;0.078057;1.000000
445649.59950073;5696603.80579956;470.89944984;135;131;122;33667.000000;1.000000;1.000000;1.000000;1.000000;0.024200;-0.024200;0.024200;1.000000
445649.59220322;5696603.97249802;470.88944985;99;99;96;25186.000000;1.000000;1.000000;1.000000;1.000000;-0.142539;0.142539;-0.142539;1.000000
445649.82560165;5696603.92709930;470.90874984;51;52;52;13107.000000;1.000000;1.000000;1.000000;1.000000;0.097746;-0.097746;0.097746;1.000000
445649.66640289;5696603.93989761;470.88774993;33;32;29;7967.000000;1.000000;1.000000;1.000000;1.000000;-0.109898;0.109898;-0.109898;1.000000
445649.78600128;5696603.98209961;470.91464998;36;34;32;8738.000000;1.000000;1.000000;1.000000;1.000000;-0.152100;0.152100;-0.152100;1.000000
445649.59040268;5696603.95619782;470.89614989;60;63;53;15420.000000;1.000000;1.000000;1.000000;1.000000;-0.126306;0.126306;-0.126306;1.000000
445649.67370041;5696603.77319916;470.89774992;75;67;54;17219.000000;1.000000;1.000000;1.000000;1.000000;0.046925;-0.046925;0.046925;1.000000
445649.70280273;5696603.90609940;470.89135005;45;41;35;10537.000000;1.000000;1.000000;1.000000;1.000000;-0.076099;0.076099;-0.076099;1.000000
445649.63360031;5696603.86580093;470.89004995;75;74;64;18761.000000;1.000000;1.000000;1.000000;1.000000;-0.035801;0.035801;-0.035801;1.000000
445649.63590057;5696603.78859909;470.88684990;130;126;116;32382.000000;1.000000;1.000000;1.000000;1.000000;0.041401;-0.041401;0.041401;1.000000
445649.86639984;5696603.79999741;470.87885000;136;133;128;34181.000000;1.000000;1.000000;1.000000;1.000000;-0.060056;0.060056;-0.060056;1.000000
445649.94200333;5696603.76560028;470.84224989;125;121;116;31097.000000;1.000000;1.000000;1.000000;1.000000;-0.142956;0.142956;-0.142956;1.000000
445649.62880142;5696603.93869980;470.88835003;44;43;39;10794.000000;1.000000;1.000000;1.000000;1.000000;-0.108700;0.108700;-0.108700;1.000000
445649.66489990;5696603.97509964;470.89045002;48;44;40;11308.000000;1.000000;1.000000;1.000000;1.000000;-0.145100;0.145100;-0.145100;1.000000
445649.66840179;5696603.86260040;470.88925006;37;31;22;7967.000000;1.000000;1.000000;1.000000;1.000000;-0.032600;0.032600;-0.032600;1.000000
445649.62780197;5696603.97849854;470.88874986;41;34;29;8995.000000;1.000000;1.000000;1.000000;1.000000;-0.148499;0.148499;-0.148499;1.000000
445649.77639969;5696603.72159775;470.89944984;213;209;199;53713.000000;1.000000;1.000000;1.000000;1.000000;-0.055775;0.055775;-0.055775;1.000000
445649.84200104;5696603.79960068;470.90094997;128;122;114;31354.000000;1.000000;1.000000;1.000000;1.000000;-0.041077;0.041077;-0.041077;1.000000
445649.83850296;5696603.76029785;470.89804985;112;106;97;27242.000000;1.000000;1.000000;1.000000;1.000000;-0.073760;0.073760;-0.073760;1.000000
445649.73290070;5696603.68129929;470.89934995;71;65;58;16962.000000;1.000000;1.000000;1.000000;1.000000;-0.012276;0.012276;-0.012276;1.000000
445649.97830017;5696603.82309921;470.83054997;118;112;107;29041.000000;1.000000;1.000000;1.000000;1.000000;-0.164070;0.164070;-0.164070;1.000000
445649.87080200;5696603.74370010;470.87364985;83;79;72;20303.000000;1.000000;1.000000;1.000000;1.000000;-0.103110;0.103110;-0.103110;1.000000
445649.67780121;5696603.84509857;470.90575006;27;23;13;5911.000000;1.000000;1.000000;1.000000;1.000000;-0.015099;0.015099;-0.015099;1.000000
445649.94650085;5696603.71150024;470.83714988;61;56;55;14649.000000;1.000000;1.000000;1.000000;1.000000;-0.177481;0.177481;-0.177481;1.000000
445649.84850128;5696603.76190002;470.88684990;76;71;66;18247.000000;1.000000;1.000000;1.000000;1.000000;-0.076172;0.076172;-0.076172;1.000000
445649.81550034;5696603.68549927;470.88914992;49;44;39;11308.000000;1.000000;1.000000;1.000000;1.000000;-0.094875;0.094875;-0.094875;1.000000
445649.92749985;5696603.68969925;470.84994986;42;40;39;10280.000000;1.000000;1.000000;1.000000;1.000000;-0.180226;0.180226;-0.180226;1.000000
445649.59890182;5696603.94829758;470.89874985;40;40;36;10023.000000;1.000000;1.000000;1.000000;1.000000;-0.118298;0.118298;-0.118298;1.000000
445649.68740280;5696603.86779984;470.89485003;28;26;20;6425.000000;1.000000;1.000000;1.000000;1.000000;-0.037851;0.037851;-0.037851;1.000000
445649.64140137;5696603.97709854;470.89634993;9;5;4;1542.000000;1.000000;1.000000;1.000000;1.000000;-0.147099;0.147099;-0.147099;1.000000
445649.68220337;5696603.76539810;470.90034987;74;67;57;17476.000000;1.000000;1.000000;1.000000;1.000000;0.038422;-0.038422;0.038422;1.000000
445649.70170029;5696603.99719818;470.89704992;35;25;21;6939.000000;1.000000;1.000000;1.000000;1.000000;-0.167198;0.167198;-0.167198;1.000000
445649.67720230;5696603.73549850;470.89744999;84;78;63;20046.000000;1.000000;1.000000;1.000000;1.000000;0.043423;-0.043423;0.043423;1.000000
445649.88140305;5696603.91300018;470.88544991;118;119;117;30326.000000;1.000000;1.000000;1.000000;1.000000;0.106685;-0.106685;0.106685;1.000000
445649.88030060;5696603.87570007;470.88494994;144;141;132;35980.000000;1.000000;1.000000;1.000000;1.000000;0.080216;-0.080216;0.080216;1.000000
445649.92280014;5696603.76489838;470.85064985;118;113;107;29041.000000;1.000000;1.000000;1.000000;1.000000;-0.126468;0.126468;-0.126468;1.000000
445649.78030212;5696603.68400009;470.88984992;104;102;96;25957.000000;1.000000;1.000000;1.000000;1.000000;-0.059677;0.059677;-0.059677;1.000000
445649.78149994;5696603.64660080;470.88944985;96;90;88;23387.000000;1.000000;1.000000;1.000000;1.000000;-0.060875;0.060875;-0.060875;1.000000
445649.91480072;5696603.83099945;470.85574986;128;122;116;31611.000000;1.000000;1.000000;1.000000;1.000000;0.100431;-0.100431;0.100431;1.000000
445649.71270187;5696603.91449936;470.89654996;43;36;30;9509.000000;1.000000;1.000000;1.000000;1.000000;-0.084548;0.084548;-0.084548;1.000000
445649.81560333;5696603.94669922;470.91084983;61;59;58;15163.000000;1.000000;1.000000;1.000000;1.000000;0.116706;-0.116706;0.116706;1.000000
445649.71249969;5696603.71809967;470.90814998;130;124;110;31868.000000;1.000000;1.000000;1.000000;1.000000;0.008125;-0.008125;0.008125;1.000000
445649.70280273;5696603.88489731;470.90034987;30;26;18;6682.000000;1.000000;1.000000;1.000000;1.000000;-0.054897;0.054897;-0.054897;1.000000
445649.67130096;5696603.84819992;470.89855005;32;25;16;6682.000000;1.000000;1.000000;1.000000;1.000000;-0.018200;0.018200;-0.018200;1.000000
445649.68350037;5696603.75359924;470.90024998;89;81;65;20817.000000;1.000000;1.000000;1.000000;1.000000;0.037125;-0.037125;0.037125;1.000000
445649.72190292;5696603.91580017;470.90395000;23;18;13;4626.000000;1.000000;1.000000;1.000000;1.000000;-0.085800;0.085800;-0.085800;1.000000
445649.66260345;5696603.75099762;470.88995006;74;72;64;18247.000000;1.000000;1.000000;1.000000;1.000000;0.058022;-0.058022;0.058022;1.000000
445649.86980255;5696603.83709915;470.88174989;153;148;140;38036.000000;1.000000;1.000000;1.000000;1.000000;0.055880;-0.055880;0.055880;1.000000
445649.80080231;5696604.02029999;470.92505004;81;81;77;20560.000000;1.000000;1.000000;1.000000;1.000000;-0.190300;0.190300;-0.190300;1.000000
445649.81040009;5696603.87449844;470.92844989;78;78;74;19789.000000;1.000000;1.000000;1.000000;1.000000;0.044498;-0.044498;0.044498;1.000000
445649.92150314;5696603.87710007;470.85424997;119;114;109;29298.000000;1.000000;1.000000;1.000000;1.000000;0.117025;-0.117025;0.117025;1.000000
445649.92049988;5696603.83979996;470.85144999;134;127;122;32896.000000;1.000000;1.000000;1.000000;1.000000;0.106576;-0.106576;0.106576;1.000000
445649.85170181;5696603.79889877;470.89214994;114;109;104;28013.000000;1.000000;1.000000;1.000000;1.000000;-0.048586;0.048586;-0.048586;1.000000
445649.81890305;5696603.64769943;470.89115002;62;58;58;15163.000000;1.000000;1.000000;1.000000;1.000000;-0.098278;0.098278;-0.098278;1.000000
445649.83180054;5696603.79799850;470.91684987;113;109;102;28013.000000;1.000000;1.000000;1.000000;1.000000;-0.036438;0.036438;-0.036438;1.000000
445649.98800095;5696603.77779968;470.83285000;93;89;83;22873.000000;1.000000;1.000000;1.000000;1.000000;-0.181303;0.181303;-0.181303;1.000000
445649.71160324;5696603.97759827;470.89724996;162;158;152;40606.000000;1.000000;1.000000;1.000000;1.000000;-0.147609;0.147609;-0.147609;1.000000
445649.65960129;5696603.65059860;470.90494992;183;183;179;46774.000000;1.000000;1.000000;1.000000;1.000000;0.061024;-0.061024;0.061024;1.000000
445649.88070114;5696603.69840057;470.87124993;33;31;26;7967.000000;1.000000;1.000000;1.000000;1.000000;-0.147369;0.147369;-0.147369;1.000000
445649.92060287;5696603.62459763;470.86984994;47;47;49;12079.000000;1.000000;1.000000;1.000000;1.000000;-0.199978;0.199978;-0.199978;1.000000
445649.91060074;5696603.64200027;470.86724998;56;56;57;14392.000000;1.000000;1.000000;1.000000;1.000000;-0.189976;0.189976;-0.189976;1.000000
445649.66780289;5696603.66160019;470.90084984;193;190;186;48830.000000;1.000000;1.000000;1.000000;1.000000;0.052822;-0.052822;0.052822;1.000000
445649.74290283;5696603.66399963;470.89954998;83;79;76;20303.000000;1.000000;1.000000;1.000000;1.000000;-0.022278;0.022278;-0.022278;1.000000
445649.85450180;5696603.65149887;470.88815000;82;81;82;20817.000000;1.000000;1.000000;1.000000;1.000000;-0.133877;0.133877;-0.133877;1.000000
445649.68000229;5696603.86379822;470.89444997;32;29;21;7453.000000;1.000000;1.000000;1.000000;1.000000;-0.033828;0.033828;-0.033828;1.000000
445649.54400070;5696604.01409729;470.90404989;53;57;52;14135.000000;1.000000;1.000000;1.000000;1.000000;-0.184097;0.184097;-0.184097;1.000000
445649.62500198;5696604.01409729;470.87045004;91;89;82;22616.000000;1.000000;1.000000;1.000000;1.000000;-0.184107;0.184107;-0.184107;1.000000
445649.70350082;5696603.87079819;470.90724995;28;23;19;6168.000000;1.000000;1.000000;1.000000;1.000000;-0.040798;0.040798;-0.040798;1.000000
