//X;Y;Z;R;G;B;Intensity;Return Number;Number Of Returns;Scan Direction Flag;Point Source ID;C2M signed distances[-][<0.8];C2M signed distances[<0.4];C2M signed distances[-][<0.2];Stump20
445628.56110199;5696598.60989960;472.32084991;159;155;144;39578.000000;1.000000;1.000000;1.000000;1.000000;-0.003275;0.003275;-0.003275;1.000000
445628.51970108;5696598.68329819;472.35475018;242;241;236;61680.000000;1.000000;1.000000;1.000000;1.000000;-0.044676;0.044676;-0.044676;1.000000
445628.75130089;5696598.96380051;472.31034996;201;195;182;50115.000000;1.000000;1.000000;1.000000;1.000000;-0.062790;0.062790;-0.062790;1.000000
445628.53130157;5696598.64749725;472.33395006;184;180;174;46260.000000;1.000000;1.000000;1.000000;1.000000;-0.033075;0.033075;-0.033075;1.000000
445628.74330147;5696598.92719849;472.30954983;158;149;135;38550.000000;1.000000;1.000000;1.000000;1.000000;-0.071533;0.071533;-0.071533;1.000000
445628.59990128;5696598.98670013;472.34574987;172;166;155;42662.000000;1.000000;1.000000;1.000000;1.000000;0.035524;-0.035524;0.035524;1.000000
445628.55370148;5696598.74099930;472.34305002;75;68;65;17733.000000;1.000000;1.000000;1.000000;1.000000;-0.055563;0.055563;-0.055563;1.000000
445628.72620209;5696598.87039764;472.31045010;143;135;124;34952.000000;1.000000;1.000000;1.000000;1.000000;-0.040398;0.040398;-0.040398;1.000000
445628.51920135;5696598.67639740;472.35234978;238;237;231;60652.000000;1.000000;1.000000;1.000000;1.000000;-0.045176;0.045176;-0.045176;1.000000
445628.59780128;5696598.59509857;472.30604984;174;169;155;43176.000000;1.000000;1.000000;1.000000;1.000000;0.033424;-0.033424;0.033424;1.000000
445628.53070076;5696598.63830002;472.32914974;180;175;167;44975.000000;1.000000;1.000000;1.000000;1.000000;-0.033676;0.033676;-0.033676;1.000000
445628.67030151;5696598.64439972;472.30524971;168;164;159;42148.000000;1.000000;1.000000;1.000000;1.000000;0.105925;-0.105925;0.105925;1.000000
445628.69640167;5696598.90569885;472.31885006;164;156;143;40092.000000;1.000000;1.000000;1.000000;1.000000;-0.068671;0.068671;-0.068671;1.000000
445628.54830177;5696598.86279877;472.35354998;202;191;179;49344.000000;1.000000;1.000000;1.000000;1.000000;-0.016075;0.016075;-0.016075;1.000000
445628.63760193;5696598.77350052;472.31224968;156;150;145;38807.000000;1.000000;1.000000;1.000000;1.000000;0.056499;-0.056499;0.056499;1.000000
445628.56280144;5696598.94779785;472.36224987;177;170;158;43690.000000;1.000000;1.000000;1.000000;1.000000;-0.001575;0.001575;-0.001575;1.000000
445628.69760139;5696598.86820038;472.31844999;173;166;154;42662.000000;1.000000;1.000000;1.000000;1.000000;-0.038200;0.038200;-0.038200;1.000000
445628.52990158;5696598.87140091;472.36445000;179;168;156;43433.000000;1.000000;1.000000;1.000000;1.000000;-0.034475;0.034475;-0.034475;1.000000
445628.67540176;5696598.77469833;472.30704977;95;90;85;23130.000000;1.000000;1.000000;1.000000;1.000000;0.055302;-0.055302;0.055302;1.000000
445628.55490120;5696598.96479996;472.36674978;136;129;117;33153.000000;1.000000;1.000000;1.000000;1.000000;-0.009476;0.009476;-0.009476;1.000000
445628.56810196;5696598.84480103;472.34254982;166;157;145;40606.000000;1.000000;1.000000;1.000000;1.000000;0.003725;-0.003725;0.003725;1.000000
445629.09530075;5696598.95030029;472.32805016;64;78;44;17990.000000;1.000000;1.000000;1.000000;1.000000;-0.120301;0.120301;-0.120301;1.000000
445628.76580246;5696598.84340103;472.30954983;163;157;149;40349.000000;1.000000;1.000000;1.000000;1.000000;-0.013401;0.013401;-0.013401;1.000000
445628.60050209;5696598.96789749;472.34555008;162;155;143;39835.000000;1.000000;1.000000;1.000000;1.000000;0.036125;-0.036125;0.036125;1.000000
445628.54680069;5696598.95609863;472.37325003;157;150;138;38550.000000;1.000000;1.000000;1.000000;1.000000;-0.017576;0.017576;-0.017576;1.000000
445628.68200119;5696598.82079895;472.30784990;191;183;173;47288.000000;1.000000;1.000000;1.000000;1.000000;-0.009201;0.009201;-0.009201;1.000000
445628.66170128;5696598.65450104;472.30964996;160;157;150;40349.000000;1.000000;1.000000;1.000000;1.000000;0.097324;-0.097324;0.097324;1.000000
445628.62550171;5696598.61590012;472.30515005;155;150;140;38550.000000;1.000000;1.000000;1.000000;1.000000;0.061125;-0.061125;0.061125;1.000000
445628.56820114;5696598.63949783;472.32854988;153;148;140;38036.000000;1.000000;1.000000;1.000000;1.000000;0.003824;-0.003824;0.003824;1.000000
445628.53660210;5696598.97339828;472.37535002;135;130;116;33153.000000;1.000000;1.000000;1.000000;1.000000;-0.027775;0.027775;-0.027775;1.000000
445628.75510223;5696598.85370071;472.30924990;160;153;144;39578.000000;1.000000;1.000000;1.000000;1.000000;-0.023701;0.023701;-0.023701;1.000000
445629.11450203;5696598.93440063;472.33575012;39;54;21;11565.000000;1.000000;1.000000;1.000000;1.000000;-0.104401;0.104401;-0.104401;1.000000
445628.51200111;5696598.63769730;472.32824995;170;164;156;42148.000000;1.000000;1.000000;1.000000;1.000000;-0.052376;0.052376;-0.052376;1.000000
445628.65210159;5696598.65299805;472.31145002;160;157;149;40349.000000;1.000000;1.000000;1.000000;1.000000;0.087725;-0.087725;0.087725;1.000000
445628.52290161;5696598.59950073;472.31664993;171;166;157;42662.000000;1.000000;1.000000;1.000000;1.000000;-0.041475;0.041475;-0.041475;1.000000
445628.61590202;5696598.61440094;472.30704977;140;136;125;34695.000000;1.000000;1.000000;1.000000;1.000000;0.051525;-0.051525;0.051525;1.000000
445628.56740196;5696598.91939743;472.35745003;152;144;131;37008.000000;1.000000;1.000000;1.000000;1.000000;0.003025;-0.003025;0.003025;1.000000
445628.61350067;5696598.87579926;472.33334972;129;121;110;31354.000000;1.000000;1.000000;1.000000;1.000000;0.045799;-0.045799;0.045799;1.000000
445628.66000183;5696598.66169937;472.30964996;138;134;128;34438.000000;1.000000;1.000000;1.000000;1.000000;0.095625;-0.095625;0.095625;1.000000
445628.66510208;5696598.96940048;472.31584980;142;135;125;34952.000000;1.000000;1.000000;1.000000;1.000000;0.024722;-0.024722;0.024722;1.000000
445628.56240089;5696598.78009995;472.33454992;114;105;95;27242.000000;1.000000;1.000000;1.000000;1.000000;0.049939;-0.049939;0.049939;1.000000
445628.58440216;5696598.92029770;472.34655001;143;135;124;34952.000000;1.000000;1.000000;1.000000;1.000000;0.020025;-0.020025;0.020025;1.000000
445628.73580177;5696598.87190063;472.30854990;131;124;113;31868.000000;1.000000;1.000000;1.000000;1.000000;-0.041901;0.041901;-0.041901;1.000000
445628.61260231;5696598.86649902;472.33325006;119;112;102;29041.000000;1.000000;1.000000;1.000000;1.000000;0.036499;-0.036499;0.036499;1.000000
445628.66460236;5696598.81069763;472.30924990;188;180;172;46517.000000;1.000000;1.000000;1.000000;1.000000;0.019302;-0.019302;0.019302;1.000000
445628.56130226;5696598.58199890;472.31125023;136;129;115;33153.000000;1.000000;1.000000;1.000000;1.000000;-0.003075;0.003075;-0.003075;1.000000
445628.55120094;5696598.78800018;472.34114983;157;146;134;37779.000000;1.000000;1.000000;1.000000;1.000000;0.044018;-0.044018;0.044018;1.000000
445628.55520065;5696598.73159988;472.34294989;60;54;52;14135.000000;1.000000;1.000000;1.000000;1.000000;-0.046055;0.046055;-0.046055;1.000000
445628.61740120;5696598.60259827;472.30235006;147;142;131;36494.000000;1.000000;1.000000;1.000000;1.000000;0.053024;-0.053024;0.053024;1.000000
445628.66700180;5696598.73800095;472.31314995;65;61;60;15934.000000;1.000000;1.000000;1.000000;1.000000;0.091999;-0.091999;0.091999;1.000000
445628.60380180;5696598.94899948;472.33844997;154;147;137;37779.000000;1.000000;1.000000;1.000000;1.000000;0.039425;-0.039425;0.039425;1.000000
445628.55230148;5696598.75049789;472.34305002;101;93;88;24158.000000;1.000000;1.000000;1.000000;1.000000;-0.065153;0.065153;-0.065153;1.000000
445628.70460136;5696598.73699768;472.30555012;75;72;70;18504.000000;1.000000;1.000000;1.000000;1.000000;0.093002;-0.093002;0.093002;1.000000
445628.58430107;5696598.71489914;472.33715012;86;86;86;22102.000000;1.000000;1.000000;1.000000;1.000000;0.034815;-0.034815;0.034815;1.000000
445628.52030190;5696598.65780075;472.34054996;197;194;188;49858.000000;1.000000;1.000000;1.000000;1.000000;-0.044075;0.044075;-0.044075;1.000000
445628.60260208;5696598.91179855;472.33794977;190;181;170;46774.000000;1.000000;1.000000;1.000000;1.000000;0.038225;-0.038225;0.038225;1.000000
445628.66830070;5696598.70059784;472.31045010;223;224;219;57311.000000;1.000000;1.000000;1.000000;1.000000;0.104970;-0.104970;0.104970;1.000000
445628.55930145;5696598.85259827;472.34695007;187;176;162;45489.000000;1.000000;1.000000;1.000000;1.000000;-0.005075;0.005075;-0.005075;1.000000
445628.58210190;5696598.94849976;472.35144999;178;171;161;44204.000000;1.000000;1.000000;1.000000;1.000000;0.017725;-0.017725;0.017725;1.000000
445628.57400139;5696598.96549805;472.35825016;180;173;161;44461.000000;1.000000;1.000000;1.000000;1.000000;0.009624;-0.009624;0.009624;1.000000
445628.57540138;5696598.92809875;472.35325005;150;142;132;36751.000000;1.000000;1.000000;1.000000;1.000000;0.011024;-0.011024;0.011024;1.000000
445628.64850243;5696598.96859940;472.31974985;165;159;148;40863.000000;1.000000;1.000000;1.000000;1.000000;0.041230;-0.041230;0.041230;1.000000
445628.62610062;5696598.62280090;472.30765011;157;153;143;39321.000000;1.000000;1.000000;1.000000;1.000000;0.061724;-0.061724;0.061724;1.000000
445628.62980087;5696598.92109879;472.32534983;132;125;114;32125.000000;1.000000;1.000000;1.000000;1.000000;0.065424;-0.065424;0.065424;1.000000
445628.56680115;5696598.93810089;472.35764982;172;165;153;42405.000000;1.000000;1.000000;1.000000;1.000000;0.002424;-0.002424;0.002424;1.000000
445628.75060089;5696598.98259933;472.31285002;213;208;196;53456.000000;1.000000;1.000000;1.000000;1.000000;-0.061224;0.061224;-0.061224;1.000000
445628.68850143;5696598.89710052;472.32074978;142;133;120;34438.000000;1.000000;1.000000;1.000000;1.000000;0.067101;-0.067101;0.067101;1.000000
445628.72220238;5696598.95249756;472.31125023;192;184;170;47288.000000;1.000000;1.000000;1.000000;1.000000;-0.039335;0.039335;-0.039335;1.000000
445628.68980225;5696598.85959824;472.31794979;190;184;174;47288.000000;1.000000;1.000000;1.000000;1.000000;-0.029598;0.029598;-0.029598;1.000000
445628.53510101;5696598.76840027;472.34714987;193;181;170;47031.000000;1.000000;1.000000;1.000000;1.000000;0.068203;-0.068203;0.068203;1.000000
445628.53390129;5696598.86170013;472.35984995;192;181;168;46774.000000;1.000000;1.000000;1.000000;1.000000;-0.030476;0.030476;-0.030476;1.000000
445628.61800201;5696598.81719788;472.31885006;175;168;158;43433.000000;1.000000;1.000000;1.000000;1.000000;-0.012802;0.012802;-0.012802;1.000000
445628.61700066;5696598.78000076;472.31605007;150;143;135;37008.000000;1.000000;1.000000;1.000000;1.000000;-0.049999;0.049999;-0.049999;1.000000
445628.67760094;5696598.90509995;472.32035019;159;151;139;39064.000000;1.000000;1.000000;1.000000;1.000000;0.069879;-0.069879;0.069879;1.000000
445628.68140228;5696598.81389816;472.30544998;193;186;178;48059.000000;1.000000;1.000000;1.000000;1.000000;-0.016102;0.016102;-0.016102;1.000000
445628.59120186;5696598.99439819;472.34775021;143;137;126;35209.000000;1.000000;1.000000;1.000000;1.000000;0.026825;-0.026825;0.026825;1.000000
445628.56340225;5696598.74259766;472.33885004;79;71;69;18761.000000;1.000000;1.000000;1.000000;1.000000;-0.056218;0.056218;-0.056218;1.000000
445628.60850151;5696598.79009827;472.31815006;107;99;89;25700.000000;1.000000;1.000000;1.000000;1.000000;0.039902;-0.039902;0.039902;1.000000
445628.53660210;5696598.71209915;472.35125019;91;88;86;22616.000000;1.000000;1.000000;1.000000;1.000000;-0.037684;0.037684;-0.037684;1.000000
445628.60400208;5696598.69689758;472.32844975;224;225;221;57568.000000;1.000000;1.000000;1.000000;1.000000;0.041051;-0.041051;0.041051;1.000000
445629.11670120;5696598.87829788;472.32585003;183;194;153;47802.000000;1.000000;1.000000;1.000000;1.000000;-0.048298;0.048298;-0.048298;1.000000
445628.58100136;5696598.56399735;472.30254986;149;137;118;35466.000000;1.000000;1.000000;1.000000;1.000000;0.016624;-0.016624;0.016624;1.000000
445628.59690102;5696598.64159973;472.32054998;159;153;144;39321.000000;1.000000;1.000000;1.000000;1.000000;0.032524;-0.032524;0.032524;1.000000
445628.55960091;5696598.64959915;472.33285000;185;182;175;46774.000000;1.000000;1.000000;1.000000;1.000000;-0.004776;0.004776;-0.004776;1.000000
445628.60310181;5696598.65970047;472.32334997;119;116;109;29812.000000;1.000000;1.000000;1.000000;1.000000;0.038725;-0.038725;0.038725;1.000000
445628.67260178;5696598.82169922;472.30975010;190;182;173;47031.000000;1.000000;1.000000;1.000000;1.000000;0.008301;-0.008301;0.008301;1.000000
445628.59520157;5696598.88439758;472.34194996;127;119;109;30840.000000;1.000000;1.000000;1.000000;1.000000;0.030825;-0.030825;0.030825;1.000000
445628.51260193;5696598.64689835;472.33304979;175;170;163;43690.000000;1.000000;1.000000;1.000000;1.000000;-0.051775;0.051775;-0.051775;1.000000
445628.55010231;5696598.64809998;472.33474972;183;180;173;46260.000000;1.000000;1.000000;1.000000;1.000000;-0.014275;0.014275;-0.014275;1.000000
445628.50790222;5696598.52879913;472.29654982;148;147;136;37522.000000;1.000000;1.000000;1.000000;1.000000;-0.056475;0.056475;-0.056475;1.000000
445629.12350090;5696598.93350037;472.34314968;60;76;38;17219.000000;1.000000;1.000000;1.000000;1.000000;-0.103500;0.103500;-0.103500;1.000000
445628.66440208;5696598.98810013;472.31834986;202;197;188;50629.000000;1.000000;1.000000;1.000000;1.000000;0.024975;-0.024975;0.024975;1.000000
445628.58640106;5696598.89209946;472.34635021;137;129;118;33410.000000;1.000000;1.000000;1.000000;1.000000;0.022024;-0.022024;0.022024;1.000000
445628.54520233;5696598.75110062;472.34515001;113;105;97;27242.000000;1.000000;1.000000;1.000000;1.000000;-0.067371;0.067371;-0.067371;1.000000
445628.66660126;5696598.95989807;472.31584980;121;114;103;29298.000000;1.000000;1.000000;1.000000;1.000000;0.026830;-0.026830;0.026830;1.000000
445628.58880241;5696598.99460037;472.34994986;137;131;121;33667.000000;1.000000;1.000000;1.000000;1.000000;0.024426;-0.024426;0.024426;1.000000
445628.70420082;5696598.96119888;472.31285002;113;104;90;26985.000000;1.000000;1.000000;1.000000;1.000000;-0.019678;0.019678;-0.019678;1.000000
445628.53850182;5696598.73069962;472.34924986;69;61;59;16191.000000;1.000000;1.000000;1.000000;1.000000;-0.051136;0.051136;-0.051136;1.000000
445628.58100136;5696598.75269897;472.33274986;88;82;80;21331.000000;1.000000;1.000000;1.000000;1.000000;0.068479;-0.068479;0.068479;1.000000
445628.59240158;5696598.95699890;472.34734966;168;161;150;41377.000000;1.000000;1.000000;1.000000;1.000000;0.028025;-0.028025;0.028025;1.000000
445628.66070183;5696598.64290054;472.30714991;167;163;158;41891.000000;1.000000;1.000000;1.000000;1.000000;0.096325;-0.096325;0.096325;1.000000
445628.59860237;5696598.60429962;472.30845024;151;146;134;37522.000000;1.000000;1.000000;1.000000;1.000000;0.034225;-0.034225;0.034225;1.000000
445628.62370117;5696598.85629852;472.32665016;172;164;154;42405.000000;1.000000;1.000000;1.000000;1.000000;0.026299;-0.026299;0.026299;1.000000
445628.67400177;5696598.98959930;472.31644966;173;166;157;42919.000000;1.000000;1.000000;1.000000;1.000000;0.015375;-0.015375;0.015375;1.000000
445628.52490242;5696598.56450089;472.30464985;185;180;166;46003.000000;1.000000;1.000000;1.000000;1.000000;-0.039474;0.039474;-0.039474;1.000000
445628.56530197;5696598.94759949;472.35995008;184;176;164;45489.000000;1.000000;1.000000;1.000000;1.000000;0.000925;-0.000925;0.000925;1.000000
445628.53940208;5696598.89850052;472.36525013;154;144;131;37265.000000;1.000000;1.000000;1.000000;1.000000;-0.024975;0.024975;-0.024975;1.000000
445629.10750206;5696598.93279846;472.33304979;41;58;22;12336.000000;1.000000;1.000000;1.000000;1.000000;-0.102798;0.102798;-0.102798;1.000000
445628.72300156;5696598.93609818;472.31104996;200;192;177;49344.000000;1.000000;1.000000;1.000000;1.000000;-0.050796;0.050796;-0.050796;1.000000
445628.64940079;5696598.90529831;472.32364990;111;103;92;26728.000000;1.000000;1.000000;1.000000;1.000000;0.075298;-0.075298;0.075298;1.000000
445628.66790207;5696598.92469986;472.31775000;124;117;106;30069.000000;1.000000;1.000000;1.000000;1.000000;0.053806;-0.053806;0.053806;1.000000
445628.55410202;5696598.54789932;472.29645016;191;184;170;47288.000000;1.000000;1.000000;1.000000;1.000000;-0.010275;0.010275;-0.010275;1.000000
445628.71510132;5696598.87840088;472.31465008;129;121;109;31354.000000;1.000000;1.000000;1.000000;1.000000;-0.048526;0.048526;-0.048526;1.000000
445628.63110168;5696598.91160019;472.32765009;119;112;101;28784.000000;1.000000;1.000000;1.000000;1.000000;0.066725;-0.066725;0.066725;1.000000
445628.60700233;5696598.79960068;472.31815006;121;113;102;29298.000000;1.000000;1.000000;1.000000;1.000000;0.030399;-0.030399;0.030399;1.000000
445628.57870110;5696598.65019806;472.32674982;147;142;135;36494.000000;1.000000;1.000000;1.000000;1.000000;0.014324;-0.014324;0.014324;1.000000
445628.53700073;5696598.92669876;472.37244989;152;144;132;37265.000000;1.000000;1.000000;1.000000;1.000000;-0.027376;0.027376;-0.027376;1.000000
445628.61070068;5696598.76420029;472.32025005;86;79;75;20560.000000;1.000000;1.000000;1.000000;1.000000;-0.065800;0.065800;-0.065800;1.000000
445628.56370171;5696598.95699890;472.36235001;167;161;149;41377.000000;1.000000;1.000000;1.000000;1.000000;-0.000675;0.000675;-0.000675;1.000000
445628.53520210;5696598.72159775;472.35125019;69;64;62;16705.000000;1.000000;1.000000;1.000000;1.000000;-0.045539;0.045539;-0.045539;1.000000
445628.61150177;5696598.92970093;472.33395006;161;154;144;39835.000000;1.000000;1.000000;1.000000;1.000000;0.047125;-0.047125;0.047125;1.000000
445628.50910194;5696598.51700027;472.29645016;132;135;124;33924.000000;1.000000;1.000000;1.000000;1.000000;-0.055275;0.055275;-0.055275;1.000000
445628.64060219;5696598.95989807;472.32165005;187;179;167;46260.000000;1.000000;1.000000;1.000000;1.000000;0.050762;-0.050762;0.050762;1.000000
445628.68560226;5696598.71069916;472.30905010;210;210;206;53713.000000;1.000000;1.000000;1.000000;1.000000;-0.119301;0.119301;-0.119301;1.000000
445628.56650169;5696598.88220032;472.35225012;188;179;168;46260.000000;1.000000;1.000000;1.000000;1.000000;0.002125;-0.002125;0.002125;1.000000
445628.59820183;5696598.83519943;472.32984974;212;205;194;52685.000000;1.000000;1.000000;1.000000;1.000000;-0.005199;0.005199;-0.005199;1.000000
445628.66580208;5696598.77319916;472.30884983;97;92;87;23644.000000;1.000000;1.000000;1.000000;1.000000;0.056801;-0.056801;0.056801;1.000000
445628.54330070;5696598.80729874;472.34804966;178;165;152;42919.000000;1.000000;1.000000;1.000000;1.000000;0.030977;-0.030977;0.030977;1.000000
445628.68040092;5696598.88609894;472.32254984;146;139;126;35723.000000;1.000000;1.000000;1.000000;1.000000;0.056099;-0.056099;0.056099;1.000000
445628.51570137;5696598.53739746;472.29694988;170;165;154;42405.000000;1.000000;1.000000;1.000000;1.000000;-0.048676;0.048676;-0.048676;1.000000
445628.59560211;5696598.93810089;472.34025003;187;180;168;46260.000000;1.000000;1.000000;1.000000;1.000000;0.031225;-0.031225;0.031225;1.000000
445628.56740196;5696598.80769928;472.33285000;169;159;149;41120.000000;1.000000;1.000000;1.000000;1.000000;0.022301;-0.022301;0.022301;1.000000
445628.66570099;5696598.95070084;472.31565001;125;116;106;30069.000000;1.000000;1.000000;1.000000;1.000000;0.033275;-0.033275;0.033275;1.000000
445628.60470207;5696598.65019806;472.32095005;141;137;129;35209.000000;1.000000;1.000000;1.000000;1.000000;0.040325;-0.040325;0.040325;1.000000
445628.70320137;5696598.95189865;472.31504967;131;123;109;31611.000000;1.000000;1.000000;1.000000;1.000000;-0.026149;0.026149;-0.026149;1.000000
445628.66920097;5696598.91519745;472.32004978;126;118;107;30583.000000;1.000000;1.000000;1.000000;1.000000;0.062156;-0.062156;0.062156;1.000000
445628.54910095;5696598.87209900;472.35374977;199;188;176;48573.000000;1.000000;1.000000;1.000000;1.000000;-0.015276;0.015276;-0.015276;1.000000
445628.62740143;5696598.79070099;472.31434967;151;143;133;37008.000000;1.000000;1.000000;1.000000;1.000000;0.039299;-0.039299;0.039299;1.000000
445628.70540245;5696598.92589767;472.31714966;201;193;179;49601.000000;1.000000;1.000000;1.000000;1.000000;-0.050747;0.050747;-0.050747;1.000000
445628.60330208;5696598.68770035;472.32604982;182;182;177;46517.000000;1.000000;1.000000;1.000000;1.000000;0.038957;-0.038957;0.038957;1.000000
445628.58280190;5696598.72439774;472.33715012;50;49;50;12593.000000;1.000000;1.000000;1.000000;1.000000;0.042274;-0.042274;0.042274;1.000000
445628.56890114;5696598.85409744;472.34504988;169;159;148;41120.000000;1.000000;1.000000;1.000000;1.000000;0.004524;-0.004524;0.004524;1.000000
445628.62860115;5696598.75549896;472.31864979;88;83;81;21588.000000;1.000000;1.000000;1.000000;1.000000;0.074501;-0.074501;0.074501;1.000000
445628.73290070;5696598.91649826;472.30894997;146;138;124;35466.000000;1.000000;1.000000;1.000000;1.000000;-0.072283;0.072283;-0.072283;1.000000
445628.57540138;5696598.69479950;472.33645012;228;229;225;58596.000000;1.000000;1.000000;1.000000;1.000000;0.013902;-0.013902;0.013902;1.000000
445629.10590179;5696598.91430099;472.33045008;50;65;29;14392.000000;1.000000;1.000000;1.000000;1.000000;-0.084301;0.084301;-0.084301;1.000000
445628.55200203;5696598.58289917;472.31075003;151;145;131;37265.000000;1.000000;1.000000;1.000000;1.000000;-0.012375;0.012375;-0.012375;1.000000
445628.52010162;5696598.71359833;472.35745003;89;84;82;21845.000000;1.000000;1.000000;1.000000;1.000000;-0.051777;0.051777;-0.051777;1.000000
445628.58740242;5696598.81759842;472.32455017;222;213;203;54998.000000;1.000000;1.000000;1.000000;1.000000;0.012402;-0.012402;0.012402;1.000000
445628.59480103;5696598.92880066;472.34014990;188;180;168;46517.000000;1.000000;1.000000;1.000000;1.000000;0.030424;-0.030424;0.030424;1.000000
445628.58480080;5696598.87359818;472.34364988;186;178;168;46003.000000;1.000000;1.000000;1.000000;1.000000;0.020424;-0.020424;0.020424;1.000000
445628.52380188;5696598.58079727;472.31185009;181;176;163;45232.000000;1.000000;1.000000;1.000000;1.000000;-0.040575;0.040575;-0.040575;1.000000
445628.69850166;5696598.87750061;472.31854965;136;128;114;32896.000000;1.000000;1.000000;1.000000;1.000000;-0.047501;0.047501;-0.047501;1.000000
445628.64350136;5696598.63519867;472.30854990;188;184;177;47288.000000;1.000000;1.000000;1.000000;1.000000;0.079124;-0.079124;0.079124;1.000000
445628.56830223;5696598.92869766;472.35755016;167;158;147;40863.000000;1.000000;1.000000;1.000000;1.000000;0.003925;-0.003925;0.003925;1.000000
445628.50700195;5696598.54519852;472.29894974;147;141;125;36237.000000;1.000000;1.000000;1.000000;1.000000;-0.057375;0.057375;-0.057375;1.000000
445628.62030228;5696598.74449738;472.32515003;56;53;52;13621.000000;1.000000;1.000000;1.000000;1.000000;0.080847;-0.080847;0.080847;1.000000
445628.67760094;5696598.69969757;472.30854990;220;220;216;56283.000000;1.000000;1.000000;1.000000;1.000000;0.114077;-0.114077;0.114077;1.000000
445628.58280190;5696598.95770081;472.35395004;180;174;164;44718.000000;1.000000;1.000000;1.000000;1.000000;0.018425;-0.018425;0.018425;1.000000
445628.72500237;5696598.90789993;472.31084969;143;135;122;34695.000000;1.000000;1.000000;1.000000;1.000000;-0.075239;0.075239;-0.075239;1.000000
445628.67910202;5696598.66459854;472.30585005;151;148;143;38036.000000;1.000000;1.000000;1.000000;1.000000;0.114725;-0.114725;0.114725;1.000000
445628.72270210;5696598.98279770;472.31164982;101;93;78;23901.000000;1.000000;1.000000;1.000000;1.000000;-0.033325;0.033325;-0.033325;1.000000
445628.55430229;5696598.98349960;472.36695005;141;135;122;34695.000000;1.000000;1.000000;1.000000;1.000000;-0.010075;0.010075;-0.010075;1.000000
445628.60770233;5696598.83669861;472.32795002;211;203;192;52428.000000;1.000000;1.000000;1.000000;1.000000;-0.006699;0.006699;-0.006699;1.000000
445628.54400070;5696598.78859909;472.34544994;198;187;174;48316.000000;1.000000;1.000000;1.000000;1.000000;0.046144;-0.046144;0.046144;1.000000
445628.56820114;5696598.87280090;472.34754993;207;197;185;50886.000000;1.000000;1.000000;1.000000;1.000000;0.003824;-0.003824;0.003824;1.000000
445628.69860085;5696598.85190018;472.31364967;180;174;163;44718.000000;1.000000;1.000000;1.000000;1.000000;-0.021900;0.021900;-0.021900;1.000000
445628.62690170;5696598.81180008;472.31694986;158;150;140;38807.000000;1.000000;1.000000;1.000000;1.000000;0.018200;-0.018200;0.018200;1.000000
445628.61280067;5696598.68919952;472.32415010;172;172;168;43947.000000;1.000000;1.000000;1.000000;1.000000;0.048524;-0.048524;0.048524;1.000000
445628.57690247;5696598.65740021;472.32914974;153;150;143;38550.000000;1.000000;1.000000;1.000000;1.000000;0.012526;-0.012526;0.012526;1.000000
445628.66370209;5696598.80150040;472.30915024;185;177;169;45746.000000;1.000000;1.000000;1.000000;1.000000;0.028500;-0.028500;0.028500;1.000000
445628.65060242;5696598.86789902;472.32334997;185;178;167;45746.000000;1.000000;1.000000;1.000000;1.000000;0.037899;-0.037899;0.037899;1.000000
445628.52980240;5696598.89929779;472.37174990;154;144;131;37265.000000;1.000000;1.000000;1.000000;1.000000;-0.034575;0.034575;-0.034575;1.000000
445628.68120201;5696598.83949860;472.31274988;191;183;172;47288.000000;1.000000;1.000000;1.000000;1.000000;0.009499;-0.009499;0.009499;1.000000
445628.75430115;5696598.84449966;472.30905010;152;145;136;37522.000000;1.000000;1.000000;1.000000;1.000000;-0.014500;0.014500;-0.014500;1.000000
445629.12040146;5696598.92439850;472.34054996;33;48;16;10023.000000;1.000000;1.000000;1.000000;1.000000;-0.094398;0.094398;-0.094398;1.000000
445628.57240112;5696598.57399948;472.30695011;129;122;106;31354.000000;1.000000;1.000000;1.000000;1.000000;0.008024;-0.008024;0.008024;1.000000
445628.54400070;5696599.00079926;472.37134983;138;133;122;34181.000000;1.000000;1.000000;1.000000;1.000000;-0.020376;0.020376;-0.020376;1.000000
445628.60380180;5696598.84639938;472.33255007;177;170;160;43947.000000;1.000000;1.000000;1.000000;1.000000;-0.016399;0.016399;-0.016399;1.000000
445628.64280136;5696598.62589844;472.30604984;182;178;171;45746.000000;1.000000;1.000000;1.000000;1.000000;0.078424;-0.078424;0.078424;1.000000
445628.51930244;5696598.72999771;472.35764982;118;109;105;28527.000000;1.000000;1.000000;1.000000;1.000000;-0.062459;0.062459;-0.062459;1.000000
445628.58040245;5696598.58499725;472.30744984;153;146;131;37522.000000;1.000000;1.000000;1.000000;1.000000;0.016026;-0.016026;0.016026;1.000000
445628.50480087;5696598.63599976;472.32795002;184;177;169;45746.000000;1.000000;1.000000;1.000000;1.000000;-0.059576;0.059576;-0.059576;1.000000
445628.63830193;5696598.98810013;472.32655003;170;166;156;42662.000000;1.000000;1.000000;1.000000;1.000000;0.051075;-0.051075;0.051075;1.000000
445628.61750229;5696598.63289841;472.31204988;164;160;150;41120.000000;1.000000;1.000000;1.000000;1.000000;0.053125;-0.053125;0.053125;1.000000
445628.53650101;5696598.75889786;472.34714987;174;163;154;42405.000000;1.000000;1.000000;1.000000;1.000000;0.076371;-0.076371;0.076371;1.000000
445628.68290146;5696598.80439957;472.30534985;189;183;175;47031.000000;1.000000;1.000000;1.000000;1.000000;-0.025600;0.025600;-0.025600;1.000000
445628.57480247;5696598.92109879;472.35314991;143;135;123;34952.000000;1.000000;1.000000;1.000000;1.000000;0.010426;-0.010426;0.010426;1.000000
445628.67460068;5696598.97089966;472.31624987;156;148;138;38293.000000;1.000000;1.000000;1.000000;1.000000;0.015113;-0.015113;0.015113;1.000000
445628.56020172;5696598.86189850;472.34705021;203;192;180;49601.000000;1.000000;1.000000;1.000000;1.000000;-0.004175;0.004175;-0.004175;1.000000
445628.55480202;5696598.91119965;472.36144974;144;136;123;34952.000000;1.000000;1.000000;1.000000;1.000000;-0.009575;0.009575;-0.009575;1.000000
445628.69510086;5696598.70989807;472.30485012;208;207;204;52942.000000;1.000000;1.000000;1.000000;1.000000;0.120102;-0.120102;0.120102;1.000000
445628.62620171;5696598.80249985;472.31444981;145;137;127;35466.000000;1.000000;1.000000;1.000000;1.000000;-0.027500;0.027500;-0.027500;1.000000
445628.60030182;5696598.73449905;472.33344986;50;49;50;12593.000000;1.000000;1.000000;1.000000;1.000000;0.060132;-0.060132;0.060132;1.000000
445628.67350204;5696598.83090027;472.30994989;186;178;168;46003.000000;1.000000;1.000000;1.000000;1.000000;-0.000900;0.000900;-0.000900;1.000000
445628.74620064;5696598.83349808;472.30854990;132;126;116;32382.000000;1.000000;1.000000;1.000000;1.000000;-0.004835;0.004835;-0.004835;1.000000
445628.52900131;5696598.88999756;472.37164976;160;150;137;38807.000000;1.000000;1.000000;1.000000;1.000000;-0.035376;0.035376;-0.035376;1.000000
445628.54440125;5696598.57430084;472.30804970;180;175;161;44718.000000;1.000000;1.000000;1.000000;1.000000;-0.019976;0.019976;-0.019976;1.000000
445628.55250175;5696598.96499832;472.36894991;133;126;116;32382.000000;1.000000;1.000000;1.000000;1.000000;-0.011875;0.011875;-0.011875;1.000000
445628.54470070;5696598.82349976;472.35055019;148;132;118;34695.000000;1.000000;1.000000;1.000000;1.000000;-0.020722;0.020722;-0.020722;1.000000
445628.55390175;5696598.95549973;472.36884977;152;145;135;37522.000000;1.000000;1.000000;1.000000;1.000000;-0.010475;0.010475;-0.010475;1.000000
445628.59310158;5696598.70719727;472.33274986;178;179;177;45746.000000;1.000000;1.000000;1.000000;1.000000;0.035546;-0.035546;0.035546;1.000000
445628.62710197;5696598.76269730;472.31635000;99;93;91;24158.000000;1.000000;1.000000;1.000000;1.000000;0.067303;-0.067303;0.067303;1.000000
445628.64970215;5696598.93110092;472.31934978;132;125;114;32125.000000;1.000000;1.000000;1.000000;1.000000;0.058436;-0.058436;0.058436;1.000000
445628.58580215;5696598.91089828;472.34655001;147;138;128;35723.000000;1.000000;1.000000;1.000000;1.000000;0.021425;-0.021425;0.021425;1.000000
445628.65460213;5696598.62489899;472.30195000;181;176;169;45232.000000;1.000000;1.000000;1.000000;1.000000;0.090225;-0.090225;0.090225;1.000000
445628.55590065;5696598.76190002;472.33874990;135;127;118;32896.000000;1.000000;1.000000;1.000000;1.000000;0.068625;-0.068625;0.068625;1.000000
445629.12550171;5696598.90519913;472.34285023;47;65;25;14135.000000;1.000000;1.000000;1.000000;1.000000;-0.075199;0.075199;-0.075199;1.000000
445628.52610214;5696598.54820068;472.29524996;201;195;176;49858.000000;1.000000;1.000000;1.000000;1.000000;-0.038275;0.038275;-0.038275;1.000000
445628.51900108;5696598.54649933;472.29484989;196;190;172;48573.000000;1.000000;1.000000;1.000000;1.000000;-0.045376;0.045376;-0.045376;1.000000
445628.51410110;5696598.54459961;472.29465010;179;171;157;43947.000000;1.000000;1.000000;1.000000;1.000000;-0.050276;0.050276;-0.050276;1.000000
445628.52610214;5696598.54820068;472.29524996;201;195;176;49858.000000;1.000000;1.000000;1.000000;1.000000;-0.038275;0.038275;-0.038275;1.000000
445628.50910194;5696598.54039963;472.29435017;188;182;160;46517.000000;1.000000;1.000000;1.000000;1.000000;-0.055275;0.055275;-0.055275;1.000000
445628.49940117;5696598.53660019;472.29384996;161;157;136;39835.000000;1.000000;1.000000;1.000000;1.000000;-0.064976;0.064976;-0.064976;1.000000
445628.49340065;5696598.49749954;472.29314997;169;170;152;42919.000000;1.000000;1.000000;1.000000;1.000000;-0.070976;0.070976;-0.070976;1.000000
445628.49430092;5696598.50679977;472.29334976;167;166;147;42148.000000;1.000000;1.000000;1.000000;1.000000;-0.070076;0.070076;-0.070076;1.000000
445628.49890144;5696598.53199966;472.29384996;170;165;145;42148.000000;1.000000;1.000000;1.000000;1.000000;-0.065475;0.065475;-0.065475;1.000000
445628.49230202;5696598.48589905;472.29295017;131;131;113;33153.000000;1.000000;1.000000;1.000000;1.000000;-0.072075;0.072075;-0.072075;1.000000
445628.49170120;5696598.47899826;472.29285004;105;104;87;26214.000000;1.000000;1.000000;1.000000;1.000000;-0.072676;0.072676;-0.072676;1.000000
445629.17920120;5696598.29949768;472.22625019;97;89;78;23130.000000;1.000000;1.000000;1.000000;1.000000;-0.030502;0.030502;-0.030502;1.000000
445629.51760109;5696598.22429855;472.18715002;136;125;114;32639.000000;1.000000;1.000000;1.000000;1.000000;0.105701;-0.105701;0.105701;1.000000
445629.21010216;5696597.81049927;472.24055006;204;206;200;52428.000000;1.000000;1.000000;1.000000;1.000000;-0.178046;0.178046;-0.178046;1.000000
445629.09610184;5696597.83989914;472.23574974;119;111;109;29041.000000;1.000000;1.000000;1.000000;1.000000;0.063748;-0.063748;0.063748;1.000000
445629.62820061;5696598.22820099;472.18055012;147;134;120;34952.000000;1.000000;1.000000;1.000000;1.000000;-0.120152;0.120152;-0.120152;1.000000
445629.21640213;5696598.31500061;472.21184971;77;63;49;16705.000000;1.000000;1.000000;1.000000;1.000000;-0.014999;0.014999;-0.014999;1.000000
445629.09120186;5696598.16799744;472.19514992;103;89;78;23387.000000;1.000000;1.000000;1.000000;1.000000;-0.058075;0.058075;-0.058075;1.000000
445629.12890060;5696598.17149933;472.19455006;86;69;54;18504.000000;1.000000;1.000000;1.000000;1.000000;-0.095774;0.095774;-0.095774;1.000000
445629.16640099;5696598.17270096;472.19624998;83;65;53;17733.000000;1.000000;1.000000;1.000000;1.000000;-0.133274;0.133274;-0.133274;1.000000
445629.14680107;5696597.76109894;472.19284966;122;110;97;28784.000000;1.000000;1.000000;1.000000;1.000000;-0.132925;0.132925;-0.132925;1.000000
445629.19870193;5696598.28359802;472.22935011;194;189;179;48573.000000;1.000000;1.000000;1.000000;1.000000;-0.046402;0.046402;-0.046402;1.000000
445629.23420151;5696598.28739746;472.22634985;210;203;191;52171.000000;1.000000;1.000000;1.000000;1.000000;-0.042603;0.042603;-0.042603;1.000000
445629.49640091;5696598.29870041;472.18934967;136;127;119;32896.000000;1.000000;1.000000;1.000000;1.000000;-0.031300;0.031300;-0.031300;1.000000
445629.53400238;5696598.29989822;472.18874981;165;157;148;40606.000000;1.000000;1.000000;1.000000;1.000000;0.030102;-0.030102;0.030102;1.000000
445629.22740181;5696598.26009949;472.21635010;160;152;142;39321.000000;1.000000;1.000000;1.000000;1.000000;-0.069940;0.069940;-0.069940;1.000000
445629.26160248;5696598.29680069;472.20904972;164;152;139;39578.000000;1.000000;1.000000;1.000000;1.000000;0.033199;-0.033199;0.033199;1.000000
445629.09680183;5696597.80679901;472.25635006;218;218;213;55769.000000;1.000000;1.000000;1.000000;1.000000;-0.067770;0.067770;-0.067770;1.000000
445629.19110115;5696597.80539902;472.23495008;168;169;162;42919.000000;1.000000;1.000000;1.000000;1.000000;-0.159878;0.159878;-0.159878;1.000000
445629.18060120;5696598.05209930;472.20244982;90;83;77;21588.000000;1.000000;1.000000;1.000000;1.000000;-0.147474;0.147474;-0.147474;1.000000
445629.12520226;5696598.24609955;472.22555019;183;175;165;45232.000000;1.000000;1.000000;1.000000;1.000000;-0.083900;0.083900;-0.083900;1.000000
445629.08730133;5696598.24259766;472.22844984;211;207;198;53199.000000;1.000000;1.000000;1.000000;1.000000;-0.054174;0.054174;-0.054174;1.000000
445629.21230133;5696597.98859985;472.19614985;158;160;164;40863.000000;1.000000;1.000000;1.000000;1.000000;-0.179174;0.179174;-0.179174;1.000000
445629.04360207;5696597.78159912;472.24195005;94;91;82;23130.000000;1.000000;1.000000;1.000000;1.000000;-0.049521;0.049521;-0.049521;1.000000
445629.14400108;5696597.79820068;472.22804977;212;211;204;53970.000000;1.000000;1.000000;1.000000;1.000000;-0.115344;0.115344;-0.115344;1.000000
445629.16670235;5696597.92059906;472.18394997;104;96;86;24929.000000;1.000000;1.000000;1.000000;1.000000;-0.144882;0.144882;-0.144882;1.000000
445629.18430145;5696597.76230057;472.19214966;182;177;169;45489.000000;1.000000;1.000000;1.000000;1.000000;-0.165641;0.165641;-0.165641;1.000000
445629.56900223;5696598.30119904;472.19264986;92;82;70;21331.000000;1.000000;1.000000;1.000000;1.000000;-0.029170;0.029170;-0.029170;1.000000
445629.38830193;5696598.21990021;472.19514992;116;107;96;27756.000000;1.000000;1.000000;1.000000;1.000000;0.110100;-0.110100;0.110100;1.000000
445629.28420074;5696598.23409851;472.19994976;68;61;50;15677.000000;1.000000;1.000000;1.000000;1.000000;0.095901;-0.095901;0.095901;1.000000
445629.10220154;5696598.11319931;472.19964983;46;38;30;10023.000000;1.000000;1.000000;1.000000;1.000000;-0.069075;0.069075;-0.069075;1.000000
445629.13970192;5696598.11429794;472.20134975;203;197;186;50629.000000;1.000000;1.000000;1.000000;1.000000;-0.106575;0.106575;-0.106575;1.000000
445629.13240250;5696597.84609802;472.22114994;76;71;67;18504.000000;1.000000;1.000000;1.000000;1.000000;0.100572;-0.100572;0.100572;1.000000
445629.09970100;5696597.76969727;472.21875002;123;112;104;29298.000000;1.000000;1.000000;1.000000;1.000000;-0.089825;0.089825;-0.089825;1.000000
445629.07670219;5696597.83460052;472.24174978;109;106;100;27242.000000;1.000000;1.000000;1.000000;1.000000;0.043817;-0.043817;0.043817;1.000000
445629.17740067;5696598.11789902;472.20074989;159;148;135;38293.000000;1.000000;1.000000;1.000000;1.000000;-0.144274;0.144274;-0.144274;1.000000
445629.10550125;5696598.07539948;472.20394995;102;91;82;23901.000000;1.000000;1.000000;1.000000;1.000000;-0.072374;0.072374;-0.072374;1.000000
445629.14110191;5696598.07919891;472.20095016;162;154;144;39835.000000;1.000000;1.000000;1.000000;1.000000;-0.107975;0.107975;-0.107975;1.000000
445629.16110237;5696598.28240021;472.22994997;190;189;179;48316.000000;1.000000;1.000000;1.000000;1.000000;-0.047693;0.047693;-0.047693;1.000000
445629.17630203;5696597.94999893;472.18934967;137;135;131;34695.000000;1.000000;1.000000;1.000000;1.000000;-0.145627;0.145627;-0.145627;1.000000
445629.21900185;5696597.80050095;472.22914984;135;136;125;34438.000000;1.000000;1.000000;1.000000;1.000000;-0.188201;0.188201;-0.188201;1.000000
445629.20960243;5696598.23859985;472.20365002;116;105;97;27499.000000;1.000000;1.000000;1.000000;1.000000;-0.091400;0.091400;-0.091400;1.000000
445629.18330200;5696598.00519760;472.19964983;84;84;86;21588.000000;1.000000;1.000000;1.000000;1.000000;-0.150175;0.150175;-0.150175;1.000000
445629.18850143;5696597.82889755;472.23745014;155;155;149;39578.000000;1.000000;1.000000;1.000000;1.000000;-0.155378;0.155378;-0.155378;1.000000
445629.11330231;5696598.29170044;472.22085001;127;124;110;31611.000000;1.000000;1.000000;1.000000;1.000000;-0.038300;0.038300;-0.038300;1.000000
445629.21940239;5696598.01589783;472.19915010;113;113;111;28784.000000;1.000000;1.000000;1.000000;1.000000;-0.186275;0.186275;-0.186275;1.000000
445629.15090187;5696598.29519852;472.22265007;90;87;75;22102.000000;1.000000;1.000000;1.000000;1.000000;-0.034801;0.034801;-0.034801;1.000000
445629.22820099;5696597.82760056;472.23684980;147;145;137;37008.000000;1.000000;1.000000;1.000000;1.000000;-0.195089;0.195089;-0.195089;1.000000
445629.09720238;5696597.84469803;472.22184994;152;147;139;37779.000000;1.000000;1.000000;1.000000;1.000000;0.065740;-0.065740;0.065740;1.000000
445629.13220222;5696598.33909805;472.21064999;85;86;64;21331.000000;1.000000;1.000000;1.000000;1.000000;0.009864;-0.009864;0.009864;1.000000
445629.10610207;5696598.24090012;472.22225000;171;164;152;42148.000000;1.000000;1.000000;1.000000;1.000000;-0.072975;0.072975;-0.072975;1.000000
445629.14290245;5696597.83790024;472.23084976;98;95;92;24415.000000;1.000000;1.000000;1.000000;1.000000;0.110059;-0.110059;0.110059;1.000000
445629.18180092;5696597.80169876;472.22744991;160;159;153;40606.000000;1.000000;1.000000;1.000000;1.000000;-0.151344;0.151344;-0.151344;1.000000
445629.14390190;5696598.24439819;472.22174980;154;144;135;37522.000000;1.000000;1.000000;1.000000;1.000000;-0.085602;0.085602;-0.085602;1.000000
445629.17960175;5696598.24819763;472.21635010;135;128;120;33153.000000;1.000000;1.000000;1.000000;1.000000;-0.081802;0.081802;-0.081802;1.000000
445629.27200134;5696598.32639893;472.19354965;155;140;127;36751.000000;1.000000;1.000000;1.000000;1.000000;0.003601;-0.003601;0.003601;1.000000
445629.09810074;5696598.22550018;472.21245005;165;155;143;40092.000000;1.000000;1.000000;1.000000;1.000000;-0.064974;0.064974;-0.064974;1.000000
445629.13570221;5696598.22669800;472.21184971;145;132;121;34438.000000;1.000000;1.000000;1.000000;1.000000;-0.102575;0.102575;-0.102575;1.000000
445629.21320160;5696598.15410049;472.20744993;89;80;71;20817.000000;1.000000;1.000000;1.000000;1.000000;-0.175900;0.175900;-0.175900;1.000000
445629.12370117;5696598.28119858;472.22825005;133;130;119;33153.000000;1.000000;1.000000;1.000000;1.000000;-0.048801;0.048801;-0.048801;1.000000
445629.18770226;5696598.33169754;472.20844986;108;98;82;25443.000000;1.000000;1.000000;1.000000;1.000000;0.001698;-0.001698;0.001698;1.000000
445629.05930145;5696597.84340103;472.22944977;110;103;98;26728.000000;1.000000;1.000000;1.000000;1.000000;0.029406;-0.029406;0.029406;1.000000
445629.32340248;5696598.20699890;472.20844986;221;218;210;56026.000000;1.000000;1.000000;1.000000;1.000000;0.123001;-0.123001;0.123001;1.000000
445629.65810211;5696598.22089966;472.17474987;180;167;155;43433.000000;1.000000;1.000000;1.000000;1.000000;-0.143831;0.143831;-0.143831;1.000000
445629.65930183;5696598.18339737;472.17444994;134;123;114;32125.000000;1.000000;1.000000;1.000000;1.000000;-0.174651;0.174651;-0.174651;1.000000
445629.09250076;5696597.90849884;472.19904997;123;116;110;30069.000000;1.000000;1.000000;1.000000;1.000000;-0.090203;0.090203;-0.090203;1.000000
445629.59410103;5696598.18929871;472.18085005;73;61;55;16191.000000;1.000000;1.000000;1.000000;1.000000;-0.143807;0.143807;-0.143807;1.000000
445629.11310204;5696598.33619888;472.21444990;127;128;104;32125.000000;1.000000;1.000000;1.000000;1.000000;0.006199;-0.006199;0.006199;1.000000
445629.33980186;5696598.25459869;472.20044996;69;64;58;16448.000000;1.000000;1.000000;1.000000;1.000000;0.075401;-0.075401;0.075401;1.000000
445629.12620171;5696598.02210052;472.20424988;31;25;23;6682.000000;1.000000;1.000000;1.000000;1.000000;-0.093075;0.093075;-0.093075;1.000000
445629.05220230;5696598.00789841;472.21005013;109;98;90;25700.000000;1.000000;1.000000;1.000000;1.000000;-0.019075;0.019075;-0.019075;1.000000
445629.05360229;5696597.97270020;472.20974972;76;70;68;18247.000000;1.000000;1.000000;1.000000;1.000000;-0.020773;0.020773;-0.020773;1.000000
445629.19640167;5696597.91309937;472.18524982;148;141;133;36494.000000;1.000000;1.000000;1.000000;1.000000;-0.175218;0.175218;-0.175218;1.000000
445629.11510094;5696597.85709961;472.21344997;114;106;100;27499.000000;1.000000;1.000000;1.000000;1.000000;0.086337;-0.086337;0.086337;1.000000
445629.11250122;5696598.32929810;472.21194984;127;126;105;31611.000000;1.000000;1.000000;1.000000;1.000000;-0.000702;0.000702;-0.000702;1.000000
445629.13370140;5696597.85539825;472.21194984;84;76;70;19789.000000;1.000000;1.000000;1.000000;1.000000;0.103732;-0.103732;0.103732;1.000000
445629.18840225;5696598.29630096;472.22434999;77;72;61;18504.000000;1.000000;1.000000;1.000000;1.000000;-0.033699;0.033699;-0.033699;1.000000
445629.30460175;5696598.20639999;472.20755007;97;92;84;23644.000000;1.000000;1.000000;1.000000;1.000000;0.123600;-0.123600;0.123600;1.000000
445629.33990105;5696598.20779999;472.20685007;132;127;119;32639.000000;1.000000;1.000000;1.000000;1.000000;0.122200;-0.122200;0.122200;1.000000
445629.63930138;5696598.22019775;472.17625000;191;178;165;46260.000000;1.000000;1.000000;1.000000;1.000000;-0.132929;0.132929;-0.132929;1.000000
445629.64050110;5696598.18279846;472.17584993;122;112;104;29298.000000;1.000000;1.000000;1.000000;1.000000;-0.165720;0.165720;-0.165720;1.000000
445629.08180244;5696597.94459732;472.19904997;55;48;48;12850.000000;1.000000;1.000000;1.000000;1.000000;-0.058151;0.058151;-0.058151;1.000000
445629.08310135;5696597.90939911;472.20104982;86;78;74;20303.000000;1.000000;1.000000;1.000000;1.000000;-0.083558;0.083558;-0.083558;1.000000
445629.29280098;5696598.25200089;472.20055010;147;142;128;36237.000000;1.000000;1.000000;1.000000;1.000000;0.077999;-0.077999;0.077999;1.000000
445629.33030136;5696598.25319870;472.20225002;87;85;78;21588.000000;1.000000;1.000000;1.000000;1.000000;0.076801;-0.076801;0.076801;1.000000
445629.36690147;5696598.21710022;472.19654991;123;115;104;29812.000000;1.000000;1.000000;1.000000;1.000000;0.112900;-0.112900;0.112900;1.000000
445629.11340149;5696598.05839737;472.20184996;134;124;115;32382.000000;1.000000;1.000000;1.000000;1.000000;-0.080275;0.080275;-0.080275;1.000000
445629.15590103;5696597.98670013;472.19824984;64;60;60;15677.000000;1.000000;1.000000;1.000000;1.000000;-0.122774;0.122774;-0.122774;1.000000
445629.37630089;5696598.26309784;472.18814995;104;96;90;24929.000000;1.000000;1.000000;1.000000;1.000000;0.066902;-0.066902;0.066902;1.000000
445629.19300087;5696598.18189819;472.19525005;133;120;109;31354.000000;1.000000;1.000000;1.000000;1.000000;-0.148146;0.148146;-0.148146;1.000000
445629.31730087;5696598.30829819;472.18835022;104;93;81;24158.000000;1.000000;1.000000;1.000000;1.000000;0.021702;-0.021702;0.021702;1.000000
445629.17270096;5696598.19079788;472.19675018;166;154;142;40092.000000;1.000000;1.000000;1.000000;1.000000;-0.139202;0.139202;-0.139202;1.000000
445629.21040161;5696598.19199951;472.19385006;174;167;158;43176.000000;1.000000;1.000000;1.000000;1.000000;-0.138000;0.138000;-0.138000;1.000000
445629.13870247;5696598.15189941;472.19705011;112;97;83;25443.000000;1.000000;1.000000;1.000000;1.000000;-0.105576;0.105576;-0.105576;1.000000
445629.43470200;5696598.16419800;472.18965008;170;160;147;41377.000000;1.000000;1.000000;1.000000;1.000000;-0.166108;0.166108;-0.166108;1.000000
445629.18470200;5696597.96779831;472.19465019;91;90;91;23130.000000;1.000000;1.000000;1.000000;1.000000;-0.151825;0.151825;-0.151825;1.000000
445629.08400162;5696598.14060028;472.19444992;191;183;175;47288.000000;1.000000;1.000000;1.000000;1.000000;-0.050875;0.050875;-0.050875;1.000000
445629.18100174;5696598.03339966;472.20454981;108;105;101;26985.000000;1.000000;1.000000;1.000000;1.000000;-0.147875;0.147875;-0.147875;1.000000
445629.05750092;5696597.88830002;472.20655014;82;73;65;19018.000000;1.000000;1.000000;1.000000;1.000000;0.063190;-0.063190;0.063190;1.000000
445629.18640144;5696598.34119995;472.20615007;107;104;85;26214.000000;1.000000;1.000000;1.000000;1.000000;0.011200;-0.011200;0.011200;1.000000
445629.12990196;5696597.95649918;472.19434978;90;84;79;21845.000000;1.000000;1.000000;1.000000;1.000000;-0.098822;0.098822;-0.098822;1.000000
445629.19740112;5696598.29540070;472.22935011;138;132;121;33924.000000;1.000000;1.000000;1.000000;1.000000;-0.034616;0.034616;-0.034616;1.000000
445629.07230194;5696597.94539841;472.20324995;46;41;41;10794.000000;1.000000;1.000000;1.000000;1.000000;-0.049914;0.049914;-0.049914;1.000000
445629.07690247;5696598.29759796;472.21005013;97;91;78;23387.000000;1.000000;1.000000;1.000000;1.000000;-0.032402;0.032402;-0.032402;1.000000
445629.12730225;5696598.17869766;472.19455006;100;83;68;22102.000000;1.000000;1.000000;1.000000;1.000000;-0.094175;0.094175;-0.094175;1.000000
445629.04700096;5696597.92429932;472.20424988;28;23;22;6168.000000;1.000000;1.000000;1.000000;1.000000;-0.053824;0.053824;-0.053824;1.000000
445629.62380226;5696598.15399750;472.17474987;159;150;142;38807.000000;1.000000;1.000000;1.000000;1.000000;-0.185764;0.185764;-0.185764;1.000000
445629.07980164;5696598.02860077;472.21154978;168;159;151;41120.000000;1.000000;1.000000;1.000000;1.000000;-0.046675;0.046675;-0.046675;1.000000
445629.29220207;5696598.27070053;472.20074989;108;100;88;25957.000000;1.000000;1.000000;1.000000;1.000000;0.059299;-0.059299;0.059299;1.000000
445629.32860191;5696598.28149994;472.19325020;46;37;32;10023.000000;1.000000;1.000000;1.000000;1.000000;0.048500;-0.048500;0.048500;1.000000
445629.44260223;5696598.24759872;472.18864967;105;98;92;25443.000000;1.000000;1.000000;1.000000;1.000000;-0.082430;0.082430;-0.082430;1.000000
445629.44380196;5696598.21240051;472.19294979;178;169;157;43690.000000;1.000000;1.000000;1.000000;1.000000;-0.117603;0.117603;-0.117603;1.000000
445629.13460167;5696597.82919891;472.24195005;145;146;141;37265.000000;1.000000;1.000000;1.000000;1.000000;-0.101478;0.101478;-0.101478;1.000000
445629.08190163;5696598.19679840;472.20204975;173;164;153;42405.000000;1.000000;1.000000;1.000000;1.000000;-0.048775;0.048775;-0.048775;1.000000
