//X;Y;Z;R;G;B;Intensity;Return Number;Number Of Returns;Scan Direction Flag;Point Source ID;C2M signed distances[-][<0.8];C2M signed distances[<0.4];C2M signed distances[-][<0.2];Stump68
445650.34330185;5696587.45979889;470.49624993;138;136;122;34695.000000;1.000000;1.000000;1.000000;1.000000;0.082274;-0.082274;0.082274;1.000000
445650.75840195;5696587.99599846;470.49114992;148;139;124;35980.000000;1.000000;1.000000;1.000000;1.000000;-0.166127;0.166127;-0.166127;1.000000
445650.53550156;5696587.96969994;470.50635006;151;153;133;38550.000000;1.000000;1.000000;1.000000;1.000000;0.033627;-0.033627;0.033627;1.000000
445650.64180191;5696587.70299919;470.49864985;156;154;146;39321.000000;1.000000;1.000000;1.000000;1.000000;0.110073;-0.110073;0.110073;1.000000
445650.68550308;5696587.99559982;470.49944999;151;133;104;34695.000000;1.000000;1.000000;1.000000;1.000000;-0.165645;0.165645;-0.165645;1.000000
445650.42590149;5696587.94489868;470.50114991;123;126;93;31097.000000;1.000000;1.000000;1.000000;1.000000;-0.075974;0.075974;-0.075974;1.000000
445650.73650177;5696587.42829903;470.47405006;116;113;108;29041.000000;1.000000;1.000000;1.000000;1.000000;0.084022;-0.084022;0.084022;1.000000
445650.57520111;5696587.91479881;470.49584987;159;158;147;40349.000000;1.000000;1.000000;1.000000;1.000000;0.073326;-0.073326;0.073326;1.000000
445650.85460098;5696587.94520004;470.48085000;125;120;114;30840.000000;1.000000;1.000000;1.000000;1.000000;0.154349;0.154349;-0.154349;1.000000
445650.32500275;5696587.69030006;470.49814989;141;138;134;35466.000000;1.000000;1.000000;1.000000;1.000000;0.083122;-0.083122;0.083122;1.000000
445650.68710144;5696587.52859886;470.48004987;170;168;161;42919.000000;1.000000;1.000000;1.000000;1.000000;0.064774;-0.064774;0.064774;1.000000
445650.72260101;5696587.98759850;470.48945000;149;137;117;35466.000000;1.000000;1.000000;1.000000;1.000000;-0.157598;0.157598;-0.157598;1.000000
445650.70580109;5696587.95879944;470.49064996;115;109;92;27756.000000;1.000000;1.000000;1.000000;1.000000;-0.128799;0.128799;-0.128799;1.000000
445650.72240265;5696587.95959862;470.48904993;135;132;119;33667.000000;1.000000;1.000000;1.000000;1.000000;-0.129599;0.129599;-0.129599;1.000000
445650.79360016;5696587.63569839;470.46744992;177;178;173;45489.000000;1.000000;1.000000;1.000000;1.000000;-0.041725;0.041725;-0.041725;1.000000
445650.46080215;5696587.54679878;470.50954988;42;54;32;12079.000000;1.000000;1.000000;1.000000;1.000000;-0.041073;0.041073;-0.041073;1.000000
445650.61520203;5696587.84329994;470.49915006;101;101;92;25700.000000;1.000000;1.000000;1.000000;1.000000;-0.013300;0.013300;-0.013300;1.000000
445650.66060074;5696587.93919952;470.52094986;136;136;82;33410.000000;1.000000;1.000000;1.000000;1.000000;-0.109200;0.109200;-0.109200;1.000000
445650.54480179;5696587.96879967;470.50674989;165;165;147;41891.000000;1.000000;1.000000;1.000000;1.000000;0.042927;-0.042927;0.042927;1.000000
445650.32629974;5696587.65289886;470.49545004;154;153;147;39064.000000;1.000000;1.000000;1.000000;1.000000;0.081825;-0.081825;0.081825;1.000000
445650.36000259;5696587.93489845;470.48864986;170;168;159;42919.000000;1.000000;1.000000;1.000000;1.000000;-0.104898;0.104898;-0.104898;1.000000
445650.69800003;5696587.87319954;470.48694994;176;174;165;44461.000000;1.000000;1.000000;1.000000;1.000000;-0.043200;0.043200;-0.043200;1.000000
445650.40369995;5696587.82569893;470.48704984;136;134;128;34181.000000;1.000000;1.000000;1.000000;1.000000;0.004425;-0.004425;0.004425;1.000000
445650.70160110;5696587.83779915;470.48895003;141;139;130;35466.000000;1.000000;1.000000;1.000000;1.000000;-0.007799;0.007799;-0.007799;1.000000
445650.51840027;5696587.75429924;470.49134995;163;161;153;41120.000000;1.000000;1.000000;1.000000;1.000000;0.075701;-0.075701;0.075701;1.000000
445650.48439987;5696587.64059837;470.49084999;92;90;80;22873.000000;1.000000;1.000000;1.000000;1.000000;-0.017475;0.017475;-0.017475;1.000000
445650.52550323;5696587.60419853;470.48755004;128;129;118;32639.000000;1.000000;1.000000;1.000000;1.000000;0.023628;-0.023628;0.023628;1.000000
445650.79860123;5696587.92459877;470.48744990;163;158;152;40606.000000;1.000000;1.000000;1.000000;1.000000;-0.105510;0.105510;-0.105510;1.000000
445650.38599976;5696587.78759964;470.48814990;156;156;151;39835.000000;1.000000;1.000000;1.000000;1.000000;0.022125;-0.022125;0.022125;1.000000
445650.38690002;5696587.74779900;470.49004986;87;88;84;22359.000000;1.000000;1.000000;1.000000;1.000000;0.021225;-0.021225;0.021225;1.000000
445650.49960144;5696587.75369843;470.49055006;142;139;131;35723.000000;1.000000;1.000000;1.000000;1.000000;-0.076302;0.076302;-0.076302;1.000000
445650.88330276;5696587.90049942;470.47934987;160;154;150;39835.000000;1.000000;1.000000;1.000000;1.000000;0.149142;0.149142;-0.149142;1.000000
445650.71940048;5696587.80109985;470.48475005;134;133;127;33924.000000;1.000000;1.000000;1.000000;1.000000;0.028926;-0.028926;0.028926;1.000000
445650.41370209;5696587.56299980;470.49834992;54;54;42;13364.000000;1.000000;1.000000;1.000000;1.000000;-0.005577;0.005577;-0.005577;1.000000
445650.37120255;5696587.90569885;470.49114992;189;188;180;48059.000000;1.000000;1.000000;1.000000;1.000000;-0.076144;0.076144;-0.076144;1.000000
445650.70610245;5696587.88410004;470.48504998;183;182;172;46517.000000;1.000000;1.000000;1.000000;1.000000;-0.054100;0.054100;-0.054100;1.000000
445650.41250046;5696587.79679878;470.48945000;131;133;125;33667.000000;1.000000;1.000000;1.000000;1.000000;-0.004375;0.004375;-0.004375;1.000000
445650.70950134;5696587.84639938;470.48714997;152;150;142;38293.000000;1.000000;1.000000;1.000000;1.000000;-0.016400;0.016400;-0.016400;1.000000
445650.52620132;5696587.76289948;470.49184992;159;156;147;39835.000000;1.000000;1.000000;1.000000;1.000000;-0.067101;0.067101;-0.067101;1.000000
445650.48880203;5696587.56539925;470.49714996;120;127;112;31611.000000;1.000000;1.000000;1.000000;1.000000;-0.013073;0.013073;-0.013073;1.000000
445650.34950073;5696587.99889954;470.49134995;164;161;152;41120.000000;1.000000;1.000000;1.000000;1.000000;-0.152374;0.152374;-0.152374;1.000000
445650.38940247;5696587.92509850;470.48994996;115;115;101;29041.000000;1.000000;1.000000;1.000000;1.000000;-0.096924;0.096924;-0.096924;1.000000
445650.79680069;5696587.98069962;470.49035003;164;160;149;40863.000000;1.000000;1.000000;1.000000;1.000000;-0.157254;0.157254;-0.157254;1.000000
445650.32160004;5696587.77489861;470.48974993;146;143;138;36751.000000;1.000000;1.000000;1.000000;1.000000;0.055101;-0.055101;0.055101;1.000000
445650.46020325;5696587.58439835;470.49604990;99;103;92;25700.000000;1.000000;1.000000;1.000000;1.000000;-0.041672;0.041672;-0.041672;1.000000
445650.61030014;5696587.58919914;470.49584987;183;185;178;47031.000000;1.000000;1.000000;1.000000;1.000000;0.108425;-0.108425;0.108425;1.000000
445650.39540298;5696587.78679855;470.48615005;144;144;140;36751.000000;1.000000;1.000000;1.000000;1.000000;0.012722;-0.012722;0.012722;1.000000
445650.50679977;5696587.78099831;470.49114992;152;150;144;38293.000000;1.000000;1.000000;1.000000;1.000000;0.049002;-0.049002;0.049002;1.000000
445650.72370346;5696587.74479874;470.47954990;200;200;193;51143.000000;1.000000;1.000000;1.000000;1.000000;0.028172;-0.028172;0.028172;1.000000
445650.80400284;5696587.83289917;470.48895003;161;159;155;40863.000000;1.000000;1.000000;1.000000;1.000000;-0.052208;0.052208;-0.052208;1.000000
445650.72720154;5696587.63229950;470.48074986;151;150;143;38293.000000;1.000000;1.000000;1.000000;1.000000;0.024673;-0.024673;0.024673;1.000000
445650.73070343;5696587.59459885;470.48044993;142;141;133;35980.000000;1.000000;1.000000;1.000000;1.000000;0.021172;-0.021172;0.021172;1.000000
445650.83930023;5696587.83429916;470.48814990;150;147;143;37779.000000;1.000000;1.000000;1.000000;1.000000;0.087531;0.087531;-0.087531;1.000000
445650.43589981;5696587.50919922;470.51734998;73;98;44;21588.000000;1.000000;1.000000;1.000000;1.000000;-0.027788;0.027788;-0.027788;1.000000
445650.53770264;5696587.51409920;470.49874999;114;117;100;29298.000000;1.000000;1.000000;1.000000;1.000000;0.035828;-0.035828;0.035828;1.000000
445650.47110184;5696587.51059921;470.51664998;124;144;97;33924.000000;1.000000;1.000000;1.000000;1.000000;-0.030773;0.030773;-0.030773;1.000000
445650.86730011;5696587.61969955;470.45895006;135;133;134;34181.000000;1.000000;1.000000;1.000000;1.000000;-0.115425;0.115425;-0.115425;1.000000
445650.67180069;5696587.84509857;470.49234988;176;176;167;44975.000000;1.000000;1.000000;1.000000;1.000000;-0.015099;0.015099;-0.015099;1.000000
445650.69250305;5696587.78959854;470.48805000;138;138;131;35209.000000;1.000000;1.000000;1.000000;1.000000;0.040401;-0.040401;0.040401;1.000000
445650.69690140;5696587.48329933;470.47994997;137;134;127;34438.000000;1.000000;1.000000;1.000000;1.000000;0.061467;-0.061467;0.061467;1.000000
445650.69820221;5696587.44579895;470.47714998;155;152;147;39064.000000;1.000000;1.000000;1.000000;1.000000;0.084330;-0.084330;0.084330;1.000000
445650.65160187;5696587.87969978;470.49184992;93;92;79;23130.000000;1.000000;1.000000;1.000000;1.000000;-0.049927;0.049927;-0.049927;1.000000
445650.77449997;5696587.41079910;470.47554996;50;47;43;12079.000000;1.000000;1.000000;1.000000;1.000000;0.083907;-0.083907;0.083907;1.000000
445650.65100296;5696587.89849861;470.49204995;67;67;57;16705.000000;1.000000;1.000000;1.000000;1.000000;-0.068625;0.068625;-0.068625;1.000000
445650.42690094;5696587.67629822;470.49094989;216;212;205;54484.000000;1.000000;1.000000;1.000000;1.000000;-0.018776;0.018776;-0.018776;1.000000
445650.69070251;5696587.84579857;470.48864986;139;138;129;35209.000000;1.000000;1.000000;1.000000;1.000000;-0.015799;0.015799;-0.015799;1.000000
445650.80320175;5696587.84939964;470.48904993;176;176;172;44975.000000;1.000000;1.000000;1.000000;1.000000;-0.054871;0.054871;-0.054871;1.000000
445650.83870132;5696587.85309990;470.48834993;219;217;215;55769.000000;1.000000;1.000000;1.000000;1.000000;0.089847;0.089847;-0.089847;1.000000
445650.69920166;5696587.66049965;470.48674991;155;153;145;39064.000000;1.000000;1.000000;1.000000;1.000000;0.052673;-0.052673;0.052673;1.000000
445650.50320251;5696587.64129837;470.48934986;118;115;106;29298.000000;1.000000;1.000000;1.000000;1.000000;0.001328;-0.001328;0.001328;1.000000
445650.58960159;5696587.61679848;470.49294998;146;147;138;37265.000000;1.000000;1.000000;1.000000;1.000000;0.087727;-0.087727;0.087727;1.000000
445650.70030029;5696587.62299927;470.48875000;170;168;161;42919.000000;1.000000;1.000000;1.000000;1.000000;0.051575;-0.051575;0.051575;1.000000
445650.44300278;5696587.95489891;470.50434997;87;91;50;21845.000000;1.000000;1.000000;1.000000;1.000000;-0.058872;0.058872;-0.058872;1.000000
445650.55590256;5696587.96309860;470.50714995;164;163;148;41377.000000;1.000000;1.000000;1.000000;1.000000;0.054028;-0.054028;0.054028;1.000000
445650.56520279;5696587.73799904;470.50724985;159;159;152;40606.000000;1.000000;1.000000;1.000000;1.000000;0.092001;-0.092001;0.092001;1.000000
445650.83460052;5696587.98199852;470.48274996;164;160;149;40863.000000;1.000000;1.000000;1.000000;1.000000;0.173052;0.173052;-0.173052;1.000000
445650.87000092;5696587.98349960;470.47974994;165;162;155;41634.000000;1.000000;1.000000;1.000000;1.000000;0.193690;0.193690;-0.193690;1.000000
445650.87360199;5696587.94809921;470.48175003;85;79;74;20560.000000;1.000000;1.000000;1.000000;1.000000;0.169602;0.169602;-0.169602;1.000000
445650.87710007;5696587.83559998;470.48064997;167;162;158;41891.000000;1.000000;1.000000;1.000000;1.000000;0.125350;0.125350;-0.125350;1.000000
445650.80310257;5696587.79349907;470.47904994;192;189;184;48573.000000;1.000000;1.000000;1.000000;1.000000;-0.051228;0.051228;-0.051228;1.000000
445650.80690201;5696587.75809868;470.47654988;159;156;151;40092.000000;1.000000;1.000000;1.000000;1.000000;-0.055027;0.055027;-0.055027;1.000000
445650.73420151;5696587.68079956;470.47694995;155;155;148;39578.000000;1.000000;1.000000;1.000000;1.000000;0.017673;-0.017673;0.017673;1.000000
445650.73880203;5696587.60559853;470.47864987;129;127;120;32382.000000;1.000000;1.000000;1.000000;1.000000;0.013073;-0.013073;0.013073;1.000000
445650.73999985;5696587.56810005;470.47825005;113;113;106;28784.000000;1.000000;1.000000;1.000000;1.000000;0.011875;-0.011875;0.011875;1.000000
445650.78490265;5696587.42149933;470.47615005;31;30;29;7710.000000;1.000000;1.000000;1.000000;1.000000;-0.095268;0.095268;-0.095268;1.000000
445650.46750076;5696587.43659981;470.49464991;156;158;137;39835.000000;1.000000;1.000000;1.000000;1.000000;-0.034374;0.034374;-0.034374;1.000000
445650.50819977;5696587.74589928;470.49084999;136;132;124;33924.000000;1.000000;1.000000;1.000000;1.000000;0.084101;-0.084101;0.084101;1.000000
445650.54210098;5696587.60729988;470.49064996;142;142;132;35980.000000;1.000000;1.000000;1.000000;1.000000;0.040226;-0.040226;0.040226;1.000000
445650.65590103;5696587.57339867;470.48844983;133;130;123;33410.000000;1.000000;1.000000;1.000000;1.000000;0.095974;-0.095974;0.095974;1.000000
445650.61940201;5696587.53469856;470.49094989;172;172;163;43947.000000;1.000000;1.000000;1.000000;1.000000;0.117527;-0.117527;0.117527;1.000000
445650.61350067;5696587.46989830;470.48764994;146;146;137;37265.000000;1.000000;1.000000;1.000000;1.000000;0.111626;-0.111626;0.111626;1.000000
445650.62090118;5696587.49949844;470.48834993;178;178;169;45489.000000;1.000000;1.000000;1.000000;1.000000;0.119026;-0.119026;0.119026;1.000000
445650.58520325;5696587.46779831;470.48864986;165;164;152;41634.000000;1.000000;1.000000;1.000000;1.000000;0.083328;-0.083328;0.083328;1.000000
445650.69840057;5696587.67689903;470.48694994;149;147;140;37522.000000;1.000000;1.000000;1.000000;1.000000;0.053474;-0.053474;0.053474;1.000000
445650.55280121;5696587.59689911;470.49105002;138;140;130;35466.000000;1.000000;1.000000;1.000000;1.000000;0.050926;-0.050926;0.050926;1.000000
445650.57570084;5696587.46629913;470.49055006;142;141;128;35723.000000;1.000000;1.000000;1.000000;1.000000;0.073826;-0.073826;0.073826;1.000000
445650.76200302;5696587.52409943;470.46934988;154;151;146;38807.000000;1.000000;1.000000;1.000000;1.000000;-0.010128;0.010128;-0.010128;1.000000
445650.48130234;5696587.54019936;470.50814988;61;74;47;17219.000000;1.000000;1.000000;1.000000;1.000000;-0.020573;0.020573;-0.020573;1.000000
445650.66870316;5696587.93879898;470.49574997;114;110;101;28270.000000;1.000000;1.000000;1.000000;1.000000;-0.108799;0.108799;-0.108799;1.000000
445650.32740219;5696587.61539848;470.49735000;94;92;86;23387.000000;1.000000;1.000000;1.000000;1.000000;0.080723;-0.080723;0.080723;1.000000
445650.83400162;5696587.56429871;470.45914986;133;137;132;34695.000000;1.000000;1.000000;1.000000;1.000000;-0.082127;0.082127;-0.082127;1.000000
445650.45120056;5696587.78849991;470.49574997;142;144;136;36494.000000;1.000000;1.000000;1.000000;1.000000;0.041500;-0.041500;0.041500;1.000000
445650.77990158;5696587.92399986;470.48654987;150;147;140;37779.000000;1.000000;1.000000;1.000000;1.000000;-0.098089;0.098089;-0.098089;1.000000
445650.51370056;5696587.85739906;470.49704983;148;147;139;37522.000000;1.000000;1.000000;1.000000;1.000000;0.011826;-0.011826;0.011826;1.000000
445650.55130203;5696587.85859879;470.49644997;139;137;130;34952.000000;1.000000;1.000000;1.000000;1.000000;-0.028599;0.028599;-0.028599;1.000000
445650.58650024;5696587.85999878;470.49574997;115;114;109;29041.000000;1.000000;1.000000;1.000000;1.000000;-0.030076;0.030076;-0.030076;1.000000
445650.46020325;5696587.80869873;470.49405005;220;221;212;56283.000000;1.000000;1.000000;1.000000;1.000000;-0.021301;0.021301;-0.021301;1.000000
445650.59060104;5696587.98099907;470.49965002;120;119;98;29812.000000;1.000000;1.000000;1.000000;1.000000;0.088726;-0.088726;0.088726;1.000000
445650.62630280;5696587.86099823;470.49755003;78;78;71;19789.000000;1.000000;1.000000;1.000000;1.000000;-0.031004;0.031004;-0.031004;1.000000
445650.77210052;5696587.48569878;470.47634985;165;164;160;41891.000000;1.000000;1.000000;1.000000;1.000000;-0.032289;0.032289;-0.032289;1.000000
445650.78630264;5696587.60829933;470.46914985;138;140;134;35466.000000;1.000000;1.000000;1.000000;1.000000;-0.034428;0.034428;-0.034428;1.000000
445650.41730316;5696587.48079880;470.50685002;158;171;126;41634.000000;1.000000;1.000000;1.000000;1.000000;-0.030855;0.030855;-0.030855;1.000000
445650.35190018;5696587.50560005;470.50414993;136;130;113;33153.000000;1.000000;1.000000;1.000000;1.000000;0.056422;-0.056422;0.056422;1.000000
445650.52190216;5696587.64180000;470.49014999;93;91;81;23130.000000;1.000000;1.000000;1.000000;1.000000;0.020027;-0.020027;0.020027;1.000000
445650.50610168;5696587.79979904;470.49364998;153;152;142;38807.000000;1.000000;1.000000;1.000000;1.000000;0.030201;-0.030201;0.030201;1.000000
445650.32290085;5696587.71849831;470.50074985;164;163;157;41634.000000;1.000000;1.000000;1.000000;1.000000;0.085224;-0.085224;0.085224;1.000000
445650.63940247;5696587.49779900;470.48914983;198;197;190;50372.000000;1.000000;1.000000;1.000000;1.000000;0.113200;-0.113200;0.113200;1.000000
445650.57960327;5696587.63639839;470.49735000;164;164;157;41891.000000;1.000000;1.000000;1.000000;1.000000;0.077728;-0.077728;0.077728;1.000000
445650.62700089;5696587.61799820;470.49694993;194;194;188;49601.000000;1.000000;1.000000;1.000000;1.000000;0.124874;-0.124874;0.124874;1.000000
445650.62850006;5696587.58279999;470.49434998;182;182;175;46517.000000;1.000000;1.000000;1.000000;1.000000;0.123375;-0.123375;0.123375;1.000000
445650.85190018;5696587.55569847;470.45984985;185;189;185;48059.000000;1.000000;1.000000;1.000000;1.000000;-0.100025;0.100025;-0.100025;1.000000
445650.35720261;5696587.80429848;470.48704984;165;163;158;41891.000000;1.000000;1.000000;1.000000;1.000000;0.025702;-0.025702;0.025702;1.000000
445650.39470108;5696587.80549820;470.48875000;156;155;150;39578.000000;1.000000;1.000000;1.000000;1.000000;0.013424;-0.013424;0.013424;1.000000
445650.35830124;5696587.76680000;470.48895003;161;160;156;40863.000000;1.000000;1.000000;1.000000;1.000000;0.049824;-0.049824;0.049824;1.000000
445650.65740021;5696587.74139984;470.49284985;89;87;81;22102.000000;1.000000;1.000000;1.000000;1.000000;0.088603;-0.088603;0.088603;1.000000
445650.40050323;5696587.69279869;470.48994996;147;145;138;37008.000000;1.000000;1.000000;1.000000;1.000000;0.007622;-0.007622;0.007622;1.000000
445650.51680191;5696587.58629997;470.48924996;128;129;119;32639.000000;1.000000;1.000000;1.000000;1.000000;0.014927;-0.014927;0.014927;1.000000
445650.48620041;5696587.43489845;470.49074986;156;156;139;39578.000000;1.000000;1.000000;1.000000;1.000000;-0.015675;0.015675;-0.015675;1.000000
445650.81410034;5696587.55209930;470.46044995;140;141;137;35980.000000;1.000000;1.000000;1.000000;1.000000;-0.062225;0.062225;-0.062225;1.000000
445650.37360199;5696587.45929916;470.49764993;165;163;143;41377.000000;1.000000;1.000000;1.000000;1.000000;0.061700;-0.061700;0.061700;1.000000
445650.85760315;5696587.44299896;470.46334984;134;134;129;34181.000000;1.000000;1.000000;1.000000;1.000000;-0.125773;0.125773;-0.125773;1.000000
445650.67950256;5696587.44520004;470.47634985;162;159;153;40863.000000;1.000000;1.000000;1.000000;1.000000;0.097719;-0.097719;0.097719;1.000000
445650.60630234;5696587.44030006;470.48224999;180;179;170;45746.000000;1.000000;1.000000;1.000000;1.000000;0.104427;-0.104427;0.104427;1.000000
445650.51490219;5696587.81989868;470.49665000;174;173;164;44204.000000;1.000000;1.000000;1.000000;1.000000;0.010101;-0.010101;0.010101;1.000000
445650.70900162;5696587.64089973;470.48694994;168;166;161;42662.000000;1.000000;1.000000;1.000000;1.000000;0.042873;-0.042873;0.042873;1.000000
445650.89490326;5696587.64040001;470.46044995;101;97;98;25186.000000;1.000000;1.000000;1.000000;1.000000;-0.143028;0.143028;-0.143028;1.000000
445650.87400253;5696587.69369896;470.46245005;159;156;152;40092.000000;1.000000;1.000000;1.000000;1.000000;0.122128;-0.122128;0.122128;1.000000
445650.66290100;5696587.82720001;470.49644997;130;130;123;33153.000000;1.000000;1.000000;1.000000;1.000000;0.002800;-0.002800;0.002800;1.000000
445650.83810242;5696587.65739830;470.45805003;198;195;194;50115.000000;1.000000;1.000000;1.000000;1.000000;0.086227;-0.086227;0.086227;1.000000
445650.36200150;5696587.48599823;470.49974992;116;117;93;29298.000000;1.000000;1.000000;1.000000;1.000000;0.052181;-0.052181;0.052181;1.000000
445650.39800079;5696587.94520004;470.49755003;103;104;88;25957.000000;1.000000;1.000000;1.000000;1.000000;-0.103874;0.103874;-0.103874;1.000000
445650.58320053;5696587.95139893;470.49895002;126;125;112;31611.000000;1.000000;1.000000;1.000000;1.000000;0.081326;-0.081326;0.081326;1.000000
445650.52760132;5696587.53139885;470.49845006;125;129;111;32125.000000;1.000000;1.000000;1.000000;1.000000;0.025726;-0.025726;0.025726;1.000000
445650.47810181;5696587.79999931;470.49475004;196;197;189;50115.000000;1.000000;1.000000;1.000000;1.000000;0.030001;-0.030001;0.030001;1.000000
445650.55400284;5696587.76479919;470.50004985;136;135;127;34438.000000;1.000000;1.000000;1.000000;1.000000;0.065207;-0.065207;0.065207;1.000000
445650.55510147;5696587.72729881;470.50204994;117;117;109;29812.000000;1.000000;1.000000;1.000000;1.000000;0.094135;-0.094135;0.094135;1.000000
445650.40750320;5696587.97229965;470.49825003;160;160;143;40606.000000;1.000000;1.000000;1.000000;1.000000;-0.094372;0.094372;-0.094372;1.000000
445650.44289978;5696587.97599991;470.49994995;72;74;41;17733.000000;1.000000;1.000000;1.000000;1.000000;-0.058975;0.058975;-0.058975;1.000000
445650.40880020;5696587.93489845;470.49554994;132;132;113;33153.000000;1.000000;1.000000;1.000000;1.000000;-0.093075;0.093075;-0.093075;1.000000
445650.56520279;5696587.53259857;470.49784996;129;132;121;33153.000000;1.000000;1.000000;1.000000;1.000000;0.063328;-0.063328;0.063328;1.000000
445650.55790146;5696587.90469940;470.49724986;125;125;115;31611.000000;1.000000;1.000000;1.000000;1.000000;0.056026;-0.056026;0.056026;1.000000
445650.48880203;5696587.78969963;470.49514987;155;155;146;39578.000000;1.000000;1.000000;1.000000;1.000000;0.040300;-0.040300;0.040300;1.000000
445650.56390198;5696587.79429825;470.49854996;178;174;166;44718.000000;1.000000;1.000000;1.000000;1.000000;0.035705;-0.035705;0.035705;1.000000
445650.45720108;5696587.67809875;470.49704983;134;130;125;33410.000000;1.000000;1.000000;1.000000;1.000000;-0.049076;0.049076;-0.049076;1.000000
445650.57349976;5696587.57149895;470.49634983;98;101;93;25443.000000;1.000000;1.000000;1.000000;1.000000;0.071625;-0.071625;0.071625;1.000000
445650.64680298;5696587.60219963;470.49074986;139;139;130;35466.000000;1.000000;1.000000;1.000000;1.000000;0.105072;-0.105072;0.105072;1.000000
445650.59119995;5696587.56059845;470.49704983;141;145;137;36494.000000;1.000000;1.000000;1.000000;1.000000;0.089325;-0.089325;0.089325;1.000000
445650.44420059;5696587.96649940;470.50214984;84;87;49;20817.000000;1.000000;1.000000;1.000000;1.000000;-0.057674;0.057674;-0.057674;1.000000
445650.81990250;5696587.85249908;470.48985006;207;206;202;52685.000000;1.000000;1.000000;1.000000;1.000000;-0.071652;0.071652;-0.071652;1.000000
445650.40820129;5696587.92789848;470.49545004;141;141;122;35466.000000;1.000000;1.000000;1.000000;1.000000;-0.093674;0.093674;-0.093674;1.000000
445650.33400162;5696587.88579948;470.49624993;162;161;155;41120.000000;1.000000;1.000000;1.000000;1.000000;-0.055799;0.055799;-0.055799;1.000000
445650.32610138;5696587.87710007;470.49814989;186;185;179;47288.000000;1.000000;1.000000;1.000000;1.000000;-0.047100;0.047100;-0.047100;1.000000
445650.55700119;5696587.89539917;470.49714996;117;116;109;29555.000000;1.000000;1.000000;1.000000;1.000000;0.055126;-0.055126;0.055126;1.000000
445650.48670013;5696587.81789978;470.49534990;144;144;135;36751.000000;1.000000;1.000000;1.000000;1.000000;0.012100;-0.012100;0.012100;1.000000
445650.48790176;5696587.78039940;470.49494984;151;150;142;38293.000000;1.000000;1.000000;1.000000;1.000000;0.049601;-0.049601;0.049601;1.000000
445650.56300171;5696587.78509911;470.49845006;174;170;162;43690.000000;1.000000;1.000000;1.000000;1.000000;0.044922;-0.044922;0.044922;1.000000
445650.45650299;5696587.66889961;470.49455001;149;145;140;37265.000000;1.000000;1.000000;1.000000;1.000000;-0.048378;0.048378;-0.048378;1.000000
445650.64310272;5696587.63989838;470.49564983;140;138;131;35209.000000;1.000000;1.000000;1.000000;1.000000;0.108772;-0.108772;0.108772;1.000000
445650.35160263;5696587.72069939;470.49044992;129;127;123;32639.000000;1.000000;1.000000;1.000000;1.000000;0.056522;-0.056522;0.056522;1.000000
445650.35260208;5696587.68089874;470.48994996;145;143;137;36494.000000;1.000000;1.000000;1.000000;1.000000;0.055523;-0.055523;0.055523;1.000000
445650.68510254;5696587.96529968;470.49674990;146;133;108;34438.000000;1.000000;1.000000;1.000000;1.000000;-0.135367;0.135367;-0.135367;1.000000
445650.63690002;5696587.94339951;470.53624990;151;151;96;37008.000000;1.000000;1.000000;1.000000;1.000000;-0.113400;0.113400;-0.113400;1.000000
445650.71290024;5696587.95819862;470.48864986;128;124;108;31611.000000;1.000000;1.000000;1.000000;1.000000;-0.128248;0.128248;-0.128248;1.000000
445650.35740097;5696587.60799988;470.49164989;216;213;207;54741.000000;1.000000;1.000000;1.000000;1.000000;0.050724;-0.050724;0.050724;1.000000
445650.50910004;5696587.75509842;470.49094989;155;153;145;39064.000000;1.000000;1.000000;1.000000;1.000000;0.074902;-0.074902;0.074902;1.000000
445650.80490311;5696587.58099945;470.46494987;109;110;106;28013.000000;1.000000;1.000000;1.000000;1.000000;-0.053028;0.053028;-0.053028;1.000000
445650.57440002;5696587.50599869;470.49794986;152;154;141;38807.000000;1.000000;1.000000;1.000000;1.000000;0.072525;-0.072525;0.072525;1.000000
445650.59100159;5696587.78479965;470.49965002;126;124;116;31611.000000;1.000000;1.000000;1.000000;1.000000;0.045436;-0.045436;0.045436;1.000000
445650.62850006;5696587.78599937;470.49904992;155;154;147;39321.000000;1.000000;1.000000;1.000000;1.000000;0.044001;-0.044001;0.044001;1.000000
445650.56730087;5696587.93179901;470.50035002;158;156;143;39835.000000;1.000000;1.000000;1.000000;1.000000;0.065426;-0.065426;0.065426;1.000000
445650.84270294;5696587.58219917;470.45974996;225;228;225;58082.000000;1.000000;1.000000;1.000000;1.000000;-0.090828;0.090828;-0.090828;1.000000
445650.60290344;5696587.93559845;470.49504997;118;117;106;29812.000000;1.000000;1.000000;1.000000;1.000000;0.101028;-0.101028;0.101028;1.000000
445650.46830185;5696587.62099846;470.49685003;142;143;134;36237.000000;1.000000;1.000000;1.000000;1.000000;-0.033573;0.033573;-0.033573;1.000000
445650.35910233;5696587.57969864;470.49845006;204;199;194;51143.000000;1.000000;1.000000;1.000000;1.000000;0.049023;-0.049023;0.049023;1.000000
445650.39450272;5696587.58119972;470.49534990;62;57;55;14906.000000;1.000000;1.000000;1.000000;1.000000;0.013622;-0.013622;0.013622;1.000000
445650.43200119;5696587.58239944;470.49475004;47;46;39;11565.000000;1.000000;1.000000;1.000000;1.000000;-0.023876;0.023876;-0.023876;1.000000
445650.39540298;5696587.54359825;470.49965002;60;59;42;14649.000000;1.000000;1.000000;1.000000;1.000000;0.012722;-0.012722;0.012722;1.000000
445650.50819977;5696587.54949959;470.50014998;127;133;117;33153.000000;1.000000;1.000000;1.000000;1.000000;0.006325;-0.006325;0.006325;1.000000
445650.54590042;5696587.55079849;470.49484994;98;100;90;25186.000000;1.000000;1.000000;1.000000;1.000000;0.044025;-0.044025;0.044025;1.000000
445650.36150177;5696587.50700005;470.50234987;152;146;124;37265.000000;1.000000;1.000000;1.000000;1.000000;0.046744;-0.046744;0.046744;1.000000
445650.54689987;5696587.51319893;470.49915006;132;133;117;33410.000000;1.000000;1.000000;1.000000;1.000000;0.045025;-0.045025;0.045025;1.000000
445650.36290176;5696587.46959885;470.49724986;164;165;144;41634.000000;1.000000;1.000000;1.000000;1.000000;0.060940;-0.060940;0.060940;1.000000
445650.60860260;5696587.82289894;470.49854996;96;95;86;24158.000000;1.000000;1.000000;1.000000;1.000000;0.007101;-0.007101;0.007101;1.000000
445650.48280151;5696587.90229996;470.49854996;140;139;113;34952.000000;1.000000;1.000000;1.000000;1.000000;-0.019073;0.019073;-0.019073;1.000000
445650.59150131;5696587.99029930;470.49985005;123;121;100;30583.000000;1.000000;1.000000;1.000000;1.000000;0.089626;-0.089626;0.089626;1.000000
445650.67060287;5696587.91059883;470.49775006;121;119;107;30326.000000;1.000000;1.000000;1.000000;1.000000;-0.080599;0.080599;-0.080599;1.000000
445650.49780090;5696588.01299866;470.49814989;132;134;111;33410.000000;1.000000;1.000000;1.000000;1.000000;0.004074;-0.004074;0.004074;1.000000
445650.57069977;5696588.01789864;470.49924995;123;125;94;30840.000000;1.000000;1.000000;1.000000;1.000000;-0.068825;0.068825;-0.068825;1.000000
445650.38890274;5696587.97179993;470.49504997;134;133;123;33924.000000;1.000000;1.000000;1.000000;1.000000;-0.112972;0.112972;-0.112972;1.000000
445650.46160324;5696587.97659882;470.50074985;90;94;54;22616.000000;1.000000;1.000000;1.000000;1.000000;-0.040272;0.040272;-0.040272;1.000000
445650.49910172;5696587.97779854;470.50014998;107;111;75;26985.000000;1.000000;1.000000;1.000000;1.000000;-0.002773;0.002773;-0.002773;1.000000
445650.34330185;5696587.48539932;470.49884989;120;115;95;29298.000000;1.000000;1.000000;1.000000;1.000000;0.069484;-0.069484;0.069484;1.000000
445650.57920273;5696587.83259972;470.49735000;137;135;128;34438.000000;1.000000;1.000000;1.000000;1.000000;-0.002600;0.002600;-0.002600;1.000000
445650.32330139;5696587.74659927;470.49874999;95;93;89;23901.000000;1.000000;1.000000;1.000000;1.000000;0.083401;-0.083401;0.083401;1.000000
445650.48410233;5696587.86479958;470.49574997;147;146;135;37265.000000;1.000000;1.000000;1.000000;1.000000;-0.017773;0.017773;-0.017773;1.000000
445650.36210068;5696587.71029861;470.49545004;133;132;131;33924.000000;1.000000;1.000000;1.000000;1.000000;0.046024;-0.046024;0.046024;1.000000
445650.86200150;5696587.53609856;470.45304992;186;186;181;47545.000000;1.000000;1.000000;1.000000;1.000000;-0.110126;0.110126;-0.110126;1.000000
445650.58630188;5696587.68479927;470.50055005;146;147;137;37265.000000;1.000000;1.000000;1.000000;1.000000;0.091464;-0.091464;0.091464;1.000000
445650.32810028;5696587.59889992;470.49954988;92;88;81;22616.000000;1.000000;1.000000;1.000000;1.000000;0.080025;-0.080025;0.080025;1.000000
445650.47610291;5696587.60399826;470.49464991;83;84;75;21074.000000;1.000000;1.000000;1.000000;1.000000;-0.025772;0.025772;-0.025772;1.000000
445650.64540298;5696587.78919991;470.49514987;161;161;154;41120.000000;1.000000;1.000000;1.000000;1.000000;0.040800;-0.040800;0.040800;1.000000
445650.33390244;5696587.48629959;470.50084998;107;101;83;25700.000000;1.000000;1.000000;1.000000;1.000000;0.078031;-0.078031;0.078031;1.000000
445650.44900330;5696587.86339958;470.49414994;120;121;112;30583.000000;1.000000;1.000000;1.000000;1.000000;-0.033400;0.033400;-0.033400;1.000000
445650.81070145;5696587.69259842;470.46424987;165;163;160;41891.000000;1.000000;1.000000;1.000000;1.000000;-0.058826;0.058826;-0.058826;1.000000
445650.88599976;5696587.62019928;470.45984985;167;167;166;42662.000000;1.000000;1.000000;1.000000;1.000000;-0.134125;0.134125;-0.134125;1.000000
445650.45220001;5696587.79779823;470.49354984;148;149;140;37779.000000;1.000000;1.000000;1.000000;1.000000;0.032202;-0.032202;0.032202;1.000000
445650.63680084;5696587.82489975;470.49985005;169;169;160;43176.000000;1.000000;1.000000;1.000000;1.000000;0.005100;-0.005100;0.005100;1.000000
445650.58010300;5696587.61539848;470.49254992;138;140;129;35466.000000;1.000000;1.000000;1.000000;1.000000;0.078228;-0.078228;0.078228;1.000000
445650.51000031;5696587.49329956;470.49954988;105;113;82;27499.000000;1.000000;1.000000;1.000000;1.000000;0.008125;-0.008125;0.008125;1.000000
445650.52880295;5696587.49389847;470.49804999;101;104;81;25700.000000;1.000000;1.000000;1.000000;1.000000;0.026928;-0.026928;0.026928;1.000000
445650.41960342;5696587.45259865;470.50195004;95;99;63;23901.000000;1.000000;1.000000;1.000000;1.000000;-0.058880;0.058880;-0.058880;1.000000
445650.65550049;5696587.62009819;470.49134995;114;112;104;28527.000000;1.000000;1.000000;1.000000;1.000000;0.096375;-0.096375;0.096375;1.000000
445650.67780121;5696587.73249825;470.48895003;130;130;123;33153.000000;1.000000;1.000000;1.000000;1.000000;0.074074;-0.074074;0.074074;1.000000
445650.48730286;5696587.62169846;470.49074986;129;129;119;32639.000000;1.000000;1.000000;1.000000;1.000000;-0.014572;0.014572;-0.014572;1.000000
445650.77740295;5696587.76559837;470.47295000;141;137;132;35209.000000;1.000000;1.000000;1.000000;1.000000;-0.025528;0.025528;-0.025528;1.000000
445650.75290115;5696587.95919998;470.48574998;189;186;176;47545.000000;1.000000;1.000000;1.000000;1.000000;-0.129204;0.129204;-0.129204;1.000000
445650.78800018;5696587.96059998;470.48735001;184;181;172;46260.000000;1.000000;1.000000;1.000000;1.000000;-0.135504;0.135504;-0.135504;1.000000
445650.60379990;5696587.91689880;470.49014999;100;98;90;24929.000000;1.000000;1.000000;1.000000;1.000000;-0.086899;0.086899;-0.086899;1.000000
445650.71640213;5696587.92049988;470.48834993;154;151;140;38550.000000;1.000000;1.000000;1.000000;1.000000;-0.090598;0.090598;-0.090598;1.000000
445650.42070206;5696587.83349998;470.48784997;120;119;113;30326.000000;1.000000;1.000000;1.000000;1.000000;-0.003500;0.003500;-0.003500;1.000000
445650.38330276;5696587.83229836;470.48615005;144;142;137;36494.000000;1.000000;1.000000;1.000000;1.000000;-0.020476;0.020476;-0.020476;1.000000
445650.79040344;5696587.88559921;470.48654987;150;149;147;38293.000000;1.000000;1.000000;1.000000;1.000000;-0.067644;0.067644;-0.067644;1.000000
445650.73190125;5696587.98679932;470.48985006;145;134;116;34695.000000;1.000000;1.000000;1.000000;1.000000;-0.156799;0.156799;-0.156799;1.000000
445650.82800110;5696587.88909920;470.48834993;86;84;82;21588.000000;1.000000;1.000000;1.000000;1.000000;0.096374;0.096374;-0.096374;1.000000
445650.56050308;5696587.83199890;470.49654986;135;131;124;33667.000000;1.000000;1.000000;1.000000;1.000000;-0.004357;0.004357;-0.004357;1.000000
445650.69070251;5696587.62150009;470.49055006;166;164;157;41891.000000;1.000000;1.000000;1.000000;1.000000;0.061172;-0.061172;0.061172;1.000000
445650.48080261;5696587.75309952;470.49195005;160;158;150;40349.000000;1.000000;1.000000;1.000000;1.000000;-0.072678;0.072678;-0.072678;1.000000
445650.37310226;5696587.67439850;470.48854997;160;158;154;40606.000000;1.000000;1.000000;1.000000;1.000000;0.035023;-0.035023;0.035023;1.000000
445650.52670105;5696587.56899841;470.49184992;100;101;90;25443.000000;1.000000;1.000000;1.000000;1.000000;0.024826;-0.024826;0.024826;1.000000
445650.72170074;5696588.00630005;470.49654986;171;157;138;40863.000000;1.000000;1.000000;1.000000;1.000000;-0.176300;0.176300;-0.176300;1.000000
445650.63700302;5696587.57269867;470.49224998;131;130;121;33153.000000;1.000000;1.000000;1.000000;1.000000;0.114872;-0.114872;0.114872;1.000000
445650.45520218;5696587.49109848;470.51794984;127;145;97;34438.000000;1.000000;1.000000;1.000000;1.000000;-0.046673;0.046673;-0.046673;1.000000
445650.79170044;5696587.85039909;470.48854997;161;161;156;41120.000000;1.000000;1.000000;1.000000;1.000000;-0.044746;0.044746;-0.044746;1.000000
445650.75650223;5696587.84899910;470.48694994;165;164;157;41891.000000;1.000000;1.000000;1.000000;1.000000;-0.019554;0.019554;-0.019554;1.000000
445650.38790329;5696587.75709923;470.48784997;88;88;85;22359.000000;1.000000;1.000000;1.000000;1.000000;0.020222;-0.020222;0.020222;1.000000
445650.68480118;5696587.80889900;470.49024989;138;138;129;35209.000000;1.000000;1.000000;1.000000;1.000000;0.021591;-0.021591;0.021591;1.000000
445650.35030182;5696587.75589951;470.48844983;160;159;154;40606.000000;1.000000;1.000000;1.000000;1.000000;0.057823;-0.057823;0.057823;1.000000
445650.55620010;5696587.48669823;470.49685003;118;120;104;30069.000000;1.000000;1.000000;1.000000;1.000000;0.054325;-0.054325;0.054325;1.000000
445650.84370239;5696587.95319946;470.48044993;155;149;141;38293.000000;1.000000;1.000000;1.000000;1.000000;0.153657;0.153657;-0.153657;1.000000
445650.92020233;5696587.92039879;470.47884991;137;131;128;33924.000000;1.000000;1.000000;1.000000;1.000000;0.191066;0.191066;-0.191066;1.000000
445650.73600204;5696587.87669952;470.48164989;177;175;165;44718.000000;1.000000;1.000000;1.000000;1.000000;-0.046700;0.046700;-0.046700;1.000000
445650.73719986;5696587.83929832;470.48134996;138;137;128;34952.000000;1.000000;1.000000;1.000000;1.000000;-0.009298;0.009298;-0.009298;1.000000
445650.88500031;5696587.84429939;470.47875001;149;144;139;37008.000000;1.000000;1.000000;1.000000;1.000000;0.133891;0.133891;-0.133891;1.000000
445650.73970230;5696587.76429947;470.47814991;212;212;206;54227.000000;1.000000;1.000000;1.000000;1.000000;0.012173;-0.012173;0.012173;1.000000
445650.81470306;5696587.76669891;470.47694995;141;138;133;35466.000000;1.000000;1.000000;1.000000;1.000000;-0.062828;0.062828;-0.062828;1.000000
445650.71800049;5696587.81059845;470.48475005;139;139;132;35466.000000;1.000000;1.000000;1.000000;1.000000;0.019578;-0.019578;0.019578;1.000000
445650.64820297;5696587.76789864;470.49274995;151;150;143;38293.000000;1.000000;1.000000;1.000000;1.000000;0.062116;-0.062116;0.062116;1.000000
445650.74320038;5696587.72659882;470.47794988;220;220;215;56283.000000;1.000000;1.000000;1.000000;1.000000;0.008675;-0.008675;0.008675;1.000000
445650.74450119;5696587.68919952;470.47514989;141;142;136;36237.000000;1.000000;1.000000;1.000000;1.000000;0.007374;-0.007374;0.007374;1.000000
445650.74670227;5696587.61419876;470.47674992;128;127;119;32382.000000;1.000000;1.000000;1.000000;1.000000;0.005173;-0.005173;0.005173;1.000000
445650.67490204;5696587.57399948;470.48234989;186;185;175;47288.000000;1.000000;1.000000;1.000000;1.000000;0.076973;-0.076973;0.076973;1.000000
445650.71370132;5696587.53779991;470.48134996;172;169;162;43433.000000;1.000000;1.000000;1.000000;1.000000;0.038174;-0.038174;0.038174;1.000000
445650.64480026;5696587.42509850;470.47914984;190;189;183;48316.000000;1.000000;1.000000;1.000000;1.000000;0.095098;-0.095098;0.095098;1.000000
445650.42660339;5696587.72309883;470.49154999;201;199;192;50886.000000;1.000000;1.000000;1.000000;1.000000;-0.018478;0.018478;-0.018478;1.000000
445650.33970078;5696587.99729927;470.49784996;131;127;120;32639.000000;1.000000;1.000000;1.000000;1.000000;-0.162174;0.162174;-0.162174;1.000000
445650.60040100;5696588.01050003;470.50044991;181;178;155;45232.000000;1.000000;1.000000;1.000000;1.000000;-0.098526;0.098526;-0.098526;1.000000
445650.41610153;5696587.96449860;470.49854996;159;159;133;40092.000000;1.000000;1.000000;1.000000;1.000000;-0.085773;0.085773;-0.085773;1.000000
445650.36130341;5696587.67309959;470.48794987;156;154;149;39578.000000;1.000000;1.000000;1.000000;1.000000;0.046822;-0.046822;0.046822;1.000000
445650.62310226;5696587.47139938;470.48574998;168;167;160;42662.000000;1.000000;1.000000;1.000000;1.000000;0.121227;-0.121227;0.121227;1.000000
445650.40350159;5696588.02879913;470.49644997;99;97;91;24672.000000;1.000000;1.000000;1.000000;1.000000;0.098373;-0.098373;0.098373;1.000000
445650.40460022;5696587.99129875;470.49834992;124;122;109;31097.000000;1.000000;1.000000;1.000000;1.000000;-0.097275;0.097275;-0.097275;1.000000
445650.44220169;5696587.99249847;470.49775006;55;56;30;13364.000000;1.000000;1.000000;1.000000;1.000000;-0.059673;0.059673;-0.059673;1.000000
445650.61830338;5696587.60009964;470.49634983;204;205;198;52171.000000;1.000000;1.000000;1.000000;1.000000;0.116428;-0.116428;0.116428;1.000000
445650.66550262;5696587.57489975;470.48654987;154;152;144;38807.000000;1.000000;1.000000;1.000000;1.000000;0.086372;-0.086372;0.086372;1.000000
445650.48460205;5696587.84609993;470.49794986;124;124;115;31611.000000;1.000000;1.000000;1.000000;1.000000;-0.016100;0.016100;-0.016100;1.000000
445650.81130035;5696587.40269859;470.47245004;74;76;72;19018.000000;1.000000;1.000000;1.000000;1.000000;0.093896;-0.093896;0.093896;1.000000
445650.67820175;5696587.96589859;470.49644997;145;134;110;34438.000000;1.000000;1.000000;1.000000;1.000000;-0.135899;0.135899;-0.135899;1.000000
445650.45180328;5696587.76969917;470.49554994;156;156;150;39835.000000;1.000000;1.000000;1.000000;1.000000;-0.043678;0.043678;-0.043678;1.000000
445650.45430191;5696587.69709976;470.49714996;110;106;98;27242.000000;1.000000;1.000000;1.000000;1.000000;-0.046177;0.046177;-0.046177;1.000000
445650.63020142;5696587.49869926;470.48875000;214;213;205;54484.000000;1.000000;1.000000;1.000000;1.000000;0.122256;-0.122256;0.122256;1.000000
445650.31089981;5696587.61459930;470.49895002;61;55;49;14392.000000;1.000000;1.000000;1.000000;1.000000;0.090275;-0.090275;0.090275;1.000000
445650.46180161;5696587.72449883;470.49074986;152;149;141;38293.000000;1.000000;1.000000;1.000000;1.000000;-0.053677;0.053677;-0.053677;1.000000
445650.34729965;5696587.57849892;470.49784996;171;167;160;42919.000000;1.000000;1.000000;1.000000;1.000000;0.060825;-0.060825;0.060825;1.000000
445650.56920059;5696587.62570007;470.49674990;142;143;136;36237.000000;1.000000;1.000000;1.000000;1.000000;0.067326;-0.067326;0.067326;1.000000
445650.42240341;5696587.58089836;470.49665000;57;55;48;13878.000000;1.000000;1.000000;1.000000;1.000000;-0.014278;0.014278;-0.014278;1.000000
445650.42780121;5696587.68559845;470.49114992;206;202;196;51914.000000;1.000000;1.000000;1.000000;1.000000;-0.019676;0.019676;-0.019676;1.000000
445650.38850220;5696587.54429825;470.49934985;62;59;44;14906.000000;1.000000;1.000000;1.000000;1.000000;0.019623;-0.019623;0.019623;1.000000
445650.49870117;5696587.54809959;470.49965002;129;136;118;33667.000000;1.000000;1.000000;1.000000;1.000000;-0.003174;0.003174;-0.003174;1.000000
445650.53640182;5696587.54929932;470.49674990;123;126;115;31611.000000;1.000000;1.000000;1.000000;1.000000;0.034527;-0.034527;0.034527;1.000000
445650.68480118;5696587.73189934;470.48694994;148;147;142;37522.000000;1.000000;1.000000;1.000000;1.000000;0.067074;-0.067074;0.067074;1.000000
445650.44770248;5696587.64869888;470.49154999;115;111;105;28527.000000;1.000000;1.000000;1.000000;1.000000;-0.039577;0.039577;-0.039577;1.000000
445650.42910202;5696587.64809998;470.48844983;119;115;112;29555.000000;1.000000;1.000000;1.000000;1.000000;-0.020977;0.020977;-0.020977;1.000000
445650.35340317;5696587.46819885;470.49685003;160;160;142;40606.000000;1.000000;1.000000;1.000000;1.000000;0.069138;-0.069138;0.069138;1.000000
445650.39270218;5696587.60949905;470.48864986;87;80;78;20817.000000;1.000000;1.000000;1.000000;1.000000;0.015423;-0.015423;0.015423;1.000000
445650.43010147;5696587.61059959;470.49265005;49;44;42;11565.000000;1.000000;1.000000;1.000000;1.000000;-0.021976;0.021976;-0.021976;1.000000
445650.53890045;5696587.47659882;470.49834992;148;147;130;37265.000000;1.000000;1.000000;1.000000;1.000000;0.037025;-0.037025;0.037025;1.000000
445650.69210251;5696587.58409889;470.48554995;156;155;149;39578.000000;1.000000;1.000000;1.000000;1.000000;0.059772;-0.059772;0.059772;1.000000
445650.65830048;5696587.54749878;470.48595001;165;164;157;41891.000000;1.000000;1.000000;1.000000;1.000000;0.093575;-0.093575;0.093575;1.000000
445650.62150009;5696587.50649841;470.49074986;182;182;173;46517.000000;1.000000;1.000000;1.000000;1.000000;0.119625;-0.119625;0.119625;1.000000
445650.65929993;5696587.50999840;470.48784997;158;155;148;39835.000000;1.000000;1.000000;1.000000;1.000000;0.092577;-0.092577;0.092577;1.000000
445650.49150284;5696587.47389992;470.50545003;167;174;144;43176.000000;1.000000;1.000000;1.000000;1.000000;-0.010372;0.010372;-0.010372;1.000000
445650.53130157;5696587.89549835;470.49825003;144;142;128;36237.000000;1.000000;1.000000;1.000000;1.000000;0.029427;-0.029427;0.029427;1.000000
445650.45730026;5696587.85329826;470.49444987;128;129;120;32639.000000;1.000000;1.000000;1.000000;1.000000;-0.023298;0.023298;-0.023298;1.000000
445650.61240204;5696587.93699844;470.49545004;112;110;95;27756.000000;1.000000;1.000000;1.000000;1.000000;-0.106998;0.106998;-0.106998;1.000000
445650.76790054;5696587.76409920;470.47245004;144;141;136;36237.000000;1.000000;1.000000;1.000000;1.000000;-0.016026;0.016026;-0.016026;1.000000
445650.84330185;5696587.76879890;470.47124984;133;131;125;33410.000000;1.000000;1.000000;1.000000;1.000000;0.091427;-0.091427;0.091427;1.000000
445650.64090164;5696587.48829849;470.48904993;194;193;186;49344.000000;1.000000;1.000000;1.000000;1.000000;0.113195;-0.113195;0.113195;1.000000
445650.55490311;5696587.95159920;470.50464990;145;145;129;36751.000000;1.000000;1.000000;1.000000;1.000000;0.053028;-0.053028;0.053028;1.000000
445650.63120087;5696587.95570000;470.53384997;159;158;100;38807.000000;1.000000;1.000000;1.000000;1.000000;-0.125700;0.125700;-0.125700;1.000000
445650.29440125;5696587.53899963;470.50195004;166;156;140;40349.000000;1.000000;1.000000;1.000000;1.000000;0.073776;-0.073776;0.073776;1.000000
445650.33210190;5696587.54249962;470.50134995;114;104;91;26985.000000;1.000000;1.000000;1.000000;1.000000;0.076023;-0.076023;0.076023;1.000000
445650.32170303;5696587.75369843;470.49644997;115;114;110;29041.000000;1.000000;1.000000;1.000000;1.000000;0.076302;-0.076302;0.076302;1.000000
445650.41520126;5696587.55579956;470.50064995;46;47;33;11565.000000;1.000000;1.000000;1.000000;1.000000;-0.007076;0.007076;-0.007076;1.000000
445650.48800095;5696587.55839928;470.49934985;120;127;111;31611.000000;1.000000;1.000000;1.000000;1.000000;-0.013874;0.013874;-0.013874;1.000000
445650.60050018;5696587.96139915;470.49985005;163;158;139;40349.000000;1.000000;1.000000;1.000000;1.000000;0.098625;-0.098625;0.098625;1.000000
445650.56680115;5696587.92489822;470.49794986;167;166;152;42148.000000;1.000000;1.000000;1.000000;1.000000;0.064926;-0.064926;0.064926;1.000000
445650.89430054;5696587.89019974;470.47274997;130;123;118;31868.000000;1.000000;1.000000;1.000000;1.000000;0.154625;0.154625;-0.154625;1.000000
445650.50640305;5696588.00519951;470.49845006;119;121;97;30069.000000;1.000000;1.000000;1.000000;1.000000;0.004528;-0.004528;0.004528;1.000000
445650.29710205;5696587.46629913;470.49895002;58;51;44;13364.000000;1.000000;1.000000;1.000000;1.000000;0.076477;-0.076477;0.076477;1.000000
445650.37210281;5696587.91499908;470.49134995;186;185;178;47288.000000;1.000000;1.000000;1.000000;1.000000;-0.085487;0.085487;-0.085487;1.000000
445650.70360001;5696587.52939995;470.48074986;183;180;173;46260.000000;1.000000;1.000000;1.000000;1.000000;0.048275;-0.048275;0.048275;1.000000
445650.67080124;5696587.45299919;470.47834994;168;165;160;42405.000000;1.000000;1.000000;1.000000;1.000000;0.099581;-0.099581;0.099581;1.000000
445650.30370148;5696587.51239975;470.49974992;150;141;127;36494.000000;1.000000;1.000000;1.000000;1.000000;0.083076;-0.083076;0.083076;1.000000
445650.52900131;5696587.52189835;470.50074985;123;125;105;31354.000000;1.000000;1.000000;1.000000;1.000000;0.027126;-0.027126;0.027126;1.000000
445650.36730011;5696587.81269844;470.48755004;160;158;152;40349.000000;1.000000;1.000000;1.000000;1.000000;0.017837;-0.017837;0.017837;1.000000
445650.32450302;5696587.68339928;470.49574997;149;146;141;37522.000000;1.000000;1.000000;1.000000;1.000000;0.083622;-0.083622;0.083622;1.000000
445650.56430252;5696587.52329834;470.49764993;157;159;147;40349.000000;1.000000;1.000000;1.000000;1.000000;0.062428;-0.062428;0.062428;1.000000
445650.64980133;5696587.50849922;470.48974993;165;164;157;41891.000000;1.000000;1.000000;1.000000;1.000000;0.102095;-0.102095;0.102095;1.000000
445650.34240158;5696587.47619827;470.49874999;126;122;105;31097.000000;1.000000;1.000000;1.000000;1.000000;0.074098;-0.074098;0.074098;1.000000
445650.49620255;5696587.81929977;470.49584987;147;147;137;37265.000000;1.000000;1.000000;1.000000;1.000000;-0.010700;0.010700;-0.010700;1.000000
445650.57230194;5696587.78419884;470.49884989;161;157;148;40349.000000;1.000000;1.000000;1.000000;1.000000;0.045801;-0.045801;0.045801;1.000000
445650.53840073;5696587.74539955;470.49455001;121;120;111;30583.000000;1.000000;1.000000;1.000000;1.000000;0.084600;-0.084600;0.084600;1.000000
