//X;Y;Z;R;G;B;Intensity;Return Number;Number Of Returns;Scan Direction Flag;Point Source ID;C2M signed distances[-][<0.8];C2M signed distances[<0.4];C2M signed distances[-][<0.2];Stump32
445630.35390289;5696589.99179848;471.77285006;122;123;119;31354.000000;1.000000;1.000000;1.000000;1.000000;-0.039526;0.039526;-0.039526;1.000000
445630.60530289;5696590.21659859;471.74504997;142;140;136;35980.000000;1.000000;1.000000;1.000000;1.000000;-0.113401;0.113401;-0.113401;1.000000
445630.67260178;5696590.38550003;471.74305012;130;124;115;31868.000000;1.000000;1.000000;1.000000;1.000000;0.055500;-0.055500;0.055500;1.000000
445630.56480225;5696589.87939842;471.73684980;170;164;151;42148.000000;1.000000;1.000000;1.000000;1.000000;-0.049398;0.049398;-0.049398;1.000000
445630.52400024;5696590.38029869;471.76195004;173;168;159;43176.000000;1.000000;1.000000;1.000000;1.000000;-0.040377;0.040377;-0.040377;1.000000
445630.45230301;5696590.34019859;471.76515009;134;131;125;33667.000000;1.000000;1.000000;1.000000;1.000000;0.010199;-0.010199;0.010199;1.000000
445630.46310242;5696590.08000000;471.76254990;161;150;137;38807.000000;1.000000;1.000000;1.000000;1.000000;-0.148726;0.148726;-0.148726;1.000000
445630.50070007;5696590.08119972;471.76195004;162;155;144;39835.000000;1.000000;1.000000;1.000000;1.000000;-0.186323;0.186323;-0.186323;1.000000
445630.39370163;5696589.96489914;471.76734974;144;141;133;36237.000000;1.000000;1.000000;1.000000;1.000000;-0.081844;0.081844;-0.081844;1.000000
445630.21680077;5696589.92739876;471.77755024;164;157;148;40606.000000;1.000000;1.000000;1.000000;1.000000;-0.003826;0.003826;-0.003826;1.000000
445630.20830162;5696589.90959938;471.77234985;152;144;135;37265.000000;1.000000;1.000000;1.000000;1.000000;-0.012325;0.012325;-0.012325;1.000000
445630.16370209;5696590.06530006;471.78844978;170;166;159;42662.000000;1.000000;1.000000;1.000000;1.000000;-0.056925;0.056925;-0.056925;1.000000
445630.47030075;5696590.13519867;471.77054979;201;199;193;50886.000000;1.000000;1.000000;1.000000;1.000000;-0.155924;0.155924;-0.155924;1.000000
445630.50730331;5696590.35149963;471.76084997;159;158;149;40349.000000;1.000000;1.000000;1.000000;1.000000;-0.021500;0.021500;-0.021500;1.000000
445630.44350250;5696590.09799965;471.76884987;154;144;132;37265.000000;1.000000;1.000000;1.000000;1.000000;-0.129126;0.129126;-0.129126;1.000000
445630.33049973;5696589.91459854;471.76854994;148;143;134;36751.000000;1.000000;1.000000;1.000000;1.000000;-0.072239;0.072239;-0.072239;1.000000
445630.24610146;5696589.91309937;471.77174999;147;141;133;36237.000000;1.000000;1.000000;1.000000;1.000000;0.025475;-0.025475;0.025475;1.000000
445630.55430038;5696590.14879997;471.74884989;135;132;125;33924.000000;1.000000;1.000000;1.000000;1.000000;-0.181200;0.181200;-0.181200;1.000000
445630.25530251;5696589.91219910;471.77215006;159;154;146;39578.000000;1.000000;1.000000;1.000000;1.000000;0.034676;-0.034676;0.034676;1.000000
445630.43340118;5696590.31169899;471.76165010;159;156;152;40092.000000;1.000000;1.000000;1.000000;1.000000;-0.018301;0.018301;-0.018301;1.000000
445630.45820053;5696590.40499886;471.76854994;157;152;142;39064.000000;1.000000;1.000000;1.000000;1.000000;0.074999;-0.074999;0.074999;1.000000
445630.60590179;5696590.19779976;471.74484970;165;163;156;41634.000000;1.000000;1.000000;1.000000;1.000000;-0.132200;0.132200;-0.132200;1.000000
445630.25860222;5696590.05189903;471.78095009;175;172;167;44204.000000;1.000000;1.000000;1.000000;1.000000;0.037975;-0.037975;0.037975;1.000000
445630.12760170;5696590.02889832;471.78875019;167;164;156;42148.000000;1.000000;1.000000;1.000000;1.000000;-0.093025;0.093025;-0.093025;1.000000
445630.42040070;5696590.40379913;471.77384998;139;135;126;34695.000000;1.000000;1.000000;1.000000;1.000000;0.073799;-0.073799;0.073799;1.000000
445630.22310074;5696590.02249916;471.78134968;115;114;110;29041.000000;1.000000;1.000000;1.000000;1.000000;0.002474;-0.002474;0.002474;1.000000
445630.48370178;5696589.99639900;471.75554993;151;142;128;36751.000000;1.000000;1.000000;1.000000;1.000000;-0.166399;0.166399;-0.166399;1.000000
445630.11370094;5696589.97889908;471.78515007;172;164;153;42405.000000;1.000000;1.000000;1.000000;1.000000;-0.106926;0.106926;-0.106926;1.000000
445630.16650208;5696590.01839836;471.78335001;164;162;155;41377.000000;1.000000;1.000000;1.000000;1.000000;-0.054125;0.054125;-0.054125;1.000000
445630.19090088;5696589.89949997;471.77374985;103;96;87;24929.000000;1.000000;1.000000;1.000000;1.000000;-0.029726;0.029726;-0.029726;1.000000
445630.20970161;5696590.13340004;471.79134991;87;82;76;21074.000000;1.000000;1.000000;1.000000;1.000000;-0.010925;0.010925;-0.010925;1.000000
445630.45960052;5696589.93789871;471.75374987;152;144;133;37265.000000;1.000000;1.000000;1.000000;1.000000;-0.107899;0.107899;-0.107899;1.000000
445630.17180069;5696590.12979897;471.79425003;154;148;141;38293.000000;1.000000;1.000000;1.000000;1.000000;-0.048826;0.048826;-0.048826;1.000000
445630.13570221;5696590.09349831;471.79454996;171;164;154;42405.000000;1.000000;1.000000;1.000000;1.000000;-0.084925;0.084925;-0.084925;1.000000
445630.56850250;5696589.97239883;471.74274971;162;153;139;39578.000000;1.000000;1.000000;1.000000;1.000000;-0.142399;0.142399;-0.142399;1.000000
445630.17340096;5696590.09469994;471.78924992;161;155;148;40092.000000;1.000000;1.000000;1.000000;1.000000;-0.047226;0.047226;-0.047226;1.000000
445630.13710220;5696590.05609901;471.78945019;189;186;179;47802.000000;1.000000;1.000000;1.000000;1.000000;-0.083525;0.083525;-0.083525;1.000000
445630.24570091;5696590.14399918;471.79314997;132;128;124;32896.000000;1.000000;1.000000;1.000000;1.000000;0.025074;-0.025074;0.025074;1.000000
445630.20570190;5696590.42089851;471.80154993;153;148;145;38293.000000;1.000000;1.000000;1.000000;1.000000;-0.092116;0.092116;-0.092116;1.000000
445630.62280090;5696590.25239952;471.74154999;145;145;142;37008.000000;1.000000;1.000000;1.000000;1.000000;-0.077600;0.077600;-0.077600;1.000000
445630.40279968;5696590.16929825;471.78184988;187;186;178;47545.000000;1.000000;1.000000;1.000000;1.000000;-0.088423;0.088423;-0.088423;1.000000
445630.31980331;5696590.13709839;471.79404976;120;113;102;29041.000000;1.000000;1.000000;1.000000;1.000000;-0.005426;0.005426;-0.005426;1.000000
445630.35730179;5696590.13830002;471.79344990;101;94;82;24158.000000;1.000000;1.000000;1.000000;1.000000;-0.042925;0.042925;-0.042925;1.000000
445630.45960052;5696589.91229828;471.75344994;116;111;100;28527.000000;1.000000;1.000000;1.000000;1.000000;-0.082298;0.082298;-0.082298;1.000000
445630.42170151;5696590.36629875;471.77115013;171;166;159;42662.000000;1.000000;1.000000;1.000000;1.000000;0.036299;-0.036299;0.036299;1.000000
445630.29350098;5696589.89469917;471.77134993;145;140;132;35980.000000;1.000000;1.000000;1.000000;1.000000;0.064699;-0.064699;0.064699;1.000000
445630.20830162;5696590.34829910;471.80084993;143;140;134;35980.000000;1.000000;1.000000;1.000000;1.000000;-0.022063;0.022063;-0.022063;1.000000
445630.33070190;5696590.29749878;471.78014996;54;50;45;12850.000000;1.000000;1.000000;1.000000;1.000000;-0.016325;0.016325;-0.016325;1.000000
445630.32150085;5696590.10209854;471.78674986;135;128;119;33153.000000;1.000000;1.000000;1.000000;1.000000;-0.007124;0.007124;-0.007124;1.000000
445630.62410172;5696590.21719940;471.74354984;113;112;107;28527.000000;1.000000;1.000000;1.000000;1.000000;-0.112801;0.112801;-0.112801;1.000000
445630.50790222;5696590.30489929;471.75334980;175;174;169;44461.000000;1.000000;1.000000;1.000000;1.000000;0.025101;-0.025101;0.025101;1.000000
445630.66170319;5696590.21839912;471.74055006;132;131;127;33410.000000;1.000000;1.000000;1.000000;1.000000;-0.111658;0.111658;-0.111658;1.000000
445630.27370079;5696590.11809929;471.79174997;180;175;168;44975.000000;1.000000;1.000000;1.000000;1.000000;0.040676;-0.040676;0.040676;1.000000
445630.54980286;5696590.20290001;471.75394966;158;155;148;39835.000000;1.000000;1.000000;1.000000;1.000000;-0.127100;0.127100;-0.127100;1.000000
445630.37790115;5696590.29799850;471.77064993;66;64;62;16448.000000;1.000000;1.000000;1.000000;1.000000;0.032001;-0.032001;0.032001;1.000000
445630.37170227;5696590.21639832;471.79264977;54;51;49;13107.000000;1.000000;1.000000;1.000000;1.000000;-0.057325;0.057325;-0.057325;1.000000
445630.24070175;5696590.44339951;471.79874994;213;210;207;53970.000000;1.000000;1.000000;1.000000;1.000000;-0.113400;0.113400;-0.113400;1.000000
445630.41980179;5696590.42249878;471.77404978;181;175;165;44975.000000;1.000000;1.000000;1.000000;1.000000;0.092499;-0.092499;0.092499;1.000000
445630.70090302;5696590.38760002;471.74204971;157;150;140;38807.000000;1.000000;1.000000;1.000000;1.000000;0.058742;-0.058742;0.058742;1.000000
445630.55640228;5696590.27009972;471.74805023;138;136;129;34695.000000;1.000000;1.000000;1.000000;1.000000;-0.059900;0.059900;-0.059900;1.000000
445630.17850121;5696590.17819984;471.79745008;148;143;137;36751.000000;1.000000;1.000000;1.000000;1.000000;-0.042209;0.042209;-0.042209;1.000000
445630.36860092;5696590.29879959;471.77255013;65;62;59;15934.000000;1.000000;1.000000;1.000000;1.000000;-0.031200;0.031200;-0.031200;1.000000
445630.37510117;5696590.17869957;471.79474976;139;135;125;34695.000000;1.000000;1.000000;1.000000;1.000000;-0.060724;0.060724;-0.060724;1.000000
445630.49490173;5696590.42489822;471.77274992;98;91;81;23644.000000;1.000000;1.000000;1.000000;1.000000;-0.069475;0.069475;-0.069475;1.000000
445630.27820213;5696590.44459923;471.79815008;190;188;182;48059.000000;1.000000;1.000000;1.000000;1.000000;-0.114697;0.114697;-0.114697;1.000000
445630.55740173;5696590.23259933;471.75005009;81;78;72;20046.000000;1.000000;1.000000;1.000000;1.000000;-0.097401;0.097401;-0.097401;1.000000
445630.43720062;5696590.43259819;471.77255013;162;155;146;40092.000000;1.000000;1.000000;1.000000;1.000000;0.102598;-0.102598;0.102598;1.000000
445630.40290268;5696590.39359863;471.77755024;193;187;178;48059.000000;1.000000;1.000000;1.000000;1.000000;0.063599;-0.063599;0.063599;1.000000
445630.43850143;5696590.39509972;471.76984980;144;140;131;35980.000000;1.000000;1.000000;1.000000;1.000000;0.065100;-0.065100;0.065100;1.000000
445630.40419968;5696590.35619934;471.77484991;136;130;123;33667.000000;1.000000;1.000000;1.000000;1.000000;0.026199;-0.026199;0.026199;1.000000
445630.29250153;5696590.11869820;471.79024984;198;193;184;49601.000000;1.000000;1.000000;1.000000;1.000000;0.021875;-0.021875;0.021875;1.000000
445630.51659973;5696590.32269867;471.75394966;177;177;170;45232.000000;1.000000;1.000000;1.000000;1.000000;-0.007301;0.007301;-0.007301;1.000000
445630.43320282;5696589.90989883;471.76384975;170;164;154;42148.000000;1.000000;1.000000;1.000000;1.000000;-0.079976;0.079976;-0.079976;1.000000
445630.36790283;5696590.31749924;471.77504971;134;131;127;33667.000000;1.000000;1.000000;1.000000;1.000000;-0.012501;0.012501;-0.012501;1.000000
445630.66660126;5696590.29279907;471.73474981;117;113;107;29041.000000;1.000000;1.000000;1.000000;1.000000;-0.037222;0.037222;-0.037222;1.000000
445630.70409973;5696590.29399879;471.73644974;129;126;119;32382.000000;1.000000;1.000000;1.000000;1.000000;-0.038895;0.038895;-0.038895;1.000000
445630.44680222;5696590.20979889;471.77274992;92;90;88;23130.000000;1.000000;1.000000;1.000000;1.000000;0.120201;-0.120201;0.120201;1.000000
445630.59580048;5696589.99079903;471.74655010;153;147;134;37779.000000;1.000000;1.000000;1.000000;1.000000;-0.160799;0.160799;-0.160799;1.000000
445630.41640289;5696590.05849846;471.76954987;118;113;107;29041.000000;1.000000;1.000000;1.000000;1.000000;-0.102026;0.102026;-0.102026;1.000000
445630.57160004;5696589.95349892;471.73805000;141;133;119;34181.000000;1.000000;1.000000;1.000000;1.000000;-0.123499;0.123499;-0.123499;1.000000
445630.53530319;5696589.91479881;471.73824980;156;148;134;38036.000000;1.000000;1.000000;1.000000;1.000000;-0.084799;0.084799;-0.084799;1.000000
445630.57400330;5696589.87850006;471.73724987;172;165;150;42405.000000;1.000000;1.000000;1.000000;1.000000;-0.048500;0.048500;-0.048500;1.000000
445630.55450256;5696590.32629974;471.75105001;122;120;111;30583.000000;1.000000;1.000000;1.000000;1.000000;-0.003700;0.003700;-0.003700;1.000000
445630.53660019;5696589.87739952;471.73554995;167;162;151;41634.000000;1.000000;1.000000;1.000000;1.000000;-0.047400;0.047400;-0.047400;1.000000
445630.61150177;5696589.87969978;471.73894979;156;148;132;38036.000000;1.000000;1.000000;1.000000;1.000000;0.049700;-0.049700;0.049700;1.000000
445630.68449982;5696589.88459976;471.73764994;130;124;110;31868.000000;1.000000;1.000000;1.000000;1.000000;0.054600;-0.054600;0.054600;1.000000
445630.38950165;5696590.27119835;471.77084972;78;76;77;19532.000000;1.000000;1.000000;1.000000;1.000000;-0.058802;0.058802;-0.058802;1.000000
445630.53330048;5696590.40739830;471.76734974;133;126;115;32382.000000;1.000000;1.000000;1.000000;1.000000;-0.031076;0.031076;-0.031076;1.000000
445630.47590073;5696589.98779877;471.75505020;177;170;157;43690.000000;1.000000;1.000000;1.000000;1.000000;-0.157799;0.157799;-0.157799;1.000000
445630.41040237;5696590.19899948;471.78025009;81;78;74;20046.000000;1.000000;1.000000;1.000000;1.000000;-0.096025;0.096025;-0.096025;1.000000
445630.39760025;5696590.05789955;471.77094986;131;127;121;32639.000000;1.000000;1.000000;1.000000;1.000000;-0.083223;0.083223;-0.083223;1.000000
445630.63610275;5696589.91939934;471.74055006;144;135;121;34952.000000;1.000000;1.000000;1.000000;1.000000;-0.089399;0.089399;-0.089399;1.000000
445630.66590317;5696590.31149872;471.73724987;193;189;182;48573.000000;1.000000;1.000000;1.000000;1.000000;-0.018604;0.018604;-0.018604;1.000000
445630.44149979;5696589.94660004;471.75764992;121;113;103;29298.000000;1.000000;1.000000;1.000000;1.000000;-0.116600;0.116600;-0.116600;1.000000
445630.68620117;5696590.30259903;471.73574974;199;196;190;50372.000000;1.000000;1.000000;1.000000;1.000000;-0.027401;0.027401;-0.027401;1.000000
445630.70350082;5696590.31269844;471.73665001;177;174;169;44718.000000;1.000000;1.000000;1.000000;1.000000;-0.022334;0.022334;-0.022334;1.000000
445630.58000000;5696589.91769989;471.73794987;96;88;73;22616.000000;1.000000;1.000000;1.000000;1.000000;0.087700;-0.087700;0.087700;1.000000
445630.70450027;5696590.27519997;471.73854973;100;97;91;24929.000000;1.000000;1.000000;1.000000;1.000000;-0.056849;0.056849;-0.056849;1.000000
445630.30900009;5696590.17539986;471.80104973;191;188;177;48059.000000;1.000000;1.000000;1.000000;1.000000;0.005377;-0.005377;0.005377;1.000000
445630.59330185;5696589.86039932;471.73784973;137;130;115;33410.000000;1.000000;1.000000;1.000000;1.000000;0.030399;-0.030399;0.030399;1.000000
445630.48830231;5696590.37649925;471.76725008;139;133;122;34181.000000;1.000000;1.000000;1.000000;1.000000;0.046499;-0.046499;0.046499;1.000000
445630.29100235;5696590.18179901;471.80025007;184;181;172;46260.000000;1.000000;1.000000;1.000000;1.000000;0.023375;-0.023375;0.023375;1.000000
445630.29250153;5696590.14659889;471.79754974;116;110;101;28270.000000;1.000000;1.000000;1.000000;1.000000;0.021875;-0.021875;0.021875;1.000000
445630.40800293;5696590.44919975;471.78074982;141;135;127;34695.000000;1.000000;1.000000;1.000000;1.000000;0.119200;-0.119200;0.119200;1.000000
445630.35010345;5696590.27939995;471.77845003;50;48;47;12336.000000;1.000000;1.000000;1.000000;1.000000;-0.035727;0.035727;-0.035727;1.000000
445630.37400253;5696590.41029938;471.78114988;152;144;135;37265.000000;1.000000;1.000000;1.000000;1.000000;0.080299;-0.080299;0.080299;1.000000
445630.17000206;5696590.39139946;471.80664970;143;138;131;35466.000000;1.000000;1.000000;1.000000;1.000000;-0.079579;0.079579;-0.079579;1.000000
445630.37510117;5696590.37279900;471.78074982;101;93;87;24158.000000;1.000000;1.000000;1.000000;1.000000;0.042799;-0.042799;0.042799;1.000000
445630.35050018;5696590.11109932;471.78585007;167;162;151;41634.000000;1.000000;1.000000;1.000000;1.000000;-0.036123;0.036123;-0.036123;1.000000
445630.43869980;5696590.42309959;471.77255013;162;157;149;40349.000000;1.000000;1.000000;1.000000;1.000000;0.093100;-0.093100;0.093100;1.000000
445630.47620209;5696590.42429932;471.77194979;125;119;109;30583.000000;1.000000;1.000000;1.000000;1.000000;-0.088175;0.088175;-0.088175;1.000000
445630.28160103;5696590.40689857;471.80014994;94;91;85;23387.000000;1.000000;1.000000;1.000000;1.000000;-0.076914;0.076914;-0.076914;1.000000
445630.13950165;5696590.24239929;471.81045010;149;151;150;38550.000000;1.000000;1.000000;1.000000;1.000000;-0.104947;0.104947;-0.104947;1.000000
445630.14090164;5696590.20489891;471.80544998;177;176;173;44975.000000;1.000000;1.000000;1.000000;1.000000;-0.084899;0.084899;-0.084899;1.000000
445630.28060158;5696590.36959847;471.79734995;164;160;151;41120.000000;1.000000;1.000000;1.000000;1.000000;-0.039679;0.039679;-0.039679;1.000000
445630.35460098;5696590.21319969;471.80114986;44;43;40;10794.000000;1.000000;1.000000;1.000000;1.000000;-0.040224;0.040224;-0.040224;1.000000
445630.39780243;5696590.08589943;471.77134993;124;119;109;30583.000000;1.000000;1.000000;1.000000;1.000000;-0.083426;0.083426;-0.083426;1.000000
445630.35150345;5696590.26989944;471.78074982;45;44;45;11308.000000;1.000000;1.000000;1.000000;1.000000;-0.037127;0.037127;-0.037127;1.000000
445630.68260010;5696590.39389999;471.74595024;163;156;145;40092.000000;1.000000;1.000000;1.000000;1.000000;0.063900;-0.063900;0.063900;1.000000
445630.71800049;5696590.39759834;471.74524977;159;152;143;39321.000000;1.000000;1.000000;1.000000;1.000000;0.073409;-0.073409;0.073409;1.000000
445630.53960236;5696590.24129875;471.74935009;165;162;156;41634.000000;1.000000;1.000000;1.000000;1.000000;0.088701;-0.088701;0.088701;1.000000
445630.40760239;5696590.04059990;471.77124979;121;117;111;30069.000000;1.000000;1.000000;1.000000;1.000000;-0.093225;0.093225;-0.093225;1.000000
445630.20940216;5696590.10539825;471.79104998;181;177;170;45489.000000;1.000000;1.000000;1.000000;1.000000;-0.011225;0.011225;-0.011225;1.000000
445630.73280151;5696590.27729996;471.73754980;130;126;120;32382.000000;1.000000;1.000000;1.000000;1.000000;-0.068286;0.068286;-0.068286;1.000000
445630.36150177;5696590.04719933;471.77154972;95;91;83;23387.000000;1.000000;1.000000;1.000000;1.000000;-0.047125;0.047125;-0.047125;1.000000
445630.19030197;5696589.94609840;471.78125002;131;123;114;31868.000000;1.000000;1.000000;1.000000;1.000000;-0.030325;0.030325;-0.030325;1.000000
445630.33380325;5696590.02639969;471.77244999;92;92;86;23387.000000;1.000000;1.000000;1.000000;1.000000;-0.019426;0.019426;-0.019426;1.000000
445630.21680077;5696590.13499840;471.79174997;70;65;60;16705.000000;1.000000;1.000000;1.000000;1.000000;-0.003826;0.003826;-0.003826;1.000000
445630.11620148;5696589.90619858;471.78674986;108;102;96;26471.000000;1.000000;1.000000;1.000000;1.000000;-0.076199;0.076199;-0.076199;1.000000
445630.14500244;5696590.09259995;471.79264977;146;140;131;35980.000000;1.000000;1.000000;1.000000;1.000000;-0.075624;0.075624;-0.075624;1.000000
445630.25960167;5696590.26659973;471.79054977;135;134;130;34181.000000;1.000000;1.000000;1.000000;1.000000;0.054775;-0.054775;0.054775;1.000000
445630.33839996;5696589.95119865;471.77404978;184;184;179;47031.000000;1.000000;1.000000;1.000000;1.000000;-0.041397;0.041397;-0.041397;1.000000
445630.37400253;5696589.95500000;471.76874973;169;167;161;42662.000000;1.000000;1.000000;1.000000;1.000000;-0.066756;0.066756;-0.066756;1.000000
445630.68100174;5696590.40339859;471.74834969;164;158;148;40606.000000;1.000000;1.000000;1.000000;1.000000;0.073399;-0.073399;0.073399;1.000000
445630.71890076;5696590.40689857;471.74545004;181;173;165;44718.000000;1.000000;1.000000;1.000000;1.000000;0.082371;-0.082371;0.082371;1.000000
445630.47670181;5696590.15339859;471.76874973;62;61;55;15420.000000;1.000000;1.000000;1.000000;1.000000;-0.162325;0.162325;-0.162325;1.000000
445630.19170197;5696589.90869911;471.77624990;107;99;90;25700.000000;1.000000;1.000000;1.000000;1.000000;-0.028925;0.028925;-0.028925;1.000000
445630.22700127;5696589.91019829;471.77314999;144;136;128;35209.000000;1.000000;1.000000;1.000000;1.000000;0.006374;-0.006374;0.006374;1.000000
445630.28200157;5696589.94940002;471.77614977;165;164;160;41891.000000;1.000000;1.000000;1.000000;1.000000;0.048024;-0.048024;0.048024;1.000000
445630.26480110;5696589.91369827;471.77255013;156;152;143;39064.000000;1.000000;1.000000;1.000000;1.000000;0.044174;-0.044174;0.044174;1.000000
445630.53810318;5696590.25070007;471.74935009;170;167;160;42919.000000;1.000000;1.000000;1.000000;1.000000;0.079300;-0.079300;0.079300;1.000000
445630.32120331;5696589.91549881;471.77054979;146;142;134;36494.000000;1.000000;1.000000;1.000000;1.000000;-0.069811;0.069811;-0.069811;1.000000
445630.61740311;5696589.91889961;471.73964979;124;115;100;29812.000000;1.000000;1.000000;1.000000;1.000000;0.088900;-0.088900;0.088900;1.000000
445630.20610245;5696590.19899948;471.79894974;223;223;218;57054.000000;1.000000;1.000000;1.000000;1.000000;-0.027555;0.027555;-0.027555;1.000000
445630.28110130;5696590.20139893;471.80004980;63;61;54;15420.000000;1.000000;1.000000;1.000000;1.000000;0.033276;-0.033276;0.033276;1.000000
445630.19870193;5696590.14139946;471.79325010;123;117;111;30326.000000;1.000000;1.000000;1.000000;1.000000;-0.021925;0.021925;-0.021925;1.000000
445630.26790245;5696590.07899864;471.78634979;172;168;159;43176.000000;1.000000;1.000000;1.000000;1.000000;0.046474;-0.046474;0.046474;1.000000
445630.62260254;5696590.22669991;471.74354984;90;90;86;22873.000000;1.000000;1.000000;1.000000;1.000000;-0.103300;0.103300;-0.103300;1.000000
445630.70110138;5696590.16339882;471.73934986;208;206;200;52685.000000;1.000000;1.000000;1.000000;1.000000;-0.167013;0.167013;-0.167013;1.000000
445630.52370270;5696590.17489822;471.75715019;103;101;95;25700.000000;1.000000;1.000000;1.000000;1.000000;-0.155102;0.155102;-0.155102;1.000000
445630.28230103;5696590.16389854;471.79964973;119;116;108;29812.000000;1.000000;1.000000;1.000000;1.000000;0.032076;-0.032076;0.032076;1.000000
445630.31970032;5696590.16509827;471.80135014;186;182;170;46517.000000;1.000000;1.000000;1.000000;1.000000;-0.005323;0.005323;-0.005323;1.000000
445630.17950066;5696590.39289864;471.80704977;161;156;150;40092.000000;1.000000;1.000000;1.000000;1.000000;-0.075151;0.075151;-0.075151;1.000000
445630.40450104;5696590.38419922;471.77514984;181;176;167;45232.000000;1.000000;1.000000;1.000000;1.000000;0.054199;-0.054199;0.054199;1.000000
445630.17700203;5696590.43989952;471.80284979;45;37;31;9766.000000;1.000000;1.000000;1.000000;1.000000;-0.118241;0.118241;-0.118241;1.000000
445630.53910263;5696590.25999840;471.74714996;138;135;128;34695.000000;1.000000;1.000000;1.000000;1.000000;0.070002;-0.070002;0.070002;1.000000
445630.26010139;5696590.24779900;471.79264977;121;119;117;30583.000000;1.000000;1.000000;1.000000;1.000000;0.054276;-0.054276;0.054276;1.000000
445630.44000061;5696590.38569839;471.76984980;129;125;116;32125.000000;1.000000;1.000000;1.000000;1.000000;-0.055698;0.055698;-0.055698;1.000000
445630.37059982;5696590.27059944;471.77234985;81;80;81;20560.000000;1.000000;1.000000;1.000000;1.000000;-0.056223;0.056223;-0.056223;1.000000
445630.55050095;5696590.00669868;471.74704983;180;172;159;44204.000000;1.000000;1.000000;1.000000;1.000000;-0.176699;0.176699;-0.176699;1.000000
445630.55070313;5696590.39180000;471.76324989;177;170;157;43690.000000;1.000000;1.000000;1.000000;1.000000;-0.013674;0.013674;-0.013674;1.000000
445630.60379990;5696590.22599991;471.74504997;101;100;95;25443.000000;1.000000;1.000000;1.000000;1.000000;-0.104012;0.104012;-0.104012;1.000000
445630.71650131;5696590.22959908;471.74314978;169;166;161;42662.000000;1.000000;1.000000;1.000000;1.000000;-0.104000;0.104000;-0.104000;1.000000
445630.43190201;5696590.37469872;471.76935007;126;122;113;31354.000000;1.000000;1.000000;1.000000;1.000000;0.044699;-0.044699;0.044699;1.000000
445630.28950317;5696589.97909935;471.77444984;157;156;152;39835.000000;1.000000;1.000000;1.000000;1.000000;0.025543;-0.025543;0.025543;1.000000
445630.56520279;5696589.86059959;471.73894979;170;164;150;42148.000000;1.000000;1.000000;1.000000;1.000000;-0.030600;0.030600;-0.030600;1.000000
445630.24220093;5696590.20969971;471.79834988;86;86;81;21845.000000;1.000000;1.000000;1.000000;1.000000;0.040373;-0.040373;0.040373;1.000000
445630.51510056;5696590.38809975;471.76625015;162;157;146;40349.000000;1.000000;1.000000;1.000000;1.000000;-0.049276;0.049276;-0.049276;1.000000
445630.40380295;5696589.94529922;471.76294996;160;155;145;39835.000000;1.000000;1.000000;1.000000;1.000000;-0.097897;0.097897;-0.097897;1.000000
445630.46700104;5696589.96759995;471.75444986;192;185;174;47545.000000;1.000000;1.000000;1.000000;1.000000;-0.137648;0.137648;-0.137648;1.000000
445630.68010147;5696590.19100006;471.74344971;217;215;208;54998.000000;1.000000;1.000000;1.000000;1.000000;-0.139000;0.139000;-0.139000;1.000000
445630.64600189;5696589.89979942;471.74074986;152;145;130;37265.000000;1.000000;1.000000;1.000000;1.000000;0.069799;-0.069799;0.069799;1.000000
445630.62380035;5696590.18919952;471.74314978;136;135;128;34438.000000;1.000000;1.000000;1.000000;1.000000;-0.140800;0.140800;-0.140800;1.000000
445630.72160156;5696590.33199890;471.73764994;105;103;99;26471.000000;1.000000;1.000000;1.000000;1.000000;0.032287;-0.032287;0.032287;1.000000
445630.32980164;5696589.90539940;471.76615002;144;138;129;35466.000000;1.000000;1.000000;1.000000;1.000000;0.076961;-0.076961;0.076961;1.000000
445630.50200089;5696590.01579865;471.75194981;107;95;80;24672.000000;1.000000;1.000000;1.000000;1.000000;-0.185799;0.185799;-0.185799;1.000000
445630.53960236;5696590.01699837;471.75134995;160;151;139;39064.000000;1.000000;1.000000;1.000000;1.000000;-0.186998;0.186998;-0.186998;1.000000
445630.25710114;5696590.08929832;471.78835012;169;165;159;42405.000000;1.000000;1.000000;1.000000;1.000000;0.036474;-0.036474;0.036474;1.000000
445630.63250168;5696590.20699890;471.74375011;144;143;137;36494.000000;1.000000;1.000000;1.000000;1.000000;-0.123069;0.123069;-0.123069;1.000000
445630.68360336;5696589.90109833;471.73784973;162;157;143;40092.000000;1.000000;1.000000;1.000000;1.000000;0.071098;-0.071098;0.071098;1.000000
445630.24420174;5696590.15349968;471.79314997;86;83;79;21331.000000;1.000000;1.000000;1.000000;1.000000;0.023575;-0.023575;0.023575;1.000000
445630.38900192;5696590.24309929;471.77514984;34;33;36;8481.000000;1.000000;1.000000;1.000000;1.000000;-0.074625;0.074625;-0.074625;1.000000
445630.65580185;5696590.35669907;471.74424984;167;162;153;41634.000000;1.000000;1.000000;1.000000;1.000000;0.026699;-0.026699;0.026699;1.000000
445630.28430183;5696589.92349823;471.77594997;106;102;95;26214.000000;1.000000;1.000000;1.000000;1.000000;0.063675;-0.063675;0.063675;1.000000
445630.37800034;5696590.07599838;471.77495005;88;82;70;21074.000000;1.000000;1.000000;1.000000;1.000000;-0.063623;0.063623;-0.063623;1.000000
445630.38840302;5696590.11239822;471.77584984;193;186;173;47802.000000;1.000000;1.000000;1.000000;1.000000;-0.074026;0.074026;-0.074026;1.000000
445630.14660080;5696590.24169930;471.80845024;114;115;115;29298.000000;1.000000;1.000000;1.000000;1.000000;-0.099121;0.099121;-0.099121;1.000000
445630.46680267;5696590.17289932;471.77084972;59;57;52;14649.000000;1.000000;1.000000;1.000000;1.000000;-0.152426;0.152426;-0.152426;1.000000
445630.73710068;5696590.39829834;471.73915007;140;134;125;34438.000000;1.000000;1.000000;1.000000;1.000000;0.083320;-0.083320;0.083320;1.000000
445630.31970032;5696589.92499931;471.77054979;180;177;170;45489.000000;1.000000;1.000000;1.000000;1.000000;-0.060213;0.060213;-0.060213;1.000000
445630.25320061;5696590.40479858;471.80354979;57;53;50;13621.000000;1.000000;1.000000;1.000000;1.000000;-0.074799;0.074799;-0.074799;1.000000
445630.72470291;5696590.26629837;471.73934986;149;146;140;37522.000000;1.000000;1.000000;1.000000;1.000000;-0.072841;0.072841;-0.072841;1.000000
445630.62610062;5696590.39429863;471.75505020;149;143;133;36751.000000;1.000000;1.000000;1.000000;1.000000;0.061724;-0.061724;0.061724;1.000000
445630.27850159;5696590.47259911;471.79855015;163;158;151;40606.000000;1.000000;1.000000;1.000000;1.000000;-0.142674;0.142674;-0.142674;1.000000
445630.42840012;5696590.44030006;471.77694990;148;142;132;36494.000000;1.000000;1.000000;1.000000;1.000000;0.110300;-0.110300;0.110300;1.000000
445630.46610077;5696590.44159897;471.77164986;169;165;156;42405.000000;1.000000;1.000000;1.000000;1.000000;-0.098276;0.098276;-0.098276;1.000000
445630.24920090;5696590.07839973;471.78554966;204;200;193;51400.000000;1.000000;1.000000;1.000000;1.000000;0.028574;-0.028574;0.028574;1.000000
445630.28470238;5696590.08209999;471.78484966;179;173;166;44718.000000;1.000000;1.000000;1.000000;1.000000;0.029675;-0.029675;0.029675;1.000000
445630.15790184;5696590.00049980;471.78274967;161;155;146;39835.000000;1.000000;1.000000;1.000000;1.000000;-0.062725;0.062725;-0.062725;1.000000
445630.12610062;5696590.09199913;471.79645016;184;177;168;45746.000000;1.000000;1.000000;1.000000;1.000000;-0.094526;0.094526;-0.094526;1.000000
445630.14400108;5696589.92699821;471.78364994;59;50;41;13107.000000;1.000000;1.000000;1.000000;1.000000;-0.076626;0.076626;-0.076626;1.000000
445630.61200150;5696590.26269920;471.74354984;200;199;196;50886.000000;1.000000;1.000000;1.000000;1.000000;-0.067301;0.067301;-0.067301;1.000000
445630.65610321;5696590.13249977;471.73934986;40;37;34;9509.000000;1.000000;1.000000;1.000000;1.000000;-0.197500;0.197500;-0.197500;1.000000
445630.70220001;5696590.35019882;471.73934986;143;139;133;35723.000000;1.000000;1.000000;1.000000;1.000000;0.023925;-0.023925;0.023925;1.000000
445630.39579971;5696590.16999825;471.78385021;179;176;168;45232.000000;1.000000;1.000000;1.000000;1.000000;-0.081423;0.081423;-0.081423;1.000000
445630.12440117;5696589.94289978;471.78294994;122;113;103;29298.000000;1.000000;1.000000;1.000000;1.000000;-0.096226;0.096226;-0.096226;1.000000
445630.61670120;5696590.18750008;471.74284985;137;135;128;34438.000000;1.000000;1.000000;1.000000;1.000000;-0.142500;0.142500;-0.142500;1.000000
445630.28530128;5696590.08909996;471.78494980;184;178;169;45746.000000;1.000000;1.000000;1.000000;1.000000;0.029076;-0.029076;0.029076;1.000000
445630.32290085;5696590.09029968;471.78434994;150;144;134;37008.000000;1.000000;1.000000;1.000000;1.000000;-0.008524;0.008524;-0.008524;1.000000
445630.24540146;5696590.11599930;471.79274990;121;118;112;30326.000000;1.000000;1.000000;1.000000;1.000000;0.024775;-0.024775;0.024775;1.000000
445630.62210281;5696590.24539955;471.74144985;114;113;110;28784.000000;1.000000;1.000000;1.000000;1.000000;-0.084600;0.084600;-0.084600;1.000000
445630.40080078;5696590.19759949;471.78214981;80;77;72;19789.000000;1.000000;1.000000;1.000000;1.000000;-0.086424;0.086424;-0.086424;1.000000
445630.62320145;5696590.20789917;471.74335005;161;160;154;40863.000000;1.000000;1.000000;1.000000;1.000000;-0.122101;0.122101;-0.122101;1.000000
445630.33160217;5696590.08249863;471.78224995;179;172;164;44461.000000;1.000000;1.000000;1.000000;1.000000;-0.017225;0.017225;-0.017225;1.000000
445630.36940201;5696590.08599861;471.77934982;127;122;111;31354.000000;1.000000;1.000000;1.000000;1.000000;-0.055025;0.055025;-0.055025;1.000000
445630.65419968;5696589.93869980;471.74394991;145;137;124;35209.000000;1.000000;1.000000;1.000000;1.000000;0.108700;-0.108700;0.108700;1.000000
445630.59760101;5696589.98369987;471.74424984;171;164;151;42148.000000;1.000000;1.000000;1.000000;1.000000;-0.153700;0.153700;-0.153700;1.000000
445630.17940147;5696590.36489876;471.80205013;152;147;140;37779.000000;1.000000;1.000000;1.000000;1.000000;-0.054014;0.054014;-0.054014;1.000000
445630.34340103;5696590.02789886;471.77054979;88;88;82;22359.000000;1.000000;1.000000;1.000000;1.000000;-0.029024;0.029024;-0.029024;1.000000
445630.21700104;5696590.36609848;471.80144979;144;140;134;35980.000000;1.000000;1.000000;1.000000;1.000000;-0.036280;0.036280;-0.036280;1.000000
445630.63020142;5696589.85459908;471.73714973;170;163;147;41891.000000;1.000000;1.000000;1.000000;1.000000;-0.024599;0.024599;-0.024599;1.000000
445630.28890045;5696589.99779900;471.77465012;216;218;214;55512.000000;1.000000;1.000000;1.000000;1.000000;0.025476;-0.025476;0.025476;1.000000
445630.49410065;5696590.00719841;471.75374987;101;91;77;23644.000000;1.000000;1.000000;1.000000;1.000000;-0.177209;0.177209;-0.177209;1.000000
445630.27040108;5696590.21169861;471.79964973;34;31;27;7967.000000;1.000000;1.000000;1.000000;1.000000;0.043976;-0.043976;0.043976;1.000000
445630.61260040;5696590.24389847;471.74335005;142;142;139;36237.000000;1.000000;1.000000;1.000000;1.000000;-0.086102;0.086102;-0.086102;1.000000
445630.61730011;5696590.16879852;471.74265005;141;139;132;35466.000000;1.000000;1.000000;1.000000;1.000000;-0.161201;0.161201;-0.161201;1.000000
445630.58080109;5696590.13009842;471.74524977;95;92;88;23644.000000;1.000000;1.000000;1.000000;1.000000;-0.199902;0.199902;-0.199902;1.000000
445630.61850174;5696590.13130005;471.74224998;81;78;74;20046.000000;1.000000;1.000000;1.000000;1.000000;-0.198700;0.198700;-0.198700;1.000000
445630.42980011;5696590.40289886;471.77194979;145;141;133;36237.000000;1.000000;1.000000;1.000000;1.000000;0.072899;-0.072899;0.072899;1.000000
445630.46759995;5696590.40649994;471.76895000;129;122;112;31354.000000;1.000000;1.000000;1.000000;1.000000;0.076500;-0.076500;0.076500;1.000000
445630.43110092;5696590.36549957;471.76914980;146;141;133;36237.000000;1.000000;1.000000;1.000000;1.000000;0.035500;-0.035500;0.035500;1.000000
445630.25440224;5696590.36729820;471.80314972;194;192;185;49087.000000;1.000000;1.000000;1.000000;1.000000;-0.037298;0.037298;-0.037298;1.000000
445630.55720337;5696590.27939995;471.74825003;168;167;159;42662.000000;1.000000;1.000000;1.000000;1.000000;-0.050600;0.050600;-0.050600;1.000000
445630.47710236;5696589.97599991;471.75495007;188;182;170;46774.000000;1.000000;1.000000;1.000000;1.000000;-0.146000;0.146000;-0.146000;1.000000
445630.37250336;5696590.41979988;471.78114988;168;159;149;41120.000000;1.000000;1.000000;1.000000;1.000000;0.089800;-0.089800;0.089800;1.000000
445630.65789993;5696590.30059822;471.73675014;162;158;151;40606.000000;1.000000;1.000000;1.000000;1.000000;-0.029402;0.029402;-0.029402;1.000000
445630.68970306;5696590.19240006;471.74154999;183;180;174;46260.000000;1.000000;1.000000;1.000000;1.000000;-0.137600;0.137600;-0.137600;1.000000
445630.69569977;5696590.30409821;471.73614981;193;190;184;48830.000000;1.000000;1.000000;1.000000;1.000000;-0.026662;0.026662;-0.026662;1.000000
445630.22480209;5696590.17159851;471.79484989;112;109;103;28013.000000;1.000000;1.000000;1.000000;1.000000;0.004175;-0.004175;0.004175;1.000000
445630.39949997;5696590.25389870;471.77105000;35;33;34;8481.000000;1.000000;1.000000;1.000000;1.000000;-0.076101;0.076101;-0.076101;1.000000
445630.26220139;5696590.17279823;471.79654982;146;145;138;37008.000000;1.000000;1.000000;1.000000;1.000000;0.041574;-0.041574;0.041574;1.000000
445630.73430069;5696590.26779945;471.73745014;150;147;142;37779.000000;1.000000;1.000000;1.000000;1.000000;-0.076727;0.076727;-0.076727;1.000000
445630.58800323;5696589.95430000;471.73875000;152;144;130;37008.000000;1.000000;1.000000;1.000000;1.000000;0.124300;-0.124300;0.124300;1.000000
445630.66629990;5696589.86529930;471.73654987;171;163;149;41891.000000;1.000000;1.000000;1.000000;1.000000;-0.035299;0.035299;-0.035299;1.000000
445630.34560211;5696589.95290001;471.77204992;193;193;187;49344.000000;1.000000;1.000000;1.000000;1.000000;-0.044748;0.044748;-0.044748;1.000000
445630.51950272;5696590.27579887;471.74884989;204;202;195;51657.000000;1.000000;1.000000;1.000000;1.000000;-0.054201;0.054201;-0.054201;1.000000
445630.59710129;5696590.20559891;471.74685003;190;188;181;48059.000000;1.000000;1.000000;1.000000;1.000000;-0.124410;0.124410;-0.124410;1.000000
445630.59819992;5696589.96269997;471.73934986;181;172;159;44461.000000;1.000000;1.000000;1.000000;1.000000;-0.132700;0.132700;-0.132700;1.000000
445630.56180008;5696589.92399986;471.73955013;141;134;119;34438.000000;1.000000;1.000000;1.000000;1.000000;-0.094035;0.094035;-0.094035;1.000000
445630.59959991;5696589.92749985;471.73894979;88;77;63;20046.000000;1.000000;1.000000;1.000000;1.000000;-0.097500;0.097500;-0.097500;1.000000
445630.63820084;5696589.89119919;471.74025013;164;158;143;40606.000000;1.000000;1.000000;1.000000;1.000000;0.061199;-0.061199;0.061199;1.000000
445630.28410156;5696590.33189972;471.79705002;159;156;150;40092.000000;1.000000;1.000000;1.000000;1.000000;-0.001900;0.001900;-0.001900;1.000000
445630.67720230;5696589.85729988;471.73694994;183;174;159;44975.000000;1.000000;1.000000;1.000000;1.000000;0.027300;-0.027300;0.027300;1.000000
445630.30920227;5696589.98899849;471.77314999;194;195;191;49858.000000;1.000000;1.000000;1.000000;1.000000;0.005175;-0.005175;0.005175;1.000000
445630.17490204;5696590.29059990;471.80095007;156;154;152;39578.000000;1.000000;1.000000;1.000000;1.000000;0.060358;-0.060358;0.060358;1.000000
445630.68300064;5696589.94999893;471.75005009;202;198;189;50886.000000;1.000000;1.000000;1.000000;1.000000;0.119999;-0.119999;0.119999;1.000000
445630.24680145;5696589.89209946;471.76454975;175;168;159;43433.000000;1.000000;1.000000;1.000000;1.000000;0.026175;-0.026175;0.026175;1.000000
445630.12840088;5696590.06379898;471.79155018;137;134;125;34181.000000;1.000000;1.000000;1.000000;1.000000;-0.092226;0.092226;-0.092226;1.000000
445630.56860168;5696590.20349892;471.75254967;175;173;167;44204.000000;1.000000;1.000000;1.000000;1.000000;-0.126572;0.126572;-0.126572;1.000000
445630.35530289;5696590.43769844;471.78525021;155;145;134;37522.000000;1.000000;1.000000;1.000000;1.000000;0.107698;-0.107698;0.107698;1.000000
445630.68000229;5696590.23779877;471.73934986;135;133;128;34181.000000;1.000000;1.000000;1.000000;1.000000;-0.092201;0.092201;-0.092201;1.000000
445630.13870247;5696590.23309906;471.81024982;130;132;131;33667.000000;1.000000;1.000000;1.000000;1.000000;-0.099965;0.099965;-0.099965;1.000000
445630.29750259;5696589.98999985;471.77495005;200;200;197;51143.000000;1.000000;1.000000;1.000000;1.000000;0.016874;-0.016874;0.016874;1.000000
445630.22360237;5696590.41219910;471.80224993;82;78;75;20046.000000;1.000000;1.000000;1.000000;1.000000;-0.082199;0.082199;-0.082199;1.000000
445630.71990021;5696590.16399963;471.73794987;124;121;113;31097.000000;1.000000;1.000000;1.000000;1.000000;-0.168783;0.168783;-0.168783;1.000000
445630.35430344;5696590.25089844;471.78294994;53;51;51;13107.000000;1.000000;1.000000;1.000000;1.000000;-0.039927;0.039927;-0.039927;1.000000
445630.43820007;5696590.21759995;471.77244999;39;35;34;9252.000000;1.000000;1.000000;1.000000;1.000000;-0.112400;0.112400;-0.112400;1.000000
445630.43910034;5696590.18009956;471.77664997;104;103;97;26214.000000;1.000000;1.000000;1.000000;1.000000;-0.124723;0.124723;-0.124723;1.000000
445630.44040115;5696590.14259918;471.77395012;203;202;196;51657.000000;1.000000;1.000000;1.000000;1.000000;-0.126024;0.126024;-0.126024;1.000000
445630.47820099;5696590.14389999;471.76865007;96;95;90;24158.000000;1.000000;1.000000;1.000000;1.000000;-0.163824;0.163824;-0.163824;1.000000
445630.40780075;5696590.06629951;471.76924994;154;149;141;38293.000000;1.000000;1.000000;1.000000;1.000000;-0.093424;0.093424;-0.093424;1.000000
445630.34230240;5696590.29639824;471.78064968;65;61;57;15677.000000;1.000000;1.000000;1.000000;1.000000;-0.027925;0.027925;-0.027925;1.000000
445630.28680237;5696590.02599915;471.77724983;133;132;127;33667.000000;1.000000;1.000000;1.000000;1.000000;0.027575;-0.027575;0.027575;1.000000
445630.22970207;5696590.09649857;471.78945019;208;204;198;52428.000000;1.000000;1.000000;1.000000;1.000000;0.009075;-0.009075;0.009075;1.000000
445630.72739990;5696590.22159966;471.74354984;136;133;126;34181.000000;1.000000;1.000000;1.000000;1.000000;-0.114876;0.114876;-0.114876;1.000000
445630.61600311;5696590.18059929;471.74274971;135;134;127;34181.000000;1.000000;1.000000;1.000000;1.000000;-0.149401;0.149401;-0.149401;1.000000
445630.31030090;5696589.95150002;471.77514984;163;163;158;41634.000000;1.000000;1.000000;1.000000;1.000000;0.033638;-0.033638;0.033638;1.000000
445630.34420212;5696590.03709991;471.77064993;82;80;73;20303.000000;1.000000;1.000000;1.000000;1.000000;-0.029825;0.029825;-0.029825;1.000000
445630.19890221;5696589.91039856;471.77425005;128;119;110;30840.000000;1.000000;1.000000;1.000000;1.000000;-0.021725;0.021725;-0.021725;1.000000
445630.69090088;5696590.18059929;471.74144985;213;211;204;53970.000000;1.000000;1.000000;1.000000;1.000000;-0.149408;0.149408;-0.149408;1.000000
445630.64680298;5696589.90909966;471.74084999;167;160;145;41120.000000;1.000000;1.000000;1.000000;1.000000;0.079100;-0.079100;0.079100;1.000000
445630.49430283;5696590.44359978;471.77294971;146;142;134;36494.000000;1.000000;1.000000;1.000000;1.000000;-0.070074;0.070074;-0.070074;1.000000
445630.23660095;5696589.91159828;471.77134993;136;130;121;33410.000000;1.000000;1.000000;1.000000;1.000000;0.015974;-0.015974;0.015974;1.000000
445630.55529984;5696589.87799843;471.73635008;169;164;152;42148.000000;1.000000;1.000000;1.000000;1.000000;-0.048003;0.048003;-0.048003;1.000000
445630.31920059;5696589.97159966;471.77574970;153;153;150;39064.000000;1.000000;1.000000;1.000000;1.000000;-0.014131;0.014131;-0.014131;1.000000
445630.31590088;5696590.44579895;471.79524996;119;114;104;29298.000000;1.000000;1.000000;1.000000;1.000000;-0.115799;0.115799;-0.115799;1.000000
445630.63020142;5696589.88029869;471.73985006;169;162;147;41634.000000;1.000000;1.000000;1.000000;1.000000;-0.050299;0.050299;-0.050299;1.000000
445630.19290169;5696590.48739822;471.80874969;156;146;135;37779.000000;1.000000;1.000000;1.000000;1.000000;-0.159821;0.159821;-0.159821;1.000000
445630.48410233;5696590.46089943;471.77734997;148;144;137;37008.000000;1.000000;1.000000;1.000000;1.000000;-0.080275;0.080275;-0.080275;1.000000
445630.47860153;5696589.91289909;471.74735023;152;146;136;37522.000000;1.000000;1.000000;1.000000;1.000000;-0.082899;0.082899;-0.082899;1.000000
445630.70320328;5696589.88519867;471.73854973;86;79;62;20303.000000;1.000000;1.000000;1.000000;1.000000;0.055199;-0.055199;0.055199;1.000000
445630.71490295;5696590.28589828;471.73915007;80;77;71;19789.000000;1.000000;1.000000;1.000000;1.000000;-0.050956;0.050956;-0.050956;1.000000
445630.53210266;5696590.21379860;471.75565006;120;117;111;30069.000000;1.000000;1.000000;1.000000;1.000000;-0.116201;0.116201;-0.116201;1.000000
445630.45860107;5696590.16189964;471.77495005;100;98;93;25186.000000;1.000000;1.000000;1.000000;1.000000;-0.144224;0.144224;-0.144224;1.000000
445630.58970078;5696590.38130005;471.75794985;172;164;152;42405.000000;1.000000;1.000000;1.000000;1.000000;0.025324;-0.025324;0.025324;1.000000
445630.71860321;5696590.17349823;471.73565008;92;88;82;22616.000000;1.000000;1.000000;1.000000;1.000000;-0.159207;0.159207;-0.159207;1.000000
445630.21020134;5696590.29209908;471.79794981;135;133;129;34181.000000;1.000000;1.000000;1.000000;1.000000;0.039309;-0.039309;0.039309;1.000000
445630.39060028;5696590.43909843;471.78224995;163;155;146;40092.000000;1.000000;1.000000;1.000000;1.000000;0.109098;-0.109098;0.109098;1.000000
445630.65210159;5696590.42229851;471.75425007;118;112;103;28784.000000;1.000000;1.000000;1.000000;1.000000;0.073205;-0.073205;0.073205;1.000000
445630.41450317;5696590.11469849;471.77244999;187;178;166;46003.000000;1.000000;1.000000;1.000000;1.000000;-0.100126;0.100126;-0.100126;1.000000
445630.68980225;5696590.42349823;471.75124981;118;111;103;28784.000000;1.000000;1.000000;1.000000;1.000000;-0.061866;0.061866;-0.061866;1.000000
445630.30090149;5696589.95229919;471.77705004;149;150;146;38293.000000;1.000000;1.000000;1.000000;1.000000;0.035232;-0.035232;0.035232;1.000000
445630.15580185;5696590.05659874;471.79034998;187;183;177;47031.000000;1.000000;1.000000;1.000000;1.000000;-0.064825;0.064825;-0.064825;1.000000
445630.39700134;5696590.29859932;471.76454975;64;62;60;15934.000000;1.000000;1.000000;1.000000;1.000000;-0.031401;0.031401;-0.031401;1.000000
445630.50500305;5696590.37969978;471.76574995;148;142;131;36494.000000;1.000000;1.000000;1.000000;1.000000;-0.049700;0.049700;-0.049700;1.000000
445630.35290344;5696590.46579941;471.79244997;188;182;173;46774.000000;1.000000;1.000000;1.000000;1.000000;-0.135799;0.135799;-0.135799;1.000000
445630.45010193;5696590.17199905;471.77705004;104;102;97;26214.000000;1.000000;1.000000;1.000000;1.000000;-0.135725;0.135725;-0.135725;1.000000
445630.52589996;5696589.88769920;471.73514988;169;163;152;41891.000000;1.000000;1.000000;1.000000;1.000000;-0.057754;0.057754;-0.057754;1.000000
445630.56330307;5696589.88889893;471.73684980;177;171;157;43947.000000;1.000000;1.000000;1.000000;1.000000;-0.058909;0.058909;-0.058909;1.000000
445630.60070236;5696589.89009865;471.73854973;168;161;146;41377.000000;1.000000;1.000000;1.000000;1.000000;-0.060099;0.060099;-0.060099;1.000000
445630.26140221;5696590.23829849;471.79495003;85;82;81;21074.000000;1.000000;1.000000;1.000000;1.000000;0.052975;-0.052975;0.052975;1.000000
445630.45210083;5696590.11589821;471.77185013;148;140;129;36237.000000;1.000000;1.000000;1.000000;1.000000;-0.137724;0.137724;-0.137724;1.000000
445630.41360291;5696590.13109978;471.77495005;147;138;125;35723.000000;1.000000;1.000000;1.000000;1.000000;-0.099226;0.099226;-0.099226;1.000000
445630.32610138;5696590.45419891;471.79344990;104;97;88;25186.000000;1.000000;1.000000;1.000000;1.000000;0.124199;-0.124199;0.124199;1.000000
445630.48740204;5696590.11729820;471.76874973;215;212;206;54484.000000;1.000000;1.000000;1.000000;1.000000;-0.173025;0.173025;-0.173025;1.000000
445630.29400070;5696590.10919960;471.79024984;168;161;153;41634.000000;1.000000;1.000000;1.000000;1.000000;0.020376;-0.020376;0.020376;1.000000
445630.39840134;5696590.06709869;471.77115013;120;115;106;29555.000000;1.000000;1.000000;1.000000;1.000000;-0.084024;0.084024;-0.084024;1.000000
445630.63950165;5696589.85379990;471.73754980;175;168;152;43176.000000;1.000000;1.000000;1.000000;1.000000;0.023800;-0.023800;0.023800;1.000000
445630.41580017;5696590.07720001;471.76975014;166;160;151;41120.000000;1.000000;1.000000;1.000000;1.000000;-0.101423;0.101423;-0.101423;1.000000
445630.68400009;5696590.33079918;471.73824980;163;160;153;41120.000000;1.000000;1.000000;1.000000;1.000000;0.000799;-0.000799;0.000799;1.000000
445630.41700180;5696590.03979881;471.76935007;83;79;72;20303.000000;1.000000;1.000000;1.000000;1.000000;-0.102625;0.102625;-0.102625;1.000000
445630.38060196;5696590.00109871;471.76954987;164;165;160;42148.000000;1.000000;1.000000;1.000000;1.000000;-0.066225;0.066225;-0.066225;1.000000
445630.21380241;5696590.43189819;471.79974987;128;124;120;31868.000000;1.000000;1.000000;1.000000;1.000000;-0.102126;0.102126;-0.102126;1.000000
445630.58060272;5696589.92459877;471.73805000;108;99;83;25443.000000;1.000000;1.000000;1.000000;1.000000;0.094599;-0.094599;0.094599;1.000000
445630.21850212;5696589.92029961;471.77524998;148;141;131;36494.000000;1.000000;1.000000;1.000000;1.000000;-0.002125;0.002125;-0.002125;1.000000
445630.39960297;5696590.02969940;471.77075006;130;128;122;32639.000000;1.000000;1.000000;1.000000;1.000000;-0.085226;0.085226;-0.085226;1.000000
445630.64960297;5696589.86219986;471.73815014;178;171;157;43947.000000;1.000000;1.000000;1.000000;1.000000;0.032200;-0.032200;0.032200;1.000000
445630.23360069;5696590.21749886;471.79804995;141;141;136;35980.000000;1.000000;1.000000;1.000000;1.000000;0.043891;-0.043891;0.043891;1.000000
445630.54269989;5696590.38089951;471.76275017;186;181;170;46517.000000;1.000000;1.000000;1.000000;1.000000;-0.021677;0.021677;-0.021677;1.000000
445630.56369980;5696590.32539948;471.75145008;142;139;131;35723.000000;1.000000;1.000000;1.000000;1.000000;-0.004601;0.004601;-0.004601;1.000000
445630.37600143;5696590.38209923;471.78084995;102;95;86;24672.000000;1.000000;1.000000;1.000000;1.000000;0.052099;-0.052099;0.052099;1.000000
