//X;Y;Z;R;G;B;Intensity;Return Number;Number Of Returns;Scan Direction Flag;Point Source ID;C2M signed distances[-][<0.8];C2M signed distances[<0.4];C2M signed distances[-][<0.2];Stump66
445641.08279999;5696564.96229942;470.62994983;199;199;197;50886.000000;1.000000;1.000000;1.000000;1.000000;0.018423;-0.018423;0.018423;1.000000
445641.57140167;5696564.91009911;470.62574985;43;36;27;9509.000000;1.000000;1.000000;1.000000;1.000000;0.069525;-0.069525;0.069525;1.000000
445641.49960144;5696564.79289825;470.62815001;152;152;142;38550.000000;1.000000;1.000000;1.000000;1.000000;0.037171;-0.037171;0.037171;1.000000
445641.50670059;5696564.64509972;470.62905004;72;65;55;16962.000000;1.000000;1.000000;1.000000;1.000000;0.067324;-0.067324;0.067324;1.000000
445641.56080063;5696564.69389923;470.62034990;70;58;51;15420.000000;1.000000;1.000000;1.000000;1.000000;0.097326;-0.097326;0.097326;1.000000
445641.08640106;5696564.92469986;470.62734987;56;57;50;14135.000000;1.000000;1.000000;1.000000;1.000000;0.022024;-0.022024;0.022024;1.000000
445641.38599976;5696564.42509850;470.62095000;133;124;111;32125.000000;1.000000;1.000000;1.000000;1.000000;-0.053377;0.053377;-0.053377;1.000000
445641.34980209;5696564.38649948;470.61885001;186;184;175;47031.000000;1.000000;1.000000;1.000000;1.000000;-0.089575;0.089575;-0.089575;1.000000
445641.02790268;5696564.97899826;470.63695004;223;222;219;56797.000000;1.000000;1.000000;1.000000;1.000000;-0.036474;0.036474;-0.036474;1.000000
445641.02919968;5696564.94149979;470.63424994;92;89;85;22873.000000;1.000000;1.000000;1.000000;1.000000;-0.035177;0.035177;-0.035177;1.000000
445640.99290283;5696564.90289886;470.63444998;87;83;78;21331.000000;1.000000;1.000000;1.000000;1.000000;-0.071474;0.071474;-0.071474;1.000000
445641.03030212;5696564.90399940;470.63614990;96;95;89;24158.000000;1.000000;1.000000;1.000000;1.000000;-0.034075;0.034075;-0.034075;1.000000
445641.03380020;5696564.86859901;470.64054992;40;41;35;10280.000000;1.000000;1.000000;1.000000;1.000000;-0.030577;0.030577;-0.030577;1.000000
445641.06900223;5696564.86779984;470.63514997;165;164;156;41891.000000;1.000000;1.000000;1.000000;1.000000;0.004625;-0.004625;0.004625;1.000000
445641.29190262;5696564.87739952;470.63835003;63;57;52;14906.000000;1.000000;1.000000;1.000000;1.000000;-0.047400;0.047400;-0.047400;1.000000
445641.21809967;5696564.83749969;470.63695004;92;85;77;22102.000000;1.000000;1.000000;1.000000;1.000000;-0.007500;0.007500;-0.007500;1.000000
445641.25570114;5696564.83869942;470.63625004;66;60;53;15677.000000;1.000000;1.000000;1.000000;1.000000;-0.008699;0.008699;-0.008699;1.000000
445641.10900314;5696564.79629906;470.63844993;99;95;85;24415.000000;1.000000;1.000000;1.000000;1.000000;0.033701;-0.033701;0.033701;1.000000
445641.29300125;5696564.83989914;470.64034988;36;31;25;7967.000000;1.000000;1.000000;1.000000;1.000000;-0.009899;0.009899;-0.009899;1.000000
445641.40580185;5696564.84579857;470.63844993;77;71;62;18247.000000;1.000000;1.000000;1.000000;1.000000;0.015799;-0.015799;0.015799;1.000000
445641.14640244;5696564.79739960;470.64014985;135;131;121;33667.000000;1.000000;1.000000;1.000000;1.000000;0.032600;-0.032600;0.032600;1.000000
445641.22179993;5696564.80219849;470.63664987;82;76;67;19532.000000;1.000000;1.000000;1.000000;1.000000;0.027802;-0.027802;0.027802;1.000000
445641.18400009;5696564.79859932;470.63954999;136;131;123;33667.000000;1.000000;1.000000;1.000000;1.000000;0.031401;-0.031401;0.031401;1.000000
445641.25930222;5696564.80329903;470.63835003;151;147;140;37779.000000;1.000000;1.000000;1.000000;1.000000;0.026701;-0.026701;0.026701;1.000000
445641.07489975;5696564.75739868;470.63874986;181;177;169;45489.000000;1.000000;1.000000;1.000000;1.000000;0.072601;-0.072601;0.072601;1.000000
445641.14770325;5696564.75999840;470.63745000;73;66;59;17219.000000;1.000000;1.000000;1.000000;1.000000;-0.070002;0.070002;-0.070002;1.000000
445641.40680130;5696564.80829819;470.64275004;78;73;68;18761.000000;1.000000;1.000000;1.000000;1.000000;-0.021702;0.021702;-0.021702;1.000000
445641.44470032;5696564.80959900;470.63514997;44;41;36;10537.000000;1.000000;1.000000;1.000000;1.000000;0.020401;-0.020401;0.020401;1.000000
445641.25050171;5696564.78319939;470.63535001;106;102;99;26214.000000;1.000000;1.000000;1.000000;1.000000;0.046801;-0.046801;0.046801;1.000000
445641.11030014;5696564.75879868;470.63574984;144;137;127;35466.000000;1.000000;1.000000;1.000000;1.000000;0.071201;-0.071201;0.071201;1.000000
445641.18780334;5696564.93849953;470.63675000;133;130;123;33410.000000;1.000000;1.000000;1.000000;1.000000;-0.108500;0.108500;-0.108500;1.000000
445641.16970261;5696564.91909988;470.63564994;110;108;102;27499.000000;1.000000;1.000000;1.000000;1.000000;-0.089100;0.089100;-0.089100;1.000000
445641.17210205;5696564.84639938;470.63954999;140;137;129;35209.000000;1.000000;1.000000;1.000000;1.000000;-0.016399;0.016399;-0.016399;1.000000
445641.28460129;5696564.84999855;470.64004995;62;57;50;14649.000000;1.000000;1.000000;1.000000;1.000000;-0.019999;0.019999;-0.019999;1.000000
445641.47380264;5696564.74609955;470.63574984;119;113;102;29041.000000;1.000000;1.000000;1.000000;1.000000;0.083900;-0.083900;0.083900;1.000000
445641.28830154;5696564.54349907;470.64824988;131;127;112;32382.000000;1.000000;1.000000;1.000000;1.000000;-0.151075;0.151075;-0.151075;1.000000
445641.25210007;5696564.50490006;470.64614989;127;122;109;31354.000000;1.000000;1.000000;1.000000;1.000000;-0.187277;0.187277;-0.187277;1.000000
445641.55389984;5696564.84409912;470.61724998;68;63;51;16191.000000;1.000000;1.000000;1.000000;1.000000;0.014099;-0.014099;0.014099;1.000000
445641.29730042;5696564.71999939;470.66004993;41;39;37;10023.000000;1.000000;1.000000;1.000000;1.000000;0.110001;-0.110001;0.110001;1.000000
445641.34100159;5696564.61089905;470.65604999;113;107;94;27499.000000;1.000000;1.000000;1.000000;1.000000;-0.098375;0.098375;-0.098375;1.000000
445641.26930054;5696564.56859978;470.65464999;76;73;60;18504.000000;1.000000;1.000000;1.000000;1.000000;-0.170076;0.170076;-0.170076;1.000000
445641.49410065;5696564.50389870;470.61745002;112;104;96;26985.000000;1.000000;1.000000;1.000000;1.000000;0.054724;-0.054724;0.054724;1.000000
445641.53420074;5696564.43249901;470.61605002;86;84;79;21588.000000;1.000000;1.000000;1.000000;1.000000;0.094824;-0.094824;0.094824;1.000000
445641.42520340;5696564.39119919;470.61535003;74;67;60;17476.000000;1.000000;1.000000;1.000000;1.000000;-0.014174;0.014174;-0.014174;1.000000
445641.42630203;5696564.35369881;470.61724998;215;214;207;54741.000000;1.000000;1.000000;1.000000;1.000000;-0.013075;0.013075;-0.013075;1.000000
445641.51400192;5696564.51389893;470.61144998;107;98;87;25443.000000;1.000000;1.000000;1.000000;1.000000;0.074625;-0.074625;0.074625;1.000000
445641.40860184;5696564.36239822;470.61194994;215;212;205;54484.000000;1.000000;1.000000;1.000000;1.000000;-0.030775;0.030775;-0.030775;1.000000
445641.32909973;5696564.87850006;470.64474990;148;146;138;37265.000000;1.000000;1.000000;1.000000;1.000000;0.048500;-0.048500;0.048500;1.000000
445641.36800201;5696564.84449966;470.64605000;95;92;83;23387.000000;1.000000;1.000000;1.000000;1.000000;0.014500;-0.014500;0.014500;1.000000
445640.99100311;5696564.93109901;470.63004996;149;142;135;36751.000000;1.000000;1.000000;1.000000;1.000000;-0.073374;0.073374;-0.073374;1.000000
445641.33049973;5696564.84339912;470.64434983;65;63;55;15934.000000;1.000000;1.000000;1.000000;1.000000;0.013399;-0.013399;0.013399;1.000000
445640.99950226;5696564.75490006;470.64704992;62;65;61;16191.000000;1.000000;1.000000;1.000000;1.000000;0.075137;-0.075137;0.075137;1.000000
445641.29660233;5696564.80449875;470.64234998;79;76;71;19532.000000;1.000000;1.000000;1.000000;1.000000;0.025501;-0.025501;0.025501;1.000000
445641.06610306;5696564.93349846;470.62885000;80;79;73;20046.000000;1.000000;1.000000;1.000000;1.000000;0.001726;-0.001726;0.001726;1.000000
445641.04040344;5696564.71829994;470.65074994;112;116;105;29041.000000;1.000000;1.000000;1.000000;1.000000;0.111700;-0.111700;0.111700;1.000000
445641.26110275;5696564.72819908;470.64914991;43;40;39;10280.000000;1.000000;1.000000;1.000000;1.000000;0.101801;-0.101801;0.101801;1.000000
445641.10390289;5696564.93699844;470.62824990;176;177;171;45232.000000;1.000000;1.000000;1.000000;1.000000;0.039526;-0.039526;0.039526;1.000000
445641.52919968;5696564.55209930;470.61264994;105;97;84;24929.000000;1.000000;1.000000;1.000000;1.000000;0.089823;-0.089823;0.089823;1.000000
445641.03930099;5696564.70899971;470.65524985;112;119;105;29555.000000;1.000000;1.000000;1.000000;1.000000;0.121000;-0.121000;0.121000;1.000000
445641.20580109;5696564.95779999;470.64014985;147;145;138;37008.000000;1.000000;1.000000;1.000000;1.000000;-0.127800;0.127800;-0.127800;1.000000
445641.47840317;5696564.67089851;470.63734986;101;96;89;24672.000000;1.000000;1.000000;1.000000;1.000000;0.043210;-0.043210;0.043210;1.000000
445641.55630310;5696564.60299881;470.63544991;184;180;168;46003.000000;1.000000;1.000000;1.000000;1.000000;0.101824;-0.101824;0.101824;1.000000
445641.42250259;5696564.46609886;470.62304999;92;86;76;22102.000000;1.000000;1.000000;1.000000;1.000000;-0.016874;0.016874;-0.016874;1.000000
445641.42380341;5696564.42859848;470.62034990;77;70;61;18247.000000;1.000000;1.000000;1.000000;1.000000;-0.015574;0.015574;-0.015574;1.000000
445641.52330215;5696564.69269951;470.61864998;31;22;17;6168.000000;1.000000;1.000000;1.000000;1.000000;0.093281;-0.093281;0.093281;1.000000
445641.52910049;5696564.58009918;470.61994984;139;133;121;34181.000000;1.000000;1.000000;1.000000;1.000000;0.089724;-0.089724;0.089724;1.000000
445641.49279984;5696564.54139908;470.62014987;126;118;108;30583.000000;1.000000;1.000000;1.000000;1.000000;0.053423;-0.053423;0.053423;1.000000
445641.25399979;5696564.94179924;470.62815001;105;102;95;26214.000000;1.000000;1.000000;1.000000;1.000000;-0.111799;0.111799;-0.111799;1.000000
445641.04720123;5696564.93289955;470.63264992;96;95;89;24158.000000;1.000000;1.000000;1.000000;1.000000;-0.017176;0.017176;-0.017176;1.000000
445641.12230118;5696564.93529900;470.63144996;222;222;217;56797.000000;1.000000;1.000000;1.000000;1.000000;0.057924;-0.057924;0.057924;1.000000
445641.27050217;5696564.94259842;470.62654998;95;91;85;23387.000000;1.000000;1.000000;1.000000;1.000000;-0.112598;0.112598;-0.112598;1.000000
445641.30790146;5696564.94380005;470.62824990;75;69;64;17990.000000;1.000000;1.000000;1.000000;1.000000;0.113800;-0.113800;0.113800;1.000000
445641.08609970;5696564.89889915;470.63164999;128;127;121;32382.000000;1.000000;1.000000;1.000000;1.000000;0.021723;-0.021723;0.021723;1.000000
445641.12380035;5696564.90019997;470.62874987;103;101;96;25957.000000;1.000000;1.000000;1.000000;1.000000;0.059423;-0.059423;0.059423;1.000000
445641.45950134;5696564.91349991;470.62544991;62;56;45;14392.000000;1.000000;1.000000;1.000000;1.000000;-0.042376;0.042376;-0.042376;1.000000
445641.45829971;5696564.87619980;470.62724998;111;103;90;26471.000000;1.000000;1.000000;1.000000;1.000000;-0.043577;0.043577;-0.043577;1.000000
445641.49930008;5696564.83969887;470.62634995;95;92;86;23644.000000;1.000000;1.000000;1.000000;1.000000;-0.002577;0.002577;-0.002577;1.000000
445641.32650192;5696564.94439896;470.63144996;54;48;43;12593.000000;1.000000;1.000000;1.000000;1.000000;0.114399;-0.114399;0.114399;1.000000
445641.10180099;5696564.79459961;470.63815000;102;99;89;25186.000000;1.000000;1.000000;1.000000;1.000000;0.035400;-0.035400;0.035400;1.000000
445641.06690033;5696564.72079857;470.63794996;186;187;175;47545.000000;1.000000;1.000000;1.000000;1.000000;0.109201;-0.109201;0.109201;1.000000
445641.54900177;5696564.74179848;470.61815001;127;113;103;29812.000000;1.000000;1.000000;1.000000;1.000000;-0.088202;0.088202;-0.088202;1.000000
445641.51970108;5696564.55289848;470.61684992;120;112;101;29041.000000;1.000000;1.000000;1.000000;1.000000;0.080324;-0.080324;0.080324;1.000000
445641.35340317;5696564.72179993;470.66264989;23;21;19;5397.000000;1.000000;1.000000;1.000000;1.000000;-0.108250;0.108250;-0.108250;1.000000
445641.06000336;5696564.63449867;470.66464998;18;21;10;4626.000000;1.000000;1.000000;1.000000;1.000000;-0.195501;0.195501;-0.195501;1.000000
445641.31910141;5696564.68279846;470.66995003;86;84;79;21588.000000;1.000000;1.000000;1.000000;1.000000;-0.123911;0.123911;-0.123911;1.000000
445641.28330048;5696564.64649971;470.66314985;76;72;63;18504.000000;1.000000;1.000000;1.000000;1.000000;-0.156076;0.156076;-0.156076;1.000000
445641.32080276;5696564.64769943;470.66254999;130;126;116;32382.000000;1.000000;1.000000;1.000000;1.000000;-0.118574;0.118574;-0.118574;1.000000
445641.35810287;5696564.64889915;470.66664984;146;141;131;36237.000000;1.000000;1.000000;1.000000;1.000000;-0.081274;0.081274;-0.081274;1.000000
445641.39590271;5696564.65009888;470.66135003;74;70;60;17990.000000;1.000000;1.000000;1.000000;1.000000;-0.043474;0.043474;-0.043474;1.000000
445641.47250183;5696564.57819946;470.62664988;191;186;175;47802.000000;1.000000;1.000000;1.000000;1.000000;0.033125;-0.033125;0.033125;1.000000
445641.40190323;5696564.50059898;470.63185002;186;180;171;46260.000000;1.000000;1.000000;1.000000;1.000000;-0.037474;0.037474;-0.037474;1.000000
445641.43960007;5696564.50179871;470.62894990;134;128;119;32896.000000;1.000000;1.000000;1.000000;1.000000;0.000223;-0.000223;0.000223;1.000000
445641.40360077;5696564.46549995;470.62454988;124;116;106;30069.000000;1.000000;1.000000;1.000000;1.000000;-0.035776;0.035776;-0.035776;1.000000
445641.29420288;5696564.42179878;470.62844994;117;109;100;28270.000000;1.000000;1.000000;1.000000;1.000000;-0.145174;0.145174;-0.145174;1.000000
445641.48210342;5696564.35539825;470.62675001;189;189;184;48316.000000;1.000000;1.000000;1.000000;1.000000;0.025398;-0.025398;0.025398;1.000000
445641.25510223;5696564.90429886;470.62774994;41;35;31;9252.000000;1.000000;1.000000;1.000000;1.000000;-0.074299;0.074299;-0.074299;1.000000
445641.05960281;5696564.91539963;470.63294985;79;79;72;20046.000000;1.000000;1.000000;1.000000;1.000000;-0.004774;0.004774;-0.004774;1.000000
445641.09500320;5696564.91689880;470.62765004;76;77;71;19532.000000;1.000000;1.000000;1.000000;1.000000;0.030626;-0.030626;0.030626;1.000000
445641.13230331;5696564.91799934;470.63164999;191;191;187;48830.000000;1.000000;1.000000;1.000000;1.000000;0.067926;-0.067926;0.067926;1.000000
445641.24500092;5696564.92159851;470.62975003;80;73;68;19018.000000;1.000000;1.000000;1.000000;1.000000;-0.091599;0.091599;-0.091599;1.000000
445641.28050049;5696564.92539986;470.62675001;71;65;59;16962.000000;1.000000;1.000000;1.000000;1.000000;-0.095400;0.095400;-0.095400;1.000000
445641.43040283;5696564.93009956;470.63124992;55;51;43;13107.000000;1.000000;1.000000;1.000000;1.000000;-0.071474;0.071474;-0.071474;1.000000
445641.13370331;5696564.88279922;470.63124992;64;60;57;15420.000000;1.000000;1.000000;1.000000;1.000000;-0.052799;0.052799;-0.052799;1.000000
445641.46820267;5696564.93129929;470.62605001;117;112;103;28784.000000;1.000000;1.000000;1.000000;1.000000;-0.033674;0.033674;-0.033674;1.000000
445641.09950073;5696564.84159859;470.63154985;74;69;62;17733.000000;1.000000;1.000000;1.000000;1.000000;-0.011599;0.011599;-0.011599;1.000000
445641.46920212;5696564.89379890;470.62794997;95;88;76;22616.000000;1.000000;1.000000;1.000000;1.000000;-0.032675;0.032675;-0.032675;1.000000
445641.50600250;5696564.86009987;470.62454988;82;78;70;20046.000000;1.000000;1.000000;1.000000;1.000000;0.004126;-0.004126;0.004126;1.000000
445641.50950058;5696564.82239922;470.62424995;134;132;125;33667.000000;1.000000;1.000000;1.000000;1.000000;0.007601;-0.007601;0.007601;1.000000
445641.47500046;5696564.78339966;470.63384988;85;84;74;21331.000000;1.000000;1.000000;1.000000;1.000000;0.046600;-0.046600;0.046600;1.000000
445641.36340149;5696564.70449837;470.66514995;30;27;24;6939.000000;1.000000;1.000000;1.000000;1.000000;-0.091833;0.091833;-0.091833;1.000000
445641.29170044;5696564.66439827;470.66844990;77;75;69;19018.000000;1.000000;1.000000;1.000000;1.000000;-0.148118;0.148118;-0.148118;1.000000
445641.32930191;5696564.66559990;470.66785004;115;113;104;28784.000000;1.000000;1.000000;1.000000;1.000000;-0.110798;0.110798;-0.110798;1.000000
445641.36670120;5696564.66669853;470.66954996;71;68;59;17219.000000;1.000000;1.000000;1.000000;1.000000;-0.073957;0.073957;-0.073957;1.000000
445641.51420029;5696564.67249878;470.62504985;51;44;38;11565.000000;1.000000;1.000000;1.000000;1.000000;0.077553;-0.077553;0.077553;1.000000
445641.44720276;5696564.55939873;470.63224985;100;95;84;24415.000000;1.000000;1.000000;1.000000;1.000000;0.007826;-0.007826;0.007826;1.000000
445641.44820221;5696564.51969917;470.62955000;141;134;125;34695.000000;1.000000;1.000000;1.000000;1.000000;0.008825;-0.008825;0.008825;1.000000
445641.33680161;5696564.47859962;470.63104989;135;129;118;33153.000000;1.000000;1.000000;1.000000;1.000000;-0.102575;0.102575;-0.102575;1.000000
445641.37479980;5696564.48219879;470.62574985;163;157;146;40349.000000;1.000000;1.000000;1.000000;1.000000;-0.064577;0.064577;-0.064577;1.000000
445641.41220291;5696564.48329933;470.62745001;187;181;173;46517.000000;1.000000;1.000000;1.000000;1.000000;-0.027174;0.027174;-0.027174;1.000000
445641.44750031;5696564.48479851;470.62444999;138;132;124;33924.000000;1.000000;1.000000;1.000000;1.000000;0.008123;-0.008123;0.008123;1.000000
445641.26560028;5696564.44089897;470.62734987;135;128;118;33153.000000;1.000000;1.000000;1.000000;1.000000;-0.173777;0.173777;-0.173777;1.000000
445641.30060013;5696564.44219978;470.63124992;147;139;128;35980.000000;1.000000;1.000000;1.000000;1.000000;-0.138777;0.138777;-0.138777;1.000000
445641.26680191;5696564.40339859;470.62695004;86;81;75;20817.000000;1.000000;1.000000;1.000000;1.000000;-0.172575;0.172575;-0.172575;1.000000
445641.26790054;5696564.36589821;470.62885000;100;97;92;24929.000000;1.000000;1.000000;1.000000;1.000000;-0.171476;0.171476;-0.171476;1.000000
445641.49090012;5696564.37329872;470.62504985;177;177;175;45232.000000;1.000000;1.000000;1.000000;1.000000;0.043299;-0.043299;0.043299;1.000000
445641.07620056;5696564.94189842;470.62944986;122;123;117;31354.000000;1.000000;1.000000;1.000000;1.000000;0.011824;-0.011824;0.011824;1.000000
445640.99030121;5696564.78139885;470.64695003;86;87;85;22102.000000;1.000000;1.000000;1.000000;1.000000;0.049961;-0.049961;0.049961;1.000000
445641.35060318;5696564.83439835;470.64754989;100;97;90;24929.000000;1.000000;1.000000;1.000000;1.000000;0.006641;-0.006641;0.006641;1.000000
445641.35170181;5696564.79689987;470.64944984;36;33;30;8481.000000;1.000000;1.000000;1.000000;1.000000;-0.033478;0.033478;-0.033478;1.000000
445641.28030212;5696564.75689896;470.64575006;29;27;26;6939.000000;1.000000;1.000000;1.000000;1.000000;0.073101;-0.073101;0.073101;1.000000
445641.20639999;5696564.71699913;470.64654996;37;35;33;8995.000000;1.000000;1.000000;1.000000;1.000000;0.113001;-0.113001;0.113001;1.000000
445641.24390228;5696564.71819885;470.64824988;38;35;35;8995.000000;1.000000;1.000000;1.000000;1.000000;0.111801;-0.111801;0.111801;1.000000
445641.47590073;5696564.91429909;470.62614991;138;132;121;33924.000000;1.000000;1.000000;1.000000;1.000000;-0.025976;0.025976;-0.025976;1.000000
445641.47950180;5696564.87659843;470.62354996;118;113;100;29041.000000;1.000000;1.000000;1.000000;1.000000;-0.022375;0.022375;-0.022375;1.000000
445641.44280060;5696564.83779915;470.63074996;72;65;59;16962.000000;1.000000;1.000000;1.000000;1.000000;-0.007799;0.007799;-0.007799;1.000000
445641.04090317;5696564.86799820;470.63855006;57;58;50;14392.000000;1.000000;1.000000;1.000000;1.000000;-0.023474;0.023474;-0.023474;1.000000
445641.07850082;5696564.86919983;470.63564994;169;168;160;42919.000000;1.000000;1.000000;1.000000;1.000000;0.014124;-0.014124;0.014124;1.000000
445641.33760269;5696564.91749962;470.64094998;26;23;19;5911.000000;1.000000;1.000000;1.000000;1.000000;0.087500;-0.087500;0.087500;1.000000
445641.41050156;5696564.92009933;470.63724997;75;71;63;18247.000000;1.000000;1.000000;1.000000;1.000000;-0.090099;0.090099;-0.090099;1.000000
445641.48050125;5696564.83909996;470.62784984;75;72;66;18504.000000;1.000000;1.000000;1.000000;1.000000;-0.009100;0.009100;-0.009100;1.000000
445641.07970245;5696564.83169945;470.63524987;58;56;50;14135.000000;1.000000;1.000000;1.000000;1.000000;-0.001699;0.001699;-0.001699;1.000000
445641.11720093;5696564.83289917;470.63465001;105;99;91;25443.000000;1.000000;1.000000;1.000000;1.000000;0.002899;-0.002899;0.002899;1.000000
445641.30140121;5696564.87879951;470.63884999;64;60;54;15420.000000;1.000000;1.000000;1.000000;1.000000;-0.048851;0.048851;-0.048851;1.000000
445641.48180206;5696564.80389984;470.62975003;113;111;103;28270.000000;1.000000;1.000000;1.000000;1.000000;0.026100;-0.026100;0.026100;1.000000
445641.37530334;5696564.87189873;470.64444997;152;148;138;38036.000000;1.000000;1.000000;1.000000;1.000000;0.041899;-0.041899;0.041899;1.000000
445641.23439987;5696564.71669968;470.64785006;30;28;29;7196.000000;1.000000;1.000000;1.000000;1.000000;0.113300;-0.113300;0.113300;1.000000
445641.54080017;5696564.52539833;470.61054995;119;111;99;28784.000000;1.000000;1.000000;1.000000;1.000000;0.101423;-0.101423;0.101423;1.000000
445640.99650009;5696564.84859856;470.64794995;69;70;69;17733.000000;1.000000;1.000000;1.000000;1.000000;-0.019360;0.019360;-0.019360;1.000000
445641.03160294;5696564.84769829;470.64724996;131;132;127;33667.000000;1.000000;1.000000;1.000000;1.000000;0.017698;-0.017698;0.017698;1.000000
445641.36610229;5696564.89849861;470.64434983;117;113;105;29041.000000;1.000000;1.000000;1.000000;1.000000;0.068499;-0.068499;0.068499;1.000000
445641.03510101;5696564.80999954;470.64695003;46;46;43;11565.000000;1.000000;1.000000;1.000000;1.000000;0.020000;-0.020000;0.020000;1.000000
445641.36750229;5696564.86329849;470.64395000;120;118;109;30069.000000;1.000000;1.000000;1.000000;1.000000;0.033298;-0.033298;0.033298;1.000000
445640.99900253;5696564.77369888;470.64485003;129;130;127;33153.000000;1.000000;1.000000;1.000000;1.000000;0.056374;-0.056374;0.056374;1.000000
445641.29590042;5696564.82319839;470.64494993;102;98;93;25186.000000;1.000000;1.000000;1.000000;1.000000;0.006802;-0.006802;0.006802;1.000000
445641.03660019;5696564.77479942;470.64424994;76;76;73;19275.000000;1.000000;1.000000;1.000000;1.000000;0.055201;-0.055201;0.055201;1.000000
445641.44989975;5696564.91199883;470.62734987;49;43;33;11051.000000;1.000000;1.000000;1.000000;1.000000;-0.051977;0.051977;-0.051977;1.000000
445641.33200272;5696564.78709991;470.65074994;33;31;28;7967.000000;1.000000;1.000000;1.000000;1.000000;-0.042900;0.042900;-0.042900;1.000000
445641.22990234;5696564.83879860;470.63745000;58;51;43;13364.000000;1.000000;1.000000;1.000000;1.000000;-0.008799;0.008799;-0.008799;1.000000
445641.26500137;5696564.84019859;470.63905003;64;57;51;14906.000000;1.000000;1.000000;1.000000;1.000000;-0.010199;0.010199;-0.010199;1.000000
445641.32240112;5696564.83239944;470.64625003;108;105;100;26985.000000;1.000000;1.000000;1.000000;1.000000;0.002399;-0.002399;0.002399;1.000000
445641.12050064;5696564.79519852;470.63894989;120;117;106;29812.000000;1.000000;1.000000;1.000000;1.000000;-0.034801;0.034801;-0.034801;1.000000
445641.48900040;5696564.87799843;470.62404992;155;150;138;38550.000000;1.000000;1.000000;1.000000;1.000000;-0.012877;0.012877;-0.012877;1.000000
445641.02550323;5696564.78279884;470.64614989;45;46;43;11565.000000;1.000000;1.000000;1.000000;1.000000;-0.047201;0.047201;-0.047201;1.000000
445641.32370193;5696564.79719933;470.64814999;25;22;19;5654.000000;1.000000;1.000000;1.000000;1.000000;-0.032801;0.032801;-0.032801;1.000000
445641.39669998;5696564.79989822;470.64214994;106;103;98;26471.000000;1.000000;1.000000;1.000000;1.000000;0.030102;-0.030102;0.030102;1.000000
445641.03070267;5696564.93209847;470.63424994;74;72;67;18504.000000;1.000000;1.000000;1.000000;1.000000;-0.033674;0.033674;-0.033674;1.000000
445641.14110001;5696564.93820007;470.63465001;164;164;159;41891.000000;1.000000;1.000000;1.000000;1.000000;0.076723;-0.076723;0.076723;1.000000
445640.99430283;5696564.89339836;470.63444998;126;122;117;31354.000000;1.000000;1.000000;1.000000;1.000000;-0.063849;0.063849;-0.063849;1.000000
445641.41310318;5696564.84749992;470.63654997;75;68;59;17733.000000;1.000000;1.000000;1.000000;1.000000;-0.017500;0.017500;-0.017500;1.000000
445641.06710251;5696564.89599998;470.63314988;83;83;76;21074.000000;1.000000;1.000000;1.000000;1.000000;0.002726;-0.002726;0.002726;1.000000
445641.15590103;5696564.79889877;470.64065005;131;127;119;32639.000000;1.000000;1.000000;1.000000;1.000000;-0.031101;0.031101;-0.031101;1.000000
445641.19350250;5696564.80009850;470.63765003;129;124;116;31868.000000;1.000000;1.000000;1.000000;1.000000;0.029902;-0.029902;0.029902;1.000000
445641.23110016;5696564.80129822;470.63704993;74;68;60;17476.000000;1.000000;1.000000;1.000000;1.000000;0.028702;-0.028702;0.028702;1.000000
445641.26620300;5696564.80269821;470.63864996;148;144;138;37008.000000;1.000000;1.000000;1.000000;1.000000;0.027302;-0.027302;0.027302;1.000000
445641.08450134;5696564.75879868;470.63695004;166;162;154;41634.000000;1.000000;1.000000;1.000000;1.000000;0.071201;-0.071201;0.071201;1.000000
445641.19460114;5696564.76260002;470.63964989;109;105;100;26985.000000;1.000000;1.000000;1.000000;1.000000;0.067400;-0.067400;0.067400;1.000000
445641.41640289;5696564.80969818;470.64084985;82;78;72;20046.000000;1.000000;1.000000;1.000000;1.000000;0.020302;-0.020302;0.020302;1.000000
445641.15720184;5696564.76139839;470.63794996;66;60;54;15677.000000;1.000000;1.000000;1.000000;1.000000;-0.068602;0.068602;-0.068602;1.000000
445641.36390121;5696564.94549950;470.63544991;43;40;37;10280.000000;1.000000;1.000000;1.000000;1.000000;0.115499;-0.115499;0.115499;1.000000
445641.03180130;5696564.89459999;470.63614990;107;106;101;26985.000000;1.000000;1.000000;1.000000;1.000000;-0.032576;0.032576;-0.032576;1.000000
445641.12120255;5696564.75079926;470.63614990;113;105;97;27242.000000;1.000000;1.000000;1.000000;1.000000;-0.079201;0.079201;-0.079201;1.000000
445641.44610031;5696564.75319870;470.64384987;57;52;43;13364.000000;1.000000;1.000000;1.000000;1.000000;0.076801;-0.076801;0.076801;1.000000
445641.22420319;5696564.70829971;470.64964988;35;32;32;8224.000000;1.000000;1.000000;1.000000;1.000000;0.121700;-0.121700;0.121700;1.000000
445641.55500229;5696564.80659874;470.61914994;76;72;61;18247.000000;1.000000;1.000000;1.000000;1.000000;-0.023401;0.023401;-0.023401;1.000000
445641.55960281;5696564.73139961;470.62074997;88;74;66;19789.000000;1.000000;1.000000;1.000000;1.000000;0.098524;-0.098524;0.098524;1.000000
445641.49220093;5696564.76549919;470.62975003;71;66;56;16962.000000;1.000000;1.000000;1.000000;1.000000;0.064517;-0.064517;0.064517;1.000000
445641.15270050;5696564.66599854;470.64354994;65;59;52;15420.000000;1.000000;1.000000;1.000000;1.000000;-0.164001;0.164001;-0.164001;1.000000
445641.15380295;5696564.63069923;470.65014984;125;123;116;31354.000000;1.000000;1.000000;1.000000;1.000000;-0.199301;0.199301;-0.199301;1.000000
445641.44849976;5696564.68059929;470.64544990;90;87;79;22359.000000;1.000000;1.000000;1.000000;1.000000;0.029529;-0.029529;0.029529;1.000000
445641.45190247;5696564.64279945;470.64744999;84;79;69;20303.000000;1.000000;1.000000;1.000000;1.000000;0.012526;-0.012526;0.012526;1.000000
445641.41780289;5696564.60389908;470.65014984;91;85;74;21845.000000;1.000000;1.000000;1.000000;1.000000;-0.021574;0.021574;-0.021574;1.000000
445641.34410294;5696564.56409843;470.64634993;105;101;88;25700.000000;1.000000;1.000000;1.000000;1.000000;-0.095274;0.095274;-0.095274;1.000000
445641.24950226;5696564.77389915;470.63754990;61;57;54;14649.000000;1.000000;1.000000;1.000000;1.000000;0.056101;-0.056101;0.056101;1.000000
445641.56730087;5696564.71429832;470.62095000;71;61;53;16191.000000;1.000000;1.000000;1.000000;1.000000;0.090826;-0.090826;0.090826;1.000000
445641.41700180;5696564.56670006;470.64264991;130;126;116;32382.000000;1.000000;1.000000;1.000000;1.000000;-0.022375;0.022375;-0.022375;1.000000
445641.37920197;5696564.56549843;470.64794995;150;146;137;37522.000000;1.000000;1.000000;1.000000;1.000000;-0.060175;0.060175;-0.060175;1.000000
445641.20650299;5696564.93909843;470.63754990;107;102;96;26214.000000;1.000000;1.000000;1.000000;1.000000;-0.109098;0.109098;-0.109098;1.000000
445641.48290070;5696564.76639946;470.63174989;45;40;30;10280.000000;1.000000;1.000000;1.000000;1.000000;0.063601;-0.063601;0.063601;1.000000
445641.07050140;5696564.85829933;470.63514997;155;155;146;39578.000000;1.000000;1.000000;1.000000;1.000000;0.006124;-0.006124;0.006124;1.000000
445641.25600250;5696564.86679848;470.63434984;92;86;79;22359.000000;1.000000;1.000000;1.000000;1.000000;-0.036798;0.036798;-0.036798;1.000000
445641.29340179;5696564.86789902;470.63835003;98;95;89;24415.000000;1.000000;1.000000;1.000000;1.000000;-0.037899;0.037899;-0.037899;1.000000
445641.08520325;5696564.69100006;470.63614990;45;44;36;11051.000000;1.000000;1.000000;1.000000;1.000000;-0.139000;0.139000;-0.139000;1.000000
445641.30000122;5696564.88839920;470.63654997;38;33;28;8481.000000;1.000000;1.000000;1.000000;1.000000;-0.058405;0.058405;-0.058405;1.000000
445641.07170303;5696564.82309921;470.63944985;64;62;56;15677.000000;1.000000;1.000000;1.000000;1.000000;0.006901;-0.006901;0.006901;1.000000
445641.10930069;5696564.82429894;470.63644983;90;86;78;22102.000000;1.000000;1.000000;1.000000;1.000000;0.005701;-0.005701;0.005701;1.000000
445641.21960266;5696564.82809837;470.63684990;114;107;99;27756.000000;1.000000;1.000000;1.000000;1.000000;0.001902;-0.001902;0.001902;1.000000
445641.25720032;5696564.83159836;470.63855006;110;103;96;26728.000000;1.000000;1.000000;1.000000;1.000000;-0.001598;0.001598;-0.001598;1.000000
445641.40730103;5696564.83629997;470.63844993;66;60;53;15677.000000;1.000000;1.000000;1.000000;1.000000;0.006300;-0.006300;0.006300;1.000000
445641.11040314;5696564.78679855;470.63844993;123;118;107;30326.000000;1.000000;1.000000;1.000000;1.000000;0.043201;-0.043201;0.043201;1.000000
445641.14790161;5696564.78799828;470.64014985;130;125;116;32125.000000;1.000000;1.000000;1.000000;1.000000;-0.042002;0.042002;-0.042002;1.000000
445641.18560226;5696564.79149826;470.63954999;130;126;118;32382.000000;1.000000;1.000000;1.000000;1.000000;0.038502;-0.038502;0.038502;1.000000
445641.22100266;5696564.79289825;470.63644983;128;123;115;31611.000000;1.000000;1.000000;1.000000;1.000000;0.037102;-0.037102;0.037102;1.000000
445641.11170013;5696564.74930008;470.63574984;125;117;109;30326.000000;1.000000;1.000000;1.000000;1.000000;0.080700;-0.080700;0.080700;1.000000
445641.40839966;5696564.79879959;470.64034988;90;86;81;22102.000000;1.000000;1.000000;1.000000;1.000000;0.031200;-0.031200;0.031200;1.000000
445641.44370087;5696564.80029877;470.63734986;54;52;45;13107.000000;1.000000;1.000000;1.000000;1.000000;0.029701;-0.029701;0.029701;1.000000
445641.14910324;5696564.75049980;470.63975002;50;45;39;11565.000000;1.000000;1.000000;1.000000;1.000000;-0.079500;0.079500;-0.079500;1.000000
445641.25090225;5696564.71979912;470.65094997;37;35;35;8995.000000;1.000000;1.000000;1.000000;1.000000;0.110201;-0.110201;0.110201;1.000000
445641.30040176;5696564.68219955;470.66905000;61;59;54;15163.000000;1.000000;1.000000;1.000000;1.000000;-0.142012;0.142012;-0.142012;1.000000
445641.01160248;5696564.71839912;470.66575005;73;83;67;20046.000000;1.000000;1.000000;1.000000;1.000000;0.111601;-0.111601;0.111601;1.000000
445641.23950012;5696564.57819946;470.66275002;125;122;111;31097.000000;1.000000;1.000000;1.000000;1.000000;-0.199877;0.199877;-0.199877;1.000000
445641.39490326;5696564.47329910;470.62654998;148;141;132;36494.000000;1.000000;1.000000;1.000000;1.000000;-0.044474;0.044474;-0.044474;1.000000
445640.98540314;5696564.87549980;470.63844993;76;72;67;18504.000000;1.000000;1.000000;1.000000;1.000000;-0.048390;0.048390;-0.048390;1.000000
445641.37570007;5696564.68699844;470.66785004;41;38;33;9766.000000;1.000000;1.000000;1.000000;1.000000;-0.072202;0.072202;-0.072202;1.000000
445641.26420029;5696564.64359863;470.66464998;87;83;74;21331.000000;1.000000;1.000000;1.000000;1.000000;-0.175177;0.175177;-0.175177;1.000000
445640.98620041;5696564.83789833;470.64734985;52;54;51;13621.000000;1.000000;1.000000;1.000000;1.000000;-0.017554;0.017554;-0.017554;1.000000
445641.30210312;5696564.64719971;470.66174986;103;99;90;25443.000000;1.000000;1.000000;1.000000;1.000000;-0.137274;0.137274;-0.137274;1.000000
445641.47360046;5696564.36319931;470.62415006;96;96;91;24415.000000;1.000000;1.000000;1.000000;1.000000;0.033332;-0.033332;0.033332;1.000000
445641.33940323;5696564.64829834;470.66575005;150;146;135;37265.000000;1.000000;1.000000;1.000000;1.000000;-0.099974;0.099974;-0.099974;1.000000
445641.28910263;5696564.77479942;470.64404990;40;38;35;9766.000000;1.000000;1.000000;1.000000;1.000000;0.055201;-0.055201;0.055201;1.000000
445641.33300217;5696564.79629906;470.64855005;25;23;20;5911.000000;1.000000;1.000000;1.000000;1.000000;-0.033701;0.033701;-0.033701;1.000000
445641.37059982;5696564.79759987;470.64564993;60;56;52;14392.000000;1.000000;1.000000;1.000000;1.000000;-0.032400;0.032400;-0.032400;1.000000
445641.29660233;5696564.75770004;470.64884998;36;34;33;8738.000000;1.000000;1.000000;1.000000;1.000000;0.072300;-0.072300;0.072300;1.000000
445641.27100189;5696564.53339966;470.64964988;143;139;123;35466.000000;1.000000;1.000000;1.000000;1.000000;-0.168375;0.168375;-0.168375;1.000000
445641.45590027;5696564.57729919;470.63054993;134;129;119;33153.000000;1.000000;1.000000;1.000000;1.000000;0.016523;-0.016523;0.016523;1.000000
445641.53210266;5696564.50749977;470.60984995;80;73;64;19018.000000;1.000000;1.000000;1.000000;1.000000;0.092726;-0.092726;0.092726;1.000000
445641.53320129;5696564.46999939;470.61185004;18;13;11;3598.000000;1.000000;1.000000;1.000000;1.000000;0.093824;-0.093824;0.093824;1.000000
445641.25990112;5696564.51349838;470.64654996;101;97;83;24672.000000;1.000000;1.000000;1.000000;1.000000;-0.179476;0.179476;-0.179476;1.000000
445641.52320297;5696564.48729904;470.61154987;48;41;36;10794.000000;1.000000;1.000000;1.000000;1.000000;0.083826;-0.083826;0.083826;1.000000
445641.45490082;5696564.54009827;470.62774994;134;129;119;33153.000000;1.000000;1.000000;1.000000;1.000000;0.015524;-0.015524;0.015524;1.000000
445641.45620163;5696564.50259979;470.62504985;117;111;101;28527.000000;1.000000;1.000000;1.000000;1.000000;0.016825;-0.016825;0.016825;1.000000
445641.10780151;5696564.83149918;470.63415005;102;97;90;24929.000000;1.000000;1.000000;1.000000;1.000000;-0.001499;0.001499;-0.001499;1.000000
445641.49680145;5696564.66459854;470.63115003;63;57;50;14906.000000;1.000000;1.000000;1.000000;1.000000;0.058742;-0.058742;0.058742;1.000000
445641.49800308;5696564.62719925;470.63074996;81;74;63;19018.000000;1.000000;1.000000;1.000000;1.000000;0.058626;-0.058626;0.058626;1.000000
445641.53680237;5696564.59089859;470.62745001;108;102;91;26214.000000;1.000000;1.000000;1.000000;1.000000;0.097425;-0.097425;0.097425;1.000000
445641.27900131;5696564.96049889;470.62944986;160;158;151;40349.000000;1.000000;1.000000;1.000000;1.000000;-0.130499;0.130499;-0.130499;1.000000
445641.54120071;5696564.93629845;470.62474992;116;108;98;28013.000000;1.000000;1.000000;1.000000;1.000000;0.039324;-0.039324;0.039324;1.000000
445641.50360306;5696564.93509872;470.62535002;134;128;118;32896.000000;1.000000;1.000000;1.000000;1.000000;0.001726;-0.001726;0.001726;1.000000
445641.47070129;5696564.85869987;470.62765004;113;108;99;27756.000000;1.000000;1.000000;1.000000;1.000000;-0.028700;0.028700;-0.028700;1.000000
445641.03240021;5696564.69079979;470.66634991;79;90;71;21588.000000;1.000000;1.000000;1.000000;1.000000;-0.139200;0.139200;-0.139200;1.000000
445641.47750290;5696564.70849998;470.63074996;61;55;47;14135.000000;1.000000;1.000000;1.000000;1.000000;0.067973;-0.067973;0.067973;1.000000
445641.25790222;5696564.62549980;470.66415002;130;126;117;32382.000000;1.000000;1.000000;1.000000;1.000000;-0.181475;0.181475;-0.181475;1.000000
445641.36840256;5696564.63169868;470.66225006;139;134;124;34438.000000;1.000000;1.000000;1.000000;1.000000;-0.070974;0.070974;-0.070974;1.000000
445641.48110016;5696564.59599884;470.62964990;147;141;130;36237.000000;1.000000;1.000000;1.000000;1.000000;0.041723;-0.041723;0.041723;1.000000
445641.51900299;5696564.59959991;470.62675001;104;99;85;25186.000000;1.000000;1.000000;1.000000;1.000000;0.079626;-0.079626;0.079626;1.000000
445641.37610062;5696564.44469841;470.62304999;111;100;89;26214.000000;1.000000;1.000000;1.000000;1.000000;-0.063276;0.063276;-0.063276;1.000000
445641.52850159;5696564.37679871;470.62684991;40;41;41;10280.000000;1.000000;1.000000;1.000000;1.000000;0.046799;-0.046799;0.046799;1.000000
445641.42080124;5696564.50119980;470.63045003;162;157;147;40349.000000;1.000000;1.000000;1.000000;1.000000;-0.018576;0.018576;-0.018576;1.000000
445641.34710129;5696564.46139915;470.62664988;149;141;130;36494.000000;1.000000;1.000000;1.000000;1.000000;-0.092276;0.092276;-0.092276;1.000000
445641.27560242;5696564.42129906;470.62524988;77;70;62;18247.000000;1.000000;1.000000;1.000000;1.000000;-0.163774;0.163774;-0.163774;1.000000
445641.18630035;5696564.94789894;470.63675000;151;149;142;38036.000000;1.000000;1.000000;1.000000;1.000000;-0.117899;0.117899;-0.117899;1.000000
445641.12199982;5696564.75999840;470.63625004;154;146;137;37779.000000;1.000000;1.000000;1.000000;1.000000;-0.070002;0.070002;-0.070002;1.000000
445641.22300156;5696564.76470001;470.63625004;91;87;85;22359.000000;1.000000;1.000000;1.000000;1.000000;0.065300;-0.065300;0.065300;1.000000
445641.18540009;5696564.76349838;470.63914992;78;75;70;19275.000000;1.000000;1.000000;1.000000;1.000000;0.066502;-0.066502;0.066502;1.000000
445641.43300064;5696564.85739906;470.63054993;151;144;133;37008.000000;1.000000;1.000000;1.000000;1.000000;0.027399;-0.027399;0.027399;1.000000
445641.51770218;5696564.63699921;470.62944986;81;74;62;19018.000000;1.000000;1.000000;1.000000;1.000000;0.078325;-0.078325;0.078325;1.000000
445641.30190094;5696564.40479858;470.62854983;72;66;58;16962.000000;1.000000;1.000000;1.000000;1.000000;-0.137476;0.137476;-0.137476;1.000000
445641.29610260;5696564.77639969;470.64664986;52;49;47;12593.000000;1.000000;1.000000;1.000000;1.000000;0.053600;-0.053600;0.053600;1.000000
445641.37100037;5696564.77879913;470.65004994;87;83;79;21331.000000;1.000000;1.000000;1.000000;1.000000;-0.051201;0.051201;-0.051201;1.000000
445641.30800064;5696564.55339821;470.64695003;125;121;107;30840.000000;1.000000;1.000000;1.000000;1.000000;-0.131376;0.131376;-0.131376;1.000000
445641.34320267;5696564.55479820;470.64614989;95;90;77;23130.000000;1.000000;1.000000;1.000000;1.000000;-0.096174;0.096174;-0.096174;1.000000
445641.30180176;5696564.90689857;470.63454988;25;19;17;5140.000000;1.000000;1.000000;1.000000;1.000000;-0.076945;0.076945;-0.076945;1.000000
445641.35500153;5696564.50019844;470.63444998;136;132;119;33667.000000;1.000000;1.000000;1.000000;1.000000;-0.084375;0.084375;-0.084375;1.000000
445641.18720062;5696564.95719917;470.63695004;178;177;169;45232.000000;1.000000;1.000000;1.000000;1.000000;0.122824;-0.122824;0.122824;1.000000
445641.24370010;5696564.95899971;470.63255002;168;166;159;42405.000000;1.000000;1.000000;1.000000;1.000000;-0.129000;0.129000;-0.129000;1.000000
445641.47170074;5696564.82109840;470.62955000;48;44;39;11308.000000;1.000000;1.000000;1.000000;1.000000;0.008902;-0.008902;0.008902;1.000000
445641.51060303;5696564.78489883;470.62625005;177;175;165;44718.000000;1.000000;1.000000;1.000000;1.000000;0.045101;-0.045101;0.045101;1.000000
445641.33839996;5696564.44349869;470.62605001;85;77;65;20046.000000;1.000000;1.000000;1.000000;1.000000;-0.100977;0.100977;-0.100977;1.000000
445641.33960159;5696564.40599831;470.62564995;187;183;172;46774.000000;1.000000;1.000000;1.000000;1.000000;-0.099775;0.099775;-0.099775;1.000000
445641.26939972;5696564.51499947;470.64474990;113;109;96;27756.000000;1.000000;1.000000;1.000000;1.000000;-0.169977;0.169977;-0.169977;1.000000
445641.17680176;5696564.77129944;470.63894989;85;80;73;20560.000000;1.000000;1.000000;1.000000;1.000000;0.058701;-0.058701;0.058701;1.000000
445641.35900314;5696564.82429894;470.64774992;80;77;71;19789.000000;1.000000;1.000000;1.000000;1.000000;-0.005701;0.005701;-0.005701;1.000000
445641.09350021;5696564.95199974;470.63034989;221;222;219;56797.000000;1.000000;1.000000;1.000000;1.000000;0.029123;-0.029123;0.029123;1.000000
445641.57970245;5696564.89989861;470.62835004;113;107;97;27499.000000;1.000000;1.000000;1.000000;1.000000;0.069899;-0.069899;0.069899;1.000000
445641.55610092;5696564.59839828;470.63065006;173;169;156;43176.000000;1.000000;1.000000;1.000000;1.000000;0.102026;-0.102026;0.102026;1.000000
445640.97940262;5696564.78949936;470.64654996;31;30;28;7710.000000;1.000000;1.000000;1.000000;1.000000;0.046318;-0.046318;0.046318;1.000000
445641.24250229;5696564.72769936;470.64605000;25;22;22;5654.000000;1.000000;1.000000;1.000000;1.000000;0.102301;-0.102301;0.102301;1.000000
445641.55170258;5696564.67369850;470.62444999;69;60;52;15677.000000;1.000000;1.000000;1.000000;1.000000;0.106424;-0.106424;0.106424;1.000000
445641.09600266;5696564.87929924;470.63185002;146;144;139;37008.000000;1.000000;1.000000;1.000000;1.000000;0.031626;-0.031626;0.031626;1.000000
445641.32820328;5696564.70309837;470.66584994;52;51;47;12850.000000;1.000000;1.000000;1.000000;1.000000;-0.121970;0.121970;-0.121970;1.000000
445641.36590012;5696564.91959961;470.63984992;28;25;21;6425.000000;1.000000;1.000000;1.000000;1.000000;0.089600;-0.089600;0.089600;1.000000
445641.07629974;5696564.71989830;470.63374998;186;187;175;47545.000000;1.000000;1.000000;1.000000;1.000000;0.110102;-0.110102;0.110102;1.000000
445641.11380203;5696564.72109993;470.63544991;95;92;84;23644.000000;1.000000;1.000000;1.000000;1.000000;0.108900;-0.108900;0.108900;1.000000
445641.14880188;5696564.72249992;470.63934996;181;181;173;46260.000000;1.000000;1.000000;1.000000;1.000000;-0.107500;0.107500;-0.107500;1.000000
445641.15250214;5696564.68709953;470.63914992;84;80;72;20560.000000;1.000000;1.000000;1.000000;1.000000;-0.142900;0.142900;-0.142900;1.000000
445641.48710068;5696564.66309937;470.63535001;77;72;65;18504.000000;1.000000;1.000000;1.000000;1.000000;0.048928;-0.048928;0.048928;1.000000
445641.48830231;5696564.62559898;470.63494994;100;94;83;24158.000000;1.000000;1.000000;1.000000;1.000000;0.048925;-0.048925;0.048925;1.000000
445641.23500259;5696564.94119843;470.63194992;106;102;95;26214.000000;1.000000;1.000000;1.000000;1.000000;-0.111198;0.111198;-0.111198;1.000000
445641.27169998;5696564.90519913;470.62614991;31;25;22;6682.000000;1.000000;1.000000;1.000000;1.000000;-0.075199;0.075199;-0.075199;1.000000
445641.23620041;5696564.90369995;470.63154985;60;53;48;13878.000000;1.000000;1.000000;1.000000;1.000000;-0.073700;0.073700;-0.073700;1.000000
445641.49470337;5696564.91489990;470.62474992;105;98;89;25443.000000;1.000000;1.000000;1.000000;1.000000;-0.007174;0.007174;-0.007174;1.000000
445641.45190247;5696564.58699997;470.63514997;128;123;112;31611.000000;1.000000;1.000000;1.000000;1.000000;0.012526;-0.012526;0.012526;1.000000
445641.41769989;5696564.54799850;470.64014985;122;115;105;29555.000000;1.000000;1.000000;1.000000;1.000000;-0.021677;0.021677;-0.021677;1.000000
445641.34620102;5696564.50799950;470.63874986;90;86;72;21845.000000;1.000000;1.000000;1.000000;1.000000;-0.093176;0.093176;-0.093176;1.000000
445641.38170059;5696564.51169975;470.63804986;172;167;155;42919.000000;1.000000;1.000000;1.000000;1.000000;-0.057676;0.057676;-0.057676;1.000000
445641.39100082;5696564.53879936;470.64345004;118;112;101;28784.000000;1.000000;1.000000;1.000000;1.000000;-0.048376;0.048376;-0.048376;1.000000
445641.01460083;5696564.86559875;470.64664986;69;69;65;17476.000000;1.000000;1.000000;1.000000;1.000000;0.035599;-0.035599;0.035599;1.000000
445641.18070038;5696564.86429985;470.64014985;139;135;126;34695.000000;1.000000;1.000000;1.000000;1.000000;-0.034300;0.034300;-0.034300;1.000000
445641.47250183;5696564.37500008;470.62194993;69;68;62;17219.000000;1.000000;1.000000;1.000000;1.000000;0.033125;-0.033125;0.033125;1.000000
445641.01560028;5696564.82809837;470.64864995;217;219;215;55769.000000;1.000000;1.000000;1.000000;1.000000;-0.001902;0.001902;-0.001902;1.000000
445641.27660187;5696564.38379868;470.62944986;91;88;82;22616.000000;1.000000;1.000000;1.000000;1.000000;-0.162775;0.162775;-0.162775;1.000000
445641.31420334;5696564.38719948;470.63124992;83;82;74;20817.000000;1.000000;1.000000;1.000000;1.000000;-0.125174;0.125174;-0.125174;1.000000
445641.31180008;5696564.84279831;470.64354994;73;70;63;17990.000000;1.000000;1.000000;1.000000;1.000000;0.012798;-0.012798;0.012798;1.000000
445641.46339996;5696564.35479935;470.62594988;86;87;81;22102.000000;1.000000;1.000000;1.000000;1.000000;0.024023;-0.024023;0.024023;1.000000
445641.01700027;5696564.79289825;470.64824988;120;122;120;31097.000000;1.000000;1.000000;1.000000;1.000000;-0.037102;0.037102;-0.037102;1.000000
445641.38690002;5696564.84519966;470.64224984;96;91;81;23387.000000;1.000000;1.000000;1.000000;1.000000;-0.015200;0.015200;-0.015200;1.000000
445641.05470093;5696564.79419907;470.64535000;115;113;108;29041.000000;1.000000;1.000000;1.000000;1.000000;-0.035801;0.035801;-0.035801;1.000000
445640.98060043;5696564.75420006;470.65074994;53;55;53;13878.000000;1.000000;1.000000;1.000000;1.000000;0.078729;-0.078729;0.078729;1.000000
445641.01830109;5696564.75549896;470.64555003;44;47;41;11565.000000;1.000000;1.000000;1.000000;1.000000;-0.074501;0.074501;-0.074501;1.000000
445641.05600174;5696564.75669868;470.64255001;156;155;146;39578.000000;1.000000;1.000000;1.000000;1.000000;-0.073301;0.073301;-0.073301;1.000000
445641.31290253;5696564.80529984;470.64544990;26;23;20;5911.000000;1.000000;1.000000;1.000000;1.000000;-0.024700;0.024700;-0.024700;1.000000
445641.38800247;5696564.80769928;470.64424994;104;101;96;25957.000000;1.000000;1.000000;1.000000;1.000000;0.022301;-0.022301;0.022301;1.000000
445641.27250107;5696564.46809967;470.63494994;132;127;115;32639.000000;1.000000;1.000000;1.000000;1.000000;-0.166876;0.166876;-0.166876;1.000000
445641.46180161;5696564.83849915;470.62695004;90;86;79;22102.000000;1.000000;1.000000;1.000000;1.000000;-0.008803;0.008803;-0.008803;1.000000
445641.02000244;5696564.70829971;470.66604998;90;101;83;24415.000000;1.000000;1.000000;1.000000;1.000000;-0.121700;0.121700;-0.121700;1.000000
445641.50180252;5696564.76699837;470.62794997;117;110;100;28527.000000;1.000000;1.000000;1.000000;1.000000;0.063002;-0.063002;0.063002;1.000000
445641.24890335;5696564.60529907;470.66584994;117;113;104;29041.000000;1.000000;1.000000;1.000000;1.000000;-0.190474;0.190474;-0.190474;1.000000
445641.32810028;5696564.46069916;470.63045003;173;166;156;42919.000000;1.000000;1.000000;1.000000;1.000000;-0.111277;0.111277;-0.111277;1.000000
445641.29530151;5696564.38429840;470.63034989;37;35;29;8738.000000;1.000000;1.000000;1.000000;1.000000;-0.144075;0.144075;-0.144075;1.000000
445641.51939972;5696564.35649879;470.63084986;59;59;57;14906.000000;1.000000;1.000000;1.000000;1.000000;0.026499;-0.026499;0.026499;1.000000
445641.23200043;5696564.96009834;470.63434984;143;140;134;35980.000000;1.000000;1.000000;1.000000;1.000000;-0.130098;0.130098;-0.130098;1.000000
445641.19790085;5696564.92119987;470.63695004;85;78;72;20303.000000;1.000000;1.000000;1.000000;1.000000;-0.091200;0.091200;-0.091200;1.000000
445641.43920334;5696564.70709999;470.64765002;46;43;37;11051.000000;1.000000;1.000000;1.000000;1.000000;-0.054536;0.054536;-0.054536;1.000000
445641.49590118;5696564.87739952;470.62434985;151;145;134;37265.000000;1.000000;1.000000;1.000000;1.000000;-0.005976;0.005976;-0.005976;1.000000
445641.54269989;5696564.65569885;470.63074996;142;136;124;34952.000000;1.000000;1.000000;1.000000;1.000000;0.103382;-0.103382;0.103382;1.000000
