//X;Y;Z;R;G;B;Intensity;Return Number;Number Of Returns;Scan Direction Flag;Point Source ID;C2M signed distances[-][<0.8];C2M signed distances[<0.4];C2M signed distances[-][<0.2];Stump114
445639.16540344;5696578.85929878;471.03704979;155;148;140;38293.000000;1.000000;1.000000;1.000000;1.000000;-0.029299;0.029299;-0.029299;1.000000
445639.08180054;5696578.88289936;471.07315018;32;31;26;7710.000000;1.000000;1.000000;1.000000;1.000000;-0.052899;0.052899;-0.052899;1.000000
445638.72950180;5696578.38459881;471.11414959;69;75;34;17476.000000;1.000000;1.000000;1.000000;1.000000;-0.084875;0.084875;-0.084875;1.000000
445638.73070343;5696578.34719952;471.11385014;110;114;78;27756.000000;1.000000;1.000000;1.000000;1.000000;-0.083673;0.083673;-0.083673;1.000000
445639.12250336;5696578.83729942;471.06045010;128;123;116;31611.000000;1.000000;1.000000;1.000000;1.000000;-0.008509;0.008509;-0.008509;1.000000
445638.69250305;5696578.36239918;471.10994961;135;142;99;34695.000000;1.000000;1.000000;1.000000;1.000000;-0.121874;0.121874;-0.121874;1.000000
445638.76750000;5696578.36709888;471.11574986;66;69;38;16448.000000;1.000000;1.000000;1.000000;1.000000;-0.046877;0.046877;-0.046877;1.000000
445639.02729996;5696578.37629898;471.07634975;185;169;150;43947.000000;1.000000;1.000000;1.000000;1.000000;0.046299;-0.046299;0.046299;1.000000
445638.94630249;5696578.77569874;471.11004974;97;96;88;24415.000000;1.000000;1.000000;1.000000;1.000000;0.054301;-0.054301;0.054301;1.000000
445638.92390259;5696578.40199955;471.09054996;174;160;144;41634.000000;1.000000;1.000000;1.000000;1.000000;0.072000;-0.072000;0.072000;1.000000
445638.85780151;5696578.91069897;471.07035019;149;146;131;37265.000000;1.000000;1.000000;1.000000;1.000000;-0.080699;0.080699;-0.080699;1.000000
445639.00700195;5696578.44099911;471.09014990;166;153;137;39835.000000;1.000000;1.000000;1.000000;1.000000;0.111117;-0.111117;0.111117;1.000000
445638.92980011;5696578.74699886;471.10424997;170;168;155;42919.000000;1.000000;1.000000;1.000000;1.000000;0.083001;-0.083001;0.083001;1.000000
445639.15070160;5696578.33709915;471.05814983;120;106;82;27499.000000;1.000000;1.000000;1.000000;1.000000;0.007099;-0.007099;0.007099;1.000000
445638.78199966;5696578.66499908;471.10125019;52;52;42;12850.000000;1.000000;1.000000;1.000000;1.000000;-0.032553;0.032553;-0.032553;1.000000
445639.01110275;5696578.78629883;471.09445002;176;176;169;44975.000000;1.000000;1.000000;1.000000;1.000000;0.043701;-0.043701;0.043701;1.000000
445639.18830307;5696578.33829887;471.05754997;120;104;86;27242.000000;1.000000;1.000000;1.000000;1.000000;0.008299;-0.008299;0.008299;1.000000
445639.12560089;5696578.71789940;471.05684998;113;112;110;28784.000000;1.000000;1.000000;1.000000;1.000000;0.095026;0.095026;-0.095026;1.000000
445638.68190201;5696578.65969952;471.13394978;101;122;93;28784.000000;1.000000;1.000000;1.000000;1.000000;-0.132475;0.132475;-0.132475;1.000000
445638.79040344;5696578.72279938;471.08605005;113;109;85;27499.000000;1.000000;1.000000;1.000000;1.000000;-0.065976;0.065976;-0.065976;1.000000
445639.12400253;5696578.80209930;471.05784990;145;141;134;36237.000000;1.000000;1.000000;1.000000;1.000000;0.028048;-0.028048;0.028048;1.000000
445638.78920181;5696578.52619942;471.12095024;220;217;208;55512.000000;1.000000;1.000000;1.000000;1.000000;-0.025175;0.025175;-0.025175;1.000000
445638.68990143;5696578.67059906;471.13444998;104;126;94;29555.000000;1.000000;1.000000;1.000000;1.000000;-0.124752;0.124752;-0.124752;1.000000
445638.91090210;5696578.71619900;471.09604980;180;175;161;44718.000000;1.000000;1.000000;1.000000;1.000000;0.110931;-0.110931;0.110931;1.000000
445639.22450073;5696578.34899910;471.05464985;110;95;80;24929.000000;1.000000;1.000000;1.000000;1.000000;0.019390;-0.019390;0.019390;1.000000
445638.94870193;5696578.71969898;471.09544994;118;117;101;29555.000000;1.000000;1.000000;1.000000;1.000000;0.110301;-0.110301;0.110301;1.000000
445638.75720032;5696578.60859879;471.12045004;213;215;204;54741.000000;1.000000;1.000000;1.000000;1.000000;-0.057177;0.057177;-0.057177;1.000000
445638.79980286;5696578.67519959;471.09054996;131;130;118;32896.000000;1.000000;1.000000;1.000000;1.000000;-0.020061;0.020061;-0.020061;1.000000
445638.80860336;5696578.69309910;471.08655025;122;118;98;30069.000000;1.000000;1.000000;1.000000;1.000000;-0.032282;0.032282;-0.032282;1.000000
445638.68460281;5696578.58709915;471.13084986;113;115;98;28784.000000;1.000000;1.000000;1.000000;1.000000;-0.129774;0.129774;-0.129774;1.000000
445638.95150192;5696578.44849880;471.09235003;163;148;131;38550.000000;1.000000;1.000000;1.000000;1.000000;0.118499;-0.118499;0.118499;1.000000
445638.71740158;5696578.48379906;471.12185003;159;155;138;39578.000000;1.000000;1.000000;1.000000;1.000000;-0.096975;0.096975;-0.096975;1.000000
445638.83390244;5696578.37949951;471.12115004;121;127;106;31354.000000;1.000000;1.000000;1.000000;1.000000;0.019526;-0.019526;0.019526;1.000000
445638.84070023;5696578.64089878;471.09664967;74;74;65;18761.000000;1.000000;1.000000;1.000000;1.000000;0.026323;-0.026323;0.026323;1.000000
445639.04700287;5696578.41639908;471.08694984;137;122;101;31868.000000;1.000000;1.000000;1.000000;1.000000;0.086399;-0.086399;0.086399;1.000000
445638.91580017;5696578.64329918;471.09544994;154;153;141;38807.000000;1.000000;1.000000;1.000000;1.000000;0.101423;-0.101423;0.101423;1.000000
445638.91690262;5696578.60579880;471.09734966;167;163;152;41634.000000;1.000000;1.000000;1.000000;1.000000;0.102526;-0.102526;0.102526;1.000000
445638.79180344;5696578.71329887;471.08834984;90;85;61;21331.000000;1.000000;1.000000;1.000000;1.000000;-0.056616;0.056616;-0.056616;1.000000
445638.99200256;5696578.75999935;471.10024979;164;163;156;41634.000000;1.000000;1.000000;1.000000;1.000000;0.070001;-0.070001;0.070001;1.000000
445638.92060287;5696578.49339874;471.09384968;196;189;173;48573.000000;1.000000;1.000000;1.000000;1.000000;0.106226;-0.106226;0.106226;1.000000
445638.88860138;5696578.60369881;471.09835007;165;162;151;41377.000000;1.000000;1.000000;1.000000;1.000000;0.074224;-0.074224;0.074224;1.000000
445638.92180069;5696578.45589931;471.09345009;179;164;148;42662.000000;1.000000;1.000000;1.000000;1.000000;0.107424;-0.107424;0.107424;1.000000
445638.83500107;5696578.51039894;471.10885002;134;128;115;32896.000000;1.000000;1.000000;1.000000;1.000000;0.020624;-0.020624;0.020624;1.000000
445638.72300156;5696578.56959923;471.12305023;142;137;118;34952.000000;1.000000;1.000000;1.000000;1.000000;-0.091375;0.091375;-0.091375;1.000000
445639.15929993;5696578.79449947;471.03834965;71;66;61;16962.000000;1.000000;1.000000;1.000000;1.000000;0.035501;-0.035501;0.035501;1.000000
445639.16270264;5696578.75679882;471.04034998;60;54;52;14135.000000;1.000000;1.000000;1.000000;1.000000;0.057924;-0.057924;0.057924;1.000000
445638.89120300;5696578.38159950;471.09814980;122;117;103;29812.000000;1.000000;1.000000;1.000000;1.000000;0.051600;-0.051600;0.051600;1.000000
445639.19910248;5696578.72069939;471.03924992;63;62;63;15934.000000;1.000000;1.000000;1.000000;1.000000;0.021524;-0.021524;0.021524;1.000000
445638.82290085;5696578.62839897;471.10265018;83;83;77;21074.000000;1.000000;1.000000;1.000000;1.000000;0.008524;-0.008524;0.008524;1.000000
445639.08250244;5696578.41789921;471.07935001;191;172;152;44975.000000;1.000000;1.000000;1.000000;1.000000;0.087899;-0.087899;0.087899;1.000000
445638.75750168;5696578.63659866;471.11844971;95;99;93;24929.000000;1.000000;1.000000;1.000000;1.000000;-0.056875;0.056875;-0.056875;1.000000
445638.89600189;5696578.63339909;471.09905006;139;139;129;35209.000000;1.000000;1.000000;1.000000;1.000000;0.081625;-0.081625;0.081625;1.000000
445639.03450211;5696578.43379887;471.08894970;151;138;120;35723.000000;1.000000;1.000000;1.000000;1.000000;0.103808;-0.103808;0.103808;1.000000
445638.93570145;5696578.37529953;471.08384993;153;140;121;36237.000000;1.000000;1.000000;1.000000;1.000000;0.045300;-0.045300;0.045300;1.000000
445639.24180038;5696578.84319885;471.01934983;111;107;96;27242.000000;1.000000;1.000000;1.000000;1.000000;0.013199;-0.013199;0.013199;1.000000
445639.27940186;5696578.84439953;471.01644995;78;71;61;18247.000000;1.000000;1.000000;1.000000;1.000000;0.014400;-0.014400;0.014400;1.000000
445639.22530182;5696578.35829933;471.05474998;137;122;108;31868.000000;1.000000;1.000000;1.000000;1.000000;0.028683;-0.028683;0.028683;1.000000
445639.22650345;5696578.32309921;471.05905010;82;70;57;18504.000000;1.000000;1.000000;1.000000;1.000000;-0.009064;0.009064;-0.009064;1.000000
445638.97340210;5696578.37659939;471.08085014;155;139;118;36237.000000;1.000000;1.000000;1.000000;1.000000;0.046682;-0.046682;0.046682;1.000000
445639.19300278;5696578.46859940;471.06624987;122;107;83;27756.000000;1.000000;1.000000;1.000000;1.000000;0.041128;-0.041128;0.041128;1.000000
445638.82230194;5696578.83449944;471.07714989;119;115;103;29298.000000;1.000000;1.000000;1.000000;1.000000;-0.004499;0.004499;-0.004499;1.000000
445639.23970230;5696578.64629944;471.07284977;103;106;94;26471.000000;1.000000;1.000000;1.000000;1.000000;-0.019075;0.019075;-0.019075;1.000000
445639.13050278;5696578.60499866;471.07675030;121;119;106;30326.000000;1.000000;1.000000;1.000000;1.000000;0.090124;-0.090124;0.090124;1.000000
445638.87720306;5696578.36169918;471.10895016;133;133;116;33667.000000;1.000000;1.000000;1.000000;1.000000;0.031701;-0.031701;0.031701;1.000000
445639.17570313;5696578.61699875;471.08355000;85;89;72;21845.000000;1.000000;1.000000;1.000000;1.000000;0.044924;-0.044924;0.044924;1.000000
445638.89710052;5696578.34369953;471.09795000;124;123;103;31097.000000;1.000000;1.000000;1.000000;1.000000;0.013700;-0.013700;0.013700;1.000000
445639.24040039;5696578.85269936;471.01705005;107;103;92;26214.000000;1.000000;1.000000;1.000000;1.000000;0.022699;-0.022699;0.022699;1.000000
445639.24330338;5696578.61089905;471.07725002;77;87;63;20817.000000;1.000000;1.000000;1.000000;1.000000;-0.022676;0.022676;-0.022676;1.000000
445639.10140045;5696578.41849907;471.07554962;180;162;141;42405.000000;1.000000;1.000000;1.000000;1.000000;0.088628;-0.088628;0.088628;1.000000
445638.86550339;5696578.48199947;471.10055019;130;118;102;30583.000000;1.000000;1.000000;1.000000;1.000000;0.051126;-0.051126;0.051126;1.000000
445639.16629990;5696578.61559875;471.08314993;107;112;95;27756.000000;1.000000;1.000000;1.000000;1.000000;0.054327;-0.054327;0.054327;1.000000
445639.25020035;5696578.87989910;471.01315000;208;206;195;52685.000000;1.000000;1.000000;1.000000;1.000000;0.049899;-0.049899;0.049899;1.000000
445639.05910309;5696578.74239929;471.07745029;133;133;127;33924.000000;1.000000;1.000000;1.000000;1.000000;0.087759;-0.087759;0.087759;1.000000
445639.27820023;5696578.85619934;471.01644995;104;98;87;25186.000000;1.000000;1.000000;1.000000;1.000000;0.026199;-0.026199;0.026199;1.000000
445638.71140106;5696578.80259903;471.08575012;27;31;29;7453.000000;1.000000;1.000000;1.000000;1.000000;0.048878;-0.048878;0.048878;1.000000
445638.65580185;5696578.57589920;471.12244989;188;183;162;46774.000000;1.000000;1.000000;1.000000;1.000000;-0.158575;0.158575;-0.158575;1.000000
445638.73320206;5696578.50329884;471.12274982;151;139;126;36237.000000;1.000000;1.000000;1.000000;1.000000;-0.081175;0.081175;-0.081175;1.000000
445638.71510132;5696578.51419933;471.13135006;157;146;128;37779.000000;1.000000;1.000000;1.000000;1.000000;-0.099276;0.099276;-0.099276;1.000000
445638.75119980;5696578.47579868;471.13254978;154;147;133;37779.000000;1.000000;1.000000;1.000000;1.000000;-0.063177;0.063177;-0.063177;1.000000
445638.79990204;5696578.49009903;471.12095024;199;193;182;49601.000000;1.000000;1.000000;1.000000;1.000000;-0.014475;0.014475;-0.014475;1.000000
445638.75860031;5696578.59909924;471.12034990;218;217;206;55512.000000;1.000000;1.000000;1.000000;1.000000;-0.055777;0.055777;-0.055777;1.000000
445639.06150253;5696578.66749866;471.07665016;139;134;122;34438.000000;1.000000;1.000000;1.000000;1.000000;0.159124;0.159124;-0.159124;1.000000
445639.01900299;5696578.76929958;471.08995010;121;120;114;30583.000000;1.000000;1.000000;1.000000;1.000000;0.060700;-0.060700;0.060700;1.000000
445639.14859970;5696578.78369911;471.04474976;116;111;106;28527.000000;1.000000;1.000000;1.000000;1.000000;0.046313;-0.046313;0.046313;1.000000
445638.92540176;5696578.39259918;471.08824970;184;171;156;44461.000000;1.000000;1.000000;1.000000;1.000000;0.062599;-0.062599;0.062599;1.000000
445638.93670090;5696578.33559902;471.08334972;66;68;24;15934.000000;1.000000;1.000000;1.000000;1.000000;0.005599;-0.005599;0.005599;1.000000
445638.83830078;5696578.92879875;471.07204964;101;97;84;24672.000000;1.000000;1.000000;1.000000;1.000000;-0.098852;0.098852;-0.098852;1.000000
445638.80190094;5696578.89009960;471.07455017;56;52;44;13364.000000;1.000000;1.000000;1.000000;1.000000;0.060100;-0.060100;0.060100;1.000000
445638.84050186;5696578.85379894;471.07585003;212;209;197;53456.000000;1.000000;1.000000;1.000000;1.000000;-0.024345;0.024345;-0.024345;1.000000
445638.64529999;5696578.38989933;471.12675001;95;116;68;26728.000000;1.000000;1.000000;1.000000;1.000000;-0.169077;0.169077;-0.169077;1.000000
445638.96310242;5696578.39379890;471.08524992;132;113;94;29812.000000;1.000000;1.000000;1.000000;1.000000;0.063799;-0.063799;0.063799;1.000000
445639.00300034;5696578.74969872;471.09364988;177;176;169;44975.000000;1.000000;1.000000;1.000000;1.000000;0.080301;-0.080301;0.080301;1.000000
445638.93380173;5696578.63459881;471.09375002;154;152;139;38807.000000;1.000000;1.000000;1.000000;1.000000;0.119425;-0.119425;0.119425;1.000000
445639.00060089;5696578.39499958;471.08465006;156;140;119;36494.000000;1.000000;1.000000;1.000000;1.000000;0.065000;-0.065000;0.065000;1.000000
445639.10110291;5696578.86469944;471.07385017;108;105;99;26985.000000;1.000000;1.000000;1.000000;1.000000;-0.034699;0.034699;-0.034699;1.000000
445639.24920090;5696578.66669949;471.05954983;40;42;35;10280.000000;1.000000;1.000000;1.000000;1.000000;-0.028574;0.028574;-0.028574;1.000000
445639.06410034;5696578.84479912;471.07655003;132;133;130;33924.000000;1.000000;1.000000;1.000000;1.000000;-0.014802;0.014802;-0.014802;1.000000
445638.68910034;5696578.45599945;471.12025024;30;33;19;7710.000000;1.000000;1.000000;1.000000;1.000000;-0.125277;0.125277;-0.125277;1.000000
445638.87160309;5696578.57479961;471.10424997;136;133;120;33924.000000;1.000000;1.000000;1.000000;1.000000;0.057226;-0.057226;0.057226;1.000000
445638.87300308;5696578.53969868;471.10384991;176;172;159;43947.000000;1.000000;1.000000;1.000000;1.000000;0.058626;-0.058626;0.058626;1.000000
445639.06730087;5696578.75339897;471.07564976;147;146;140;37265.000000;1.000000;1.000000;1.000000;1.000000;0.076601;-0.076601;0.076601;1.000000
445638.88130005;5696578.35429867;471.10675003;135;136;117;34181.000000;1.000000;1.000000;1.000000;1.000000;0.024698;-0.024698;0.024698;1.000000
445638.70150192;5696578.61599930;471.12505009;141;149;127;37008.000000;1.000000;1.000000;1.000000;1.000000;-0.112875;0.112875;-0.112875;1.000000
445638.72220047;5696578.56039913;471.12295010;138;129;111;33153.000000;1.000000;1.000000;1.000000;1.000000;-0.092176;0.092176;-0.092176;1.000000
445638.71090134;5696578.61509903;471.12305023;115;123;102;30326.000000;1.000000;1.000000;1.000000;1.000000;-0.103476;0.103476;-0.103476;1.000000
445639.22390182;5696578.36779888;471.05485012;139;124;109;32382.000000;1.000000;1.000000;1.000000;1.000000;0.037940;-0.037940;0.037940;1.000000
445639.10490234;5696578.32489880;471.06294968;68;61;25;15163.000000;1.000000;1.000000;1.000000;1.000000;-0.005263;0.005263;-0.005263;1.000000
445639.07200058;5696578.67819889;471.07494976;134;129;117;33153.000000;1.000000;1.000000;1.000000;1.000000;0.148626;0.148626;-0.148626;1.000000
445638.72810181;5696578.42209919;471.11924984;134;138;111;34181.000000;1.000000;1.000000;1.000000;1.000000;-0.086275;0.086275;-0.086275;1.000000
445638.73490341;5696578.47049912;471.12015011;157;151;134;38550.000000;1.000000;1.000000;1.000000;1.000000;-0.079473;0.079473;-0.079473;1.000000
445639.15220078;5696578.32769878;471.05804970;92;80;54;20560.000000;1.000000;1.000000;1.000000;1.000000;-0.002301;0.002301;-0.002301;1.000000
445639.22490128;5696578.33029945;471.05674984;78;65;52;17219.000000;1.000000;1.000000;1.000000;1.000000;0.004285;-0.004285;0.004285;1.000000
445639.22770126;5696578.31129940;471.05894997;72;61;48;15934.000000;1.000000;1.000000;1.000000;1.000000;-0.019994;0.019994;-0.019994;1.000000
445638.65730103;5696578.53849895;471.11504986;165;159;143;40863.000000;1.000000;1.000000;1.000000;1.000000;-0.157076;0.157076;-0.157076;1.000000
445639.14040192;5696578.63449867;471.07284977;146;147;139;37265.000000;1.000000;1.000000;1.000000;1.000000;0.080225;-0.080225;0.080225;1.000000
445638.75970276;5696578.56159885;471.12235023;180;176;161;44975.000000;1.000000;1.000000;1.000000;1.000000;-0.054674;0.054674;-0.054674;1.000000
445638.78520020;5696578.40519913;471.11465027;63;56;32;14135.000000;1.000000;1.000000;1.000000;1.000000;-0.029177;0.029177;-0.029177;1.000000
445638.79920013;5696578.74069889;471.08435013;188;181;160;46260.000000;1.000000;1.000000;1.000000;1.000000;-0.080834;0.080834;-0.080834;1.000000
445639.11910065;5696578.45659931;471.07445004;163;149;130;38807.000000;1.000000;1.000000;1.000000;1.000000;0.109987;-0.109987;0.109987;1.000000
445638.83660324;5696578.74189957;471.08605005;121;109;84;28013.000000;1.000000;1.000000;1.000000;1.000000;0.083572;-0.083572;0.083572;1.000000
445639.12030228;5696578.41909893;471.07404997;166;149;127;38807.000000;1.000000;1.000000;1.000000;1.000000;0.089099;-0.089099;0.089099;1.000000
445638.96249969;5696578.83989914;471.09054996;51;53;50;13364.000000;1.000000;1.000000;1.000000;1.000000;-0.012808;0.012808;-0.012808;1.000000
445638.80030258;5696578.70319946;471.08624985;102;98;76;24672.000000;1.000000;1.000000;1.000000;1.000000;-0.044169;0.044169;-0.044169;1.000000
445639.01099976;5696578.37779911;471.07795002;166;152;131;39321.000000;1.000000;1.000000;1.000000;1.000000;0.047820;-0.047820;0.047820;1.000000
445638.72930344;5696578.66249950;471.12445023;145;157;140;38807.000000;1.000000;1.000000;1.000000;1.000000;-0.085074;0.085074;-0.085074;1.000000
445639.06760223;5696578.80709942;471.07624962;159;158;150;40349.000000;1.000000;1.000000;1.000000;1.000000;0.022901;-0.022901;0.022901;1.000000
445639.06660278;5696578.76979931;471.07344963;155;153;148;39321.000000;1.000000;1.000000;1.000000;1.000000;0.060201;-0.060201;0.060201;1.000000
445638.81950195;5696578.92599876;471.06885006;111;108;97;27499.000000;1.000000;1.000000;1.000000;1.000000;-0.095999;0.095999;-0.095999;1.000000
445638.67690094;5696578.79149921;471.10265018;19;22;23;5397.000000;1.000000;1.000000;1.000000;1.000000;0.084283;-0.084283;0.084283;1.000000
445639.08310135;5696578.37119873;471.07175018;164;146;119;38036.000000;1.000000;1.000000;1.000000;1.000000;0.041199;-0.041199;0.041199;1.000000
445639.11940201;5696578.83049877;471.06495001;137;133;127;34181.000000;1.000000;1.000000;1.000000;1.000000;-0.003134;0.003134;-0.003134;1.000000
445638.77490051;5696578.46919926;471.11255028;164;151;135;39321.000000;1.000000;1.000000;1.000000;1.000000;-0.039476;0.039476;-0.039476;1.000000
445639.10640152;5696578.52079876;471.07464983;138;129;107;33153.000000;1.000000;1.000000;1.000000;1.000000;0.114225;-0.114225;0.114225;1.000000
445638.83360107;5696578.59469898;471.10745003;163;160;151;40863.000000;1.000000;1.000000;1.000000;1.000000;0.019224;-0.019224;0.019224;1.000000
445638.70040329;5696578.40129955;471.12004997;181;196;156;48059.000000;1.000000;1.000000;1.000000;1.000000;-0.113974;0.113974;-0.113974;1.000000
445639.06670197;5696578.34249886;471.06605007;96;85;44;21331.000000;1.000000;1.000000;1.000000;1.000000;0.012713;-0.012713;0.012713;1.000000
445638.74190338;5696578.75759895;471.09355022;36;37;28;8995.000000;1.000000;1.000000;1.000000;1.000000;0.073085;-0.073085;0.073085;1.000000
445638.93510254;5696578.80259903;471.10284998;145;145;138;37008.000000;1.000000;1.000000;1.000000;1.000000;0.027401;-0.027401;0.027401;1.000000
445638.91760071;5696578.81139954;471.09285023;143;142;132;36237.000000;1.000000;1.000000;1.000000;1.000000;0.018600;-0.018600;0.018600;1.000000
445639.21270187;5696578.63699921;471.08314993;63;69;53;16705.000000;1.000000;1.000000;1.000000;1.000000;0.007925;-0.007925;0.007925;1.000000
445638.71560104;5696578.75749882;471.10634996;24;27;19;6425.000000;1.000000;1.000000;1.000000;1.000000;0.081070;-0.081070;0.081070;1.000000
445639.26970108;5696578.86409958;471.01384999;149;146;135;37265.000000;1.000000;1.000000;1.000000;1.000000;-0.034100;0.034100;-0.034100;1.000000
445638.76970108;5696578.72929867;471.09215023;64;59;39;14906.000000;1.000000;1.000000;1.000000;1.000000;-0.081231;0.081231;-0.081231;1.000000
445638.92150314;5696578.89529903;471.07774975;67;66;54;16448.000000;1.000000;1.000000;1.000000;1.000000;-0.065299;0.065299;-0.065299;1.000000
445638.76290329;5696578.92409904;471.07554962;102;102;93;25957.000000;1.000000;1.000000;1.000000;1.000000;0.094099;-0.094099;0.094099;1.000000
445638.87479980;5696578.89279945;471.07095005;174;169;155;43176.000000;1.000000;1.000000;1.000000;1.000000;-0.062834;0.062834;-0.062834;1.000000
445639.14820297;5696578.64309891;471.07334997;98;99;94;25186.000000;1.000000;1.000000;1.000000;1.000000;0.072424;-0.072424;0.072424;1.000000
445639.11200150;5696578.60449894;471.07124998;91;89;75;22616.000000;1.000000;1.000000;1.000000;1.000000;0.108625;-0.108625;0.108625;1.000000
445638.78410156;5696578.44269951;471.11264994;161;152;134;39064.000000;1.000000;1.000000;1.000000;1.000000;-0.030275;0.030275;-0.030275;1.000000
445639.19080170;5696578.49669941;471.07114985;134;125;95;31868.000000;1.000000;1.000000;1.000000;1.000000;0.029912;-0.029912;0.029912;1.000000
445639.18350037;5696578.64679916;471.07725002;86;90;81;22359.000000;1.000000;1.000000;1.000000;1.000000;0.037127;-0.037127;0.037127;1.000000
445638.90929993;5696578.57609947;471.10134985;106;100;90;25700.000000;1.000000;1.000000;1.000000;1.000000;0.094923;-0.094923;0.094923;1.000000
445638.91060074;5696578.54089935;471.10325005;175;170;158;43690.000000;1.000000;1.000000;1.000000;1.000000;0.096224;-0.096224;0.096224;1.000000
445638.74950226;5696578.70039948;471.11885025;58;63;42;15163.000000;1.000000;1.000000;1.000000;1.000000;-0.075395;0.075395;-0.075395;1.000000
445639.14120300;5696578.36359890;471.06504967;181;163;140;42405.000000;1.000000;1.000000;1.000000;1.000000;0.033599;-0.033599;0.033599;1.000000
445639.02320297;5696578.71289928;471.08715012;146;144;136;36751.000000;1.000000;1.000000;1.000000;1.000000;0.117101;-0.117101;0.117101;1.000000
445639.06740005;5696578.32369907;471.06355001;77;76;32;18247.000000;1.000000;1.000000;1.000000;1.000000;-0.006989;0.006989;-0.006989;1.000000
445639.18210037;5696578.73859890;471.03875019;34;31;32;8224.000000;1.000000;1.000000;1.000000;1.000000;0.038527;-0.038527;0.038527;1.000000
445639.16110046;5696578.55999954;471.08225014;107;104;68;25700.000000;1.000000;1.000000;1.000000;1.000000;0.059526;-0.059526;0.059526;1.000000
445638.79320343;5696578.46969898;471.12274982;135;131;117;33410.000000;1.000000;1.000000;1.000000;1.000000;-0.021173;0.021173;-0.021173;1.000000
445639.17710312;5696578.78359898;471.03434994;72;67;62;17219.000000;1.000000;1.000000;1.000000;1.000000;0.043524;-0.043524;0.043524;1.000000
445639.18060120;5696578.74809940;471.03875019;34;29;30;7710.000000;1.000000;1.000000;1.000000;1.000000;0.040026;-0.040026;0.040026;1.000000
445638.64430054;5696578.42749889;471.12255003;69;86;53;19789.000000;1.000000;1.000000;1.000000;1.000000;-0.170076;0.170076;-0.170076;1.000000
445638.68169983;5696578.42859943;471.12424995;78;91;62;21331.000000;1.000000;1.000000;1.000000;1.000000;-0.132677;0.132677;-0.132677;1.000000
445638.74580200;5696578.91409882;471.07235004;150;151;143;38293.000000;1.000000;1.000000;1.000000;1.000000;-0.084318;0.084318;-0.084318;1.000000
445638.69050034;5696578.44649895;471.12244989;55;60;41;14392.000000;1.000000;1.000000;1.000000;1.000000;-0.123877;0.123877;-0.123877;1.000000
445639.12870224;5696578.87649925;471.05655005;114;109;99;28013.000000;1.000000;1.000000;1.000000;1.000000;-0.046499;0.046499;-0.046499;1.000000
445639.13220032;5696578.83879955;471.05625011;133;128;121;32896.000000;1.000000;1.000000;1.000000;1.000000;-0.008800;0.008800;-0.008800;1.000000
445639.13110168;5696578.80149944;471.05574991;148;142;137;36751.000000;1.000000;1.000000;1.000000;1.000000;0.028501;-0.028501;0.028501;1.000000
445638.91740234;5696578.38169868;471.08774998;180;169;154;43690.000000;1.000000;1.000000;1.000000;1.000000;-0.051699;0.051699;-0.051699;1.000000
445638.82690247;5696578.49949940;471.11064960;126;118;105;30326.000000;1.000000;1.000000;1.000000;1.000000;0.012526;-0.012526;0.012526;1.000000
445638.87150009;5696578.35279949;471.11325027;177;180;161;45489.000000;1.000000;1.000000;1.000000;1.000000;0.022799;-0.022799;0.022799;1.000000
445639.19770248;5696578.77699955;471.03055002;88;84;79;21588.000000;1.000000;1.000000;1.000000;1.000000;0.022924;-0.022924;0.022924;1.000000
445639.10460098;5696578.79909904;471.06854965;111;108;101;27756.000000;1.000000;1.000000;1.000000;1.000000;0.030901;-0.030901;0.030901;1.000000
445639.10360153;5696578.76179894;471.06574966;144;140;135;35980.000000;1.000000;1.000000;1.000000;1.000000;0.068201;-0.068201;0.068201;1.000000
445639.21030243;5696578.47859867;471.06714966;148;137;109;35209.000000;1.000000;1.000000;1.000000;1.000000;0.022912;-0.022912;0.022912;1.000000
445638.88739975;5696578.64119919;471.09874966;154;154;144;39064.000000;1.000000;1.000000;1.000000;1.000000;0.073023;-0.073023;0.073023;1.000000
445639.17390259;5696578.43989952;471.06734993;152;138;119;35980.000000;1.000000;1.000000;1.000000;1.000000;0.075372;-0.075372;0.075372;1.000000
445639.21150024;5696578.44109924;471.06675007;131;120;97;30840.000000;1.000000;1.000000;1.000000;1.000000;0.058668;-0.058668;0.058668;1.000000
445639.21310242;5696578.40599926;471.06174995;173;160;142;41377.000000;1.000000;1.000000;1.000000;1.000000;0.075999;-0.075999;0.075999;1.000000
445638.82970245;5696578.43369873;471.11934998;212;209;198;53456.000000;1.000000;1.000000;1.000000;1.000000;0.015326;-0.015326;0.015326;1.000000
445638.85090073;5696578.60249908;471.10364964;126;125;114;31868.000000;1.000000;1.000000;1.000000;1.000000;0.036524;-0.036524;0.036524;1.000000
445638.68309982;5696578.39119919;471.11914970;198;214;170;52428.000000;1.000000;1.000000;1.000000;1.000000;-0.131277;0.131277;-0.131277;1.000000
445638.77480133;5696578.39449890;471.11404993;103;96;70;24415.000000;1.000000;1.000000;1.000000;1.000000;-0.039576;0.039576;-0.039576;1.000000
445638.80220230;5696578.41519936;471.12015011;76;77;63;19275.000000;1.000000;1.000000;1.000000;1.000000;-0.012175;0.012175;-0.012175;1.000000
445638.70480164;5696578.49439915;471.11204960;147;146;127;37008.000000;1.000000;1.000000;1.000000;1.000000;-0.109575;0.109575;-0.109575;1.000000
445638.88350113;5696578.91289909;471.07385017;131;129;111;32639.000000;1.000000;1.000000;1.000000;1.000000;-0.082899;0.082899;-0.082899;1.000000
445638.80310257;5696578.42439945;471.12034990;83;83;68;20817.000000;1.000000;1.000000;1.000000;1.000000;-0.011274;0.011274;-0.011274;1.000000
445638.80430038;5696578.38699921;471.11994984;33;36;16;8224.000000;1.000000;1.000000;1.000000;1.000000;-0.010077;0.010077;-0.010077;1.000000
445638.70360001;5696578.75619896;471.11045029;31;34;25;8224.000000;1.000000;1.000000;1.000000;1.000000;0.088189;-0.088189;0.088189;1.000000
445638.74440201;5696578.71959885;471.11414959;42;43;25;10280.000000;1.000000;1.000000;1.000000;1.000000;-0.090699;0.090699;-0.090699;1.000000
445638.75020035;5696578.68169888;471.11634972;102;104;88;25957.000000;1.000000;1.000000;1.000000;1.000000;-0.067152;0.067152;-0.067152;1.000000
445639.10350235;5696578.36239918;471.06794979;139;119;91;31097.000000;1.000000;1.000000;1.000000;1.000000;0.032511;-0.032511;0.032511;1.000000
445638.94280060;5696578.40269955;471.08675005;153;135;118;35466.000000;1.000000;1.000000;1.000000;1.000000;0.072780;-0.072780;0.072780;1.000000
445638.78569992;5696578.61069878;471.11474993;77;76;68;19275.000000;1.000000;1.000000;1.000000;1.000000;-0.028677;0.028677;-0.028677;1.000000
445638.95300110;5696578.38539894;471.08474972;108;92;72;24158.000000;1.000000;1.000000;1.000000;1.000000;0.055399;-0.055399;0.055399;1.000000
445638.99050339;5696578.38659866;471.08404972;167;150;129;39064.000000;1.000000;1.000000;1.000000;1.000000;0.056599;-0.056599;0.056599;1.000000
445638.74460037;5696578.87909897;471.07655003;44;47;43;11565.000000;1.000000;1.000000;1.000000;1.000000;-0.049635;0.049635;-0.049635;1.000000
445638.82560165;5696578.53689869;471.11334993;101;96;86;24672.000000;1.000000;1.000000;1.000000;1.000000;0.011225;-0.011225;0.011225;1.000000
445639.12420090;5696578.51219948;471.07534983;163;153;130;39321.000000;1.000000;1.000000;1.000000;1.000000;0.096426;-0.096426;0.096426;1.000000
445639.12550171;5696578.47469910;471.07264997;181;168;149;43433.000000;1.000000;1.000000;1.000000;1.000000;0.098166;-0.098166;0.098166;1.000000
445639.10960205;5696578.65149887;471.06694986;115;110;101;28270.000000;1.000000;1.000000;1.000000;1.000000;0.111025;-0.111025;0.111025;1.000000
445638.89110001;5696578.53109940;471.09994986;174;170;159;43433.000000;1.000000;1.000000;1.000000;1.000000;0.076723;-0.076723;0.076723;1.000000
445638.93120010;5696578.92249878;471.07385017;69;69;57;17219.000000;1.000000;1.000000;1.000000;1.000000;-0.092499;0.092499;-0.092499;1.000000
445638.81980331;5696578.88149937;471.07294991;81;78;69;19789.000000;1.000000;1.000000;1.000000;1.000000;-0.051499;0.051499;-0.051499;1.000000
445638.74710281;5696578.42269905;471.11315014;91;87;60;21845.000000;1.000000;1.000000;1.000000;1.000000;-0.067274;0.067274;-0.067274;1.000000
445639.15540131;5696578.46729954;471.06924965;139;125;105;32382.000000;1.000000;1.000000;1.000000;1.000000;0.072525;-0.072525;0.072525;1.000000
445638.84850128;5696578.69629868;471.09065010;107;104;83;26214.000000;1.000000;1.000000;1.000000;1.000000;0.048795;-0.048795;0.048795;1.000000
445639.20030029;5696578.71119888;471.04384996;104;106;106;26985.000000;1.000000;1.000000;1.000000;1.000000;0.020327;-0.020327;0.020327;1.000000
445638.91250046;5696578.92189892;471.07294991;138;137;121;34695.000000;1.000000;1.000000;1.000000;1.000000;-0.091899;0.091899;-0.091899;1.000000
445639.18800171;5696578.77549942;471.03475000;73;67;64;17476.000000;1.000000;1.000000;1.000000;1.000000;0.032625;-0.032625;0.032625;1.000000
445639.16190155;5696578.51339920;471.07235004;159;152;120;38550.000000;1.000000;1.000000;1.000000;1.000000;0.058725;-0.058725;0.058725;1.000000
445639.23700150;5696578.51809891;471.07585003;162;169;125;41634.000000;1.000000;1.000000;1.000000;1.000000;-0.016375;0.016375;-0.016375;1.000000
445638.82310303;5696578.84369953;471.07735016;157;155;144;39578.000000;1.000000;1.000000;1.000000;1.000000;-0.013700;0.013700;-0.013700;1.000000
445638.75590332;5696578.44059952;471.11134960;115;105;82;26985.000000;1.000000;1.000000;1.000000;1.000000;-0.058474;0.058474;-0.058474;1.000000
445639.00080307;5696578.36709888;471.07504990;173;160;137;41377.000000;1.000000;1.000000;1.000000;1.000000;0.037099;-0.037099;0.037099;1.000000
445638.80570038;5696578.37749870;471.11984970;46;52;26;12079.000000;1.000000;1.000000;1.000000;1.000000;-0.008677;0.008677;-0.008677;1.000000
445638.75920303;5696578.58029945;471.12015011;181;178;164;45489.000000;1.000000;1.000000;1.000000;1.000000;-0.055174;0.055174;-0.055174;1.000000
445638.80690201;5696578.33999928;471.11945011;165;184;134;44204.000000;1.000000;1.000000;1.000000;1.000000;-0.007475;0.007475;-0.007475;1.000000
445638.85280045;5696578.57419880;471.10574963;150;147;133;37522.000000;1.000000;1.000000;1.000000;1.000000;0.038424;-0.038424;0.038424;1.000000
445638.91830261;5696578.36529930;471.08524992;158;150;130;38550.000000;1.000000;1.000000;1.000000;1.000000;-0.035299;0.035299;-0.035299;1.000000
445639.04490097;5696578.86289890;471.07354977;49;49;46;12336.000000;1.000000;1.000000;1.000000;1.000000;-0.035088;0.035088;-0.035088;1.000000
445639.04290207;5696578.89119919;471.07144978;95;95;89;24158.000000;1.000000;1.000000;1.000000;1.000000;-0.062045;0.062045;-0.062045;1.000000
445639.25100143;5696578.86349876;471.01304986;139;136;124;34695.000000;1.000000;1.000000;1.000000;1.000000;0.033499;-0.033499;0.033499;1.000000
445639.18300064;5696578.68219955;471.05674984;31;32;32;7967.000000;1.000000;1.000000;1.000000;1.000000;0.037626;-0.037626;0.037626;1.000000
445639.07069977;5696578.71559914;471.07764961;156;153;148;39321.000000;1.000000;1.000000;1.000000;1.000000;0.114401;-0.114401;0.114401;1.000000
445639.22060211;5696578.68339928;471.05604984;49;51;48;12850.000000;1.000000;1.000000;1.000000;1.000000;0.000025;-0.000025;0.000025;1.000000
445638.74630173;5696578.43919952;471.11325027;111;104;80;26471.000000;1.000000;1.000000;1.000000;1.000000;-0.068075;0.068075;-0.068075;1.000000
445638.77029999;5696578.34809883;471.11794998;57;66;33;15163.000000;1.000000;1.000000;1.000000;1.000000;-0.044077;0.044077;-0.044077;1.000000
445639.15780075;5696578.82969959;471.03865005;132;127;120;32639.000000;1.000000;1.000000;1.000000;1.000000;0.000443;-0.000443;0.000443;1.000000
445639.05040176;5696578.75019939;471.07945015;147;145;139;37008.000000;1.000000;1.000000;1.000000;1.000000;0.081015;-0.081015;0.081015;1.000000
445639.02810104;5696578.38779934;471.08344986;187;171;152;44461.000000;1.000000;1.000000;1.000000;1.000000;0.057799;-0.057799;0.057799;1.000000
445638.99070175;5696578.41459950;471.08675005;151;135;117;35209.000000;1.000000;1.000000;1.000000;1.000000;0.084599;-0.084599;0.084599;1.000000
445639.06360062;5696578.41719921;471.08305027;149;131;111;34438.000000;1.000000;1.000000;1.000000;1.000000;0.087199;-0.087199;0.087199;1.000000
445638.91670044;5696578.37239941;471.08524992;172;163;146;41891.000000;1.000000;1.000000;1.000000;1.000000;-0.042399;0.042399;-0.042399;1.000000
445638.95430191;5696578.37359913;471.08225014;107;91;69;23901.000000;1.000000;1.000000;1.000000;1.000000;0.043599;-0.043599;0.043599;1.000000
445638.98980148;5696578.37739952;471.08165028;156;141;120;36751.000000;1.000000;1.000000;1.000000;1.000000;0.047400;-0.047400;0.047400;1.000000
445639.17340286;5696578.69959934;471.04715015;86;86;87;22102.000000;1.000000;1.000000;1.000000;1.000000;0.047224;-0.047224;0.047224;1.000000
445638.85400208;5696578.53669937;471.10535004;187;183;170;46774.000000;1.000000;1.000000;1.000000;1.000000;0.039625;-0.039625;0.039625;1.000000
445638.85550125;5696578.50159939;471.10265018;159;149;133;38550.000000;1.000000;1.000000;1.000000;1.000000;0.041124;-0.041124;0.041124;1.000000
445639.14240082;5696578.74449928;471.04865028;54;50;48;12850.000000;1.000000;1.000000;1.000000;1.000000;0.078226;-0.078226;0.078226;1.000000
445639.17360123;5696578.89599903;471.03324987;140;131;119;33924.000000;1.000000;1.000000;1.000000;1.000000;-0.065999;0.065999;-0.065999;1.000000
445638.98350342;5696578.35709961;471.07414963;143;136;103;34438.000000;1.000000;1.000000;1.000000;1.000000;0.027100;-0.027100;0.027100;1.000000
445638.91880234;5696578.34649952;471.08734991;81;80;49;19532.000000;1.000000;1.000000;1.000000;1.000000;0.016500;-0.016500;0.016500;1.000000
445639.02860077;5696578.39469917;471.08594992;196;180;159;46774.000000;1.000000;1.000000;1.000000;1.000000;0.064699;-0.064699;0.064699;1.000000
445639.02729996;5696578.85279949;471.07964994;90;92;87;23130.000000;1.000000;1.000000;1.000000;1.000000;-0.022799;0.022799;-0.022799;1.000000
445638.78849991;5696578.59169872;471.11695005;148;146;134;37265.000000;1.000000;1.000000;1.000000;1.000000;-0.025877;0.025877;-0.025877;1.000000
445639.06260117;5696578.85419949;471.07665016;62;61;58;15420.000000;1.000000;1.000000;1.000000;1.000000;-0.024265;0.024265;-0.024265;1.000000
445639.18760117;5696578.79429920;471.03035023;98;94;90;24158.000000;1.000000;1.000000;1.000000;1.000000;0.033026;-0.033026;0.033026;1.000000
445639.22540100;5696578.79559906;471.02504971;52;47;41;12079.000000;1.000000;1.000000;1.000000;1.000000;-0.004774;0.004774;-0.004774;1.000000
445639.11240204;5696578.75409897;471.06134989;170;167;163;42919.000000;1.000000;1.000000;1.000000;1.000000;0.075901;-0.075901;0.075901;1.000000
445639.11690338;5696578.67889889;471.06535007;122;117;112;30069.000000;1.000000;1.000000;1.000000;1.000000;0.103724;0.103724;-0.103724;1.000000
445638.77880295;5696578.79639919;471.08174994;105;102;86;25957.000000;1.000000;1.000000;1.000000;1.000000;-0.033601;0.033601;-0.033601;1.000000
445639.19709976;5696578.79579933;471.03074982;109;103;97;26728.000000;1.000000;1.000000;1.000000;1.000000;0.023527;-0.023527;0.023527;1.000000
445639.15120132;5696578.73669918;471.04664995;45;41;41;10794.000000;1.000000;1.000000;1.000000;1.000000;0.069426;-0.069426;0.069426;1.000000
445638.91720016;5696578.35369881;471.08734991;117;112;87;28270.000000;1.000000;1.000000;1.000000;1.000000;-0.023699;0.023699;-0.023699;1.000000
445638.86540039;5696578.91929920;471.07315018;134;131;115;33410.000000;1.000000;1.000000;1.000000;1.000000;-0.089299;0.089299;-0.089299;1.000000
445639.19090088;5696578.70969875;471.04344990;106;107;109;27242.000000;1.000000;1.000000;1.000000;1.000000;0.029726;-0.029726;0.029726;1.000000
445638.79700287;5696578.58159931;471.11494972;128;124;113;31611.000000;1.000000;1.000000;1.000000;1.000000;-0.017374;0.017374;-0.017374;1.000000
445638.87619980;5696578.88329895;471.07084991;141;135;123;34695.000000;1.000000;1.000000;1.000000;1.000000;-0.053303;0.053303;-0.053303;1.000000
445638.74419983;5696578.49529942;471.12085011;164;148;135;38807.000000;1.000000;1.000000;1.000000;1.000000;-0.070177;0.070177;-0.070177;1.000000
445638.69360168;5696578.79239948;471.09644987;23;26;26;6425.000000;1.000000;1.000000;1.000000;1.000000;0.069353;-0.069353;0.069353;1.000000
445638.72599991;5696578.47589882;471.12214996;163;158;142;40349.000000;1.000000;1.000000;1.000000;1.000000;-0.088377;0.088377;-0.088377;1.000000
445638.71899994;5696578.62609871;471.12124969;91;103;84;24929.000000;1.000000;1.000000;1.000000;1.000000;-0.095377;0.095377;-0.095377;1.000000
445638.98180206;5696578.82179935;471.09124996;40;42;40;10537.000000;1.000000;1.000000;1.000000;1.000000;0.008201;-0.008201;0.008201;1.000000
445639.14719971;5696578.65499886;471.06874992;85;84;80;21331.000000;1.000000;1.000000;1.000000;1.000000;0.073427;-0.073427;0.073427;1.000000
445639.20440109;5696578.86999901;471.02265026;100;94;82;24158.000000;1.000000;1.000000;1.000000;1.000000;-0.039999;0.039999;-0.039999;1.000000
445639.15089996;5696578.54929932;471.07924988;137;134;103;33667.000000;1.000000;1.000000;1.000000;1.000000;0.069727;-0.069727;0.069727;1.000000
445638.70630081;5696578.72049912;471.13345005;104;115;88;27756.000000;1.000000;1.000000;1.000000;1.000000;0.118607;-0.118607;0.118607;1.000000
445638.77340134;5696578.48769959;471.13135006;149;144;131;37008.000000;1.000000;1.000000;1.000000;1.000000;-0.040976;0.040976;-0.040976;1.000000
445639.14040192;5696578.58769901;471.08165028;134;131;110;33153.000000;1.000000;1.000000;1.000000;1.000000;0.080225;-0.080225;0.080225;1.000000
445638.92300232;5696578.41839893;471.09305002;150;134;117;34952.000000;1.000000;1.000000;1.000000;1.000000;0.088399;-0.088399;0.088399;1.000000
445639.18490036;5696578.65849884;471.07044985;47;50;44;12336.000000;1.000000;1.000000;1.000000;1.000000;0.035727;-0.035727;0.035727;1.000000
445638.78070267;5696578.72129925;471.09025003;78;74;50;18504.000000;1.000000;1.000000;1.000000;1.000000;-0.068701;0.068701;-0.068701;1.000000
445639.16030319;5696578.55079945;471.08204987;103;100;62;24672.000000;1.000000;1.000000;1.000000;1.000000;0.060324;-0.060324;0.060324;1.000000
445639.19760330;5696578.55189903;471.08605005;121;129;83;31097.000000;1.000000;1.000000;1.000000;1.000000;0.023024;-0.023024;0.023024;1.000000
445639.21090134;5696578.88809879;471.02084972;167;159;147;41120.000000;1.000000;1.000000;1.000000;1.000000;-0.058099;0.058099;-0.058099;1.000000
445638.99160202;5696578.80439957;471.09604980;53;53;50;13364.000000;1.000000;1.000000;1.000000;1.000000;0.025600;-0.025600;0.025600;1.000000
445639.21450241;5696578.85269936;471.02285006;83;79;68;20046.000000;1.000000;1.000000;1.000000;1.000000;-0.022699;0.022699;-0.022699;1.000000
445639.23520096;5696578.55309875;471.08544971;118;137;85;32125.000000;1.000000;1.000000;1.000000;1.000000;-0.014574;0.014574;-0.014574;1.000000
445638.87040146;5696578.58659943;471.10434963;178;176;163;44975.000000;1.000000;1.000000;1.000000;1.000000;0.056025;-0.056025;0.056025;1.000000
445639.06369980;5696578.44519909;471.08575012;178;164;145;42662.000000;1.000000;1.000000;1.000000;1.000000;0.115199;-0.115199;0.115199;1.000000
445638.84200104;5696578.58449944;471.10765030;168;166;155;42405.000000;1.000000;1.000000;1.000000;1.000000;0.027624;-0.027624;0.027624;1.000000
445638.84679993;5696578.50939949;471.10465004;161;153;138;39321.000000;1.000000;1.000000;1.000000;1.000000;0.032423;-0.032423;0.032423;1.000000
445638.70810135;5696578.66199883;471.12815001;89;108;84;25443.000000;1.000000;1.000000;1.000000;1.000000;-0.106276;0.106276;-0.106276;1.000000
445638.88700302;5696578.36319931;471.10244991;127;125;109;31611.000000;1.000000;1.000000;1.000000;1.000000;0.033202;-0.033202;0.033202;1.000000
445639.11100204;5696578.64199932;471.06694986;141;138;131;35466.000000;1.000000;1.000000;1.000000;1.000000;0.109625;-0.109625;0.109625;1.000000
445639.19000061;5696578.51539906;471.07605030;115;111;74;27756.000000;1.000000;1.000000;1.000000;1.000000;0.030626;-0.030626;0.030626;1.000000
445638.84190186;5696578.84429939;471.07815029;189;186;173;47545.000000;1.000000;1.000000;1.000000;1.000000;-0.014777;0.014777;-0.014777;1.000000
445638.87160309;5696578.54919918;471.10395004;137;133;120;33924.000000;1.000000;1.000000;1.000000;1.000000;0.057226;-0.057226;0.057226;1.000000
445639.07940109;5696578.70789917;471.07564976;162;159;152;40863.000000;1.000000;1.000000;1.000000;1.000000;0.122101;-0.122101;0.122101;1.000000
445639.21940048;5696578.71409901;471.04244997;63;65;64;16448.000000;1.000000;1.000000;1.000000;1.000000;0.001226;-0.001226;0.001226;1.000000
445638.87870224;5696578.39899929;471.10244991;101;95;82;24415.000000;1.000000;1.000000;1.000000;1.000000;0.064325;-0.064325;0.064325;1.000000
445639.20010193;5696578.52379902;471.07655003;105;105;64;25700.000000;1.000000;1.000000;1.000000;1.000000;0.020525;-0.020525;0.020525;1.000000
445638.93420227;5696578.83789928;471.09154989;54;55;51;13878.000000;1.000000;1.000000;1.000000;1.000000;-0.007899;0.007899;-0.007899;1.000000
445638.78400238;5696578.47059925;471.12004997;141;135;120;34695.000000;1.000000;1.000000;1.000000;1.000000;-0.030375;0.030375;-0.030375;1.000000
445639.22980316;5696578.88869961;471.01705005;137;132;121;33924.000000;1.000000;1.000000;1.000000;1.000000;-0.058700;0.058700;-0.058700;1.000000
445639.01060303;5696578.80509956;471.09235003;84;85;80;21588.000000;1.000000;1.000000;1.000000;1.000000;0.024900;-0.024900;0.024900;1.000000
445638.76320084;5696578.69229897;471.10774996;51;54;37;13107.000000;1.000000;1.000000;1.000000;1.000000;-0.059595;0.059595;-0.059595;1.000000
445638.76650055;5696578.65449913;471.11204960;42;46;38;11051.000000;1.000000;1.000000;1.000000;1.000000;-0.047876;0.047876;-0.047876;1.000000
445639.11120041;5696578.81949909;471.06675007;134;130;124;33410.000000;1.000000;1.000000;1.000000;1.000000;0.010501;-0.010501;0.010501;1.000000
445638.88230331;5696578.36359890;471.10454990;125;124;108;31354.000000;1.000000;1.000000;1.000000;1.000000;0.033983;-0.033983;0.033983;1.000000
445638.74340256;5696578.45809944;471.11334993;132;125;106;32125.000000;1.000000;1.000000;1.000000;1.000000;-0.070974;0.070974;-0.070974;1.000000
445639.08320053;5696578.39919956;471.07675030;184;166;144;43176.000000;1.000000;1.000000;1.000000;1.000000;0.069200;-0.069200;0.069200;1.000000
445639.13160141;5696578.56749924;471.07865002;135;131;106;33153.000000;1.000000;1.000000;1.000000;1.000000;0.089025;-0.089025;0.089025;1.000000
445638.92110260;5696578.91409882;471.07324984;117;117;104;29555.000000;1.000000;1.000000;1.000000;1.000000;-0.084099;0.084099;-0.084099;1.000000
445639.03580292;5696578.84269913;471.07754995;52;54;50;13364.000000;1.000000;1.000000;1.000000;1.000000;-0.013069;0.013069;-0.013069;1.000000
445639.07349976;5696578.84619911;471.07704975;184;184;180;47031.000000;1.000000;1.000000;1.000000;1.000000;-0.016199;0.016199;-0.016199;1.000000
445639.07470139;5696578.80869873;471.07665016;144;142;135;36237.000000;1.000000;1.000000;1.000000;1.000000;0.021301;-0.021301;0.021301;1.000000
445639.07600220;5696578.77129944;471.07385017;137;135;130;34695.000000;1.000000;1.000000;1.000000;1.000000;0.058701;-0.058701;0.058701;1.000000
445639.18910034;5696578.73799904;471.03665020;33;30;32;7967.000000;1.000000;1.000000;1.000000;1.000000;0.031527;-0.031527;0.031527;1.000000
445638.82440002;5696578.57439907;471.11375000;124;121;109;30840.000000;1.000000;1.000000;1.000000;1.000000;0.010023;-0.010023;0.010023;1.000000
445639.19920166;5696578.51449879;471.07644989;109;107;69;26471.000000;1.000000;1.000000;1.000000;1.000000;0.021425;-0.021425;0.021425;1.000000
445639.05880173;5696578.36179932;471.07294991;152;136;107;35209.000000;1.000000;1.000000;1.000000;1.000000;0.031799;-0.031799;0.031799;1.000000
445639.06600006;5696578.81649883;471.07865002;210;210;203;53713.000000;1.000000;1.000000;1.000000;1.000000;0.013501;-0.013501;0.013501;1.000000
445638.75970276;5696578.35849960;471.11525013;38;42;10;9509.000000;1.000000;1.000000;1.000000;1.000000;-0.054674;0.054674;-0.054674;1.000000
445639.10400208;5696578.81779869;471.06874992;125;122;116;31354.000000;1.000000;1.000000;1.000000;1.000000;0.012201;-0.012201;0.012201;1.000000
445639.20140274;5696578.45839890;471.06654980;139;126;103;32639.000000;1.000000;1.000000;1.000000;1.000000;0.044977;-0.044977;0.044977;1.000000
445639.16760071;5696578.42189892;471.06685020;180;164;146;42662.000000;1.000000;1.000000;1.000000;1.000000;0.091905;-0.091905;0.091905;1.000000
445639.09500320;5696578.34449871;471.06504967;111;99;59;25186.000000;1.000000;1.000000;1.000000;1.000000;0.014499;-0.014499;0.014499;1.000000
445638.66230209;5696578.65209873;471.13765003;106;122;96;29298.000000;1.000000;1.000000;1.000000;1.000000;-0.152075;0.152075;-0.152075;1.000000
445638.92910202;5696578.51349934;471.10144999;165;159;147;40863.000000;1.000000;1.000000;1.000000;1.000000;0.114725;-0.114725;0.114725;1.000000
445639.01180084;5696578.33119877;471.06804993;73;77;26;17990.000000;1.000000;1.000000;1.000000;1.000000;0.001359;-0.001359;0.001359;1.000000
445638.94540222;5696578.81099899;471.09874966;90;90;86;22873.000000;1.000000;1.000000;1.000000;1.000000;0.019001;-0.019001;0.019001;1.000000
445638.73560150;5696578.90569885;471.07175018;115;115;110;29298.000000;1.000000;1.000000;1.000000;1.000000;-0.077429;0.077429;-0.077429;1.000000
445638.73650177;5696578.86809929;471.07834961;66;70;67;17476.000000;1.000000;1.000000;1.000000;1.000000;-0.041085;0.041085;-0.041085;1.000000
445638.69920166;5696578.86699875;471.07434990;89;90;91;22873.000000;1.000000;1.000000;1.000000;1.000000;-0.064371;0.064371;-0.064371;1.000000
445638.81170090;5696578.87049873;471.07474997;99;97;89;24672.000000;1.000000;1.000000;1.000000;1.000000;0.040499;-0.040499;0.040499;1.000000
445638.72120102;5696578.76409920;471.09975006;38;41;31;10023.000000;1.000000;1.000000;1.000000;1.000000;0.072691;-0.072691;0.072691;1.000000
445638.75980194;5696578.72779949;471.10104992;66;66;44;16191.000000;1.000000;1.000000;1.000000;1.000000;-0.085769;0.085769;-0.085769;1.000000
445638.76560028;5696578.69209869;471.10554983;54;54;38;13364.000000;1.000000;1.000000;1.000000;1.000000;-0.057465;0.057465;-0.057465;1.000000
445638.95860107;5696578.91759880;471.07735016;100;102;92;25700.000000;1.000000;1.000000;1.000000;1.000000;-0.088068;0.088068;-0.088068;1.000000
445639.03479965;5696578.88019951;471.07334997;93;92;88;23387.000000;1.000000;1.000000;1.000000;1.000000;-0.050243;0.050243;-0.050243;1.000000
