//X;Y;Z;R;G;B;Intensity;Return Number;Number Of Returns;Scan Direction Flag;Point Source ID;C2M signed distances[-][<0.8];C2M signed distances[<0.4];C2M signed distances[-][<0.2];Stump31
445623.34680183;5696572.06159981;471.94635012;88;81;72;21074.000000;1.000000;1.000000;1.000000;1.000000;-0.186326;0.186326;-0.186326;1.000000
445623.38410194;5696572.06279953;471.95034983;119;116;110;29812.000000;1.000000;1.000000;1.000000;1.000000;-0.149025;0.149025;-0.149025;1.000000
445623.34790237;5696572.02409943;471.94824984;34;33;33;8481.000000;1.000000;1.000000;1.000000;1.000000;-0.185225;0.185225;-0.185225;1.000000
445623.38570221;5696572.02769859;471.94764997;59;57;56;14649.000000;1.000000;1.000000;1.000000;1.000000;-0.147425;0.147425;-0.147425;1.000000
445623.42320068;5696572.02889927;471.94705011;73;71;69;18247.000000;1.000000;1.000000;1.000000;1.000000;-0.109927;0.109927;-0.109927;1.000000
445623.38670166;5696571.99009903;471.94955017;62;60;58;15420.000000;1.000000;1.000000;1.000000;1.000000;-0.146426;0.146426;-0.146426;1.000000
445623.66560181;5696572.44779881;471.95134975;166;163;152;41634.000000;1.000000;1.000000;1.000000;1.000000;-0.117799;0.117799;-0.117799;1.000000
445623.48130234;5696572.40179928;471.94945004;77;73;65;18761.000000;1.000000;1.000000;1.000000;1.000000;-0.071799;0.071799;-0.071799;1.000000
445623.48280151;5696572.36669930;471.94675018;116;115;109;29298.000000;1.000000;1.000000;1.000000;1.000000;-0.036699;0.036699;-0.036699;1.000000
445623.52040108;5696572.36789902;471.94614985;148;145;138;37265.000000;1.000000;1.000000;1.000000;1.000000;-0.037899;0.037899;-0.037899;1.000000
445623.41460236;5696572.21409901;471.95114996;80;71;64;18504.000000;1.000000;1.000000;1.000000;1.000000;0.115901;-0.115901;0.115901;1.000000
445623.45370110;5696572.18019875;471.94784977;102;93;88;24415.000000;1.000000;1.000000;1.000000;1.000000;-0.079443;0.079443;-0.079443;1.000000
445623.53220184;5696572.07009895;471.94784977;106;106;103;26985.000000;1.000000;1.000000;1.000000;1.000000;-0.000926;0.000926;-0.000926;1.000000
445623.46020134;5696572.02769859;471.95335009;205;204;199;52171.000000;1.000000;1.000000;1.000000;1.000000;-0.072926;0.072926;-0.072926;1.000000
445623.09410103;5696572.32059868;471.97055008;206;205;192;52171.000000;1.000000;1.000000;1.000000;1.000000;-0.009401;0.009401;-0.009401;1.000000
445623.06500061;5696572.13409908;471.96934988;223;226;223;57568.000000;1.000000;1.000000;1.000000;1.000000;-0.094373;0.094373;-0.094373;1.000000
445623.10370071;5696572.09789951;471.96834995;159;163;160;41377.000000;1.000000;1.000000;1.000000;1.000000;-0.133073;0.133073;-0.133073;1.000000
445623.49880226;5696572.44889935;471.97174980;192;191;183;48830.000000;1.000000;1.000000;1.000000;1.000000;-0.096176;0.096176;-0.096176;1.000000
445623.15460213;5696572.18449886;471.95305016;146;143;134;36494.000000;1.000000;1.000000;1.000000;1.000000;-0.145501;0.145501;-0.145501;1.000000
445623.05020149;5696572.06799896;471.95165016;100;93;76;23901.000000;1.000000;1.000000;1.000000;1.000000;-0.079574;0.079574;-0.079574;1.000000
445623.16160210;5696572.03429897;471.95394995;127;123;113;31611.000000;1.000000;1.000000;1.000000;1.000000;-0.190975;0.190975;-0.190975;1.000000
445623.38340195;5696572.08149918;471.95284988;222;222;216;56797.000000;1.000000;1.000000;1.000000;1.000000;-0.149725;0.149725;-0.149725;1.000000
445623.38510139;5696572.04639919;471.94784977;73;70;66;17990.000000;1.000000;1.000000;1.000000;1.000000;-0.148026;0.148026;-0.148026;1.000000
445623.42240150;5696572.04749878;471.95184996;161;162;157;41377.000000;1.000000;1.000000;1.000000;1.000000;-0.110726;0.110726;-0.110726;1.000000
445623.38620193;5696572.00889977;471.94745018;67;65;65;16705.000000;1.000000;1.000000;1.000000;1.000000;-0.146925;0.146925;-0.146925;1.000000
445623.40350159;5696572.49319942;471.94705011;144;141;130;35980.000000;1.000000;1.000000;1.000000;1.000000;0.004626;-0.004626;0.004626;1.000000
445623.44200142;5696572.45689877;471.95064976;130;128;120;32639.000000;1.000000;1.000000;1.000000;1.000000;-0.041796;0.041796;-0.041796;1.000000
445623.62750061;5696572.46539886;471.94985010;159;157;147;40092.000000;1.000000;1.000000;1.000000;1.000000;-0.135399;0.135399;-0.135399;1.000000
445623.48060234;5696572.42049892;471.95195009;98;95;85;24158.000000;1.000000;1.000000;1.000000;1.000000;-0.090499;0.090499;-0.090499;1.000000
445623.66640099;5696572.42909916;471.94644978;177;174;164;44461.000000;1.000000;1.000000;1.000000;1.000000;-0.099099;0.099099;-0.099099;1.000000
445623.48220070;5696572.38539894;471.94694998;85;83;76;21074.000000;1.000000;1.000000;1.000000;1.000000;-0.055399;0.055399;-0.055399;1.000000
445623.51970108;5696572.38659866;471.94864990;149;146;138;37522.000000;1.000000;1.000000;1.000000;1.000000;-0.056599;0.056599;-0.056599;1.000000
445623.44570168;5696572.34669884;471.95184996;40;40;40;10023.000000;1.000000;1.000000;1.000000;1.000000;-0.016699;0.016699;-0.016699;1.000000
445623.52540215;5696572.27389915;471.95225002;105;106;106;26985.000000;1.000000;1.000000;1.000000;1.000000;-0.056101;0.056101;-0.056101;1.000000
445623.45270164;5696572.19649895;471.95265009;103;94;88;24672.000000;1.000000;1.000000;1.000000;1.000000;-0.082381;0.082381;-0.082381;1.000000
445623.49020203;5696572.19769867;471.95204975;227;225;221;57825.000000;1.000000;1.000000;1.000000;1.000000;-0.046964;0.046964;-0.046964;1.000000
445623.53270157;5696572.05129917;471.94994976;101;101;98;25700.000000;1.000000;1.000000;1.000000;1.000000;-0.000426;0.000426;-0.000426;1.000000
445623.49870117;5696572.01249893;471.95025017;220;221;214;56283.000000;1.000000;1.000000;1.000000;1.000000;-0.034426;0.034426;-0.034426;1.000000
445623.53750237;5696571.97619923;471.94694998;103;100;96;25700.000000;1.000000;1.000000;1.000000;1.000000;0.004375;-0.004375;0.004375;1.000000
445623.10750206;5696572.45209892;471.99834969;147;144;138;37008.000000;1.000000;1.000000;1.000000;1.000000;0.122099;-0.122099;0.122099;1.000000
445623.33110245;5696572.42499931;471.95924999;43;43;48;11051.000000;1.000000;1.000000;1.000000;1.000000;0.094999;-0.094999;0.094999;1.000000
445623.58940132;5696572.51079948;471.95564987;95;92;84;23644.000000;1.000000;1.000000;1.000000;1.000000;-0.180828;0.180828;-0.180828;1.000000
445623.48140152;5696572.43199928;471.95914986;113;110;101;28013.000000;1.000000;1.000000;1.000000;1.000000;-0.088264;0.088264;-0.088264;1.000000
445623.51850136;5696572.43089874;471.96315004;170;169;161;43176.000000;1.000000;1.000000;1.000000;1.000000;-0.100899;0.100899;-0.100899;1.000000
445623.52620132;5696572.21069916;471.95855000;214;217;216;55255.000000;1.000000;1.000000;1.000000;1.000000;-0.032665;0.032665;-0.032665;1.000000
445623.63790138;5696572.21259888;471.92164995;117;115;109;29298.000000;1.000000;1.000000;1.000000;1.000000;0.020226;-0.020226;0.020226;1.000000
445623.41810234;5696572.12959869;471.95734980;74;70;67;17990.000000;1.000000;1.000000;1.000000;1.000000;-0.115025;0.115025;-0.115025;1.000000
445623.48030098;5696572.18939884;471.94684984;146;140;135;36237.000000;1.000000;1.000000;1.000000;1.000000;-0.053931;0.053931;-0.053931;1.000000
445623.35420235;5696572.33139904;471.98014977;227;232;232;59110.000000;1.000000;1.000000;1.000000;1.000000;0.001637;-0.001637;0.001637;1.000000
445623.39290245;5696572.29509933;471.97914984;230;231;231;59110.000000;1.000000;1.000000;1.000000;1.000000;-0.034901;0.034901;-0.034901;1.000000
445623.34020241;5696572.44289883;471.95055010;53;53;55;13621.000000;1.000000;1.000000;1.000000;1.000000;0.078069;-0.078069;0.078069;1.000000
445623.08140190;5696572.39389904;471.98955013;122;122;113;31097.000000;1.000000;1.000000;1.000000;1.000000;0.063899;-0.063899;0.063899;1.000000
445623.16900070;5696572.13879879;471.95314981;60;59;56;14906.000000;1.000000;1.000000;1.000000;1.000000;-0.191201;0.191201;-0.191201;1.000000
445623.09650238;5696572.06149872;471.94894983;229;227;220;58082.000000;1.000000;1.000000;1.000000;1.000000;-0.125875;0.125875;-0.125875;1.000000
445623.55700119;5696572.56289871;471.95244982;201;197;187;50629.000000;1.000000;1.000000;1.000000;1.000000;-0.148874;0.148874;-0.148874;1.000000
445623.59600075;5696572.52899940;471.95144989;176;174;164;44461.000000;1.000000;1.000000;1.000000;1.000000;-0.187873;0.187873;-0.187873;1.000000
445623.67570122;5696572.45619877;471.95184996;159;156;144;39835.000000;1.000000;1.000000;1.000000;1.000000;-0.126199;0.126199;-0.126199;1.000000
445623.53650101;5696572.19119938;471.94945004;233;236;233;60138.000000;1.000000;1.000000;1.000000;1.000000;0.013051;-0.013051;0.013051;1.000000
445623.52600105;5696572.00519951;471.95144989;239;240;234;61423.000000;1.000000;1.000000;1.000000;1.000000;-0.007126;0.007126;-0.007126;1.000000
445623.57070168;5696572.05269917;471.94004967;20;19;17;4883.000000;1.000000;1.000000;1.000000;1.000000;0.037574;-0.037574;0.037574;1.000000
445623.60940178;5696572.01639946;471.93905022;27;24;23;6168.000000;1.000000;1.000000;1.000000;1.000000;0.048726;-0.048726;0.048726;1.000000
445623.57520111;5696571.97739895;471.94395020;239;238;230;60909.000000;1.000000;1.000000;1.000000;1.000000;0.042074;-0.042074;0.042074;1.000000
445623.50500114;5696572.32959946;471.94964983;114;113;104;28784.000000;1.000000;1.000000;1.000000;1.000000;0.000401;-0.000401;0.000401;1.000000
445623.54450233;5696572.00349911;471.95225002;211;211;206;53970.000000;1.000000;1.000000;1.000000;1.000000;0.011375;-0.011375;0.011375;1.000000
445623.56010063;5696572.08869942;471.93765022;36;37;33;9252.000000;1.000000;1.000000;1.000000;1.000000;0.026973;-0.026973;0.026973;1.000000
445623.45210083;5696572.00989922;471.94115021;134;131;126;33667.000000;1.000000;1.000000;1.000000;1.000000;-0.081027;0.081027;-0.081027;1.000000
445623.37220200;5696572.32499893;471.98084976;191;197;196;50115.000000;1.000000;1.000000;1.000000;1.000000;-0.005001;0.005001;-0.005001;1.000000
445623.48540123;5696572.52509888;471.96044971;56;54;49;13878.000000;1.000000;1.000000;1.000000;1.000000;-0.077274;0.077274;-0.077274;1.000000
445623.50320061;5696572.31099899;471.94934990;138;137;132;34952.000000;1.000000;1.000000;1.000000;1.000000;0.019001;-0.019001;0.019001;1.000000
445623.50890167;5696572.19829948;471.95295002;249;250;247;63993.000000;1.000000;1.000000;1.000000;1.000000;-0.031185;0.031185;-0.031185;1.000000
445623.66720207;5696572.41039951;471.94164993;128;126;117;32125.000000;1.000000;1.000000;1.000000;1.000000;-0.080400;0.080400;-0.080400;1.000000
445623.55920227;5696572.33159931;471.94284966;118;116;105;29555.000000;1.000000;1.000000;1.000000;1.000000;-0.004584;0.004584;-0.004584;1.000000
445623.51290138;5696572.54359921;471.95725014;35;33;28;8481.000000;1.000000;1.000000;1.000000;1.000000;-0.104774;0.104774;-0.104774;1.000000
445623.29240234;5696572.46119888;471.96024992;34;35;36;8738.000000;1.000000;1.000000;1.000000;1.000000;0.117439;-0.117439;0.117439;1.000000
445623.25790222;5696572.38439949;471.99504997;236;240;240;61166.000000;1.000000;1.000000;1.000000;1.000000;0.054504;-0.054504;0.054504;1.000000
445623.07790192;5696572.26629932;471.95755007;95;98;78;24158.000000;1.000000;1.000000;1.000000;1.000000;-0.063701;0.063701;-0.063701;1.000000
445623.11530121;5696572.26739891;471.95924999;48;44;30;11051.000000;1.000000;1.000000;1.000000;1.000000;-0.062601;0.062601;-0.062601;1.000000
445623.15270241;5696572.26859959;471.96094992;201;198;186;50629.000000;1.000000;1.000000;1.000000;1.000000;-0.061400;0.061400;-0.061400;1.000000
445623.18790062;5696572.26999958;471.96254971;137;134;125;34181.000000;1.000000;1.000000;1.000000;1.000000;-0.060000;0.060000;-0.060000;1.000000
445623.30060204;5696572.27359875;471.95834972;171;167;159;42919.000000;1.000000;1.000000;1.000000;1.000000;-0.056401;0.056401;-0.056401;1.000000
445623.33800133;5696572.27479942;471.96245005;168;163;155;41891.000000;1.000000;1.000000;1.000000;1.000000;-0.055201;0.055201;-0.055201;1.000000
445623.19150169;5696572.23229893;471.95994999;166;163;154;41634.000000;1.000000;1.000000;1.000000;1.000000;-0.097724;0.097724;-0.097724;1.000000
445623.22890099;5696572.23349960;471.96164991;151;149;142;38036.000000;1.000000;1.000000;1.000000;1.000000;-0.096508;0.096508;-0.096508;1.000000
445623.26420219;5696572.23489960;471.96094992;49;46;41;11822.000000;1.000000;1.000000;1.000000;1.000000;-0.095100;0.095100;-0.095100;1.000000
445623.26780136;5696572.19729908;471.95834972;152;151;146;38550.000000;1.000000;1.000000;1.000000;1.000000;-0.132701;0.132701;-0.132701;1.000000
445623.11880119;5696572.15499886;471.96044971;28;28;28;7196.000000;1.000000;1.000000;1.000000;1.000000;-0.148174;0.148174;-0.148174;1.000000
445623.30430229;5696572.16349895;471.95954992;217;216;211;55255.000000;1.000000;1.000000;1.000000;1.000000;-0.166501;0.166501;-0.166501;1.000000
445623.34520157;5696572.12699898;471.96094992;190;189;182;48316.000000;1.000000;1.000000;1.000000;1.000000;-0.187926;0.187926;-0.187926;1.000000
445623.04850204;5696572.07739933;471.95865013;151;147;136;37522.000000;1.000000;1.000000;1.000000;1.000000;-0.077875;0.077875;-0.077875;1.000000
445623.08590134;5696572.07859905;471.96035006;216;217;212;55512.000000;1.000000;1.000000;1.000000;1.000000;-0.115274;0.115274;-0.115274;1.000000
445623.16250237;5696572.04589851;471.95645000;136;135;127;34438.000000;1.000000;1.000000;1.000000;1.000000;-0.191875;0.191875;-0.191875;1.000000
445623.44290169;5696572.46839912;471.95545008;145;144;138;36751.000000;1.000000;1.000000;1.000000;1.000000;-0.037086;0.037086;-0.037086;1.000000
445623.45100220;5696572.20599945;471.95734980;132;125;120;32382.000000;1.000000;1.000000;1.000000;1.000000;-0.086527;0.086527;-0.086527;1.000000
445623.49110229;5696572.20929916;471.95694973;235;236;234;60395.000000;1.000000;1.000000;1.000000;1.000000;-0.051958;0.051958;-0.051958;1.000000
445623.60500153;5696572.13849934;471.92625000;64;66;63;16705.000000;1.000000;1.000000;1.000000;1.000000;0.053126;-0.053126;0.053126;1.000000
445623.45810135;5696572.05809982;471.96064999;185;187;184;47802.000000;1.000000;1.000000;1.000000;1.000000;-0.075026;0.075026;-0.075026;1.000000
445623.50370224;5696572.54449947;471.95685007;33;32;27;7967.000000;1.000000;1.000000;1.000000;1.000000;-0.095575;0.095575;-0.095575;1.000000
445623.25670250;5696572.42189892;471.99545004;94;96;103;24672.000000;1.000000;1.000000;1.000000;1.000000;0.092013;-0.092013;0.092013;1.000000
445623.40870102;5696572.35469921;471.95954992;18;17;22;4369.000000;1.000000;1.000000;1.000000;1.000000;-0.024699;0.024699;-0.024699;1.000000
445623.30180176;5696572.23609932;471.95795013;76;73;66;18761.000000;1.000000;1.000000;1.000000;1.000000;-0.093901;0.093901;-0.093901;1.000000
445623.41460236;5696572.24199875;471.95855000;168;166;161;42662.000000;1.000000;1.000000;1.000000;1.000000;0.088001;-0.088001;0.088001;1.000000
445623.23030098;5696572.19609936;471.95664980;182;181;172;46260.000000;1.000000;1.000000;1.000000;1.000000;-0.133901;0.133901;-0.133901;1.000000
445623.30310066;5696572.20099934;471.95994999;48;46;42;11822.000000;1.000000;1.000000;1.000000;1.000000;-0.129001;0.129001;-0.129001;1.000000
445623.34420212;5696572.16449936;471.95904972;26;24;22;6168.000000;1.000000;1.000000;1.000000;1.000000;-0.165501;0.165501;-0.165501;1.000000
445623.15990074;5696572.12079914;471.96184971;33;32;33;8224.000000;1.000000;1.000000;1.000000;1.000000;-0.189273;0.189273;-0.189273;1.000000
445623.41920097;5696572.09209927;471.95924999;95;95;94;24158.000000;1.000000;1.000000;1.000000;1.000000;-0.113926;0.113926;-0.113926;1.000000
445623.44140060;5696572.50349911;471.95814993;131;128;118;32639.000000;1.000000;1.000000;1.000000;1.000000;-0.033273;0.033273;-0.033273;1.000000
445623.59050186;5696572.47329910;471.95755007;157;154;148;39578.000000;1.000000;1.000000;1.000000;1.000000;-0.143364;0.143364;-0.143364;1.000000
445623.66560181;5696572.47569950;471.95634987;151;148;137;37779.000000;1.000000;1.000000;1.000000;1.000000;-0.145700;0.145700;-0.145700;1.000000
445623.55380066;5696572.43229874;471.96234991;151;150;145;38293.000000;1.000000;1.000000;1.000000;1.000000;-0.102299;0.102299;-0.102299;1.000000
445623.26060112;5696572.35639961;471.98084976;193;195;190;49601.000000;1.000000;1.000000;1.000000;1.000000;0.026409;-0.026409;0.026409;1.000000
445623.32680138;5696572.34089954;471.98364975;246;248;247;63479.000000;1.000000;1.000000;1.000000;1.000000;0.010900;-0.010900;0.010900;1.000000
445623.25110062;5696572.38509949;471.99244978;242;245;244;62451.000000;1.000000;1.000000;1.000000;1.000000;0.055099;-0.055099;0.055099;1.000000
445623.10580070;5696572.26599892;471.95884993;51;48;33;12079.000000;1.000000;1.000000;1.000000;1.000000;-0.064001;0.064001;-0.064001;1.000000
445623.14330109;5696572.26719959;471.96054985;140;137;124;34952.000000;1.000000;1.000000;1.000000;1.000000;-0.062800;0.062800;-0.062800;1.000000
445623.18070229;5696572.26829918;471.96224977;173;171;161;43690.000000;1.000000;1.000000;1.000000;1.000000;-0.061701;0.061701;-0.061701;1.000000
445623.29130180;5696572.27449902;471.96035006;164;161;152;41120.000000;1.000000;1.000000;1.000000;1.000000;-0.055516;0.055516;-0.055516;1.000000
445623.25710114;5696572.23549946;471.96294977;52;49;44;12593.000000;1.000000;1.000000;1.000000;1.000000;-0.094595;0.094595;-0.094595;1.000000
445623.25620087;5696572.19829948;471.95785000;190;190;184;48573.000000;1.000000;1.000000;1.000000;1.000000;-0.131771;0.131771;-0.131771;1.000000
445623.29600151;5696572.19929894;471.95965006;54;53;48;13364.000000;1.000000;1.000000;1.000000;1.000000;-0.130701;0.130701;-0.130701;1.000000
445623.33460243;5696572.16299923;471.96094992;40;38;36;9766.000000;1.000000;1.000000;1.000000;1.000000;-0.167001;0.167001;-0.167001;1.000000
445623.33590134;5696572.12549885;471.95825006;205;205;198;52428.000000;1.000000;1.000000;1.000000;1.000000;-0.197226;0.197226;-0.197226;1.000000
445623.07640083;5696572.07719906;471.95984985;234;234;227;59881.000000;1.000000;1.000000;1.000000;1.000000;-0.105773;0.105773;-0.105773;1.000000
445623.41000183;5696572.09299953;471.95884993;136;138;135;35209.000000;1.000000;1.000000;1.000000;1.000000;-0.123126;0.123126;-0.123126;1.000000
445623.16450127;5696572.39819916;471.97004988;232;231;225;59110.000000;1.000000;1.000000;1.000000;1.000000;0.068268;-0.068268;0.068268;1.000000
445623.16580208;5696572.36069878;471.96735003;71;65;57;16705.000000;1.000000;1.000000;1.000000;1.000000;0.030750;-0.030750;0.030750;1.000000
445623.35360153;5696572.37129887;471.97125008;28;33;38;8224.000000;1.000000;1.000000;1.000000;1.000000;0.041325;-0.041325;0.041325;1.000000
445623.16930206;5696572.32529934;471.97174980;78;73;61;18761.000000;1.000000;1.000000;1.000000;1.000000;-0.004701;0.004701;-0.004701;1.000000
445623.20480164;5696572.32679947;471.96404984;125;120;110;30840.000000;1.000000;1.000000;1.000000;1.000000;-0.003201;0.003201;-0.003201;1.000000
445623.24200066;5696572.32789906;471.97034981;83;80;74;20560.000000;1.000000;1.000000;1.000000;1.000000;-0.002101;0.002101;-0.002101;1.000000
445623.16840179;5696572.28809937;471.96654989;142;140;127;35723.000000;1.000000;1.000000;1.000000;1.000000;-0.041901;0.041901;-0.041901;1.000000
445623.20820244;5696572.28909882;471.96604969;113;110;99;28013.000000;1.000000;1.000000;1.000000;1.000000;-0.040901;0.040901;-0.040901;1.000000
445623.24550064;5696572.29019936;471.97004988;173;168;161;43176.000000;1.000000;1.000000;1.000000;1.000000;-0.039801;0.039801;-0.039801;1.000000
445623.28080185;5696572.29159935;471.96934988;172;168;161;43176.000000;1.000000;1.000000;1.000000;1.000000;-0.038401;0.038401;-0.038401;1.000000
445623.31840141;5696572.29289921;471.96645023;171;167;160;42919.000000;1.000000;1.000000;1.000000;1.000000;-0.037318;0.037318;-0.037318;1.000000
445623.24690063;5696572.25279911;471.96505024;126;122;116;31354.000000;1.000000;1.000000;1.000000;1.000000;-0.077201;0.077201;-0.077201;1.000000
445623.43110092;5696572.29869946;471.96925022;94;97;102;24672.000000;1.000000;1.000000;1.000000;1.000000;-0.031301;0.031301;-0.031301;1.000000
445623.06380089;5696572.17159946;471.96974995;61;62;63;15677.000000;1.000000;1.000000;1.000000;1.000000;-0.093174;0.093174;-0.093174;1.000000
445623.61740120;5696572.51059921;471.95685007;132;130;119;33153.000000;1.000000;1.000000;1.000000;1.000000;-0.180599;0.180599;-0.180599;1.000000
445623.58110245;5696572.47189911;471.95715000;120;117;111;30069.000000;1.000000;1.000000;1.000000;1.000000;-0.141899;0.141899;-0.141899;1.000000
445623.65640076;5696572.47659882;471.95594980;151;148;138;37779.000000;1.000000;1.000000;1.000000;1.000000;-0.146609;0.146609;-0.146609;1.000000
445623.58240135;5696572.43669899;471.95904972;138;137;130;34952.000000;1.000000;1.000000;1.000000;1.000000;-0.106699;0.106699;-0.106699;1.000000
445623.46030243;5696572.48519905;471.96814968;167;167;159;42662.000000;1.000000;1.000000;1.000000;1.000000;-0.052175;0.052175;-0.052175;1.000000
445623.46760185;5696572.26269920;471.96584990;138;142;147;36237.000000;1.000000;1.000000;1.000000;1.000000;-0.067301;0.067301;-0.067301;1.000000
445623.58550079;5696572.15659912;471.93024971;103;105;100;26471.000000;1.000000;1.000000;1.000000;1.000000;0.052373;-0.052373;0.052373;1.000000
445623.58670242;5696572.11909874;471.92985012;122;125;123;31611.000000;1.000000;1.000000;1.000000;1.000000;0.053575;-0.053575;0.053575;1.000000
445623.54890068;5696572.11779888;471.93514969;92;93;90;23644.000000;1.000000;1.000000;1.000000;1.000000;0.015773;-0.015773;0.015773;1.000000
445623.44400223;5696572.20659931;471.95704987;107;97;93;25443.000000;1.000000;1.000000;1.000000;1.000000;-0.093376;0.093376;-0.093376;1.000000
445623.48160179;5696572.20779903;471.95645000;227;226;224;58082.000000;1.000000;1.000000;1.000000;1.000000;-0.059158;0.059158;-0.059158;1.000000
445623.44870193;5696572.05669983;471.95785000;218;221;218;56283.000000;1.000000;1.000000;1.000000;1.000000;-0.084425;0.084425;-0.084425;1.000000
445623.08800133;5696572.44229897;471.99504997;97;90;84;23387.000000;1.000000;1.000000;1.000000;1.000000;0.112299;-0.112299;0.112299;1.000000
445623.12550171;5696572.44349869;471.99445011;172;168;163;43176.000000;1.000000;1.000000;1.000000;1.000000;0.113499;-0.113499;0.113499;1.000000
445623.16250237;5696572.44229897;472.00075008;247;247;244;63222.000000;1.000000;1.000000;1.000000;1.000000;0.112384;-0.112384;0.112384;1.000000
445623.39440163;5696572.22299870;471.95034983;121;113;108;29298.000000;1.000000;1.000000;1.000000;1.000000;-0.107001;0.107001;-0.107001;1.000000
445623.17620094;5696572.13819893;471.94885017;50;49;46;12336.000000;1.000000;1.000000;1.000000;1.000000;-0.191801;0.191801;-0.191801;1.000000
445623.43790062;5696572.11379917;471.95335009;51;50;46;12593.000000;1.000000;1.000000;1.000000;1.000000;-0.095227;0.095227;-0.095227;1.000000
445623.57020195;5696572.52899940;471.95265009;93;91;81;23130.000000;1.000000;1.000000;1.000000;1.000000;-0.162075;0.162075;-0.162075;1.000000
445623.60510071;5696572.52809914;471.95424988;175;173;162;44204.000000;1.000000;1.000000;1.000000;1.000000;-0.196973;0.196973;-0.196973;1.000000
445623.42710121;5696572.37179955;471.94894983;32;32;33;8224.000000;1.000000;1.000000;1.000000;1.000000;-0.041800;0.041800;-0.041800;1.000000
445623.61280067;5696572.38039883;471.94584991;188;188;183;48059.000000;1.000000;1.000000;1.000000;1.000000;-0.050399;0.050399;-0.050399;1.000000
445623.50470169;5696572.30159958;471.94934990;105;105;102;26728.000000;1.000000;1.000000;1.000000;1.000000;0.028400;-0.028400;0.028400;1.000000
445623.50850113;5696572.19139870;471.94815018;242;241;237;61680.000000;1.000000;1.000000;1.000000;1.000000;-0.027769;0.027769;-0.027769;1.000000
445623.54590233;5696572.19259937;471.94985010;222;225;223;57311.000000;1.000000;1.000000;1.000000;1.000000;0.018952;-0.018952;0.018952;1.000000
445623.35140236;5696572.41609867;471.95774986;27;28;33;7196.000000;1.000000;1.000000;1.000000;1.000000;0.086177;-0.086177;0.086177;1.000000
445623.50450142;5696572.48799904;471.97714998;124;125;120;31868.000000;1.000000;1.000000;1.000000;1.000000;-0.096374;0.096374;-0.096374;1.000000
445623.39010246;5696572.37979897;471.95674994;28;28;33;7196.000000;1.000000;1.000000;1.000000;1.000000;0.049799;-0.049799;0.049799;1.000000
445623.13330086;5696572.25879868;471.95764973;66;61;49;15677.000000;1.000000;1.000000;1.000000;1.000000;-0.071266;0.071266;-0.071266;1.000000
445623.17070206;5696572.25999935;471.95935013;228;226;216;57825.000000;1.000000;1.000000;1.000000;1.000000;-0.070001;0.070001;-0.070001;1.000000
445623.35580070;5696572.26609905;471.96315004;195;192;185;49344.000000;1.000000;1.000000;1.000000;1.000000;-0.063901;0.063901;-0.063901;1.000000
445623.39340218;5696572.26729877;471.96254971;235;233;228;59881.000000;1.000000;1.000000;1.000000;1.000000;-0.062701;0.062701;-0.062701;1.000000
445623.20950134;5696572.22369869;471.95834972;216;214;207;54741.000000;1.000000;1.000000;1.000000;1.000000;-0.106301;0.106301;-0.106301;1.000000
445623.24680145;5696572.22479923;471.96234991;106;103;98;26471.000000;1.000000;1.000000;1.000000;1.000000;-0.105201;0.105201;-0.105201;1.000000
445623.28440102;5696572.22609909;471.95944979;66;63;59;16191.000000;1.000000;1.000000;1.000000;1.000000;-0.103909;0.103909;-0.103909;1.000000
445623.43240173;5696572.23339947;471.95924999;195;193;186;49344.000000;1.000000;1.000000;1.000000;1.000000;-0.096601;0.096601;-0.096601;1.000000
445623.44030197;5696572.03889854;471.95254995;197;198;193;50629.000000;1.000000;1.000000;1.000000;1.000000;-0.092825;0.092825;-0.092825;1.000000
445623.38420113;5696572.09069927;471.95534994;234;237;232;60395.000000;1.000000;1.000000;1.000000;1.000000;-0.148926;0.148926;-0.148926;1.000000
445623.24840172;5696572.18969925;471.95734980;204;203;197;51914.000000;1.000000;1.000000;1.000000;1.000000;-0.140301;0.140301;-0.140301;1.000000
445623.28560074;5696572.18859871;471.95904972;164;163;158;41634.000000;1.000000;1.000000;1.000000;1.000000;-0.141423;0.141423;-0.141423;1.000000
445623.32440193;5696572.15459927;471.96274998;150;150;145;38293.000000;1.000000;1.000000;1.000000;1.000000;-0.175401;0.175401;-0.175401;1.000000
445623.36200150;5696572.15579899;471.95974972;85;83;79;21331.000000;1.000000;1.000000;1.000000;1.000000;-0.171126;0.171126;-0.171126;1.000000
445623.40080078;5696572.11949928;471.95874979;51;49;45;12593.000000;1.000000;1.000000;1.000000;1.000000;-0.132327;0.132327;-0.132327;1.000000
445623.45670135;5696572.49499901;471.96344997;125;124;113;31611.000000;1.000000;1.000000;1.000000;1.000000;-0.048574;0.048574;-0.048574;1.000000
445623.60730179;5696572.50219925;471.95634987;133;130;120;33153.000000;1.000000;1.000000;1.000000;1.000000;-0.172199;0.172199;-0.172199;1.000000
445623.64460190;5696572.50329884;471.96035006;140;137;124;34952.000000;1.000000;1.000000;1.000000;1.000000;-0.173299;0.173299;-0.173299;1.000000
445623.57310112;5696572.46319874;471.96134998;96;94;90;24158.000000;1.000000;1.000000;1.000000;1.000000;-0.133199;0.133199;-0.133199;1.000000
445623.49900063;5696572.42099960;471.95974972;101;98;90;25186.000000;1.000000;1.000000;1.000000;1.000000;0.091000;-0.091000;0.091000;1.000000
445623.53680237;5696572.42459877;471.95924999;210;209;202;53456.000000;1.000000;1.000000;1.000000;1.000000;-0.094599;0.094599;-0.094599;1.000000
445623.50410088;5696572.27349957;471.95594980;31;31;34;7967.000000;1.000000;1.000000;1.000000;1.000000;0.056500;-0.056500;0.056500;1.000000
445623.43350227;5696572.41109951;471.94045021;159;157;153;40349.000000;1.000000;1.000000;1.000000;1.000000;-0.074906;0.074906;-0.074906;1.000000
445623.66120155;5696572.34559925;471.94065001;163;163;160;41634.000000;1.000000;1.000000;1.000000;1.000000;-0.015599;0.015599;-0.015599;1.000000
445623.66240128;5696572.30809887;471.94024994;169;169;162;43176.000000;1.000000;1.000000;1.000000;1.000000;-0.004274;0.004274;-0.004274;1.000000
445623.15730103;5696572.37079914;471.96934988;99;92;84;23901.000000;1.000000;1.000000;1.000000;1.000000;0.040799;-0.040799;0.040799;1.000000
445623.34270103;5696572.37929924;471.97085001;29;34;39;8481.000000;1.000000;1.000000;1.000000;1.000000;0.049299;-0.049299;0.049299;1.000000
445623.19610222;5696572.33459957;471.96604969;137;132;122;33924.000000;1.000000;1.000000;1.000000;1.000000;0.005342;-0.005342;0.005342;1.000000
445623.23350151;5696572.33579929;471.96775009;113;109;102;28013.000000;1.000000;1.000000;1.000000;1.000000;0.005799;-0.005799;0.005799;1.000000
445623.15960129;5696572.29589947;471.96855022;167;165;153;42148.000000;1.000000;1.000000;1.000000;1.000000;-0.034132;0.034132;-0.034132;1.000000
445623.23480232;5696572.30059917;471.96974995;86;82;73;21074.000000;1.000000;1.000000;1.000000;1.000000;-0.029401;0.029401;-0.029401;1.000000
445623.62610062;5696572.26949890;471.93814995;161;160;153;40863.000000;1.000000;1.000000;1.000000;1.000000;0.032027;-0.032027;0.032027;1.000000
445623.38420113;5696572.27039917;471.96444990;226;225;220;57568.000000;1.000000;1.000000;1.000000;1.000000;0.059601;-0.059601;0.059601;1.000000
445623.42130096;5696572.26929958;471.96845009;218;220;219;56283.000000;1.000000;1.000000;1.000000;1.000000;0.060700;-0.060700;0.060700;1.000000
445623.46450241;5696572.56929882;471.94364979;61;55;43;14135.000000;1.000000;1.000000;1.000000;1.000000;-0.056375;0.056375;-0.056375;1.000000
445623.55410202;5696572.00499924;471.95034983;164;163;158;41634.000000;1.000000;1.000000;1.000000;1.000000;0.020975;-0.020975;0.020975;1.000000
445623.45900162;5696572.27049931;471.96554996;135;138;143;35209.000000;1.000000;1.000000;1.000000;1.000000;0.059501;-0.059501;0.059501;1.000000
445623.57810219;5696572.12689884;471.92954971;116;118;115;30069.000000;1.000000;1.000000;1.000000;1.000000;0.044975;-0.044975;0.044975;1.000000
445623.24950226;5696572.42019947;471.99744989;107;112;117;28527.000000;1.000000;1.000000;1.000000;1.000000;0.090199;-0.090199;0.090199;1.000000
445623.17480095;5696572.38099869;471.96334984;228;227;219;58082.000000;1.000000;1.000000;1.000000;1.000000;0.050999;-0.050999;0.050999;1.000000
445623.28600128;5696572.38419922;471.99394991;192;193;198;49601.000000;1.000000;1.000000;1.000000;1.000000;0.054275;-0.054275;0.054275;1.000000
445623.32880219;5696572.27569874;471.95965006;173;168;159;43176.000000;1.000000;1.000000;1.000000;1.000000;-0.054301;0.054301;-0.054301;1.000000
445623.18210228;5696572.23089893;471.95715000;124;121;110;30840.000000;1.000000;1.000000;1.000000;1.000000;-0.099101;0.099101;-0.099101;1.000000
445623.21950157;5696572.23209961;471.96124985;196;194;187;49601.000000;1.000000;1.000000;1.000000;1.000000;-0.097900;0.097900;-0.097900;1.000000
445623.20160110;5696572.43619926;472.00474979;198;198;200;50886.000000;1.000000;1.000000;1.000000;1.000000;0.106199;-0.106199;0.106199;1.000000
445623.29260071;5696572.23699959;471.95755007;88;84;78;21588.000000;1.000000;1.000000;1.000000;1.000000;-0.093000;0.093000;-0.093000;1.000000
445623.13320168;5696572.28669937;471.96495010;214;211;200;53970.000000;1.000000;1.000000;1.000000;1.000000;-0.043413;0.043413;-0.043413;1.000000
445623.40530212;5696572.24289902;471.95804979;144;141;137;36237.000000;1.000000;1.000000;1.000000;1.000000;-0.087101;0.087101;-0.087101;1.000000
445623.39650162;5696572.41679867;471.94344999;24;24;25;6168.000000;1.000000;1.000000;1.000000;1.000000;0.065755;-0.065755;0.065755;1.000000
445623.06620224;5696572.09669884;471.96894981;163;167;163;42405.000000;1.000000;1.000000;1.000000;1.000000;-0.095575;0.095575;-0.095575;1.000000
445623.54450233;5696572.43309887;471.96194984;195;195;189;49858.000000;1.000000;1.000000;1.000000;1.000000;-0.103099;0.103099;-0.103099;1.000000
445623.62640198;5696572.04529961;471.93314983;93;93;88;23644.000000;1.000000;1.000000;1.000000;1.000000;0.031725;-0.031725;0.031725;1.000000
445623.14240082;5696572.45119961;471.99994995;248;248;244;63479.000000;1.000000;1.000000;1.000000;1.000000;0.121200;-0.121200;0.121200;1.000000
445623.08000191;5696572.19129951;471.96145012;57;59;58;14906.000000;1.000000;1.000000;1.000000;1.000000;-0.109375;0.109375;-0.109375;1.000000
445623.48620232;5696572.28209885;471.95755007;19;19;25;4883.000000;1.000000;1.000000;1.000000;1.000000;0.047901;-0.047901;0.047901;1.000000
445623.63930138;5696572.17739876;471.92135002;94;93;86;23644.000000;1.000000;1.000000;1.000000;1.000000;0.018826;-0.018826;0.018826;1.000000
445623.12030228;5696572.37879951;471.97714998;88;84;74;21588.000000;1.000000;1.000000;1.000000;1.000000;0.048800;-0.048800;0.048800;1.000000
445623.12130173;5696572.34129913;471.97905018;126;123;110;31354.000000;1.000000;1.000000;1.000000;1.000000;0.011299;-0.011299;0.011299;1.000000
445623.08390244;5696572.34009941;471.97734978;234;234;224;59624.000000;1.000000;1.000000;1.000000;1.000000;0.010099;-0.010099;0.010099;1.000000
445623.30640228;5696572.34739883;471.98285009;248;250;248;63993.000000;1.000000;1.000000;1.000000;1.000000;0.017399;-0.017399;0.017399;1.000000
445623.05470093;5696572.15139874;471.97374966;196;200;199;50886.000000;1.000000;1.000000;1.000000;1.000000;-0.084074;0.084074;-0.084074;1.000000
445623.48870094;5696572.46849926;471.97615005;221;223;217;56797.000000;1.000000;1.000000;1.000000;1.000000;-0.081518;0.081518;-0.081518;1.000000
445623.64170082;5696572.36369904;471.94224979;162;163;160;41634.000000;1.000000;1.000000;1.000000;1.000000;-0.033699;0.033699;-0.033699;1.000000
445623.57380112;5696572.21119888;471.93975021;90;91;89;23130.000000;1.000000;1.000000;1.000000;1.000000;0.052250;-0.052250;0.052250;1.000000
445623.29760178;5696572.56139954;471.94775011;162;157;143;40092.000000;1.000000;1.000000;1.000000;1.000000;0.110526;-0.110526;0.110526;1.000000
445623.33540161;5696572.56489952;471.94714977;166;160;136;40863.000000;1.000000;1.000000;1.000000;1.000000;0.072726;-0.072726;0.072726;1.000000
445623.53880127;5696572.13509949;471.93724968;98;95;93;24415.000000;1.000000;1.000000;1.000000;1.000000;0.005674;-0.005674;0.005674;1.000000
445623.53430183;5696572.45269878;471.96875002;154;153;149;39064.000000;1.000000;1.000000;1.000000;1.000000;-0.122699;0.122699;-0.122699;1.000000
445623.20220192;5696572.41069897;471.98815014;229;232;229;59110.000000;1.000000;1.000000;1.000000;1.000000;0.080699;-0.080699;0.080699;1.000000
445623.54680069;5696572.20189960;471.95004990;211;213;212;54484.000000;1.000000;1.000000;1.000000;1.000000;0.027011;-0.027011;0.027011;1.000000
445623.51610191;5696572.05049904;471.95384981;58;57;54;14392.000000;1.000000;1.000000;1.000000;1.000000;-0.017025;0.017025;-0.017025;1.000000
445623.37280090;5696572.56609924;471.94885017;137;130;101;32896.000000;1.000000;1.000000;1.000000;1.000000;0.035326;-0.035326;0.035326;1.000000
445623.13770111;5696572.13449867;471.96565010;31;31;31;7710.000000;1.000000;1.000000;1.000000;1.000000;-0.167074;0.167074;-0.167074;1.000000
445623.29900177;5696572.52619942;471.94735004;49;46;41;11822.000000;1.000000;1.000000;1.000000;1.000000;0.109126;-0.109126;0.109126;1.000000
445623.30000122;5696572.48869904;471.95165016;36;35;34;8995.000000;1.000000;1.000000;1.000000;1.000000;0.108126;-0.108126;0.108126;1.000000
445623.11620148;5696572.44199951;471.99165012;126;122;112;31354.000000;1.000000;1.000000;1.000000;1.000000;0.112000;-0.112000;0.112000;1.000000
445623.33880241;5696572.45239933;471.94824984;51;52;52;13107.000000;1.000000;1.000000;1.000000;1.000000;0.075158;-0.075158;0.075158;1.000000
445623.08150108;5696572.36829956;471.98455002;113;113;105;28784.000000;1.000000;1.000000;1.000000;1.000000;0.038300;-0.038300;0.038300;1.000000
445623.30670174;5696572.37769897;471.98784973;133;141;145;35723.000000;1.000000;1.000000;1.000000;1.000000;0.047699;-0.047699;0.047699;1.000000
445623.12540062;5696572.21999939;471.94754984;79;76;66;19275.000000;1.000000;1.000000;1.000000;1.000000;-0.110001;0.110001;-0.110001;1.000000
445623.38580139;5696572.23079880;471.95004990;167;162;156;41634.000000;1.000000;1.000000;1.000000;1.000000;0.099201;-0.099201;0.099201;1.000000
445623.18440063;5696572.38249882;471.96145012;241;241;234;61680.000000;1.000000;1.000000;1.000000;1.000000;0.052499;-0.052499;0.052499;1.000000
445623.16640099;5696572.18569954;471.95365002;136;133;121;33924.000000;1.000000;1.000000;1.000000;1.000000;-0.144305;0.144305;-0.144305;1.000000
445623.20180138;5696572.18719872;471.94824984;131;128;117;32639.000000;1.000000;1.000000;1.000000;1.000000;-0.142801;0.142801;-0.142801;1.000000
445623.35180099;5696572.19419868;471.95505001;68;65;60;16705.000000;1.000000;1.000000;1.000000;1.000000;-0.135841;0.135841;-0.135841;1.000000
445623.42450150;5696572.19449909;471.95134975;83;71;67;19018.000000;1.000000;1.000000;1.000000;1.000000;-0.109779;0.109779;-0.109779;1.000000
445623.46200188;5696572.19569881;471.95074989;125;118;111;30583.000000;1.000000;1.000000;1.000000;1.000000;-0.073148;0.073148;-0.073148;1.000000
445623.38060196;5696572.12839897;471.95795013;68;68;64;17219.000000;1.000000;1.000000;1.000000;1.000000;-0.152525;0.152525;-0.152525;1.000000
445623.64270218;5696572.13969906;471.92334988;145;143;139;36751.000000;1.000000;1.000000;1.000000;1.000000;0.015425;-0.015425;0.015425;1.000000
445623.55710228;5696572.15669926;471.93835022;246;247;243;63222.000000;1.000000;1.000000;1.000000;1.000000;0.023975;-0.023975;0.023975;1.000000
445623.19000061;5696572.43729885;472.00425007;220;221;221;56540.000000;1.000000;1.000000;1.000000;1.000000;0.107301;-0.107301;0.107301;1.000000
445623.27000244;5696572.32759960;471.97164967;72;68;61;17476.000000;1.000000;1.000000;1.000000;1.000000;-0.002400;0.002400;-0.002400;1.000000
445623.12380226;5696572.28529938;471.96455004;151;148;135;37779.000000;1.000000;1.000000;1.000000;1.000000;-0.044701;0.044701;-0.044701;1.000000
445623.19870193;5696572.28759869;471.96554996;107;104;93;26471.000000;1.000000;1.000000;1.000000;1.000000;-0.042401;0.042401;-0.042401;1.000000
445623.27130135;5696572.29019936;471.96894981;181;177;171;45489.000000;1.000000;1.000000;1.000000;1.000000;-0.039801;0.039801;-0.039801;1.000000
445623.34640129;5696572.29489906;471.97234966;181;178;172;45746.000000;1.000000;1.000000;1.000000;1.000000;-0.035109;0.035109;-0.035109;1.000000
445623.23540123;5696572.25389870;471.96455004;76;72;66;18504.000000;1.000000;1.000000;1.000000;1.000000;-0.076101;0.076101;-0.076101;1.000000
445623.09300240;5696572.13389881;471.97065022;172;175;174;44461.000000;1.000000;1.000000;1.000000;1.000000;-0.122375;0.122375;-0.122375;1.000000
445623.12830170;5696572.13529881;471.96754982;31;31;31;7710.000000;1.000000;1.000000;1.000000;1.000000;-0.157674;0.157674;-0.157674;1.000000
445623.05690201;5696572.09749897;471.96855022;205;207;203;52685.000000;1.000000;1.000000;1.000000;1.000000;-0.086275;0.086275;-0.086275;1.000000
445623.23180206;5696572.37309940;471.97975018;195;197;192;50115.000000;1.000000;1.000000;1.000000;1.000000;0.043099;-0.043099;0.043099;1.000000
445623.52170189;5696572.56379898;471.96014978;60;56;47;14392.000000;1.000000;1.000000;1.000000;1.000000;-0.113575;0.113575;-0.113575;1.000000
445623.13390167;5696572.03469856;471.94565012;196;192;183;49344.000000;1.000000;1.000000;1.000000;1.000000;-0.163274;0.163274;-0.163274;1.000000
445623.39550217;5696572.00799950;471.94784977;116;115;114;29555.000000;1.000000;1.000000;1.000000;1.000000;-0.137625;0.137625;-0.137625;1.000000
445623.09670074;5696572.03359898;471.93934967;116;104;90;27242.000000;1.000000;1.000000;1.000000;1.000000;-0.126073;0.126073;-0.126073;1.000000
445623.52300079;5696572.52629955;471.95744993;38;37;35;9509.000000;1.000000;1.000000;1.000000;1.000000;-0.114873;0.114873;-0.114873;1.000000
445623.37940224;5696572.16589935;471.95834972;69;66;62;16962.000000;1.000000;1.000000;1.000000;1.000000;-0.153725;0.153725;-0.153725;1.000000
445623.49560173;5696572.05929955;471.95994999;142;143;139;36494.000000;1.000000;1.000000;1.000000;1.000000;-0.037526;0.037526;-0.037526;1.000000
445623.58940132;5696572.43609913;471.95704987;145;144;136;36751.000000;1.000000;1.000000;1.000000;1.000000;-0.106148;0.106148;-0.106148;1.000000
445623.30790146;5696572.54419907;471.94334986;118;115;103;29298.000000;1.000000;1.000000;1.000000;1.000000;0.100226;-0.100226;0.100226;1.000000
445623.34540184;5696572.54539879;471.94264986;145;139;119;35466.000000;1.000000;1.000000;1.000000;1.000000;0.062726;-0.062726;0.062726;1.000000
445623.30930145;5696572.50899895;471.94294979;49;46;43;11822.000000;1.000000;1.000000;1.000000;1.000000;0.098826;-0.098826;0.098826;1.000000
445623.38560112;5696572.47389896;471.94135000;118;116;107;29555.000000;1.000000;1.000000;1.000000;1.000000;0.023797;-0.023797;0.023797;1.000000
445623.27710159;5696572.43199928;471.98014977;23;25;31;6425.000000;1.000000;1.000000;1.000000;1.000000;0.101999;-0.101999;0.101999;1.000000
445623.12820061;5696572.38749893;471.97524979;102;99;91;25443.000000;1.000000;1.000000;1.000000;1.000000;0.057514;-0.057514;0.057514;1.000000
445623.24200066;5696572.35579880;471.97765018;141;140;135;35723.000000;1.000000;1.000000;1.000000;1.000000;0.025799;-0.025799;0.025799;1.000000
445623.35240181;5696572.36189945;471.97804977;93;97;102;24672.000000;1.000000;1.000000;1.000000;1.000000;0.032010;-0.032010;0.032010;1.000000
445623.39120110;5696572.32569893;471.97704985;113;114;118;29298.000000;1.000000;1.000000;1.000000;1.000000;-0.004301;0.004301;-0.004301;1.000000
445623.21310242;5696572.13019951;471.94344999;68;64;57;16448.000000;1.000000;1.000000;1.000000;1.000000;-0.199800;0.199800;-0.199800;1.000000
445623.14400108;5696572.01509865;471.94124987;228;220;207;56540.000000;1.000000;1.000000;1.000000;1.000000;-0.173374;0.173374;-0.173374;1.000000
445623.42550095;5696572.40019901;471.93995001;71;70;68;17990.000000;1.000000;1.000000;1.000000;1.000000;-0.070199;0.070199;-0.070199;1.000000
445623.46280106;5696572.40129955;471.94395020;104;102;95;25957.000000;1.000000;1.000000;1.000000;1.000000;0.071300;-0.071300;0.071300;1.000000
445623.64840134;5696572.40979870;471.94315006;125;122;114;31354.000000;1.000000;1.000000;1.000000;1.000000;-0.079799;0.079799;-0.079799;1.000000
445623.53900154;5696572.36619957;471.94465019;158;154;145;39578.000000;1.000000;1.000000;1.000000;1.000000;-0.036200;0.036200;-0.036200;1.000000
445623.65080078;5696572.33489903;471.94004967;226;227;222;58082.000000;1.000000;1.000000;1.000000;1.000000;-0.005349;0.005349;-0.005349;1.000000
445623.54170235;5696572.29359921;471.94154980;124;122;116;31097.000000;1.000000;1.000000;1.000000;1.000000;0.036401;-0.036401;0.036401;1.000000
445623.57930191;5696572.29479893;471.94094994;128;126;120;32125.000000;1.000000;1.000000;1.000000;1.000000;0.035201;-0.035201;0.035201;1.000000
445623.65430077;5696572.29719933;471.93975021;113;113;106;28784.000000;1.000000;1.000000;1.000000;1.000000;0.003827;-0.003827;0.003827;1.000000
445623.58040245;5696572.25729950;471.94054987;168;167;161;42662.000000;1.000000;1.000000;1.000000;1.000000;0.072701;-0.072701;0.072701;1.000000
445623.58890160;5696572.07199867;471.93874981;111;112;108;28527.000000;1.000000;1.000000;1.000000;1.000000;0.055774;-0.055774;0.055774;1.000000
445623.13310249;5696572.45199879;471.99954988;240;240;235;61423.000000;1.000000;1.000000;1.000000;1.000000;0.122040;-0.122040;0.122040;1.000000
445623.55150230;5696572.50729950;471.96084978;36;33;29;8481.000000;1.000000;1.000000;1.000000;1.000000;-0.143375;0.143375;-0.143375;1.000000
445623.45690163;5696572.09329899;471.95634987;20;20;18;4883.000000;1.000000;1.000000;1.000000;1.000000;-0.076226;0.076226;-0.076226;1.000000
445623.59980209;5696572.44449909;471.95064976;157;156;148;39835.000000;1.000000;1.000000;1.000000;1.000000;-0.114499;0.114499;-0.114499;1.000000
445623.14720161;5696572.15709885;471.95704987;57;55;52;14135.000000;1.000000;1.000000;1.000000;1.000000;-0.172901;0.172901;-0.172901;1.000000
445623.29710205;5696572.16179951;471.95924999;225;225;219;57568.000000;1.000000;1.000000;1.000000;1.000000;-0.168200;0.168200;-0.168200;1.000000
445623.63200195;5696572.17569931;471.92324974;109;107;101;27242.000000;1.000000;1.000000;1.000000;1.000000;0.026125;-0.026125;0.026125;1.000000
445623.63320168;5696572.13819893;471.92285015;129;128;123;32639.000000;1.000000;1.000000;1.000000;1.000000;0.024926;-0.024926;0.024926;1.000000
445623.44740112;5696572.31839951;471.95855000;11;11;15;2827.000000;1.000000;1.000000;1.000000;1.000000;0.011600;-0.011600;0.011600;1.000000
445623.64390190;5696572.10219868;471.92294981;212;213;208;54484.000000;1.000000;1.000000;1.000000;1.000000;0.014225;-0.014225;0.014225;1.000000
445623.36970146;5696572.38859947;471.96054985;27;29;35;7453.000000;1.000000;1.000000;1.000000;1.000000;0.058599;-0.058599;0.058599;1.000000
445623.62690170;5696572.51199921;471.95734980;138;136;125;34695.000000;1.000000;1.000000;1.000000;1.000000;-0.181999;0.181999;-0.181999;1.000000
445623.65430077;5696572.26919945;471.93475010;121;121;113;30840.000000;1.000000;1.000000;1.000000;1.000000;0.003827;-0.003827;0.003827;1.000000
445623.37550171;5696572.49119957;471.94105007;146;142;131;36237.000000;1.000000;1.000000;1.000000;1.000000;0.032626;-0.032626;0.032626;1.000000
445623.41400154;5696572.45489891;471.94474985;194;192;184;49087.000000;1.000000;1.000000;1.000000;1.000000;-0.027242;0.027242;-0.027242;1.000000
445623.46380241;5696572.16069897;471.94115021;148;143;135;36751.000000;1.000000;1.000000;1.000000;1.000000;-0.069325;0.069325;-0.069325;1.000000
445623.50150116;5696572.16189869;471.93814995;68;61;56;15934.000000;1.000000;1.000000;1.000000;1.000000;-0.031626;0.031626;-0.031626;1.000000
445623.50270088;5696572.12439926;471.93774988;22;19;17;4883.000000;1.000000;1.000000;1.000000;1.000000;-0.030427;0.030427;-0.030427;1.000000
445623.58120163;5696572.01659973;471.94234993;32;31;30;7967.000000;1.000000;1.000000;1.000000;1.000000;0.048074;-0.048074;0.048074;1.000000
445623.47220238;5696571.97529896;471.94164993;25;23;24;5911.000000;1.000000;1.000000;1.000000;1.000000;-0.060925;0.060925;-0.060925;1.000000
445623.63010223;5696572.00989922;471.93284990;44;41;40;10537.000000;1.000000;1.000000;1.000000;1.000000;0.028025;-0.028025;0.028025;1.000000
445623.53090103;5696572.53499897;471.95564987;45;43;38;11051.000000;1.000000;1.000000;1.000000;1.000000;-0.122774;0.122774;-0.122774;1.000000
445623.60610207;5696572.53959950;471.95674994;147;143;134;36751.000000;1.000000;1.000000;1.000000;1.000000;-0.197975;0.197975;-0.197975;1.000000
445623.21890076;5696572.41839893;471.99834969;199;205;206;52171.000000;1.000000;1.000000;1.000000;1.000000;0.088399;-0.088399;0.088399;1.000000
445623.31020172;5696572.45029934;471.95624973;39;39;41;10023.000000;1.000000;1.000000;1.000000;1.000000;0.102706;-0.102706;0.102706;1.000000
445623.20210083;5696572.37149914;471.96204998;231;231;224;59110.000000;1.000000;1.000000;1.000000;1.000000;0.041499;-0.041499;0.041499;1.000000
445623.09580238;5696572.25759895;471.95594980;89;87;73;22102.000000;1.000000;1.000000;1.000000;1.000000;-0.072401;0.072401;-0.072401;1.000000
445623.32000168;5696572.22979935;471.95645000;104;101;96;25957.000000;1.000000;1.000000;1.000000;1.000000;-0.100274;0.100274;-0.100274;1.000000
445623.32330139;5696572.18979939;471.95604994;27;26;23;6425.000000;1.000000;1.000000;1.000000;1.000000;-0.140202;0.140202;-0.140202;1.000000
445623.39970215;5696572.15699871;471.95685007;27;23;19;5911.000000;1.000000;1.000000;1.000000;1.000000;-0.133425;0.133425;-0.133425;1.000000
445623.36320122;5696572.11829956;471.95935013;174;176;169;44718.000000;1.000000;1.000000;1.000000;1.000000;-0.169926;0.169926;-0.169926;1.000000
445623.06670197;5696572.07109936;471.95704987;192;189;182;48573.000000;1.000000;1.000000;1.000000;1.000000;-0.096075;0.096075;-0.096075;1.000000
445623.14120110;5696572.07109936;471.96274998;188;191;186;48573.000000;1.000000;1.000000;1.000000;1.000000;-0.170574;0.170574;-0.170574;1.000000
445623.40210159;5696572.08209904;471.95604994;229;232;228;59110.000000;1.000000;1.000000;1.000000;1.000000;-0.131026;0.131026;-0.131026;1.000000
445623.40800102;5696572.56749924;471.94815018;137;130;106;33153.000000;1.000000;1.000000;1.000000;1.000000;0.000126;-0.000126;0.000126;1.000000
445623.41150101;5696572.52979954;471.94784977;155;150;135;38293.000000;1.000000;1.000000;1.000000;1.000000;-0.003374;0.003374;-0.003374;1.000000
445623.44890221;5696572.53089912;471.95184996;106;103;91;26214.000000;1.000000;1.000000;1.000000;1.000000;-0.040775;0.040775;-0.040775;1.000000
