//X;Y;Z;R;G;B;Intensity;Return Number;Number Of Returns;Scan Direction Flag;Point Source ID;C2M signed distances[-][<0.8];C2M signed distances[<0.4];C2M signed distances[-][<0.2];Stump88
445619.12110146;5696561.84999855;472.00885012;140;139;130;35466.000000;1.000000;1.000000;1.000000;1.000000;-0.020322;0.020322;-0.020322;1.000000
445619.29480179;5696562.08149918;472.00785019;157;154;146;39578.000000;1.000000;1.000000;1.000000;1.000000;0.105424;-0.105424;0.105424;1.000000
445619.25950249;5696562.08009918;472.00855019;189;187;178;47802.000000;1.000000;1.000000;1.000000;1.000000;0.070125;-0.070125;0.070125;1.000000
445619.22620209;5696561.99459847;471.99904968;87;83;73;21331.000000;1.000000;1.000000;1.000000;1.000000;0.036825;-0.036825;0.036825;1.000000
445619.18880089;5696562.00239952;472.01604988;67;67;60;16962.000000;1.000000;1.000000;1.000000;1.000000;-0.000576;0.000576;-0.000576;1.000000
445619.29440125;5696562.10709961;472.01744987;231;231;226;59110.000000;1.000000;1.000000;1.000000;1.000000;0.105024;-0.105024;0.105024;1.000000
445619.18880089;5696562.05829819;472.02834990;148;148;141;37779.000000;1.000000;1.000000;1.000000;1.000000;-0.000576;0.000576;-0.000576;1.000000
445619.15670212;5696561.85369881;472.00584986;122;119;108;30326.000000;1.000000;1.000000;1.000000;1.000000;0.023699;-0.023699;0.023699;1.000000
445619.19880112;5696561.71479996;471.97585012;156;152;144;39064.000000;1.000000;1.000000;1.000000;1.000000;0.115585;-0.115585;0.115585;1.000000
445619.16340073;5696561.71339996;471.97884991;103;100;97;25700.000000;1.000000;1.000000;1.000000;1.000000;0.104768;-0.104768;0.104768;1.000000
445619.08830078;5696561.71099861;471.98014977;177;176;172;44975.000000;1.000000;1.000000;1.000000;1.000000;0.039785;-0.039785;0.039785;1.000000
445619.27250107;5696561.75469978;471.97965004;169;165;152;42148.000000;1.000000;1.000000;1.000000;1.000000;0.112159;-0.112159;0.112159;1.000000
445619.23520096;5696561.75579842;471.97795012;161;157;143;40092.000000;1.000000;1.000000;1.000000;1.000000;0.087211;-0.087211;0.087211;1.000000
445619.16220100;5696561.75089844;471.97924997;181;177;167;45489.000000;1.000000;1.000000;1.000000;1.000000;0.079102;-0.079102;0.079102;1.000000
445619.19220169;5696561.93899925;472.01774981;189;191;182;48573.000000;1.000000;1.000000;1.000000;1.000000;0.002824;-0.002824;0.002824;1.000000
445619.18860062;5696561.97449883;472.01335003;77;79;73;19789.000000;1.000000;1.000000;1.000000;1.000000;-0.000777;0.000777;-0.000777;1.000000
445619.18080147;5696561.72349937;471.97744991;148;144;138;37008.000000;1.000000;1.000000;1.000000;1.000000;0.106504;-0.106504;0.106504;1.000000
445619.12630089;5696562.11319931;472.02384998;120;120;105;30326.000000;1.000000;1.000000;1.000000;1.000000;-0.063076;0.063076;-0.063076;1.000000
445619.25020226;5696561.84759911;471.99134972;159;157;145;40092.000000;1.000000;1.000000;1.000000;1.000000;0.060825;-0.060825;0.060825;1.000000
445619.17230232;5696561.95479973;472.02404978;204;207;200;52685.000000;1.000000;1.000000;1.000000;1.000000;-0.017075;0.017075;-0.017075;1.000000
445619.22500237;5696562.03199966;471.99945023;153;148;138;38036.000000;1.000000;1.000000;1.000000;1.000000;0.035625;-0.035625;0.035625;1.000000
445619.26070221;5696562.03579910;471.99405005;166;163;157;41891.000000;1.000000;1.000000;1.000000;1.000000;0.071325;-0.071325;0.071325;1.000000
445619.13830193;5696561.88799866;472.01704981;154;153;144;39064.000000;1.000000;1.000000;1.000000;1.000000;-0.051075;0.051075;-0.051075;1.000000
445619.23830231;5696562.10989960;472.02194979;126;126;119;32125.000000;1.000000;1.000000;1.000000;1.000000;0.048925;-0.048925;0.048925;1.000000
445619.07970245;5696561.67199905;471.98624994;51;50;50;12850.000000;1.000000;1.000000;1.000000;1.000000;0.015325;-0.015325;0.015325;1.000000
445619.31340225;5696562.11229904;472.02064993;234;235;230;60138.000000;1.000000;1.000000;1.000000;1.000000;0.124025;-0.124025;0.124025;1.000000
445619.17190178;5696561.70559891;471.98145010;104;101;96;25957.000000;1.000000;1.000000;1.000000;1.000000;0.110709;-0.110709;0.110709;1.000000
445619.09670074;5696561.70089920;471.98035004;123;121;120;31097.000000;1.000000;1.000000;1.000000;1.000000;0.038925;-0.038925;0.038925;1.000000
445619.17100151;5696561.74309929;471.97725012;127;123;112;31354.000000;1.000000;1.000000;1.000000;1.000000;0.086901;-0.086901;0.086901;1.000000
445619.13300140;5696561.73950012;471.98245003;86;82;74;21074.000000;1.000000;1.000000;1.000000;1.000000;0.090500;-0.090500;0.090500;1.000000
445619.24600227;5696561.74549873;471.97604992;141;136;122;34695.000000;1.000000;1.000000;1.000000;1.000000;0.101719;-0.101719;0.101719;1.000000
445619.20070084;5696561.92889984;472.01574995;194;195;187;49601.000000;1.000000;1.000000;1.000000;1.000000;0.011323;-0.011323;0.011323;1.000000
445619.19740112;5696561.96669968;472.01135017;63;63;56;15934.000000;1.000000;1.000000;1.000000;1.000000;0.008024;-0.008024;0.008024;1.000000
445619.19620140;5696562.00419815;472.01174976;70;69;63;17476.000000;1.000000;1.000000;1.000000;1.000000;0.006824;-0.006824;0.006824;1.000000
445619.19710167;5696562.04139908;472.01695015;147;145;136;37008.000000;1.000000;1.000000;1.000000;1.000000;0.007724;-0.007724;0.007724;1.000000
445619.23120125;5696562.08029945;472.01424982;214;214;207;54741.000000;1.000000;1.000000;1.000000;1.000000;0.041824;-0.041824;0.041824;1.000000
445619.14810188;5696561.83589943;472.00295021;142;140;127;35723.000000;1.000000;1.000000;1.000000;1.000000;-0.005899;0.005899;-0.005899;1.000000
445619.11070068;5696561.83469971;472.00124981;176;175;165;44718.000000;1.000000;1.000000;1.000000;1.000000;-0.004700;0.004700;-0.004700;1.000000
445619.25460251;5696561.76330002;471.97895004;185;182;169;46517.000000;1.000000;1.000000;1.000000;1.000000;0.093291;-0.093291;0.093291;1.000000
445619.21930130;5696561.94839867;472.00514986;62;62;54;15677.000000;1.000000;1.000000;1.000000;1.000000;0.029924;-0.029924;0.029924;1.000000
445619.17960175;5696561.76099976;471.97784998;179;175;163;44718.000000;1.000000;1.000000;1.000000;1.000000;0.069000;-0.069000;0.069000;1.000000
445619.16820152;5696561.61259850;471.97555019;156;154;144;39321.000000;1.000000;1.000000;1.000000;1.000000;0.103824;-0.103824;0.103824;1.000000
445619.18350227;5696561.89099892;472.00514986;97;95;84;24158.000000;1.000000;1.000000;1.000000;1.000000;-0.005875;0.005875;-0.005875;1.000000
445619.21970184;5696561.92959984;472.00964977;90;90;80;22616.000000;1.000000;1.000000;1.000000;1.000000;0.030324;-0.030324;0.030324;1.000000
445619.21650131;5696561.96739967;472.00295021;122;120;114;30583.000000;1.000000;1.000000;1.000000;1.000000;0.027124;-0.027124;0.027124;1.000000
445619.21540077;5696562.00490006;472.00094988;82;78;71;20046.000000;1.000000;1.000000;1.000000;1.000000;0.026023;-0.026023;0.026023;1.000000
445619.21400078;5696562.04229935;472.00604965;154;152;141;38807.000000;1.000000;1.000000;1.000000;1.000000;0.024623;-0.024623;0.024623;1.000000
445619.28790100;5696562.08219917;472.00514986;176;173;163;44204.000000;1.000000;1.000000;1.000000;1.000000;0.098524;-0.098524;0.098524;1.000000
445619.14950188;5696561.79619987;471.99324991;124;122;108;31097.000000;1.000000;1.000000;1.000000;1.000000;-0.033800;0.033800;-0.033800;1.000000
445619.19830139;5696561.76159866;471.97865011;166;161;147;41120.000000;1.000000;1.000000;1.000000;1.000000;0.068981;-0.068981;0.068981;1.000000
445619.11830147;5696561.68469818;471.98815014;36;31;31;8224.000000;1.000000;1.000000;1.000000;1.000000;0.054187;-0.054187;0.054187;1.000000
445619.15120132;5696561.76109894;471.98584988;188;185;176;47288.000000;1.000000;1.000000;1.000000;1.000000;-0.068901;0.068901;-0.068901;1.000000
445619.11580093;5696561.75739868;471.98654987;147;144;137;37008.000000;1.000000;1.000000;1.000000;1.000000;0.072601;-0.072601;0.072601;1.000000
445619.22470100;5696561.79859932;471.98964979;78;74;55;18761.000000;1.000000;1.000000;1.000000;1.000000;0.047263;-0.047263;0.047263;1.000000
445619.26260193;5696561.80219849;471.98675014;140;138;125;35209.000000;1.000000;1.000000;1.000000;1.000000;0.078325;-0.078325;0.078325;1.000000
445619.29640205;5696561.84099968;471.99104979;144;144;131;36494.000000;1.000000;1.000000;1.000000;1.000000;0.107025;-0.107025;0.107025;1.000000
445619.26130112;5696561.83959969;471.98945000;160;158;148;40349.000000;1.000000;1.000000;1.000000;1.000000;0.071924;-0.071924;0.071924;1.000000
445619.11050232;5696561.86939819;472.02495005;147;148;141;37522.000000;1.000000;1.000000;1.000000;1.000000;-0.039398;0.039398;-0.039398;1.000000
445619.14460190;5696561.90829857;472.02454998;133;131;120;33410.000000;1.000000;1.000000;1.000000;1.000000;-0.044775;0.044775;-0.044775;1.000000
445619.18100174;5696561.94699867;472.02204992;203;205;197;52171.000000;1.000000;1.000000;1.000000;1.000000;-0.008376;0.008376;-0.008376;1.000000
445619.17760094;5696561.98469933;472.02005007;63;64;59;16191.000000;1.000000;1.000000;1.000000;1.000000;-0.011776;0.011776;-0.011776;1.000000
445619.17850121;5696562.02189835;472.02514984;102;101;94;25700.000000;1.000000;1.000000;1.000000;1.000000;-0.010876;0.010876;-0.010876;1.000000
445619.17340096;5696561.91049965;472.01195004;135;134;125;34181.000000;1.000000;1.000000;1.000000;1.000000;-0.015976;0.015976;-0.015976;1.000000
445619.11510094;5696561.75049980;471.98644974;141;138;131;35466.000000;1.000000;1.000000;1.000000;1.000000;0.079500;-0.079500;0.079500;1.000000
445619.15110214;5696561.78679855;471.99084999;134;133;120;33667.000000;1.000000;1.000000;1.000000;1.000000;-0.043201;0.043201;-0.043201;1.000000
445619.29910095;5696561.79409988;471.98824980;151;149;136;38036.000000;1.000000;1.000000;1.000000;1.000000;0.115447;-0.115447;0.115447;1.000000
445619.26170166;5696561.79289825;471.98654987;124;122;109;31097.000000;1.000000;1.000000;1.000000;1.000000;0.081286;-0.081286;0.081286;1.000000
445619.22390182;5696561.78940018;471.98714973;85;82;63;20560.000000;1.000000;1.000000;1.000000;1.000000;0.053294;-0.053294;0.053294;1.000000
445619.18870171;5696561.78800018;471.98784973;172;168;151;42919.000000;1.000000;1.000000;1.000000;1.000000;-0.042005;0.042005;-0.042005;1.000000
445619.29780205;5696561.83149918;471.99104979;116;116;105;29298.000000;1.000000;1.000000;1.000000;1.000000;0.108425;-0.108425;0.108425;1.000000
445619.26040085;5696561.83039864;471.98934986;131;129;119;32896.000000;1.000000;1.000000;1.000000;1.000000;0.071023;-0.071023;0.071023;1.000000
445619.11010178;5696561.86249931;472.02014973;150;150;141;38293.000000;1.000000;1.000000;1.000000;1.000000;-0.032499;0.032499;-0.032499;1.000000
445619.14400108;5696561.90139969;472.02215006;152;151;141;38550.000000;1.000000;1.000000;1.000000;1.000000;-0.045376;0.045376;-0.045376;1.000000
445619.18030174;5696561.93779953;472.01954987;227;229;221;58339.000000;1.000000;1.000000;1.000000;1.000000;-0.009076;0.009076;-0.009076;1.000000
445619.17910202;5696561.97519882;472.01994993;66;68;64;16962.000000;1.000000;1.000000;1.000000;1.000000;-0.010275;0.010275;-0.010275;1.000000
445619.17770203;5696562.01269920;472.02504971;78;77;71;19532.000000;1.000000;1.000000;1.000000;1.000000;-0.011675;0.011675;-0.011675;1.000000
445619.11160095;5696561.84849937;472.00845005;151;150;142;38293.000000;1.000000;1.000000;1.000000;1.000000;-0.018499;0.018499;-0.018499;1.000000
445619.18480118;5696561.85349854;472.00245001;97;93;81;23644.000000;1.000000;1.000000;1.000000;1.000000;-0.004576;0.004576;-0.004576;1.000000
445619.28410156;5696562.15669830;472.03854992;160;160;158;40863.000000;1.000000;1.000000;1.000000;1.000000;0.094724;-0.094724;0.094724;1.000000
445619.24650200;5696562.12529953;472.02944996;136;134;128;34181.000000;1.000000;1.000000;1.000000;1.000000;0.057125;-0.057125;0.057125;1.000000
445619.13640221;5696562.12159927;472.02444984;52;53;36;12850.000000;1.000000;1.000000;1.000000;1.000000;-0.052975;0.052975;-0.052975;1.000000
445619.17060097;5696562.16279991;472.02644970;25;26;21;6425.000000;1.000000;1.000000;1.000000;1.000000;-0.018776;0.018776;-0.018776;1.000000
445619.16930206;5696562.19800003;472.02454998;194;191;180;48830.000000;1.000000;1.000000;1.000000;1.000000;-0.026900;0.026900;-0.026900;1.000000
445619.13200195;5696562.19679840;472.02045013;112;105;90;26985.000000;1.000000;1.000000;1.000000;1.000000;-0.059781;0.059781;-0.059781;1.000000
445619.13500221;5696562.13109978;472.02444984;48;48;30;11822.000000;1.000000;1.000000;1.000000;1.000000;-0.054375;0.054375;-0.054375;1.000000
445619.17120178;5696562.16969879;472.02654984;37;36;31;8995.000000;1.000000;1.000000;1.000000;1.000000;-0.018176;0.018176;-0.018176;1.000000
445619.13390167;5696562.16859825;472.02255013;62;57;45;14649.000000;1.000000;1.000000;1.000000;1.000000;-0.055476;0.055476;-0.055476;1.000000
445619.13280113;5696562.20609863;472.02064993;127;119;102;30583.000000;1.000000;1.000000;1.000000;1.000000;-0.062298;0.062298;-0.062298;1.000000
445619.19030197;5696561.72489937;471.97784998;158;155;146;39578.000000;1.000000;1.000000;1.000000;1.000000;0.105105;-0.105105;0.105105;1.000000
445619.18910225;5696561.76239975;471.97825005;171;167;153;42662.000000;1.000000;1.000000;1.000000;1.000000;-0.067601;0.067601;-0.067601;1.000000
445619.28690155;5696562.10079964;472.01464989;221;220;213;56283.000000;1.000000;1.000000;1.000000;1.000000;0.097524;-0.097524;0.097524;1.000000
445619.24940117;5696562.09959991;472.01534988;145;144;137;36751.000000;1.000000;1.000000;1.000000;1.000000;0.060024;-0.060024;0.060024;1.000000
445619.12660225;5696561.72139938;471.98194983;82;79;75;20303.000000;1.000000;1.000000;1.000000;1.000000;0.075158;-0.075158;0.075158;1.000000
445619.11870201;5696561.64709862;472.00404980;160;158;152;40349.000000;1.000000;1.000000;1.000000;1.000000;0.054325;-0.054325;0.054325;1.000000
445619.28350075;5696562.17549904;472.03875019;127;129;127;32896.000000;1.000000;1.000000;1.000000;1.000000;0.094123;-0.094123;0.094123;1.000000
445619.14710243;5696561.85229881;472.00775005;98;96;85;24415.000000;1.000000;1.000000;1.000000;1.000000;-0.022299;0.022299;-0.022299;1.000000
445619.08390244;5696561.61779984;471.98815014;151;151;148;38550.000000;1.000000;1.000000;1.000000;1.000000;0.019525;-0.019525;0.019525;1.000000
445619.12010201;5696561.86859901;472.01835014;148;146;139;37265.000000;1.000000;1.000000;1.000000;1.000000;-0.038687;0.038687;-0.038687;1.000000
445619.13720139;5696562.10519989;472.02664997;48;49;39;12079.000000;1.000000;1.000000;1.000000;1.000000;-0.052176;0.052176;-0.052176;1.000000
445619.29640205;5696562.10229881;472.01515009;229;229;222;58596.000000;1.000000;1.000000;1.000000;1.000000;0.107025;-0.107025;0.107025;1.000000
445619.08340080;5696561.64339836;472.00234987;81;80;78;20560.000000;1.000000;1.000000;1.000000;1.000000;0.019023;-0.019023;0.019023;1.000000
445619.17660149;5696561.63039978;471.98084976;174;172;162;43947.000000;1.000000;1.000000;1.000000;1.000000;0.112224;-0.112224;0.112224;1.000000
445619.20980080;5696561.70679863;471.97394993;139;135;126;34695.000000;1.000000;1.000000;1.000000;1.000000;0.124883;-0.124883;0.124883;1.000000
445619.20850189;5696561.74429901;471.97664978;134;130;117;33153.000000;1.000000;1.000000;1.000000;1.000000;0.087809;-0.087809;0.087809;1.000000
445619.19090088;5696561.70619972;471.97765018;101;98;91;25186.000000;1.000000;1.000000;1.000000;1.000000;0.123810;-0.123810;0.123810;1.000000
445619.15410240;5696561.73989876;471.98105003;119;114;105;29298.000000;1.000000;1.000000;1.000000;1.000000;-0.090101;0.090101;-0.090101;1.000000
445619.26490219;5696561.74609955;471.97454979;170;166;153;42405.000000;1.000000;1.000000;1.000000;1.000000;0.112886;-0.112886;0.112886;1.000000
445619.22730072;5696561.74489983;471.97514965;160;155;141;39578.000000;1.000000;1.000000;1.000000;1.000000;0.093168;-0.093168;0.093168;1.000000
445619.14790161;5696561.88939865;472.01524975;146;144;135;36751.000000;1.000000;1.000000;1.000000;1.000000;-0.041476;0.041476;-0.041476;1.000000
445619.19760139;5696561.75229843;471.97625019;131;126;112;32125.000000;1.000000;1.000000;1.000000;1.000000;0.078136;-0.078136;0.078136;1.000000
445619.15600212;5696561.90039833;472.01335003;158;156;145;39835.000000;1.000000;1.000000;1.000000;1.000000;-0.033375;0.033375;-0.033375;1.000000
445619.22240074;5696562.08799942;472.01865007;198;198;192;50629.000000;1.000000;1.000000;1.000000;1.000000;0.033023;-0.033023;0.033023;1.000000
445619.25810249;5696562.09179886;472.01324989;190;188;180;48059.000000;1.000000;1.000000;1.000000;1.000000;0.068725;-0.068725;0.068725;1.000000
445619.18180092;5696561.92829903;472.01725008;233;235;226;59881.000000;1.000000;1.000000;1.000000;1.000000;-0.007576;0.007576;-0.007576;1.000000
445619.18290146;5696561.96559914;472.01765015;70;72;66;17990.000000;1.000000;1.000000;1.000000;1.000000;-0.006476;0.006476;-0.006476;1.000000
445619.21290215;5696562.08879860;472.02285006;177;179;172;45489.000000;1.000000;1.000000;1.000000;1.000000;0.023525;-0.023525;0.023525;1.000000
445619.13540085;5696562.15909966;472.02255013;42;38;24;9509.000000;1.000000;1.000000;1.000000;1.000000;-0.053977;0.053977;-0.053977;1.000000
445619.15350159;5696561.73299988;471.98094990;86;81;74;20817.000000;1.000000;1.000000;1.000000;1.000000;-0.097000;0.097000;-0.097000;1.000000
445619.11010178;5696561.65489967;472.00374987;38;35;33;8995.000000;1.000000;1.000000;1.000000;1.000000;0.045724;-0.045724;0.045724;1.000000
445619.10990150;5696561.67369850;471.99464991;30;26;25;6939.000000;1.000000;1.000000;1.000000;1.000000;0.045524;-0.045524;0.045524;1.000000
445619.17780121;5696561.82619865;471.99714996;152;150;136;38293.000000;1.000000;1.000000;1.000000;1.000000;0.003801;-0.003801;0.003801;1.000000
445619.10290154;5696561.82389839;471.99604990;188;188;181;48059.000000;1.000000;1.000000;1.000000;1.000000;0.006102;-0.006102;0.006102;1.000000
445619.21200188;5696561.86509903;471.99454977;119;116;102;29555.000000;1.000000;1.000000;1.000000;1.000000;0.022624;-0.022624;0.022624;1.000000
445619.28730209;5696561.86989983;471.99335005;130;128;108;32382.000000;1.000000;1.000000;1.000000;1.000000;0.097925;-0.097925;0.097925;1.000000
445619.13660248;5696561.89959915;472.02874996;146;145;138;37008.000000;1.000000;1.000000;1.000000;1.000000;-0.052775;0.052775;-0.052775;1.000000
445619.28330238;5696561.97989853;471.99914982;96;93;86;23901.000000;1.000000;1.000000;1.000000;1.000000;0.093925;-0.093925;0.093925;1.000000
445619.16810234;5696562.01339920;472.03154995;108;109;106;27756.000000;1.000000;1.000000;1.000000;1.000000;-0.021275;0.021275;-0.021275;1.000000
445619.24220093;5696562.01419838;471.99534990;104;100;93;25700.000000;1.000000;1.000000;1.000000;1.000000;0.052824;-0.052824;0.052824;1.000000
445619.27850159;5696562.05279930;471.99744989;200;198;190;50629.000000;1.000000;1.000000;1.000000;1.000000;0.089124;-0.089124;0.089124;1.000000
445619.24320229;5696562.05139931;472.00044968;159;157;150;40092.000000;1.000000;1.000000;1.000000;1.000000;0.053825;-0.053825;0.053825;1.000000
445619.27720078;5696562.12949951;472.03084995;193;192;186;49087.000000;1.000000;1.000000;1.000000;1.000000;0.087823;-0.087823;0.087823;1.000000
445619.23730095;5696562.12850006;472.03144981;121;120;113;30583.000000;1.000000;1.000000;1.000000;1.000000;0.047924;-0.047924;0.047924;1.000000
445619.25500114;5696562.14549835;472.03704979;88;89;85;22616.000000;1.000000;1.000000;1.000000;1.000000;0.065624;-0.065624;0.065624;1.000000
445619.26400192;5696561.73679932;471.97434999;170;165;151;42148.000000;1.000000;1.000000;1.000000;1.000000;0.119395;-0.119395;0.119395;1.000000
445619.22470100;5696561.77069862;471.98234989;152;148;133;37779.000000;1.000000;1.000000;1.000000;1.000000;0.069025;-0.069025;0.069025;1.000000
445619.26250084;5696561.77419861;471.98175003;184;181;167;46260.000000;1.000000;1.000000;1.000000;1.000000;0.091983;-0.091983;0.091983;1.000000
445619.18960197;5696561.76929863;471.98075010;190;185;171;47288.000000;1.000000;1.000000;1.000000;1.000000;0.060702;-0.060702;0.060702;1.000000
445619.14710243;5696561.88019951;472.01275017;115;112;103;28527.000000;1.000000;1.000000;1.000000;1.000000;-0.042275;0.042275;-0.042275;1.000000
445619.18110092;5696561.91909988;472.01475002;209;209;200;53456.000000;1.000000;1.000000;1.000000;1.000000;-0.008276;0.008276;-0.008276;1.000000
445619.18090065;5696561.99379929;472.01795008;59;60;55;15163.000000;1.000000;1.000000;1.000000;1.000000;-0.008477;0.008477;-0.008477;1.000000
445619.18820198;5696562.02119835;472.01625015;101;99;89;25186.000000;1.000000;1.000000;1.000000;1.000000;-0.001175;0.001175;-0.001175;1.000000
445619.15610130;5696561.63919838;471.98694994;182;180;171;46003.000000;1.000000;1.000000;1.000000;1.000000;0.091724;-0.091724;0.091724;1.000000
445619.31250198;5696562.10069855;472.01814987;220;220;215;56283.000000;1.000000;1.000000;1.000000;1.000000;0.123125;-0.123125;0.123125;1.000000
445619.14880188;5696561.87079819;472.00804998;81;80;69;20303.000000;1.000000;1.000000;1.000000;1.000000;-0.040576;0.040576;-0.040576;1.000000
445619.11070068;5696561.63389977;471.99884989;134;133;126;33924.000000;1.000000;1.000000;1.000000;1.000000;0.046323;-0.046323;0.046323;1.000000
445619.14740189;5696561.67719849;472.00105001;163;163;160;41634.000000;1.000000;1.000000;1.000000;1.000000;0.083025;-0.083025;0.083025;1.000000
445619.21320160;5696561.82769974;471.99414970;97;92;77;23387.000000;1.000000;1.000000;1.000000;1.000000;0.023935;-0.023935;0.023935;1.000000
445619.14000137;5696561.82269867;472.00005009;140;138;126;35209.000000;1.000000;1.000000;1.000000;1.000000;0.007301;-0.007301;0.007301;1.000000
445619.24960144;5696561.86639984;471.99154999;144;142;129;36237.000000;1.000000;1.000000;1.000000;1.000000;0.060224;-0.060224;0.060224;1.000000
445619.28460129;5696561.94249924;471.99634983;162;160;150;40863.000000;1.000000;1.000000;1.000000;1.000000;0.095224;-0.095224;0.095224;1.000000
445619.27990158;5696562.01759918;471.99704983;73;70;63;17990.000000;1.000000;1.000000;1.000000;1.000000;0.090524;-0.090524;0.090524;1.000000
445619.31110199;5696562.16829880;472.03284981;162;165;164;41891.000000;1.000000;1.000000;1.000000;1.000000;0.121725;-0.121725;0.121725;1.000000
445619.18010147;5696562.14309891;472.03364994;63;67;62;16705.000000;1.000000;1.000000;1.000000;1.000000;-0.009276;0.009276;-0.009276;1.000000
445619.29770096;5696561.80359848;471.98834993;151;151;139;38293.000000;1.000000;1.000000;1.000000;1.000000;0.111495;-0.111495;0.111495;1.000000
445619.13930138;5696561.84369858;472.00724985;117;114;104;29041.000000;1.000000;1.000000;1.000000;1.000000;-0.013699;0.013699;-0.013699;1.000000
445619.28800209;5696561.85109909;471.99084999;168;167;154;42405.000000;1.000000;1.000000;1.000000;1.000000;0.098625;-0.098625;0.098625;1.000000
445619.21260078;5696561.84639938;471.99434998;81;77;63;19532.000000;1.000000;1.000000;1.000000;1.000000;0.023223;-0.023223;0.023223;1.000000
445619.14660080;5696561.63999947;471.99354984;193;192;184;49087.000000;1.000000;1.000000;1.000000;1.000000;0.082223;-0.082223;0.082223;1.000000
445619.11910065;5696561.88719948;472.02784969;173;173;167;44204.000000;1.000000;1.000000;1.000000;1.000000;-0.057222;0.057222;-0.057222;1.000000
445619.28580101;5696561.90499886;471.99604990;117;115;98;29041.000000;1.000000;1.000000;1.000000;1.000000;0.096424;-0.096424;0.096424;1.000000
445619.24590118;5696561.97879990;471.99744989;94;93;84;23644.000000;1.000000;1.000000;1.000000;1.000000;0.056524;-0.056524;0.056524;1.000000
445619.20070084;5696562.08749969;472.03154995;172;174;167;44204.000000;1.000000;1.000000;1.000000;1.000000;0.011323;-0.011323;0.011323;1.000000
445619.24890144;5696561.88509949;471.99405005;131;130;115;32896.000000;1.000000;1.000000;1.000000;1.000000;0.059524;-0.059524;0.059524;1.000000
445619.21130188;5696561.88389977;471.99704983;161;158;147;40349.000000;1.000000;1.000000;1.000000;1.000000;0.021924;-0.021924;0.021924;1.000000
445619.28530128;5696561.92379959;471.99384977;109;108;96;27242.000000;1.000000;1.000000;1.000000;1.000000;0.095924;-0.095924;0.095924;1.000000
445619.21390160;5696562.07020004;472.01564981;134;134;127;34181.000000;1.000000;1.000000;1.000000;1.000000;0.024524;-0.024524;0.024524;1.000000
445619.16880234;5696561.99469955;472.02904989;73;76;73;19018.000000;1.000000;1.000000;1.000000;1.000000;-0.020575;0.020575;-0.020575;1.000000
445619.27940186;5696562.03639992;471.99494984;169;167;161;42662.000000;1.000000;1.000000;1.000000;1.000000;0.090024;-0.090024;0.090024;1.000000
445619.24170120;5696562.03289993;471.99554970;152;148;140;38036.000000;1.000000;1.000000;1.000000;1.000000;0.052324;-0.052324;0.052324;1.000000
445619.31180199;5696562.14959915;472.03035023;178;180;177;46003.000000;1.000000;1.000000;1.000000;1.000000;0.122425;-0.122425;0.122425;1.000000
445619.27620132;5696562.14579971;472.03564980;151;150;147;38293.000000;1.000000;1.000000;1.000000;1.000000;0.086824;-0.086824;0.086824;1.000000
445619.16380127;5696562.14229973;472.03055002;37;39;29;9509.000000;1.000000;1.000000;1.000000;1.000000;-0.025576;0.025576;-0.025576;1.000000
445619.20010193;5696562.18099983;472.03265001;92;94;88;23644.000000;1.000000;1.000000;1.000000;1.000000;0.010751;-0.010751;0.010751;1.000000
445619.31030090;5696562.18479927;472.03305008;127;131;130;33153.000000;1.000000;1.000000;1.000000;1.000000;0.121009;-0.121009;0.121009;1.000000
445619.24820145;5696561.90379913;471.99665024;119;118;105;29812.000000;1.000000;1.000000;1.000000;1.000000;0.058824;-0.058824;0.058824;1.000000
445619.24690063;5696561.94119843;471.99935009;133;131;122;33410.000000;1.000000;1.000000;1.000000;1.000000;0.057523;-0.057523;0.057523;1.000000
445619.28740128;5696562.10769852;472.01714994;230;230;225;58853.000000;1.000000;1.000000;1.000000;1.000000;0.098024;-0.098024;0.098024;1.000000
445619.16200073;5696561.72289856;471.97895004;104;100;95;25700.000000;1.000000;1.000000;1.000000;1.000000;0.106962;-0.106962;0.106962;1.000000
445619.08920105;5696561.72029884;471.98024990;187;187;182;47802.000000;1.000000;1.000000;1.000000;1.000000;0.048003;-0.048003;0.048003;1.000000
445619.16300209;5696561.76009949;471.98175003;198;194;185;49858.000000;1.000000;1.000000;1.000000;1.000000;0.069901;-0.069901;0.069901;1.000000
445619.27320107;5696561.76389893;471.98215010;169;166;152;42405.000000;1.000000;1.000000;1.000000;1.000000;0.106751;-0.106751;0.106751;1.000000
445619.23590096;5696561.76279839;471.97804977;161;157;143;40092.000000;1.000000;1.000000;1.000000;1.000000;0.081734;-0.081734;0.081734;1.000000
445619.11950119;5696561.86170013;472.01594975;154;153;145;39064.000000;1.000000;1.000000;1.000000;1.000000;-0.031763;0.031763;-0.031763;1.000000
445619.19220169;5696561.91109856;472.01044991;205;204;195;52171.000000;1.000000;1.000000;1.000000;1.000000;0.002824;-0.002824;0.002824;1.000000
445619.19070061;5696561.94849976;472.01784994;123;124;116;31354.000000;1.000000;1.000000;1.000000;1.000000;0.001323;-0.001323;0.001323;1.000000
445619.18740089;5696561.98629959;472.01345016;93;93;88;23644.000000;1.000000;1.000000;1.000000;1.000000;-0.001976;0.001976;-0.001976;1.000000
445619.25860222;5696562.09869965;472.01574995;193;192;185;49087.000000;1.000000;1.000000;1.000000;1.000000;0.069225;-0.069225;0.069225;1.000000
445619.25380142;5696562.18289955;472.03744986;145;148;146;37522.000000;1.000000;1.000000;1.000000;1.000000;0.064474;-0.064474;0.064474;1.000000
445619.18740089;5696562.01190002;472.01615002;81;79;69;20046.000000;1.000000;1.000000;1.000000;1.000000;-0.001976;0.001976;-0.001976;1.000000
445619.10430153;5696561.78639992;471.99104979;176;177;167;44975.000000;1.000000;1.000000;1.000000;1.000000;0.043600;-0.043600;0.043600;1.000000
445619.10040100;5696561.67000015;471.99184992;29;26;25;6682.000000;1.000000;1.000000;1.000000;1.000000;0.036024;-0.036024;0.036024;1.000000
445619.08130081;5696561.66479881;471.98854973;25;24;24;6168.000000;1.000000;1.000000;1.000000;1.000000;0.016923;-0.016923;0.016923;1.000000
445619.16860207;5696561.82709892;471.99674990;156;155;142;39321.000000;1.000000;1.000000;1.000000;1.000000;0.002901;-0.002901;0.002901;1.000000
445619.15510185;5696561.70239838;471.98535015;49;47;44;12079.000000;1.000000;1.000000;1.000000;1.000000;0.093616;-0.093616;0.093616;1.000000
445619.20260246;5696561.86599930;471.99644997;96;93;80;23644.000000;1.000000;1.000000;1.000000;1.000000;0.013225;-0.013225;0.013225;1.000000
445619.27780159;5696561.86839874;471.99284985;150;148;130;37522.000000;1.000000;1.000000;1.000000;1.000000;0.088424;-0.088424;0.088424;1.000000
445619.23880203;5696561.90229996;471.99615004;157;156;143;39578.000000;1.000000;1.000000;1.000000;1.000000;0.049425;-0.049425;0.049425;1.000000
445619.27650078;5696561.90589912;471.99554970;104;102;85;25700.000000;1.000000;1.000000;1.000000;1.000000;0.087123;-0.087123;0.087123;1.000000
445619.16120155;5696561.93939980;472.03035023;169;171;164;43433.000000;1.000000;1.000000;1.000000;1.000000;-0.028176;0.028176;-0.028176;1.000000
445619.27510078;5696561.94100006;471.99595024;173;171;162;43690.000000;1.000000;1.000000;1.000000;1.000000;0.085723;-0.085723;0.085723;1.000000
445619.27410133;5696561.98079880;471.99875023;70;67;60;17219.000000;1.000000;1.000000;1.000000;1.000000;0.084724;-0.084724;0.084724;1.000000
445619.23640068;5696561.97729881;471.99694969;127;126;118;32125.000000;1.000000;1.000000;1.000000;1.000000;0.047023;-0.047023;0.047023;1.000000
445619.30930145;5696561.97989853;471.99324991;140;137;129;35209.000000;1.000000;1.000000;1.000000;1.000000;0.119924;-0.119924;0.119924;1.000000
445619.23300179;5696562.01499947;471.99494984;127;122;116;31354.000000;1.000000;1.000000;1.000000;1.000000;0.043624;-0.043624;0.043624;1.000000
445619.26910217;5696562.05359848;471.99935009;219;217;210;55512.000000;1.000000;1.000000;1.000000;1.000000;0.079725;-0.079725;0.079725;1.000000
445619.26770218;5696562.12799843;472.03044989;183;181;175;46260.000000;1.000000;1.000000;1.000000;1.000000;0.078325;-0.078325;0.078325;1.000000
445619.11770065;5696561.70119865;471.98364975;55;52;51;13364.000000;1.000000;1.000000;1.000000;1.000000;0.057653;-0.057653;0.057653;1.000000
445619.11440094;5696561.74119957;471.98395016;136;132;125;33924.000000;1.000000;1.000000;1.000000;1.000000;0.079593;-0.079593;0.079593;1.000000
445619.11260231;5696561.77629860;471.99134972;188;188;180;48059.000000;1.000000;1.000000;1.000000;1.000000;0.053701;-0.053701;0.053701;1.000000
445619.30070122;5696561.78459938;471.98595001;146;144;132;36751.000000;1.000000;1.000000;1.000000;1.000000;0.120226;-0.120226;0.120226;1.000000
445619.26330193;5696561.78349884;471.98425009;143;141;127;35980.000000;1.000000;1.000000;1.000000;1.000000;0.087334;-0.087334;0.087334;1.000000
445619.22570236;5696561.78229912;471.98484995;121;117;99;29812.000000;1.000000;1.000000;1.000000;1.000000;0.059957;-0.059957;0.059957;1.000000
445619.18820198;5696561.78109940;471.98544981;187;182;166;46517.000000;1.000000;1.000000;1.000000;1.000000;-0.048915;0.048915;-0.048915;1.000000
445619.15250214;5696561.77729996;471.99074986;170;169;159;43176.000000;1.000000;1.000000;1.000000;1.000000;-0.052700;0.052700;-0.052700;1.000000
445619.25950249;5696561.82109840;471.98915007;141;140;129;35723.000000;1.000000;1.000000;1.000000;1.000000;0.070688;-0.070688;0.070688;1.000000
445619.29700096;5696561.82229813;471.99084999;126;125;115;31868.000000;1.000000;1.000000;1.000000;1.000000;0.107899;-0.107899;0.107899;1.000000
445619.25830086;5696561.85859879;471.99184992;155;153;142;39064.000000;1.000000;1.000000;1.000000;1.000000;0.068923;-0.068923;0.068923;1.000000
445619.17820175;5696561.96599968;472.01984980;90;93;87;23387.000000;1.000000;1.000000;1.000000;1.000000;-0.011176;0.011176;-0.011176;1.000000
445619.21370132;5696562.09809883;472.02535011;163;164;157;41634.000000;1.000000;1.000000;1.000000;1.000000;0.024324;-0.024324;0.024324;1.000000
445619.17690094;5696562.00339897;472.02255013;68;69;64;17476.000000;1.000000;1.000000;1.000000;1.000000;-0.012476;0.012476;-0.012476;1.000000
445619.13700111;5696561.63849838;471.99545004;182;181;173;46260.000000;1.000000;1.000000;1.000000;1.000000;0.072624;-0.072624;0.072624;1.000000
445619.10140236;5696561.63469894;471.99844982;105;104;98;26471.000000;1.000000;1.000000;1.000000;1.000000;0.037025;-0.037025;0.037025;1.000000
445619.13580139;5696561.67819984;472.00054981;65;64;62;16448.000000;1.000000;1.000000;1.000000;1.000000;0.071424;-0.071424;0.071424;1.000000
445619.20380219;5696561.82849892;471.99604990;136;132;116;33667.000000;1.000000;1.000000;1.000000;1.000000;0.014503;-0.014503;0.014503;1.000000
445619.13080223;5696561.82359894;471.99735023;162;161;149;40863.000000;1.000000;1.000000;1.000000;1.000000;0.006401;-0.006401;0.006401;1.000000
445619.09340103;5696561.82239922;471.99564983;162;162;153;41377.000000;1.000000;1.000000;1.000000;1.000000;0.007920;-0.007920;0.007920;1.000000
445619.24030121;5696561.86719902;471.99344971;133;130;117;33153.000000;1.000000;1.000000;1.000000;1.000000;0.050924;-0.050924;0.050924;1.000000
445619.27040108;5696562.01619919;471.99665024;63;60;54;15420.000000;1.000000;1.000000;1.000000;1.000000;0.081024;-0.081024;0.081024;1.000000
445619.23010071;5696562.12679871;472.03335001;116;116;110;29555.000000;1.000000;1.000000;1.000000;1.000000;0.040723;-0.040723;0.040723;1.000000
445619.19110115;5696562.16079910;472.03434994;88;91;86;22873.000000;1.000000;1.000000;1.000000;1.000000;0.001724;-0.001724;0.001724;1.000000
445619.30150230;5696562.16689880;472.03475000;151;153;153;39064.000000;1.000000;1.000000;1.000000;1.000000;0.112125;-0.112125;0.112125;1.000000
445619.28160103;5696561.96139915;471.99884989;135;133;124;33924.000000;1.000000;1.000000;1.000000;1.000000;0.092224;-0.092224;0.092224;1.000000
445619.28040131;5696561.99889954;471.99924995;68;65;60;16705.000000;1.000000;1.000000;1.000000;1.000000;0.091024;-0.091024;0.091024;1.000000
445619.19060143;5696561.92059906;472.01284983;232;232;223;59367.000000;1.000000;1.000000;1.000000;1.000000;0.001224;-0.001224;0.001224;1.000000
445619.12150200;5696561.79649933;471.99195005;108;109;97;27499.000000;1.000000;1.000000;1.000000;1.000000;0.033743;-0.033743;0.033743;1.000000
445619.28590210;5696562.11939819;472.02414991;212;212;207;54227.000000;1.000000;1.000000;1.000000;1.000000;0.096525;-0.096525;0.096525;1.000000
445619.19510086;5696561.83629997;471.99805023;113;110;97;28013.000000;1.000000;1.000000;1.000000;1.000000;0.005723;-0.005723;0.005723;1.000000
445619.30810173;5696561.84219940;471.99394991;140;139;124;35209.000000;1.000000;1.000000;1.000000;1.000000;0.118724;-0.118724;0.118724;1.000000
445619.19390114;5696561.87379845;471.99844982;103;100;87;25443.000000;1.000000;1.000000;1.000000;1.000000;0.004524;-0.004524;0.004524;1.000000
445619.26680191;5696561.87639816;471.99484970;166;164;146;41634.000000;1.000000;1.000000;1.000000;1.000000;0.077425;-0.077425;0.077425;1.000000
445619.26560219;5696561.91389854;471.99515011;99;97;83;24672.000000;1.000000;1.000000;1.000000;1.000000;0.076225;-0.076225;0.076225;1.000000
445619.24830063;5696562.11819847;472.02474977;142;141;135;35980.000000;1.000000;1.000000;1.000000;1.000000;0.058923;-0.058923;0.058923;1.000000
445619.17080124;5696562.18849953;472.02444984;147;145;135;37008.000000;1.000000;1.000000;1.000000;1.000000;-0.020391;0.020391;-0.020391;1.000000
445619.13330086;5696562.18729980;472.02274992;113;106;92;27242.000000;1.000000;1.000000;1.000000;1.000000;-0.056542;0.056542;-0.056542;1.000000
445619.09140213;5696561.62409981;471.99084999;151;151;146;38550.000000;1.000000;1.000000;1.000000;1.000000;0.027025;-0.027025;0.027025;1.000000
445619.30210121;5696561.95259865;471.99265005;115;112;102;28527.000000;1.000000;1.000000;1.000000;1.000000;0.112724;-0.112724;0.112724;1.000000
445619.26310165;5696561.98879822;471.99834969;72;69;62;17733.000000;1.000000;1.000000;1.000000;1.000000;0.073724;-0.073724;0.073724;1.000000
445619.22540100;5696561.98530014;471.99884989;106;104;95;26471.000000;1.000000;1.000000;1.000000;1.000000;0.036024;-0.036024;0.036024;1.000000
445619.30070122;5696561.98999985;471.99764969;149;146;138;37522.000000;1.000000;1.000000;1.000000;1.000000;0.111324;-0.111324;0.111324;1.000000
445619.31190117;5696561.90729912;471.99254992;142;139;118;35209.000000;1.000000;1.000000;1.000000;1.000000;0.122524;-0.122524;0.122524;1.000000
445619.19370087;5696562.08809860;472.03364994;180;183;176;46517.000000;1.000000;1.000000;1.000000;1.000000;0.004323;-0.004323;0.004323;1.000000
445619.26390083;5696562.16559990;472.03774979;118;120;119;30583.000000;1.000000;1.000000;1.000000;1.000000;0.074523;-0.074523;0.074523;1.000000
445619.22450073;5696562.02509888;471.99694969;148;143;133;36751.000000;1.000000;1.000000;1.000000;1.000000;0.035123;-0.035123;0.035123;1.000000
445619.15490158;5696562.12209900;472.03224995;26;28;17;6682.000000;1.000000;1.000000;1.000000;1.000000;-0.034476;0.034476;-0.034476;1.000000
445619.29440125;5696562.13949974;472.03175022;181;181;177;46260.000000;1.000000;1.000000;1.000000;1.000000;0.105024;-0.105024;0.105024;1.000000
445619.25660141;5696562.13599976;472.03464987;116;115;110;29298.000000;1.000000;1.000000;1.000000;1.000000;0.067224;-0.067224;0.067224;1.000000
445619.25530251;5696562.17349823;472.03744986;122;124;122;31611.000000;1.000000;1.000000;1.000000;1.000000;0.065925;-0.065925;0.065925;1.000000
445619.15860184;5696561.61109932;471.97744991;134;133;122;33924.000000;1.000000;1.000000;1.000000;1.000000;0.094224;-0.094224;0.094224;1.000000
445619.11720093;5696561.71999939;471.98154976;134;131;127;33667.000000;1.000000;1.000000;1.000000;1.000000;0.066721;-0.066721;0.066721;1.000000
445619.10820206;5696561.65749939;471.99904968;36;33;32;8481.000000;1.000000;1.000000;1.000000;1.000000;0.043825;-0.043825;0.043825;1.000000
445619.10360153;5696561.80509956;471.99354984;142;142;131;35980.000000;1.000000;1.000000;1.000000;1.000000;0.024900;-0.024900;0.024900;1.000000
445619.24640091;5696561.95999916;471.99954988;180;179;172;45746.000000;1.000000;1.000000;1.000000;1.000000;0.057024;-0.057024;0.057024;1.000000
445619.24270065;5696561.99539955;471.99744989;69;65;57;16705.000000;1.000000;1.000000;1.000000;1.000000;0.053323;-0.053323;0.053323;1.000000
445619.16640099;5696561.61969955;471.97784998;159;157;147;40092.000000;1.000000;1.000000;1.000000;1.000000;0.102024;-0.102024;0.102024;1.000000
445619.18300064;5696561.67639931;471.98635008;119;118;110;30069.000000;1.000000;1.000000;1.000000;1.000000;0.118623;-0.118623;0.118623;1.000000
445619.10800179;5696561.67629822;471.98994972;40;37;37;9509.000000;1.000000;1.000000;1.000000;1.000000;0.043624;-0.043624;0.043624;1.000000
445619.14440163;5696561.71269997;471.98495008;48;44;41;11308.000000;1.000000;1.000000;1.000000;1.000000;0.086713;-0.086713;0.086713;1.000000
445619.10570152;5696561.74899872;471.98605015;122;120;113;30583.000000;1.000000;1.000000;1.000000;1.000000;0.080998;-0.080998;0.080998;1.000000
445619.14100082;5696561.75049980;471.98294975;129;125;116;32125.000000;1.000000;1.000000;1.000000;1.000000;0.079500;-0.079500;0.079500;1.000000
445619.14180191;5696561.78759964;471.99044992;127;126;114;31868.000000;1.000000;1.000000;1.000000;1.000000;0.042400;-0.042400;0.042400;1.000000
445619.28970154;5696561.79259880;471.98784973;140;138;125;35209.000000;1.000000;1.000000;1.000000;1.000000;0.107069;-0.107069;0.107069;1.000000
445619.17930229;5696561.78879936;471.98985006;170;167;151;42662.000000;1.000000;1.000000;1.000000;1.000000;0.041201;-0.041201;0.041201;1.000000
445619.21470078;5696561.79029854;471.98675014;80;76;57;19275.000000;1.000000;1.000000;1.000000;1.000000;0.047090;-0.047090;0.047090;1.000000
445619.28840073;5696561.83009918;471.99055006;114;114;103;28784.000000;1.000000;1.000000;1.000000;1.000000;0.099023;-0.099023;0.099023;1.000000
445619.25090225;5696561.82889946;471.98885014;135;132;120;33667.000000;1.000000;1.000000;1.000000;1.000000;0.061535;-0.061535;0.061535;1.000000
445619.10310181;5696561.86319931;472.01984980;151;151;143;38550.000000;1.000000;1.000000;1.000000;1.000000;-0.033199;0.033199;-0.033199;1.000000
445619.13680084;5696561.89969833;472.02414991;153;151;141;38550.000000;1.000000;1.000000;1.000000;1.000000;-0.052577;0.052577;-0.052577;1.000000
445619.17170151;5696561.97349937;472.02425005;104;106;102;26728.000000;1.000000;1.000000;1.000000;1.000000;-0.017676;0.017676;-0.017676;1.000000
445619.20270164;5696562.05249985;472.01965000;134;133;126;33924.000000;1.000000;1.000000;1.000000;1.000000;0.013324;-0.013324;0.013324;1.000000
445619.12820061;5696562.08489807;472.02825024;34;34;31;8481.000000;1.000000;1.000000;1.000000;1.000000;-0.061177;0.061177;-0.061177;1.000000
445619.31250198;5696562.13089951;472.02784969;220;221;218;56540.000000;1.000000;1.000000;1.000000;1.000000;0.123125;-0.123125;0.123125;1.000000
445619.12720116;5696562.12249954;472.02404978;98;98;79;24415.000000;1.000000;1.000000;1.000000;1.000000;-0.062176;0.062176;-0.062176;1.000000
445619.16110237;5696562.16129883;472.02605011;30;30;23;7453.000000;1.000000;1.000000;1.000000;1.000000;-0.028275;0.028275;-0.028275;1.000000
445619.16000183;5696562.19889839;472.02404978;147;142;130;36494.000000;1.000000;1.000000;1.000000;1.000000;-0.034884;0.034884;-0.034884;1.000000
445619.30790146;5696562.01739891;471.99834969;135;134;127;34181.000000;1.000000;1.000000;1.000000;1.000000;0.118524;-0.118524;0.118524;1.000000
445619.13780220;5696561.88109978;472.01464989;149;148;138;37779.000000;1.000000;1.000000;1.000000;1.000000;-0.051100;0.051100;-0.051100;1.000000
445619.21410187;5696561.81129845;471.99165012;100;96;75;24158.000000;1.000000;1.000000;1.000000;1.000000;0.031001;-0.031001;0.031001;1.000000
445619.14110191;5696561.80629929;471.99294998;115;114;100;28784.000000;1.000000;1.000000;1.000000;1.000000;0.023701;-0.023701;0.023701;1.000000
445619.24750145;5696561.92249878;471.99914982;119;118;106;29812.000000;1.000000;1.000000;1.000000;1.000000;0.058124;-0.058124;0.058124;1.000000
445619.27270134;5696562.18349846;472.03595020;173;175;174;44718.000000;1.000000;1.000000;1.000000;1.000000;0.083385;-0.083385;0.083385;1.000000
445619.10900124;5696561.66440018;471.99674990;31;28;26;7196.000000;1.000000;1.000000;1.000000;1.000000;0.044624;-0.044624;0.044624;1.000000
445619.15440186;5696561.64859970;471.99394991;193;192;183;49087.000000;1.000000;1.000000;1.000000;1.000000;0.090024;-0.090024;0.090024;1.000000
445619.17710121;5696561.81699951;471.99464991;141;139;125;35466.000000;1.000000;1.000000;1.000000;1.000000;0.013000;-0.013000;0.013000;1.000000
445619.10210236;5696561.81460007;471.99364998;192;192;182;48830.000000;1.000000;1.000000;1.000000;1.000000;0.015400;-0.015400;0.015400;1.000000
445619.21340187;5696561.85569962;471.99445011;104;101;88;25700.000000;1.000000;1.000000;1.000000;1.000000;0.024024;-0.024024;0.024024;1.000000
445619.24750145;5696561.89459808;471.99414970;119;118;104;29812.000000;1.000000;1.000000;1.000000;1.000000;0.058124;-0.058124;0.058124;1.000000
445619.21180161;5696561.89079865;471.99945023;176;174;164;44461.000000;1.000000;1.000000;1.000000;1.000000;0.022424;-0.022424;0.022424;1.000000
445619.16730125;5696562.00419815;472.03144981;80;82;80;20817.000000;1.000000;1.000000;1.000000;1.000000;-0.022076;0.022076;-0.022076;1.000000
445619.28020103;5696562.04559906;471.99744989;208;206;199;52685.000000;1.000000;1.000000;1.000000;1.000000;0.090824;-0.090824;0.090824;1.000000
445619.24260147;5696562.04439934;471.99805023;132;130;122;33153.000000;1.000000;1.000000;1.000000;1.000000;0.053224;-0.053224;0.053224;1.000000
445619.12950142;5696562.07539948;472.03055002;41;43;43;10794.000000;1.000000;1.000000;1.000000;1.000000;-0.059876;0.059876;-0.059876;1.000000
445619.27660187;5696562.12259872;472.02845003;205;204;198;52171.000000;1.000000;1.000000;1.000000;1.000000;0.087224;-0.087224;0.087224;1.000000
445619.19870193;5696562.19049843;472.03044989;81;82;75;20560.000000;1.000000;1.000000;1.000000;1.000000;0.013884;-0.013884;0.013884;1.000000
445619.15550240;5696561.68589981;471.99445011;116;116;112;29555.000000;1.000000;1.000000;1.000000;1.000000;0.091350;-0.091350;0.091350;1.000000
445619.29390152;5696561.91599854;471.99414970;118;117;101;29555.000000;1.000000;1.000000;1.000000;1.000000;0.104524;-0.104524;0.104524;1.000000
445619.25270088;5696562.02489861;471.99364998;126;122;115;31354.000000;1.000000;1.000000;1.000000;1.000000;0.063323;-0.063323;0.063323;1.000000
445619.20890244;5696562.09849937;472.02974989;163;165;158;41891.000000;1.000000;1.000000;1.000000;1.000000;0.019525;-0.019525;0.019525;1.000000
445619.08890160;5696561.69229897;471.97994997;138;136;136;34952.000000;1.000000;1.000000;1.000000;1.000000;0.027802;-0.027802;0.027802;1.000000
445619.18710144;5696561.79739960;471.99025013;145;142;124;35980.000000;1.000000;1.000000;1.000000;1.000000;-0.032680;0.032680;-0.032680;1.000000
445619.07470139;5696561.62099846;471.99235012;165;166;163;42405.000000;1.000000;1.000000;1.000000;1.000000;0.010324;-0.010324;0.010324;1.000000
445619.14790161;5696561.65609940;471.99844982;202;200;194;51143.000000;1.000000;1.000000;1.000000;1.000000;0.083524;-0.083524;0.083524;1.000000
445619.14460190;5696561.69389923;471.99405005;54;52;51;13364.000000;1.000000;1.000000;1.000000;1.000000;0.081509;-0.081509;0.081509;1.000000
445619.19900139;5696561.74279984;471.97615005;121;117;105;29812.000000;1.000000;1.000000;1.000000;1.000000;0.087730;-0.087730;0.087730;1.000000
445619.11880119;5696561.85249908;472.01345016;156;155;146;39578.000000;1.000000;1.000000;1.000000;1.000000;-0.022537;0.022537;-0.022537;1.000000
445619.14020164;5696561.61739929;471.98364975;99;96;86;24415.000000;1.000000;1.000000;1.000000;1.000000;0.075824;-0.075824;0.075824;1.000000
445619.09700211;5696561.72889908;471.98075010;141;140;133;35723.000000;1.000000;1.000000;1.000000;1.000000;0.059430;-0.059430;0.059430;1.000000
445619.11850174;5696561.88029869;472.02544977;169;169;162;43176.000000;1.000000;1.000000;1.000000;1.000000;-0.050308;0.050308;-0.050308;1.000000
445619.20240219;5696562.10599907;472.03424980;157;159;154;40349.000000;1.000000;1.000000;1.000000;1.000000;0.013025;-0.013025;0.013025;1.000000
445619.28640182;5696561.88629921;471.99585011;142;142;122;35723.000000;1.000000;1.000000;1.000000;1.000000;0.097024;-0.097024;0.097024;1.000000
445619.11040123;5696561.62929924;471.99644997;154;153;146;39064.000000;1.000000;1.000000;1.000000;1.000000;0.046024;-0.046024;0.046024;1.000000
445619.21460159;5696561.81819923;471.99405005;112;108;90;27499.000000;1.000000;1.000000;1.000000;1.000000;0.027848;-0.027848;0.027848;1.000000
445619.13950165;5696561.81579979;471.99534990;123;122;109;30840.000000;1.000000;1.000000;1.000000;1.000000;0.014200;-0.014200;0.014200;1.000000
445619.28240211;5696561.97069939;471.99895002;104;103;94;26214.000000;1.000000;1.000000;1.000000;1.000000;0.093025;-0.093025;0.093025;1.000000
445619.28140076;5696562.00819977;471.99704983;63;60;54;15420.000000;1.000000;1.000000;1.000000;1.000000;0.092023;-0.092023;0.092023;1.000000
445619.20020111;5696562.08059891;472.02915003;165;167;161;42405.000000;1.000000;1.000000;1.000000;1.000000;0.010824;-0.010824;0.010824;1.000000
445619.31010063;5696562.15679939;472.03035023;170;172;170;43947.000000;1.000000;1.000000;1.000000;1.000000;0.120723;-0.120723;0.120723;1.000000
445619.12810143;5696561.88179977;472.02355005;187;187;178;47802.000000;1.000000;1.000000;1.000000;1.000000;-0.051800;0.051800;-0.051800;1.000000
445619.24490173;5696561.96949966;471.99954988;163;161;154;41120.000000;1.000000;1.000000;1.000000;1.000000;0.055524;-0.055524;0.055524;1.000000
445619.24390228;5696562.00699814;471.99534990;79;75;68;19275.000000;1.000000;1.000000;1.000000;1.000000;0.054525;-0.054525;0.054525;1.000000
445619.27460106;5696562.15529831;472.03805019;136;136;136;34952.000000;1.000000;1.000000;1.000000;1.000000;0.085224;-0.085224;0.085224;1.000000
445619.28380211;5696561.93319901;471.99394991;139;137;127;34952.000000;1.000000;1.000000;1.000000;1.000000;0.094425;-0.094425;0.094425;1.000000
445619.24840172;5696561.93179901;471.99924995;125;124;113;31611.000000;1.000000;1.000000;1.000000;1.000000;0.059024;-0.059024;0.059024;1.000000
445619.27350243;5696562.19279869;472.03615000;206;210;208;53456.000000;1.000000;1.000000;1.000000;1.000000;0.085045;-0.085045;0.085045;1.000000
