//X;Y;Z;R;G;B;Intensity;Return Number;Number Of Returns;Scan Direction Flag;Point Source ID;C2M signed distances[-][<0.8];C2M signed distances[<0.4];C2M signed distances[-][<0.2];Stump67
445629.68760117;5696573.40459927;471.55474998;86;86;80;21845.000000;1.000000;1.000000;1.000000;1.000000;0.096190;-0.096190;0.096190;1.000000
445629.49940117;5696573.23679932;471.59544994;145;153;130;38036.000000;1.000000;1.000000;1.000000;1.000000;0.064976;-0.064976;0.064976;1.000000
445629.45940216;5696573.25469883;471.58684971;66;84;39;18761.000000;1.000000;1.000000;1.000000;1.000000;0.075792;-0.075792;0.075792;1.000000
445629.54560097;5696573.26859959;471.67714979;199;205;201;51914.000000;1.000000;1.000000;1.000000;1.000000;0.018776;-0.018776;0.018776;1.000000
445629.43360146;5696573.45019920;471.63224985;53;59;38;13878.000000;1.000000;1.000000;1.000000;1.000000;-0.120199;0.120199;-0.120199;1.000000
445629.51650246;5696573.26719959;471.64314987;205;216;200;53970.000000;1.000000;1.000000;1.000000;1.000000;0.047874;-0.047874;0.047874;1.000000
445629.48080070;5696573.44309910;471.65994980;75;85;71;20560.000000;1.000000;1.000000;1.000000;1.000000;-0.113099;0.113099;-0.113099;1.000000
445629.57560165;5696573.42659958;471.70134975;147;152;154;38550.000000;1.000000;1.000000;1.000000;1.000000;-0.096600;0.096600;-0.096600;1.000000
445629.60140236;5696573.51029881;471.71974995;133;137;134;34695.000000;1.000000;1.000000;1.000000;1.000000;-0.180299;0.180299;-0.180299;1.000000
445629.47330101;5696573.40429886;471.64284994;120;134;110;32639.000000;1.000000;1.000000;1.000000;1.000000;-0.074299;0.074299;-0.074299;1.000000
445629.46470078;5696573.37519939;471.61654999;143;163;120;39064.000000;1.000000;1.000000;1.000000;1.000000;-0.045586;0.045586;-0.045586;1.000000
445629.48810204;5696573.49749954;471.71684982;174;176;174;44975.000000;1.000000;1.000000;1.000000;1.000000;-0.167500;0.167500;-0.167500;1.000000
445629.29060181;5696573.50829895;471.60554983;165;159;145;40863.000000;1.000000;1.000000;1.000000;1.000000;-0.178299;0.178299;-0.178299;1.000000
445629.21550186;5696573.33829887;471.56984999;134;130;110;33153.000000;1.000000;1.000000;1.000000;1.000000;-0.009754;0.009754;-0.009754;1.000000
445629.57070168;5696573.50319870;471.76254990;145;151;152;38293.000000;1.000000;1.000000;1.000000;1.000000;-0.173199;0.173199;-0.173199;1.000000
445629.57400139;5696573.38239868;471.69834997;160;165;166;41891.000000;1.000000;1.000000;1.000000;1.000000;-0.052399;0.052399;-0.052399;1.000000
445629.36830147;5696573.52189930;471.62085011;140;136;125;34695.000000;1.000000;1.000000;1.000000;1.000000;-0.191904;0.191904;-0.191904;1.000000
445629.60010155;5696573.51229961;471.75234987;182;187;187;47545.000000;1.000000;1.000000;1.000000;1.000000;-0.182300;0.182300;-0.182300;1.000000
445629.49920090;5696573.47069939;471.72634985;175;178;175;45232.000000;1.000000;1.000000;1.000000;1.000000;-0.140699;0.140699;-0.140699;1.000000
445629.54460152;5696573.28719910;471.68664982;193;199;194;50372.000000;1.000000;1.000000;1.000000;1.000000;0.019775;-0.019775;0.019775;1.000000
445629.61660202;5696573.29049881;471.65035011;147;153;156;38807.000000;1.000000;1.000000;1.000000;1.000000;0.039501;-0.039501;0.039501;1.000000
445629.62060173;5696573.21589954;471.61464979;131;134;127;33924.000000;1.000000;1.000000;1.000000;1.000000;-0.056225;-0.056225;0.056225;1.000000
445629.53650101;5696573.22129925;471.62255003;143;146;131;36751.000000;1.000000;1.000000;1.000000;1.000000;0.027876;-0.027876;0.027876;1.000000
445629.23730095;5696573.24519928;471.56745007;72;69;48;17219.000000;1.000000;1.000000;1.000000;1.000000;0.076085;-0.076085;0.076085;1.000000
445629.47710236;5696573.30179890;471.60454990;114;127;100;30840.000000;1.000000;1.000000;1.000000;1.000000;0.028201;-0.028201;0.028201;1.000000
445629.66250237;5696573.31029900;471.60605003;109;115;113;28784.000000;1.000000;1.000000;1.000000;1.000000;-0.040710;0.040710;-0.040710;1.000000
445629.43490227;5696573.23619946;471.57394983;69;81;38;18504.000000;1.000000;1.000000;1.000000;1.000000;0.093801;-0.093801;0.093801;1.000000
445629.46960075;5696573.23519905;471.58015015;144;154;115;37522.000000;1.000000;1.000000;1.000000;1.000000;0.094776;-0.094776;0.094776;1.000000
445629.50300224;5696573.33879955;471.62474968;54;74;38;16448.000000;1.000000;1.000000;1.000000;1.000000;-0.008800;0.008800;-0.008800;1.000000
445629.23650177;5696573.51759918;471.63114979;187;181;165;46517.000000;1.000000;1.000000;1.000000;1.000000;-0.187599;0.187599;-0.187599;1.000000
445629.20070084;5696573.51149948;471.63644983;181;173;154;44461.000000;1.000000;1.000000;1.000000;1.000000;-0.182590;0.182590;-0.182590;1.000000
445629.53560074;5696573.25799950;471.66954996;217;224;213;56540.000000;1.000000;1.000000;1.000000;1.000000;0.028776;-0.028776;0.028776;1.000000
445629.41540154;5696573.41959961;471.60785009;51;63;25;14135.000000;1.000000;1.000000;1.000000;1.000000;-0.089600;0.089600;-0.089600;1.000000
445629.20110138;5696573.42099960;471.59345009;200;195;178;49858.000000;1.000000;1.000000;1.000000;1.000000;-0.093071;0.093071;-0.093071;1.000000
445629.34450157;5696573.34269913;471.56874992;138;137;118;34695.000000;1.000000;1.000000;1.000000;1.000000;-0.012749;0.012749;-0.012749;1.000000
445629.52120216;5696573.36859901;471.70044996;183;188;180;47545.000000;1.000000;1.000000;1.000000;1.000000;-0.039345;0.039345;-0.039345;1.000000
445629.45800217;5696573.34799870;471.60424997;81;97;65;22616.000000;1.000000;1.000000;1.000000;1.000000;-0.019372;0.019372;-0.019372;1.000000
445629.21880157;5696573.49609955;471.61614992;187;174;151;44975.000000;1.000000;1.000000;1.000000;1.000000;-0.166110;0.166110;-0.166110;1.000000
445629.38700111;5696573.27109917;471.56745007;137;140;113;34952.000000;1.000000;1.000000;1.000000;1.000000;0.058901;-0.058901;0.058901;1.000000
445629.53860100;5696573.22329910;471.63205006;157;159;145;40092.000000;1.000000;1.000000;1.000000;1.000000;0.025776;-0.025776;0.025776;1.000000
445629.72590073;5696573.38709934;471.54925014;80;80;71;20303.000000;1.000000;1.000000;1.000000;1.000000;0.114307;-0.114307;0.114307;1.000000
445629.20260246;5696573.43949898;471.59845020;175;167;149;42919.000000;1.000000;1.000000;1.000000;1.000000;-0.110973;0.110973;-0.110973;1.000000
445629.61080177;5696573.25139912;471.64494993;111;116;114;29298.000000;1.000000;1.000000;1.000000;1.000000;-0.046425;-0.046425;0.046425;1.000000
445629.68580063;5696573.21759899;471.57105019;89;91;80;22873.000000;1.000000;1.000000;1.000000;1.000000;-0.121424;-0.121424;0.121424;1.000000
445629.72340210;5696573.21879871;471.56815006;128;132;123;33153.000000;1.000000;1.000000;1.000000;1.000000;-0.147251;0.147251;-0.147251;1.000000
445629.18160065;5696573.28059872;471.57924988;137;133;118;33924.000000;1.000000;1.000000;1.000000;1.000000;0.062957;-0.062957;0.062957;1.000000
445629.46030243;5696573.23599918;471.57975008;121;132;91;31868.000000;1.000000;1.000000;1.000000;1.000000;0.094482;-0.094482;0.094482;1.000000
445629.72530182;5696573.40579899;471.54944994;99;99;90;25186.000000;1.000000;1.000000;1.000000;1.000000;0.124229;-0.124229;0.124229;1.000000
445629.40180214;5696573.30919941;471.57795002;124;131;92;31868.000000;1.000000;1.000000;1.000000;1.000000;0.021110;-0.021110;0.021110;1.000000
445629.44400223;5696573.23529919;471.57665016;79;89;47;20817.000000;1.000000;1.000000;1.000000;1.000000;0.094701;-0.094701;0.094701;1.000000
445629.58370216;5696573.50019939;471.72814991;133;137;132;34695.000000;1.000000;1.000000;1.000000;1.000000;-0.170199;0.170199;-0.170199;1.000000
445629.33520134;5696573.37149914;471.57564976;164;163;149;41377.000000;1.000000;1.000000;1.000000;1.000000;-0.041499;0.041499;-0.041499;1.000000
445629.52440079;5696573.49839886;471.74414970;177;179;178;45746.000000;1.000000;1.000000;1.000000;1.000000;-0.168625;0.168625;-0.168625;1.000000
445629.17390068;5696573.43959911;471.61345007;167;160;143;41120.000000;1.000000;1.000000;1.000000;1.000000;-0.119144;0.119144;-0.119144;1.000000
445629.60100182;5696573.50119884;471.70804979;152;157;156;39835.000000;1.000000;1.000000;1.000000;1.000000;-0.171199;0.171199;-0.171199;1.000000
445629.42550095;5696573.23469933;471.57114985;73;81;39;18761.000000;1.000000;1.000000;1.000000;1.000000;0.095301;-0.095301;0.095301;1.000000
445629.37250145;5696573.37259872;471.57975008;123;127;102;31611.000000;1.000000;1.000000;1.000000;1.000000;-0.042823;0.042823;-0.042823;1.000000
445629.43390091;5696573.48729904;471.65135004;143;142;132;36237.000000;1.000000;1.000000;1.000000;1.000000;-0.157299;0.157299;-0.157299;1.000000
445629.50530251;5696573.48869904;471.73145010;165;167;163;42405.000000;1.000000;1.000000;1.000000;1.000000;-0.158699;0.158699;-0.158699;1.000000
445629.54680069;5696573.45459946;471.72594978;149;152;152;38807.000000;1.000000;1.000000;1.000000;1.000000;-0.124599;0.124599;-0.124599;1.000000
445629.65660103;5696573.30139931;471.61494972;126;133;132;33410.000000;1.000000;1.000000;1.000000;1.000000;-0.041250;0.041250;-0.041250;1.000000
445629.47500237;5696573.32999905;471.60475018;92;106;82;25443.000000;1.000000;1.000000;1.000000;1.000000;0.000001;-0.000001;0.000001;1.000000
445629.52600105;5696573.28669937;471.68114998;209;220;203;54998.000000;1.000000;1.000000;1.000000;1.000000;0.038376;-0.038376;0.038376;1.000000
445629.61660202;5696573.51389893;471.69955017;61;66;65;16448.000000;1.000000;1.000000;1.000000;1.000000;-0.183899;0.183899;-0.183899;1.000000
445629.61750229;5696573.29969891;471.65044977;143;149;152;37779.000000;1.000000;1.000000;1.000000;1.000000;-0.030301;0.030301;-0.030301;1.000000
445629.53910072;5696573.23239906;471.64144995;188;193;180;48830.000000;1.000000;1.000000;1.000000;1.000000;0.025276;-0.025276;0.025276;1.000000
445629.39850243;5696573.40959938;471.59994986;57;65;30;14906.000000;1.000000;1.000000;1.000000;1.000000;-0.079600;0.079600;-0.079600;1.000000
445629.45310219;5696573.40419872;471.62334969;84;100;64;23387.000000;1.000000;1.000000;1.000000;1.000000;-0.074232;0.074232;-0.074232;1.000000
445629.21490105;5696573.35709961;471.57004978;160;154;132;39321.000000;1.000000;1.000000;1.000000;1.000000;-0.027698;0.027698;-0.027698;1.000000
445629.39680107;5696573.25149925;471.56775000;103;108;77;26471.000000;1.000000;1.000000;1.000000;1.000000;0.078501;-0.078501;0.078501;1.000000
445629.55360229;5696573.48179920;471.73595001;162;165;163;41891.000000;1.000000;1.000000;1.000000;1.000000;-0.151799;0.151799;-0.151799;1.000000
445629.32760246;5696573.33269890;471.56084969;110;108;89;27242.000000;1.000000;1.000000;1.000000;1.000000;-0.002699;0.002699;-0.002699;1.000000
445629.49870117;5696573.46149929;471.71684982;182;187;182;47288.000000;1.000000;1.000000;1.000000;1.000000;-0.131499;0.131499;-0.131499;1.000000
445629.50600250;5696573.29419907;471.62204983;100;114;85;27242.000000;1.000000;1.000000;1.000000;1.000000;0.035801;-0.035801;0.035801;1.000000
445629.60760124;5696573.49599941;471.70594980;162;167;167;42405.000000;1.000000;1.000000;1.000000;1.000000;-0.165999;0.165999;-0.165999;1.000000
445629.50970085;5696573.26559933;471.63584997;194;205;191;51400.000000;1.000000;1.000000;1.000000;1.000000;0.054676;-0.054676;0.054676;1.000000
445629.23470123;5696573.52699955;471.64055016;221;217;204;55512.000000;1.000000;1.000000;1.000000;1.000000;-0.197000;0.197000;-0.197000;1.000000
445629.19880112;5696573.52079876;471.64584972;212;207;192;52942.000000;1.000000;1.000000;1.000000;1.000000;-0.192043;0.192043;-0.192043;1.000000
445629.20090111;5696573.44889935;471.60545017;176;167;148;42919.000000;1.000000;1.000000;1.000000;1.000000;-0.120525;0.120525;-0.120525;1.000000
445629.50960167;5696573.39539917;471.70025017;188;193;183;48830.000000;1.000000;1.000000;1.000000;1.000000;-0.065399;0.065399;-0.065399;1.000000
445629.66860207;5696573.36609943;471.58605005;100;102;102;25957.000000;1.000000;1.000000;1.000000;1.000000;0.055174;-0.055174;0.055174;1.000000
445629.35820206;5696573.48329933;471.60834982;171;166;149;42405.000000;1.000000;1.000000;1.000000;1.000000;-0.153299;0.153299;-0.153299;1.000000
445629.58240135;5696573.22359951;471.64794971;149;153;151;38807.000000;1.000000;1.000000;1.000000;1.000000;-0.018024;0.018024;-0.018024;1.000000
445629.34370239;5696573.38929947;471.58094980;185;184;168;46774.000000;1.000000;1.000000;1.000000;1.000000;-0.059331;0.059331;-0.059331;1.000000
445629.60700233;5696573.36369904;471.65304996;117;121;120;30583.000000;1.000000;1.000000;1.000000;1.000000;-0.033699;0.033699;-0.033699;1.000000
445629.68200119;5696573.32999905;471.57684996;74;76;73;19275.000000;1.000000;1.000000;1.000000;1.000000;-0.055124;0.055124;-0.055124;1.000000
445629.60810097;5696573.32629879;471.65264990;111;116;117;29298.000000;1.000000;1.000000;1.000000;1.000000;0.003701;-0.003701;0.003701;1.000000
445629.68310173;5696573.29249866;471.57884981;59;62;57;15420.000000;1.000000;1.000000;1.000000;1.000000;-0.067584;0.067584;-0.067584;1.000000
445629.62060173;5696573.28079899;471.64575006;133;139;141;35209.000000;1.000000;1.000000;1.000000;1.000000;-0.049201;0.049201;-0.049201;1.000000
445629.60520180;5696573.37309940;471.66004993;131;134;134;34181.000000;1.000000;1.000000;1.000000;1.000000;-0.043099;0.043099;-0.043099;1.000000
445629.24530228;5696573.30299957;471.56145002;89;85;69;21588.000000;1.000000;1.000000;1.000000;1.000000;0.027000;-0.027000;0.027000;1.000000
445629.50660141;5696573.23849876;471.59585001;139;145;120;35980.000000;1.000000;1.000000;1.000000;1.000000;0.057775;-0.057775;0.057775;1.000000
445629.62230118;5696573.24349888;471.63374998;125;128;125;32382.000000;1.000000;1.000000;1.000000;1.000000;-0.057924;-0.057924;0.057924;1.000000
445629.43880089;5696573.33819874;471.59394981;85;100;67;23387.000000;1.000000;1.000000;1.000000;1.000000;-0.008199;0.008199;-0.008199;1.000000
445629.72620209;5696573.34029873;471.55104973;160;161;153;40863.000000;1.000000;1.000000;1.000000;1.000000;0.099858;-0.099858;0.099858;1.000000
445629.57310112;5696573.37319954;471.69824984;160;164;164;41634.000000;1.000000;1.000000;1.000000;1.000000;-0.043200;0.043200;-0.043200;1.000000
445629.54150208;5696573.33409889;471.69635012;211;215;211;54741.000000;1.000000;1.000000;1.000000;1.000000;-0.004099;0.004099;-0.004099;1.000000
445629.62590225;5696573.33649929;471.64195015;142;148;150;37522.000000;1.000000;1.000000;1.000000;1.000000;0.006499;-0.006499;0.006499;1.000000
445629.57270248;5696573.24999912;471.65945007;148;152;149;38550.000000;1.000000;1.000000;1.000000;1.000000;-0.008326;0.008326;-0.008326;1.000000
445629.53340157;5696573.49979885;471.75385000;183;186;185;47288.000000;1.000000;1.000000;1.000000;1.000000;-0.169799;0.169799;-0.169799;1.000000
445629.58480080;5696573.36309917;471.67764999;143;147;147;37265.000000;1.000000;1.000000;1.000000;1.000000;-0.033099;0.033099;-0.033099;1.000000
445629.20350082;5696573.36499889;471.57894995;188;181;158;46260.000000;1.000000;1.000000;1.000000;1.000000;-0.038964;0.038964;-0.038964;1.000000
445629.54430206;5696573.24789913;471.66284992;204;210;201;53199.000000;1.000000;1.000000;1.000000;1.000000;0.020075;-0.020075;0.020075;1.000000
445629.37900169;5696573.48579891;471.62095024;169;167;151;42405.000000;1.000000;1.000000;1.000000;1.000000;-0.155799;0.155799;-0.155799;1.000000
445629.21780212;5696573.26339920;471.56904985;66;63;47;15934.000000;1.000000;1.000000;1.000000;1.000000;0.066661;-0.066661;0.066661;1.000000
445629.58770187;5696573.39999874;471.68995001;165;171;172;43433.000000;1.000000;1.000000;1.000000;1.000000;0.069999;0.069999;-0.069999;1.000000
445629.60670097;5696573.33569916;471.65275003;99;104;106;26214.000000;1.000000;1.000000;1.000000;1.000000;-0.005699;0.005699;-0.005699;1.000000
445629.67330177;5696573.33779915;471.57884981;73;76;72;19018.000000;1.000000;1.000000;1.000000;1.000000;0.047075;-0.047075;0.047075;1.000000
445629.65030106;5696573.43049915;471.60694983;67;70;66;17476.000000;1.000000;1.000000;1.000000;1.000000;0.103193;-0.103193;0.103193;1.000000
445629.64800079;5696573.22539909;471.59504988;141;142;135;35980.000000;1.000000;1.000000;1.000000;1.000000;-0.083624;-0.083624;0.083624;1.000000
445629.17900093;5696573.32749947;471.57975008;110;102;75;25957.000000;1.000000;1.000000;1.000000;1.000000;0.041701;-0.041701;0.041701;1.000000
445629.70940216;5696573.29259880;471.56605007;134;136;132;34438.000000;1.000000;1.000000;1.000000;1.000000;-0.090605;0.090605;-0.090605;1.000000
445629.62230118;5696573.20649918;471.60764982;96;99;94;24929.000000;1.000000;1.000000;1.000000;1.000000;-0.057924;-0.057924;0.057924;1.000000
445629.50700195;5696573.24759872;471.60524990;136;146;119;35980.000000;1.000000;1.000000;1.000000;1.000000;0.057375;-0.057375;0.057375;1.000000
445629.37390144;5696573.33519943;471.57464983;160;162;138;40606.000000;1.000000;1.000000;1.000000;1.000000;-0.005991;0.005991;-0.005991;1.000000
445629.54600151;5696573.52149876;471.78025009;184;188;188;47802.000000;1.000000;1.000000;1.000000;1.000000;-0.191499;0.191499;-0.191499;1.000000
445629.59980209;5696573.26159866;471.65154984;108;112;112;28270.000000;1.000000;1.000000;1.000000;1.000000;-0.035425;-0.035425;0.035425;1.000000
445629.65890129;5696573.43029888;471.57004978;48;48;46;12079.000000;1.000000;1.000000;1.000000;1.000000;0.105287;-0.105287;0.105287;1.000000
445629.63790138;5696573.22599895;471.61324980;149;151;146;38293.000000;1.000000;1.000000;1.000000;1.000000;-0.073524;-0.073524;0.073524;1.000000
445629.54400070;5696573.27809914;471.67945005;193;199;195;50372.000000;1.000000;1.000000;1.000000;1.000000;0.020376;-0.020376;0.020376;1.000000
445629.41600235;5696573.45899876;471.62465002;78;82;58;20046.000000;1.000000;1.000000;1.000000;1.000000;-0.128999;0.128999;-0.128999;1.000000
445629.20890244;5696573.49449928;471.62494995;176;163;143;42148.000000;1.000000;1.000000;1.000000;1.000000;-0.164917;0.164917;-0.164917;1.000000
445629.28100212;5696573.33249958;471.55644991;184;180;168;46003.000000;1.000000;1.000000;1.000000;1.000000;-0.003281;0.003281;-0.003281;1.000000
445629.42810066;5696573.37419899;471.59625008;86;106;61;24415.000000;1.000000;1.000000;1.000000;1.000000;-0.044199;0.044199;-0.044199;1.000000
445629.31830223;5696573.33359917;471.56045010;122;119;102;30326.000000;1.000000;1.000000;1.000000;1.000000;-0.003599;0.003599;-0.003599;1.000000
445629.57250221;5696573.41979893;471.70575001;166;171;172;43433.000000;1.000000;1.000000;1.000000;1.000000;-0.089799;0.089799;-0.089799;1.000000
445629.62700089;5696573.29899891;471.64384987;154;162;164;40863.000000;1.000000;1.000000;1.000000;1.000000;-0.031001;0.031001;-0.031001;1.000000
445629.57550247;5696573.39859875;471.69864990;162;167;168;42405.000000;1.000000;1.000000;1.000000;1.000000;-0.068599;0.068599;-0.068599;1.000000
445629.72760208;5696573.33079918;471.55095007;164;164;157;41891.000000;1.000000;1.000000;1.000000;1.000000;0.100728;-0.100728;0.100728;1.000000
445629.56950195;5696573.35499866;471.68855001;156;160;159;40606.000000;1.000000;1.000000;1.000000;1.000000;-0.024999;0.024999;-0.024999;1.000000
445629.54290207;5696573.32229908;471.69164993;203;208;203;52685.000000;1.000000;1.000000;1.000000;1.000000;0.007701;-0.007701;0.007701;1.000000
445629.35910233;5696573.24119957;471.55195000;124;121;101;30583.000000;1.000000;1.000000;1.000000;1.000000;0.088800;-0.088800;0.088800;1.000000
445629.27800186;5696573.38609894;471.57795002;110;104;86;26471.000000;1.000000;1.000000;1.000000;1.000000;-0.056333;0.056333;-0.056333;1.000000
445629.62150200;5696573.42749889;471.67075016;100;106;106;26728.000000;1.000000;1.000000;1.000000;1.000000;0.097499;-0.097499;0.097499;1.000000
445629.58270081;5696573.48179920;471.71164991;125;128;125;32382.000000;1.000000;1.000000;1.000000;1.000000;-0.151799;0.151799;-0.151799;1.000000
445629.22720154;5696573.26249893;471.56714966;95;92;77;23387.000000;1.000000;1.000000;1.000000;1.000000;0.067501;-0.067501;0.067501;1.000000
445629.69940193;5696573.35669907;471.55704977;109;110;105;28013.000000;1.000000;1.000000;1.000000;1.000000;0.077283;-0.077283;0.077283;1.000000
445629.62790115;5696573.35499866;471.63765003;140;145;144;36751.000000;1.000000;1.000000;1.000000;1.000000;0.025020;-0.025020;0.025020;1.000000
445629.66500099;5696573.28219898;471.59644987;136;142;139;35723.000000;1.000000;1.000000;1.000000;1.000000;-0.061142;0.061142;-0.061142;1.000000
445629.61820229;5696573.25309952;471.64064981;131;135;133;34181.000000;1.000000;1.000000;1.000000;1.000000;-0.053825;-0.053825;0.053825;1.000000
445629.63200195;5696573.20579918;471.59874966;105;106;100;26985.000000;1.000000;1.000000;1.000000;1.000000;-0.067625;-0.067625;0.067625;1.000000
445629.68580063;5696573.24549873;471.57604982;209;213;206;54227.000000;1.000000;1.000000;1.000000;1.000000;-0.103017;0.103017;-0.103017;1.000000
445629.48960121;5696573.44209869;471.66965010;95;108;95;26214.000000;1.000000;1.000000;1.000000;1.000000;-0.112099;0.112099;-0.112099;1.000000
445629.60620125;5696573.51449879;471.72475006;108;114;111;28527.000000;1.000000;1.000000;1.000000;1.000000;-0.184499;0.184499;-0.184499;1.000000
445629.64620216;5696573.44019897;471.61385014;72;74;71;18761.000000;1.000000;1.000000;1.000000;1.000000;0.111881;-0.111881;0.111881;1.000000
445629.17910202;5696573.51319893;471.65185024;197;191;175;49087.000000;1.000000;1.000000;1.000000;1.000000;-0.187846;0.187846;-0.187846;1.000000
445629.26470192;5696573.28489883;471.55985023;86;84;68;21074.000000;1.000000;1.000000;1.000000;1.000000;0.045125;-0.045125;0.045125;1.000000
445629.55930145;5696573.40689953;471.71194984;174;180;180;45746.000000;1.000000;1.000000;1.000000;1.000000;-0.077042;0.077042;-0.077042;1.000000
445629.61910065;5696573.42999943;471.67775013;118;123;123;31097.000000;1.000000;1.000000;1.000000;1.000000;0.099999;-0.099999;0.099999;1.000000
445629.30230148;5696573.28609951;471.55684998;139;138;125;34952.000000;1.000000;1.000000;1.000000;1.000000;0.043900;-0.043900;0.043900;1.000000
445629.33740242;5696573.28749950;471.56075003;143;141;125;35723.000000;1.000000;1.000000;1.000000;1.000000;0.042535;-0.042535;0.042535;1.000000
445629.21720131;5696573.47759922;471.61354973;181;169;148;43690.000000;1.000000;1.000000;1.000000;1.000000;-0.147639;0.147639;-0.147639;1.000000
445629.59920128;5696573.51959904;471.73605015;168;171;169;43433.000000;1.000000;1.000000;1.000000;1.000000;-0.189599;0.189599;-0.189599;1.000000
445629.52340134;5696573.37059887;471.70764973;187;191;189;48573.000000;1.000000;1.000000;1.000000;1.000000;-0.041748;0.041748;-0.041748;1.000000
445629.52490242;5696573.29399879;471.66944983;189;207;181;50886.000000;1.000000;1.000000;1.000000;1.000000;0.036929;-0.036929;0.036929;1.000000
445629.22510155;5696573.52549942;471.64244987;226;223;209;57054.000000;1.000000;1.000000;1.000000;1.000000;-0.195499;0.195499;-0.195499;1.000000
445629.52200134;5696573.52879913;471.75604965;176;176;173;44975.000000;1.000000;1.000000;1.000000;1.000000;-0.198972;0.198972;-0.198972;1.000000
445629.67590149;5696573.38449867;471.56554987;114;114;109;29041.000000;1.000000;1.000000;1.000000;1.000000;0.073304;-0.073304;0.073304;1.000000
445629.64660080;5696573.29979904;471.62614967;146;153;154;38807.000000;1.000000;1.000000;1.000000;1.000000;-0.036071;0.036071;-0.036071;1.000000
445629.50910194;5696573.42309959;471.71925022;187;193;188;48830.000000;1.000000;1.000000;1.000000;1.000000;-0.093100;0.093100;-0.093100;1.000000
445629.25370224;5696573.48839958;471.60365011;133;125;109;32125.000000;1.000000;1.000000;1.000000;1.000000;-0.158400;0.158400;-0.158400;1.000000
445629.55860146;5696573.37199886;471.70685007;170;176;176;44718.000000;1.000000;1.000000;1.000000;1.000000;-0.042188;0.042188;-0.042188;1.000000
445629.56080063;5696573.30689915;471.67824986;169;174;173;44204.000000;1.000000;1.000000;1.000000;1.000000;0.003576;-0.003576;0.003576;1.000000
445629.62530144;5696573.35519894;471.64214994;143;148;148;37522.000000;1.000000;1.000000;1.000000;1.000000;0.025199;-0.025199;0.025199;1.000000
445629.67160233;5696573.30259903;471.59474995;91;96;93;24158.000000;1.000000;1.000000;1.000000;1.000000;-0.052452;0.052452;-0.052452;1.000000
445629.27220161;5696573.51679905;471.61644985;136;129;111;33153.000000;1.000000;1.000000;1.000000;1.000000;-0.187008;0.187008;-0.187008;1.000000
445629.58850105;5696573.50429924;471.73315002;125;130;129;32896.000000;1.000000;1.000000;1.000000;1.000000;0.174299;0.174299;-0.174299;1.000000
445629.62780197;5696573.28249939;471.64374973;146;152;155;38550.000000;1.000000;1.000000;1.000000;1.000000;-0.047510;0.047510;-0.047510;1.000000
445629.62950142;5696573.20589931;471.60335018;113;115;109;29041.000000;1.000000;1.000000;1.000000;1.000000;-0.065125;-0.065125;0.065125;1.000000
445629.22810181;5696573.49519928;471.61654999;172;161;139;41377.000000;1.000000;1.000000;1.000000;1.000000;-0.165199;0.165199;-0.165199;1.000000
445629.24630173;5696573.26549919;471.56344988;89;87;70;21845.000000;1.000000;1.000000;1.000000;1.000000;0.064501;-0.064501;0.064501;1.000000
445629.51310165;5696573.34949883;471.63005020;193;204;180;50886.000000;1.000000;1.000000;1.000000;1.000000;-0.019499;0.019499;-0.019499;1.000000
445629.60140236;5696573.47569950;471.69845011;188;192;194;49087.000000;1.000000;1.000000;1.000000;1.000000;-0.145700;0.145700;-0.145700;1.000000
445629.19210251;5696573.45889957;471.61214973;178;167;147;43176.000000;1.000000;1.000000;1.000000;1.000000;-0.132018;0.132018;-0.132018;1.000000
445629.26300247;5696573.34109886;471.55804970;106;102;87;25957.000000;1.000000;1.000000;1.000000;1.000000;-0.011099;0.011099;-0.011099;1.000000
445629.36070068;5696573.23169907;471.54955008;140;136;117;34695.000000;1.000000;1.000000;1.000000;1.000000;0.098301;-0.098301;0.098301;1.000000
445629.31390198;5696573.42469891;471.58935024;121;119;104;30069.000000;1.000000;1.000000;1.000000;1.000000;-0.094700;0.094700;-0.094700;1.000000
445629.64100082;5696573.43819912;471.62284996;86;90;87;22616.000000;1.000000;1.000000;1.000000;1.000000;0.109117;-0.109117;0.109117;1.000000
445629.20420082;5696573.40209873;471.58874990;179;174;157;44461.000000;1.000000;1.000000;1.000000;1.000000;-0.073946;0.073946;-0.073946;1.000000
445629.36730202;5696573.45449932;471.60605003;126;126;99;31611.000000;1.000000;1.000000;1.000000;1.000000;-0.124500;0.124500;-0.124500;1.000000
445629.32170113;5696573.23999889;471.55025007;82;78;61;19789.000000;1.000000;1.000000;1.000000;1.000000;0.090001;-0.090001;0.090001;1.000000
445629.53100212;5696573.52559956;471.75635006;182;182;177;46517.000000;1.000000;1.000000;1.000000;1.000000;-0.195611;0.195611;-0.195611;1.000000
445629.58640106;5696573.38159950;471.68034985;153;158;158;40092.000000;1.000000;1.000000;1.000000;1.000000;0.051600;0.051600;-0.051600;1.000000
445629.70170219;5696573.31189926;471.56825020;129;130;127;33153.000000;1.000000;1.000000;1.000000;1.000000;-0.076984;0.076984;-0.076984;1.000000
445629.51940163;5696573.23009880;471.60564997;141;146;125;36494.000000;1.000000;1.000000;1.000000;1.000000;0.044975;-0.044975;0.044975;1.000000
445629.58090218;5696573.28899868;471.66034986;112;117;118;29555.000000;1.000000;1.000000;1.000000;1.000000;-0.016525;0.016525;-0.016525;1.000000
445629.48110207;5696573.23409946;471.58064987;153;162;125;39835.000000;1.000000;1.000000;1.000000;1.000000;0.083275;-0.083275;0.083275;1.000000
445629.44490250;5696573.38419922;471.60645010;164;181;143;43947.000000;1.000000;1.000000;1.000000;1.000000;-0.054199;0.054199;-0.054199;1.000000
445629.51770218;5696573.50139912;471.74154999;184;186;186;47545.000000;1.000000;1.000000;1.000000;1.000000;-0.171446;0.171446;-0.171446;1.000000
445629.49350174;5696573.35849960;471.61765005;142;164;119;39064.000000;1.000000;1.000000;1.000000;1.000000;-0.028500;0.028500;-0.028500;1.000000
445629.25370224;5696573.52989872;471.63905003;190;187;173;47802.000000;1.000000;1.000000;1.000000;1.000000;-0.199899;0.199899;-0.199899;1.000000
445629.60880096;5696573.47509869;471.68944981;169;176;178;44718.000000;1.000000;1.000000;1.000000;1.000000;-0.145099;0.145099;-0.145099;1.000000
445629.32740219;5696573.52819927;471.60745003;132;126;112;32382.000000;1.000000;1.000000;1.000000;1.000000;-0.198199;0.198199;-0.198199;1.000000
445629.66880234;5696573.43189915;471.56115009;68;70;65;17476.000000;1.000000;1.000000;1.000000;1.000000;0.110187;-0.110187;0.110187;1.000000
445629.59100159;5696573.46489914;471.70015003;181;185;186;47031.000000;1.000000;1.000000;1.000000;1.000000;0.134899;0.134899;-0.134899;1.000000
445629.51910217;5696573.46169956;471.73175003;148;152;151;38550.000000;1.000000;1.000000;1.000000;1.000000;-0.131812;0.131812;-0.131812;1.000000
445629.53400238;5696573.47199924;471.73495008;162;165;164;41891.000000;1.000000;1.000000;1.000000;1.000000;-0.141999;0.141999;-0.141999;1.000000
445629.60830124;5696573.47499950;471.69875004;193;199;200;50629.000000;1.000000;1.000000;1.000000;1.000000;-0.145000;0.145000;-0.145000;1.000000
445629.30160149;5696573.49809940;471.59894993;190;183;169;47031.000000;1.000000;1.000000;1.000000;1.000000;-0.168099;0.168099;-0.168099;1.000000
445629.51910217;5696573.43379887;471.72674992;176;182;178;46003.000000;1.000000;1.000000;1.000000;1.000000;-0.103942;0.103942;-0.103942;1.000000
445629.67250069;5696573.39649876;471.56094982;105;106;98;26728.000000;1.000000;1.000000;1.000000;1.000000;0.080645;-0.080645;0.080645;1.000000
445629.59260185;5696573.40189941;471.68785002;176;182;183;46260.000000;1.000000;1.000000;1.000000;1.000000;0.071899;0.071899;-0.071899;1.000000
445629.41030128;5696573.50369938;471.63654997;156;153;141;39064.000000;1.000000;1.000000;1.000000;1.000000;-0.173699;0.173699;-0.173699;1.000000
445629.59890182;5696573.44789894;471.69565012;207;211;212;53713.000000;1.000000;1.000000;1.000000;1.000000;-0.117899;0.117899;-0.117899;1.000000
445629.30110176;5696573.52589901;471.61555006;169;164;150;41891.000000;1.000000;1.000000;1.000000;1.000000;-0.195899;0.195899;-0.195899;1.000000
445629.64200218;5696573.37499912;471.62454988;134;138;138;34952.000000;1.000000;1.000000;1.000000;1.000000;0.047473;-0.047473;0.047473;1.000000
445629.57380112;5696573.49859913;471.73705008;125;128;125;32382.000000;1.000000;1.000000;1.000000;1.000000;-0.168599;0.168599;-0.168599;1.000000
445629.44890221;5696573.50659950;471.67094995;187;187;180;47802.000000;1.000000;1.000000;1.000000;1.000000;-0.176600;0.176600;-0.176600;1.000000
445629.30320175;5696573.46289928;471.59394981;119;114;101;29298.000000;1.000000;1.000000;1.000000;1.000000;-0.132899;0.132899;-0.132899;1.000000
445629.48470123;5696573.50739868;471.70744993;167;169;164;42919.000000;1.000000;1.000000;1.000000;1.000000;-0.177399;0.177399;-0.177399;1.000000
445629.74660118;5696573.33369930;471.55184986;90;91;84;22873.000000;1.000000;1.000000;1.000000;1.000000;0.119781;-0.119781;0.119781;1.000000
445629.30300148;5696573.23939903;471.54934980;152;150;134;38036.000000;1.000000;1.000000;1.000000;1.000000;0.090601;-0.090601;0.090601;1.000000
445629.34180077;5696573.42659958;471.59524967;173;172;156;43690.000000;1.000000;1.000000;1.000000;1.000000;-0.096675;0.096675;-0.096675;1.000000
445629.47940071;5696573.46159943;471.67875006;104;113;102;28013.000000;1.000000;1.000000;1.000000;1.000000;-0.131599;0.131599;-0.131599;1.000000
445629.41790207;5696573.39149960;471.59824993;186;199;165;49087.000000;1.000000;1.000000;1.000000;1.000000;-0.061500;0.061500;-0.061500;1.000000
445629.66630180;5696573.43209942;471.56574966;84;85;80;21588.000000;1.000000;1.000000;1.000000;1.000000;0.109447;-0.109447;0.109447;1.000000
445629.45810135;5696573.32009895;471.59695007;31;43;20;9252.000000;1.000000;1.000000;1.000000;1.000000;0.012291;-0.012291;0.012291;1.000000
445629.34810074;5696573.27709873;471.56115009;147;147;129;37265.000000;1.000000;1.000000;1.000000;1.000000;0.052901;-0.052901;0.052901;1.000000
445629.34040077;5696573.24059875;471.55104973;113;109;91;27756.000000;1.000000;1.000000;1.000000;1.000000;0.089527;-0.089527;0.089527;1.000000
445629.74160202;5696573.23819931;471.56685020;36;40;32;9509.000000;1.000000;1.000000;1.000000;1.000000;-0.146933;0.146933;-0.146933;1.000000
445629.50820168;5696573.27509888;471.63595011;176;187;173;46774.000000;1.000000;1.000000;1.000000;1.000000;0.054901;-0.054901;0.054901;1.000000
445629.22060211;5696573.24439915;471.57135012;53;48;27;12079.000000;1.000000;1.000000;1.000000;1.000000;-0.073357;0.073357;-0.073357;1.000000
445629.25620087;5696573.24589928;471.56364967;98;96;79;24158.000000;1.000000;1.000000;1.000000;1.000000;0.083019;-0.083019;0.083019;1.000000
445629.74780090;5696573.32189949;471.55174973;75;77;69;19275.000000;1.000000;1.000000;1.000000;1.000000;-0.121195;0.121195;-0.121195;1.000000
445629.45940216;5696573.28259953;471.59415009;162;178;142;43433.000000;1.000000;1.000000;1.000000;1.000000;0.048173;-0.048173;0.048173;1.000000
445629.38700111;5696573.24309929;471.56014969;148;147;119;37008.000000;1.000000;1.000000;1.000000;1.000000;0.086901;-0.086901;0.086901;1.000000
445629.16110237;5696573.28939922;471.58544971;59;53;36;13364.000000;1.000000;1.000000;1.000000;1.000000;0.072053;-0.072053;0.072053;1.000000
445629.34200104;5696573.23119934;471.54864981;124;120;101;30583.000000;1.000000;1.000000;1.000000;1.000000;0.098867;-0.098867;0.098867;1.000000
445629.20980080;5696573.25469883;471.57324984;34;31;16;7710.000000;1.000000;1.000000;1.000000;1.000000;0.076075;-0.076075;0.076075;1.000000
445629.74920090;5696573.28679951;471.55144979;176;177;168;44975.000000;1.000000;1.000000;1.000000;1.000000;-0.129728;0.129728;-0.129728;1.000000
445629.45680244;5696573.52199944;471.68314983;130;129;122;32896.000000;1.000000;1.000000;1.000000;1.000000;-0.192086;0.192086;-0.192086;1.000000
445629.61020096;5696573.21429928;471.63285019;146;147;142;37522.000000;1.000000;1.000000;1.000000;1.000000;-0.045824;-0.045824;0.045824;1.000000
445629.38240250;5696573.35299881;471.57994987;181;188;160;46774.000000;1.000000;1.000000;1.000000;1.000000;-0.022999;0.022999;-0.022999;1.000000
445629.51960190;5696573.37809952;471.70284988;187;193;184;48830.000000;1.000000;1.000000;1.000000;1.000000;-0.048475;0.048475;-0.048475;1.000000
445629.45130165;5696573.41129883;471.62564995;104;120;85;28527.000000;1.000000;1.000000;1.000000;1.000000;-0.081300;0.081300;-0.081300;1.000000
445629.60590179;5696573.38239868;471.66254999;131;135;135;34181.000000;1.000000;1.000000;1.000000;1.000000;-0.052399;0.052399;-0.052399;1.000000
445629.64050110;5696573.38439949;471.62454988;120;126;125;31868.000000;1.000000;1.000000;1.000000;1.000000;0.056080;-0.056080;0.056080;1.000000
445629.63220222;5696573.42929943;471.64335014;75;82;82;20303.000000;1.000000;1.000000;1.000000;1.000000;0.099442;-0.099442;0.099442;1.000000
445629.64740189;5696573.30899914;471.62634995;145;151;152;38293.000000;1.000000;1.000000;1.000000;1.000000;-0.029365;0.029365;-0.029365;1.000000
445629.60610207;5696573.30769928;471.65934994;149;155;158;39321.000000;1.000000;1.000000;1.000000;1.000000;0.022301;-0.022301;0.022301;1.000000
445629.64410217;5696573.27199944;471.62334969;154;160;159;40606.000000;1.000000;1.000000;1.000000;1.000000;-0.060504;0.060504;-0.060504;1.000000
445629.74780090;5696573.29629906;471.54915001;147;149;140;37779.000000;1.000000;1.000000;1.000000;1.000000;-0.125532;0.125532;-0.125532;1.000000
445629.60140236;5696573.22429951;471.64185001;131;136;135;34438.000000;1.000000;1.000000;1.000000;1.000000;-0.037025;-0.037025;0.037025;1.000000
445629.67340096;5696573.29319962;471.58764984;76;80;76;20046.000000;1.000000;1.000000;1.000000;1.000000;-0.059319;0.059319;-0.059319;1.000000
445629.48510178;5696573.31279953;471.60505011;82;99;69;23130.000000;1.000000;1.000000;1.000000;1.000000;0.017200;-0.017200;0.017200;1.000000
445629.54600151;5696573.24079903;471.66054966;214;218;211;55512.000000;1.000000;1.000000;1.000000;1.000000;0.018375;-0.018375;0.018375;1.000000
445629.36710175;5696573.30799873;471.56705000;154;154;132;38807.000000;1.000000;1.000000;1.000000;1.000000;0.022002;-0.022002;0.022002;1.000000
445629.54820068;5696573.38919933;471.71364977;184;189;190;48059.000000;1.000000;1.000000;1.000000;1.000000;-0.059199;0.059199;-0.059199;1.000000
445629.47560127;5696573.31129940;471.60454990;111;123;99;29812.000000;1.000000;1.000000;1.000000;1.000000;0.018701;-0.018701;0.018701;1.000000
445629.66330154;5696573.31959923;471.60615017;120;125;124;31611.000000;1.000000;1.000000;1.000000;1.000000;-0.037880;0.037880;-0.037880;1.000000
445629.70480164;5696573.24619873;471.56995012;102;106;100;26728.000000;1.000000;1.000000;1.000000;1.000000;-0.114433;0.114433;-0.114433;1.000000
445629.74150093;5696573.21249874;471.56885006;80;83;70;20560.000000;1.000000;1.000000;1.000000;1.000000;-0.164150;0.164150;-0.164150;1.000000
445629.26310165;5696573.52679928;471.63245012;168;164;149;41891.000000;1.000000;1.000000;1.000000;1.000000;-0.196799;0.196799;-0.196799;1.000000
445629.26330193;5696573.48759945;471.59705021;129;121;104;31097.000000;1.000000;1.000000;1.000000;1.000000;-0.157599;0.157599;-0.157599;1.000000
445629.42240150;5696573.48609932;471.64384987;99;98;84;24672.000000;1.000000;1.000000;1.000000;1.000000;-0.156099;0.156099;-0.156099;1.000000
445629.67470177;5696573.25579937;471.58494999;172;176;173;44718.000000;1.000000;1.000000;1.000000;1.000000;-0.088278;0.088278;-0.088278;1.000000
445629.18750198;5696573.31739910;471.57765009;109;102;79;25957.000000;1.000000;1.000000;1.000000;1.000000;0.035441;-0.035441;0.035441;1.000000
445629.49250229;5696573.43439873;471.69535019;180;190;179;47545.000000;1.000000;1.000000;1.000000;1.000000;-0.104399;0.104399;-0.104399;1.000000
445629.50440224;5696573.34959896;471.66925003;141;162;139;39321.000000;1.000000;1.000000;1.000000;1.000000;-0.019599;0.019599;-0.019599;1.000000
445629.70670135;5696573.40749939;471.55095007;75;76;67;19018.000000;1.000000;1.000000;1.000000;1.000000;0.111257;-0.111257;0.111257;1.000000
445629.19230087;5696573.24459942;471.57935001;42;39;20;9509.000000;1.000000;1.000000;1.000000;1.000000;-0.078674;0.078674;-0.078674;1.000000
445629.20570190;5696573.33679874;471.57634975;155;151;129;38293.000000;1.000000;1.000000;1.000000;1.000000;-0.016401;0.016401;-0.016401;1.000000
445629.66690071;5696573.41329868;471.56554987;87;87;80;22102.000000;1.000000;1.000000;1.000000;1.000000;0.092415;-0.092415;0.092415;1.000000
445629.24930199;5696573.43079956;471.58185007;161;153;135;39321.000000;1.000000;1.000000;1.000000;1.000000;-0.100800;0.100800;-0.100800;1.000000
445629.52780159;5696573.21999939;471.60584976;135;138;117;34438.000000;1.000000;1.000000;1.000000;1.000000;0.036575;-0.036575;0.036575;1.000000
445629.56620224;5696573.34359940;471.68594982;170;173;173;44204.000000;1.000000;1.000000;1.000000;1.000000;-0.013599;0.013599;-0.013599;1.000000
445629.49650200;5696573.26479919;471.61424973;180;194;170;48059.000000;1.000000;1.000000;1.000000;1.000000;0.065201;-0.065201;0.065201;1.000000
445629.53090103;5696573.52789886;471.76335003;181;183;180;46774.000000;1.000000;1.000000;1.000000;1.000000;-0.197911;0.197911;-0.197911;1.000000
445629.52350243;5696573.34269913;471.69794991;203;207;205;52685.000000;1.000000;1.000000;1.000000;1.000000;-0.015934;0.015934;-0.015934;1.000000
445629.44340141;5696573.22609909;471.57184984;134;140;102;34438.000000;1.000000;1.000000;1.000000;1.000000;0.103901;-0.103901;0.103901;1.000000
445629.54740150;5696573.40789898;471.71845009;201;205;204;52171.000000;1.000000;1.000000;1.000000;1.000000;-0.077899;0.077899;-0.077899;1.000000
445629.56410225;5696573.28579910;471.66414978;151;156;156;39578.000000;1.000000;1.000000;1.000000;1.000000;0.000275;-0.000275;0.000275;1.000000
445629.28820236;5696573.39679916;471.58085014;143;138;122;35209.000000;1.000000;1.000000;1.000000;1.000000;-0.066799;0.066799;-0.066799;1.000000
445629.46860130;5696573.49759872;471.68104984;91;92;85;23130.000000;1.000000;1.000000;1.000000;1.000000;-0.167611;0.167611;-0.167611;1.000000
445629.24470146;5696573.32169922;471.56164982;57;53;38;13364.000000;1.000000;1.000000;1.000000;1.000000;0.008301;-0.008301;0.008301;1.000000
445629.32350166;5696573.39819916;471.58015015;143;140;126;35723.000000;1.000000;1.000000;1.000000;1.000000;-0.068199;0.068199;-0.068199;1.000000
445629.46090134;5696573.45199879;471.65214970;57;64;49;15420.000000;1.000000;1.000000;1.000000;1.000000;-0.122386;0.122386;-0.122386;1.000000
445629.54030235;5696573.21159943;471.62264969;155;156;145;39578.000000;1.000000;1.000000;1.000000;1.000000;0.024075;-0.024075;0.024075;1.000000
445629.64980133;5696573.21599873;471.58804991;144;145;136;36751.000000;1.000000;1.000000;1.000000;1.000000;-0.085424;-0.085424;0.085424;1.000000
445629.50380142;5696573.35929878;471.65065004;134;151;120;36494.000000;1.000000;1.000000;1.000000;1.000000;-0.029299;0.029299;-0.029299;1.000000
445629.50080116;5696573.39629944;471.69054987;178;187;175;46774.000000;1.000000;1.000000;1.000000;1.000000;-0.066299;0.066299;-0.066299;1.000000
445629.53230103;5696573.50929935;471.74694969;183;183;178;46774.000000;1.000000;1.000000;1.000000;1.000000;-0.179301;0.179301;-0.179301;1.000000
445629.23530205;5696573.27349957;471.56535007;82;80;65;20046.000000;1.000000;1.000000;1.000000;1.000000;0.056500;-0.056500;0.056500;1.000000
445629.56420143;5696573.31599911;471.67385008;144;150;149;38036.000000;1.000000;1.000000;1.000000;1.000000;0.000175;-0.000175;0.000175;1.000000
445629.60900124;5696573.51219948;471.70855000;103;109;109;27499.000000;1.000000;1.000000;1.000000;1.000000;-0.182199;0.182199;-0.182199;1.000000
445629.51080139;5696573.41599949;471.71684982;189;195;191;49344.000000;1.000000;1.000000;1.000000;1.000000;-0.085999;0.085999;-0.085999;1.000000
445629.65280159;5696573.40239914;471.59734966;61;64;60;15934.000000;1.000000;1.000000;1.000000;1.000000;0.076901;-0.076901;0.076901;1.000000
445629.36250122;5696573.36429890;471.57684996;143;145;124;36494.000000;1.000000;1.000000;1.000000;1.000000;-0.034299;0.034299;-0.034299;1.000000
445629.26260193;5696573.51759918;471.62305023;154;148;131;37779.000000;1.000000;1.000000;1.000000;1.000000;-0.187599;0.187599;-0.187599;1.000000
445629.40120132;5696573.32799919;471.57814981;81;89;53;21074.000000;1.000000;1.000000;1.000000;1.000000;0.003607;-0.003607;0.003607;1.000000
445629.68100174;5696573.32069881;471.57905008;90;92;88;23130.000000;1.000000;1.000000;1.000000;1.000000;-0.054918;0.054918;-0.054918;1.000000
445629.17550095;5696573.42789944;471.60634996;184;178;161;45489.000000;1.000000;1.000000;1.000000;1.000000;-0.107799;0.107799;-0.107799;1.000000
445629.62490089;5696573.40189941;471.64505007;107;113;113;28527.000000;1.000000;1.000000;1.000000;1.000000;0.071899;-0.071899;0.071899;1.000000
445629.66030128;5696573.35739906;471.59714987;87;92;91;23130.000000;1.000000;1.000000;1.000000;1.000000;0.043219;-0.043219;0.043219;1.000000
445629.33120163;5696573.26939877;471.55564978;134;132;119;33667.000000;1.000000;1.000000;1.000000;1.000000;0.060601;-0.060601;0.060601;1.000000
445629.23820122;5696573.46889885;471.59574987;125;115;93;29555.000000;1.000000;1.000000;1.000000;1.000000;-0.138899;0.138899;-0.138899;1.000000
445629.58180244;5696573.27029903;471.65544989;123;129;130;32639.000000;1.000000;1.000000;1.000000;1.000000;-0.017426;0.017426;-0.017426;1.000000
445629.59120186;5696573.50199898;471.71925022;146;149;145;37779.000000;1.000000;1.000000;1.000000;1.000000;0.171999;0.171999;-0.171999;1.000000
445629.53720100;5696573.24179943;471.65084984;199;204;190;51400.000000;1.000000;1.000000;1.000000;1.000000;0.027176;-0.027176;0.027176;1.000000
445629.23630150;5696573.51299961;471.62645008;181;173;154;44461.000000;1.000000;1.000000;1.000000;1.000000;-0.183000;0.183000;-0.183000;1.000000
445629.52770241;5696573.45389946;471.73204996;139;143;143;36237.000000;1.000000;1.000000;1.000000;1.000000;-0.124018;0.124018;-0.124018;1.000000
445629.53350075;5696573.32319935;471.69584991;216;220;217;56026.000000;1.000000;1.000000;1.000000;1.000000;0.006801;-0.006801;0.006801;1.000000
445629.63360222;5696573.31709869;471.63975002;171;177;180;44975.000000;1.000000;1.000000;1.000000;1.000000;-0.014549;0.014549;-0.014549;1.000000
445629.27000244;5696573.34049900;471.55604984;140;135;121;34438.000000;1.000000;1.000000;1.000000;1.000000;-0.012501;0.012501;-0.012501;1.000000
445629.49820145;5696573.45229919;471.70974972;198;206;198;51914.000000;1.000000;1.000000;1.000000;1.000000;-0.122299;0.122299;-0.122299;1.000000
445629.28290184;5696573.49749954;471.59804966;167;159;144;40863.000000;1.000000;1.000000;1.000000;1.000000;-0.167500;0.167500;-0.167500;1.000000
445629.41740234;5696573.38459881;471.59585001;149;165;127;40092.000000;1.000000;1.000000;1.000000;1.000000;-0.054599;0.054599;-0.054599;1.000000
445629.26590164;5696573.24739941;471.55944969;128;127;111;32125.000000;1.000000;1.000000;1.000000;1.000000;0.082644;-0.082644;0.082644;1.000000
445629.45260246;5696573.43199928;471.63994982;154;164;141;40606.000000;1.000000;1.000000;1.000000;1.000000;-0.102013;0.102013;-0.102013;1.000000
445629.58210190;5696573.52989872;471.77504971;148;153;154;38807.000000;1.000000;1.000000;1.000000;1.000000;-0.199899;0.199899;-0.199899;1.000000
445629.34530075;5696573.35199936;471.57124998;141;140;121;35466.000000;1.000000;1.000000;1.000000;1.000000;-0.022002;0.022002;-0.022002;1.000000
445629.38630112;5696573.42939957;471.59964993;136;141;106;34695.000000;1.000000;1.000000;1.000000;1.000000;-0.099400;0.099400;-0.099400;1.000000
445629.20070084;5696573.47679909;471.61504986;184;171;149;44204.000000;1.000000;1.000000;1.000000;1.000000;-0.148145;0.148145;-0.148145;1.000000
445629.50180061;5696573.41469868;471.70715000;200;208;198;52428.000000;1.000000;1.000000;1.000000;1.000000;-0.084699;0.084699;-0.084699;1.000000
445629.63500221;5696573.28189953;471.63934996;165;172;175;43690.000000;1.000000;1.000000;1.000000;1.000000;-0.048782;0.048782;-0.048782;1.000000
445629.23990067;5696573.40369900;471.57875015;131;124;105;31868.000000;1.000000;1.000000;1.000000;1.000000;-0.073699;0.073699;-0.073699;1.000000
445629.70400246;5696573.23699959;471.56974985;177;181;174;46003.000000;1.000000;1.000000;1.000000;1.000000;-0.120820;0.120820;-0.120820;1.000000
445629.47600182;5696573.50609882;471.69074966;134;135;129;34438.000000;1.000000;1.000000;1.000000;1.000000;-0.176099;0.176099;-0.176099;1.000000
445629.56010063;5696573.32559879;471.68074991;156;163;162;41120.000000;1.000000;1.000000;1.000000;1.000000;0.004276;-0.004276;0.004276;1.000000
445629.28850182;5696573.36889942;471.56885006;159;155;139;39578.000000;1.000000;1.000000;1.000000;1.000000;-0.038899;0.038899;-0.038899;1.000000
445629.66460236;5696573.32889946;471.59705021;102;107;105;26985.000000;1.000000;1.000000;1.000000;1.000000;-0.037741;0.037741;-0.037741;1.000000
445629.70140083;5696573.33079918;471.56145002;86;87;81;22102.000000;1.000000;1.000000;1.000000;1.000000;0.074528;-0.074528;0.074528;1.000000
445629.51730164;5696573.24619873;471.63364985;156;167;148;41377.000000;1.000000;1.000000;1.000000;1.000000;0.047075;-0.047075;0.047075;1.000000
445629.63660248;5696573.20759876;471.60365011;141;141;135;35980.000000;1.000000;1.000000;1.000000;1.000000;-0.072226;-0.072226;0.072226;1.000000
445629.21290215;5696573.41999920;471.58935024;186;180;161;46003.000000;1.000000;1.000000;1.000000;1.000000;-0.090330;0.090330;-0.090330;1.000000
445629.42470177;5696573.25339897;471.57595016;139;152;109;36751.000000;1.000000;1.000000;1.000000;1.000000;0.076601;-0.076601;0.076601;1.000000
445629.61350067;5696573.22109898;471.62605001;153;157;150;39835.000000;1.000000;1.000000;1.000000;1.000000;-0.049124;-0.049124;0.049124;1.000000
445629.23770149;5696573.49449928;471.60764982;169;158;136;40606.000000;1.000000;1.000000;1.000000;1.000000;-0.164499;0.164499;-0.164499;1.000000
445629.67890175;5696573.36779888;471.56784966;147;147;142;37522.000000;1.000000;1.000000;1.000000;1.000000;0.064307;-0.064307;0.064307;1.000000
445629.49370201;5696573.50869949;471.71954967;165;167;163;42405.000000;1.000000;1.000000;1.000000;1.000000;-0.178699;0.178699;-0.178699;1.000000
445629.60880096;5696573.51439960;471.71785023;96;100;98;25186.000000;1.000000;1.000000;1.000000;1.000000;-0.184400;0.184400;-0.184400;1.000000
445629.59500130;5696573.39939888;471.68094971;172;179;179;45232.000000;1.000000;1.000000;1.000000;1.000000;0.069399;0.069399;-0.069399;1.000000
