//X;Y;Z;R;G;B;Intensity;Return Number;Number Of Returns;Scan Direction Flag;Point Source ID;C2M signed distances[-][<0.8];C2M signed distances[<0.4];C2M signed distances[-][<0.2];Stump81
445644.80650146;5696594.97939880;471.17635014;119;114;105;29298.000000;1.000000;1.000000;1.000000;1.000000;-0.149421;0.149421;-0.149421;1.000000
445644.70080002;5696594.90039833;471.17995026;99;99;94;25186.000000;1.000000;1.000000;1.000000;1.000000;-0.070398;0.070398;-0.070398;1.000000
445644.73719986;5696594.86429985;471.17884972;29;33;25;7710.000000;1.000000;1.000000;1.000000;1.000000;-0.034300;0.034300;-0.034300;1.000000
445644.92090042;5696594.90869911;471.13644983;78;80;79;20303.000000;1.000000;1.000000;1.000000;1.000000;-0.078699;0.078699;-0.078699;1.000000
445644.88660248;5696594.86979874;471.14144995;20;24;22;5654.000000;1.000000;1.000000;1.000000;1.000000;-0.039799;0.039799;-0.039799;1.000000
445644.77580078;5696594.82799919;471.18015005;38;52;30;11565.000000;1.000000;1.000000;1.000000;1.000000;0.003689;-0.003689;0.003689;1.000000
445644.92210205;5696594.87119873;471.13604977;57;61;60;15163.000000;1.000000;1.000000;1.000000;1.000000;-0.041199;0.041199;-0.041199;1.000000
445644.81480225;5696594.79179962;471.17454960;61;87;50;19275.000000;1.000000;1.000000;1.000000;1.000000;0.030825;-0.030825;0.030825;1.000000
445644.81730087;5696594.71909912;471.17604973;55;67;49;15677.000000;1.000000;1.000000;1.000000;1.000000;0.028326;-0.028326;0.028326;1.000000
445644.86830338;5696594.60949905;471.16544964;34;42;45;10023.000000;1.000000;1.000000;1.000000;1.000000;-0.022676;0.022676;-0.022676;1.000000
445644.86130341;5696594.78529938;471.16484978;88;111;75;25700.000000;1.000000;1.000000;1.000000;1.000000;-0.015676;0.015676;-0.015676;1.000000
445644.79050262;5696594.92959984;471.16804983;60;61;58;15420.000000;1.000000;1.000000;1.000000;1.000000;-0.099600;0.099600;-0.099600;1.000000
445644.92560013;5696595.01099976;471.14024975;66;69;49;16705.000000;1.000000;1.000000;1.000000;1.000000;-0.181000;0.181000;-0.181000;1.000000
445644.89140137;5696594.97209938;471.14514973;98;97;88;24672.000000;1.000000;1.000000;1.000000;1.000000;-0.142099;0.142099;-0.142099;1.000000
445644.92680176;5696594.97349937;471.13985016;108;109;102;27499.000000;1.000000;1.000000;1.000000;1.000000;-0.143499;0.143499;-0.143499;1.000000
445644.83160217;5696594.82069977;471.17094995;30;49;28;10280.000000;1.000000;1.000000;1.000000;1.000000;0.009300;-0.009300;0.009300;1.000000
445644.83279999;5696594.78319939;471.17054989;50;74;43;16191.000000;1.000000;1.000000;1.000000;1.000000;0.012827;-0.012827;0.012827;1.000000
445644.90740021;5696594.63900002;471.13495018;44;46;44;11565.000000;1.000000;1.000000;1.000000;1.000000;-0.061773;0.061773;-0.061773;1.000000
445644.86940201;5696594.59769829;471.16764977;29;36;38;8738.000000;1.000000;1.000000;1.000000;1.000000;-0.023775;0.023775;-0.023775;1.000000
445644.89280136;5696594.93459900;471.14014961;37;36;34;9252.000000;1.000000;1.000000;1.000000;1.000000;-0.104599;0.104599;-0.104599;1.000000
445644.92830093;5696594.93839844;471.13714983;102;103;100;26214.000000;1.000000;1.000000;1.000000;1.000000;-0.108398;0.108398;-0.108398;1.000000
445644.83139999;5696594.64320000;471.17114975;44;56;52;13107.000000;1.000000;1.000000;1.000000;1.000000;0.014227;-0.014227;0.014227;1.000000
445644.81590088;5696594.95069893;471.16715004;85;82;79;21074.000000;1.000000;1.000000;1.000000;1.000000;-0.120699;0.120699;-0.120699;1.000000
445644.85260208;5696594.79309853;471.16694977;65;90;57;20046.000000;1.000000;1.000000;1.000000;1.000000;-0.006975;0.006975;-0.006975;1.000000
445644.76090057;5696594.95069893;471.19494965;88;89;85;22616.000000;1.000000;1.000000;1.000000;1.000000;-0.120699;0.120699;-0.120699;1.000000
445644.77830322;5696594.52879913;471.17904999;96;100;78;24672.000000;1.000000;1.000000;1.000000;1.000000;0.067324;-0.067324;0.067324;1.000000
445644.79460342;5696594.63229950;471.18804981;78;96;83;22873.000000;1.000000;1.000000;1.000000;1.000000;0.051023;-0.051023;0.051023;1.000000
445644.89600189;5696594.72169884;471.14475014;42;49;35;11565.000000;1.000000;1.000000;1.000000;1.000000;-0.050375;0.050375;-0.050375;1.000000
445644.81060226;5696594.91389854;471.15714981;17;18;20;4369.000000;1.000000;1.000000;1.000000;1.000000;-0.083983;0.083983;-0.083983;1.000000
445644.92970093;5696594.69559868;471.12034990;30;32;28;7710.000000;1.000000;1.000000;1.000000;1.000000;-0.084074;0.084074;-0.084074;1.000000
445644.89770325;5696594.54389961;471.15434982;56;61;64;15163.000000;1.000000;1.000000;1.000000;1.000000;-0.052076;0.052076;-0.052076;1.000000
445644.81010254;5696594.93949898;471.16904976;61;61;61;15420.000000;1.000000;1.000000;1.000000;1.000000;-0.109582;0.109582;-0.109582;1.000000
445644.81850250;5696594.68169983;471.17334988;42;55;39;12593.000000;1.000000;1.000000;1.000000;1.000000;0.027124;-0.027124;0.027124;1.000000
445644.80370148;5696594.84659966;471.17005016;10;18;9;3598.000000;1.000000;1.000000;1.000000;1.000000;-0.016600;0.016600;-0.016600;1.000000
445644.78479965;5696594.84599884;471.17374994;21;32;16;6682.000000;1.000000;1.000000;1.000000;1.000000;-0.015999;0.015999;-0.015999;1.000000
445644.93320282;5696594.81639870;471.13824989;73;84;67;20046.000000;1.000000;1.000000;1.000000;1.000000;-0.013601;0.013601;-0.013601;1.000000
445644.93449982;5696594.77899940;471.13555004;81;89;71;21588.000000;1.000000;1.000000;1.000000;1.000000;-0.051001;0.051001;-0.051001;1.000000
445644.82720001;5696594.69959839;471.17394974;72;86;65;20303.000000;1.000000;1.000000;1.000000;1.000000;0.018427;-0.018427;0.018427;1.000000
445644.90020187;5696594.73999985;471.14284994;24;31;16;6939.000000;1.000000;1.000000;1.000000;1.000000;-0.054575;0.054575;-0.054575;1.000000
445644.93270309;5696594.60189827;471.11934998;37;41;42;10023.000000;1.000000;1.000000;1.000000;1.000000;-0.087076;0.087076;-0.087076;1.000000
445644.95360001;5696594.77969940;471.12935020;69;77;65;18761.000000;1.000000;1.000000;1.000000;1.000000;0.050301;-0.050301;0.050301;1.000000
445644.91930206;5696594.74069984;471.13434984;64;69;51;16705.000000;1.000000;1.000000;1.000000;1.000000;-0.073675;0.073675;-0.073675;1.000000
445644.78680237;5696594.81999977;471.17824986;69;86;62;20046.000000;1.000000;1.000000;1.000000;1.000000;0.010000;-0.010000;0.010000;1.000000
445644.78790100;5696594.78249939;471.18015005;29;46;26;9766.000000;1.000000;1.000000;1.000000;1.000000;0.047501;-0.047501;0.047501;1.000000
445644.84620102;5696594.70019920;471.16785004;121;133;117;32639.000000;1.000000;1.000000;1.000000;1.000000;-0.000574;0.000574;-0.000574;1.000000
445644.93210037;5696594.57379921;471.12594988;37;41;48;10280.000000;1.000000;1.000000;1.000000;1.000000;-0.086473;0.086473;-0.086473;1.000000
445644.88370331;5696594.69459923;471.15555002;34;40;34;9509.000000;1.000000;1.000000;1.000000;1.000000;-0.038076;0.038076;-0.038076;1.000000
445644.88140305;5696594.72049912;471.15574982;34;41;29;9509.000000;1.000000;1.000000;1.000000;1.000000;-0.035776;0.035776;-0.035776;1.000000
445644.95530136;5696594.97559937;471.13415005;43;43;38;10794.000000;1.000000;1.000000;1.000000;1.000000;-0.145599;0.145599;-0.145599;1.000000
445644.73560150;5696594.89269836;471.16984989;10;11;6;2570.000000;1.000000;1.000000;1.000000;1.000000;-0.062698;0.062698;-0.062698;1.000000
445644.95790298;5696594.90069969;471.12874987;109;109;107;27756.000000;1.000000;1.000000;1.000000;1.000000;-0.070700;0.070700;-0.070700;1.000000
445644.81280334;5696594.82009895;471.17244961;22;39;20;7967.000000;1.000000;1.000000;1.000000;1.000000;0.010025;-0.010025;0.010025;1.000000
445644.95910080;5696594.86329849;471.12834980;70;72;70;18247.000000;1.000000;1.000000;1.000000;1.000000;-0.033298;0.033298;-0.033298;1.000000
445644.88230331;5696594.65509995;471.15494968;21;26;27;6168.000000;1.000000;1.000000;1.000000;1.000000;-0.036676;0.036676;-0.036676;1.000000
445644.77150162;5696594.93349846;471.18354990;26;27;27;6682.000000;1.000000;1.000000;1.000000;1.000000;-0.103498;0.103498;-0.103498;1.000000
445644.88940247;5696595.02819832;471.15045025;99;101;67;24672.000000;1.000000;1.000000;1.000000;1.000000;-0.198198;0.198198;-0.198198;1.000000
445644.74220093;5696594.94779976;471.18934967;94;95;87;23901.000000;1.000000;1.000000;1.000000;1.000000;-0.117802;0.117802;-0.117802;1.000000
445644.88850220;5696595.01899918;471.15024998;111;113;81;27756.000000;1.000000;1.000000;1.000000;1.000000;-0.188999;0.188999;-0.188999;1.000000
445644.70620163;5696594.93719872;471.18765022;139;138;128;35209.000000;1.000000;1.000000;1.000000;1.000000;-0.107199;0.107199;-0.107199;1.000000
445644.74370010;5696594.93839844;471.18704988;45;45;41;11308.000000;1.000000;1.000000;1.000000;1.000000;-0.108422;0.108422;-0.108422;1.000000
445644.70860107;5696594.86219986;471.18685009;53;55;47;13621.000000;1.000000;1.000000;1.000000;1.000000;-0.032200;0.032200;-0.032200;1.000000
445644.59950073;5696594.82090004;471.18604996;45;46;39;11308.000000;1.000000;1.000000;1.000000;1.000000;0.009100;-0.009100;0.009100;1.000000
445644.74730118;5696594.82589920;471.18584969;92;102;85;24929.000000;1.000000;1.000000;1.000000;1.000000;0.006144;-0.006144;0.006144;1.000000
445644.71330078;5696594.78929909;471.19084980;19;24;13;5397.000000;1.000000;1.000000;1.000000;1.000000;0.040818;-0.040818;0.040818;1.000000
445644.74870117;5696594.79079826;471.18545010;30;42;26;9252.000000;1.000000;1.000000;1.000000;1.000000;0.039330;-0.039330;0.039330;1.000000
445644.86720093;5696594.88789948;471.14304974;37;37;32;9252.000000;1.000000;1.000000;1.000000;1.000000;0.057899;-0.057899;0.057899;1.000000
445644.91050156;5696594.77639969;471.14374973;16;24;9;4883.000000;1.000000;1.000000;1.000000;1.000000;0.053600;-0.053600;0.053600;1.000000
445644.80120285;5696594.69949921;471.17974998;56;67;51;15677.000000;1.000000;1.000000;1.000000;1.000000;0.044424;-0.044424;0.044424;1.000000
445644.90979965;5696594.74149902;471.13864996;36;41;27;9509.000000;1.000000;1.000000;1.000000;1.000000;-0.064173;0.064173;-0.064173;1.000000
445644.85160263;5696594.56180008;471.17805006;154;162;165;40863.000000;1.000000;1.000000;1.000000;1.000000;-0.005976;0.005976;-0.005976;1.000000
445644.92370041;5696594.56279953;471.13474991;34;37;41;9252.000000;1.000000;1.000000;1.000000;1.000000;-0.078074;0.078074;-0.078074;1.000000
445644.89910324;5696594.83339890;471.15315010;70;84;71;20046.000000;1.000000;1.000000;1.000000;1.000000;-0.003689;0.003689;-0.003689;1.000000
445644.75210007;5696594.75299843;471.18755009;34;49;32;10794.000000;1.000000;1.000000;1.000000;1.000000;0.077002;-0.077002;0.077002;1.000000
445644.89809998;5696594.79619987;471.15035011;48;65;39;14649.000000;1.000000;1.000000;1.000000;1.000000;0.033803;-0.033803;0.033803;1.000000
445644.79210098;5696594.67929848;471.18374969;52;63;45;14649.000000;1.000000;1.000000;1.000000;1.000000;0.053526;-0.053526;0.053526;1.000000
445644.83340271;5696594.57039841;471.18435003;162;171;170;43176.000000;1.000000;1.000000;1.000000;1.000000;0.012224;-0.012224;0.012224;1.000000
445644.79560287;5696594.56909950;471.18965008;68;76;69;18504.000000;1.000000;1.000000;1.000000;1.000000;0.050024;-0.050024;0.050024;1.000000
445644.89070328;5696594.99079903;471.14765026;128;128;111;32382.000000;1.000000;1.000000;1.000000;1.000000;-0.160799;0.160799;-0.160799;1.000000
445644.85420044;5696594.95209892;471.15024998;77;72;67;18504.000000;1.000000;1.000000;1.000000;1.000000;-0.122099;0.122099;-0.122099;1.000000
445644.59690292;5696594.86789902;471.18654968;142;142;125;35980.000000;1.000000;1.000000;1.000000;1.000000;-0.037899;0.037899;-0.037899;1.000000
445644.82860001;5696594.90309914;471.14855005;58;58;54;14649.000000;1.000000;1.000000;1.000000;1.000000;-0.073099;0.073099;-0.073099;1.000000
445644.86750229;5696594.86909874;471.14984991;41;45;36;10794.000000;1.000000;1.000000;1.000000;1.000000;0.039099;-0.039099;0.039099;1.000000
445644.90540131;5696594.57359894;471.14804985;25;30;34;7196.000000;1.000000;1.000000;1.000000;1.000000;-0.059774;0.059774;-0.059774;1.000000
445644.89610107;5696594.64689835;471.14384987;28;33;33;7967.000000;1.000000;1.000000;1.000000;1.000000;-0.050474;0.050474;-0.050474;1.000000
445644.85960205;5696594.57039841;471.17384960;125;132;136;33410.000000;1.000000;1.000000;1.000000;1.000000;-0.013975;0.013975;-0.013975;1.000000
445644.82540329;5696594.53149994;471.17654993;48;56;49;13364.000000;1.000000;1.000000;1.000000;1.000000;0.020224;-0.020224;0.020224;1.000000
445644.59850128;5696594.85839851;471.18415024;166;166;151;42148.000000;1.000000;1.000000;1.000000;1.000000;-0.028399;0.028399;-0.028399;1.000000
445644.80570038;5696594.57749947;471.19014980;133;143;139;35723.000000;1.000000;1.000000;1.000000;1.000000;0.039927;-0.039927;0.039927;1.000000
445644.92260178;5696594.72189911;471.12494995;69;73;61;17990.000000;1.000000;1.000000;1.000000;1.000000;-0.076975;0.076975;-0.076975;1.000000
445644.92510040;5696594.62129982;471.12155010;50;54;58;13621.000000;1.000000;1.000000;1.000000;1.000000;-0.079473;0.079473;-0.079473;1.000000
445644.89999969;5696594.71199997;471.14014961;46;51;43;12336.000000;1.000000;1.000000;1.000000;1.000000;-0.054373;0.054373;-0.054373;1.000000
445644.90089996;5696594.97349937;471.14325001;61;60;51;15163.000000;1.000000;1.000000;1.000000;1.000000;-0.143536;0.143536;-0.143536;1.000000
445644.83889969;5696594.67289932;471.16954996;51;63;55;14906.000000;1.000000;1.000000;1.000000;1.000000;0.006727;-0.006727;0.006727;1.000000
445644.91470154;5696594.63849838;471.12824966;35;39;39;9509.000000;1.000000;1.000000;1.000000;1.000000;-0.069075;0.069075;-0.069075;1.000000
445644.87680252;5696594.59939964;471.16334965;26;32;35;7710.000000;1.000000;1.000000;1.000000;1.000000;-0.031176;0.031176;-0.031176;1.000000
445644.91570099;5696594.60089882;471.13254978;38;42;44;10537.000000;1.000000;1.000000;1.000000;1.000000;-0.070074;0.070074;-0.070074;1.000000
445644.88930328;5696594.58189972;471.15905001;28;34;38;8224.000000;1.000000;1.000000;1.000000;1.000000;-0.043676;0.043676;-0.043676;1.000000
445644.86460312;5696594.93489845;471.14354994;72;68;63;17476.000000;1.000000;1.000000;1.000000;1.000000;-0.104898;0.104898;-0.104898;1.000000
445644.85750015;5696594.88639839;471.14724972;65;65;57;16448.000000;1.000000;1.000000;1.000000;1.000000;-0.056398;0.056398;-0.056398;1.000000
445644.89640244;5696594.85239990;471.14864971;37;47;39;11051.000000;1.000000;1.000000;1.000000;1.000000;-0.022400;0.022400;-0.022400;1.000000
445644.89740189;5696594.81489952;471.15284969;54;72;53;16448.000000;1.000000;1.000000;1.000000;1.000000;0.015100;-0.015100;0.015100;1.000000
445644.78800018;5696594.73569878;471.18424990;49;60;40;13878.000000;1.000000;1.000000;1.000000;1.000000;0.057627;-0.057627;0.057627;1.000000
445644.79160126;5696594.69800003;471.18394997;65;75;52;17733.000000;1.000000;1.000000;1.000000;1.000000;0.054026;-0.054026;0.054026;1.000000
445644.90450104;5696594.86109932;471.14214994;18;24;23;5654.000000;1.000000;1.000000;1.000000;1.000000;-0.031310;0.031310;-0.031310;1.000000
445644.87150009;5696594.74009903;471.15784981;54;65;48;15163.000000;1.000000;1.000000;1.000000;1.000000;-0.025873;0.025873;-0.025873;1.000000
445644.87490280;5696594.70239838;471.15984966;62;70;59;16962.000000;1.000000;1.000000;1.000000;1.000000;-0.029276;0.029276;-0.029276;1.000000
445644.87720306;5696594.62739952;471.15905001;30;37;38;8995.000000;1.000000;1.000000;1.000000;1.000000;-0.031576;0.031576;-0.031576;1.000000
445644.88179977;5696594.55219849;471.16074993;118;125;128;31611.000000;1.000000;1.000000;1.000000;1.000000;-0.036173;0.036173;-0.036173;1.000000
445644.96669968;5696594.94879921;471.13664963;60;62;60;15677.000000;1.000000;1.000000;1.000000;1.000000;0.118799;-0.118799;0.118799;1.000000
445644.73850067;5696594.80799873;471.18755009;90;98;85;24158.000000;1.000000;1.000000;1.000000;1.000000;0.022001;-0.022001;0.022001;1.000000
445644.89949997;5696594.98299988;471.14335014;68;68;56;16962.000000;1.000000;1.000000;1.000000;1.000000;-0.153011;0.153011;-0.153011;1.000000
445644.85730179;5696594.90519913;471.14055016;61;59;55;15163.000000;1.000000;1.000000;1.000000;1.000000;-0.075199;0.075199;-0.075199;1.000000
445644.86520203;5696594.94179924;471.14364960;88;84;80;21588.000000;1.000000;1.000000;1.000000;1.000000;-0.111799;0.111799;-0.111799;1.000000
445644.77869995;5696594.95859917;471.17954971;159;153;140;39321.000000;1.000000;1.000000;1.000000;1.000000;-0.128675;0.128675;-0.128675;1.000000
445644.70710190;5696594.91849907;471.18044998;115;115;110;29298.000000;1.000000;1.000000;1.000000;1.000000;-0.088499;0.088499;-0.088499;1.000000
445644.92820175;5696594.96399887;471.13975002;113;115;110;29041.000000;1.000000;1.000000;1.000000;1.000000;-0.133999;0.133999;-0.133999;1.000000
445644.85659988;5696594.92389877;471.14304974;47;44;40;11308.000000;1.000000;1.000000;1.000000;1.000000;-0.093899;0.093899;-0.093899;1.000000
445644.70829971;5696594.88099869;471.18004992;65;65;59;16448.000000;1.000000;1.000000;1.000000;1.000000;-0.050999;0.050999;-0.050999;1.000000
445644.74710281;5696594.84699829;471.18144991;40;48;35;11308.000000;1.000000;1.000000;1.000000;1.000000;-0.017656;0.017656;-0.017656;1.000000
445644.89320190;5696594.88789948;471.13724997;40;41;40;10280.000000;1.000000;1.000000;1.000000;1.000000;-0.057899;0.057899;-0.057899;1.000000
445644.93210037;5696594.85399826;471.13625004;106;112;109;28013.000000;1.000000;1.000000;1.000000;1.000000;0.023998;-0.023998;0.023998;1.000000
445644.78600128;5696594.81079872;471.17805006;78;94;73;22102.000000;1.000000;1.000000;1.000000;1.000000;0.019201;-0.019201;0.019201;1.000000
445644.82590302;5696594.73699959;471.17664959;25;37;19;7967.000000;1.000000;1.000000;1.000000;1.000000;0.019724;-0.019724;0.019724;1.000000
445644.90290268;5696594.66739853;471.13975002;24;26;25;6425.000000;1.000000;1.000000;1.000000;1.000000;-0.057276;0.057276;-0.057276;1.000000
445644.82950027;5696594.62459953;471.17555000;58;71;69;16962.000000;1.000000;1.000000;1.000000;1.000000;0.016127;-0.016127;0.016127;1.000000
445644.90750320;5696594.59219940;471.14135029;31;35;38;8738.000000;1.000000;1.000000;1.000000;1.000000;-0.061876;0.061876;-0.061876;1.000000
445644.87080200;5696594.78449829;471.16064980;75;94;67;21845.000000;1.000000;1.000000;1.000000;1.000000;-0.025175;0.025175;-0.025175;1.000000
445644.87460144;5696594.67439850;471.15955021;48;54;47;13107.000000;1.000000;1.000000;1.000000;1.000000;-0.028975;0.028975;-0.028975;1.000000
445644.91710098;5696594.63830002;471.12605001;49;52;49;12850.000000;1.000000;1.000000;1.000000;1.000000;-0.071474;0.071474;-0.071474;1.000000
445644.87920197;5696594.59919937;471.16115000;26;32;35;7710.000000;1.000000;1.000000;1.000000;1.000000;-0.033575;0.033575;-0.033575;1.000000
445644.82570084;5696594.98009880;471.16564991;95;91;82;23387.000000;1.000000;1.000000;1.000000;1.000000;-0.150099;0.150099;-0.150099;1.000000
445644.78709991;5696594.99749954;471.17805006;127;121;110;31097.000000;1.000000;1.000000;1.000000;1.000000;-0.167500;0.167500;-0.167500;1.000000
445644.78830154;5696594.96009834;471.17764999;147;140;128;35980.000000;1.000000;1.000000;1.000000;1.000000;-0.130098;0.130098;-0.130098;1.000000
445644.71650131;5696594.91769989;471.17855026;92;91;85;23130.000000;1.000000;1.000000;1.000000;1.000000;-0.087797;0.087797;-0.087797;1.000000
445644.86380203;5696594.92559822;471.14104988;46;43;39;11051.000000;1.000000;1.000000;1.000000;1.000000;-0.095598;0.095598;-0.095598;1.000000
445644.71790131;5696594.88249977;471.17814972;30;30;27;7453.000000;1.000000;1.000000;1.000000;1.000000;-0.052570;0.052570;-0.052570;1.000000
445644.90150269;5696594.92679985;471.13814976;39;40;39;10023.000000;1.000000;1.000000;1.000000;1.000000;-0.096877;0.096877;-0.096877;1.000000
445644.75650223;5696594.84619911;471.17954971;49;58;43;13621.000000;1.000000;1.000000;1.000000;1.000000;-0.016199;0.016199;-0.016199;1.000000
445644.90270050;5696594.88939865;471.13775017;60;62;60;15677.000000;1.000000;1.000000;1.000000;1.000000;-0.059613;0.059613;-0.059613;1.000000
445644.79640015;5696594.77239998;471.17814972;20;38;18;7710.000000;1.000000;1.000000;1.000000;1.000000;0.049227;-0.049227;0.049227;1.000000
445644.80240067;5696594.66209991;471.17934992;74;88;74;21074.000000;1.000000;1.000000;1.000000;1.000000;0.043226;-0.043226;0.043226;1.000000
445644.84250076;5696594.59059914;471.18034985;81;91;93;22616.000000;1.000000;1.000000;1.000000;1.000000;0.003126;-0.003126;0.003126;1.000000
445644.80590256;5696594.54959877;471.18055012;36;43;36;10280.000000;1.000000;1.000000;1.000000;1.000000;0.039724;-0.039724;0.039724;1.000000
445644.91460236;5696594.59159859;471.13705017;29;34;38;8224.000000;1.000000;1.000000;1.000000;1.000000;-0.068975;0.068975;-0.068975;1.000000
445644.84350021;5696594.55079849;471.17754986;115;124;125;31097.000000;1.000000;1.000000;1.000000;1.000000;0.002127;-0.002127;0.002127;1.000000
445644.78940018;5696594.77309998;471.18015005;27;42;24;8995.000000;1.000000;1.000000;1.000000;1.000000;0.056227;-0.056227;0.056227;1.000000
445644.88030060;5696594.56169899;471.16305019;88;93;96;23387.000000;1.000000;1.000000;1.000000;1.000000;-0.034674;0.034674;-0.034674;1.000000
445644.82420166;5696594.76529892;471.16995003;12;27;11;5140.000000;1.000000;1.000000;1.000000;1.000000;0.021425;-0.021425;0.021425;1.000000
445644.93610199;5696594.76949890;471.13314964;63;70;56;16962.000000;1.000000;1.000000;1.000000;1.000000;-0.060501;0.060501;-0.060501;1.000000
445644.79390152;5696594.86619957;471.16974976;41;48;37;11308.000000;1.000000;1.000000;1.000000;1.000000;-0.036200;0.036200;-0.036200;1.000000
445644.93980225;5696594.90939911;471.13264992;119;120;119;30583.000000;1.000000;1.000000;1.000000;1.000000;-0.079399;0.079399;-0.079399;1.000000
445644.83000000;5696594.65259941;471.17124989;40;51;46;12079.000000;1.000000;1.000000;1.000000;1.000000;0.015627;-0.015627;0.015627;1.000000
445644.83260162;5696594.83000000;471.16874983;18;34;16;6939.000000;1.000000;1.000000;1.000000;1.000000;0.000000;0.000000;0.000000;1.000000
445644.94100006;5696594.87189873;471.13224985;57;59;59;14906.000000;1.000000;1.000000;1.000000;1.000000;-0.041899;0.041899;-0.041899;1.000000
445644.86240204;5696594.99099930;471.15345003;145;143;128;36237.000000;1.000000;1.000000;1.000000;1.000000;-0.160999;0.160999;-0.160999;1.000000
445644.83500107;5696594.75499924;471.16795017;16;31;14;6168.000000;1.000000;1.000000;1.000000;1.000000;0.010626;-0.010626;0.010626;1.000000
445644.82780273;5696594.94969948;471.16064980;92;87;81;22359.000000;1.000000;1.000000;1.000000;1.000000;-0.119699;0.119699;-0.119699;1.000000
445644.94490250;5696594.76179894;471.12874987;56;63;48;15163.000000;1.000000;1.000000;1.000000;1.000000;0.068201;-0.068201;0.068201;1.000000
445644.77720078;5696594.99599846;471.18685009;108;104;91;26471.000000;1.000000;1.000000;1.000000;1.000000;-0.166059;0.166059;-0.166059;1.000000
445644.67120178;5696594.91469963;471.19045021;54;53;43;13364.000000;1.000000;1.000000;1.000000;1.000000;-0.084700;0.084700;-0.084700;1.000000
445644.63290222;5696594.87850006;471.18825008;29;23;14;5911.000000;1.000000;1.000000;1.000000;1.000000;-0.048500;0.048500;-0.048500;1.000000
445644.71140106;5696594.84319885;471.18905022;36;37;30;8995.000000;1.000000;1.000000;1.000000;1.000000;-0.013252;0.013252;-0.013252;1.000000
445644.96050079;5696594.85379990;471.12824966;97;100;98;25186.000000;1.000000;1.000000;1.000000;1.000000;0.023800;-0.023800;0.023800;1.000000
445644.75040253;5696594.80929955;471.18575003;115;126;108;30840.000000;1.000000;1.000000;1.000000;1.000000;0.020753;-0.020753;0.020753;1.000000
445644.92150314;5696594.68459900;471.12445023;22;24;20;5654.000000;1.000000;1.000000;1.000000;1.000000;-0.075876;0.075876;-0.075876;1.000000
445644.71380051;5696594.76829918;471.18825008;50;57;46;13621.000000;1.000000;1.000000;1.000000;1.000000;0.061805;-0.061805;0.061805;1.000000
445644.74920090;5696594.77199944;471.18765022;42;55;38;12593.000000;1.000000;1.000000;1.000000;1.000000;0.058062;-0.058062;0.058062;1.000000
445644.79040344;5696594.66079910;471.18345024;67;81;65;19275.000000;1.000000;1.000000;1.000000;1.000000;0.055223;-0.055223;0.055223;1.000000
445644.83279999;5696594.58909996;471.18454983;103;113;114;28270.000000;1.000000;1.000000;1.000000;1.000000;0.012827;-0.012827;0.012827;1.000000
445644.79650314;5696594.55039986;471.18244984;46;53;42;12593.000000;1.000000;1.000000;1.000000;1.000000;0.049124;-0.049124;0.049124;1.000000
445644.83749969;5696594.68229874;471.16954996;59;71;61;16962.000000;1.000000;1.000000;1.000000;1.000000;0.008127;-0.008127;0.008127;1.000000
445644.83870132;5696594.64489944;471.16914989;90;101;97;24929.000000;1.000000;1.000000;1.000000;1.000000;0.006926;-0.006926;0.006926;1.000000
445644.90690048;5696594.56409843;471.14804985;28;32;34;7967.000000;1.000000;1.000000;1.000000;1.000000;-0.061274;0.061274;-0.061274;1.000000
445644.88970001;5696594.53519829;471.15854980;149;156;158;39578.000000;1.000000;1.000000;1.000000;1.000000;-0.044073;0.044073;-0.044073;1.000000
445644.91310318;5696594.64789970;471.13065006;28;30;31;7453.000000;1.000000;1.000000;1.000000;1.000000;-0.067476;0.067476;-0.067476;1.000000
445644.93900116;5696594.92799957;471.13744976;122;123;120;31354.000000;1.000000;1.000000;1.000000;1.000000;0.098000;-0.098000;0.098000;1.000000
445644.85180099;5696594.78379829;471.16674997;83;107;71;24415.000000;1.000000;1.000000;1.000000;1.000000;-0.006174;0.006174;-0.006174;1.000000
445644.93350037;5696594.56429871;471.12824966;48;51;54;12850.000000;1.000000;1.000000;1.000000;1.000000;-0.087873;0.087873;-0.087873;1.000000
445644.87870224;5696594.57109840;471.16544964;57;63;67;15677.000000;1.000000;1.000000;1.000000;1.000000;-0.033075;0.033075;-0.033075;1.000000
445644.92010315;5696594.57479866;471.13474991;39;42;42;10537.000000;1.000000;1.000000;1.000000;1.000000;-0.074476;0.074476;-0.074476;1.000000
445644.82160004;5696594.85909851;471.16165020;25;32;22;7196.000000;1.000000;1.000000;1.000000;1.000000;-0.029099;0.029099;-0.029099;1.000000
445644.90240295;5696594.63709839;471.13934996;34;38;39;9252.000000;1.000000;1.000000;1.000000;1.000000;-0.056776;0.056776;-0.056776;1.000000
445644.90600021;5696594.60169991;471.14144995;31;36;40;8738.000000;1.000000;1.000000;1.000000;1.000000;-0.060373;0.060373;-0.060373;1.000000
445644.91180237;5696594.56600006;471.14594986;28;32;34;7967.000000;1.000000;1.000000;1.000000;1.000000;-0.066175;0.066175;-0.066175;1.000000
445644.84780319;5696594.90599831;471.14475014;74;73;69;18504.000000;1.000000;1.000000;1.000000;1.000000;-0.075998;0.075998;-0.075998;1.000000
445644.86359985;5696594.75719841;471.15994980;90;106;83;25186.000000;1.000000;1.000000;1.000000;1.000000;-0.017973;0.017973;-0.017973;1.000000
445644.86470230;5696594.71959885;471.16194965;90;100;86;24415.000000;1.000000;1.000000;1.000000;1.000000;-0.019075;0.019075;-0.019075;1.000000
445644.86950119;5696594.64679916;471.16365005;55;63;61;15420.000000;1.000000;1.000000;1.000000;1.000000;-0.023874;0.023874;-0.023874;1.000000
445644.79409988;5696594.60419853;471.19234993;64;78;70;18504.000000;1.000000;1.000000;1.000000;1.000000;0.051527;-0.051527;0.051527;1.000000
445644.87310226;5696594.53429993;471.16244986;107;115;117;28784.000000;1.000000;1.000000;1.000000;1.000000;-0.027475;0.027475;-0.027475;1.000000
445644.91790207;5696594.55389984;471.14135029;24;27;29;6682.000000;1.000000;1.000000;1.000000;1.000000;-0.072275;0.072275;-0.072275;1.000000
445644.81600006;5696594.75429924;471.17415001;11;26;8;4883.000000;1.000000;1.000000;1.000000;1.000000;0.029627;-0.029627;0.029627;1.000000
445644.92660339;5696594.79599960;471.14004995;70;82;64;19532.000000;1.000000;1.000000;1.000000;1.000000;0.034000;-0.034000;0.034000;1.000000
445644.70540054;5696594.95579918;471.19245007;127;129;111;32382.000000;1.000000;1.000000;1.000000;1.000000;-0.125799;0.125799;-0.125799;1.000000
445644.83870132;5696594.88579948;471.14874985;100;101;95;25700.000000;1.000000;1.000000;1.000000;1.000000;-0.055912;0.055912;-0.055912;1.000000
445644.87740143;5696594.85179909;471.15245010;24;35;28;7710.000000;1.000000;1.000000;1.000000;1.000000;-0.021799;0.021799;-0.021799;1.000000
445644.79680069;5696594.95899971;471.19434978;94;93;90;23644.000000;1.000000;1.000000;1.000000;1.000000;-0.129000;0.129000;-0.129000;1.000000
445644.77140244;5696594.73489960;471.18814995;58;68;54;16191.000000;1.000000;1.000000;1.000000;1.000000;0.074224;-0.074224;0.074224;1.000000
445644.89809998;5696595.02039917;471.14835026;121;123;92;30326.000000;1.000000;1.000000;1.000000;1.000000;-0.190400;0.190400;-0.190400;1.000000
445644.71560104;5696594.93629845;471.18575003;111;109;100;27756.000000;1.000000;1.000000;1.000000;1.000000;-0.106417;0.106417;-0.106417;1.000000
445644.86370285;5696594.97919853;471.15105011;130;127;115;32382.000000;1.000000;1.000000;1.000000;1.000000;-0.149199;0.149199;-0.149199;1.000000
445644.71790131;5696594.86139877;471.18494989;42;44;36;10794.000000;1.000000;1.000000;1.000000;1.000000;-0.031517;0.031517;-0.031517;1.000000
445644.60880096;5696594.82009895;471.18645002;57;57;47;14135.000000;1.000000;1.000000;1.000000;1.000000;0.009901;-0.009901;0.009901;1.000000
445644.72140320;5696594.82589920;471.18934967;46;49;41;12079.000000;1.000000;1.000000;1.000000;1.000000;0.004101;-0.004101;0.004101;1.000000
445644.75690277;5696594.82739838;471.18394997;62;73;54;17219.000000;1.000000;1.000000;1.000000;1.000000;0.002602;-0.002602;0.002602;1.000000
445644.72260101;5696594.78839882;471.18895008;15;21;12;4626.000000;1.000000;1.000000;1.000000;1.000000;0.041601;-0.041601;0.041601;1.000000
445644.90620239;5696594.83279999;471.14884998;78;91;77;21845.000000;1.000000;1.000000;1.000000;1.000000;-0.003398;0.003398;-0.003398;1.000000
445644.76140030;5696594.75219925;471.18794968;39;54;37;12079.000000;1.000000;1.000000;1.000000;1.000000;0.077801;-0.077801;0.077801;1.000000
445644.90740021;5696594.79529961;471.14844992;58;72;46;16448.000000;1.000000;1.000000;1.000000;1.000000;0.034708;-0.034708;0.034708;1.000000
445644.72390182;5696594.75329979;471.19094994;37;47;34;10794.000000;1.000000;1.000000;1.000000;1.000000;0.076700;-0.076700;0.076700;1.000000
445644.94880112;5696594.72189911;471.11455013;70;74;63;18247.000000;1.000000;1.000000;1.000000;1.000000;-0.103174;0.103174;-0.103174;1.000000
445644.80400284;5696594.60809906;471.18814995;51;67;60;15677.000000;1.000000;1.000000;1.000000;1.000000;0.041624;-0.041624;0.041624;1.000000
445644.76880081;5696594.52959831;471.18324997;93;98;73;23901.000000;1.000000;1.000000;1.000000;1.000000;0.076826;-0.076826;0.076826;1.000000
445644.91840179;5696594.53739937;471.14825012;21;25;27;6168.000000;1.000000;1.000000;1.000000;1.000000;-0.072775;0.072775;-0.072775;1.000000
445644.85280045;5696595.01739891;471.16025021;113;114;88;28270.000000;1.000000;1.000000;1.000000;1.000000;-0.187399;0.187399;-0.187399;1.000000
445644.88910110;5696594.77589996;471.15205004;36;48;28;10794.000000;1.000000;1.000000;1.000000;1.000000;-0.043474;0.043474;-0.043474;1.000000
445644.89430054;5696594.62839897;471.14584972;31;36;40;8738.000000;1.000000;1.000000;1.000000;1.000000;-0.048674;0.048674;-0.048674;1.000000
445644.80290039;5696594.88419922;471.16104986;42;47;35;11308.000000;1.000000;1.000000;1.000000;1.000000;-0.054199;0.054199;-0.054199;1.000000
445644.83960159;5696594.85049828;471.16004993;36;47;34;10794.000000;1.000000;1.000000;1.000000;1.000000;-0.020970;0.020970;-0.020970;1.000000
445644.93380173;5696594.79769905;471.13804962;93;104;83;25186.000000;1.000000;1.000000;1.000000;1.000000;-0.032301;0.032301;-0.032301;1.000000
445644.87070282;5696594.60929878;471.16324999;29;36;39;8738.000000;1.000000;1.000000;1.000000;1.000000;-0.025076;0.025076;-0.025076;1.000000
445644.92710312;5696595.00149925;471.14014961;72;74;57;18247.000000;1.000000;1.000000;1.000000;1.000000;-0.171499;0.171499;-0.171499;1.000000
445644.89190109;5696594.92539986;471.13995029;35;36;33;8995.000000;1.000000;1.000000;1.000000;1.000000;-0.095400;0.095400;-0.095400;1.000000
445644.92980011;5696594.92889984;471.13705017;109;109;107;27756.000000;1.000000;1.000000;1.000000;1.000000;0.098900;-0.098900;0.098900;1.000000
445644.89760025;5696594.59059914;471.15024998;26;31;36;7710.000000;1.000000;1.000000;1.000000;1.000000;-0.051973;0.051973;-0.051973;1.000000
445644.82650192;5696594.71829994;471.17645027;68;82;60;19275.000000;1.000000;1.000000;1.000000;1.000000;0.019125;-0.019125;0.019125;1.000000
445644.85500153;5696594.96129997;471.15035011;81;77;69;19789.000000;1.000000;1.000000;1.000000;1.000000;-0.131300;0.131300;-0.131300;1.000000
445644.59539993;5696594.87739952;471.18654968;127;125;108;31611.000000;1.000000;1.000000;1.000000;1.000000;-0.047400;0.047400;-0.047400;1.000000
445644.90100296;5696594.55289848;471.15224983;28;33;36;7967.000000;1.000000;1.000000;1.000000;1.000000;-0.055376;0.055376;-0.055376;1.000000
445644.90190323;5696594.75849922;471.14314987;15;22;9;4626.000000;1.000000;1.000000;1.000000;1.000000;-0.056276;0.056276;-0.056276;1.000000
445644.70990189;5696594.85269936;471.18914988;51;52;44;12850.000000;1.000000;1.000000;1.000000;1.000000;-0.022699;0.022699;-0.022699;1.000000
445644.79740341;5696594.53179939;471.17524960;88;92;72;22616.000000;1.000000;1.000000;1.000000;1.000000;0.048223;-0.048223;0.048223;1.000000
445644.84240158;5696594.78469856;471.16865017;72;96;62;21845.000000;1.000000;1.000000;1.000000;1.000000;0.003225;-0.003225;0.003225;1.000000
445644.85550125;5696594.52419861;471.16855003;65;74;72;18247.000000;1.000000;1.000000;1.000000;1.000000;-0.009874;0.009874;-0.009874;1.000000
445644.83419998;5696594.55169876;471.17954971;84;92;92;22873.000000;1.000000;1.000000;1.000000;1.000000;0.011427;-0.011427;0.011427;1.000000
445644.69009979;5696594.88959892;471.18634989;60;59;55;14906.000000;1.000000;1.000000;1.000000;1.000000;-0.059599;0.059599;-0.059599;1.000000
445644.77340134;5696594.70659836;471.19024994;40;46;31;10794.000000;1.000000;1.000000;1.000000;1.000000;0.072226;-0.072226;0.072226;1.000000
445644.92630203;5696594.56489952;471.13254978;40;43;45;10794.000000;1.000000;1.000000;1.000000;1.000000;-0.080675;0.080675;-0.080675;1.000000
445644.89880188;5696594.77739914;471.14785006;21;32;13;6682.000000;1.000000;1.000000;1.000000;1.000000;0.052613;-0.052613;0.052613;1.000000
445644.89770325;5696594.74019821;471.14504959;20;27;13;5911.000000;1.000000;1.000000;1.000000;1.000000;-0.052076;0.052076;-0.052076;1.000000
445644.79630096;5696594.62509926;471.18794968;68;85;75;20046.000000;1.000000;1.000000;1.000000;1.000000;0.049326;-0.049326;0.049326;1.000000
445644.76090057;5696594.54669960;471.18774988;64;70;47;16705.000000;1.000000;1.000000;1.000000;1.000000;0.084726;-0.084726;0.084726;1.000000
445644.90830048;5696594.55459984;471.14794971;25;29;30;6939.000000;1.000000;1.000000;1.000000;1.000000;-0.062674;0.062674;-0.062674;1.000000
445644.81970032;5696594.64419945;471.17295029;38;51;46;11822.000000;1.000000;1.000000;1.000000;1.000000;0.025927;-0.025927;0.025927;1.000000
445644.78790100;5696594.53029831;471.17715027;97;101;81;24929.000000;1.000000;1.000000;1.000000;1.000000;0.057726;-0.057726;0.057726;1.000000
445644.72400101;5696594.95409973;471.19094994;146;147;132;37265.000000;1.000000;1.000000;1.000000;1.000000;-0.124100;0.124100;-0.124100;1.000000
445644.68810089;5696594.91779907;471.18654968;83;82;75;20817.000000;1.000000;1.000000;1.000000;1.000000;-0.087808;0.087808;-0.087808;1.000000
445644.83749969;5696594.92329987;471.14914991;47;46;44;11822.000000;1.000000;1.000000;1.000000;1.000000;-0.093329;0.093329;-0.093329;1.000000
445644.61770065;5696594.84029968;471.18715002;130;130;117;32896.000000;1.000000;1.000000;1.000000;1.000000;-0.010374;0.010374;-0.010374;1.000000
445644.72800262;5696594.84409912;471.18514969;36;40;31;9509.000000;1.000000;1.000000;1.000000;1.000000;-0.014099;0.014099;-0.014099;1.000000
445644.87960251;5696594.77669914;471.15625002;75;91;63;21331.000000;1.000000;1.000000;1.000000;1.000000;-0.033976;0.033976;-0.033976;1.000000
445644.76710327;5696594.81009872;471.18184998;94;110;85;26214.000000;1.000000;1.000000;1.000000;1.000000;0.019901;-0.019901;0.019901;1.000000
445644.73280151;5696594.77119835;471.18685009;54;63;52;15163.000000;1.000000;1.000000;1.000000;1.000000;0.058802;-0.058802;0.058802;1.000000
445644.77140244;5696594.92899902;471.17654993;40;40;39;10023.000000;1.000000;1.000000;1.000000;1.000000;-0.098999;0.098999;-0.098999;1.000000
445644.76799973;5696594.77259834;471.18615009;29;46;25;9766.000000;1.000000;1.000000;1.000000;1.000000;0.057402;-0.057402;0.057402;1.000000
445644.91410263;5696594.81579979;471.14664986;74;87;65;20560.000000;1.000000;1.000000;1.000000;1.000000;0.014200;-0.014200;0.014200;1.000000
445644.95500000;5696595.02239998;471.13464977;79;81;66;20046.000000;1.000000;1.000000;1.000000;1.000000;-0.192400;0.192400;-0.192400;1.000000
445644.95730026;5696594.94739922;471.13384964;48;50;48;12593.000000;1.000000;1.000000;1.000000;1.000000;-0.117399;0.117399;-0.117399;1.000000
445644.92820175;5696594.76089867;471.13504984;58;64;48;15420.000000;1.000000;1.000000;1.000000;1.000000;0.069101;-0.069101;0.069101;1.000000
445644.83670242;5696594.86719902;471.15544989;86;92;79;22616.000000;1.000000;1.000000;1.000000;1.000000;-0.037231;0.037231;-0.037231;1.000000
445644.87770279;5696594.83289917;471.15924980;70;89;69;20817.000000;1.000000;1.000000;1.000000;1.000000;-0.002899;0.002899;-0.002899;1.000000
445644.85519989;5696594.72049912;471.16614964;117;129;111;31611.000000;1.000000;1.000000;1.000000;1.000000;-0.009573;0.009573;-0.009573;1.000000
445644.92340286;5696594.62839897;471.12155010;48;52;56;13107.000000;1.000000;1.000000;1.000000;1.000000;-0.077776;0.077776;-0.077776;1.000000
445644.88800247;5696594.59139832;471.15675022;24;30;34;7196.000000;1.000000;1.000000;1.000000;1.000000;-0.042376;0.042376;-0.042376;1.000000
445644.88330276;5696594.73909958;471.15135004;27;35;21;7967.000000;1.000000;1.000000;1.000000;1.000000;-0.037676;0.037676;-0.037676;1.000000
445644.85130127;5696595.02689941;471.16264965;86;87;58;21331.000000;1.000000;1.000000;1.000000;1.000000;-0.196899;0.196899;-0.196899;1.000000
445644.75800140;5696594.99529846;471.19535019;93;92;75;23130.000000;1.000000;1.000000;1.000000;1.000000;-0.165298;0.165298;-0.165298;1.000000
445644.88050278;5696594.81399925;471.16144993;86;108;78;25186.000000;1.000000;1.000000;1.000000;1.000000;0.016001;-0.016001;0.016001;1.000000
445644.71040161;5696594.83389862;471.19124987;40;42;31;10280.000000;1.000000;1.000000;1.000000;1.000000;-0.003903;0.003903;-0.003903;1.000000
445644.85980042;5696594.84159859;471.16085007;33;50;32;10794.000000;1.000000;1.000000;1.000000;1.000000;-0.011599;0.011599;-0.011599;1.000000
445644.86200150;5696594.76659973;471.16235020;81;97;78;23130.000000;1.000000;1.000000;1.000000;1.000000;-0.016375;0.016375;-0.016375;1.000000
445644.86550339;5696594.72889908;471.16204979;76;87;73;21074.000000;1.000000;1.000000;1.000000;1.000000;-0.019876;0.019876;-0.019876;1.000000
445644.87860306;5696594.73949821;471.15345003;36;46;29;10537.000000;1.000000;1.000000;1.000000;1.000000;-0.032976;0.032976;-0.032976;1.000000
445644.88200195;5696594.70179947;471.15555002;43;50;41;11822.000000;1.000000;1.000000;1.000000;1.000000;-0.036375;0.036375;-0.036375;1.000000
445644.88319977;5696594.66429909;471.15514996;24;29;28;6939.000000;1.000000;1.000000;1.000000;1.000000;-0.037573;0.037573;-0.037573;1.000000
445644.92230042;5696594.66819962;471.12435009;29;30;28;7453.000000;1.000000;1.000000;1.000000;1.000000;-0.076674;0.076674;-0.076674;1.000000
445644.88210114;5696594.62710007;471.15465023;33;38;39;9252.000000;1.000000;1.000000;1.000000;1.000000;-0.036474;0.036474;-0.036474;1.000000
445644.86919983;5696594.61879929;471.16324999;37;44;46;10794.000000;1.000000;1.000000;1.000000;1.000000;-0.023573;0.023573;-0.023573;1.000000
445644.77250107;5696594.69739922;471.19014980;41;48;32;11308.000000;1.000000;1.000000;1.000000;1.000000;0.073126;-0.073126;0.073126;1.000000
445644.88450058;5696594.70159920;471.15094997;42;48;37;11308.000000;1.000000;1.000000;1.000000;1.000000;-0.038874;0.038874;-0.038874;1.000000
445644.92930038;5696594.59279831;471.12375023;42;45;46;11308.000000;1.000000;1.000000;1.000000;1.000000;-0.083673;0.083673;-0.083673;1.000000
445644.77600296;5696594.65969856;471.18984987;47;62;44;14135.000000;1.000000;1.000000;1.000000;1.000000;0.069624;-0.069624;0.069624;1.000000
445644.88590057;5696594.66649826;471.15065004;32;36;33;8738.000000;1.000000;1.000000;1.000000;1.000000;-0.040274;0.040274;-0.040274;1.000000
445644.88690002;5696594.62669952;471.15014984;38;44;44;10794.000000;1.000000;1.000000;1.000000;1.000000;-0.041273;0.041273;-0.041273;1.000000
445644.92790039;5696594.51769836;471.15535023;31;36;38;8738.000000;1.000000;1.000000;1.000000;1.000000;-0.082273;0.082273;-0.082273;1.000000
445644.81360062;5696594.58609970;471.18835022;139;151;149;37779.000000;1.000000;1.000000;1.000000;1.000000;0.032026;-0.032026;0.032026;1.000000
445644.77760132;5696594.54979904;471.18625023;59;65;50;15677.000000;1.000000;1.000000;1.000000;1.000000;0.068026;-0.068026;0.068026;1.000000
445645.54100235;5696594.82370003;471.10284998;162;164;152;41634.000000;1.000000;1.000000;1.000000;1.000000;-0.164246;0.164246;-0.164246;1.000000
445645.05970200;5696594.72819908;471.10564997;56;56;57;14392.000000;1.000000;1.000000;1.000000;1.000000;0.101801;-0.101801;0.101801;1.000000
445644.96500214;5696594.79969986;471.12544968;80;89;83;21845.000000;1.000000;1.000000;1.000000;1.000000;-0.030300;0.030300;-0.030300;1.000000
445644.95610245;5696594.53639992;471.13824989;30;33;35;8224.000000;1.000000;1.000000;1.000000;1.000000;-0.110476;0.110476;-0.110476;1.000000
445645.01840027;5696594.79029854;471.11385014;113;119;118;30069.000000;1.000000;1.000000;1.000000;1.000000;0.039701;-0.039701;0.039701;1.000000
445645.09290131;5696594.83259972;471.10374977;78;77;65;19275.000000;1.000000;1.000000;1.000000;1.000000;-0.002600;0.002600;-0.002600;1.000000
445645.08350189;5696594.98969849;471.11914970;99;99;94;25186.000000;1.000000;1.000000;1.000000;1.000000;-0.159698;0.159698;-0.159698;1.000000
445645.40419968;5696594.94590004;471.12375023;115;100;66;25700.000000;1.000000;1.000000;1.000000;1.000000;0.119077;-0.119077;0.119077;1.000000
445644.98690231;5696594.88410004;471.12515022;35;38;39;9509.000000;1.000000;1.000000;1.000000;1.000000;-0.054100;0.054100;-0.054100;1.000000
445645.39680298;5696594.93960007;471.11875011;132;116;88;30069.000000;1.000000;1.000000;1.000000;1.000000;0.111397;-0.111397;0.111397;1.000000
445645.02570160;5696594.84779938;471.12185003;113;118;116;29812.000000;1.000000;1.000000;1.000000;1.000000;0.017799;-0.017799;0.017799;1.000000
445644.99360092;5696594.53749855;471.13995029;32;37;35;8995.000000;1.000000;1.000000;1.000000;1.000000;-0.147974;0.147974;-0.147974;1.000000
445644.99830063;5696594.85499962;471.12295010;49;54;55;13364.000000;1.000000;1.000000;1.000000;1.000000;0.025000;-0.025000;0.025000;1.000000
445645.02100189;5696594.99779900;471.12334969;96;98;96;24929.000000;1.000000;1.000000;1.000000;1.000000;-0.167799;0.167799;-0.167799;1.000000
445645.13130005;5696595.00159843;471.12144997;172;170;165;43690.000000;1.000000;1.000000;1.000000;1.000000;-0.171598;0.171598;-0.171598;1.000000
445645.08500107;5696594.98019989;471.11905005;102;101;97;25700.000000;1.000000;1.000000;1.000000;1.000000;-0.150200;0.150200;-0.150200;1.000000
445645.08620270;5696594.94269951;471.11864998;162;163;157;41634.000000;1.000000;1.000000;1.000000;1.000000;-0.112700;0.112700;-0.112700;1.000000
445645.48230179;5696594.83879860;471.08645012;92;90;79;22873.000000;1.000000;1.000000;1.000000;1.000000;0.105791;-0.105791;0.105791;1.000000
445645.01440247;5696594.90259941;471.12424995;68;77;78;19018.000000;1.000000;1.000000;1.000000;1.000000;-0.072599;0.072599;-0.072599;1.000000
445645.41080292;5696594.79869850;471.08734991;224;222;219;57054.000000;1.000000;1.000000;1.000000;1.000000;-0.046160;0.046160;-0.046160;1.000000
445645.38770111;5696594.88239868;471.09894993;133;132;122;33667.000000;1.000000;1.000000;1.000000;1.000000;0.053505;-0.053505;0.053505;1.000000
445645.20570190;5696594.99479874;471.11544992;98;96;87;24415.000000;1.000000;1.000000;1.000000;1.000000;-0.164799;0.164799;-0.164799;1.000000
445645.42510040;5696594.88349922;471.10064985;162;158;147;40349.000000;1.000000;1.000000;1.000000;1.000000;0.072026;-0.072026;0.072026;1.000000
445645.00920303;5696594.59479912;471.12034990;54;55;54;13878.000000;1.000000;1.000000;1.000000;1.000000;-0.163576;0.163576;-0.163576;1.000000
445645.39610107;5696594.92809875;471.11154987;167;154;131;39835.000000;1.000000;1.000000;1.000000;1.000000;0.099965;-0.099965;0.099965;1.000000
445645.00130280;5696595.01579865;471.12974979;135;137;134;34952.000000;1.000000;1.000000;1.000000;1.000000;0.185799;0.185799;-0.185799;1.000000
445645.33990295;5696594.69299896;471.09224989;105;105;102;26728.000000;1.000000;1.000000;1.000000;1.000000;-0.137001;0.137001;-0.137001;1.000000
445645.29960068;5696595.02799995;471.12465002;88;77;50;19789.000000;1.000000;1.000000;1.000000;1.000000;-0.198000;0.198000;-0.198000;1.000000
445645.37750061;5696594.69649895;471.09394981;78;80;78;20303.000000;1.000000;1.000000;1.000000;1.000000;-0.133503;0.133503;-0.133503;1.000000
445645.30290039;5696594.89739998;471.09065010;173;174;166;44204.000000;1.000000;1.000000;1.000000;1.000000;-0.067400;0.067400;-0.067400;1.000000
445645.26700027;5696594.91469963;471.09394981;163;162;154;41377.000000;1.000000;1.000000;1.000000;1.000000;0.084700;-0.084700;0.084700;1.000000
445645.23050125;5696594.87599953;471.09644987;173;172;164;43947.000000;1.000000;1.000000;1.000000;1.000000;0.046000;-0.046000;0.046000;1.000000
445645.26820190;5696594.87719925;471.09355022;192;190;184;48573.000000;1.000000;1.000000;1.000000;1.000000;0.047199;-0.047199;0.047199;1.000000
445645.30350311;5696594.87859924;471.09044983;89;89;82;22616.000000;1.000000;1.000000;1.000000;1.000000;-0.048599;0.048599;-0.048599;1.000000
445645.12140091;5696594.83469971;471.09804966;81;82;70;20560.000000;1.000000;1.000000;1.000000;1.000000;0.004700;-0.004700;0.004700;1.000000
445645.15660294;5696594.83379944;471.09264996;74;72;61;18247.000000;1.000000;1.000000;1.000000;1.000000;-0.003799;0.003799;-0.003799;1.000000
445645.19440277;5696594.83729942;471.09205009;136;135;122;34181.000000;1.000000;1.000000;1.000000;1.000000;-0.007299;0.007299;-0.007299;1.000000
445645.23180206;5696594.83849915;471.09375002;147;144;135;36751.000000;1.000000;1.000000;1.000000;1.000000;0.008499;-0.008499;0.008499;1.000000
445645.26939972;5696594.83969887;471.09314968;129;125;119;32125.000000;1.000000;1.000000;1.000000;1.000000;0.009699;-0.009699;0.009699;1.000000
445645.46280106;5696594.88699921;471.10244991;192;188;175;48059.000000;1.000000;1.000000;1.000000;1.000000;0.103111;-0.103111;0.103111;1.000000
445645.19560059;5696594.79989822;471.09165003;153;153;143;38807.000000;1.000000;1.000000;1.000000;1.000000;0.030102;-0.030102;0.030102;1.000000
445645.30809982;5696594.80339821;471.09215023;133;130;125;33410.000000;1.000000;1.000000;1.000000;1.000000;0.026602;-0.026602;0.026602;1.000000
445645.19880112;5696594.76209839;471.09835007;52;56;47;13621.000000;1.000000;1.000000;1.000000;1.000000;0.067902;-0.067902;0.067902;1.000000
445645.23540314;5696594.72829826;471.09725000;47;49;43;12079.000000;1.000000;1.000000;1.000000;1.000000;-0.101702;0.101702;-0.101702;1.000000
445645.31070145;5696594.73079880;471.09135010;133;132;126;33667.000000;1.000000;1.000000;1.000000;1.000000;0.099201;-0.099201;0.099201;1.000000
445645.53250320;5696594.77789886;471.09264996;212;213;206;54227.000000;1.000000;1.000000;1.000000;1.000000;-0.164116;0.164116;-0.164116;1.000000
445645.27320297;5696594.72959908;471.09205009;97;96;91;24415.000000;1.000000;1.000000;1.000000;1.000000;-0.100401;0.100401;-0.100401;1.000000
445645.27430161;5696594.69209869;471.09394981;141;142;135;35980.000000;1.000000;1.000000;1.000000;1.000000;-0.137901;0.137901;-0.137901;1.000000
445645.27750214;5696594.65429886;471.09824993;62;64;55;15934.000000;1.000000;1.000000;1.000000;1.000000;-0.175701;0.175701;-0.175701;1.000000
