//X;Y;Z;R;G;B;Intensity;Return Number;Number Of Returns;Scan Direction Flag;Point Source ID;C2M signed distances[-][<0.8];C2M signed distances[<0.4];C2M signed distances[-][<0.2];Stump72
445594.96730240;5696584.34969910;473.89164974;174;168;154;43176.000000;1.000000;1.000000;1.000000;1.000000;-0.019978;0.019978;-0.019978;1.000000
445595.32620056;5696584.70899971;473.88425018;217;211;198;54227.000000;1.000000;1.000000;1.000000;1.000000;-0.011824;0.011824;-0.011824;1.000000
445594.98870094;5696584.73219879;473.95314981;192;200;152;49344.000000;1.000000;1.000000;1.000000;1.000000;0.123661;-0.123661;0.123661;1.000000
445595.36160095;5696584.71039970;473.88114979;134;126;111;32382.000000;1.000000;1.000000;1.000000;1.000000;-0.047224;0.047224;-0.047224;1.000000
445595.00500114;5696584.35089882;473.88875010;174;164;151;42405.000000;1.000000;1.000000;1.000000;1.000000;-0.020899;0.020899;-0.020899;1.000000
445595.10110100;5696584.69199951;473.91575005;167;170;137;42405.000000;1.000000;1.000000;1.000000;1.000000;-0.088276;0.088276;-0.088276;1.000000
445595.26550110;5696584.36179932;473.88905003;157;142;101;36237.000000;1.000000;1.000000;1.000000;1.000000;0.054999;-0.054999;0.054999;1.000000
445595.31210144;5696584.57729919;473.87274982;150;140;129;36237.000000;1.000000;1.000000;1.000000;1.000000;0.002275;-0.002275;0.002275;1.000000
445595.35110100;5696584.54339989;473.86945011;84;76;63;19532.000000;1.000000;1.000000;1.000000;1.000000;-0.036724;0.036724;-0.036724;1.000000
445595.00360115;5696584.38839920;473.89374973;187;183;172;46774.000000;1.000000;1.000000;1.000000;1.000000;-0.058399;0.058399;-0.058399;1.000000
445595.18480118;5696584.70319946;473.89874985;111;96;62;24672.000000;1.000000;1.000000;1.000000;1.000000;-0.004576;0.004576;-0.004576;1.000000
445595.15170105;5696584.39569862;473.89125015;151;142;108;35980.000000;1.000000;1.000000;1.000000;1.000000;-0.037676;0.037676;-0.037676;1.000000
445595.07680138;5696584.39329918;473.88784983;179;171;153;43947.000000;1.000000;1.000000;1.000000;1.000000;-0.063299;0.063299;-0.063299;1.000000
445595.22160156;5696584.28669937;473.87685015;143;136;124;34952.000000;1.000000;1.000000;1.000000;1.000000;-0.043312;0.043312;-0.043312;1.000000
445595.20270164;5696584.69450005;473.89715006;140;124;95;32125.000000;1.000000;1.000000;1.000000;1.000000;0.013325;-0.013325;0.013325;1.000000
445594.93350227;5696584.28299912;473.88005020;226;226;220;57825.000000;1.000000;1.000000;1.000000;1.000000;0.047016;-0.047016;0.047016;1.000000
445595.22680099;5696584.39809998;473.89004995;130;122;84;30840.000000;1.000000;1.000000;1.000000;1.000000;0.037424;-0.037424;0.037424;1.000000
445595.35800179;5696584.58949860;473.86564972;123;117;107;30069.000000;1.000000;1.000000;1.000000;1.000000;-0.043625;0.043625;-0.043625;1.000000
445595.03990181;5696584.42699821;473.89354994;149;136;116;35209.000000;1.000000;1.000000;1.000000;1.000000;-0.096998;0.096998;-0.096998;1.000000
445595.00490196;5696584.32300003;473.88374998;128;120;106;30840.000000;1.000000;1.000000;1.000000;1.000000;0.007000;-0.007000;0.007000;1.000000
445594.96970184;5696584.32160004;473.88444998;147;141;130;36237.000000;1.000000;1.000000;1.000000;1.000000;0.008451;-0.008451;0.008451;1.000000
445595.24620255;5696584.58309944;473.89545013;112;102;91;26471.000000;1.000000;1.000000;1.000000;1.000000;0.056826;-0.056826;0.056826;1.000000
445595.35900124;5696584.55199821;473.86754992;132;123;110;31868.000000;1.000000;1.000000;1.000000;1.000000;-0.044624;0.044624;-0.044624;1.000000
445594.96340187;5696584.39409836;473.91534998;131;126;114;32382.000000;1.000000;1.000000;1.000000;1.000000;-0.064098;0.064098;-0.064098;1.000000
445595.31820114;5696584.42919930;473.89685013;160;152;125;38807.000000;1.000000;1.000000;1.000000;1.000000;-0.013801;0.013801;-0.013801;1.000000
445595.33580215;5696584.43929871;473.89074995;85;78;47;19532.000000;1.000000;1.000000;1.000000;1.000000;-0.021676;0.021676;-0.021676;1.000000
445595.37530144;5696584.59959991;473.86415007;128;123;114;31611.000000;1.000000;1.000000;1.000000;1.000000;-0.060925;0.060925;-0.060925;1.000000
445595.03640182;5696584.46469887;473.89384987;141;125;106;32639.000000;1.000000;1.000000;1.000000;1.000000;-0.134699;0.134699;-0.134699;1.000000
445595.07410248;5696584.46599968;473.89094975;188;169;146;44204.000000;1.000000;1.000000;1.000000;1.000000;-0.115274;0.115274;-0.115274;1.000000
445595.24170120;5696584.46199997;473.89844992;131;119;85;30326.000000;1.000000;1.000000;1.000000;1.000000;0.052324;-0.052324;0.052324;1.000000
445595.20420082;5696584.46079834;473.89904978;118;107;72;27242.000000;1.000000;1.000000;1.000000;1.000000;0.014824;-0.014824;0.014824;1.000000
445595.11140259;5696584.46709831;473.89494993;161;142;114;37008.000000;1.000000;1.000000;1.000000;1.000000;-0.077974;0.077974;-0.077974;1.000000
445595.13140114;5696584.45819862;473.90035011;131;113;86;29555.000000;1.000000;1.000000;1.000000;1.000000;-0.057976;0.057976;-0.057976;1.000000
445594.86960228;5696584.48469933;473.90284969;186;173;152;44718.000000;1.000000;1.000000;1.000000;1.000000;-0.154870;0.154870;-0.154870;1.000000
445595.17880066;5696584.66399963;473.89804985;156;146;130;37779.000000;1.000000;1.000000;1.000000;1.000000;-0.010576;0.010576;-0.010576;1.000000
445595.14020164;5696584.62789925;473.90044977;126;112;95;29298.000000;1.000000;1.000000;1.000000;1.000000;-0.049175;0.049175;-0.049175;1.000000
445595.36590202;5696584.59819992;473.86375000;143;136;127;35209.000000;1.000000;1.000000;1.000000;1.000000;-0.051525;0.051525;-0.051525;1.000000
445595.21890076;5696584.59259995;473.89664986;127;115;103;30069.000000;1.000000;1.000000;1.000000;1.000000;0.029524;-0.029524;0.029524;1.000000
445595.36720093;5696584.56299980;473.86574986;162;155;143;39835.000000;1.000000;1.000000;1.000000;1.000000;-0.052824;0.052824;-0.052824;1.000000
445595.07140167;5696584.53859909;473.89395000;199;187;166;48316.000000;1.000000;1.000000;1.000000;1.000000;-0.117975;0.117975;-0.117975;1.000000
445595.25710114;5696584.54709824;473.88854982;112;101;84;26214.000000;1.000000;1.000000;1.000000;1.000000;0.057276;-0.057276;0.057276;1.000000
445594.94240196;5696584.48739822;473.90154984;192;181;161;46774.000000;1.000000;1.000000;1.000000;1.000000;-0.157398;0.157398;-0.157398;1.000000
445594.98010071;5696584.49089821;473.90094997;159;149;129;38293.000000;1.000000;1.000000;1.000000;1.000000;-0.160898;0.160898;-0.160898;1.000000
445595.10560234;5696584.57749947;473.88905003;118;100;79;26471.000000;1.000000;1.000000;1.000000;1.000000;-0.083775;0.083775;-0.083775;1.000000
445595.25580223;5696584.58459862;473.89125015;129;121;110;31354.000000;1.000000;1.000000;1.000000;1.000000;0.058575;-0.058575;0.058575;1.000000
445595.16560181;5696584.49709900;473.89545013;133;123;106;31868.000000;1.000000;1.000000;1.000000;1.000000;-0.023775;0.023775;-0.023775;1.000000
445595.39900215;5696584.71159943;473.88285019;146;140;121;35723.000000;1.000000;1.000000;1.000000;1.000000;-0.084625;0.084625;-0.084625;1.000000
445595.10420235;5696584.61489876;473.89405014;109;97;77;25186.000000;1.000000;1.000000;1.000000;1.000000;-0.085175;0.085175;-0.085175;1.000000
445594.87840088;5696584.50490006;473.90354969;188;174;151;44975.000000;1.000000;1.000000;1.000000;1.000000;-0.174900;0.174900;-0.174900;1.000000
445594.80420120;5696584.50189980;473.93734982;45;37;24;9509.000000;1.000000;1.000000;1.000000;1.000000;-0.186631;0.186631;-0.186631;1.000000
445595.24100121;5696584.50179871;473.89424994;102;89;64;23130.000000;1.000000;1.000000;1.000000;1.000000;0.051624;-0.051624;0.051624;1.000000
445595.21720131;5696584.62089928;473.88994982;140;130;115;33667.000000;1.000000;1.000000;1.000000;1.000000;0.027824;-0.027824;0.027824;1.000000
445594.94110115;5696584.52479942;473.90424969;174;164;146;42405.000000;1.000000;1.000000;1.000000;1.000000;-0.194799;0.194799;-0.194799;1.000000
445595.16430099;5696584.53459938;473.89814999;200;191;174;49087.000000;1.000000;1.000000;1.000000;1.000000;-0.025076;0.025076;-0.025076;1.000000
445595.21600159;5696584.65839966;473.89024975;187;175;160;45232.000000;1.000000;1.000000;1.000000;1.000000;0.026625;-0.026625;0.026625;1.000000
445594.81790169;5696584.38879974;473.91804983;162;168;136;41634.000000;1.000000;1.000000;1.000000;1.000000;-0.083280;0.083280;-0.083280;1.000000
445595.08260162;5696584.32749947;473.88264992;141;132;116;33924.000000;1.000000;1.000000;1.000000;1.000000;0.002501;-0.002501;0.002501;1.000000
445595.11910065;5696584.29149826;473.87925007;113;104;87;26728.000000;1.000000;1.000000;1.000000;1.000000;0.038502;-0.038502;0.038502;1.000000
445595.08150108;5696584.29029854;473.87984993;201;199;188;50886.000000;1.000000;1.000000;1.000000;1.000000;0.039701;-0.039701;0.039701;1.000000
445594.78440102;5696584.23839958;473.87974979;112;111;106;28270.000000;1.000000;1.000000;1.000000;1.000000;-0.094875;0.094875;-0.094875;1.000000
445595.37100227;5696584.48759850;473.88364985;129;122;97;31097.000000;1.000000;1.000000;1.000000;1.000000;-0.056625;0.056625;-0.056625;1.000000
445595.19150169;5696584.36869820;473.88574984;158;146;115;37522.000000;1.000000;1.000000;1.000000;1.000000;0.002125;-0.002125;0.002125;1.000000
445595.26570137;5696584.33389862;473.87935020;108;91;59;23644.000000;1.000000;1.000000;1.000000;1.000000;0.045243;-0.045243;0.045243;1.000000
445595.30470093;5696584.29999931;473.87605001;142;125;97;32639.000000;1.000000;1.000000;1.000000;1.000000;0.031522;-0.031522;0.031522;1.000000
445595.34180077;5696584.30109985;473.88474991;152;136;108;35209.000000;1.000000;1.000000;1.000000;1.000000;0.029079;-0.029079;0.029079;1.000000
445595.27060135;5696584.26109894;473.87874987;147;136;118;35209.000000;1.000000;1.000000;1.000000;1.000000;0.081631;-0.081631;0.081631;1.000000
445595.30810173;5696584.26229866;473.87815001;113;96;74;25186.000000;1.000000;1.000000;1.000000;1.000000;0.067992;-0.067992;0.067992;1.000000
445595.27180107;5696584.22359856;473.87834980;165;153;133;39578.000000;1.000000;1.000000;1.000000;1.000000;0.114604;-0.114604;0.114604;1.000000
445595.30930145;5696584.22479828;473.87774994;166;146;119;38293.000000;1.000000;1.000000;1.000000;1.000000;0.105324;-0.105324;0.105324;1.000000
445594.78340157;5696584.34759911;473.92294981;169;172;135;42919.000000;1.000000;1.000000;1.000000;1.000000;-0.095118;0.095118;-0.095118;1.000000
445595.10170181;5696584.69889839;473.91825010;157;160;124;39835.000000;1.000000;1.000000;1.000000;1.000000;-0.087675;0.087675;-0.087675;1.000000
445595.19300087;5696584.33129890;473.87834980;106;90;64;23387.000000;1.000000;1.000000;1.000000;1.000000;-0.001299;0.001299;-0.001299;1.000000
445595.29000099;5696584.67029961;473.88215019;109;103;91;26471.000000;1.000000;1.000000;1.000000;1.000000;0.024376;-0.024376;0.024376;1.000000
445595.29360207;5696584.55789955;473.87865021;156;147;134;38036.000000;1.000000;1.000000;1.000000;1.000000;0.020775;-0.020775;0.020775;1.000000
445595.34310158;5696584.26359947;473.88205006;108;93;69;24158.000000;1.000000;1.000000;1.000000;1.000000;0.066449;-0.066449;0.066449;1.000000
445595.34670074;5696584.22599991;473.87944986;124;105;75;27499.000000;1.000000;1.000000;1.000000;1.000000;0.104000;-0.104000;0.104000;1.000000
445595.06560143;5696584.69049843;473.92345001;111;113;70;27499.000000;1.000000;1.000000;1.000000;1.000000;-0.123775;0.123775;-0.123775;1.000000
445595.33900078;5696584.58889969;473.86945011;171;165;155;42405.000000;1.000000;1.000000;1.000000;1.000000;-0.024624;0.024624;-0.024624;1.000000
445595.34020050;5696584.55139931;473.86905005;87;79;66;20303.000000;1.000000;1.000000;1.000000;1.000000;-0.025824;0.025824;-0.025824;1.000000
445595.00780113;5696584.27609833;473.87865021;142;135;128;34952.000000;1.000000;1.000000;1.000000;1.000000;0.053902;-0.053902;0.053902;1.000000
445595.25010117;5696584.69730003;473.88994982;124;112;91;29041.000000;1.000000;1.000000;1.000000;1.000000;0.060724;-0.060724;0.060724;1.000000
445595.14610107;5696584.51519974;473.89944984;136;122;99;31611.000000;1.000000;1.000000;1.000000;1.000000;-0.043276;0.043276;-0.043276;1.000000
445595.26020248;5696584.48359879;473.89724972;76;62;35;16191.000000;1.000000;1.000000;1.000000;1.000000;0.054174;-0.054174;0.054174;1.000000
445595.29720123;5696584.52249916;473.88304998;104;94;81;24415.000000;1.000000;1.000000;1.000000;1.000000;0.017176;-0.017176;0.017176;1.000000
445595.29880150;5696584.44730003;473.89855005;114;103;73;26471.000000;1.000000;1.000000;1.000000;1.000000;0.015575;-0.015575;0.015575;1.000000
445595.22380074;5696584.44499977;473.89744999;100;90;51;22616.000000;1.000000;1.000000;1.000000;1.000000;0.034424;-0.034424;0.034424;1.000000
445595.15070160;5696584.43999870;473.90105011;131;111;84;29298.000000;1.000000;1.000000;1.000000;1.000000;-0.038675;0.038675;-0.038675;1.000000
445595.28770073;5696584.69849976;473.88705017;187;180;168;46260.000000;1.000000;1.000000;1.000000;1.000000;0.026676;-0.026676;0.026676;1.000000
445595.10140236;5696584.72669991;473.93015005;123;133;84;31868.000000;1.000000;1.000000;1.000000;1.000000;-0.088384;0.088384;-0.088384;1.000000
445594.94220169;5696584.27289970;473.87564995;136;136;127;34695.000000;1.000000;1.000000;1.000000;1.000000;0.057100;-0.057100;0.057100;1.000000
445594.91500099;5696584.49679955;473.90504982;184;173;152;44461.000000;1.000000;1.000000;1.000000;1.000000;-0.166800;0.166800;-0.166800;1.000000
445594.80310257;5696584.49029930;473.93715002;61;57;40;14392.000000;1.000000;1.000000;1.000000;1.000000;-0.176461;0.176461;-0.176461;1.000000
445595.14840134;5696584.72039993;473.91125013;141;139;101;34695.000000;1.000000;1.000000;1.000000;1.000000;-0.041056;0.041056;-0.041056;1.000000
445595.16520126;5696584.28259857;473.87424995;120;110;98;28527.000000;1.000000;1.000000;1.000000;1.000000;0.047401;-0.047401;0.047401;1.000000
445595.24150093;5696584.24979980;473.87725021;134;125;108;32125.000000;1.000000;1.000000;1.000000;1.000000;-0.082872;0.082872;-0.082872;1.000000
445595.24290092;5696584.21229942;473.87225010;190;180;164;46517.000000;1.000000;1.000000;1.000000;1.000000;-0.119790;0.119790;-0.119790;1.000000
445595.28030212;5696584.21349915;473.87624981;166;152;130;39321.000000;1.000000;1.000000;1.000000;1.000000;0.121382;-0.121382;0.121382;1.000000
445595.17020233;5696584.20979889;473.87124969;141;132;120;34181.000000;1.000000;1.000000;1.000000;1.000000;0.120201;-0.120201;0.120201;1.000000
445595.24650200;5696584.17469986;473.86964991;182;178;156;45232.000000;1.000000;1.000000;1.000000;1.000000;-0.157441;0.157441;-0.157441;1.000000
445595.34050186;5696584.57939919;473.86934998;154;146;135;37779.000000;1.000000;1.000000;1.000000;1.000000;-0.026125;0.026125;-0.026125;1.000000
445595.30270203;5696584.57819946;473.87465002;131;121;108;31354.000000;1.000000;1.000000;1.000000;1.000000;0.011675;-0.011675;0.011675;1.000000
445595.34160049;5696584.54189880;473.87124969;80;73;60;18761.000000;1.000000;1.000000;1.000000;1.000000;-0.027224;0.027224;-0.027224;1.000000
445594.94660194;5696584.19089897;473.86555006;114;115;106;29041.000000;1.000000;1.000000;1.000000;1.000000;0.069725;-0.069725;0.069725;1.000000
445594.87010201;5696584.22359856;473.86714985;142;139;127;35466.000000;1.000000;1.000000;1.000000;1.000000;-0.009496;0.009496;-0.009496;1.000000
445594.79370125;5696584.29569824;473.89715006;72;70;56;17733.000000;1.000000;1.000000;1.000000;1.000000;0.089971;-0.089971;0.089971;1.000000
445594.86510094;5696584.33569916;473.90084984;132;130;117;33153.000000;1.000000;1.000000;1.000000;1.000000;-0.013083;0.013083;-0.013083;1.000000
445594.83000191;5696584.33429916;473.89925005;112;110;88;27756.000000;1.000000;1.000000;1.000000;1.000000;-0.047072;0.047072;-0.047072;1.000000
445594.94050224;5696584.34039886;473.89734985;164;159;147;40863.000000;1.000000;1.000000;1.000000;1.000000;-0.010399;0.010399;-0.010399;1.000000
445594.89430054;5696584.52449997;473.90444996;156;142;121;36751.000000;1.000000;1.000000;1.000000;1.000000;-0.194500;0.194500;-0.194500;1.000000
445594.89880188;5696584.44929894;473.90604975;190;188;171;47802.000000;1.000000;1.000000;1.000000;1.000000;-0.119299;0.119299;-0.119299;1.000000
445594.94370087;5696584.26339920;473.87325003;117;116;105;29555.000000;1.000000;1.000000;1.000000;1.000000;0.066601;-0.066601;0.066601;1.000000
445595.09280212;5696584.23319824;473.87505009;122;117;105;30069.000000;1.000000;1.000000;1.000000;1.000000;0.096843;-0.096843;0.096843;1.000000
445594.90790184;5696584.22719963;473.86654999;171;170;157;43176.000000;1.000000;1.000000;1.000000;1.000000;0.032679;-0.032679;0.032679;1.000000
445595.05750092;5696584.23179825;473.87575008;186;184;173;47031.000000;1.000000;1.000000;1.000000;1.000000;0.098202;-0.098202;0.098202;1.000000
445594.90450104;5696584.33429916;473.90494968;174;173;162;44204.000000;1.000000;1.000000;1.000000;1.000000;-0.005477;0.005477;-0.005477;1.000000
445594.86390121;5696584.37319954;473.90124990;66;67;52;16705.000000;1.000000;1.000000;1.000000;1.000000;-0.045106;0.045106;-0.045106;1.000000
445594.97640236;5696584.37669952;473.90175011;135;130;117;33410.000000;1.000000;1.000000;1.000000;1.000000;-0.046700;0.046700;-0.046700;1.000000
445594.97520073;5696584.41419991;473.90214970;111;105;89;26985.000000;1.000000;1.000000;1.000000;1.000000;-0.084200;0.084200;-0.084200;1.000000
445595.19610222;5696584.42419823;473.89825012;129;115;76;29298.000000;1.000000;1.000000;1.000000;1.000000;0.006725;-0.006725;0.006725;1.000000
445594.82230194;5696584.44419868;473.93514969;60;66;38;15677.000000;1.000000;1.000000;1.000000;1.000000;-0.126569;0.126569;-0.126569;1.000000
445595.30890091;5696584.42999847;473.89874985;147;140;110;35466.000000;1.000000;1.000000;1.000000;1.000000;0.013577;-0.013577;0.013577;1.000000
445594.97180183;5696584.45189865;473.90014984;198;189;174;48830.000000;1.000000;1.000000;1.000000;1.000000;-0.121899;0.121899;-0.121899;1.000000
445595.23250206;5696584.46279915;473.89804985;136;125;90;31868.000000;1.000000;1.000000;1.000000;1.000000;0.043125;-0.043125;0.043125;1.000000
445595.19710167;5696584.46139915;473.90105011;128;115;82;29555.000000;1.000000;1.000000;1.000000;1.000000;0.007725;-0.007725;0.007725;1.000000
445595.15720184;5696584.46039970;473.90394976;168;151;122;39064.000000;1.000000;1.000000;1.000000;1.000000;-0.032175;0.032175;-0.032175;1.000000
445595.12220200;5696584.45899971;473.89764978;126;108;80;28270.000000;1.000000;1.000000;1.000000;1.000000;-0.067175;0.067175;-0.067175;1.000000
445594.89750107;5696584.48449905;473.90415003;198;187;169;48316.000000;1.000000;1.000000;1.000000;1.000000;-0.154499;0.154499;-0.154499;1.000000
445594.97060211;5696584.48939903;473.90044977;183;172;152;44461.000000;1.000000;1.000000;1.000000;1.000000;-0.159399;0.159399;-0.159399;1.000000
445595.15630157;5696584.49790009;473.89734985;144;132;112;34181.000000;1.000000;1.000000;1.000000;1.000000;-0.033075;0.033075;-0.033075;1.000000
445595.00840195;5696584.49069984;473.89524986;176;164;145;42405.000000;1.000000;1.000000;1.000000;1.000000;-0.160700;0.160700;-0.160700;1.000000
445595.23140152;5696584.50029953;473.89615013;103;91;66;23387.000000;1.000000;1.000000;1.000000;1.000000;0.042025;-0.042025;0.042025;1.000000
445595.04480179;5696584.52929886;473.89505007;171;156;135;40606.000000;1.000000;1.000000;1.000000;1.000000;-0.144575;0.144575;-0.144575;1.000000
445595.00700195;5696584.52809914;473.90024998;152;137;119;35723.000000;1.000000;1.000000;1.000000;1.000000;-0.182375;0.182375;-0.182375;1.000000
445594.96950157;5696584.52689941;473.90084984;163;153;136;39578.000000;1.000000;1.000000;1.000000;1.000000;-0.196903;0.196903;-0.196903;1.000000
445595.23020180;5696584.53779991;473.89645006;112;99;76;25700.000000;1.000000;1.000000;1.000000;1.000000;0.040825;-0.040825;0.040825;1.000000
445595.00350197;5696584.56579979;473.90054991;156;141;122;36751.000000;1.000000;1.000000;1.000000;1.000000;-0.185875;0.185875;-0.185875;1.000000
445595.24450119;5696584.20290001;473.86984970;175;165;148;42662.000000;1.000000;1.000000;1.000000;1.000000;-0.129323;0.129323;-0.129323;1.000000
445595.35450180;5696584.20659836;473.87484982;165;146;119;38036.000000;1.000000;1.000000;1.000000;1.000000;0.123402;-0.123402;0.123402;1.000000
445595.15370186;5696584.57059868;473.89804985;77;60;42;16191.000000;1.000000;1.000000;1.000000;1.000000;-0.035675;0.035675;-0.035675;1.000000
445595.22900208;5696584.57529839;473.89685013;85;74;62;19275.000000;1.000000;1.000000;1.000000;1.000000;0.039625;-0.039625;0.039625;1.000000
445595.00450142;5696584.60299881;473.90334990;137;123;103;31868.000000;1.000000;1.000000;1.000000;1.000000;-0.184875;0.184875;-0.184875;1.000000
445595.37580116;5696584.58089836;473.86634972;121;115;104;29555.000000;1.000000;1.000000;1.000000;1.000000;-0.061424;0.061424;-0.061424;1.000000
445595.07530220;5696584.60589989;473.89494993;165;151;131;39064.000000;1.000000;1.000000;1.000000;1.000000;-0.114075;0.114075;-0.114075;1.000000
445595.19000061;5696584.60929878;473.89785006;126;114;99;29555.000000;1.000000;1.000000;1.000000;1.000000;0.000624;-0.000624;0.000624;1.000000
445595.07620056;5696584.64309891;473.90014984;197;190;172;48830.000000;1.000000;1.000000;1.000000;1.000000;-0.113176;0.113176;-0.113176;1.000000
445595.18660172;5696584.64699944;473.89584972;184;174;161;44975.000000;1.000000;1.000000;1.000000;1.000000;-0.002775;0.002775;-0.002775;1.000000
445595.15120132;5696584.64549835;473.90114977;111;99;82;25700.000000;1.000000;1.000000;1.000000;1.000000;-0.038176;0.038176;-0.038176;1.000000
445595.11380203;5696584.64429863;473.89944984;155;147;131;37779.000000;1.000000;1.000000;1.000000;1.000000;-0.075575;0.075575;-0.075575;1.000000
445595.14990051;5696584.68299873;473.90394976;156;147;123;37779.000000;1.000000;1.000000;1.000000;1.000000;-0.039476;0.039476;-0.039476;1.000000
445595.18540199;5696584.68439873;473.89855005;178;166;142;42662.000000;1.000000;1.000000;1.000000;1.000000;-0.003975;0.003975;-0.003975;1.000000
445595.03670128;5696584.71389969;473.93874981;169;171;121;42148.000000;1.000000;1.000000;1.000000;1.000000;0.119353;-0.119353;0.119353;1.000000
445595.07230194;5696584.71769913;473.93575003;128;135;88;32639.000000;1.000000;1.000000;1.000000;1.000000;-0.112301;0.112301;-0.112301;1.000000
445595.18410118;5696584.72189911;473.90124990;133;123;89;31354.000000;1.000000;1.000000;1.000000;1.000000;-0.006789;0.006789;-0.006789;1.000000
445595.22180183;5696584.72309883;473.89594986;112;101;73;25957.000000;1.000000;1.000000;1.000000;1.000000;0.032901;-0.032901;0.032901;1.000000
445594.81390198;5696584.20299919;473.87834980;110;108;104;27756.000000;1.000000;1.000000;1.000000;1.000000;-0.062975;0.062975;-0.062975;1.000000
445594.77840240;5696584.20150002;473.88604977;198;198;193;50629.000000;1.000000;1.000000;1.000000;1.000000;-0.098475;0.098475;-0.098475;1.000000
445595.33730133;5696584.22449883;473.87895014;122;102;73;26728.000000;1.000000;1.000000;1.000000;1.000000;0.105501;-0.105501;0.105501;1.000000
445594.77740105;5696584.23899849;473.88175013;99;97;91;24672.000000;1.000000;1.000000;1.000000;1.000000;-0.101828;0.101828;-0.101828;1.000000
445595.03800209;5696584.24989899;473.87974979;206;204;192;52171.000000;1.000000;1.000000;1.000000;1.000000;0.080101;-0.080101;0.080101;1.000000
445595.14820107;5696584.25369843;473.88005020;98;89;79;23130.000000;1.000000;1.000000;1.000000;1.000000;0.076302;-0.076302;0.076302;1.000000
445595.07570084;5696584.25109871;473.87675001;136;135;121;34181.000000;1.000000;1.000000;1.000000;1.000000;0.078901;-0.078901;0.078901;1.000000
445594.85120209;5696584.27889832;473.88324978;129;127;112;32125.000000;1.000000;1.000000;1.000000;1.000000;0.057189;-0.057189;0.057189;1.000000
445595.03440102;5696584.28759964;473.88234999;124;119;111;30583.000000;1.000000;1.000000;1.000000;1.000000;0.042400;-0.042400;0.042400;1.000000
445594.99930199;5696584.28619965;473.88075020;126;121;114;31097.000000;1.000000;1.000000;1.000000;1.000000;0.043876;-0.043876;0.043876;1.000000
445594.96180161;5696584.28499992;473.87904980;179;179;172;45746.000000;1.000000;1.000000;1.000000;1.000000;0.045000;-0.045000;0.045000;1.000000
445594.88650139;5696584.28029831;473.88025000;127;125;111;31868.000000;1.000000;1.000000;1.000000;1.000000;0.049702;-0.049702;0.049702;1.000000
445595.10960205;5696584.28999908;473.87874987;142;135;119;34695.000000;1.000000;1.000000;1.000000;1.000000;0.040001;-0.040001;0.040001;1.000000
445594.93000229;5696584.16209991;473.86445000;140;141;134;35723.000000;1.000000;1.000000;1.000000;1.000000;0.053125;-0.053125;0.053125;1.000000
445594.96510132;5696584.16349991;473.86604979;85;85;74;21331.000000;1.000000;1.000000;1.000000;1.000000;0.088224;-0.088224;0.088224;1.000000
445595.29510124;5696584.29849823;473.87795021;120;104;77;26985.000000;1.000000;1.000000;1.000000;1.000000;0.036931;-0.036931;0.036931;1.000000
445595.25990112;5696584.29709824;473.87865021;137;127;108;32639.000000;1.000000;1.000000;1.000000;1.000000;-0.051235;0.051235;-0.051235;1.000000
445595.14720161;5696584.29119881;473.87815001;163;153;137;39578.000000;1.000000;1.000000;1.000000;1.000000;0.038801;-0.038801;0.038801;1.000000
445595.33250244;5696584.29959877;473.88194992;155;138;111;35980.000000;1.000000;1.000000;1.000000;1.000000;0.030401;-0.030401;0.030401;1.000000
445595.03540237;5696584.32479866;473.88514997;142;131;119;33924.000000;1.000000;1.000000;1.000000;1.000000;0.005201;-0.005201;0.005201;1.000000
445595.14600189;5696584.32869919;473.87855007;160;150;134;38807.000000;1.000000;1.000000;1.000000;1.000000;0.001301;-0.001301;0.001301;1.000000
445595.07070168;5696584.32619865;473.88444998;114;105;91;27242.000000;1.000000;1.000000;1.000000;1.000000;0.003801;-0.003801;0.003801;1.000000
445595.29380234;5696584.33599861;473.88065006;135;119;87;30840.000000;1.000000;1.000000;1.000000;1.000000;-0.021431;0.021431;-0.021431;1.000000
445595.21900185;5696584.33359917;473.87725021;185;170;143;43947.000000;1.000000;1.000000;1.000000;1.000000;0.003599;-0.003599;0.003599;1.000000
445594.92030151;5696584.35839851;473.91524984;217;217;209;55512.000000;1.000000;1.000000;1.000000;1.000000;-0.028399;0.028399;-0.028399;1.000000
445595.10710152;5696584.36489876;473.88184978;159;149;129;38293.000000;1.000000;1.000000;1.000000;1.000000;-0.034899;0.034899;-0.034899;1.000000
445594.95640190;5696584.39469917;473.91734983;165;162;151;41377.000000;1.000000;1.000000;1.000000;1.000000;-0.064699;0.064699;-0.064699;1.000000
445594.91880234;5696584.39349945;473.91795017;91;93;85;23387.000000;1.000000;1.000000;1.000000;1.000000;-0.063499;0.063499;-0.063499;1.000000
445594.84270103;5696584.42859848;473.91725018;168;172;150;43176.000000;1.000000;1.000000;1.000000;1.000000;-0.104353;0.104353;-0.104353;1.000000
445595.36640175;5696584.41329964;473.88485004;102;100;67;24672.000000;1.000000;1.000000;1.000000;1.000000;-0.059756;0.059756;-0.059756;1.000000
445594.84120186;5696584.46379860;473.91764977;105;96;72;24672.000000;1.000000;1.000000;1.000000;1.000000;-0.138473;0.138473;-0.138473;1.000000
445594.84010132;5696584.50119980;473.91804983;164;153;134;39578.000000;1.000000;1.000000;1.000000;1.000000;-0.175105;0.175105;-0.175105;1.000000
445595.40930183;5696584.69439896;473.87844994;200;197;177;50115.000000;1.000000;1.000000;1.000000;1.000000;-0.094925;0.094925;-0.094925;1.000000
445595.26230057;5696584.64949997;473.88294985;171;165;154;42405.000000;1.000000;1.000000;1.000000;1.000000;0.052076;-0.052076;0.052076;1.000000
445595.28310211;5696584.59619911;473.88094999;159;152;142;39321.000000;1.000000;1.000000;1.000000;1.000000;0.031275;-0.031275;0.031275;1.000000
445595.28190239;5696584.63369949;473.88135006;205;199;191;51143.000000;1.000000;1.000000;1.000000;1.000000;0.032475;-0.032475;0.032475;1.000000
445595.31610115;5696584.67259987;473.87865021;122;114;103;29555.000000;1.000000;1.000000;1.000000;1.000000;-0.001724;0.001724;-0.001724;1.000000
445595.31680115;5696584.70749863;473.88374998;182;176;163;45232.000000;1.000000;1.000000;1.000000;1.000000;-0.002424;0.002424;-0.002424;1.000000
445595.26240166;5696584.40869911;473.89874985;94;87;51;21845.000000;1.000000;1.000000;1.000000;1.000000;0.061955;-0.061955;0.061955;1.000000
445595.23740204;5696584.61199959;473.89074995;131;122;109;31611.000000;1.000000;1.000000;1.000000;1.000000;0.048025;-0.048025;0.048025;1.000000
445595.01800163;5696584.49209984;473.89335014;186;174;157;44975.000000;1.000000;1.000000;1.000000;1.000000;-0.162100;0.162100;-0.162100;1.000000
445595.05310257;5696584.49349983;473.89494993;160;147;128;38036.000000;1.000000;1.000000;1.000000;1.000000;-0.136274;0.136274;-0.136274;1.000000
445595.01910217;5696584.45459946;473.89524986;130;112;90;29298.000000;1.000000;1.000000;1.000000;1.000000;-0.124599;0.124599;-0.124599;1.000000
445595.09690102;5696584.38219841;473.88625004;143;133;111;34181.000000;1.000000;1.000000;1.000000;1.000000;-0.052198;0.052198;-0.052198;1.000000
445595.02170189;5696584.37969978;473.88985016;165;159;147;40863.000000;1.000000;1.000000;1.000000;1.000000;-0.049700;0.049700;-0.049700;1.000000
445595.27850159;5696584.50299843;473.89365007;71;57;38;15163.000000;1.000000;1.000000;1.000000;1.000000;0.035875;-0.035875;0.035875;1.000000
445595.31970222;5696584.39180000;473.88945009;100;90;52;22616.000000;1.000000;1.000000;1.000000;1.000000;-0.051079;0.051079;-0.051079;1.000000
445595.17200096;5696584.38679894;473.88975002;168;161;126;40863.000000;1.000000;1.000000;1.000000;1.000000;-0.017376;0.017376;-0.017376;1.000000
445595.20720108;5696584.38819893;473.88905003;171;161;123;40863.000000;1.000000;1.000000;1.000000;1.000000;0.017824;-0.017824;0.017824;1.000000
445595.24450119;5696584.38939865;473.89304974;156;146;108;37008.000000;1.000000;1.000000;1.000000;1.000000;0.055124;-0.055124;0.055124;1.000000
445595.35860260;5696584.35779961;473.89085009;107;99;58;24672.000000;1.000000;1.000000;1.000000;1.000000;-0.027800;0.027800;-0.027800;1.000000
445594.90580185;5696584.52339943;473.90494968;137;125;106;32382.000000;1.000000;1.000000;1.000000;1.000000;-0.193413;0.193413;-0.193413;1.000000
445594.86600121;5696584.52239998;473.90544989;173;160;140;41377.000000;1.000000;1.000000;1.000000;1.000000;-0.192707;0.192707;-0.192707;1.000000
445594.95320137;5696584.26489838;473.87374975;103;103;92;25957.000000;1.000000;1.000000;1.000000;1.000000;0.065102;-0.065102;0.065102;1.000000
445595.06690224;5696584.23099907;473.87384989;159;156;144;39835.000000;1.000000;1.000000;1.000000;1.000000;0.099001;-0.099001;0.099001;1.000000
445595.17490204;5696584.31199844;473.87734987;197;186;170;48059.000000;1.000000;1.000000;1.000000;1.000000;0.018002;-0.018002;0.018002;1.000000
445595.21490105;5696584.23829849;473.87365009;207;197;183;50886.000000;1.000000;1.000000;1.000000;1.000000;-0.091702;0.091702;-0.091702;1.000000
445595.04570206;5696584.70849998;473.93444969;185;185;137;46003.000000;1.000000;1.000000;1.000000;1.000000;0.122927;-0.122927;0.122927;1.000000
445595.12460144;5696584.63399895;473.89755013;142;131;116;33924.000000;1.000000;1.000000;1.000000;1.000000;-0.064775;0.064775;-0.064775;1.000000
445594.99560173;5696584.32160004;473.88094999;150;142;129;36494.000000;1.000000;1.000000;1.000000;1.000000;0.008436;-0.008436;0.008436;1.000000
445595.10830124;5696584.32749947;473.88145020;131;121;103;31354.000000;1.000000;1.000000;1.000000;1.000000;0.002501;-0.002501;0.002501;1.000000
445595.14460190;5696584.36609848;473.88355019;201;190;167;48830.000000;1.000000;1.000000;1.000000;1.000000;-0.036098;0.036098;-0.036098;1.000000
445595.34230240;5696584.50429924;473.88014986;54;47;34;12079.000000;1.000000;1.000000;1.000000;1.000000;-0.027925;0.027925;-0.027925;1.000000
445595.27410133;5696584.35169991;473.88464977;165;149;110;38293.000000;1.000000;1.000000;1.000000;1.000000;-0.045749;0.045749;-0.045749;1.000000
445595.31170090;5696584.35289963;473.88394978;188;175;143;44975.000000;1.000000;1.000000;1.000000;1.000000;-0.023055;0.023055;-0.023055;1.000000
445595.20150192;5696584.34919937;473.88135006;87;69;36;17990.000000;1.000000;1.000000;1.000000;1.000000;0.012125;-0.012125;0.012125;1.000000
445595.27570160;5696584.31659897;473.87965014;127;112;83;29041.000000;1.000000;1.000000;1.000000;1.000000;0.040931;-0.040931;0.040931;1.000000
445595.24180229;5696584.27779968;473.87764980;106;99;86;25443.000000;1.000000;1.000000;1.000000;1.000000;-0.056332;0.056332;-0.056332;1.000000
445595.24300201;5696584.24029930;473.87725021;194;185;167;47545.000000;1.000000;1.000000;1.000000;1.000000;-0.092449;0.092449;-0.092449;1.000000
445595.31800087;5696584.24269875;473.87834980;139;119;93;31354.000000;1.000000;1.000000;1.000000;1.000000;0.087301;-0.087301;0.087301;1.000000
445595.19510086;5696584.71389969;473.89934971;102;89;55;22873.000000;1.000000;1.000000;1.000000;1.000000;0.005724;-0.005724;0.005724;1.000000
445595.34930237;5696584.57169922;473.86504986;162;155;143;39835.000000;1.000000;1.000000;1.000000;1.000000;-0.034925;0.034925;-0.034925;1.000000
445595.35490234;5696584.46799858;473.88964989;108;97;67;24929.000000;1.000000;1.000000;1.000000;1.000000;-0.040525;0.040525;-0.040525;1.000000
445595.31710251;5696584.46669968;473.89494993;92;80;56;20560.000000;1.000000;1.000000;1.000000;1.000000;-0.002726;0.002726;-0.002726;1.000000
445595.28030212;5696584.24139984;473.88124992;127;111;88;29041.000000;1.000000;1.000000;1.000000;1.000000;0.094927;-0.094927;0.094927;1.000000
445594.92410095;5696584.28149994;473.87965014;236;237;230;60395.000000;1.000000;1.000000;1.000000;1.000000;0.048500;-0.048500;0.048500;1.000000
445595.13830193;5696584.50659950;473.89895012;161;146;124;38036.000000;1.000000;1.000000;1.000000;1.000000;-0.051075;0.051075;-0.051075;1.000000
445595.24620255;5696584.14659889;473.87155010;173;170;145;43176.000000;1.000000;1.000000;1.000000;1.000000;-0.185176;0.185176;-0.185176;1.000000
445594.90960129;5696584.17089851;473.86835005;228;229;222;58339.000000;1.000000;1.000000;1.000000;1.000000;0.032724;-0.032724;0.032724;1.000000
445594.87170227;5696584.16739853;473.87124969;117;116;107;29555.000000;1.000000;1.000000;1.000000;1.000000;-0.005175;0.005175;-0.005175;1.000000
445594.98460205;5696584.17329987;473.86945011;136;136;125;34438.000000;1.000000;1.000000;1.000000;1.000000;0.107725;-0.107725;0.107725;1.000000
445594.87070091;5696584.20489891;473.86695005;109;106;97;26985.000000;1.000000;1.000000;1.000000;1.000000;-0.006176;0.006176;-0.006176;1.000000
445594.98340233;5696584.21079834;473.86984970;126;127;113;32125.000000;1.000000;1.000000;1.000000;1.000000;0.106525;-0.106525;0.106525;1.000000
445594.83530243;5696584.20339973;473.87234976;106;103;96;26471.000000;1.000000;1.000000;1.000000;1.000000;-0.041574;0.041574;-0.041574;1.000000
445595.13080223;5696584.21569832;473.87654974;185;179;172;46260.000000;1.000000;1.000000;1.000000;1.000000;0.114302;-0.114302;0.114302;1.000000
445595.20630081;5696584.22039993;473.87064983;188;177;163;45746.000000;1.000000;1.000000;1.000000;1.000000;0.109600;-0.109600;0.109600;1.000000
445595.16190155;5696584.60949905;473.90124990;134;118;101;30840.000000;1.000000;1.000000;1.000000;1.000000;-0.027475;0.027475;-0.027475;1.000000
445594.90690239;5696584.24349983;473.87134983;167;166;148;42148.000000;1.000000;1.000000;1.000000;1.000000;0.040026;-0.040026;0.040026;1.000000
445594.86970146;5696584.24469955;473.86744978;147;145;128;36751.000000;1.000000;1.000000;1.000000;1.000000;-0.028658;0.028658;-0.028658;1.000000
445594.83190163;5696584.24119957;473.87034990;157;155;143;39578.000000;1.000000;1.000000;1.000000;1.000000;-0.051067;0.051067;-0.051067;1.000000
445595.01940163;5696584.24939926;473.87654974;100;97;84;24672.000000;1.000000;1.000000;1.000000;1.000000;0.080601;-0.080601;0.080601;1.000000
445594.98200233;5696584.24819954;473.87484982;100;97;84;24672.000000;1.000000;1.000000;1.000000;1.000000;0.081800;-0.081800;0.081800;1.000000
445595.16870125;5696584.45929916;473.90444996;134;118;87;30583.000000;1.000000;1.000000;1.000000;1.000000;-0.020676;0.020676;-0.020676;1.000000
445595.20500191;5696584.25789841;473.87334969;168;159;147;41120.000000;1.000000;1.000000;1.000000;1.000000;0.072102;-0.072102;0.072102;1.000000
445595.17600067;5696584.50779922;473.89605000;200;194;179;49858.000000;1.000000;1.000000;1.000000;1.000000;-0.013376;0.013376;-0.013376;1.000000
445594.86740120;5696584.51289948;473.90544989;175;162;141;41891.000000;1.000000;1.000000;1.000000;1.000000;-0.183145;0.183145;-0.183145;1.000000
445595.09440239;5696584.69719894;473.92024996;183;187;151;46517.000000;1.000000;1.000000;1.000000;1.000000;-0.094975;0.094975;-0.094975;1.000000
445594.90950211;5696584.43890007;473.90875008;153;153;136;38807.000000;1.000000;1.000000;1.000000;1.000000;-0.108900;0.108900;-0.108900;1.000000
445595.35200127;5696584.70889862;473.88304998;162;155;139;39835.000000;1.000000;1.000000;1.000000;1.000000;-0.037624;0.037624;-0.037624;1.000000
445595.38970192;5696584.71249969;473.88245012;155;148;130;38036.000000;1.000000;1.000000;1.000000;1.000000;-0.075325;0.075325;-0.075325;1.000000
445595.28430183;5696584.55879982;473.88054993;159;151;136;38807.000000;1.000000;1.000000;1.000000;1.000000;0.030075;-0.030075;0.030075;1.000000
445595.25220116;5696584.47269829;473.89674999;83;70;39;17990.000000;1.000000;1.000000;1.000000;1.000000;0.062176;-0.062176;0.062176;1.000000
445594.93720062;5696584.18939980;473.86514999;112;113;106;28527.000000;1.000000;1.000000;1.000000;1.000000;0.060324;-0.060324;0.060324;1.000000
445595.17780121;5696584.43049820;473.90214970;93;76;40;19789.000000;1.000000;1.000000;1.000000;1.000000;-0.011576;0.011576;-0.011576;1.000000
445595.29080208;5696584.43869980;473.90275003;81;69;40;17733.000000;1.000000;1.000000;1.000000;1.000000;0.023855;-0.023855;0.023855;1.000000
445594.86320122;5696584.22429855;473.86684992;135;133;121;33924.000000;1.000000;1.000000;1.000000;1.000000;-0.015530;0.015530;-0.015530;1.000000
445595.07200058;5696584.28879936;473.88175013;237;236;226;60395.000000;1.000000;1.000000;1.000000;1.000000;0.041201;-0.041201;0.041201;1.000000
445595.11300095;5696584.25229843;473.88084986;83;76;60;19532.000000;1.000000;1.000000;1.000000;1.000000;0.077702;-0.077702;0.077702;1.000000
445594.96390160;5696584.20089920;473.86644985;118;119;107;30069.000000;1.000000;1.000000;1.000000;1.000000;0.087025;-0.087025;0.087025;1.000000
445594.93920143;5696584.35669907;473.90915014;166;163;153;41634.000000;1.000000;1.000000;1.000000;1.000000;-0.026700;0.026700;-0.026700;1.000000
445595.13720139;5696584.72829826;473.91785004;132;136;95;33410.000000;1.000000;1.000000;1.000000;1.000000;-0.053190;0.053190;-0.053190;1.000000
445594.97330101;5696584.39559944;473.90644981;134;130;117;33153.000000;1.000000;1.000000;1.000000;1.000000;-0.065599;0.065599;-0.065599;1.000000
445594.90030106;5696584.39299973;473.91244986;60;60;52;15163.000000;1.000000;1.000000;1.000000;1.000000;-0.063000;0.063000;-0.063000;1.000000
445594.93680199;5696584.43169983;473.90994980;75;74;58;18504.000000;1.000000;1.000000;1.000000;1.000000;-0.101732;0.101732;-0.101732;1.000000
445594.89940079;5696584.43049820;473.90584995;174;175;159;44204.000000;1.000000;1.000000;1.000000;1.000000;-0.100498;0.100498;-0.100498;1.000000
445594.86180122;5696584.42929848;473.90885021;102;103;85;25700.000000;1.000000;1.000000;1.000000;1.000000;-0.100436;0.100436;-0.100436;1.000000
445595.32310112;5696584.52249916;473.87725021;86;78;67;20303.000000;1.000000;1.000000;1.000000;1.000000;-0.008724;0.008724;-0.008724;1.000000
445595.18200119;5696584.36729820;473.88525011;186;176;148;44975.000000;1.000000;1.000000;1.000000;1.000000;-0.007376;0.007376;-0.007376;1.000000
445595.25640114;5696584.33479889;473.87895014;141;125;94;32382.000000;1.000000;1.000000;1.000000;1.000000;0.036095;-0.036095;0.036095;1.000000
445595.18370255;5696584.33219917;473.87795021;137;122;97;31611.000000;1.000000;1.000000;1.000000;1.000000;-0.002595;0.002595;-0.002595;1.000000
445595.26110085;5696584.25959976;473.87825014;113;104;88;26728.000000;1.000000;1.000000;1.000000;1.000000;-0.081206;0.081206;-0.081206;1.000000
445595.29860123;5696584.26079948;473.87764980;83;68;46;17990.000000;1.000000;1.000000;1.000000;1.000000;0.070976;-0.070976;0.070976;1.000000
445595.26230057;5696584.22209938;473.87785007;197;186;168;48059.000000;1.000000;1.000000;1.000000;1.000000;-0.115669;0.115669;-0.115669;1.000000
445595.29980095;5696584.22329910;473.87725021;171;152;128;39835.000000;1.000000;1.000000;1.000000;1.000000;0.107692;-0.107692;0.107692;1.000000
445595.12920197;5696584.53319939;473.89654972;101;88;66;22873.000000;1.000000;1.000000;1.000000;1.000000;-0.060175;0.060175;-0.060175;1.000000
445594.92880066;5696584.19959839;473.86485006;88;89;82;22359.000000;1.000000;1.000000;1.000000;1.000000;0.051924;-0.051924;0.051924;1.000000
445594.78410156;5696584.29419907;473.89904978;86;86;71;21588.000000;1.000000;1.000000;1.000000;1.000000;0.099443;-0.099443;0.099443;1.000000
445594.86050232;5696584.46449860;473.90684988;171;160;139;41120.000000;1.000000;1.000000;1.000000;1.000000;-0.135492;0.135492;-0.135492;1.000000
445594.85820206;5696584.33639915;473.89825012;148;146;131;37008.000000;1.000000;1.000000;1.000000;1.000000;-0.019741;0.019741;-0.019741;1.000000
445594.82040222;5696584.33279999;473.90114977;118;114;90;28784.000000;1.000000;1.000000;1.000000;1.000000;-0.056544;0.056544;-0.056544;1.000000
445594.85720261;5696584.50449951;473.90714981;178;166;146;42919.000000;1.000000;1.000000;1.000000;1.000000;-0.175605;0.175605;-0.175605;1.000000
445594.93070229;5696584.33659943;473.89925005;147;143;131;36494.000000;1.000000;1.000000;1.000000;1.000000;-0.006599;0.006599;-0.006599;1.000000
445594.89270218;5696584.33309944;473.90444996;220;219;208;56026.000000;1.000000;1.000000;1.000000;1.000000;-0.003099;0.003099;-0.003099;1.000000
445595.37980087;5696584.52669914;473.87284996;79;74;62;19018.000000;1.000000;1.000000;1.000000;1.000000;-0.065424;0.065424;-0.065424;1.000000
445595.01500137;5696584.56469925;473.90334990;179;164;146;42662.000000;1.000000;1.000000;1.000000;1.000000;-0.174376;0.174376;-0.174376;1.000000
445595.30330093;5696584.55939873;473.87444975;142;132;120;34181.000000;1.000000;1.000000;1.000000;1.000000;0.011076;-0.011076;0.011076;1.000000
445594.85440262;5696584.37169846;473.90084984;76;77;59;19018.000000;1.000000;1.000000;1.000000;1.000000;-0.047369;0.047369;-0.047369;1.000000
445595.30210121;5696584.59689911;473.87484982;151;144;133;37008.000000;1.000000;1.000000;1.000000;1.000000;0.012276;-0.012276;0.012276;1.000000
445595.33760078;5696584.59839828;473.86945011;189;184;173;47288.000000;1.000000;1.000000;1.000000;1.000000;-0.023224;0.023224;-0.023224;1.000000
445595.00150116;5696584.62189873;473.90574982;173;159;138;41120.000000;1.000000;1.000000;1.000000;1.000000;-0.187876;0.187876;-0.187876;1.000000
445594.81440170;5696584.40989883;473.93444969;133;143;108;34952.000000;1.000000;1.000000;1.000000;1.000000;-0.101425;0.101425;-0.101425;1.000000
445595.18910225;5696584.42479904;473.90024998;143;129;90;32896.000000;1.000000;1.000000;1.000000;1.000000;-0.000275;0.000275;-0.000275;1.000000
445594.81750114;5696584.44459923;473.93724968;50;58;30;13364.000000;1.000000;1.000000;1.000000;1.000000;-0.129068;0.129068;-0.129068;1.000000
445595.07540138;5696584.66179855;473.90494968;168;164;140;41634.000000;1.000000;1.000000;1.000000;1.000000;-0.113976;0.113976;-0.113976;1.000000
445595.26170166;5696584.42739876;473.90124990;117;107;74;27242.000000;1.000000;1.000000;1.000000;1.000000;0.054762;-0.054762;0.054762;1.000000
445595.30160149;5696584.42829903;473.90074970;125;116;86;29555.000000;1.000000;1.000000;1.000000;1.000000;0.019014;-0.019014;0.019014;1.000000
445594.96470078;5696584.45029839;473.89974977;158;150;136;38550.000000;1.000000;1.000000;1.000000;1.000000;-0.120303;0.120303;-0.120303;1.000000
445595.00030144;5696584.45409973;473.89444973;127;113;93;29555.000000;1.000000;1.000000;1.000000;1.000000;-0.124110;0.124110;-0.124110;1.000000
445595.37230118;5696584.67219933;473.87424995;191;184;173;47288.000000;1.000000;1.000000;1.000000;1.000000;-0.057924;0.057924;-0.057924;1.000000
445595.16320236;5696584.57199867;473.89855005;84;67;49;17990.000000;1.000000;1.000000;1.000000;1.000000;-0.026175;0.026175;-0.026175;1.000000
445595.14910133;5696584.70159920;473.90875008;118;113;77;28270.000000;1.000000;1.000000;1.000000;1.000000;-0.040276;0.040276;-0.040276;1.000000
445595.03580101;5696584.73259933;473.94595005;148;157;101;38036.000000;1.000000;1.000000;1.000000;1.000000;0.101506;-0.101506;0.101506;1.000000
445595.18780144;5696584.46219833;473.90294983;130;115;82;29555.000000;1.000000;1.000000;1.000000;1.000000;-0.001575;0.001575;-0.001575;1.000000
445595.07140167;5696584.73629959;473.94294979;150;162;109;39064.000000;1.000000;1.000000;1.000000;1.000000;-0.093700;0.093700;-0.093700;1.000000
445595.14780243;5696584.45899971;473.90114977;178;160;131;41634.000000;1.000000;1.000000;1.000000;1.000000;-0.041574;0.041574;-0.041574;1.000000
445594.81180199;5696584.48259933;473.93514969;109;103;84;26214.000000;1.000000;1.000000;1.000000;1.000000;-0.165895;0.165895;-0.165895;1.000000
445595.22300156;5696584.46139915;473.89755013;130;119;83;30326.000000;1.000000;1.000000;1.000000;1.000000;0.033625;-0.033625;0.033625;1.000000
445594.96120079;5696584.48799904;473.90004971;201;190;170;49087.000000;1.000000;1.000000;1.000000;1.000000;-0.157999;0.157999;-0.157999;1.000000
445594.92580231;5696584.48649986;473.90304996;164;154;133;39578.000000;1.000000;1.000000;1.000000;1.000000;-0.156500;0.156500;-0.156500;1.000000
445594.88830193;5696584.48529823;473.90374996;199;188;169;48573.000000;1.000000;1.000000;1.000000;1.000000;-0.155298;0.155298;-0.155298;1.000000
445594.99880226;5696584.48919876;473.89715006;161;148;128;38293.000000;1.000000;1.000000;1.000000;1.000000;-0.159228;0.159228;-0.159228;1.000000
445595.22210129;5696584.50119980;473.89564993;90;80;57;20560.000000;1.000000;1.000000;1.000000;1.000000;0.032724;-0.032724;0.032724;1.000000
445594.99750145;5696584.52659996;473.89984991;124;111;94;29041.000000;1.000000;1.000000;1.000000;1.000000;-0.191875;0.191875;-0.191875;1.000000
445595.18320091;5696584.53519829;473.89664986;194;186;169;47802.000000;1.000000;1.000000;1.000000;1.000000;-0.006176;0.006176;-0.006176;1.000000
445595.28040131;5696584.66879852;473.88404991;136;130;118;33410.000000;1.000000;1.000000;1.000000;1.000000;0.033976;-0.033976;0.033976;1.000000
445594.81280144;5696584.38690002;473.92245008;159;165;131;40863.000000;1.000000;1.000000;1.000000;1.000000;-0.085693;0.085693;-0.085693;1.000000
445594.96010216;5696584.52769859;473.90284969;177;168;151;43176.000000;1.000000;1.000000;1.000000;1.000000;-0.197699;0.197699;-0.197699;1.000000
445595.22060211;5696584.53629883;473.89834978;108;95;72;24672.000000;1.000000;1.000000;1.000000;1.000000;0.031225;-0.031225;0.031225;1.000000
445594.85230072;5696584.23229988;473.86644985;192;189;176;48316.000000;1.000000;1.000000;1.000000;1.000000;-0.028985;0.028985;-0.028985;1.000000
445595.06630142;5696584.22399910;473.87374975;156;154;144;39321.000000;1.000000;1.000000;1.000000;1.000000;0.106001;-0.106001;0.106001;1.000000
445595.10350235;5696584.22289856;473.87535002;168;163;155;41891.000000;1.000000;1.000000;1.000000;1.000000;0.107101;-0.107101;0.107101;1.000000
445595.01550110;5696584.51799973;473.89825012;172;158;141;41120.000000;1.000000;1.000000;1.000000;1.000000;-0.173876;0.173876;-0.173876;1.000000
445595.04910095;5696584.60359962;473.90074970;108;96;76;24929.000000;1.000000;1.000000;1.000000;1.000000;-0.140276;0.140276;-0.140276;1.000000
445595.16790207;5696584.44999893;473.90424969;100;82;52;21588.000000;1.000000;1.000000;1.000000;1.000000;-0.021475;0.021475;-0.021475;1.000000
445595.17410095;5696584.30279930;473.87484982;197;187;173;48316.000000;1.000000;1.000000;1.000000;1.000000;0.027201;-0.027201;0.027201;1.000000
445595.21280106;5696584.26649864;473.87384989;135;126;113;32639.000000;1.000000;1.000000;1.000000;1.000000;0.063501;-0.063501;0.063501;1.000000
445595.33000191;5696584.37459953;473.88504984;136;127;90;32125.000000;1.000000;1.000000;1.000000;1.000000;-0.044600;0.044600;-0.044600;1.000000
445595.13310059;5696584.62619980;473.90014984;119;106;89;27756.000000;1.000000;1.000000;1.000000;1.000000;-0.056276;0.056276;-0.056276;1.000000
