//X;Y;Z;R;G;B;Intensity;Return Number;Number Of Returns;Scan Direction Flag;Point Source ID;C2M signed distances[-][<0.8];C2M signed distances[<0.4];C2M signed distances[-][<0.2];Stump49
445605.99300201;5696586.30219849;473.21124985;90;97;73;23644.000000;1.000000;1.000000;1.000000;1.000000;-0.180776;0.180776;-0.180776;1.000000
445606.00380142;5696586.26619919;473.20895006;99;112;70;26471.000000;1.000000;1.000000;1.000000;1.000000;-0.199880;0.199880;-0.199880;1.000000
445605.91160210;5696586.27039917;473.18624975;87;81;62;20560.000000;1.000000;1.000000;1.000000;1.000000;-0.114039;0.114039;-0.114039;1.000000
445605.98550137;5696586.23549850;473.18685009;155;153;128;38550.000000;1.000000;1.000000;1.000000;1.000000;-0.195484;0.195484;-0.195484;1.000000
445605.95070179;5696586.23649986;473.18295004;196;192;174;49087.000000;1.000000;1.000000;1.000000;1.000000;-0.165308;0.165308;-0.165308;1.000000
445605.91280182;5696586.23289879;473.18585016;126;121;103;30840.000000;1.000000;1.000000;1.000000;1.000000;-0.138261;0.138261;-0.138261;1.000000
445605.82160194;5696586.44199951;473.20515015;182;174;159;44718.000000;1.000000;1.000000;1.000000;1.000000;0.112232;-0.112232;0.112232;1.000000
445605.85740097;5696586.44579895;473.19754984;155;145;130;37522.000000;1.000000;1.000000;1.000000;1.000000;0.123533;-0.123533;0.123533;1.000000
445605.87520226;5696586.25969894;473.19374992;117;111;94;28270.000000;1.000000;1.000000;1.000000;1.000000;-0.092962;0.092962;-0.092962;1.000000
445605.85380180;5696586.30599983;473.19565012;158;155;140;39578.000000;1.000000;1.000000;1.000000;1.000000;-0.046156;0.046156;-0.046156;1.000000
445605.82080086;5696586.40709885;473.20235016;183;176;160;45232.000000;1.000000;1.000000;1.000000;1.000000;0.077366;-0.077366;0.077366;1.000000
445606.00160225;5696586.32009895;473.21184971;17;21;10;4626.000000;1.000000;1.000000;1.000000;1.000000;-0.187487;0.187487;-0.187487;1.000000
445605.96530159;5696586.27229889;473.19334986;147;150;119;37265.000000;1.000000;1.000000;1.000000;1.000000;-0.161579;0.161579;-0.161579;1.000000
445605.89390190;5696586.23229988;473.18965008;139;134;116;34181.000000;1.000000;1.000000;1.000000;1.000000;-0.125974;0.125974;-0.125974;1.000000
445605.83290108;5696586.33359917;473.19745018;63;58;45;14906.000000;1.000000;1.000000;1.000000;1.000000;0.018871;-0.018871;0.018871;1.000000
445605.87690170;5696586.42769821;473.19355013;180;169;155;43690.000000;1.000000;1.000000;1.000000;1.000000;0.115993;-0.115993;0.115993;1.000000
445605.87950142;5696586.35279854;473.18804981;132;127;113;32382.000000;1.000000;1.000000;1.000000;1.000000;0.069000;-0.069000;0.069000;1.000000
445605.89120110;5696586.27929886;473.19005014;127;121;105;31097.000000;1.000000;1.000000;1.000000;1.000000;-0.092047;0.092047;-0.092047;1.000000
445605.87760170;5696586.18470009;473.19294979;127;121;108;31097.000000;1.000000;1.000000;1.000000;1.000000;-0.158460;0.158460;-0.158460;1.000000
445605.95700176;5696586.28249939;473.19075014;166;167;141;41891.000000;1.000000;1.000000;1.000000;1.000000;-0.150327;0.150327;-0.150327;1.000000
445605.77700146;5696586.34099968;473.20664980;135;127;111;32639.000000;1.000000;1.000000;1.000000;1.000000;0.011000;-0.011000;0.011000;1.000000
445605.77790173;5696586.30119904;473.20855000;132;129;108;32639.000000;1.000000;1.000000;1.000000;1.000000;-0.028801;0.028801;-0.028801;1.000000
445605.77930172;5696586.26599892;473.20814993;112;110;85;27499.000000;1.000000;1.000000;1.000000;1.000000;-0.064001;0.064001;-0.064001;1.000000
445605.78280170;5696586.22829826;473.20785000;129;122;106;31354.000000;1.000000;1.000000;1.000000;1.000000;-0.093425;0.093425;-0.093425;1.000000
445605.90650185;5696586.39229973;473.18974974;171;164;151;42148.000000;1.000000;1.000000;1.000000;1.000000;0.111213;-0.111213;0.111213;1.000000
445605.94640167;5696586.31859978;473.18834974;85;82;70;20817.000000;1.000000;1.000000;1.000000;1.000000;-0.132516;0.132516;-0.132516;1.000000
445605.78520210;5696586.15329941;473.20704987;243;241;231;61680.000000;1.000000;1.000000;1.000000;1.000000;-0.095825;0.095825;-0.095825;1.000000
445605.82070168;5696586.37909897;473.19974997;179;173;160;44461.000000;1.000000;1.000000;1.000000;1.000000;0.049505;-0.049505;0.049505;1.000000
445605.85140141;5696586.15669830;473.19845011;171;167;157;42919.000000;1.000000;1.000000;1.000000;1.000000;-0.162024;0.162024;-0.162024;1.000000
445605.80340202;5696586.17269905;473.20585014;97;92;81;23644.000000;1.000000;1.000000;1.000000;1.000000;-0.114025;0.114025;-0.114025;1.000000
445605.82100113;5696586.43499954;473.20505001;173;165;150;42405.000000;1.000000;1.000000;1.000000;1.000000;0.105208;-0.105208;0.105208;1.000000
445605.85650166;5696586.43649872;473.19735004;127;117;102;30326.000000;1.000000;1.000000;1.000000;1.000000;0.114527;-0.114527;0.114527;1.000000
445606.00130089;5696586.29199989;473.21385004;78;89;57;21074.000000;1.000000;1.000000;1.000000;1.000000;-0.190747;0.190747;-0.190747;1.000000
445605.82240112;5696586.39759834;473.20004990;169;161;147;41377.000000;1.000000;1.000000;1.000000;1.000000;0.068073;-0.068073;0.068073;1.000000
445605.82370193;5696586.36019905;473.19735004;143;137;124;35209.000000;1.000000;1.000000;1.000000;1.000000;0.031606;-0.031606;0.031606;1.000000
445605.82430084;5696586.34139832;473.19714977;77;70;57;17990.000000;1.000000;1.000000;1.000000;1.000000;0.015113;-0.015113;0.015113;1.000000
445605.91420181;5696586.19779976;473.18545010;150;144;125;36751.000000;1.000000;1.000000;1.000000;1.000000;-0.165656;0.165656;-0.165656;1.000000
445605.87410172;5696586.22239883;473.19324972;164;161;145;41120.000000;1.000000;1.000000;1.000000;1.000000;-0.123065;0.123065;-0.123065;1.000000
445605.90570171;5696586.38309868;473.18734982;175;167;154;42919.000000;1.000000;1.000000;1.000000;1.000000;0.105639;-0.105639;0.105639;1.000000
445605.83400162;5696586.32179840;473.19964983;64;60;45;15163.000000;1.000000;1.000000;1.000000;1.000000;-0.021270;0.021270;-0.021270;1.000000
445605.91040142;5696586.30789955;473.18664982;161;155;139;39835.000000;1.000000;1.000000;1.000000;1.000000;-0.098535;0.098535;-0.098535;1.000000
445605.80980118;5696586.44299896;473.20935013;177;170;155;43690.000000;1.000000;1.000000;1.000000;1.000000;0.112999;-0.112999;0.112999;1.000000
445605.91520126;5696586.16029938;473.18974974;171;166;150;42405.000000;1.000000;1.000000;1.000000;1.000000;-0.197393;0.197393;-0.197393;1.000000
445605.97320183;5696586.31119926;473.20114996;22;24;12;5654.000000;1.000000;1.000000;1.000000;1.000000;-0.159934;0.159934;-0.159934;1.000000
445605.81070145;5696586.45229919;473.20944979;169;162;147;41634.000000;1.000000;1.000000;1.000000;1.000000;0.122299;-0.122299;0.122299;1.000000
445605.85920151;5696586.16529854;473.19894983;133;128;117;32896.000000;1.000000;1.000000;1.000000;1.000000;-0.169825;0.169825;-0.169825;1.000000
445605.79740150;5696586.33209999;473.20274975;49;39;24;10280.000000;1.000000;1.000000;1.000000;1.000000;0.002100;-0.002100;0.002100;1.000000
445605.98780163;5696586.26549919;473.19894983;135;143;106;34952.000000;1.000000;1.000000;1.000000;1.000000;-0.185031;0.185031;-0.185031;1.000000
445605.89240177;5696586.24179848;473.18965008;114;109;91;27756.000000;1.000000;1.000000;1.000000;1.000000;-0.117760;0.117760;-0.117760;1.000000
445605.86650093;5696586.41699989;473.19525005;177;168;155;43433.000000;1.000000;1.000000;1.000000;1.000000;0.101419;-0.101419;0.101419;1.000000
445605.77540215;5696586.37609871;473.21164991;175;169;154;43433.000000;1.000000;1.000000;1.000000;1.000000;0.046099;-0.046099;0.046099;1.000000
445605.97680099;5696586.27349861;473.19854977;133;139;105;34181.000000;1.000000;1.000000;1.000000;1.000000;-0.171971;0.171971;-0.171971;1.000000
445605.80250175;5696586.16339882;473.20795013;145;141;130;35980.000000;1.000000;1.000000;1.000000;1.000000;-0.113125;0.113125;-0.113125;1.000000
445606.00090225;5696586.31309898;473.21404984;37;43;26;10023.000000;1.000000;1.000000;1.000000;1.000000;-0.187289;0.187289;-0.187289;1.000000
445605.89050110;5696586.34479912;473.18615009;102;96;82;24672.000000;1.000000;1.000000;1.000000;1.000000;0.077549;-0.077549;0.077549;1.000000
445605.93050201;5696586.27099998;473.18475010;74;69;47;17476.000000;1.000000;1.000000;1.000000;1.000000;-0.130254;0.130254;-0.130254;1.000000
445605.93630226;5696586.31019981;473.18785002;104;99;85;25186.000000;1.000000;1.000000;1.000000;1.000000;-0.123523;0.123523;-0.123523;1.000000
445605.79710205;5696586.30409821;473.20475008;107;104;84;26214.000000;1.000000;1.000000;1.000000;1.000000;-0.025902;0.025902;-0.025902;1.000000
445605.93290146;5696586.19609840;473.18164970;119;112;93;28784.000000;1.000000;1.000000;1.000000;1.000000;-0.178823;0.178823;-0.178823;1.000000
445605.79360207;5696586.19229897;473.20554974;72;63;51;16448.000000;1.000000;1.000000;1.000000;1.000000;-0.104225;0.104225;-0.104225;1.000000
445605.78800209;5696586.33070000;473.20235016;61;52;36;13364.000000;1.000000;1.000000;1.000000;1.000000;-0.000700;0.000700;-0.000700;1.000000
445605.95480164;5696586.31069954;473.19334986;29;27;15;6682.000000;1.000000;1.000000;1.000000;1.000000;-0.141745;0.141745;-0.141745;1.000000
445605.88190086;5696586.30579956;473.19234993;150;147;132;37522.000000;1.000000;1.000000;1.000000;1.000000;-0.071730;0.071730;-0.071730;1.000000
445605.96620186;5696586.25369843;473.18615009;113;114;83;28270.000000;1.000000;1.000000;1.000000;1.000000;-0.169920;0.169920;-0.169920;1.000000
445605.88710220;5696586.18619926;473.19344999;131;126;112;32125.000000;1.000000;1.000000;1.000000;1.000000;-0.161145;0.161145;-0.161145;1.000000
445605.82850178;5696586.21249969;473.19815018;167;161;147;41377.000000;1.000000;1.000000;1.000000;1.000000;-0.118346;0.118346;-0.118346;1.000000
445605.82480152;5696586.32269867;473.19924976;56;50;35;12850.000000;1.000000;1.000000;1.000000;1.000000;-0.012727;0.012727;-0.012727;1.000000
445605.78710182;5696586.32139977;473.20214989;74;66;48;16962.000000;1.000000;1.000000;1.000000;1.000000;0.008600;-0.008600;0.008600;1.000000
445605.82580193;5696586.28519829;473.20114996;125;123;105;31097.000000;1.000000;1.000000;1.000000;1.000000;-0.046236;0.046236;-0.046236;1.000000
445605.79040154;5696586.28369911;473.20655014;142;140;117;35466.000000;1.000000;1.000000;1.000000;1.000000;0.046301;-0.046301;0.046301;1.000000
445605.82700165;5696586.24769981;473.20074989;159;155;140;39578.000000;1.000000;1.000000;1.000000;1.000000;-0.083263;0.083263;-0.083263;1.000000
445605.85800179;5696586.42709930;473.19735004;138;129;114;33410.000000;1.000000;1.000000;1.000000;1.000000;0.106449;-0.106449;0.106449;1.000000
445605.79180153;5696586.24849899;473.20615007;145;140;121;35723.000000;1.000000;1.000000;1.000000;1.000000;-0.081501;0.081501;-0.081501;1.000000
445605.85930164;5696586.38959892;473.19464972;164;157;144;40349.000000;1.000000;1.000000;1.000000;1.000000;0.074634;-0.074634;0.074634;1.000000
445605.77770145;5696586.32230003;473.20405008;76;69;52;17733.000000;1.000000;1.000000;1.000000;1.000000;-0.007700;0.007700;-0.007700;1.000000
445605.81540115;5696586.32349976;473.20114996;53;47;33;12079.000000;1.000000;1.000000;1.000000;1.000000;-0.006580;0.006580;-0.006580;1.000000
445605.81880196;5696586.28579910;473.20314981;116;114;95;28784.000000;1.000000;1.000000;1.000000;1.000000;-0.044422;0.044422;-0.044422;1.000000
445605.82000168;5696586.24829872;473.20274975;167;163;147;41634.000000;1.000000;1.000000;1.000000;1.000000;-0.081895;0.081895;-0.081895;1.000000
445605.78360184;5696586.20959862;473.20305016;175;167;153;42919.000000;1.000000;1.000000;1.000000;1.000000;-0.094225;0.094225;-0.094225;1.000000
445605.85780151;5696586.17479904;473.19665005;90;83;72;21331.000000;1.000000;1.000000;1.000000;1.000000;-0.161162;0.161162;-0.161162;1.000000
445605.78990181;5696586.30239876;473.20445015;128;125;105;31611.000000;1.000000;1.000000;1.000000;1.000000;0.027601;-0.027601;0.027601;1.000000
445605.98430164;5696586.32889946;473.19955017;19;19;12;4626.000000;1.000000;1.000000;1.000000;1.000000;-0.169928;0.169928;-0.169928;1.000000
445605.82220085;5696586.36959847;473.19735004;190;184;171;47288.000000;1.000000;1.000000;1.000000;1.000000;0.040364;-0.040364;0.040364;1.000000
445605.94840153;5696586.29029854;473.19044973;88;88;65;21845.000000;1.000000;1.000000;1.000000;1.000000;-0.139781;0.139781;-0.139781;1.000000
445605.81590088;5696586.30469902;473.20324995;117;114;97;29041.000000;1.000000;1.000000;1.000000;1.000000;-0.025347;0.025347;-0.025347;1.000000
445605.78890141;5696586.29319962;473.20655014;123;121;100;30583.000000;1.000000;1.000000;1.000000;1.000000;0.036800;-0.036800;0.036800;1.000000
445605.82670219;5696586.29439934;473.20134975;143;141;124;35723.000000;1.000000;1.000000;1.000000;1.000000;-0.037674;0.037674;-0.037674;1.000000
445605.81960114;5696586.19229897;473.19974997;84;75;63;19532.000000;1.000000;1.000000;1.000000;1.000000;-0.130224;0.130224;-0.130224;1.000000
445605.82960136;5696586.45290001;473.20564987;175;168;152;43176.000000;1.000000;1.000000;1.000000;1.000000;0.123839;-0.123839;0.123839;1.000000
445605.84700211;5696586.43509872;473.19924976;128;118;104;30583.000000;1.000000;1.000000;1.000000;1.000000;0.110046;-0.110046;0.110046;1.000000
445605.84820183;5696586.39759834;473.19654991;178;171;157;43947.000000;1.000000;1.000000;1.000000;1.000000;0.075589;-0.075589;0.075589;1.000000
445605.81410225;5696586.35869987;473.19915010;149;142;128;36494.000000;1.000000;1.000000;1.000000;1.000000;0.028700;-0.028700;0.028700;1.000000
445605.79660137;5696586.32289894;473.20265009;56;48;32;12336.000000;1.000000;1.000000;1.000000;1.000000;-0.007101;0.007101;-0.007101;1.000000
445605.76580151;5696586.17149933;473.20874979;200;196;185;50115.000000;1.000000;1.000000;1.000000;1.000000;-0.076425;0.076425;-0.076425;1.000000
445605.92550095;5696586.16869934;473.18564989;124;116;99;29812.000000;1.000000;1.000000;1.000000;1.000000;-0.195874;0.195874;-0.195874;1.000000
445605.87500198;5696586.23169907;473.19344999;156;152;135;38807.000000;1.000000;1.000000;1.000000;1.000000;-0.115492;0.115492;-0.115492;1.000000
445605.86110123;5696586.33339890;473.19404985;86;81;66;20560.000000;1.000000;1.000000;1.000000;1.000000;0.046848;-0.046848;0.046848;1.000000
445605.78440102;5696586.39629944;473.20994999;127;120;103;30840.000000;1.000000;1.000000;1.000000;1.000000;-0.066299;0.066299;-0.066299;1.000000
445605.97010143;5696586.21839912;473.18125011;150;146;125;37008.000000;1.000000;1.000000;1.000000;1.000000;-0.191585;0.191585;-0.191585;1.000000
445605.78570183;5696586.35889824;473.20725014;164;157;142;40349.000000;1.000000;1.000000;1.000000;1.000000;-0.028898;0.028898;-0.028898;1.000000
445605.89880188;5696586.33459862;473.18874981;148;143;129;36494.000000;1.000000;1.000000;1.000000;1.000000;0.084550;-0.084550;0.084550;1.000000
445605.77210148;5696586.26429947;473.21014978;111;111;82;27499.000000;1.000000;1.000000;1.000000;1.000000;-0.065701;0.065701;-0.065701;1.000000
445605.77360161;5696586.22919853;473.20744993;139;133;115;33924.000000;1.000000;1.000000;1.000000;1.000000;-0.084225;0.084225;-0.084225;1.000000
445605.77460106;5696586.18939980;473.20704987;87;80;67;20560.000000;1.000000;1.000000;1.000000;1.000000;-0.085224;0.085224;-0.085224;1.000000
445605.79290207;5696586.20879944;473.20344975;179;171;159;44204.000000;1.000000;1.000000;1.000000;1.000000;-0.103525;0.103525;-0.103525;1.000000
445605.86880119;5696586.39110001;473.19275000;132;124;111;31868.000000;1.000000;1.000000;1.000000;1.000000;0.081824;-0.081824;0.081824;1.000000
445605.93760117;5696586.29839905;473.18774988;57;54;36;13364.000000;1.000000;1.000000;1.000000;1.000000;-0.127212;0.127212;-0.127212;1.000000
445605.92600163;5696586.37419899;473.18575003;87;80;66;20560.000000;1.000000;1.000000;1.000000;1.000000;0.120057;-0.120057;0.120057;1.000000
445605.92720135;5696586.33669861;473.18545010;178;171;160;43947.000000;1.000000;1.000000;1.000000;1.000000;0.113023;-0.113023;0.113023;1.000000
445605.92960175;5696586.26179894;473.18464996;61;57;35;14135.000000;1.000000;1.000000;1.000000;1.000000;-0.133896;0.133896;-0.133896;1.000000
445605.93080147;5696586.22429855;473.18424990;182;178;161;45489.000000;1.000000;1.000000;1.000000;1.000000;-0.157250;0.157250;-0.157250;1.000000
445605.90140160;5696586.26199921;473.18804981;99;93;75;23644.000000;1.000000;1.000000;1.000000;1.000000;-0.110442;0.110442;-0.110442;1.000000
445605.75620087;5696586.16999825;473.21064999;127;123;111;31354.000000;1.000000;1.000000;1.000000;1.000000;-0.066824;0.066824;-0.066824;1.000000
445605.84080132;5696586.19269951;473.19605019;111;103;91;26728.000000;1.000000;1.000000;1.000000;1.000000;-0.139820;0.139820;-0.139820;1.000000
445605.91730125;5696586.35629852;473.18755009;106;100;87;25700.000000;1.000000;1.000000;1.000000;1.000000;0.106231;-0.106231;0.106231;1.000000
445605.90690144;5696586.34559830;473.18694975;142;136;122;34952.000000;1.000000;1.000000;1.000000;1.000000;0.093830;-0.093830;0.093830;1.000000
445605.84560211;5696586.44679840;473.20165016;155;146;131;37779.000000;1.000000;1.000000;1.000000;1.000000;0.120900;-0.120900;0.120900;1.000000
445605.86710175;5696586.22299965;473.19535019;166;162;147;41377.000000;1.000000;1.000000;1.000000;1.000000;-0.119285;0.119285;-0.119285;1.000000
445605.94930084;5696586.27389915;473.18795015;132;132;106;33153.000000;1.000000;1.000000;1.000000;1.000000;-0.146122;0.146122;-0.146122;1.000000
445605.96920212;5696586.20679863;473.17644979;162;157;135;40092.000000;1.000000;1.000000;1.000000;1.000000;-0.197862;0.197862;-0.197862;1.000000
445605.86820133;5696586.18549927;473.19495012;118;112;99;28784.000000;1.000000;1.000000;1.000000;1.000000;-0.154200;0.154200;-0.154200;1.000000
445605.77590187;5696586.15419968;473.20904972;227;225;214;57568.000000;1.000000;1.000000;1.000000;1.000000;-0.086525;0.086525;-0.086525;1.000000
445605.90370186;5696586.18699844;473.18954994;144;137;121;35209.000000;1.000000;1.000000;1.000000;1.000000;-0.168607;0.168607;-0.168607;1.000000
445605.85060127;5696586.14749916;473.19595005;210;207;198;52942.000000;1.000000;1.000000;1.000000;1.000000;-0.161224;0.161224;-0.161224;1.000000
445605.88830193;5696586.14869888;473.19304993;148;144;133;36751.000000;1.000000;1.000000;1.000000;1.000000;-0.195793;0.195793;-0.195793;1.000000
445605.87620171;5696586.19419868;473.19304993;155;151;136;38550.000000;1.000000;1.000000;1.000000;1.000000;-0.149212;0.149212;-0.149212;1.000000
445605.83530148;5696586.28659828;473.20165016;138;135;117;34181.000000;1.000000;1.000000;1.000000;1.000000;-0.048182;0.048182;-0.048182;1.000000
445605.82810219;5696586.25929840;473.20095016;170;166;151;42405.000000;1.000000;1.000000;1.000000;1.000000;-0.072022;0.072022;-0.072022;1.000000
445605.79010208;5696586.25569923;473.20615007;115;111;89;28013.000000;1.000000;1.000000;1.000000;1.000000;0.074301;-0.074301;0.074301;1.000000
445605.92830093;5696586.29919823;473.18734982;93;87;70;22102.000000;1.000000;1.000000;1.000000;1.000000;-0.118015;0.118015;-0.118015;1.000000
445605.89720161;5696586.16889961;473.19135000;168;162;149;41634.000000;1.000000;1.000000;1.000000;1.000000;-0.181144;0.181144;-0.181144;1.000000
445605.93210133;5696586.18680008;473.18155005;115;107;88;27499.000000;1.000000;1.000000;1.000000;1.000000;-0.185379;0.185379;-0.185379;1.000000
445605.89640148;5696586.15959938;473.19124987;169;163;151;41891.000000;1.000000;1.000000;1.000000;1.000000;-0.189115;0.189115;-0.189115;1.000000
445605.82330139;5696586.33209999;473.19924976;53;46;32;11822.000000;1.000000;1.000000;1.000000;1.000000;0.009168;-0.009168;0.009168;1.000000
445605.81900223;5696586.21109970;473.19994976;168;161;148;41377.000000;1.000000;1.000000;1.000000;1.000000;-0.118990;0.118990;-0.118990;1.000000
445605.82240112;5696586.17329987;473.20204975;126;118;107;30583.000000;1.000000;1.000000;1.000000;1.000000;-0.133024;0.133024;-0.133024;1.000000
445605.96700104;5696586.29309853;473.19834997;117;119;91;29555.000000;1.000000;1.000000;1.000000;1.000000;-0.157022;0.157022;-0.157022;1.000000
445605.91560181;5696586.36349876;473.18755009;90;85;71;21588.000000;1.000000;1.000000;1.000000;1.000000;0.106624;-0.106624;0.106624;1.000000
445605.90980156;5696586.32659920;473.18685009;148;143;130;36751.000000;1.000000;1.000000;1.000000;1.000000;-0.095485;0.095485;-0.095485;1.000000
445605.90870102;5696586.28939827;473.18634989;124;118;101;30069.000000;1.000000;1.000000;1.000000;1.000000;-0.102691;0.102691;-0.102691;1.000000
445605.85210140;5696586.36229904;473.19394972;146;141;128;36237.000000;1.000000;1.000000;1.000000;1.000000;0.049663;-0.049663;0.049663;1.000000
445605.91220100;5696586.25169952;473.18604996;83;78;59;19789.000000;1.000000;1.000000;1.000000;1.000000;-0.125302;0.125302;-0.125302;1.000000
445605.91340168;5696586.21419914;473.18564989;162;157;139;40092.000000;1.000000;1.000000;1.000000;1.000000;-0.152367;0.152367;-0.152367;1.000000
445605.85540207;5696586.24979980;473.19745018;161;154;140;39578.000000;1.000000;1.000000;1.000000;1.000000;-0.090084;0.090084;-0.090084;1.000000
445605.79140099;5696586.21819885;473.20344975;159;153;139;39321.000000;1.000000;1.000000;1.000000;1.000000;-0.102024;0.102024;-0.102024;1.000000
445605.96760185;5696586.30009850;473.19845011;47;49;29;11822.000000;1.000000;1.000000;1.000000;1.000000;-0.156115;0.156115;-0.156115;1.000000
445605.81280144;5696586.39609917;473.20195009;162;155;141;39835.000000;1.000000;1.000000;1.000000;1.000000;0.066099;-0.066099;0.066099;1.000000
445605.91820152;5696586.29079826;473.18674995;106;101;83;25700.000000;1.000000;1.000000;1.000000;1.000000;-0.110979;0.110979;-0.110979;1.000000
445605.82930191;5696586.22179993;473.20055010;157;151;137;38807.000000;1.000000;1.000000;1.000000;1.000000;-0.109225;0.109225;-0.109225;1.000000
445605.78290184;5696586.43139847;473.21264984;144;138;122;35466.000000;1.000000;1.000000;1.000000;1.000000;0.101398;-0.101398;0.101398;1.000000
445605.95690163;5696586.25459869;473.18575003;126;126;99;31611.000000;1.000000;1.000000;1.000000;1.000000;-0.161241;0.161241;-0.161241;1.000000
445605.79770096;5696586.28539856;473.20454981;136;134;112;33924.000000;1.000000;1.000000;1.000000;1.000000;-0.044601;0.044601;-0.044601;1.000000
445605.81730087;5696586.29529961;473.20324995;132;130;112;32896.000000;1.000000;1.000000;1.000000;1.000000;-0.034823;0.034823;-0.034823;1.000000
445605.84360130;5696586.32329948;473.19775011;77;73;57;18504.000000;1.000000;1.000000;1.000000;1.000000;-0.029983;0.029983;-0.029983;1.000000
445605.86870201;5696586.16679962;473.19705011;150;145;133;37265.000000;1.000000;1.000000;1.000000;1.000000;-0.172005;0.172005;-0.172005;1.000000
445605.90650185;5696586.16799934;473.19175007;166;160;145;41120.000000;1.000000;1.000000;1.000000;1.000000;-0.186363;0.186363;-0.186363;1.000000
445605.90630157;5696586.36429985;473.18715002;138;131;119;33667.000000;1.000000;1.000000;1.000000;1.000000;0.098115;-0.098115;0.098115;1.000000
445605.94980152;5696586.25289925;473.18545010;141;139;115;34952.000000;1.000000;1.000000;1.000000;1.000000;-0.155834;0.155834;-0.155834;1.000000
445605.81690224;5696586.31399925;473.20114996;80;75;60;19018.000000;1.000000;1.000000;1.000000;1.000000;-0.016199;0.016199;-0.016199;1.000000
445605.81790169;5696586.27649887;473.20305016;100;98;78;24672.000000;1.000000;1.000000;1.000000;1.000000;-0.053617;0.053617;-0.053617;1.000000
445605.78380211;5696586.41499908;473.21014978;153;146;130;37522.000000;1.000000;1.000000;1.000000;1.000000;-0.084999;0.084999;-0.084999;1.000000
445605.81910141;5696586.23899849;473.20265009;177;172;157;43947.000000;1.000000;1.000000;1.000000;1.000000;-0.091124;0.091124;-0.091124;1.000000
445605.78500183;5696586.20010002;473.20534994;123;115;102;29555.000000;1.000000;1.000000;1.000000;1.000000;-0.095625;0.095625;-0.095625;1.000000
445605.87040146;5696586.38159950;473.19035007;150;144;132;37008.000000;1.000000;1.000000;1.000000;1.000000;0.076166;-0.076166;0.076166;1.000000
445605.87230118;5696586.27859886;473.19385006;91;86;69;21845.000000;1.000000;1.000000;1.000000;1.000000;-0.077442;0.077442;-0.077442;1.000000
445605.83370216;5696586.34289940;473.19754984;81;75;61;19275.000000;1.000000;1.000000;1.000000;1.000000;0.023235;-0.023235;0.023235;1.000000
445605.86920174;5696586.34429939;473.19215014;102;96;81;24672.000000;1.000000;1.000000;1.000000;1.000000;0.056659;-0.056659;0.056659;1.000000
445605.82520111;5696586.30389984;473.20134975;123;119;102;30326.000000;1.000000;1.000000;1.000000;1.000000;-0.028256;0.028256;-0.028256;1.000000
445605.92410095;5696586.17819984;473.18575003;122;114;95;29298.000000;1.000000;1.000000;1.000000;1.000000;-0.187304;0.187304;-0.187304;1.000000
445606.00210197;5696586.30129822;473.21395018;63;72;47;16962.000000;1.000000;1.000000;1.000000;1.000000;-0.189907;0.189907;-0.189907;1.000000
445605.87580116;5696586.24089821;473.19355013;151;146;130;37265.000000;1.000000;1.000000;1.000000;1.000000;-0.108222;0.108222;-0.108222;1.000000
445605.75570114;5696586.18879898;473.20855000;110;103;90;26471.000000;1.000000;1.000000;1.000000;1.000000;-0.066324;0.066324;-0.066324;1.000000
445605.83910187;5696586.42639931;473.20114996;143;135;120;34695.000000;1.000000;1.000000;1.000000;1.000000;0.099520;-0.099520;0.099520;1.000000
445605.81410225;5696586.33299835;473.19885017;48;41;27;10537.000000;1.000000;1.000000;1.000000;1.000000;0.002998;-0.002998;0.002998;1.000000
445605.79270180;5696586.18299873;473.20545008;72;65;54;16705.000000;1.000000;1.000000;1.000000;1.000000;-0.103325;0.103325;-0.103325;1.000000
445605.86250122;5696586.32389839;473.19394972;83;79;63;20046.000000;1.000000;1.000000;1.000000;1.000000;-0.048510;0.048510;-0.048510;1.000000
445605.86370094;5696586.28639992;473.19355013;107;103;87;26214.000000;1.000000;1.000000;1.000000;1.000000;-0.065832;0.065832;-0.065832;1.000000
445605.78840168;5696586.51729973;473.21624996;93;80;61;20817.000000;1.000000;1.000000;1.000000;1.000000;-0.187300;0.187300;-0.187300;1.000000
445605.81210144;5696586.41479881;473.20445015;174;167;152;42919.000000;1.000000;1.000000;1.000000;1.000000;0.084799;-0.084799;0.084799;1.000000
445605.82890137;5696586.44369896;473.20314981;176;169;153;43433.000000;1.000000;1.000000;1.000000;1.000000;0.114623;-0.114623;0.114623;1.000000
445605.91910179;5696586.30009850;473.18694975;129;123;107;31611.000000;1.000000;1.000000;1.000000;1.000000;-0.108910;0.108910;-0.108910;1.000000
445605.83040150;5696586.40849884;473.20055010;181;174;159;44718.000000;1.000000;1.000000;1.000000;1.000000;0.080118;-0.080118;0.080118;1.000000
445605.81340225;5696586.37739952;473.20174982;191;185;172;47545.000000;1.000000;1.000000;1.000000;1.000000;0.047400;-0.047400;0.047400;1.000000
445605.76940163;5696586.31129845;473.21054985;77;73;54;18504.000000;1.000000;1.000000;1.000000;1.000000;-0.018702;0.018702;-0.018702;1.000000
445605.76420219;5696586.25569923;473.21204998;117;117;86;29041.000000;1.000000;1.000000;1.000000;1.000000;-0.074301;0.074301;-0.074301;1.000000
445605.81490143;5696586.34229858;473.19904997;69;61;47;15677.000000;1.000000;1.000000;1.000000;1.000000;0.012310;-0.012310;0.012310;1.000000
445605.77060135;5696586.27379997;473.21014978;138;138;110;34438.000000;1.000000;1.000000;1.000000;1.000000;-0.056200;0.056200;-0.056200;1.000000
445605.77180107;5696586.23629959;473.20974972;147;142;121;36237.000000;1.000000;1.000000;1.000000;1.000000;-0.082424;0.082424;-0.082424;1.000000
445605.77670105;5696586.16339882;473.20914986;243;242;231;61937.000000;1.000000;1.000000;1.000000;1.000000;-0.087324;0.087324;-0.087324;1.000000
445605.90960129;5696586.29859932;473.18645002;149;143;126;36494.000000;1.000000;1.000000;1.000000;1.000000;-0.100268;0.100268;-0.100268;1.000000
445605.79590137;5696586.36729820;473.20545008;196;190;175;48830.000000;1.000000;1.000000;1.000000;1.000000;0.037298;-0.037298;0.037298;1.000000
445605.91080101;5696586.26120003;473.18604996;75;69;50;17476.000000;1.000000;1.000000;1.000000;1.000000;-0.118453;0.118453;-0.118453;1.000000
445605.88330086;5696586.27059944;473.19194986;102;96;80;24672.000000;1.000000;1.000000;1.000000;1.000000;-0.090989;0.090989;-0.090989;1.000000
445605.79470165;5696586.15479858;473.20755007;232;231;220;59110.000000;1.000000;1.000000;1.000000;1.000000;-0.105325;0.105325;-0.105325;1.000000
445605.94970139;5696586.22489937;473.18044998;194;190;173;48573.000000;1.000000;1.000000;1.000000;1.000000;-0.171344;0.171344;-0.171344;1.000000
445605.91200169;5696586.22369965;473.18564989;145;141;123;35980.000000;1.000000;1.000000;1.000000;1.000000;-0.144327;0.144327;-0.144327;1.000000
445605.91560181;5696586.18829926;473.18774988;137;130;113;33410.000000;1.000000;1.000000;1.000000;1.000000;-0.174142;0.174142;-0.174142;1.000000
445605.92450150;5696586.38369949;473.18814995;112;103;89;26728.000000;1.000000;1.000000;1.000000;1.000000;0.122520;-0.122520;0.122520;1.000000
445605.76310165;5696586.21839912;473.20914986;160;153;135;39321.000000;1.000000;1.000000;1.000000;1.000000;-0.073725;0.073725;-0.073725;1.000000
445605.79100140;5696586.26489838;473.20634987;112;108;85;27242.000000;1.000000;1.000000;1.000000;1.000000;-0.065102;0.065102;-0.065102;1.000000
445605.76660164;5696586.18069847;473.20895006;138;132;120;33924.000000;1.000000;1.000000;1.000000;1.000000;-0.077225;0.077225;-0.077225;1.000000
445605.81120117;5696586.40559967;473.20424988;169;161;147;41377.000000;1.000000;1.000000;1.000000;1.000000;0.075600;-0.075600;0.075600;1.000000
445605.80620201;5696586.34999855;473.20104982;108;100;85;25700.000000;1.000000;1.000000;1.000000;1.000000;0.019999;-0.019999;0.019999;1.000000
445605.93610199;5696586.35689934;473.18604996;119;112;101;28784.000000;1.000000;1.000000;1.000000;1.000000;0.124662;-0.124662;0.124662;1.000000
445605.93730171;5696586.31939896;473.18564989;145;139;126;35723.000000;1.000000;1.000000;1.000000;1.000000;-0.123381;0.123381;-0.123381;1.000000
445605.90080173;5696586.28069885;473.18825008;126;119;101;30583.000000;1.000000;1.000000;1.000000;1.000000;-0.099498;0.099498;-0.099498;1.000000
445605.93970116;5696586.24449928;473.18484976;177;174;154;44204.000000;1.000000;1.000000;1.000000;1.000000;-0.151712;0.151712;-0.151712;1.000000
445605.97710140;5696586.24569901;473.18655016;128;129;100;32125.000000;1.000000;1.000000;1.000000;1.000000;-0.183265;0.183265;-0.183265;1.000000
445605.80730160;5696586.31250008;473.20295002;82;75;58;19275.000000;1.000000;1.000000;1.000000;1.000000;-0.017500;0.017500;-0.017500;1.000000
445605.90550144;5696586.20559891;473.18755009;149;144;125;36751.000000;1.000000;1.000000;1.000000;1.000000;-0.154205;0.154205;-0.154205;1.000000
445605.86620148;5696586.21379860;473.19514992;169;166;151;42405.000000;1.000000;1.000000;1.000000;1.000000;-0.127234;0.127234;-0.127234;1.000000
445605.92700203;5696586.30869873;473.18505003;127;120;105;30840.000000;1.000000;1.000000;1.000000;1.000000;-0.114622;0.114622;-0.114622;1.000000
445605.86190136;5696586.34269913;473.19414999;92;87;73;22102.000000;1.000000;1.000000;1.000000;1.000000;0.049192;-0.049192;0.049192;1.000000
445605.82640179;5696586.26639946;473.20095016;146;143;125;36237.000000;1.000000;1.000000;1.000000;1.000000;-0.064727;0.064727;-0.064727;1.000000
445605.84750183;5696586.24109848;473.19924976;145;141;128;35980.000000;1.000000;1.000000;1.000000;1.000000;-0.094872;0.094872;-0.094872;1.000000
445605.95120152;5696586.21549995;473.18034985;172;168;149;42919.000000;1.000000;1.000000;1.000000;1.000000;-0.178413;0.178413;-0.178413;1.000000
445605.86740120;5696586.17629822;473.19474985;105;99;87;25443.000000;1.000000;1.000000;1.000000;1.000000;-0.162591;0.162591;-0.162591;1.000000
445605.89970215;5696586.26919945;473.18804981;112;105;88;26985.000000;1.000000;1.000000;1.000000;1.000000;-0.104772;0.104772;-0.104772;1.000000
445605.89830215;5696586.35339935;473.18664982;128;122;108;31354.000000;1.000000;1.000000;1.000000;1.000000;0.087126;-0.087126;0.087126;1.000000
445605.93840225;5696586.28189857;473.18755009;103;99;76;24929.000000;1.000000;1.000000;1.000000;1.000000;-0.133026;0.133026;-0.133026;1.000000
445605.86560162;5696586.23249825;473.19535019;157;152;136;38807.000000;1.000000;1.000000;1.000000;1.000000;-0.110139;0.110139;-0.110139;1.000000
445605.94110115;5696586.20709999;473.17985012;152;145;126;37265.000000;1.000000;1.000000;1.000000;1.000000;-0.176532;0.176532;-0.176532;1.000000
445605.86910160;5696586.19479950;473.19504978;152;148;134;37779.000000;1.000000;1.000000;1.000000;1.000000;-0.145856;0.145856;-0.145856;1.000000
445605.90470131;5696586.19629868;473.18734982;149;143;126;36494.000000;1.000000;1.000000;1.000000;1.000000;-0.161352;0.161352;-0.161352;1.000000
445605.90510185;5696586.17749985;473.18954994;145;138;123;35466.000000;1.000000;1.000000;1.000000;1.000000;-0.177447;0.177447;-0.177447;1.000000
445605.91580208;5696586.39139946;473.19014980;156;148;134;38036.000000;1.000000;1.000000;1.000000;1.000000;0.118562;-0.118562;0.118562;1.000000
445605.94510086;5696586.32809837;473.18615009;119;114;104;29298.000000;1.000000;1.000000;1.000000;1.000000;-0.130738;0.130738;-0.130738;1.000000
445605.86010178;5696586.39889915;473.19474985;164;158;144;40606.000000;1.000000;1.000000;1.000000;1.000000;0.082691;-0.082691;0.082691;1.000000
445605.85910137;5696586.36159904;473.19194986;164;160;146;40863.000000;1.000000;1.000000;1.000000;1.000000;0.054761;-0.054761;0.054761;1.000000
445605.86500175;5696586.25119980;473.19554998;150;144;129;37008.000000;1.000000;1.000000;1.000000;1.000000;-0.093661;0.093661;-0.093661;1.000000
445605.81710155;5696586.26719864;473.20284988;127;124;105;31354.000000;1.000000;1.000000;1.000000;1.000000;-0.062860;0.062860;-0.062860;1.000000
445605.85480125;5696586.26849945;473.19764997;125;121;106;30840.000000;1.000000;1.000000;1.000000;1.000000;-0.073597;0.073597;-0.073597;1.000000
445605.81830223;5696586.22979935;473.20254995;179;173;159;44461.000000;1.000000;1.000000;1.000000;1.000000;-0.100278;0.100278;-0.100278;1.000000
445605.78730209;5696586.34939964;473.20484974;132;125;110;32125.000000;1.000000;1.000000;1.000000;1.000000;-0.019400;0.019400;-0.019400;1.000000
445605.83400162;5696586.29609879;473.19934990;155;153;137;38807.000000;1.000000;1.000000;1.000000;1.000000;-0.039172;0.039172;-0.039172;1.000000
445605.79850204;5696586.29459961;473.20475008;121;118;98;29812.000000;1.000000;1.000000;1.000000;1.000000;-0.035400;0.035400;-0.035400;1.000000
445605.97540100;5696586.25509842;473.19124987;124;127;93;31354.000000;1.000000;1.000000;1.000000;1.000000;-0.177592;0.177592;-0.177592;1.000000
445605.83740147;5696586.25840004;473.20134975;178;174;159;44461.000000;1.000000;1.000000;1.000000;1.000000;-0.075211;0.075211;-0.075211;1.000000
445605.82380112;5696586.31339844;473.20144989;78;73;57;18504.000000;1.000000;1.000000;1.000000;1.000000;-0.019090;0.019090;-0.019090;1.000000
445605.91420181;5696586.40089996;473.19254972;177;169;156;43433.000000;1.000000;1.000000;1.000000;1.000000;0.122441;-0.122441;0.122441;1.000000
445605.87680157;5696586.39969833;473.19084980;145;137;125;35466.000000;1.000000;1.000000;1.000000;1.000000;0.093567;-0.093567;0.093567;1.000000
445605.79970177;5696586.25719841;473.20435001;132;127;107;32382.000000;1.000000;1.000000;1.000000;1.000000;-0.072802;0.072802;-0.072802;1.000000
445605.78850182;5696586.31189926;473.20445015;119;113;95;28784.000000;1.000000;1.000000;1.000000;1.000000;0.018101;-0.018101;0.018101;1.000000
445605.80090149;5696586.21969994;473.20394995;166;160;146;41120.000000;1.000000;1.000000;1.000000;1.000000;-0.110300;0.110300;-0.110300;1.000000
445605.82720192;5696586.27559860;473.20344975;113;110;91;27756.000000;1.000000;1.000000;1.000000;1.000000;-0.055893;0.055893;-0.055893;1.000000
445605.84250172;5696586.36079987;473.19584991;136;131;118;33667.000000;1.000000;1.000000;1.000000;1.000000;0.041709;-0.041709;0.041709;1.000000
445605.97530182;5696586.28299912;473.20095016;145;151;118;37265.000000;1.000000;1.000000;1.000000;1.000000;-0.167648;0.167648;-0.167648;1.000000
445605.96870144;5696586.22779854;473.18134977;167;164;143;41634.000000;1.000000;1.000000;1.000000;1.000000;-0.185098;0.185098;-0.185098;1.000000
445605.83870132;5696586.22089966;473.19864990;157;153;138;39064.000000;1.000000;1.000000;1.000000;1.000000;-0.111779;0.111779;-0.111779;1.000000
445605.87910088;5696586.32479866;473.19005014;111;107;93;27242.000000;1.000000;1.000000;1.000000;1.000000;-0.064933;0.064933;-0.064933;1.000000
445605.88260086;5696586.28709991;473.18974974;109;104;89;26471.000000;1.000000;1.000000;1.000000;1.000000;-0.080591;0.080591;-0.080591;1.000000
445605.83190163;5696586.17479904;473.20015003;123;116;105;29812.000000;1.000000;1.000000;1.000000;1.000000;-0.142525;0.142525;-0.142525;1.000000
445605.78950127;5696586.27439888;473.20634987;143;141;117;35466.000000;1.000000;1.000000;1.000000;1.000000;0.055601;-0.055601;0.055601;1.000000
445605.98290165;5696586.29149826;473.20604994;135;142;111;34952.000000;1.000000;1.000000;1.000000;1.000000;-0.172867;0.172867;-0.172867;1.000000
445605.87730225;5696586.38099869;473.19065001;135;129;116;33153.000000;1.000000;1.000000;1.000000;1.000000;0.080997;-0.080997;0.080997;1.000000
445605.88390167;5696586.25189980;473.19175007;134;128;111;32639.000000;1.000000;1.000000;1.000000;1.000000;-0.104563;0.104563;-0.104563;1.000000
445605.80120094;5696586.42509850;473.20874979;159;151;136;38807.000000;1.000000;1.000000;1.000000;1.000000;0.095098;-0.095098;0.095098;1.000000
445605.84970100;5696586.21289833;473.19675018;164;159;145;40606.000000;1.000000;1.000000;1.000000;1.000000;-0.122313;0.122313;-0.122313;1.000000
445605.88490112;5696586.21209915;473.19135000;146;143;126;36494.000000;1.000000;1.000000;1.000000;1.000000;-0.137384;0.137384;-0.137384;1.000000
445605.83760174;5696586.43589981;473.20114996;148;139;124;35980.000000;1.000000;1.000000;1.000000;1.000000;0.108417;-0.108417;0.108417;1.000000
445605.83890160;5696586.39839943;473.19845011;172;165;151;42405.000000;1.000000;1.000000;1.000000;1.000000;0.072663;-0.072663;0.072663;1.000000
445605.81050117;5696586.42429932;473.20674994;168;161;145;41377.000000;1.000000;1.000000;1.000000;1.000000;0.094299;-0.094299;0.094299;1.000000
445605.79220207;5696586.22749908;473.20594980;127;121;106;31097.000000;1.000000;1.000000;1.000000;1.000000;-0.102501;0.102501;-0.102501;1.000000
445605.83980186;5696586.18349846;473.19824984;87;79;68;20560.000000;1.000000;1.000000;1.000000;1.000000;-0.148691;0.148691;-0.148691;1.000000
445605.80470093;5696586.35949905;473.20114996;153;146;132;37522.000000;1.000000;1.000000;1.000000;1.000000;0.029499;-0.029499;0.029499;1.000000
445605.82760151;5696586.22889908;473.20055010;154;149;135;38036.000000;1.000000;1.000000;1.000000;1.000000;-0.101962;0.101962;-0.101962;1.000000
445605.80590160;5696586.32199867;473.20074989;48;41;26;10537.000000;1.000000;1.000000;1.000000;1.000000;-0.008001;0.008001;-0.008001;1.000000
445605.84470184;5696586.28579910;473.19974997;137;134;118;34181.000000;1.000000;1.000000;1.000000;1.000000;-0.053603;0.053603;-0.053603;1.000000
445605.79070099;5696586.23689850;473.20604994;138;133;116;33924.000000;1.000000;1.000000;1.000000;1.000000;0.093102;-0.093102;0.093102;1.000000
445605.79220207;5696586.20179947;473.20335009;129;121;109;31354.000000;1.000000;1.000000;1.000000;1.000000;-0.102825;0.102825;-0.102825;1.000000
445605.82300194;5696586.15459831;473.20184996;134;131;120;33410.000000;1.000000;1.000000;1.000000;1.000000;-0.133625;0.133625;-0.133625;1.000000
445605.81190117;5696586.38690002;473.20174982;166;159;145;40863.000000;1.000000;1.000000;1.000000;1.000000;0.056900;-0.056900;0.056900;1.000000
445605.81040199;5696586.24679955;473.20464994;177;172;155;43947.000000;1.000000;1.000000;1.000000;1.000000;-0.083200;0.083200;-0.083200;1.000000
445605.77410133;5696586.20809944;473.20494987;154;146;131;37522.000000;1.000000;1.000000;1.000000;1.000000;-0.084724;0.084724;-0.084724;1.000000
445605.85080154;5696586.17539986;473.19864990;86;80;69;20560.000000;1.000000;1.000000;1.000000;1.000000;-0.158833;0.158833;-0.158833;1.000000
445605.86610134;5696586.43799980;473.19544985;145;134;118;34695.000000;1.000000;1.000000;1.000000;1.000000;0.119747;-0.119747;0.119747;1.000000
445605.92110165;5696586.27189835;473.18664982;74;69;49;17476.000000;1.000000;1.000000;1.000000;1.000000;-0.121515;0.121515;-0.121515;1.000000
445605.93500145;5696586.34529884;473.18585016;157;150;139;38550.000000;1.000000;1.000000;1.000000;1.000000;0.121591;-0.121591;0.121591;1.000000
445605.92240150;5696586.23439987;473.18394997;147;142;124;36237.000000;1.000000;1.000000;1.000000;1.000000;-0.144252;0.144252;-0.144252;1.000000
445605.90100105;5696586.30649956;473.18615009;159;154;139;39321.000000;1.000000;1.000000;1.000000;1.000000;-0.089755;0.089755;-0.089755;1.000000
445605.94120224;5696586.23499878;473.18244984;194;190;173;48573.000000;1.000000;1.000000;1.000000;1.000000;-0.158461;0.158461;-0.158461;1.000000
445605.97870167;5696586.23619850;473.18424990;155;153;130;38807.000000;1.000000;1.000000;1.000000;1.000000;-0.189212;0.189212;-0.189212;1.000000
445605.90350159;5696586.23379906;473.18774988;122;117;99;29812.000000;1.000000;1.000000;1.000000;1.000000;-0.131141;0.131141;-0.131141;1.000000
445605.92360123;5696586.19689949;473.18354990;132;125;107;32125.000000;1.000000;1.000000;1.000000;1.000000;-0.172179;0.172179;-0.172179;1.000000
445605.96710213;5696586.23729904;473.18365004;162;160;138;40606.000000;1.000000;1.000000;1.000000;1.000000;-0.178657;0.178657;-0.178657;1.000000
445605.86060150;5696586.35219963;473.19184973;115;110;95;28013.000000;1.000000;1.000000;1.000000;1.000000;0.051279;-0.051279;0.051279;1.000000
445605.88640221;5696586.42909821;473.19394972;180;170;157;43947.000000;1.000000;1.000000;1.000000;1.000000;0.122508;-0.122508;0.122508;1.000000
445605.76810177;5696586.32079895;473.20834972;60;53;36;13621.000000;1.000000;1.000000;1.000000;1.000000;-0.009201;0.009201;-0.009201;1.000000
445605.86170204;5696586.31469925;473.19385006;120;117;101;29812.000000;1.000000;1.000000;1.000000;1.000000;-0.049737;0.049737;-0.049737;1.000000
445605.89940174;5696586.31589897;473.18855001;162;157;144;40349.000000;1.000000;1.000000;1.000000;1.000000;-0.086186;0.086186;-0.086186;1.000000
445605.91500099;5696586.38219841;473.18774988;126;120;105;30840.000000;1.000000;1.000000;1.000000;1.000000;0.113357;-0.113357;0.113357;1.000000
445605.85690125;5696586.24029930;473.19735004;150;144;129;37008.000000;1.000000;1.000000;1.000000;1.000000;-0.099270;0.099270;-0.099270;1.000000
445605.87270172;5696586.30669983;473.19184973;163;160;145;40863.000000;1.000000;1.000000;1.000000;1.000000;-0.062807;0.062807;-0.062807;1.000000
445605.77150162;5696586.28299912;473.21035006;155;155;128;39064.000000;1.000000;1.000000;1.000000;1.000000;-0.047001;0.047001;-0.047001;1.000000
445605.86540134;5696586.27929886;473.19355013;82;77;61;19532.000000;1.000000;1.000000;1.000000;1.000000;-0.071931;0.071931;-0.071931;1.000000
445605.86770161;5696586.20430000;473.19514992;166;162;147;41377.000000;1.000000;1.000000;1.000000;1.000000;-0.136543;0.136543;-0.136543;1.000000
445605.90700157;5696586.37129982;473.18725016;161;155;141;39835.000000;1.000000;1.000000;1.000000;1.000000;0.101415;-0.101415;0.101415;1.000000
445605.78970154;5696586.47979935;473.21355011;144;136;116;34952.000000;1.000000;1.000000;1.000000;1.000000;-0.149799;0.149799;-0.149799;1.000000
445605.79390152;5696586.17119987;473.20764973;126;122;111;31097.000000;1.000000;1.000000;1.000000;1.000000;-0.104525;0.104525;-0.104525;1.000000
445605.81350143;5696586.35169991;473.19904997;101;93;79;23901.000000;1.000000;1.000000;1.000000;1.000000;0.021700;-0.021700;0.021700;1.000000
445605.77030190;5696586.24579819;473.20984985;139;137;113;34438.000000;1.000000;1.000000;1.000000;1.000000;-0.080925;0.080925;-0.080925;1.000000
445605.80920227;5696586.28429993;473.20505001;125;123;103;31097.000000;1.000000;1.000000;1.000000;1.000000;-0.045700;0.045700;-0.045700;1.000000
445605.77500160;5696586.17059906;473.20914986;226;222;211;56797.000000;1.000000;1.000000;1.000000;1.000000;-0.085625;0.085625;-0.085625;1.000000
445605.90490158;5696586.40179832;473.19215014;184;177;164;45489.000000;1.000000;1.000000;1.000000;1.000000;0.115541;-0.115541;0.115541;1.000000
445605.90840157;5696586.33609970;473.18685009;165;159;146;40863.000000;1.000000;1.000000;1.000000;1.000000;0.094222;-0.094222;0.094222;1.000000
445605.86950119;5696586.39799889;473.19285013;144;137;124;35209.000000;1.000000;1.000000;1.000000;1.000000;0.087536;-0.087536;0.087536;1.000000
445605.94830139;5696586.26239975;473.18545010;114;112;87;28013.000000;1.000000;1.000000;1.000000;1.000000;-0.150019;0.150019;-0.150019;1.000000
445605.95770176;5696586.23589905;473.18094971;182;179;159;45489.000000;1.000000;1.000000;1.000000;1.000000;-0.171456;0.171456;-0.171456;1.000000
445605.83300217;5696586.35929878;473.19535019;134;129;116;33153.000000;1.000000;1.000000;1.000000;1.000000;0.034718;-0.034718;0.034718;1.000000
445605.79100140;5696586.44240006;473.21075012;176;170;153;43433.000000;1.000000;1.000000;1.000000;1.000000;0.112400;-0.112400;0.112400;1.000000
445605.85820206;5696586.20279892;473.19464972;141;136;122;34695.000000;1.000000;1.000000;1.000000;1.000000;-0.134539;0.134539;-0.134539;1.000000
445605.79230125;5696586.40489967;473.20804979;135;128;112;32896.000000;1.000000;1.000000;1.000000;1.000000;0.074900;-0.074900;0.074900;1.000000
445605.87550171;5696586.43719872;473.19355013;172;162;147;41891.000000;1.000000;1.000000;1.000000;1.000000;0.123401;-0.123401;0.123401;1.000000
445605.89360149;5696586.20430000;473.18925001;133;129;111;32896.000000;1.000000;1.000000;1.000000;1.000000;-0.148583;0.148583;-0.148583;1.000000
445605.95130165;5696586.18979843;473.17544987;122;113;92;29041.000000;1.000000;1.000000;1.000000;1.000000;-0.195972;0.195972;-0.195972;1.000000
445605.78250130;5696586.45249947;473.21285011;164;157;140;40349.000000;1.000000;1.000000;1.000000;1.000000;0.122499;-0.122499;0.122499;1.000000
445605.87800224;5696586.36229904;473.18814995;177;172;160;44204.000000;1.000000;1.000000;1.000000;1.000000;0.071354;-0.071354;0.071354;1.000000
445605.87380226;5696586.26909836;473.19385006;93;86;70;22102.000000;1.000000;1.000000;1.000000;1.000000;-0.085090;0.085090;-0.085090;1.000000
445605.95990189;5696586.20769890;473.17834999;159;153;132;39064.000000;1.000000;1.000000;1.000000;1.000000;-0.190092;0.190092;-0.190092;1.000000
445605.80130203;5696586.45309837;473.21134998;163;158;141;40349.000000;1.000000;1.000000;1.000000;1.000000;0.123098;-0.123098;0.123098;1.000000
445605.81800087;5696586.45399864;473.20744993;175;168;152;43176.000000;1.000000;1.000000;1.000000;1.000000;0.124052;-0.124052;0.124052;1.000000
445605.80210121;5696586.18219955;473.20354988;69;62;51;15934.000000;1.000000;1.000000;1.000000;1.000000;-0.112724;0.112724;-0.112724;1.000000
445605.83250149;5696586.15609940;473.19994976;118;115;104;29298.000000;1.000000;1.000000;1.000000;1.000000;-0.143125;0.143125;-0.143125;1.000000
445605.87210091;5696586.32539948;473.19205000;89;85;69;21588.000000;1.000000;1.000000;1.000000;1.000000;-0.057907;0.057907;-0.057907;1.000000
445605.99620159;5696586.25539978;473.19915010;102;113;72;26985.000000;1.000000;1.000000;1.000000;1.000000;-0.196533;0.196533;-0.196533;1.000000
445605.95540150;5696586.29189880;473.19315006;108;109;84;26985.000000;1.000000;1.000000;1.000000;1.000000;-0.146081;0.146081;-0.146081;1.000000
445605.80040176;5696586.41589935;473.20624973;160;152;138;39064.000000;1.000000;1.000000;1.000000;1.000000;0.085899;-0.085899;0.085899;1.000000
445605.86950119;5696586.37239845;473.19024994;174;170;157;43433.000000;1.000000;1.000000;1.000000;1.000000;0.069544;-0.069544;0.069544;1.000000
445605.97610100;5696586.29219826;473.20104982;128;133;104;32896.000000;1.000000;1.000000;1.000000;1.000000;-0.166083;0.166083;-0.166083;1.000000
445605.77090176;5696586.30179985;473.21054985;96;94;73;23644.000000;1.000000;1.000000;1.000000;1.000000;-0.028200;0.028200;-0.028200;1.000000
445606.00450142;5696586.27539833;473.21145012;122;136;94;32639.000000;1.000000;1.000000;1.000000;1.000000;-0.197810;0.197810;-0.197810;1.000000
445605.98620136;5696586.30289848;473.20865013;93;99;74;24158.000000;1.000000;1.000000;1.000000;1.000000;-0.173949;0.173949;-0.173949;1.000000
