//X;Y;Z;R;G;B;Intensity;Return Number;Number Of Returns;Scan Direction Flag;Point Source ID;C2M signed distances[-][<0.8];C2M signed distances[<0.4];C2M signed distances[-][<0.2];Stump99
445624.79190071;5696593.74749954;472.36284973;123;115;101;29555.000000;1.000000;1.000000;1.000000;1.000000;-0.142531;0.142531;-0.142531;1.000000
445624.86650093;5696593.74299820;472.35685017;104;91;78;23901.000000;1.000000;1.000000;1.000000;1.000000;-0.096447;0.096447;-0.096447;1.000000
445624.71310242;5696593.83859833;472.38135006;128;125;110;31868.000000;1.000000;1.000000;1.000000;1.000000;-0.195025;0.195025;-0.195025;1.000000
445625.04470070;5696593.70290001;472.36674978;146;159;117;38550.000000;1.000000;1.000000;1.000000;1.000000;-0.134120;0.134120;-0.134120;1.000000
445625.05130203;5696593.79809959;472.36584999;63;60;48;15163.000000;1.000000;1.000000;1.000000;1.000000;-0.058825;0.058825;-0.058825;1.000000
445624.91530235;5696593.92949875;472.38924982;97;93;85;23901.000000;1.000000;1.000000;1.000000;1.000000;0.007175;-0.007175;0.007175;1.000000
445624.98030098;5696593.70909889;472.35694983;136;130;104;32896.000000;1.000000;1.000000;1.000000;1.000000;-0.120901;0.120901;-0.120901;1.000000
445624.98150070;5696593.67159851;472.35654976;172;171;148;43176.000000;1.000000;1.000000;1.000000;1.000000;-0.158401;0.158401;-0.158401;1.000000
445624.95650108;5696593.82049950;472.38975002;191;181;164;46774.000000;1.000000;1.000000;1.000000;1.000000;-0.009501;0.009501;-0.009501;1.000000
445624.84770210;5696593.74009903;472.35365011;76;63;49;16705.000000;1.000000;1.000000;1.000000;1.000000;-0.108321;0.108321;-0.108321;1.000000
445624.84890182;5696593.70489891;472.35794975;46;33;26;9252.000000;1.000000;1.000000;1.000000;1.000000;-0.138412;0.138412;-0.138412;1.000000
445624.96160133;5696593.70849998;472.35605003;147;134;111;34695.000000;1.000000;1.000000;1.000000;1.000000;-0.121500;0.121500;-0.121500;1.000000
445625.04700096;5696593.88019951;472.37365009;150;149;138;38036.000000;1.000000;1.000000;1.000000;1.000000;0.067499;-0.067499;0.067499;1.000000
445624.92650230;5696593.63239868;472.35354998;126;117;98;30069.000000;1.000000;1.000000;1.000000;1.000000;-0.197601;0.197601;-0.197601;1.000000
445624.95400246;5696593.89549835;472.39284994;57;55;50;14135.000000;1.000000;1.000000;1.000000;1.000000;0.045875;-0.045875;0.045875;1.000000
445624.75060089;5696593.83979996;472.38075020;113;110;92;27756.000000;1.000000;1.000000;1.000000;1.000000;-0.157526;0.157526;-0.157526;1.000000
445624.93910225;5696593.80819901;472.38654997;182;170;153;43947.000000;1.000000;1.000000;1.000000;1.000000;-0.021801;0.021801;-0.021801;1.000000
445625.03090103;5696593.80699928;472.36964991;89;87;75;22102.000000;1.000000;1.000000;1.000000;1.000000;-0.037032;0.037032;-0.037032;1.000000
445624.85920151;5696593.92779930;472.38434984;180;177;166;45232.000000;1.000000;1.000000;1.000000;1.000000;-0.048926;0.048926;-0.048926;1.000000
445624.71230133;5696593.88299950;472.38644983;134;131;118;33410.000000;1.000000;1.000000;1.000000;1.000000;-0.195826;0.195826;-0.195826;1.000000
445624.82310112;5696593.88909920;472.37995007;168;162;150;41634.000000;1.000000;1.000000;1.000000;1.000000;-0.085026;0.085026;-0.085026;1.000000
445624.78670128;5696593.85049828;472.38014986;65;58;40;14906.000000;1.000000;1.000000;1.000000;1.000000;-0.121426;0.121426;-0.121426;1.000000
445624.86620148;5696593.95509918;472.38964989;136;131;117;33410.000000;1.000000;1.000000;1.000000;1.000000;-0.041926;0.041926;-0.041926;1.000000
445624.75710114;5696593.91379936;472.39115002;144;138;124;35466.000000;1.000000;1.000000;1.000000;1.000000;-0.151026;0.151026;-0.151026;1.000000
445624.90730103;5696593.84609993;472.39255001;108;96;81;24929.000000;1.000000;1.000000;1.000000;1.000000;-0.000826;0.000826;-0.000826;1.000000
445624.84400185;5696593.86149986;472.37815001;141;134;122;34438.000000;1.000000;1.000000;1.000000;1.000000;-0.064126;0.064126;-0.064126;1.000000
445624.97560127;5696593.82119949;472.38364985;157;149;132;38293.000000;1.000000;1.000000;1.000000;1.000000;-0.009645;0.009645;-0.009645;1.000000
445624.61860092;5696594.53229912;472.49475004;135;149;114;35980.000000;1.000000;1.000000;1.000000;1.000000;-0.164526;0.164526;-0.164526;1.000000
445624.91860207;5696594.04119881;472.39304974;158;153;140;39321.000000;1.000000;1.000000;1.000000;1.000000;0.010475;-0.010475;0.010475;1.000000
445624.82650192;5696594.00999840;472.40014984;157;149;135;38293.000000;1.000000;1.000000;1.000000;1.000000;-0.081625;0.081625;-0.081625;1.000000
445624.88370140;5696593.96739967;472.39055016;144;138;125;35466.000000;1.000000;1.000000;1.000000;1.000000;-0.024426;0.024426;-0.024426;1.000000
445624.58640106;5696594.42819984;472.47345020;98;116;67;26985.000000;1.000000;1.000000;1.000000;1.000000;-0.192420;0.192420;-0.192420;1.000000
445624.58830078;5696594.55839928;472.49604990;144;154;121;37779.000000;1.000000;1.000000;1.000000;1.000000;-0.194827;0.194827;-0.194827;1.000000
445624.62590225;5696594.55970009;472.49314978;72;80;51;19018.000000;1.000000;1.000000;1.000000;1.000000;-0.157225;0.157225;-0.157225;1.000000
445624.69560249;5696594.25729950;472.44605019;165;157;146;40606.000000;1.000000;1.000000;1.000000;1.000000;0.091936;-0.091936;0.091936;1.000000
445624.58800133;5696594.35379990;472.44005014;108;103;84;26214.000000;1.000000;1.000000;1.000000;1.000000;-0.165595;0.165595;-0.165595;1.000000
445624.56920250;5696594.35319908;472.44154980;113;108;87;27499.000000;1.000000;1.000000;1.000000;1.000000;-0.184142;0.184142;-0.184142;1.000000
445624.84890182;5696594.36699875;472.43564989;205;185;163;48316.000000;1.000000;1.000000;1.000000;1.000000;0.037143;-0.037143;0.037143;1.000000
445625.03140076;5696594.01919945;472.38625004;134;132;123;33667.000000;1.000000;1.000000;1.000000;1.000000;-0.029523;0.029523;-0.029523;1.000000
445624.59180077;5696594.52069862;472.49574997;70;85;49;19532.000000;1.000000;1.000000;1.000000;1.000000;-0.191327;0.191327;-0.191327;1.000000
445624.81500061;5696594.49349983;472.46595003;164;160;151;41120.000000;1.000000;1.000000;1.000000;1.000000;0.031873;-0.031873;0.031873;1.000000
445624.67570122;5696594.50630005;472.47144987;61;67;39;15934.000000;1.000000;1.000000;1.000000;1.000000;-0.107426;0.107426;-0.107426;1.000000
445625.03280075;5696593.98179825;472.38114979;169;165;156;42405.000000;1.000000;1.000000;1.000000;1.000000;-0.030923;0.030923;-0.030923;1.000000
445625.03800209;5696594.50539978;472.47144987;158;164;129;40606.000000;1.000000;1.000000;1.000000;1.000000;-0.036125;0.036125;-0.036125;1.000000
445624.86200150;5696594.06729897;472.40474989;131;119;104;30840.000000;1.000000;1.000000;1.000000;1.000000;-0.046126;0.046126;-0.046126;1.000000
445624.77790077;5696594.49239929;472.45725014;145;144;128;36494.000000;1.000000;1.000000;1.000000;1.000000;-0.005227;0.005227;-0.005227;1.000000
445624.90670212;5696594.32919891;472.42385008;228;218;202;56283.000000;1.000000;1.000000;1.000000;1.000000;-0.000801;0.000801;-0.000801;1.000000
445624.90830238;5696594.29409988;472.41884996;135;121;106;31611.000000;1.000000;1.000000;1.000000;1.000000;0.035900;-0.035900;0.035900;1.000000
445624.77430161;5696594.13819893;472.42254974;45;33;26;8995.000000;1.000000;1.000000;1.000000;1.000000;-0.133826;0.133826;-0.133826;1.000000
445624.89300163;5696594.45799835;472.47835018;194;186;169;47802.000000;1.000000;1.000000;1.000000;1.000000;-0.015126;0.015126;-0.015126;1.000000
445624.76110085;5696594.24919899;472.42794992;158;149;135;38550.000000;1.000000;1.000000;1.000000;1.000000;-0.080801;0.080801;-0.080801;1.000000
445624.96870239;5696594.42589958;472.44175007;163;152;133;39321.000000;1.000000;1.000000;1.000000;1.000000;0.056436;-0.056436;0.056436;1.000000
445624.70060165;5696594.57179840;472.46864988;133;131;106;32896.000000;1.000000;1.000000;1.000000;1.000000;-0.082526;0.082526;-0.082526;1.000000
445625.04900177;5696594.25059898;472.42234995;166;156;140;40349.000000;1.000000;1.000000;1.000000;1.000000;-0.047124;0.047124;-0.047124;1.000000
445625.02300079;5696594.02929886;472.38595011;117;114;105;29041.000000;1.000000;1.000000;1.000000;1.000000;-0.021123;0.021123;-0.021123;1.000000
445624.78250130;5696594.41719826;472.45884993;79;77;68;19532.000000;1.000000;1.000000;1.000000;1.000000;-0.000626;0.000626;-0.000626;1.000000
445624.72690208;5696594.21019943;472.43064978;168;160;144;41120.000000;1.000000;1.000000;1.000000;1.000000;0.122376;-0.122376;0.122376;1.000000
445624.74630173;5696594.37859924;472.45445015;104;99;91;25443.000000;1.000000;1.000000;1.000000;1.000000;-0.036826;0.036826;-0.036826;1.000000
445624.78360184;5696594.37969978;472.45844986;158;153;144;39321.000000;1.000000;1.000000;1.000000;1.000000;0.000474;-0.000474;0.000474;1.000000
445625.03190239;5696594.45500000;472.44964983;166;159;139;40606.000000;1.000000;1.000000;1.000000;1.000000;-0.034214;0.034214;-0.034214;1.000000
445625.06090172;5696593.98379906;472.38245012;158;156;149;39835.000000;1.000000;1.000000;1.000000;1.000000;-0.059024;0.059024;-0.059024;1.000000
445624.81920250;5696594.38349922;472.45545008;199;189;171;48830.000000;1.000000;1.000000;1.000000;1.000000;0.036075;-0.036075;0.036075;1.000000
445624.81590088;5696594.50280006;472.46604969;161;157;148;40349.000000;1.000000;1.000000;1.000000;1.000000;0.032773;-0.032773;0.032773;1.000000
445624.81820114;5696594.42779930;472.46525003;150;147;138;37522.000000;1.000000;1.000000;1.000000;1.000000;0.035074;-0.035074;0.035074;1.000000
445625.06520088;5696594.52389915;472.47524979;173;182;149;44975.000000;1.000000;1.000000;1.000000;1.000000;-0.063323;0.063323;-0.063323;1.000000
445624.92240150;5696594.40449913;472.43944981;213;200;182;51657.000000;1.000000;1.000000;1.000000;1.000000;0.014274;-0.014274;0.014274;1.000000
445624.95790108;5696594.40829857;472.43874981;171;160;143;41377.000000;1.000000;1.000000;1.000000;1.000000;0.049774;-0.049774;0.049774;1.000000
445625.03300102;5696594.41069992;472.43755009;167;159;143;40863.000000;1.000000;1.000000;1.000000;1.000000;-0.068425;0.068425;-0.068425;1.000000
445625.07040222;5696594.41179855;472.43925001;122;116;104;29812.000000;1.000000;1.000000;1.000000;1.000000;-0.081799;0.081799;-0.081799;1.000000
445625.03760155;5696594.33549889;472.43685009;185;176;161;45489.000000;1.000000;1.000000;1.000000;1.000000;-0.005499;0.005499;-0.005499;1.000000
445625.00780113;5696594.14959915;472.40065004;150;145;133;37265.000000;1.000000;1.000000;1.000000;1.000000;-0.005924;0.005924;-0.005924;1.000000
445624.90000160;5696594.07090004;472.39954998;138;129;113;33153.000000;1.000000;1.000000;1.000000;1.000000;-0.008126;0.008126;-0.008126;1.000000
445625.10490234;5696594.45989998;472.44834997;235;235;226;60138.000000;1.000000;1.000000;1.000000;1.000000;-0.103668;0.103668;-0.103668;1.000000
445624.69550140;5696594.48829849;472.46044971;114;118;92;29041.000000;1.000000;1.000000;1.000000;1.000000;-0.087626;0.087626;-0.087626;1.000000
445625.06220062;5696593.94639977;472.37974979;102;99;90;25186.000000;1.000000;1.000000;1.000000;1.000000;-0.065847;0.065847;-0.065847;1.000000
445624.89500244;5696594.38609894;472.43795015;186;169;146;43947.000000;1.000000;1.000000;1.000000;1.000000;-0.013125;0.013125;-0.013125;1.000000
445624.82710083;5696594.04709824;472.41225006;146;133;117;34695.000000;1.000000;1.000000;1.000000;1.000000;-0.081027;0.081027;-0.081027;1.000000
445624.85580070;5696594.20779999;472.42014982;42;34;30;8995.000000;1.000000;1.000000;1.000000;1.000000;-0.055945;0.055945;-0.055945;1.000000
445625.03200157;5696594.42929848;472.44465019;176;168;154;43176.000000;1.000000;1.000000;1.000000;1.000000;-0.051849;0.051849;-0.051849;1.000000
445624.86430176;5696594.01349838;472.39724972;148;139;126;35980.000000;1.000000;1.000000;1.000000;1.000000;-0.043826;0.043826;-0.043826;1.000000
445624.72930153;5696594.32179840;472.45534994;191;186;177;47802.000000;1.000000;1.000000;1.000000;1.000000;0.024019;-0.024019;0.024019;1.000000
445625.04280098;5696594.39110001;472.43774988;178;172;158;44204.000000;1.000000;1.000000;1.000000;1.000000;-0.061100;0.061100;-0.061100;1.000000
445624.64120110;5696594.43939980;472.47604992;131;151;105;35723.000000;1.000000;1.000000;1.000000;1.000000;-0.141926;0.141926;-0.141926;1.000000
445624.73170097;5696594.49899872;472.45755007;94;93;69;23130.000000;1.000000;1.000000;1.000000;1.000000;-0.051426;0.051426;-0.051426;1.000000
445624.96160133;5696594.34049995;472.42184975;93;84;73;21845.000000;1.000000;1.000000;1.000000;1.000000;-0.010500;0.010500;-0.010500;1.000000
445624.89880188;5696594.29259880;472.41844990;135;120;103;31354.000000;1.000000;1.000000;1.000000;1.000000;-0.037401;0.037401;-0.037401;1.000000
445624.83840187;5696593.98329933;472.39104988;191;185;173;47545.000000;1.000000;1.000000;1.000000;1.000000;-0.069726;0.069726;-0.069726;1.000000
445624.92100151;5696594.41629990;472.44414999;210;198;181;51143.000000;1.000000;1.000000;1.000000;1.000000;0.012874;-0.012874;0.012874;1.000000
445625.04310234;5696594.23259933;472.41254999;145;134;116;34695.000000;1.000000;1.000000;1.000000;1.000000;-0.041225;0.041225;-0.041225;1.000000
445624.97070129;5696594.15759857;472.41074993;159;151;136;38807.000000;1.000000;1.000000;1.000000;1.000000;0.031176;-0.031176;0.031176;1.000000
445625.08050163;5696594.39459999;472.43944981;127;122;109;31354.000000;1.000000;1.000000;1.000000;1.000000;-0.064600;0.064600;-0.064600;1.000000
445624.84190186;5696594.30949982;472.42065002;170;150;129;39321.000000;1.000000;1.000000;1.000000;1.000000;-0.020500;0.020500;-0.020500;1.000000
445625.08400162;5696594.35689934;472.43914988;112;103;86;26471.000000;1.000000;1.000000;1.000000;1.000000;-0.026899;0.026899;-0.026899;1.000000
445624.87950142;5696594.31079872;472.41774990;167;151;131;39321.000000;1.000000;1.000000;1.000000;1.000000;-0.019380;0.019380;-0.019380;1.000000
445624.80550201;5696594.27089890;472.42094995;193;183;167;47288.000000;1.000000;1.000000;1.000000;1.000000;-0.059101;0.059101;-0.059101;1.000000
445624.77140244;5696594.23189934;472.42355015;165;157;143;40349.000000;1.000000;1.000000;1.000000;1.000000;-0.098101;0.098101;-0.098101;1.000000
445624.80910118;5696594.23319824;472.41834976;154;144;128;37265.000000;1.000000;1.000000;1.000000;1.000000;-0.096802;0.096802;-0.096802;1.000000
445625.01020248;5696594.31699951;472.43774988;138;130;120;33667.000000;1.000000;1.000000;1.000000;1.000000;-0.008325;0.008325;-0.008325;1.000000
445624.60540207;5696594.43109901;472.47434999;131;151;103;35723.000000;1.000000;1.000000;1.000000;1.000000;-0.177725;0.177725;-0.177725;1.000000
445624.81030090;5696594.19569977;472.41795017;80;69;59;18247.000000;1.000000;1.000000;1.000000;1.000000;-0.098132;0.098132;-0.098132;1.000000
445624.84770210;5696594.19689949;472.42194988;41;31;28;8481.000000;1.000000;1.000000;1.000000;1.000000;-0.061071;0.061071;-0.061071;1.000000
445624.77070244;5696594.46509941;472.45655014;161;160;148;40606.000000;1.000000;1.000000;1.000000;1.000000;-0.012425;0.012425;-0.012425;1.000000
445625.04770096;5696594.31819923;472.43704988;157;147;132;38036.000000;1.000000;1.000000;1.000000;1.000000;0.011801;-0.011801;0.011801;1.000000
445625.01140221;5696594.49399956;472.46544983;164;159;130;40349.000000;1.000000;1.000000;1.000000;1.000000;-0.009525;0.009525;-0.009525;1.000000
445624.88780220;5696594.12539871;472.42054989;196;185;168;47802.000000;1.000000;1.000000;1.000000;1.000000;-0.020325;0.020325;-0.020325;1.000000
445624.98460205;5696594.04459961;472.38674976;84;80;70;20560.000000;1.000000;1.000000;1.000000;1.000000;0.017275;-0.017275;0.017275;1.000000
445625.11350067;5696594.50569923;472.45624973;73;73;56;18247.000000;1.000000;1.000000;1.000000;1.000000;-0.111623;0.111623;-0.111623;1.000000
445625.05940063;5696594.01899918;472.38514997;196;196;189;50115.000000;1.000000;1.000000;1.000000;1.000000;-0.057523;0.057523;-0.057523;1.000000
445624.69880112;5696594.42259987;472.45984985;102;106;77;25957.000000;1.000000;1.000000;1.000000;1.000000;-0.084326;0.084326;-0.084326;1.000000
445624.64620216;5696594.32729919;472.44234993;95;93;84;23644.000000;1.000000;1.000000;1.000000;1.000000;0.105710;-0.105710;0.105710;1.000000
445624.90590103;5696594.37579926;472.43365004;156;138;114;35980.000000;1.000000;1.000000;1.000000;1.000000;-0.002226;0.002226;-0.002226;1.000000
445624.97900208;5696594.38079842;472.43004992;190;181;165;46517.000000;1.000000;1.000000;1.000000;1.000000;-0.050798;0.050798;-0.050798;1.000000
445624.84260185;5696594.29079826;472.41814997;166;148;131;38807.000000;1.000000;1.000000;1.000000;1.000000;-0.039202;0.039202;-0.039202;1.000000
445624.77080162;5696594.25070007;472.42374994;181;173;160;44461.000000;1.000000;1.000000;1.000000;1.000000;-0.079300;0.079300;-0.079300;1.000000
445624.80850227;5696594.25189980;472.41855003;157;147;133;38036.000000;1.000000;1.000000;1.000000;1.000000;-0.078100;0.078100;-0.078100;1.000000
445624.94130142;5696594.37719925;472.43064978;164;150;131;39064.000000;1.000000;1.000000;1.000000;1.000000;0.033174;-0.033174;0.033174;1.000000
445625.08500107;5696594.31939896;472.44115021;210;202;187;51914.000000;1.000000;1.000000;1.000000;1.000000;0.010601;-0.010601;0.010601;1.000000
445624.60910233;5696594.35419853;472.43865015;64;60;41;15163.000000;1.000000;1.000000;1.000000;1.000000;-0.144811;0.144811;-0.144811;1.000000
445625.01650246;5696594.38189896;472.43174984;181;174;159;44718.000000;1.000000;1.000000;1.000000;1.000000;0.051899;-0.051899;0.051899;1.000000
445625.01110085;5696594.27949913;472.44194986;136;127;113;32896.000000;1.000000;1.000000;1.000000;1.000000;-0.009223;0.009223;-0.009223;1.000000
445624.83880241;5696594.17889984;472.42595007;57;48;42;12850.000000;1.000000;1.000000;1.000000;1.000000;-0.069325;0.069325;-0.069325;1.000000
445624.78410156;5696594.16769989;472.42334988;68;58;50;15420.000000;1.000000;1.000000;1.000000;1.000000;-0.124026;0.124026;-0.124026;1.000000
445624.80230148;5696594.14019974;472.42854979;58;46;38;12336.000000;1.000000;1.000000;1.000000;1.000000;-0.105826;0.105826;-0.105826;1.000000
445624.83970078;5696594.14139946;472.43254997;163;149;137;38807.000000;1.000000;1.000000;1.000000;1.000000;-0.068427;0.068427;-0.068427;1.000000
445625.02520187;5696594.15749939;472.39454987;172;167;154;42919.000000;1.000000;1.000000;1.000000;1.000000;-0.023324;0.023324;-0.023324;1.000000
445624.91740234;5696594.08099945;472.39804985;142;135;119;34695.000000;1.000000;1.000000;1.000000;1.000000;0.009275;-0.009275;0.009275;1.000000
445624.96460159;5696594.46339996;472.45604994;186;171;153;44461.000000;1.000000;1.000000;1.000000;1.000000;0.038099;-0.038099;0.038099;1.000000
445624.87400063;5696594.42039879;472.45844986;161;147;127;38036.000000;1.000000;1.000000;1.000000;1.000000;-0.034127;0.034127;-0.034127;1.000000
445624.95320137;5696594.35059937;472.42154982;185;173;158;44718.000000;1.000000;1.000000;1.000000;1.000000;-0.020599;0.020599;-0.020599;1.000000
445624.91690071;5696594.31189926;472.42175009;150;139;124;35980.000000;1.000000;1.000000;1.000000;1.000000;0.018101;-0.018101;0.018101;1.000000
445624.99580200;5696594.20419891;472.41704990;159;150;134;38550.000000;1.000000;1.000000;1.000000;1.000000;0.006075;-0.006075;0.006075;1.000000
445624.96270187;5696594.50070007;472.47265007;188;173;155;44975.000000;1.000000;1.000000;1.000000;1.000000;0.039176;-0.039176;0.039176;1.000000
445625.05820091;5696594.03079994;472.38525011;128;127;119;32382.000000;1.000000;1.000000;1.000000;1.000000;-0.056324;0.056324;-0.056324;1.000000
445625.02400215;5696593.98959930;472.38315012;206;204;194;52171.000000;1.000000;1.000000;1.000000;1.000000;-0.022125;0.022125;-0.022125;1.000000
445625.06180199;5696593.99309929;472.38264992;158;158;151;40349.000000;1.000000;1.000000;1.000000;1.000000;-0.059925;0.059925;-0.059925;1.000000
445625.06310089;5696593.95559891;472.37984993;112;109;101;28013.000000;1.000000;1.000000;1.000000;1.000000;-0.063594;0.063594;-0.063594;1.000000
445624.80970200;5696594.21449860;472.41814997;164;154;140;39835.000000;1.000000;1.000000;1.000000;1.000000;-0.101938;0.101938;-0.101938;1.000000
445624.61780174;5696594.52299889;472.49464991;100;115;79;27242.000000;1.000000;1.000000;1.000000;1.000000;-0.165326;0.165326;-0.165326;1.000000
445624.81400116;5696594.55900009;472.46894981;177;174;154;44204.000000;1.000000;1.000000;1.000000;1.000000;0.030874;-0.030874;0.030874;1.000000
445624.82470139;5696594.07519920;472.41944983;227;214;197;55512.000000;1.000000;1.000000;1.000000;1.000000;-0.083426;0.083426;-0.083426;1.000000
445624.76830109;5696594.10129936;472.42884972;84;70;59;18504.000000;1.000000;1.000000;1.000000;1.000000;-0.139826;0.139826;-0.139826;1.000000
445624.98960121;5696594.15589912;472.40455009;171;165;149;42405.000000;1.000000;1.000000;1.000000;1.000000;0.012276;-0.012276;0.012276;1.000000
445624.73180206;5696594.06259926;472.43144991;49;40;31;10537.000000;1.000000;1.000000;1.000000;1.000000;-0.176325;0.176325;-0.176325;1.000000
445624.81260117;5696594.32609947;472.43125011;193;175;156;45746.000000;1.000000;1.000000;1.000000;1.000000;-0.003901;0.003901;-0.003901;1.000000
445624.66280182;5696594.38629921;472.45545008;98;99;69;24415.000000;1.000000;1.000000;1.000000;1.000000;-0.105376;0.105376;-0.105376;1.000000
445624.84730156;5696594.21569832;472.41744997;56;46;39;12336.000000;1.000000;1.000000;1.000000;1.000000;-0.066854;0.066854;-0.066854;1.000000
445624.93730171;5696594.23959930;472.44045021;103;95;85;24672.000000;1.000000;1.000000;1.000000;1.000000;0.058911;-0.058911;0.058911;1.000000
445624.79060181;5696594.03629883;472.42215015;229;218;203;56283.000000;1.000000;1.000000;1.000000;1.000000;-0.117526;0.117526;-0.117526;1.000000
445624.81090172;5696593.99049957;472.39454987;184;176;162;45232.000000;1.000000;1.000000;1.000000;1.000000;-0.097226;0.097226;-0.097226;1.000000
445624.75210197;5696593.99790009;472.41755011;214;204;188;52685.000000;1.000000;1.000000;1.000000;1.000000;-0.156025;0.156025;-0.156025;1.000000
445624.92000206;5696594.00609978;472.39265015;183;180;169;46003.000000;1.000000;1.000000;1.000000;1.000000;0.011875;-0.011875;0.011875;1.000000
445625.09360130;5696594.52369888;472.46724989;173;176;151;44204.000000;1.000000;1.000000;1.000000;1.000000;-0.091724;0.091724;-0.091724;1.000000
445624.65410240;5696594.33819969;472.44514992;99;97;87;24672.000000;1.000000;1.000000;1.000000;1.000000;-0.098118;0.098118;-0.098118;1.000000
445624.82120140;5696594.34619911;472.43654968;182;165;145;42919.000000;1.000000;1.000000;1.000000;1.000000;0.016326;-0.016326;0.016326;1.000000
445624.77860077;5696594.28719910;472.42924978;135;122;103;31611.000000;1.000000;1.000000;1.000000;1.000000;-0.042801;0.042801;-0.042801;1.000000
445624.69140060;5696594.33939941;472.44915010;72;67;60;17219.000000;1.000000;1.000000;1.000000;1.000000;-0.061203;0.061203;-0.061203;1.000000
445624.94090088;5696594.20199974;472.43785002;242;232;218;59881.000000;1.000000;1.000000;1.000000;1.000000;0.035499;-0.035499;0.035499;1.000000
445624.73050125;5696594.07209976;472.42915012;41;31;23;8481.000000;1.000000;1.000000;1.000000;1.000000;-0.177626;0.177626;-0.177626;1.000000
445625.01100166;5696594.51949890;472.47744991;132;132;94;32639.000000;1.000000;1.000000;1.000000;1.000000;-0.009124;0.009124;-0.009124;1.000000
445624.83200081;5696594.36379822;472.44185020;198;180;157;46774.000000;1.000000;1.000000;1.000000;1.000000;0.033798;-0.033798;0.033798;1.000000
445624.74230202;5696594.24860008;472.42945005;149;141;128;36237.000000;1.000000;1.000000;1.000000;1.000000;0.081961;-0.081961;0.081961;1.000000
445624.95760162;5696594.00729950;472.38975002;155;154;145;39321.000000;1.000000;1.000000;1.000000;1.000000;0.044276;-0.044276;0.044276;1.000000
445624.95870216;5696593.96979912;472.39164974;181;177;168;45489.000000;1.000000;1.000000;1.000000;1.000000;0.043264;-0.043264;0.043264;1.000000
445624.91790207;5696594.08789833;472.40054991;155;148;133;38036.000000;1.000000;1.000000;1.000000;1.000000;0.009775;-0.009775;0.009775;1.000000
445624.70510109;5696594.48979958;472.45855000;156;160;133;39835.000000;1.000000;1.000000;1.000000;1.000000;-0.078026;0.078026;-0.078026;1.000000
445625.07840164;5696594.04749878;472.38635017;97;94;85;23901.000000;1.000000;1.000000;1.000000;1.000000;-0.076524;0.076524;-0.076524;1.000000
445624.75280197;5696594.47149857;472.45125010;127;126;110;31868.000000;1.000000;1.000000;1.000000;1.000000;-0.030325;0.030325;-0.030325;1.000000
445625.04220207;5696594.00889977;472.38425018;162;161;153;41120.000000;1.000000;1.000000;1.000000;1.000000;-0.040325;0.040325;-0.040325;1.000000
445624.81170090;5696594.34479912;472.43834974;172;155;134;40349.000000;1.000000;1.000000;1.000000;1.000000;0.014799;-0.014799;0.014799;1.000000
445624.68130119;5696594.35659988;472.45125010;124;120;106;30583.000000;1.000000;1.000000;1.000000;1.000000;-0.075422;0.075422;-0.075422;1.000000
445624.73800095;5696594.31399925;472.45335009;224;217;205;55769.000000;1.000000;1.000000;1.000000;1.000000;0.021180;-0.021180;0.021180;1.000000
445624.73120125;5696594.49209984;472.45515015;97;96;73;23901.000000;1.000000;1.000000;1.000000;1.000000;-0.051926;0.051926;-0.051926;1.000000
445625.07720192;5696594.24579819;472.40964987;178;167;149;43176.000000;1.000000;1.000000;1.000000;1.000000;-0.075325;0.075325;-0.075325;1.000000
445624.74030121;5696594.09929855;472.42294981;31;21;14;5911.000000;1.000000;1.000000;1.000000;1.000000;-0.167826;0.167826;-0.167826;1.000000
445624.85060127;5696594.10319908;472.42094995;239;230;215;59367.000000;1.000000;1.000000;1.000000;1.000000;-0.057526;0.057526;-0.057526;1.000000
445624.91250237;5696593.97639854;472.39195015;144;139;127;35723.000000;1.000000;1.000000;1.000000;1.000000;0.004375;-0.004375;0.004375;1.000000
445624.86040123;5696594.07669838;472.40945007;140;128;112;33153.000000;1.000000;1.000000;1.000000;1.000000;-0.047726;0.047726;-0.047726;1.000000
445624.81560143;5696594.27929886;472.42145016;144;130;112;33924.000000;1.000000;1.000000;1.000000;1.000000;-0.050716;0.050716;-0.050716;1.000000
445625.03100212;5696594.50609978;472.47114994;146;151;115;37265.000000;1.000000;1.000000;1.000000;1.000000;-0.029125;0.029125;-0.029125;1.000000
445625.00580223;5696593.97019966;472.38444998;121;117;108;30069.000000;1.000000;1.000000;1.000000;1.000000;-0.004659;0.004659;-0.004659;1.000000
445625.04370125;5696593.97379883;472.38154985;151;146;138;37522.000000;1.000000;1.000000;1.000000;1.000000;-0.041824;0.041824;-0.041824;1.000000
445624.87230118;5696594.05009850;472.40035011;164;154;140;39835.000000;1.000000;1.000000;1.000000;1.000000;-0.035826;0.035826;-0.035826;1.000000
445624.83070190;5696594.16799934;472.42784979;62;52;45;13878.000000;1.000000;1.000000;1.000000;1.000000;-0.077425;0.077425;-0.077425;1.000000
445624.77920158;5696594.32440002;472.44135000;134;120;101;31354.000000;1.000000;1.000000;1.000000;1.000000;-0.005600;0.005600;-0.005600;1.000000
445624.79350098;5696594.32539948;472.43734982;179;162;143;42405.000000;1.000000;1.000000;1.000000;1.000000;-0.004601;0.004601;-0.004601;1.000000
445624.74760063;5696594.34339912;472.45645000;205;199;190;51143.000000;1.000000;1.000000;1.000000;1.000000;-0.014065;0.014065;-0.014065;1.000000
445624.84100159;5696594.55159958;472.47714998;164;162;147;41120.000000;1.000000;1.000000;1.000000;1.000000;0.057874;-0.057874;0.057874;1.000000
445624.99540146;5696594.40949829;472.43814995;183;173;156;44718.000000;1.000000;1.000000;1.000000;1.000000;0.062463;-0.062463;0.062463;1.000000
445625.10780151;5696594.41299828;472.44094994;116;111;103;28527.000000;1.000000;1.000000;1.000000;1.000000;0.082998;-0.082998;0.082998;1.000000
445624.81640060;5696594.48399933;472.46584990;143;140;130;35723.000000;1.000000;1.000000;1.000000;1.000000;0.033273;-0.033273;0.033273;1.000000
445625.11110123;5696594.53379829;472.46344997;102;102;81;25443.000000;1.000000;1.000000;1.000000;1.000000;-0.109224;0.109224;-0.109224;1.000000
445624.67640121;5696594.48759850;472.46894981;47;56;30;12850.000000;1.000000;1.000000;1.000000;1.000000;-0.106726;0.106726;-0.106726;1.000000
445624.83190163;5696594.13279922;472.43214991;166;154;139;39835.000000;1.000000;1.000000;1.000000;1.000000;-0.076226;0.076226;-0.076226;1.000000
445624.86940201;5696594.13399895;472.43144991;219;206;190;53456.000000;1.000000;1.000000;1.000000;1.000000;-0.038725;0.038725;-0.038725;1.000000
445624.72400101;5696594.22919853;472.43074991;117;107;90;27756.000000;1.000000;1.000000;1.000000;1.000000;0.104585;-0.104585;0.104585;1.000000
445624.73220070;5696594.04379852;472.43584969;153;141;132;36751.000000;1.000000;1.000000;1.000000;1.000000;-0.175927;0.175927;-0.175927;1.000000
445625.03950127;5696594.49369820;472.46444990;180;181;152;45489.000000;1.000000;1.000000;1.000000;1.000000;-0.037624;0.037624;-0.037624;1.000000
445625.10400208;5696594.53439911;472.46784975;150;151;127;38036.000000;1.000000;1.000000;1.000000;1.000000;-0.102125;0.102125;-0.102125;1.000000
445624.69400223;5696594.52569969;472.46784975;104;105;74;25957.000000;1.000000;1.000000;1.000000;1.000000;-0.089125;0.089125;-0.089125;1.000000
445624.75800140;5696594.09059914;472.42824986;79;65;55;17476.000000;1.000000;1.000000;1.000000;1.000000;-0.150126;0.150126;-0.150126;1.000000
445624.81300171;5696594.36319931;472.44794991;170;155;135;40349.000000;1.000000;1.000000;1.000000;1.000000;0.029874;-0.029874;0.029874;1.000000
445624.95430191;5696594.51759918;472.48644974;156;147;128;37779.000000;1.000000;1.000000;1.000000;1.000000;-0.046175;0.046175;-0.046175;1.000000
445624.99610146;5696594.44660004;472.44794991;172;160;142;41377.000000;1.000000;1.000000;1.000000;1.000000;0.025499;-0.025499;0.025499;1.000000
445625.03120239;5696594.44800003;472.44955017;163;155;138;39835.000000;1.000000;1.000000;1.000000;1.000000;-0.037520;0.037520;-0.037520;1.000000
445625.06890114;5696594.44919975;472.44654991;230;228;217;58339.000000;1.000000;1.000000;1.000000;1.000000;-0.070625;0.070625;-0.070625;1.000000
445624.85200127;5696594.28999908;472.41394999;171;154;137;40349.000000;1.000000;1.000000;1.000000;1.000000;-0.040080;0.040080;-0.040080;1.000000
445624.97290237;5696594.54609879;472.49694969;171;168;143;42662.000000;1.000000;1.000000;1.000000;1.000000;0.028975;-0.028975;0.028975;1.000000
445625.06160172;5696594.19609840;472.39435007;184;179;166;46003.000000;1.000000;1.000000;1.000000;1.000000;-0.059724;0.059724;-0.059724;1.000000
445624.90520103;5696594.36659821;472.43125011;140;119;95;31354.000000;1.000000;1.000000;1.000000;1.000000;-0.002926;0.002926;-0.002926;1.000000
445624.94280251;5696594.36779984;472.42824986;154;139;122;36237.000000;1.000000;1.000000;1.000000;1.000000;0.034675;-0.034675;0.034675;1.000000
445624.97830208;5696594.37150009;472.42754986;181;172;157;44461.000000;1.000000;1.000000;1.000000;1.000000;-0.041500;0.041500;-0.041500;1.000000
445625.01790245;5696594.37239845;472.43174984;154;148;134;38036.000000;1.000000;1.000000;1.000000;1.000000;0.042398;-0.042398;0.042398;1.000000
445624.94530113;5696594.29509933;472.42985012;64;56;47;14649.000000;1.000000;1.000000;1.000000;1.000000;0.034901;-0.034901;0.034901;1.000000
445625.02670105;5696594.14799889;472.39454987;177;172;160;44204.000000;1.000000;1.000000;1.000000;1.000000;-0.024824;0.024824;-0.024824;1.000000
445624.99190147;5696594.07419975;472.38975002;153;149;138;38036.000000;1.000000;1.000000;1.000000;1.000000;0.009976;-0.009976;0.009976;1.000000
445624.91110237;5696593.98589905;472.39204981;170;166;154;42405.000000;1.000000;1.000000;1.000000;1.000000;0.002975;-0.002975;0.002975;1.000000
445624.84550102;5696594.01289948;472.39864971;169;161;148;41377.000000;1.000000;1.000000;1.000000;1.000000;-0.062626;0.062626;-0.062626;1.000000
445625.04710205;5696594.11349876;472.38805010;147;142;130;36494.000000;1.000000;1.000000;1.000000;1.000000;-0.045225;0.045225;-0.045225;1.000000
445625.04820068;5696594.07599838;472.38994982;112;108;96;27499.000000;1.000000;1.000000;1.000000;1.000000;-0.046323;0.046323;-0.046323;1.000000
445624.75950249;5696594.28649910;472.43764975;138;126;109;32639.000000;1.000000;1.000000;1.000000;1.000000;0.043501;-0.043501;0.043501;1.000000
445624.95900162;5696593.99779900;472.39195015;188;187;177;47802.000000;1.000000;1.000000;1.000000;1.000000;0.042876;-0.042876;0.042876;1.000000
445624.71080215;5696594.55449875;472.46665003;120;117;90;29298.000000;1.000000;1.000000;1.000000;1.000000;-0.072325;0.072325;-0.072325;1.000000
445624.74840172;5696594.55579956;472.46364977;162;156;137;39835.000000;1.000000;1.000000;1.000000;1.000000;-0.034726;0.034726;-0.034726;1.000000
445624.71140106;5696594.30469902;472.45435001;216;211;204;54227.000000;1.000000;1.000000;1.000000;1.000000;0.047733;-0.047733;0.047733;1.000000
445625.04760178;5696594.09469994;472.39015009;103;99;85;25186.000000;1.000000;1.000000;1.000000;1.000000;-0.045724;0.045724;-0.045724;1.000000
445625.01180084;5696594.03729828;472.39015009;146;143;135;36751.000000;1.000000;1.000000;1.000000;1.000000;-0.009923;0.009923;-0.009923;1.000000
445624.64780243;5696594.56250008;472.48014977;88;93;64;22616.000000;1.000000;1.000000;1.000000;1.000000;-0.135325;0.135325;-0.135325;1.000000
445624.94140060;5696593.95969971;472.39074995;78;74;64;19018.000000;1.000000;1.000000;1.000000;1.000000;0.033273;-0.033273;0.033273;1.000000
445624.85330208;5696594.07739838;472.41144993;159;147;130;38036.000000;1.000000;1.000000;1.000000;1.000000;-0.054825;0.054825;-0.054825;1.000000
445624.80440147;5696594.34309967;472.44035007;168;150;129;39321.000000;1.000000;1.000000;1.000000;1.000000;0.013100;-0.013100;0.013100;1.000000
445624.99520119;5696594.00849922;472.38915016;138;136;128;34695.000000;1.000000;1.000000;1.000000;1.000000;0.006676;-0.006676;0.006676;1.000000
445625.09440239;5696594.53289993;472.46974995;182;185;158;46517.000000;1.000000;1.000000;1.000000;1.000000;-0.092525;0.092525;-0.092525;1.000000
445624.69690140;5696594.45089920;472.45545008;99;104;75;25443.000000;1.000000;1.000000;1.000000;1.000000;-0.086226;0.086226;-0.086226;1.000000
445624.72320183;5696594.24790009;472.43554976;150;141;128;36494.000000;1.000000;1.000000;1.000000;1.000000;0.086964;-0.086964;0.086964;1.000000
445624.91700180;5696594.52549942;472.50115015;195;191;180;48830.000000;1.000000;1.000000;1.000000;1.000000;-0.008874;0.008874;-0.008874;1.000000
445625.04840096;5696594.52069862;472.47914984;139;147;109;35980.000000;1.000000;1.000000;1.000000;1.000000;-0.046524;0.046524;-0.046524;1.000000
445624.95720108;5696594.48959930;472.46764996;179;163;144;42405.000000;1.000000;1.000000;1.000000;1.000000;0.044676;-0.044676;0.044676;1.000000
445624.77210243;5696594.45559891;472.45655014;154;154;143;39064.000000;1.000000;1.000000;1.000000;1.000000;-0.011025;0.011025;-0.011025;1.000000
445624.92390068;5696594.33919914;472.42705013;215;205;189;52942.000000;1.000000;1.000000;1.000000;1.000000;-0.009199;0.009199;-0.009199;1.000000
445624.76130112;5696594.46359833;472.45384981;166;165;152;41891.000000;1.000000;1.000000;1.000000;1.000000;-0.021826;0.021826;-0.021826;1.000000
445624.62280090;5696594.41099937;472.46094992;158;172;129;41891.000000;1.000000;1.000000;1.000000;1.000000;-0.152386;0.152386;-0.152386;1.000000
445624.68950089;5696594.42349823;472.45944979;109;115;83;28013.000000;1.000000;1.000000;1.000000;1.000000;-0.093626;0.093626;-0.093626;1.000000
445625.04100235;5696594.26979836;472.43384983;231;224;210;57568.000000;1.000000;1.000000;1.000000;1.000000;-0.039125;0.039125;-0.039125;1.000000
445624.97670181;5696594.40889938;472.43724968;168;157;139;40606.000000;1.000000;1.000000;1.000000;1.000000;0.067605;-0.067605;0.067605;1.000000
445624.84040077;5696594.34689911;472.42805006;198;178;155;46517.000000;1.000000;1.000000;1.000000;1.000000;0.016899;-0.016899;0.016899;1.000000
445624.82440193;5696594.49489983;472.46864988;142;138;130;35466.000000;1.000000;1.000000;1.000000;1.000000;0.041275;-0.041275;0.041275;1.000000
445624.97440155;5696594.49969872;472.46854975;190;176;153;45489.000000;1.000000;1.000000;1.000000;1.000000;0.027476;-0.027476;0.027476;1.000000
445624.88520248;5696594.41249855;472.45184996;180;165;146;42919.000000;1.000000;1.000000;1.000000;1.000000;-0.022925;0.022925;-0.022925;1.000000
445625.00480087;5696594.23119934;472.42945005;209;201;186;51657.000000;1.000000;1.000000;1.000000;1.000000;-0.002923;0.002923;-0.002923;1.000000
445624.93290146;5696594.18879898;472.43265011;238;229;215;59110.000000;1.000000;1.000000;1.000000;1.000000;0.024780;-0.024780;0.024780;1.000000
445624.75870140;5696594.53849991;472.45924999;177;172;154;43947.000000;1.000000;1.000000;1.000000;1.000000;-0.024426;0.024426;-0.024426;1.000000
445624.72240074;5696594.49989899;472.45944979;102;101;78;25186.000000;1.000000;1.000000;1.000000;1.000000;-0.060727;0.060727;-0.060727;1.000000
445624.79850204;5696594.46479996;472.46014978;135;132;121;33667.000000;1.000000;1.000000;1.000000;1.000000;0.015375;-0.015375;0.015375;1.000000
445624.64050110;5696594.45809944;472.47854998;69;91;40;20046.000000;1.000000;1.000000;1.000000;1.000000;-0.142626;0.142626;-0.142626;1.000000
445624.76720245;5696594.52839859;472.45715000;149;146;128;37008.000000;1.000000;1.000000;1.000000;1.000000;-0.015925;0.015925;-0.015925;1.000000
445624.96540077;5696594.26729973;472.44675018;119;110;102;28527.000000;1.000000;1.000000;1.000000;1.000000;0.036477;0.036477;-0.036477;1.000000
445625.00060089;5696594.26869972;472.44605019;207;199;185;51143.000000;1.000000;1.000000;1.000000;1.000000;0.001276;-0.001276;0.001276;1.000000
445624.96680077;5696594.23209961;472.44635012;245;238;225;61166.000000;1.000000;1.000000;1.000000;1.000000;0.035077;0.035077;-0.035077;1.000000
445624.93620117;5696594.46359833;472.46404984;184;171;154;44461.000000;1.000000;1.000000;1.000000;1.000000;0.028074;-0.028074;0.028074;1.000000
445625.00790222;5696594.12169846;472.39335014;165;160;147;41120.000000;1.000000;1.000000;1.000000;1.000000;-0.006025;0.006025;-0.006025;1.000000
445624.58760078;5696594.57709892;472.49854996;171;178;152;44461.000000;1.000000;1.000000;1.000000;1.000000;-0.195527;0.195527;-0.195527;1.000000
445625.05950172;5696594.47799881;472.45585014;158;156;135;39578.000000;1.000000;1.000000;1.000000;1.000000;-0.057624;0.057624;-0.057624;1.000000
445624.92820175;5696594.45269974;472.46355011;189;176;159;45746.000000;1.000000;1.000000;1.000000;1.000000;0.020074;-0.020074;0.020074;1.000000
445624.73200233;5696594.26809891;472.43855001;142;132;120;34181.000000;1.000000;1.000000;1.000000;1.000000;0.065014;-0.065014;0.065014;1.000000
445624.72590073;5696594.43419846;472.45184996;118;117;98;29555.000000;1.000000;1.000000;1.000000;1.000000;-0.057227;0.057227;-0.057227;1.000000
445624.94200142;5696594.38649948;472.43314983;178;165;145;42662.000000;1.000000;1.000000;1.000000;1.000000;0.033874;-0.033874;0.033874;1.000000
445624.94460114;5696594.31159981;472.42764999;112;104;91;26728.000000;1.000000;1.000000;1.000000;1.000000;0.018400;-0.018400;0.018400;1.000000
445624.84420212;5696594.28139885;472.41344978;159;143;127;37522.000000;1.000000;1.000000;1.000000;1.000000;-0.048601;0.048601;-0.048601;1.000000
445624.75590141;5696594.16569908;472.42205002;134;125;113;32382.000000;1.000000;1.000000;1.000000;1.000000;-0.152226;0.152226;-0.152226;1.000000
445624.88210114;5696594.00249870;472.39554979;184;177;164;45489.000000;1.000000;1.000000;1.000000;1.000000;-0.026026;0.026026;-0.026026;1.000000
445624.93610199;5696594.07930000;472.39424994;150;143;128;36751.000000;1.000000;1.000000;1.000000;1.000000;0.027975;-0.027975;0.027975;1.000000
445624.83460243;5696594.53129967;472.47195007;123;121;110;30840.000000;1.000000;1.000000;1.000000;1.000000;0.051475;-0.051475;0.051475;1.000000
445625.06020172;5696594.42909821;472.44135000;168;162;149;41634.000000;1.000000;1.000000;1.000000;1.000000;-0.072146;0.072146;-0.072146;1.000000
445624.91390236;5696594.38669975;472.43654968;156;140;119;36494.000000;1.000000;1.000000;1.000000;1.000000;0.005775;-0.005775;0.005775;1.000000
445624.81760223;5696594.22309883;472.41624977;160;150;136;38807.000000;1.000000;1.000000;1.000000;1.000000;-0.097116;0.097116;-0.097116;1.000000
445624.70140083;5696594.55539902;472.46854975;145;143;115;35980.000000;1.000000;1.000000;1.000000;1.000000;-0.081727;0.081727;-0.081727;1.000000
445624.95550163;5696594.53599937;472.49844982;190;186;167;47545.000000;1.000000;1.000000;1.000000;1.000000;0.046376;-0.046376;0.046376;1.000000
445624.92070206;5696594.47879990;472.47755005;182;171;154;44204.000000;1.000000;1.000000;1.000000;1.000000;-0.012575;0.012575;-0.012575;1.000000
445625.07630165;5696594.29919823;472.43814995;235;229;214;58853.000000;1.000000;1.000000;1.000000;1.000000;0.030802;-0.030802;0.030802;1.000000
445624.86340149;5696594.02989967;472.39974977;176;169;155;43433.000000;1.000000;1.000000;1.000000;1.000000;-0.044726;0.044726;-0.044726;1.000000
445624.59980209;5696594.53169830;472.49624969;114;129;94;30840.000000;1.000000;1.000000;1.000000;1.000000;-0.183325;0.183325;-0.183325;1.000000
445625.09700211;5696594.47919853;472.45524981;157;156;143;39578.000000;1.000000;1.000000;1.000000;1.000000;-0.095125;0.095125;-0.095125;1.000000
445625.02340134;5696593.98259933;472.38304998;162;159;149;40606.000000;1.000000;1.000000;1.000000;1.000000;-0.021524;0.021524;-0.021524;1.000000
445625.02270134;5696594.21349915;472.41144993;148;139;124;35980.000000;1.000000;1.000000;1.000000;1.000000;-0.020824;0.020824;-0.020824;1.000000
445624.63770111;5696594.57979973;472.47994997;137;140;120;34952.000000;1.000000;1.000000;1.000000;1.000000;-0.145426;0.145426;-0.145426;1.000000
445624.90690239;5696594.30349930;472.41895010;151;137;122;35723.000000;1.000000;1.000000;1.000000;1.000000;-0.026501;0.026501;-0.026501;1.000000
445625.07040222;5696594.01089867;472.38555004;229;230;225;58853.000000;1.000000;1.000000;1.000000;1.000000;-0.068525;0.068525;-0.068525;1.000000
445624.91540154;5696594.32139977;472.42184975;168;157;143;40606.000000;1.000000;1.000000;1.000000;1.000000;0.008600;-0.008600;0.008600;1.000000
445625.00460251;5696594.19419868;472.41034986;159;151;136;38807.000000;1.000000;1.000000;1.000000;1.000000;-0.002725;0.002725;-0.002725;1.000000
445624.98880203;5696594.14669998;472.40214970;171;164;150;42148.000000;1.000000;1.000000;1.000000;1.000000;0.013075;-0.013075;0.013075;1.000000
445624.88340195;5696594.22859962;472.42164995;54;45;39;12079.000000;1.000000;1.000000;1.000000;1.000000;-0.047501;0.047501;-0.047501;1.000000
445625.06860168;5696594.50280006;472.46114971;189;191;166;48059.000000;1.000000;1.000000;1.000000;1.000000;-0.066724;0.066724;-0.066724;1.000000
445624.72820099;5696594.14709862;472.42764999;163;153;140;39578.000000;1.000000;1.000000;1.000000;1.000000;-0.179926;0.179926;-0.179926;1.000000
445624.80090149;5696594.38979919;472.45935013;232;227;216;58339.000000;1.000000;1.000000;1.000000;1.000000;0.017774;-0.017774;0.017774;1.000000
445624.66260155;5696594.35609825;472.45044996;162;159;144;40606.000000;1.000000;1.000000;1.000000;1.000000;-0.093012;0.093012;-0.093012;1.000000
445624.70010193;5696594.35729988;472.44974997;108;103;91;26471.000000;1.000000;1.000000;1.000000;1.000000;-0.058532;0.058532;-0.058532;1.000000
445624.87810143;5696594.15179832;472.43214991;207;197;182;50886.000000;1.000000;1.000000;1.000000;1.000000;-0.030026;0.030026;-0.030026;1.000000
445624.70490082;5696594.28439911;472.45144989;225;221;213;56797.000000;1.000000;1.000000;1.000000;1.000000;0.065469;-0.065469;0.065469;1.000000
445625.04910095;5696594.46499832;472.45055010;163;159;140;40606.000000;1.000000;1.000000;1.000000;1.000000;-0.047654;0.047654;-0.047654;1.000000
445624.67690094;5696594.44089897;472.46374990;97;109;72;25957.000000;1.000000;1.000000;1.000000;1.000000;-0.106226;0.106226;-0.106226;1.000000
445624.73840149;5696594.12759979;472.42084982;136;125;114;32639.000000;1.000000;1.000000;1.000000;1.000000;-0.169726;0.169726;-0.169726;1.000000
445625.10410126;5696594.50649841;472.45814993;106;107;88;26728.000000;1.000000;1.000000;1.000000;1.000000;-0.102224;0.102224;-0.102224;1.000000
445624.77970131;5696594.01869972;472.41904976;235;226;211;58339.000000;1.000000;1.000000;1.000000;1.000000;-0.128426;0.128426;-0.128426;1.000000
445624.62310226;5696594.57860001;472.49084999;57;62;39;14649.000000;1.000000;1.000000;1.000000;1.000000;-0.160025;0.160025;-0.160025;1.000000
445624.58840187;5696594.38859947;472.45214989;179;182;149;45489.000000;1.000000;1.000000;1.000000;1.000000;-0.173661;0.173661;-0.173661;1.000000
445624.73580177;5696594.38900002;472.44945004;58;56;48;14135.000000;1.000000;1.000000;1.000000;1.000000;-0.047326;0.047326;-0.047326;1.000000
445624.65690239;5696594.27239998;472.45384981;112;109;106;28013.000000;1.000000;1.000000;1.000000;1.000000;0.111077;-0.111077;0.111077;1.000000
445624.68360146;5696594.54289825;472.47454979;92;95;63;23130.000000;1.000000;1.000000;1.000000;1.000000;-0.099526;0.099526;-0.099526;1.000000
445624.84830101;5696594.39259918;472.44994976;182;167;146;43433.000000;1.000000;1.000000;1.000000;1.000000;-0.059826;0.059826;-0.059826;1.000000
445624.90260132;5696594.42259987;472.45044996;202;188;169;48830.000000;1.000000;1.000000;1.000000;1.000000;-0.005526;0.005526;-0.005526;1.000000
445624.65090187;5696594.46879967;472.47685005;77;96;50;21845.000000;1.000000;1.000000;1.000000;1.000000;-0.132226;0.132226;-0.132226;1.000000
445624.97390182;5696594.08289917;472.39134981;177;172;159;44204.000000;1.000000;1.000000;1.000000;1.000000;0.027976;-0.027976;0.027976;1.000000
445625.01150139;5696594.08409889;472.39074995;168;163;151;41891.000000;1.000000;1.000000;1.000000;1.000000;-0.009624;0.009624;-0.009624;1.000000
445624.97630127;5696594.00789841;472.39055016;136;134;126;34181.000000;1.000000;1.000000;1.000000;1.000000;0.025576;-0.025576;0.025576;1.000000
445624.58090218;5696594.35439880;472.44205000;136;130;110;33153.000000;1.000000;1.000000;1.000000;1.000000;-0.172707;0.172707;-0.172707;1.000000
445624.71950157;5696594.12699898;472.42234995;155;144;131;37265.000000;1.000000;1.000000;1.000000;1.000000;-0.188626;0.188626;-0.188626;1.000000
445624.86620148;5696594.19739922;472.42744972;62;51;47;13621.000000;1.000000;1.000000;1.000000;1.000000;-0.042934;0.042934;-0.042934;1.000000
445624.80640228;5696594.28009995;472.42105009;145;132;114;34181.000000;1.000000;1.000000;1.000000;1.000000;-0.049900;0.049900;-0.049900;1.000000
445624.62650116;5696594.54089935;472.49294998;126;138;105;33410.000000;1.000000;1.000000;1.000000;1.000000;-0.156626;0.156626;-0.156626;1.000000
445624.92850121;5696594.48749931;472.47795012;178;167;151;43176.000000;1.000000;1.000000;1.000000;1.000000;-0.020374;0.020374;-0.020374;1.000000
445624.80190094;5696594.37339981;472.45454981;220;210;193;54227.000000;1.000000;1.000000;1.000000;1.000000;0.018774;-0.018774;0.018774;1.000000
445624.78020103;5696594.02559860;472.42154982;226;217;202;56026.000000;1.000000;1.000000;1.000000;1.000000;-0.127926;0.127926;-0.127926;1.000000
445624.88270195;5696594.24499901;472.41944983;74;64;54;16705.000000;1.000000;1.000000;1.000000;1.000000;-0.062412;0.062412;-0.062412;1.000000
445625.06820114;5696594.25350006;472.41865017;159;149;131;38550.000000;1.000000;1.000000;1.000000;1.000000;-0.066324;0.066324;-0.066324;1.000000
445624.84630211;5696594.20639999;472.41965010;48;38;33;10280.000000;1.000000;1.000000;1.000000;1.000000;-0.064506;0.064506;-0.064506;1.000000
445624.96170242;5696594.16299828;472.41505005;153;145;130;37265.000000;1.000000;1.000000;1.000000;1.000000;0.040175;-0.040175;0.040175;1.000000
445624.77460106;5696594.16619881;472.42294981;77;67;58;17733.000000;1.000000;1.000000;1.000000;1.000000;-0.133526;0.133526;-0.133526;1.000000
445624.85840233;5696594.18879898;472.42695000;59;49;44;13107.000000;1.000000;1.000000;1.000000;1.000000;-0.049729;0.049729;-0.049729;1.000000
445624.93340118;5696594.49159821;472.48054983;171;160;145;41377.000000;1.000000;1.000000;1.000000;1.000000;-0.025274;0.025274;-0.025274;1.000000
445624.75700195;5696594.54569824;472.45924999;169;163;145;41634.000000;1.000000;1.000000;1.000000;1.000000;-0.026125;0.026125;-0.026125;1.000000
445624.81600197;5696594.05729874;472.41884996;167;153;135;39835.000000;1.000000;1.000000;1.000000;1.000000;-0.092125;0.092125;-0.092125;1.000000
