//X;Y;Z;R;G;B;Intensity;Return Number;Number Of Returns;Scan Direction Flag;Point Source ID;C2M signed distances[-][<0.8];C2M signed distances[<0.4];C2M signed distances[-][<0.2];Stump53
445642.17970093;5696610.89290054;471.42644979;141;138;130;35466.000000;1.000000;1.000000;1.000000;1.000000;-0.040926;0.040926;-0.040926;1.000000
445641.95730026;5696610.85460098;471.45785000;117;110;95;28270.000000;1.000000;1.000000;1.000000;1.000000;-0.079718;0.079718;-0.079718;1.000000
445642.03020294;5696610.85729797;471.45414974;132;132;120;33410.000000;1.000000;1.000000;1.000000;1.000000;-0.027454;0.027454;-0.027454;1.000000
445641.92240341;5696610.78079803;471.45534994;148;140;120;35980.000000;1.000000;1.000000;1.000000;1.000000;0.121163;-0.121163;0.121163;1.000000
445641.95380219;5696610.68689926;471.44635012;110;100;49;24929.000000;1.000000;1.000000;1.000000;1.000000;-0.081424;0.081424;-0.081424;1.000000
445641.99160202;5696610.89359863;471.45055010;126;119;107;30583.000000;1.000000;1.000000;1.000000;1.000000;-0.075955;0.075955;-0.075955;1.000000
445642.08060272;5696610.33889969;471.43864967;162;148;134;38550.000000;1.000000;1.000000;1.000000;1.000000;0.008900;-0.008900;0.008900;1.000000
445642.11830338;5696610.34020050;471.43575003;118;103;89;26985.000000;1.000000;1.000000;1.000000;1.000000;0.010201;-0.010201;0.010201;1.000000
445641.92820175;5696610.87119873;471.46374990;126;119;106;30583.000000;1.000000;1.000000;1.000000;1.000000;-0.112724;0.112724;-0.112724;1.000000
445641.92960175;5696610.83609970;471.46334984;218;213;200;54741.000000;1.000000;1.000000;1.000000;1.000000;-0.103705;0.103705;-0.103705;1.000000
445641.89210327;5696610.83489807;471.46164991;113;106;93;27242.000000;1.000000;1.000000;1.000000;1.000000;-0.141109;0.141109;-0.141109;1.000000
445642.23010071;5696610.77549942;471.46455004;40;64;28;13364.000000;1.000000;1.000000;1.000000;1.000000;0.054501;-0.054501;0.054501;1.000000
445641.97780045;5696610.34369858;471.44805004;206;200;187;51400.000000;1.000000;1.000000;1.000000;1.000000;-0.055326;0.055326;-0.055326;1.000000
445642.16030319;5696610.91099747;471.42805006;144;139;131;35723.000000;1.000000;1.000000;1.000000;1.000000;-0.060324;0.060324;-0.060324;1.000000
445642.16130264;5696610.87349899;471.43004992;95;90;82;23130.000000;1.000000;1.000000;1.000000;1.000000;-0.043499;0.043499;-0.043499;1.000000
445642.19890030;5696610.87470062;471.42945005;103;101;94;25700.000000;1.000000;1.000000;1.000000;1.000000;-0.021727;0.021727;-0.021727;1.000000
445642.21479996;5696610.89430054;471.42805006;101;101;94;25700.000000;1.000000;1.000000;1.000000;1.000000;-0.005827;0.005827;-0.005827;1.000000
445642.18020065;5696610.87409790;471.42854979;77;70;63;18247.000000;1.000000;1.000000;1.000000;1.000000;-0.040426;0.040426;-0.040426;1.000000
445641.87090118;5696610.46069916;471.46785023;122;115;97;29555.000000;1.000000;1.000000;1.000000;1.000000;-0.162226;0.162226;-0.162226;1.000000
445641.93430145;5696610.48299988;471.45704987;118;110;95;28270.000000;1.000000;1.000000;1.000000;1.000000;-0.098825;0.098825;-0.098825;1.000000
445641.97190292;5696610.48430069;471.45414974;165;161;145;41120.000000;1.000000;1.000000;1.000000;1.000000;-0.061224;0.061224;-0.061224;1.000000
445641.83530243;5696610.83069809;471.46834995;183;177;165;45489.000000;1.000000;1.000000;1.000000;1.000000;-0.197826;0.197826;-0.197826;1.000000
445641.87310226;5696610.83199890;471.46304991;117;110;96;28270.000000;1.000000;1.000000;1.000000;1.000000;-0.160037;0.160037;-0.160037;1.000000
445642.16920288;5696610.88220032;471.42814972;128;122;114;31354.000000;1.000000;1.000000;1.000000;1.000000;-0.051424;0.051424;-0.051424;1.000000
445642.20689972;5696610.88559921;471.42994978;112;112;105;28527.000000;1.000000;1.000000;1.000000;1.000000;-0.013727;0.013727;-0.013727;1.000000
445642.24410065;5696610.88450058;471.43155005;57;55;48;13878.000000;1.000000;1.000000;1.000000;1.000000;0.023474;-0.023474;0.023474;1.000000
445642.00950058;5696610.48549850;471.45344975;236;235;225;60138.000000;1.000000;1.000000;1.000000;1.000000;-0.023626;0.023626;-0.023626;1.000000
445641.84160049;5696610.72039993;471.46495010;134;131;121;33410.000000;1.000000;1.000000;1.000000;1.000000;-0.198327;0.198327;-0.198327;1.000000
445642.04700287;5696610.48670013;471.45284988;131;124;114;32125.000000;1.000000;1.000000;1.000000;1.000000;0.013876;-0.013876;0.013876;1.000000
445642.11450012;5696610.85199936;471.43934967;121;117;111;30069.000000;1.000000;1.000000;1.000000;1.000000;-0.021999;0.021999;-0.021999;1.000000
445641.96059998;5696610.76099976;471.44985010;132;121;80;30583.000000;1.000000;1.000000;1.000000;1.000000;0.100106;-0.100106;0.100106;1.000000
445641.93780334;5696610.44529922;471.45674994;86;77;56;19789.000000;1.000000;1.000000;1.000000;1.000000;-0.095324;0.095324;-0.095324;1.000000
445641.93060120;5696610.36889847;471.45785000;155;149;126;38036.000000;1.000000;1.000000;1.000000;1.000000;-0.102526;0.102526;-0.102526;1.000000
445641.86370285;5696610.62739761;471.45554974;127;123;112;31354.000000;1.000000;1.000000;1.000000;1.000000;-0.169424;0.169424;-0.169424;1.000000
445642.10320099;5696610.90679749;471.43944981;177;173;165;44461.000000;1.000000;1.000000;1.000000;1.000000;-0.076797;0.076797;-0.076797;1.000000
445641.94020279;5696610.37039764;471.45594980;123;117;95;29812.000000;1.000000;1.000000;1.000000;1.000000;-0.092924;0.092924;-0.092924;1.000000
445641.89660080;5696610.70379837;471.45335009;141;133;116;34181.000000;1.000000;1.000000;1.000000;1.000000;-0.140972;0.140972;-0.140972;1.000000
445641.85220154;5696610.46010025;471.46705009;181;174;157;44718.000000;1.000000;1.000000;1.000000;1.000000;-0.180925;0.180925;-0.180925;1.000000
445641.89529999;5696610.74130066;471.45604994;120;114;94;29041.000000;1.000000;1.000000;1.000000;1.000000;-0.155763;0.155763;-0.155763;1.000000
445641.96790131;5696610.81629761;471.45324995;81;72;47;18247.000000;1.000000;1.000000;1.000000;1.000000;0.066649;-0.066649;0.066649;1.000000
445641.85910233;5696610.50630005;471.46094992;77;69;54;17733.000000;1.000000;1.000000;1.000000;1.000000;-0.174025;0.174025;-0.174025;1.000000
445642.10939987;5696610.31999786;471.43505003;110;95;80;24929.000000;1.000000;1.000000;1.000000;1.000000;-0.010002;0.010002;-0.010002;1.000000
445641.89090164;5696610.42379959;471.46604969;98;94;72;23644.000000;1.000000;1.000000;1.000000;1.000000;-0.142225;0.142225;-0.142225;1.000000
445642.04720123;5696610.91409882;471.45335009;184;183;178;46774.000000;1.000000;1.000000;1.000000;1.000000;-0.084099;0.084099;-0.084099;1.000000
445641.89210327;5696610.38640030;471.46565010;63;65;37;15677.000000;1.000000;1.000000;1.000000;1.000000;-0.141024;0.141024;-0.141024;1.000000
445642.15300186;5696610.43509872;471.43144991;208;203;189;51914.000000;1.000000;1.000000;1.000000;1.000000;0.105183;-0.105183;0.105183;1.000000
445642.18840225;5696610.43659790;471.42834999;194;188;174;48316.000000;1.000000;1.000000;1.000000;1.000000;0.106598;-0.106598;0.106598;1.000000
445642.15419968;5696610.39760025;471.43104984;188;174;161;45232.000000;1.000000;1.000000;1.000000;1.000000;0.067667;-0.067667;0.067667;1.000000
445642.19320114;5696610.36369904;471.43004992;170;160;147;41377.000000;1.000000;1.000000;1.000000;1.000000;-0.033699;0.033699;-0.033699;1.000000
445641.99950226;5696610.72699936;471.44894983;123;110;53;27499.000000;1.000000;1.000000;1.000000;1.000000;-0.067396;0.067396;-0.067396;1.000000
445641.83730133;5696610.59939774;471.46334984;87;82;72;21074.000000;1.000000;1.000000;1.000000;1.000000;-0.195826;0.195826;-0.195826;1.000000
445641.84309967;5696610.48670013;471.46464970;80;73;58;18761.000000;1.000000;1.000000;1.000000;1.000000;-0.190027;0.190027;-0.190027;1.000000
445641.97240265;5696610.46319778;471.45155003;102;98;72;24672.000000;1.000000;1.000000;1.000000;1.000000;-0.060724;0.060724;-0.060724;1.000000
445642.14710052;5696610.32349976;471.43444969;134;119;109;31354.000000;1.000000;1.000000;1.000000;1.000000;-0.012009;0.012009;-0.012009;1.000000
445641.88170059;5696610.45039948;471.46595003;66;57;38;14649.000000;1.000000;1.000000;1.000000;1.000000;-0.151426;0.151426;-0.151426;1.000000
445642.15450104;5696610.78050049;471.44024994;121;122;108;30840.000000;1.000000;1.000000;1.000000;1.000000;0.049632;-0.049632;0.049632;1.000000
445641.88260086;5696610.83339890;471.46355011;115;108;95;27756.000000;1.000000;1.000000;1.000000;1.000000;-0.150564;0.150564;-0.150564;1.000000
445642.00420197;5696610.82929810;471.45265009;138;134;117;34181.000000;1.000000;1.000000;1.000000;1.000000;0.028933;-0.028933;0.028933;1.000000
445641.87040146;5696610.93479736;471.47814991;105;95;81;24672.000000;1.000000;1.000000;1.000000;1.000000;-0.193551;0.193551;-0.193551;1.000000
445641.88810165;5696610.73959930;471.45804979;124;118;99;30069.000000;1.000000;1.000000;1.000000;1.000000;-0.161395;0.161395;-0.161395;1.000000
445642.18650253;5696610.75399979;471.45534994;182;196;164;48316.000000;1.000000;1.000000;1.000000;1.000000;0.076055;-0.076055;0.076055;1.000000
445642.09220322;5696610.73959930;471.44164993;114;107;89;27499.000000;1.000000;1.000000;1.000000;1.000000;0.090466;-0.090466;0.090466;1.000000
445642.25510223;5696610.87649735;471.43195011;50;51;43;12593.000000;1.000000;1.000000;1.000000;1.000000;0.034475;-0.034475;0.034475;1.000000
445641.86010178;5696610.51560028;471.45874979;99;90;76;23387.000000;1.000000;1.000000;1.000000;1.000000;-0.173025;0.173025;-0.173025;1.000000
445642.00539978;5696610.79179962;471.45225002;154;145;113;37008.000000;1.000000;1.000000;1.000000;1.000000;0.047202;-0.047202;0.047202;1.000000
445641.88300140;5696610.41519745;471.46785023;110;109;83;27242.000000;1.000000;1.000000;1.000000;1.000000;-0.150126;0.150126;-0.150126;1.000000
445641.88420303;5696610.37769897;471.46754982;61;65;33;15420.000000;1.000000;1.000000;1.000000;1.000000;-0.148924;0.148924;-0.148924;1.000000
445641.87430008;5696610.42299850;471.46995022;148;147;122;37008.000000;1.000000;1.000000;1.000000;1.000000;-0.158827;0.158827;-0.158827;1.000000
445641.97280319;5696610.89299973;471.45204975;134;126;111;32382.000000;1.000000;1.000000;1.000000;1.000000;-0.087223;0.087223;-0.087223;1.000000
445642.08290298;5696610.74049957;471.44124987;133;126;106;32125.000000;1.000000;1.000000;1.000000;1.000000;0.087580;-0.087580;0.087580;1.000000
445642.18050201;5696610.42790039;471.43024971;133;124;109;32125.000000;1.000000;1.000000;1.000000;1.000000;0.097900;-0.097900;0.097900;1.000000
445642.01020248;5696610.46669968;471.45095016;194;193;176;49087.000000;1.000000;1.000000;1.000000;1.000000;-0.022924;0.022924;-0.022924;1.000000
445641.88560303;5696610.34029968;471.46245005;184;184;166;46774.000000;1.000000;1.000000;1.000000;1.000000;-0.147524;0.147524;-0.147524;1.000000
445642.00990112;5696610.91300018;471.44924976;168;165;153;42148.000000;1.000000;1.000000;1.000000;1.000000;-0.086189;0.086189;-0.086189;1.000000
445642.01099976;5696610.87539871;471.45125010;142;140;128;35723.000000;1.000000;1.000000;1.000000;1.000000;-0.050504;0.050504;-0.050504;1.000000
445642.14439972;5696610.84459885;471.43594982;138;132;125;34181.000000;1.000000;1.000000;1.000000;1.000000;-0.014599;0.014599;-0.014599;1.000000
445642.01730164;5696610.76519974;471.44554998;124;114;69;28784.000000;1.000000;1.000000;1.000000;1.000000;0.066705;-0.066705;0.066705;1.000000
445641.98060043;5696610.72410019;471.44805004;119;107;50;26728.000000;1.000000;1.000000;1.000000;1.000000;-0.076436;0.076436;-0.076436;1.000000
445642.09610184;5696610.65740021;471.44315006;63;54;40;14135.000000;1.000000;1.000000;1.000000;1.000000;0.062975;-0.062975;0.062975;1.000000
445642.03140076;5696610.39240082;471.44875004;153;145;132;37265.000000;1.000000;1.000000;1.000000;1.000000;-0.001726;0.001726;-0.001726;1.000000
445642.04770096;5696610.46789749;471.45034983;212;207;195;53199.000000;1.000000;1.000000;1.000000;1.000000;0.014574;-0.014574;0.014574;1.000000
445642.14540298;5696610.80710037;471.43785002;86;81;74;20817.000000;1.000000;1.000000;1.000000;1.000000;0.022900;-0.022900;0.022900;1.000000
445641.87360199;5696610.61009796;471.45814993;172;168;158;43176.000000;1.000000;1.000000;1.000000;1.000000;-0.159525;0.159525;-0.159525;1.000000
445642.08530243;5696610.46909912;471.44974997;85;74;49;19018.000000;1.000000;1.000000;1.000000;1.000000;0.052176;-0.052176;0.052176;1.000000
445641.91130264;5696610.61129959;471.45524981;210;210;200;53456.000000;1.000000;1.000000;1.000000;1.000000;-0.121824;0.121824;-0.121824;1.000000
445641.87490280;5696610.57269867;471.45545008;131;128;115;32639.000000;1.000000;1.000000;1.000000;1.000000;-0.158224;0.158224;-0.158224;1.000000
445641.91250046;5696610.57379730;471.45484974;165;162;150;41377.000000;1.000000;1.000000;1.000000;1.000000;-0.120626;0.120626;-0.120626;1.000000
445641.97739990;5696610.81780060;471.45365002;75;69;45;17476.000000;1.000000;1.000000;1.000000;1.000000;0.057047;-0.057047;0.057047;1.000000
445642.14880188;5696610.69459732;471.44135000;48;47;25;11308.000000;1.000000;1.000000;1.000000;1.000000;0.118597;-0.118597;0.118597;1.000000
445642.10570343;5696610.83410080;471.44105007;180;178;172;45489.000000;1.000000;1.000000;1.000000;1.000000;-0.004101;0.004101;-0.004101;1.000000
445642.01650055;5696610.33529861;471.45204975;173;167;156;42919.000000;1.000000;1.000000;1.000000;1.000000;-0.016626;0.016626;-0.016626;1.000000
445642.14350327;5696610.83539780;471.43575003;117;110;106;28527.000000;1.000000;1.000000;1.000000;1.000000;-0.005398;0.005398;-0.005398;1.000000
445642.14450272;5696610.79780014;471.44004967;112;111;102;28270.000000;1.000000;1.000000;1.000000;1.000000;0.032200;-0.032200;0.032200;1.000000
445641.86200150;5696610.71159943;471.45884993;139;136;124;34695.000000;1.000000;1.000000;1.000000;1.000000;-0.176400;0.176400;-0.176400;1.000000
445642.10239990;5696610.72229965;471.43954994;86;79;60;20303.000000;1.000000;1.000000;1.000000;1.000000;0.087771;-0.087771;0.087771;1.000000
445641.97879990;5696610.78259857;471.45335009;128;117;76;29555.000000;1.000000;1.000000;1.000000;1.000000;0.072099;-0.072099;0.072099;1.000000
445641.96710022;5696610.78140076;471.45044996;116;104;67;26471.000000;1.000000;1.000000;1.000000;1.000000;0.081984;-0.081984;0.081984;1.000000
445641.94190033;5696610.76040085;471.44904997;143;133;101;33924.000000;1.000000;1.000000;1.000000;1.000000;0.114745;-0.114745;0.114745;1.000000
445642.01850327;5696610.72769745;471.44514992;113;101;47;25186.000000;1.000000;1.000000;1.000000;1.000000;-0.060963;0.060963;-0.060963;1.000000
445641.98200043;5696610.68899735;471.44764997;131;121;65;30069.000000;1.000000;1.000000;1.000000;1.000000;-0.055061;0.055061;-0.055061;1.000000
445642.22270020;5696610.74579819;471.46385004;112;138;90;31868.000000;1.000000;1.000000;1.000000;1.000000;0.084202;-0.084202;0.084202;1.000000
445641.91040237;5696610.64889725;471.44864990;69;65;54;16448.000000;1.000000;1.000000;1.000000;1.000000;-0.122725;0.122725;-0.122725;1.000000
445642.18690308;5696610.70730026;471.45244982;80;95;48;21845.000000;1.000000;1.000000;1.000000;1.000000;0.122725;-0.122725;0.122725;1.000000
445642.00330170;5696610.86689957;471.44845011;143;139;126;35466.000000;1.000000;1.000000;1.000000;1.000000;-0.047446;0.047446;-0.047446;1.000000
445642.19980057;5696610.83719833;471.43594982;82;85;76;21331.000000;1.000000;1.000000;1.000000;1.000000;-0.007198;0.007198;-0.007198;1.000000
445642.14420135;5696610.62029846;471.44024994;221;216;208;55512.000000;1.000000;1.000000;1.000000;1.000000;0.111074;-0.111074;0.111074;1.000000
445642.10790070;5696610.58159836;471.44045021;146;143;134;36494.000000;1.000000;1.000000;1.000000;1.000000;0.074774;-0.074774;0.074774;1.000000
445642.05520065;5696610.71969803;471.44205000;133;124;93;31611.000000;1.000000;1.000000;1.000000;1.000000;0.055799;-0.055799;0.055799;1.000000
445642.13039978;5696610.72209747;471.43844988;103;102;81;25443.000000;1.000000;1.000000;1.000000;1.000000;0.107903;-0.107903;0.107903;1.000000
445641.86450012;5696610.63669785;471.45575001;82;77;65;19789.000000;1.000000;1.000000;1.000000;1.000000;-0.168627;0.168627;-0.168627;1.000000
445642.13260086;5696610.64710052;471.44234993;151;146;135;37522.000000;1.000000;1.000000;1.000000;1.000000;0.099474;-0.099474;0.099474;1.000000
445642.00800140;5696610.71689804;471.44684984;136;125;69;31354.000000;1.000000;1.000000;1.000000;1.000000;-0.054490;0.054490;-0.054490;1.000000
445641.90400131;5696610.35969742;471.45884993;152;149;126;37779.000000;1.000000;1.000000;1.000000;1.000000;-0.129126;0.129126;-0.129126;1.000000
445642.04570206;5696610.71819885;471.44395020;142;132;96;33667.000000;1.000000;1.000000;1.000000;1.000000;0.051276;-0.051276;0.051276;1.000000
445641.92920120;5696610.64949997;471.44714977;130;123;107;31611.000000;1.000000;1.000000;1.000000;1.000000;-0.103926;0.103926;-0.103926;1.000000
445641.97620209;5696610.42790039;471.44894983;146;142;115;35980.000000;1.000000;1.000000;1.000000;1.000000;-0.056925;0.056925;-0.056925;1.000000
445642.13660248;5696610.53700073;471.43654968;142;137;120;34952.000000;1.000000;1.000000;1.000000;1.000000;0.103476;-0.103476;0.103476;1.000000
445641.84510239;5696610.41390045;471.47784998;57;60;33;14392.000000;1.000000;1.000000;1.000000;1.000000;-0.188025;0.188025;-0.188025;1.000000
445642.10939987;5696610.54649933;471.43774988;123;119;99;30069.000000;1.000000;1.000000;1.000000;1.000000;0.076273;-0.076273;0.076273;1.000000
445642.14120300;5696610.46179779;471.43814995;91;83;61;21074.000000;1.000000;1.000000;1.000000;1.000000;0.108076;-0.108076;0.108076;1.000000
445641.89809998;5696610.47229965;471.45994999;100;90;76;23387.000000;1.000000;1.000000;1.000000;1.000000;-0.135027;0.135027;-0.135027;1.000000
445642.18380173;5696610.31539734;471.43374969;112;103;91;26728.000000;1.000000;1.000000;1.000000;1.000000;-0.014603;0.014603;-0.014603;1.000000
445641.92430313;5696610.72239883;471.44775011;142;132;104;33667.000000;1.000000;1.000000;1.000000;1.000000;-0.121411;0.121411;-0.121411;1.000000
445642.01150330;5696610.42930038;471.44824984;142;136;117;34695.000000;1.000000;1.000000;1.000000;1.000000;-0.021624;0.021624;-0.021624;1.000000
445642.04900177;5696610.43049820;471.44764997;143;134;113;34438.000000;1.000000;1.000000;1.000000;1.000000;0.015875;-0.015875;0.015875;1.000000
445641.91150101;5696610.81679733;471.46234991;222;218;205;55769.000000;1.000000;1.000000;1.000000;1.000000;0.122340;-0.122340;0.122340;1.000000
445642.11510284;5696610.43379791;471.44135000;187;176;154;45232.000000;1.000000;1.000000;1.000000;1.000000;0.081976;-0.081976;0.081976;1.000000
445641.85799988;5696610.34969910;471.47295000;181;184;161;46260.000000;1.000000;1.000000;1.000000;1.000000;-0.175127;0.175127;-0.175127;1.000000
445642.08670242;5696610.43169983;471.44465019;121;108;83;28013.000000;1.000000;1.000000;1.000000;1.000000;0.053576;-0.053576;0.053576;1.000000
445641.94100006;5696610.35169800;471.45114996;122;115;93;29298.000000;1.000000;1.000000;1.000000;1.000000;-0.092127;0.092127;-0.092127;1.000000
445642.21300323;5696610.71639832;471.46304991;64;88;39;19275.000000;1.000000;1.000000;1.000000;1.000000;0.113628;-0.113628;0.113628;1.000000
445642.11880310;5696610.32139786;471.43555023;110;95;81;24929.000000;1.000000;1.000000;1.000000;1.000000;-0.008602;0.008602;-0.008602;1.000000
445642.15640076;5696610.32259949;471.43485023;127;114;104;29812.000000;1.000000;1.000000;1.000000;1.000000;-0.007443;0.007443;-0.007443;1.000000
445642.23620041;5696610.81239899;471.45834972;41;54;37;12336.000000;1.000000;1.000000;1.000000;1.000000;0.017601;-0.017601;0.017601;1.000000
445642.09539993;5696610.42389877;471.44264986;116;103;82;26728.000000;1.000000;1.000000;1.000000;1.000000;0.062273;-0.062273;0.062273;1.000000
445641.87040146;5696610.87890060;471.46584990;173;162;148;41891.000000;1.000000;1.000000;1.000000;1.000000;-0.169914;0.169914;-0.169914;1.000000
445642.11710175;5696610.58079727;471.44084980;139;135;127;34695.000000;1.000000;1.000000;1.000000;1.000000;0.083975;-0.083975;0.083975;1.000000
445641.96940048;5696610.35379990;471.44775011;203;196;179;50372.000000;1.000000;1.000000;1.000000;1.000000;-0.063726;0.063726;-0.063726;1.000000
445642.07290085;5696610.75770004;471.44094994;160;151;132;38807.000000;1.000000;1.000000;1.000000;1.000000;0.072300;-0.072300;0.072300;1.000000
445642.15030106;5696610.68519791;471.44124987;87;84;64;21074.000000;1.000000;1.000000;1.000000;1.000000;0.118368;-0.118368;0.118368;1.000000
445642.12090118;5696610.69489868;471.43774988;123;118;102;30069.000000;1.000000;1.000000;1.000000;1.000000;0.091698;-0.091698;0.091698;1.000000
445642.11970337;5696610.73240097;471.43814995;105;102;81;25700.000000;1.000000;1.000000;1.000000;1.000000;0.097643;-0.097643;0.097643;1.000000
445642.01990326;5696610.89570053;471.44955017;128;125;114;31868.000000;1.000000;1.000000;1.000000;1.000000;-0.067018;0.067018;-0.067018;1.000000
445642.05740173;5696610.89679916;471.45125010;174;173;167;44204.000000;1.000000;1.000000;1.000000;1.000000;-0.066872;0.066872;-0.066872;1.000000
445642.06089981;5696610.85909851;471.45095016;180;180;174;46003.000000;1.000000;1.000000;1.000000;1.000000;-0.029306;0.029306;-0.029306;1.000000
445642.09410294;5696610.86089905;471.44315006;159;157;151;40092.000000;1.000000;1.000000;1.000000;1.000000;-0.030937;0.030937;-0.030937;1.000000
445642.08930023;5696610.35679825;471.43925001;173;159;145;41377.000000;1.000000;1.000000;1.000000;1.000000;0.026798;-0.026798;0.026798;1.000000
445642.11890228;5696610.57359894;471.43855001;150;147;137;37522.000000;1.000000;1.000000;1.000000;1.000000;0.085775;-0.085775;0.085775;1.000000
445642.15430267;5696610.57509811;471.43545010;202;197;188;50629.000000;1.000000;1.000000;1.000000;1.000000;0.121176;-0.121176;0.121176;1.000000
445642.17630203;5696610.79019745;471.44364979;71;73;57;17990.000000;1.000000;1.000000;1.000000;1.000000;0.039803;-0.039803;0.039803;1.000000
445642.12710007;5696610.36039932;471.43634989;137;123;109;32125.000000;1.000000;1.000000;1.000000;1.000000;0.030400;-0.030400;0.030400;1.000000
445641.95440109;5696610.66819962;471.44614985;117;107;72;27242.000000;1.000000;1.000000;1.000000;1.000000;-0.078726;0.078726;-0.078726;1.000000
445642.06490143;5696610.67429932;471.44424965;105;93;73;24158.000000;1.000000;1.000000;1.000000;1.000000;0.032302;-0.032302;0.032302;1.000000
445642.12820251;5696610.32060059;471.43354990;117;103;90;26985.000000;1.000000;1.000000;1.000000;1.000000;-0.009492;0.009492;-0.009492;1.000000
445641.95790298;5696610.63049896;471.44584991;142;137;121;34952.000000;1.000000;1.000000;1.000000;1.000000;-0.075224;0.075224;-0.075224;1.000000
445642.06830032;5696610.63659866;471.44624998;117;108;98;28013.000000;1.000000;1.000000;1.000000;1.000000;0.035173;-0.035173;0.035173;1.000000
445642.10590179;5696610.63780029;471.44565012;97;92;85;23644.000000;1.000000;1.000000;1.000000;1.000000;0.072775;-0.072775;0.072775;1.000000
445642.22640045;5696610.84860046;471.43965008;49;50;43;12336.000000;1.000000;1.000000;1.000000;1.000000;0.005774;-0.005774;0.005774;1.000000
445642.00700195;5696610.78240021;471.44994976;157;148;110;37522.000000;1.000000;1.000000;1.000000;1.000000;0.054298;-0.054298;0.054298;1.000000
445641.97630127;5696610.35309799;471.44805004;223;215;200;55255.000000;1.000000;1.000000;1.000000;1.000000;-0.056826;0.056826;-0.056826;1.000000
445642.06940277;5696610.59910019;471.44824984;229;228;222;58339.000000;1.000000;1.000000;1.000000;1.000000;0.036276;-0.036276;0.036276;1.000000
445642.08419998;5696610.90609940;471.44554998;116;113;110;29041.000000;1.000000;1.000000;1.000000;1.000000;-0.076099;0.076099;-0.076099;1.000000
445642.05370148;5696610.55159958;471.43995001;177;175;165;44718.000000;1.000000;1.000000;1.000000;1.000000;0.020575;-0.020575;0.020575;1.000000
445641.99910172;5696610.52160080;471.44644978;142;139;131;35723.000000;1.000000;1.000000;1.000000;1.000000;-0.034025;0.034025;-0.034025;1.000000
445642.03680237;5696610.52499969;471.44824984;72;66;58;16962.000000;1.000000;1.000000;1.000000;1.000000;0.003675;-0.003675;0.003675;1.000000
445642.07410248;5696610.52389725;471.44754984;49;42;22;10537.000000;1.000000;1.000000;1.000000;1.000000;0.040976;-0.040976;0.040976;1.000000
445641.89809998;5696610.89969833;471.46505024;117;105;91;27499.000000;1.000000;1.000000;1.000000;1.000000;-0.151954;0.151954;-0.151954;1.000000
445642.09119995;5696610.55279739;471.43934967;71;69;52;17219.000000;1.000000;1.000000;1.000000;1.000000;0.058073;-0.058073;0.058073;1.000000
445641.83480270;5696610.64639862;471.46145012;119;115;103;29298.000000;1.000000;1.000000;1.000000;1.000000;-0.198324;0.198324;-0.198324;1.000000
445641.96610077;5696610.44510086;471.45104982;118;114;85;28784.000000;1.000000;1.000000;1.000000;1.000000;-0.067026;0.067026;-0.067026;1.000000
445642.00370224;5696610.44639786;471.44805004;137;133;109;33667.000000;1.000000;1.000000;1.000000;1.000000;-0.029425;0.029425;-0.029425;1.000000
445642.07660110;5696610.45129974;471.44915010;98;85;59;22102.000000;1.000000;1.000000;1.000000;1.000000;0.043474;-0.043474;0.043474;1.000000
445642.03880127;5696610.44769867;471.44974997;145;140;123;35723.000000;1.000000;1.000000;1.000000;1.000000;0.005674;-0.005674;0.005674;1.000000
445641.96750076;5696610.40999802;471.45064976;113;109;83;27499.000000;1.000000;1.000000;1.000000;1.000000;-0.065626;0.065626;-0.065626;1.000000
445642.00250061;5696610.40909775;471.44994976;139;134;115;34181.000000;1.000000;1.000000;1.000000;1.000000;-0.030626;0.030626;-0.030626;1.000000
445642.04040344;5696610.41259964;471.44705011;126;118;103;30326.000000;1.000000;1.000000;1.000000;1.000000;0.007277;-0.007277;0.007277;1.000000
445641.96880157;5696610.37249954;471.44794991;101;92;73;23644.000000;1.000000;1.000000;1.000000;1.000000;-0.064325;0.064325;-0.064325;1.000000
445641.96970184;5696610.33270081;471.44754984;138;131;117;33667.000000;1.000000;1.000000;1.000000;1.000000;-0.063425;0.063425;-0.063425;1.000000
445642.05660065;5696610.71010025;471.44434978;150;140;110;35723.000000;1.000000;1.000000;1.000000;1.000000;0.047770;-0.047770;0.047770;1.000000
445642.16660126;5696610.71389969;471.44934990;89;98;62;23387.000000;1.000000;1.000000;1.000000;1.000000;0.116100;-0.116100;0.116100;1.000000
445641.87280090;5696610.43239792;471.47225000;123;119;96;30069.000000;1.000000;1.000000;1.000000;1.000000;-0.160326;0.160326;-0.160326;1.000000
445642.02020081;5696610.67149933;471.44455006;143;127;97;32896.000000;1.000000;1.000000;1.000000;1.000000;-0.013271;0.013271;-0.013271;1.000000
445641.98730286;5696610.59509857;471.44675018;113;112;101;28527.000000;1.000000;1.000000;1.000000;1.000000;-0.045824;0.045824;-0.045824;1.000000
445641.94970139;5696610.59390076;471.44745018;166;165;154;42148.000000;1.000000;1.000000;1.000000;1.000000;-0.083426;0.083426;-0.083426;1.000000
445642.02499969;5696610.59860046;471.44624998;114;110;101;28270.000000;1.000000;1.000000;1.000000;1.000000;-0.008127;0.008127;-0.008127;1.000000
445641.98870285;5696610.55990036;471.44644978;152;149;140;38036.000000;1.000000;1.000000;1.000000;1.000000;-0.044424;0.044424;-0.044424;1.000000
445642.02600296;5696610.55879791;471.44574978;208;206;200;52685.000000;1.000000;1.000000;1.000000;1.000000;-0.007124;0.007124;-0.007124;1.000000
445642.10360153;5696610.48850067;471.44614985;143;133;104;33924.000000;1.000000;1.000000;1.000000;1.000000;0.070475;-0.070475;0.070475;1.000000
445641.84380157;5696610.40229996;471.48224976;80;84;54;20303.000000;1.000000;1.000000;1.000000;1.000000;-0.189325;0.189325;-0.189325;1.000000
445642.06710251;5696610.44980057;471.44864990;118;108;84;27756.000000;1.000000;1.000000;1.000000;1.000000;0.033976;-0.033976;0.033976;1.000000
445642.06870087;5696610.41469772;471.44595005;167;156;139;40349.000000;1.000000;1.000000;1.000000;1.000000;0.035574;-0.035574;0.035574;1.000000
445642.06990250;5696610.37719925;471.44325020;141;131;118;33924.000000;1.000000;1.000000;1.000000;1.000000;0.036776;-0.036776;0.036776;1.000000
445642.04590042;5696610.74619873;471.44424965;135;127;89;32125.000000;1.000000;1.000000;1.000000;1.000000;0.078741;-0.078741;0.078741;1.000000
445642.13250168;5696610.44389923;471.43755009;179;173;155;44204.000000;1.000000;1.000000;1.000000;1.000000;0.099375;-0.099375;0.099375;1.000000
445642.25450333;5696610.89520081;471.43214991;74;75;68;18761.000000;1.000000;1.000000;1.000000;1.000000;0.033876;-0.033876;0.033876;1.000000
445641.94360168;5696610.75329788;471.44675018;117;107;72;27242.000000;1.000000;1.000000;1.000000;1.000000;0.117890;-0.117890;0.117890;1.000000
445641.98230179;5696610.71700104;471.44805004;119;110;51;27242.000000;1.000000;1.000000;1.000000;1.000000;-0.070205;0.070205;-0.070205;1.000000
445642.18890198;5696610.89200027;471.42684986;113;110;102;28270.000000;1.000000;1.000000;1.000000;1.000000;-0.031725;0.031725;-0.031725;1.000000
445641.98340042;5696610.67949875;471.44764997;145;134;86;33924.000000;1.000000;1.000000;1.000000;1.000000;-0.050916;0.050916;-0.050916;1.000000
445642.07410248;5696610.72030075;471.44054987;88;77;51;19789.000000;1.000000;1.000000;1.000000;1.000000;0.066110;-0.066110;0.066110;1.000000
445641.94620331;5696610.86260040;471.46204998;154;149;135;38036.000000;1.000000;1.000000;1.000000;1.000000;-0.092836;0.092836;-0.092836;1.000000
445642.22420319;5696610.89570053;471.43085005;80;81;74;20303.000000;1.000000;1.000000;1.000000;1.000000;0.003576;-0.003576;0.003576;1.000000
445642.11160095;5696610.72149857;471.43995001;115;109;90;27756.000000;1.000000;1.000000;1.000000;1.000000;0.094745;-0.094745;0.094745;1.000000
445642.11280258;5696610.68400009;471.43954994;123;117;102;30069.000000;1.000000;1.000000;1.000000;1.000000;0.081190;-0.081190;0.081190;1.000000
445641.97060211;5696610.74370010;471.45015003;124;112;61;28013.000000;1.000000;1.000000;1.000000;1.000000;-0.097707;0.097707;-0.097707;1.000000
445642.02190216;5696610.61519821;471.44624998;121;115;105;29555.000000;1.000000;1.000000;1.000000;1.000000;-0.011225;0.011225;-0.011225;1.000000
445641.98330124;5696610.65149887;471.44495012;155;141;117;36494.000000;1.000000;1.000000;1.000000;1.000000;-0.049826;0.049826;-0.049826;1.000000
445642.05130203;5696610.80409821;471.44514992;185;182;167;46517.000000;1.000000;1.000000;1.000000;1.000000;0.025902;-0.025902;0.025902;1.000000
445641.88300140;5696610.86149796;471.45924999;168;156;142;40606.000000;1.000000;1.000000;1.000000;1.000000;-0.153394;0.153394;-0.153394;1.000000
445641.97010239;5696610.53819855;471.45004990;148;144;132;36751.000000;1.000000;1.000000;1.000000;1.000000;-0.063025;0.063025;-0.063025;1.000000
445641.86230286;5696610.46850021;471.46754982;187;180;163;46260.000000;1.000000;1.000000;1.000000;1.000000;-0.170824;0.170824;-0.170824;1.000000
445642.00970276;5696610.70979889;471.44684984;144;133;79;33410.000000;1.000000;1.000000;1.000000;1.000000;-0.047440;0.047440;-0.047440;1.000000
445641.86940201;5696610.74119766;471.46184971;208;204;190;52171.000000;1.000000;1.000000;1.000000;1.000000;-0.178997;0.178997;-0.178997;1.000000
445642.20190247;5696610.74550064;471.45825006;131;152;110;36237.000000;1.000000;1.000000;1.000000;1.000000;0.084499;-0.084499;0.084499;1.000000
445642.03770264;5696610.48749741;471.45475008;146;140;132;35980.000000;1.000000;1.000000;1.000000;1.000000;0.004576;-0.004576;0.004576;1.000000
445641.97459991;5696610.63369949;471.44434978;169;161;142;41377.000000;1.000000;1.000000;1.000000;1.000000;-0.058527;0.058527;-0.058527;1.000000
445642.15720184;5696610.76149948;471.44484999;66;68;42;16448.000000;1.000000;1.000000;1.000000;1.000000;0.068507;-0.068507;0.068507;1.000000
445641.94600113;5696610.67830093;471.44595005;112;102;62;25700.000000;1.000000;1.000000;1.000000;1.000000;-0.087673;0.087673;-0.087673;1.000000
445642.03210266;5696610.82900055;471.45624973;197;196;183;49858.000000;1.000000;1.000000;1.000000;1.000000;0.001431;-0.001431;0.001431;1.000000
445642.20820053;5696610.82929810;471.44094994;45;49;42;12079.000000;1.000000;1.000000;1.000000;1.000000;0.000702;-0.000702;0.000702;1.000000
445642.05300339;5696610.59829910;471.44745018;154;152;144;38807.000000;1.000000;1.000000;1.000000;1.000000;0.019876;-0.019876;0.019876;1.000000
445642.06150253;5696610.78449829;471.43844988;127;119;99;30583.000000;1.000000;1.000000;1.000000;1.000000;0.045592;-0.045592;0.045592;1.000000
445641.97910126;5696610.55839737;471.44834997;153;148;139;38036.000000;1.000000;1.000000;1.000000;1.000000;-0.054026;0.054026;-0.054026;1.000000
445641.90910156;5696610.65839966;471.44635012;113;108;95;27756.000000;1.000000;1.000000;1.000000;1.000000;-0.124025;0.124025;-0.124025;1.000000
445642.05990036;5696610.82189758;471.44815018;133;131;119;33410.000000;1.000000;1.000000;1.000000;1.000000;0.009257;-0.009257;0.009257;1.000000
445641.91800125;5696610.70429810;471.44724991;147;139;114;35466.000000;1.000000;1.000000;1.000000;1.000000;-0.120547;0.120547;-0.120547;1.000000
445641.90780075;5696610.69579895;471.44904997;145;137;117;35209.000000;1.000000;1.000000;1.000000;1.000000;-0.128247;0.128247;-0.128247;1.000000
445642.02950104;5696610.67059906;471.44495012;127;112;87;29041.000000;1.000000;1.000000;1.000000;1.000000;-0.004190;0.004190;-0.004190;1.000000
445642.06620224;5696610.71159943;471.44245007;144;135;106;34438.000000;1.000000;1.000000;1.000000;1.000000;0.054362;-0.054362;0.054362;1.000000
445642.13900192;5696610.71419724;471.44105007;67;68;46;16705.000000;1.000000;1.000000;1.000000;1.000000;0.115344;-0.115344;0.115344;1.000000
445642.02280243;5696610.62449844;471.44644978;142;133;120;34438.000000;1.000000;1.000000;1.000000;1.000000;-0.010324;0.010324;-0.010324;1.000000
445642.16610153;5696610.70699890;471.44684984;51;58;25;13364.000000;1.000000;1.000000;1.000000;1.000000;0.123001;-0.123001;0.123001;1.000000
445641.99440201;5696610.59670074;471.44714977;108;106;97;26985.000000;1.000000;1.000000;1.000000;1.000000;-0.038725;0.038725;-0.038725;1.000000
445641.95919998;5696610.59530075;471.44784977;180;178;168;45489.000000;1.000000;1.000000;1.000000;1.000000;-0.073927;0.073927;-0.073927;1.000000
445642.03199966;5696610.59789856;471.44654991;98;95;86;24158.000000;1.000000;1.000000;1.000000;1.000000;-0.001127;0.001127;-0.001127;1.000000
445641.99790009;5696610.55900009;471.44684984;143;140;132;35980.000000;1.000000;1.000000;1.000000;1.000000;-0.035227;0.035227;-0.035227;1.000000
445642.03320129;5696610.56049927;471.44614985;218;216;210;55255.000000;1.000000;1.000000;1.000000;1.000000;0.000074;-0.000074;0.000074;1.000000
445642.14360245;5696610.63909729;471.44045021;162;158;147;40349.000000;1.000000;1.000000;1.000000;1.000000;0.110476;-0.110476;0.110476;1.000000
445642.11090286;5696610.49019821;471.44414999;140;130;100;33153.000000;1.000000;1.000000;1.000000;1.000000;0.077776;-0.077776;0.077776;1.000000
445642.06870087;5696610.84210022;471.44875004;174;174;166;44461.000000;1.000000;1.000000;1.000000;1.000000;-0.012100;0.012100;-0.012100;1.000000
445642.04510315;5696610.33740051;471.44635012;172;163;152;42148.000000;1.000000;1.000000;1.000000;1.000000;0.007401;-0.007401;0.007401;1.000000
445642.09679993;5696610.41449936;471.44264986;118;105;87;27242.000000;1.000000;1.000000;1.000000;1.000000;0.063673;-0.063673;0.063673;1.000000
445641.91000183;5696610.42449768;471.45994999;82;77;55;19532.000000;1.000000;1.000000;1.000000;1.000000;-0.123125;0.123125;-0.123125;1.000000
445642.10860260;5696610.56289871;471.43794968;131;127;115;32382.000000;1.000000;1.000000;1.000000;1.000000;0.075476;-0.075476;0.075476;1.000000
445642.14750107;5696610.52899750;471.43695023;113;108;93;27499.000000;1.000000;1.000000;1.000000;1.000000;0.114374;-0.114374;0.114374;1.000000
445642.02499969;5696610.37430008;471.44824984;121;112;101;29041.000000;1.000000;1.000000;1.000000;1.000000;-0.008127;0.008127;-0.008127;1.000000
445641.85590179;5696610.40360077;471.47585012;105;109;79;26728.000000;1.000000;1.000000;1.000000;1.000000;-0.177225;0.177225;-0.177225;1.000000
445642.15600021;5696610.34369858;471.43514969;153;141;131;36751.000000;1.000000;1.000000;1.000000;1.000000;0.013751;-0.013751;0.013751;1.000000
445642.03380020;5696610.76600082;471.44395020;136;127;90;32125.000000;1.000000;1.000000;1.000000;1.000000;0.063999;-0.063999;0.063999;1.000000
445641.94630249;5696610.43519791;471.45464994;90;84;62;21331.000000;1.000000;1.000000;1.000000;1.000000;-0.086824;0.086824;-0.086824;1.000000
445641.93940170;5696610.36109741;471.45344975;121;113;91;28784.000000;1.000000;1.000000;1.000000;1.000000;-0.093725;0.093725;-0.093725;1.000000
445642.13380249;5696610.40649994;471.43485023;168;156;142;40606.000000;1.000000;1.000000;1.000000;1.000000;0.076813;-0.076813;0.076813;1.000000
445641.86100204;5696610.47799881;471.46534969;184;178;162;45746.000000;1.000000;1.000000;1.000000;1.000000;-0.172125;0.172125;-0.172125;1.000000
445642.11050232;5696610.53470047;471.44004967;79;75;52;18761.000000;1.000000;1.000000;1.000000;1.000000;0.077375;-0.077375;0.077375;1.000000
445641.91980179;5696610.64809998;471.44675018;90;84;71;21588.000000;1.000000;1.000000;1.000000;1.000000;-0.113325;0.113325;-0.113325;1.000000
445641.96199997;5696610.72579773;471.44955017;142;129;81;32639.000000;1.000000;1.000000;1.000000;1.000000;-0.091271;0.091271;-0.091271;1.000000
445642.10450180;5696610.87159927;471.44144966;118;114;108;29298.000000;1.000000;1.000000;1.000000;1.000000;-0.041599;0.041599;-0.041599;1.000000
445641.85020264;5696610.73829849;471.46554996;152;149;137;38036.000000;1.000000;1.000000;1.000000;1.000000;-0.195637;0.195637;-0.195637;1.000000
445642.09870346;5696610.33029755;471.43475010;99;84;69;22102.000000;1.000000;1.000000;1.000000;1.000000;0.003091;-0.003091;0.003091;1.000000
445642.13850220;5696610.33130081;471.43415024;133;119;107;31097.000000;1.000000;1.000000;1.000000;1.000000;0.011698;-0.011698;0.011698;1.000000
445642.12630280;5696610.35109909;471.43615009;140;126;112;32896.000000;1.000000;1.000000;1.000000;1.000000;0.021099;-0.021099;0.021099;1.000000
445641.94849976;5696610.80879791;471.45454981;116;108;84;27499.000000;1.000000;1.000000;1.000000;1.000000;0.087243;-0.087243;0.087243;1.000000
445642.20340164;5696610.73599823;471.45825006;61;83;41;18247.000000;1.000000;1.000000;1.000000;1.000000;0.094002;-0.094002;0.094002;1.000000
445641.89590271;5696610.72249802;471.45585014;129;122;101;31097.000000;1.000000;1.000000;1.000000;1.000000;-0.147383;0.147383;-0.147383;1.000000
445642.02230270;5696610.64329727;471.44424965;121;106;89;27756.000000;1.000000;1.000000;1.000000;1.000000;-0.010824;0.010824;-0.010824;1.000000
445642.00140198;5696610.92309769;471.45134975;169;164;152;42148.000000;1.000000;1.000000;1.000000;1.000000;-0.098355;0.098355;-0.098355;1.000000
445641.89890106;5696610.43250092;471.46184971;84;78;57;19789.000000;1.000000;1.000000;1.000000;1.000000;-0.134226;0.134226;-0.134226;1.000000
445641.96560104;5696610.68820007;471.44694998;117;107;53;26728.000000;1.000000;1.000000;1.000000;1.000000;-0.070329;0.070329;-0.070329;1.000000
445641.90710266;5696610.74019821;471.45184996;124;118;96;30069.000000;1.000000;1.000000;1.000000;1.000000;-0.144917;0.144917;-0.144917;1.000000
445641.91700180;5696610.66699799;471.44444992;154;148;129;37779.000000;1.000000;1.000000;1.000000;1.000000;-0.116125;0.116125;-0.116125;1.000000
445641.96160324;5696610.52260025;471.45174982;106;99;86;25443.000000;1.000000;1.000000;1.000000;1.000000;-0.071524;0.071524;-0.071524;1.000000
445641.90990265;5696610.66769989;471.44644978;141;136;122;34695.000000;1.000000;1.000000;1.000000;1.000000;-0.123224;0.123224;-0.123224;1.000000
445642.03059967;5696610.63310059;471.44684984;142;131;117;33924.000000;1.000000;1.000000;1.000000;1.000000;-0.002527;0.002527;-0.002527;1.000000
445642.17609985;5696610.71529968;471.44974997;75;88;46;20303.000000;1.000000;1.000000;1.000000;1.000000;0.114700;-0.114700;0.114700;1.000000
445641.94370087;5696610.70419891;471.44614985;125;116;75;29298.000000;1.000000;1.000000;1.000000;1.000000;-0.096277;0.096277;-0.096277;1.000000
445641.84180267;5696610.49619873;471.46234991;91;83;68;21331.000000;1.000000;1.000000;1.000000;1.000000;-0.191324;0.191324;-0.191324;1.000000
445642.00360306;5696610.84580048;471.44815018;104;103;88;25957.000000;1.000000;1.000000;1.000000;1.000000;-0.033486;0.033486;-0.033486;1.000000
445642.03860291;5696610.89620026;471.45265009;144;145;139;37008.000000;1.000000;1.000000;1.000000;1.000000;-0.066200;0.066200;-0.066200;1.000000
445642.19740112;5696610.48469742;471.43164970;151;144;132;37008.000000;1.000000;1.000000;1.000000;1.000000;-0.154697;0.154697;-0.154697;1.000000
445642.02359970;5696610.63369949;471.44654991;143;132;117;34181.000000;1.000000;1.000000;1.000000;1.000000;-0.009527;0.009527;-0.009527;1.000000
445642.03550156;5696610.33600052;471.44824984;151;142;131;36751.000000;1.000000;1.000000;1.000000;1.000000;0.002375;-0.002375;0.002375;1.000000
445642.08690079;5696610.85919769;471.44514992;215;214;208;54741.000000;1.000000;1.000000;1.000000;1.000000;-0.029230;0.029230;-0.029230;1.000000
445642.23590286;5696610.83119782;471.45155003;39;45;34;10537.000000;1.000000;1.000000;1.000000;1.000000;-0.001198;0.001198;-0.001198;1.000000
445641.97089966;5696610.77169998;471.45044996;134;122;82;31097.000000;1.000000;1.000000;1.000000;1.000000;0.085271;-0.085271;0.085271;1.000000
445642.00610168;5696610.77309998;471.44974997;136;126;84;31868.000000;1.000000;1.000000;1.000000;1.000000;0.062992;-0.062992;0.062992;1.000000
445642.03970154;5696610.85869797;471.45235016;138;137;129;34952.000000;1.000000;1.000000;1.000000;1.000000;-0.028698;0.028698;-0.028698;1.000000
445642.04530151;5696610.73919876;471.44414999;115;107;65;26728.000000;1.000000;1.000000;1.000000;1.000000;0.071742;-0.071742;0.071742;1.000000
445641.95840271;5696610.61170013;471.44805004;140;137;126;34952.000000;1.000000;1.000000;1.000000;1.000000;-0.074724;0.074724;-0.074724;1.000000
445641.96090134;5696610.53909882;471.44955017;138;134;121;34181.000000;1.000000;1.000000;1.000000;1.000000;-0.072226;0.072226;-0.072226;1.000000
445642.10810287;5696610.75919922;471.44024994;86;81;65;20560.000000;1.000000;1.000000;1.000000;1.000000;0.070801;-0.070801;0.070801;1.000000
445642.14570053;5696610.76040085;471.43965008;111;112;92;28013.000000;1.000000;1.000000;1.000000;1.000000;0.069599;-0.069599;0.069599;1.000000
445641.97930344;5696610.76159866;471.45074989;128;116;68;29298.000000;1.000000;1.000000;1.000000;1.000000;0.087039;-0.087039;0.087039;1.000000
445642.02900131;5696610.68939789;471.44284966;151;138;101;35209.000000;1.000000;1.000000;1.000000;1.000000;-0.021339;0.021339;-0.021339;1.000000
445641.97210129;5696610.73419769;471.45004990;126;114;62;28527.000000;1.000000;1.000000;1.000000;1.000000;-0.089584;0.089584;-0.089584;1.000000
445642.00860031;5696610.69819839;471.44665005;140;129;79;32382.000000;1.000000;1.000000;1.000000;1.000000;-0.038487;0.038487;-0.038487;1.000000
445641.94460114;5696610.68779953;471.44595005;110;100;54;24929.000000;1.000000;1.000000;1.000000;1.000000;-0.090600;0.090600;-0.090600;1.000000
445642.05109985;5696610.62649735;471.44535019;131;124;113;31868.000000;1.000000;1.000000;1.000000;1.000000;0.017973;-0.017973;0.017973;1.000000
445641.97580154;5696610.62179764;471.44654991;140;135;120;34438.000000;1.000000;1.000000;1.000000;1.000000;-0.057325;0.057325;-0.057325;1.000000
445642.01350220;5696610.62539871;471.44605019;149;141;128;36237.000000;1.000000;1.000000;1.000000;1.000000;-0.019625;0.019625;-0.019625;1.000000
445642.05220230;5696610.58899887;471.44735004;218;217;210;55512.000000;1.000000;1.000000;1.000000;1.000000;0.019075;-0.019075;0.019075;1.000000
445641.97830017;5696610.54920013;471.44815018;155;152;142;38807.000000;1.000000;1.000000;1.000000;1.000000;-0.054827;0.054827;-0.054827;1.000000
445642.09600266;5696610.40519913;471.44245007;129;116;99;30326.000000;1.000000;1.000000;1.000000;1.000000;0.062876;-0.062876;0.062876;1.000000
445642.06190308;5696610.36630066;471.44275000;151;142;128;36751.000000;1.000000;1.000000;1.000000;1.000000;0.028776;-0.028776;0.028776;1.000000
445641.87050064;5696610.70149811;471.45674994;131;127;115;32382.000000;1.000000;1.000000;1.000000;1.000000;-0.165892;0.165892;-0.165892;1.000000
445641.90830048;5696610.90809830;471.46324970;170;159;145;41120.000000;1.000000;1.000000;1.000000;1.000000;-0.147245;0.147245;-0.147245;1.000000
445642.17250259;5696610.84440048;471.43254997;85;80;75;20560.000000;1.000000;1.000000;1.000000;1.000000;-0.014400;0.014400;-0.014400;1.000000
445642.05790146;5696610.47859772;471.45324995;190;183;169;47031.000000;1.000000;1.000000;1.000000;1.000000;0.024775;-0.024775;0.024775;1.000000
445642.21260269;5696610.73739822;471.46334984;78;106;57;23644.000000;1.000000;1.000000;1.000000;1.000000;0.092624;-0.092624;0.092624;1.000000
445641.85099991;5696610.49529846;471.46274998;97;90;75;23130.000000;1.000000;1.000000;1.000000;1.000000;-0.182127;0.182127;-0.182127;1.000000
445641.88990219;5696610.46129807;471.46404984;58;49;31;12593.000000;1.000000;1.000000;1.000000;1.000000;-0.143225;0.143225;-0.143225;1.000000
445642.17189987;5696610.83749969;471.43244984;102;97;92;24929.000000;1.000000;1.000000;1.000000;1.000000;-0.007500;0.007500;-0.007500;1.000000
445641.86480148;5696610.58989914;471.45755007;99;95;85;24415.000000;1.000000;1.000000;1.000000;1.000000;-0.168325;0.168325;-0.168325;1.000000
445641.90229996;5696610.59110077;471.45685007;108;107;96;27242.000000;1.000000;1.000000;1.000000;1.000000;-0.130827;0.130827;-0.130827;1.000000
445641.93690308;5696610.86350067;471.46164991;173;168;154;42919.000000;1.000000;1.000000;1.000000;1.000000;-0.101889;0.101889;-0.101889;1.000000
445642.06220062;5696610.79379852;471.44094994;167;162;144;41377.000000;1.000000;1.000000;1.000000;1.000000;0.036267;-0.036267;0.036267;1.000000
445641.96479996;5696610.88429840;471.45624973;127;119;104;30583.000000;1.000000;1.000000;1.000000;1.000000;-0.087275;0.087275;-0.087275;1.000000
445641.96870239;5696610.79989822;471.45305016;104;94;61;23901.000000;1.000000;1.000000;1.000000;1.000000;0.071110;-0.071110;0.071110;1.000000
445641.96600159;5696610.84679993;471.45585014;96;90;74;23130.000000;1.000000;1.000000;1.000000;1.000000;-0.069196;0.069196;-0.069196;1.000000
445642.16240128;5696610.83600052;471.43195011;105;99;93;25700.000000;1.000000;1.000000;1.000000;1.000000;-0.006001;0.006001;-0.006001;1.000000
445641.86020096;5696610.89839752;471.47265007;161;151;138;39064.000000;1.000000;1.000000;1.000000;1.000000;-0.185961;0.185961;-0.185961;1.000000
445642.09280212;5696610.72089966;471.44144966;69;61;40;15677.000000;1.000000;1.000000;1.000000;1.000000;0.079456;-0.079456;0.079456;1.000000
445642.00470169;5696610.81059845;471.45484974;136;133;111;33667.000000;1.000000;1.000000;1.000000;1.000000;0.034415;-0.034415;0.034415;1.000000
445642.12360199;5696610.87229736;471.43524982;140;135;128;34695.000000;1.000000;1.000000;1.000000;1.000000;-0.042424;0.042424;-0.042424;1.000000
445642.18270309;5696610.35289963;471.43174984;164;152;139;39578.000000;1.000000;1.000000;1.000000;1.000000;0.022900;-0.022900;0.022900;1.000000
445642.17550095;5696610.73409851;471.44994976;99;113;74;26728.000000;1.000000;1.000000;1.000000;1.000000;0.095901;-0.095901;0.095901;1.000000
445642.24720200;5696610.84900101;471.44525005;46;48;40;11822.000000;1.000000;1.000000;1.000000;1.000000;0.019001;-0.019001;0.019001;1.000000
445642.19590195;5696610.70639999;471.45755007;104;119;70;28013.000000;1.000000;1.000000;1.000000;1.000000;0.123600;-0.123600;0.123600;1.000000
445641.90080078;5696610.85280045;471.46224977;99;91;77;23387.000000;1.000000;1.000000;1.000000;1.000000;-0.134276;0.134276;-0.134276;1.000000
445642.23859985;5696610.79099854;471.46514990;27;48;17;9766.000000;1.000000;1.000000;1.000000;1.000000;0.039001;-0.039001;0.039001;1.000000
445642.20610245;5696610.71700104;471.46274998;72;94;45;21074.000000;1.000000;1.000000;1.000000;1.000000;0.112999;-0.112999;0.112999;1.000000
445642.16730316;5696610.91039856;471.42604973;158;154;145;39578.000000;1.000000;1.000000;1.000000;1.000000;-0.053324;0.053324;-0.053324;1.000000
445642.20840271;5696610.87619980;471.42985012;123;122;115;31097.000000;1.000000;1.000000;1.000000;1.000000;-0.012224;0.012224;-0.012224;1.000000
