//X;Y;Z;R;G;B;Intensity;Return Number;Number Of Returns;Scan Direction Flag;Point Source ID;C2M signed distances[-][<0.8];C2M signed distances[<0.4];C2M signed distances[-][<0.2];Stump122
445595.78060158;5696566.90439995;473.61135008;66;86;37;19018.000000;1.000000;1.000000;1.000000;1.000000;-0.143302;0.143302;-0.143302;1.000000
445595.70950134;5696566.82749947;473.57695009;114;121;77;29298.000000;1.000000;1.000000;1.000000;1.000000;-0.051374;0.051374;-0.051374;1.000000
445595.58330162;5696566.97929962;473.58005001;38;39;29;9509.000000;1.000000;1.000000;1.000000;1.000000;-0.149300;0.149300;-0.149300;1.000000
445595.72540100;5696566.89299973;473.62045004;134;151;97;35723.000000;1.000000;1.000000;1.000000;1.000000;-0.092167;0.092167;-0.092167;1.000000
445595.76710136;5696566.81979950;473.57945015;91;102;61;24158.000000;1.000000;1.000000;1.000000;1.000000;-0.108974;-0.108974;0.108974;1.000000
445595.75200089;5696566.92339905;473.61264994;73;93;42;20817.000000;1.000000;1.000000;1.000000;1.000000;-0.132422;0.132422;-0.132422;1.000000
445595.67920120;5696566.91849907;473.60934975;124;140;93;33410.000000;1.000000;1.000000;1.000000;1.000000;-0.090974;0.090974;-0.090974;1.000000
445595.59110077;5696566.98789986;473.58054974;32;33;25;7967.000000;1.000000;1.000000;1.000000;1.000000;-0.157926;0.157926;-0.157926;1.000000
445595.63200195;5696566.87889870;473.58804991;76;83;46;19532.000000;1.000000;1.000000;1.000000;1.000000;-0.048899;0.048899;-0.048899;1.000000
445595.74570091;5696566.84499939;473.58815004;90;105;52;24158.000000;1.000000;1.000000;1.000000;1.000000;-0.088849;-0.088849;0.088849;1.000000
445595.79210098;5696566.92449959;473.60514977;78;98;52;22102.000000;1.000000;1.000000;1.000000;1.000000;-0.163949;0.163949;-0.163949;1.000000
445595.71250160;5696566.99499901;473.60004999;10;17;9;3598.000000;1.000000;1.000000;1.000000;1.000000;-0.173728;0.173728;-0.173728;1.000000
445595.56650169;5696566.85459908;473.58944990;147;141;126;36237.000000;1.000000;1.000000;1.000000;1.000000;-0.024599;0.024599;-0.024599;1.000000
445595.57850082;5696566.83019836;473.58505013;164;161;146;41120.000000;1.000000;1.000000;1.000000;1.000000;-0.000198;0.000198;-0.000198;1.000000
445595.63830193;5696566.97169884;473.58944990;19;24;14;5397.000000;1.000000;1.000000;1.000000;1.000000;-0.141699;0.141699;-0.141699;1.000000
445595.60500153;5696566.86049850;473.57735016;129;128;92;31868.000000;1.000000;1.000000;1.000000;1.000000;-0.030499;0.030499;-0.030499;1.000000
445595.76850136;5696566.99669846;473.60494997;178;189;163;46774.000000;1.000000;1.000000;1.000000;1.000000;-0.199927;0.199927;-0.199927;1.000000
445595.71550186;5696566.91039856;473.61784985;69;87;31;19275.000000;1.000000;1.000000;1.000000;1.000000;-0.098772;0.098772;-0.098772;1.000000
445595.69220169;5696566.81740006;473.57604982;187;189;151;47288.000000;1.000000;1.000000;1.000000;1.000000;-0.034075;0.034075;-0.034075;1.000000
445595.70490082;5696566.94869812;473.62015011;176;192;159;47031.000000;1.000000;1.000000;1.000000;1.000000;-0.127582;0.127582;-0.127582;1.000000
445595.76860245;5696566.78240021;473.57214977;123;120;76;29812.000000;1.000000;1.000000;1.000000;1.000000;-0.110476;-0.110476;0.110476;1.000000
445595.60790070;5696566.79469879;473.58594992;165;163;150;41634.000000;1.000000;1.000000;1.000000;1.000000;0.035301;-0.035301;0.035301;1.000000
445595.63950165;5696566.93649872;473.59375002;110;122;87;29298.000000;1.000000;1.000000;1.000000;1.000000;-0.106499;0.106499;-0.106499;1.000000
445595.73650177;5696566.84809883;473.59245016;98;113;57;26214.000000;1.000000;1.000000;1.000000;1.000000;-0.080437;-0.080437;0.080437;1.000000
445595.71690186;5696566.87519844;473.61744978;182;195;149;47802.000000;1.000000;1.000000;1.000000;1.000000;-0.074144;0.074144;-0.074144;1.000000
445595.61160095;5696566.93680008;473.59014990;139;149;112;36237.000000;1.000000;1.000000;1.000000;1.000000;-0.106800;0.106800;-0.106800;1.000000
445595.76350220;5696566.86419876;473.59614994;101;121;63;27756.000000;1.000000;1.000000;1.000000;1.000000;-0.110786;-0.110786;0.110786;1.000000
445595.73160179;5696566.75339897;473.55614998;118;105;72;26985.000000;1.000000;1.000000;1.000000;1.000000;-0.073475;-0.073475;0.073475;1.000000
445595.70270164;5696566.76999863;473.55734970;97;86;57;22102.000000;1.000000;1.000000;1.000000;1.000000;-0.044575;0.044575;-0.044575;1.000000
445595.77140244;5696566.90529831;473.61095001;75;95;44;21331.000000;1.000000;1.000000;1.000000;1.000000;-0.136019;0.136019;-0.136019;1.000000
445595.75540169;5696566.81849869;473.57665016;124;134;88;32125.000000;1.000000;1.000000;1.000000;1.000000;-0.097275;-0.097275;0.097275;1.000000
445595.59290131;5696566.96189888;473.58965017;35;39;24;9252.000000;1.000000;1.000000;1.000000;1.000000;-0.131927;0.131927;-0.131927;1.000000
445595.63050087;5696566.96309860;473.58904984;12;18;5;3598.000000;1.000000;1.000000;1.000000;1.000000;-0.133099;0.133099;-0.133099;1.000000
445595.81690224;5696566.93400009;473.59474995;183;199;166;48830.000000;1.000000;1.000000;1.000000;1.000000;-0.189804;0.189804;-0.189804;1.000000
445595.63160141;5696566.92560013;473.59095003;119;130;91;31354.000000;1.000000;1.000000;1.000000;1.000000;-0.095600;0.095600;-0.095600;1.000000
445595.74630173;5696566.85409935;473.59525015;100;117;59;26985.000000;1.000000;1.000000;1.000000;1.000000;-0.091409;-0.091409;0.091409;1.000000
445595.70860107;5696566.85289963;473.59824993;180;190;143;46517.000000;1.000000;1.000000;1.000000;1.000000;-0.055426;0.055426;-0.055426;1.000000
445595.68230255;5696566.77889832;473.56115009;85;78;48;19532.000000;1.000000;1.000000;1.000000;1.000000;-0.024176;0.024176;-0.024176;1.000000
445595.60210236;5696566.93529900;473.58974983;180;188;155;46517.000000;1.000000;1.000000;1.000000;1.000000;-0.105299;0.105299;-0.105299;1.000000
445595.56110199;5696566.82229813;473.59114983;163;163;153;41377.000000;1.000000;1.000000;1.000000;1.000000;0.008369;-0.008369;0.008369;1.000000
445595.68220146;5696566.80900009;473.57324984;166;165;128;41377.000000;1.000000;1.000000;1.000000;1.000000;-0.024075;0.024075;-0.024075;1.000000
445595.67650230;5696566.98439987;473.59835007;53;62;47;14649.000000;1.000000;1.000000;1.000000;1.000000;-0.155489;0.155489;-0.155489;1.000000
445595.56510170;5696566.94109924;473.59275009;123;124;103;31097.000000;1.000000;1.000000;1.000000;1.000000;-0.111099;0.111099;-0.111099;1.000000
445595.68180092;5696566.83459862;473.58514978;83;89;43;21074.000000;1.000000;1.000000;1.000000;1.000000;-0.024117;0.024117;-0.024117;1.000000
445595.57220085;5696566.96389969;473.58634998;42;44;27;10537.000000;1.000000;1.000000;1.000000;1.000000;-0.133900;0.133900;-0.133900;1.000000
445595.67180069;5696566.82619865;473.58225014;64;72;30;16448.000000;1.000000;1.000000;1.000000;1.000000;-0.013674;0.013674;-0.013674;1.000000
445595.71820076;5696566.85669907;473.60104992;170;183;135;44461.000000;1.000000;1.000000;1.000000;1.000000;-0.065740;0.065740;-0.065740;1.000000
445595.71960075;5696566.83809860;473.58225014;117;128;81;30583.000000;1.000000;1.000000;1.000000;1.000000;-0.062005;0.062005;-0.062005;1.000000
445595.59410103;5696566.92439850;473.58925011;139;143;110;35466.000000;1.000000;1.000000;1.000000;1.000000;-0.094411;0.094411;-0.094411;1.000000
445595.71070107;5696566.78099831;473.55784990;109;98;69;25186.000000;1.000000;1.000000;1.000000;1.000000;-0.052574;0.052574;-0.052574;1.000000
445595.70090111;5696566.80739983;473.56934978;90;87;55;21588.000000;1.000000;1.000000;1.000000;1.000000;-0.042774;0.042774;-0.042774;1.000000
445595.55970200;5696566.85750015;473.59154989;156;154;142;39321.000000;1.000000;1.000000;1.000000;1.000000;-0.027636;0.027636;-0.027636;1.000000
445595.67980202;5696566.87189873;473.60174992;90;102;54;23901.000000;1.000000;1.000000;1.000000;1.000000;-0.047173;0.047173;-0.047173;1.000000
445595.63640221;5696566.99999817;473.58505013;167;171;160;43176.000000;1.000000;1.000000;1.000000;1.000000;-0.169998;0.169998;-0.169998;1.000000
445595.69990166;5696566.82599838;473.57884981;179;184;142;45489.000000;1.000000;1.000000;1.000000;1.000000;-0.041775;0.041775;-0.041775;1.000000
445595.59920128;5696566.99889954;473.57865002;15;17;10;3855.000000;1.000000;1.000000;1.000000;1.000000;-0.168900;0.168900;-0.168900;1.000000
445595.56510170;5696566.96219833;473.58605005;41;42;25;10023.000000;1.000000;1.000000;1.000000;1.000000;-0.132198;0.132198;-0.132198;1.000000
445595.60530098;5696566.89079865;473.58234980;204;204;175;51400.000000;1.000000;1.000000;1.000000;1.000000;-0.060799;0.060799;-0.060799;1.000000
445595.58860214;5696567.00919922;473.57604982;20;25;13;5654.000000;1.000000;1.000000;1.000000;1.000000;-0.179200;0.179200;-0.179200;1.000000
445595.74080093;5696566.97819908;473.61044981;22;30;18;6682.000000;1.000000;1.000000;1.000000;1.000000;-0.169700;0.169700;-0.169700;1.000000
445595.64710052;5696566.99189957;473.59004976;195;200;185;50372.000000;1.000000;1.000000;1.000000;1.000000;-0.161900;0.161900;-0.161900;1.000000
445595.77940186;5696566.94189842;473.61415007;151;169;131;40863.000000;1.000000;1.000000;1.000000;1.000000;-0.165012;0.165012;-0.165012;1.000000
445595.74530228;5696566.90299995;473.61445000;143;163;102;38550.000000;1.000000;1.000000;1.000000;1.000000;-0.113704;0.113704;-0.113704;1.000000
445595.70710190;5696566.86689957;473.60995008;187;198;156;48830.000000;1.000000;1.000000;1.000000;1.000000;-0.061320;0.061320;-0.061320;1.000000
445595.61080177;5696566.95319946;473.59035017;38;44;21;10023.000000;1.000000;1.000000;1.000000;1.000000;-0.123199;0.123199;-0.123199;1.000000
445595.67150124;5696566.85409935;473.59424974;74;81;30;18761.000000;1.000000;1.000000;1.000000;1.000000;-0.027562;0.027562;-0.027562;1.000000
445595.66440208;5696567.00199898;473.59095003;51;58;47;13878.000000;1.000000;1.000000;1.000000;1.000000;-0.172113;0.172113;-0.172113;1.000000
445595.64480217;5696566.81469925;473.58554985;127;129;95;31868.000000;1.000000;1.000000;1.000000;1.000000;0.013325;-0.013325;0.013325;1.000000
445595.61230095;5696566.91809853;473.58764984;94;101;62;24158.000000;1.000000;1.000000;1.000000;1.000000;-0.088099;0.088099;-0.088099;1.000000
445595.68950089;5696566.84539993;473.59254982;124;131;83;31611.000000;1.000000;1.000000;1.000000;1.000000;-0.034950;0.034950;-0.034950;1.000000
445595.56110199;5696566.84799965;473.59385015;165;166;156;42148.000000;1.000000;1.000000;1.000000;1.000000;-0.018295;0.018295;-0.018295;1.000000
445595.57570084;5696566.84910019;473.58285000;164;158;140;40349.000000;1.000000;1.000000;1.000000;1.000000;-0.019100;0.019100;-0.019100;1.000000
445595.64450081;5696566.86369904;473.59074976;76;81;40;19018.000000;1.000000;1.000000;1.000000;1.000000;-0.033699;0.033699;-0.033699;1.000000
445595.64990051;5696566.89809998;473.59375002;76;87;48;20303.000000;1.000000;1.000000;1.000000;1.000000;-0.068100;0.068100;-0.068100;1.000000
445595.75630196;5696566.86249931;473.59814980;101;120;63;27756.000000;1.000000;1.000000;1.000000;1.000000;-0.103414;-0.103414;0.103414;1.000000
445595.58770187;5696566.85039909;473.57875015;162;158;134;40092.000000;1.000000;1.000000;1.000000;1.000000;-0.020399;0.020399;-0.020399;1.000000
445595.77620132;5696566.79089935;473.57725002;109;113;65;27242.000000;1.000000;1.000000;1.000000;1.000000;-0.118074;-0.118074;0.118074;1.000000
445595.71900185;5696566.79869850;473.56544973;48;42;12;10280.000000;1.000000;1.000000;1.000000;1.000000;-0.060875;0.060875;-0.060875;1.000000
445595.75810059;5696566.76479919;473.56215002;131;117;83;30069.000000;1.000000;1.000000;1.000000;1.000000;-0.099974;-0.099974;0.099974;1.000000
445595.61530121;5696566.87119873;473.58024981;92;95;58;23130.000000;1.000000;1.000000;1.000000;1.000000;-0.041199;0.041199;-0.041199;1.000000
445595.64670189;5696566.75849922;473.58264973;162;164;149;41377.000000;1.000000;1.000000;1.000000;1.000000;0.011425;-0.011425;0.011425;1.000000
445595.69110115;5696566.83379944;473.58325006;147;153;110;37522.000000;1.000000;1.000000;1.000000;1.000000;-0.033192;0.033192;-0.033192;1.000000
445595.58960159;5696567.01849945;473.57385017;22;28;14;6168.000000;1.000000;1.000000;1.000000;1.000000;-0.188505;0.188505;-0.188505;1.000000
445595.57940109;5696566.81379898;473.58255007;194;193;181;49087.000000;1.000000;1.000000;1.000000;1.000000;0.016201;-0.016201;0.016201;1.000000
445595.77340134;5696566.84009941;473.58704998;127;141;93;33667.000000;1.000000;1.000000;1.000000;1.000000;-0.115716;-0.115716;0.115716;1.000000
445595.74170120;5696566.98749931;473.61065008;24;31;20;6939.000000;1.000000;1.000000;1.000000;1.000000;-0.178299;0.178299;-0.178299;1.000000
445595.72880180;5696566.83719833;473.58494999;87;98;50;22873.000000;1.000000;1.000000;1.000000;1.000000;-0.071041;-0.071041;0.071041;1.000000
445595.76970108;5696566.91239937;473.61095001;58;79;28;17219.000000;1.000000;1.000000;1.000000;1.000000;-0.138703;0.138703;-0.138703;1.000000
445595.62960251;5696566.77639969;473.58444979;169;168;152;42662.000000;1.000000;1.000000;1.000000;1.000000;0.028524;-0.028524;0.028524;1.000000
445595.57680138;5696566.88639839;473.58334972;149;145;119;36751.000000;1.000000;1.000000;1.000000;1.000000;-0.056398;0.056398;-0.056398;1.000000
445595.81390198;5696566.95299919;473.59714987;33;46;23;10023.000000;1.000000;1.000000;1.000000;1.000000;-0.198481;0.198481;-0.198481;1.000000
445595.59580238;5696566.86139877;473.57695009;124;121;89;30326.000000;1.000000;1.000000;1.000000;1.000000;-0.031399;0.031399;-0.031399;1.000000
445595.66360100;5696566.84319885;473.59135010;95;98;47;23387.000000;1.000000;1.000000;1.000000;1.000000;-0.014289;0.014289;-0.014289;1.000000
445595.58230217;5696566.96999939;473.58225014;34;35;24;8481.000000;1.000000;1.000000;1.000000;1.000000;-0.139999;0.139999;-0.139999;1.000000
445595.69140060;5696567.01349838;473.58764984;28;34;25;7967.000000;1.000000;1.000000;1.000000;1.000000;-0.186491;0.186491;-0.186491;1.000000
445595.79040154;5696566.93159874;473.60745003;101;121;78;28270.000000;1.000000;1.000000;1.000000;1.000000;-0.166790;0.166790;-0.166790;1.000000
445595.70590218;5696566.88319977;473.61704971;119;132;84;31354.000000;1.000000;1.000000;1.000000;1.000000;-0.071503;0.071503;-0.071503;1.000000
445595.69520195;5696566.89129837;473.61205008;96;111;58;25700.000000;1.000000;1.000000;1.000000;1.000000;-0.071638;0.071638;-0.071638;1.000000
445595.69400223;5696566.75219925;473.55674984;174;169;150;43176.000000;1.000000;1.000000;1.000000;1.000000;-0.035875;0.035875;-0.035875;1.000000
445595.65130051;5696566.86299904;473.59345009;66;74;29;16962.000000;1.000000;1.000000;1.000000;1.000000;-0.033004;0.033004;-0.033004;1.000000
445595.58020218;5696567.01709946;473.57105019;26;33;17;7453.000000;1.000000;1.000000;1.000000;1.000000;-0.187099;0.187099;-0.187099;1.000000
445595.75030144;5696566.93059929;473.61264994;49;68;26;14649.000000;1.000000;1.000000;1.000000;1.000000;-0.136442;0.136442;-0.136442;1.000000
445595.73000153;5696566.98629959;473.60774996;5;11;3;2056.000000;1.000000;1.000000;1.000000;1.000000;-0.172033;0.172033;-0.172033;1.000000
445595.55710228;5696566.87649925;473.58465006;158;154;134;39321.000000;1.000000;1.000000;1.000000;1.000000;-0.046499;0.046499;-0.046499;1.000000
445595.59340103;5696566.91519936;473.58675005;88;94;55;22359.000000;1.000000;1.000000;1.000000;1.000000;-0.085228;0.085228;-0.085228;1.000000
445595.65350159;5696566.77889832;473.57854988;122;122;91;30326.000000;1.000000;1.000000;1.000000;1.000000;0.004625;-0.004625;0.004625;1.000000
445595.71160133;5696566.96679886;473.61364986;17;28;14;5911.000000;1.000000;1.000000;1.000000;1.000000;-0.146879;0.146879;-0.146879;1.000000
445595.78680237;5696566.96929939;473.61014988;19;34;10;6682.000000;1.000000;1.000000;1.000000;1.000000;-0.189636;0.189636;-0.189636;1.000000
445595.61990173;5696566.97349937;473.58634998;8;9;3;2056.000000;1.000000;1.000000;1.000000;1.000000;-0.143500;0.143500;-0.143500;1.000000
445595.73270233;5696566.96719940;473.61235001;15;25;13;5140.000000;1.000000;1.000000;1.000000;1.000000;-0.156158;0.156158;-0.156158;1.000000
445595.74720200;5696566.80079849;473.56675007;142;144;104;35723.000000;1.000000;1.000000;1.000000;1.000000;-0.089075;-0.089075;0.089075;1.000000
445595.63700111;5696566.80599983;473.58505013;185;187;159;47031.000000;1.000000;1.000000;1.000000;1.000000;0.021126;-0.021126;0.021126;1.000000
445595.57610138;5696566.93309982;473.59084990;235;237;215;59881.000000;1.000000;1.000000;1.000000;1.000000;-0.103100;0.103100;-0.103100;1.000000
445595.79550179;5696566.96149834;473.60804989;18;32;9;6425.000000;1.000000;1.000000;1.000000;1.000000;-0.190167;0.190167;-0.190167;1.000000
445595.63470085;5696566.83189972;473.58535006;158;160;126;39835.000000;1.000000;1.000000;1.000000;1.000000;-0.001900;0.001900;-0.001900;1.000000
445595.59010132;5696566.99969872;473.57595016;20;23;15;5397.000000;1.000000;1.000000;1.000000;1.000000;-0.169709;0.169709;-0.169709;1.000000
445595.66740234;5696566.96409996;473.60234978;21;30;13;6425.000000;1.000000;1.000000;1.000000;1.000000;-0.134420;0.134420;-0.134420;1.000000
445595.76650055;5696566.84079941;473.58435013;125;140;91;33410.000000;1.000000;1.000000;1.000000;1.000000;-0.108910;-0.108910;0.108910;1.000000
445595.73910149;5696567.00649841;473.60374977;12;19;10;3855.000000;1.000000;1.000000;1.000000;1.000000;-0.194187;0.194187;-0.194187;1.000000
445595.66520126;5696566.77789886;473.57434990;92;93;60;22873.000000;1.000000;1.000000;1.000000;1.000000;-0.007074;0.007074;-0.007074;1.000000
445595.72150238;5696567.01299866;473.59135010;18;23;17;5140.000000;1.000000;1.000000;1.000000;1.000000;-0.193662;0.193662;-0.193662;1.000000
445595.75530060;5696566.84639938;473.58624985;103;118;67;27499.000000;1.000000;1.000000;1.000000;1.000000;-0.098548;-0.098548;0.098548;1.000000
445595.65360077;5696566.83479889;473.58855011;87;92;46;21845.000000;1.000000;1.000000;1.000000;1.000000;-0.005601;0.005601;-0.005601;1.000000
445595.66200073;5696566.85259827;473.59375002;73;78;27;17990.000000;1.000000;1.000000;1.000000;1.000000;-0.022928;0.022928;-0.022928;1.000000
445595.71280106;5696566.95729836;473.61824991;101;115;91;27756.000000;1.000000;1.000000;1.000000;1.000000;-0.138543;0.138543;-0.138543;1.000000
445595.58350189;5696566.96039970;473.58914997;42;44;30;10537.000000;1.000000;1.000000;1.000000;1.000000;-0.130400;0.130400;-0.130400;1.000000
445595.63910110;5696566.98099907;473.58965017;90;95;82;23644.000000;1.000000;1.000000;1.000000;1.000000;-0.150999;0.150999;-0.150999;1.000000
445595.63350113;5696566.84369858;473.58535006;155;156;122;38807.000000;1.000000;1.000000;1.000000;1.000000;-0.013699;0.013699;-0.013699;1.000000
445595.67190178;5696567.02709969;473.57994987;17;20;15;4626.000000;1.000000;1.000000;1.000000;1.000000;-0.197580;0.197580;-0.197580;1.000000
445595.59850128;5696566.84239967;473.58145000;188;183;166;46774.000000;1.000000;1.000000;1.000000;1.000000;-0.012400;0.012400;-0.012400;1.000000
445595.71110161;5696566.81799896;473.57464983;76;80;41;19018.000000;1.000000;1.000000;1.000000;1.000000;-0.052975;0.052975;-0.052975;1.000000
445595.61950119;5696566.76799973;473.58384993;195;195;183;49601.000000;1.000000;1.000000;1.000000;1.000000;0.038626;-0.038626;0.038626;1.000000
445595.64690216;5696566.91709908;473.59614994;105;117;78;28013.000000;1.000000;1.000000;1.000000;1.000000;-0.087099;0.087099;-0.087099;1.000000
445595.65050133;5696566.87939842;473.59354975;112;123;81;29555.000000;1.000000;1.000000;1.000000;1.000000;-0.049398;0.049398;-0.049398;1.000000
445595.58060081;5696566.80200012;473.58255007;216;216;208;55255.000000;1.000000;1.000000;1.000000;1.000000;0.028000;-0.028000;0.028000;1.000000
445595.69240196;5696567.00169952;473.59224989;18;26;17;5654.000000;1.000000;1.000000;1.000000;1.000000;-0.175087;0.175087;-0.175087;1.000000
445595.64030083;5696566.94569977;473.59385015;54;64;34;14649.000000;1.000000;1.000000;1.000000;1.000000;-0.115700;0.115700;-0.115700;1.000000
445595.71150215;5696566.79249962;473.56264975;76;66;37;16705.000000;1.000000;1.000000;1.000000;1.000000;-0.053375;0.053375;-0.053375;1.000000
445595.66670235;5696566.76839836;473.57434990;111;111;83;27499.000000;1.000000;1.000000;1.000000;1.000000;-0.008575;0.008575;-0.008575;1.000000
445595.73560150;5696566.87349899;473.61364986;163;179;130;43176.000000;1.000000;1.000000;1.000000;1.000000;-0.088851;-0.088851;0.088851;1.000000
445595.73320206;5696566.94849976;473.61445000;61;77;49;17733.000000;1.000000;1.000000;1.000000;1.000000;-0.140280;0.140280;-0.140280;1.000000
445595.76840218;5696566.94989975;473.61375000;60;76;43;17219.000000;1.000000;1.000000;1.000000;1.000000;-0.162901;0.162901;-0.162901;1.000000
445595.64280136;5696566.87079819;473.59074976;100;107;64;25700.000000;1.000000;1.000000;1.000000;1.000000;-0.040798;0.040798;-0.040798;1.000000
445595.75120171;5696566.93979843;473.61284973;23;40;8;7967.000000;1.000000;1.000000;1.000000;1.000000;-0.143940;0.143940;-0.143940;1.000000
445595.67620094;5696566.93749817;473.61175014;136;151;113;36494.000000;1.000000;1.000000;1.000000;1.000000;-0.109007;0.109007;-0.109007;1.000000
445595.69710167;5696566.94009979;473.61964991;164;180;141;43690.000000;1.000000;1.000000;1.000000;1.000000;-0.116795;0.116795;-0.116795;1.000000
445595.71260078;5696566.97619827;473.60914995;8;17;6;3341.000000;1.000000;1.000000;1.000000;1.000000;-0.156017;0.156017;-0.156017;1.000000
445595.73330124;5696566.90169914;473.61854984;121;140;83;32896.000000;1.000000;1.000000;1.000000;1.000000;-0.103884;0.103884;-0.103884;1.000000
445595.79830177;5696566.91459854;473.60295012;58;78;37;17219.000000;1.000000;1.000000;1.000000;1.000000;-0.163725;0.163725;-0.163725;1.000000
445595.66940125;5696566.91020020;473.60174992;165;179;133;43433.000000;1.000000;1.000000;1.000000;1.000000;-0.080989;0.080989;-0.080989;1.000000
445595.58710106;5696566.89709862;473.58395006;119;118;88;29555.000000;1.000000;1.000000;1.000000;1.000000;-0.067099;0.067099;-0.067099;1.000000
445595.64460190;5696566.78669937;473.58285000;138;137;114;34438.000000;1.000000;1.000000;1.000000;1.000000;0.013525;-0.013525;0.013525;1.000000
445595.57060059;5696566.82149895;473.58694984;164;164;153;41634.000000;1.000000;1.000000;1.000000;1.000000;0.008501;-0.008501;0.008501;1.000000
445595.72090157;5696566.98709877;473.60505011;6;13;4;2313.000000;1.000000;1.000000;1.000000;1.000000;-0.169176;0.169176;-0.169176;1.000000
445595.60830124;5696566.77369888;473.58344986;197;193;181;49344.000000;1.000000;1.000000;1.000000;1.000000;0.049826;-0.049826;0.049826;1.000000
445595.75820168;5696566.98829849;473.60904982;177;188;164;46774.000000;1.000000;1.000000;1.000000;1.000000;-0.187279;0.187279;-0.187279;1.000000
445595.60820206;5696566.82269867;473.58395006;153;151;132;38293.000000;1.000000;1.000000;1.000000;1.000000;0.007301;-0.007301;0.007301;1.000000
445595.60680206;5696566.83219917;473.58404972;167;164;145;41634.000000;1.000000;1.000000;1.000000;1.000000;-0.002199;0.002199;-0.002199;1.000000
445595.60910233;5696567.02839859;473.57485010;28;35;20;7967.000000;1.000000;1.000000;1.000000;1.000000;-0.198399;0.198399;-0.198399;1.000000
445595.64440163;5696567.01089867;473.58554985;35;38;31;9252.000000;1.000000;1.000000;1.000000;1.000000;-0.180899;0.180899;-0.180899;1.000000
445595.72700127;5696566.84659966;473.59194996;113;127;75;30069.000000;1.000000;1.000000;1.000000;1.000000;-0.070846;-0.070846;0.070846;1.000000
445595.69570168;5696566.77069862;473.55704977;97;88;58;22359.000000;1.000000;1.000000;1.000000;1.000000;-0.037575;0.037575;-0.037575;1.000000
445595.67830093;5696566.88130005;473.60414984;90;103;51;23901.000000;1.000000;1.000000;1.000000;1.000000;-0.055124;0.055124;-0.055124;1.000000
445595.73090179;5696566.77209862;473.55865004;118;104;72;26728.000000;1.000000;1.000000;1.000000;1.000000;-0.072775;-0.072775;0.072775;1.000000
445595.57180222;5696566.98039825;473.57725002;46;46;35;11308.000000;1.000000;1.000000;1.000000;1.000000;-0.150398;0.150398;-0.150398;1.000000
445595.68500145;5696566.95759972;473.61235001;46;58;36;13107.000000;1.000000;1.000000;1.000000;1.000000;-0.130399;0.130399;-0.130399;1.000000
445595.70630081;5696566.91129883;473.61514999;89;110;50;24929.000000;1.000000;1.000000;1.000000;1.000000;-0.094500;0.094500;-0.094500;1.000000
445595.74400146;5696566.91249855;473.61214973;117;137;80;31868.000000;1.000000;1.000000;1.000000;1.000000;-0.119082;0.119082;-0.119082;1.000000
445595.74790199;5696566.80999954;473.57154991;133;140;97;34181.000000;1.000000;1.000000;1.000000;1.000000;-0.089775;-0.089775;0.089775;1.000000
445595.70730217;5696566.87150009;473.61464979;169;180;135;43947.000000;1.000000;1.000000;1.000000;1.000000;-0.064346;0.064346;-0.064346;1.000000
445595.68900116;5696566.87319954;473.60925009;87;98;51;22873.000000;1.000000;1.000000;1.000000;1.000000;-0.053098;0.053098;-0.053098;1.000000
445595.59670074;5696566.89859970;473.58204987;138;138;106;34438.000000;1.000000;1.000000;1.000000;1.000000;-0.068600;0.068600;-0.068600;1.000000
445595.75880249;5696566.77399834;473.56465008;130;120;82;30326.000000;1.000000;1.000000;1.000000;1.000000;-0.100676;-0.100676;0.100676;1.000000
445595.62540253;5696566.83279999;473.58724977;189;189;161;47545.000000;1.000000;1.000000;1.000000;1.000000;-0.003164;0.003164;-0.003164;1.000000
445595.69460114;5696566.90999992;473.61224987;93;111;55;25443.000000;1.000000;1.000000;1.000000;1.000000;-0.087922;0.087922;-0.087922;1.000000
445595.71300133;5696566.97849854;473.60685017;9;18;7;3598.000000;1.000000;1.000000;1.000000;1.000000;-0.158313;0.158313;-0.158313;1.000000
445595.60640152;5696566.85099991;473.57954981;165;161;134;40863.000000;1.000000;1.000000;1.000000;1.000000;-0.021000;0.021000;-0.021000;1.000000
445595.81660088;5696566.90599831;473.59445002;12;27;6;5140.000000;1.000000;1.000000;1.000000;1.000000;-0.175755;0.175755;-0.175755;1.000000
445595.61760147;5696567.02049835;473.57744982;10;14;5;2827.000000;1.000000;1.000000;1.000000;1.000000;-0.190498;0.190498;-0.190498;1.000000
445595.76550110;5696566.80129822;473.57684996;132;139;94;33667.000000;1.000000;1.000000;1.000000;1.000000;-0.107374;-0.107374;0.107374;1.000000
445595.65520103;5696566.79739960;473.57884981;140;139;107;34695.000000;1.000000;1.000000;1.000000;1.000000;0.002926;-0.002926;0.002926;1.000000
445595.68490227;5696566.97649963;473.60325005;28;38;22;8481.000000;1.000000;1.000000;1.000000;1.000000;-0.148926;0.148926;-0.148926;1.000000
445595.68830116;5696566.86399849;473.60444977;103;114;69;26985.000000;1.000000;1.000000;1.000000;1.000000;-0.045457;0.045457;-0.045457;1.000000
445595.71620186;5696566.89389999;473.61994984;101;119;64;27499.000000;1.000000;1.000000;1.000000;1.000000;-0.086348;0.086348;-0.086348;1.000000
445595.59270103;5696566.98069962;473.58054974;26;27;18;6425.000000;1.000000;1.000000;1.000000;1.000000;-0.150728;0.150728;-0.150728;1.000000
445595.76910217;5696566.75679977;473.56024982;127;114;78;29041.000000;1.000000;1.000000;1.000000;1.000000;-0.110975;-0.110975;0.110975;1.000000
445595.74530228;5696566.83809860;473.58334972;94;106;55;24672.000000;1.000000;1.000000;1.000000;1.000000;-0.087551;-0.087551;0.087551;1.000000
445595.56740196;5696566.88719948;473.58524992;159;156;133;39578.000000;1.000000;1.000000;1.000000;1.000000;-0.057199;0.057199;-0.057199;1.000000
445595.78870209;5696566.94100006;473.61214973;141;159;123;38293.000000;1.000000;1.000000;1.000000;1.000000;-0.171379;0.171379;-0.171379;1.000000
445595.75260170;5696566.90469940;473.61245014;130;151;97;35466.000000;1.000000;1.000000;1.000000;1.000000;-0.120439;0.120439;-0.120439;1.000000
445595.71360214;5696566.94089897;473.61814978;94;113;74;26471.000000;1.000000;1.000000;1.000000;1.000000;-0.124000;0.124000;-0.124000;1.000000
445595.72600182;5696566.87199982;473.61555006;191;205;158;50115.000000;1.000000;1.000000;1.000000;1.000000;-0.079818;0.079818;-0.079818;1.000000
445595.77500160;5696566.83069809;473.58234980;84;96;51;22359.000000;1.000000;1.000000;1.000000;1.000000;-0.116877;-0.116877;0.116877;1.000000
445595.66580208;5696566.75919922;473.57415010;133;135;114;33924.000000;1.000000;1.000000;1.000000;1.000000;-0.007675;0.007675;-0.007675;1.000000
445595.66220100;5696566.82469948;473.58414986;56;62;22;14135.000000;1.000000;1.000000;1.000000;1.000000;-0.004074;0.004074;-0.004074;1.000000
445595.64810188;5696567.00119980;473.58794977;157;162;150;40863.000000;1.000000;1.000000;1.000000;1.000000;-0.171200;0.171200;-0.171200;1.000000
445595.76120193;5696566.92249878;473.61305000;78;99;49;22359.000000;1.000000;1.000000;1.000000;1.000000;-0.138494;0.138494;-0.138494;1.000000
445595.71860130;5696566.86579903;473.61044981;192;204;160;50115.000000;1.000000;1.000000;1.000000;1.000000;-0.070276;0.070276;-0.070276;1.000000
445595.61280258;5696566.92499931;473.59004976;96;103;65;24672.000000;1.000000;1.000000;1.000000;1.000000;-0.094999;0.094999;-0.094999;1.000000
445595.67150124;5696566.88199814;473.59924986;104;117;67;27499.000000;1.000000;1.000000;1.000000;1.000000;-0.053691;0.053691;-0.053691;1.000000
445595.71880157;5696566.82659920;473.57735016;72;80;36;18504.000000;1.000000;1.000000;1.000000;1.000000;-0.060675;0.060675;-0.060675;1.000000
445595.58710106;5696566.86919983;473.57894995;163;159;132;40349.000000;1.000000;1.000000;1.000000;1.000000;-0.039200;0.039200;-0.039200;1.000000
445595.69000061;5696566.85459908;473.59975006;122;130;82;31354.000000;1.000000;1.000000;1.000000;1.000000;-0.040262;0.040262;-0.040262;1.000000
445595.83650215;5696566.91599854;473.58844997;113;129;90;30583.000000;1.000000;1.000000;1.000000;1.000000;-0.198024;0.198024;-0.198024;1.000000
445595.60860260;5696566.80389984;473.58844997;165;163;148;41377.000000;1.000000;1.000000;1.000000;1.000000;0.026100;-0.026100;0.026100;1.000000
445595.79850204;5696566.94259842;473.60564997;118;136;100;32382.000000;1.000000;1.000000;1.000000;1.000000;-0.179954;0.179954;-0.179954;1.000000
445595.57310112;5696566.97089966;473.58185007;37;39;26;9252.000000;1.000000;1.000000;1.000000;1.000000;-0.140900;0.140900;-0.140900;1.000000
445595.80960091;5696566.90659912;473.59644987;11;29;4;5140.000000;1.000000;1.000000;1.000000;1.000000;-0.169740;0.169740;-0.169740;1.000000
445595.75540169;5696566.84869965;473.58864977;91;107;57;24672.000000;1.000000;1.000000;1.000000;1.000000;-0.099056;-0.099056;0.099056;1.000000
445595.57090195;5696566.84949883;473.58494999;147;143;126;36494.000000;1.000000;1.000000;1.000000;1.000000;-0.019499;0.019499;-0.019499;1.000000
445595.58570107;5696566.90659912;473.58395006;104;105;72;25957.000000;1.000000;1.000000;1.000000;1.000000;-0.076599;0.076599;-0.076599;1.000000
445595.76280220;5696566.91309937;473.61065008;70;93;40;20560.000000;1.000000;1.000000;1.000000;1.000000;-0.133650;0.133650;-0.133650;1.000000
445595.63670166;5696566.77799995;473.58474972;156;155;135;39321.000000;1.000000;1.000000;1.000000;1.000000;0.021425;-0.021425;0.021425;1.000000
445595.76530083;5696566.85709961;473.59385015;82;100;45;22616.000000;1.000000;1.000000;1.000000;1.000000;-0.110547;-0.110547;0.110547;1.000000
445595.68990143;5696566.85229881;473.59735014;121;129;80;31097.000000;1.000000;1.000000;1.000000;1.000000;-0.038818;0.038818;-0.038818;1.000000
445595.76820190;5696566.74529846;473.55534985;132;118;84;30326.000000;1.000000;1.000000;1.000000;1.000000;-0.110075;-0.110075;0.110075;1.000000
445595.82480057;5696566.91699989;473.59025003;89;104;69;24415.000000;1.000000;1.000000;1.000000;1.000000;-0.188014;0.188014;-0.188014;1.000000
445595.63260086;5696566.86009987;473.58785011;114;117;76;28527.000000;1.000000;1.000000;1.000000;1.000000;-0.030100;0.030100;-0.030100;1.000000
445595.57310112;5696566.95199974;473.59324982;107;109;87;26985.000000;1.000000;1.000000;1.000000;1.000000;-0.122000;0.122000;-0.122000;1.000000
445595.73950203;5696566.79220016;473.56395008;133;127;92;31868.000000;1.000000;1.000000;1.000000;1.000000;-0.081375;-0.081375;0.081375;1.000000
445595.73750122;5696566.86419876;473.60435011;123;141;85;33153.000000;1.000000;1.000000;1.000000;1.000000;-0.086428;-0.086428;0.086428;1.000000
445595.80680092;5696566.90449913;473.60094978;17;37;8;6939.000000;1.000000;1.000000;1.000000;1.000000;-0.166295;0.166295;-0.166295;1.000000
445595.64630135;5696566.77949913;473.58285000;128;126;100;31611.000000;1.000000;1.000000;1.000000;1.000000;0.011826;-0.011826;0.011826;1.000000
445595.65790184;5696566.93699844;473.60155012;68;81;48;18761.000000;1.000000;1.000000;1.000000;1.000000;0.106999;-0.106999;0.106999;1.000000
445595.69180115;5696566.97589882;473.60354998;21;32;17;6939.000000;1.000000;1.000000;1.000000;1.000000;-0.149734;0.149734;-0.149734;1.000000
445595.74680145;5696566.82860001;473.58104994;104;113;67;26985.000000;1.000000;1.000000;1.000000;1.000000;-0.088675;-0.088675;0.088675;1.000000
445595.76480110;5696566.84789856;473.58675005;107;123;70;28784.000000;1.000000;1.000000;1.000000;1.000000;-0.108165;-0.108165;0.108165;1.000000
445595.72220238;5696566.95649918;473.61634972;94;109;85;25957.000000;1.000000;1.000000;1.000000;1.000000;-0.141802;0.141802;-0.141802;1.000000
445595.61000259;5696566.99079903;473.58145000;20;21;14;4883.000000;1.000000;1.000000;1.000000;1.000000;-0.160799;0.160799;-0.160799;1.000000
445595.79460152;5696566.95220001;473.60794975;72;87;59;20303.000000;1.000000;1.000000;1.000000;1.000000;-0.183189;0.183189;-0.183189;1.000000
445595.82570084;5696566.92629822;473.59035017;176;194;159;47288.000000;1.000000;1.000000;1.000000;1.000000;-0.193273;0.193273;-0.193273;1.000000
445595.74130066;5696566.95939835;473.61254980;13;26;7;5140.000000;1.000000;1.000000;1.000000;1.000000;-0.153824;0.153824;-0.153824;1.000000
445595.77890213;5696566.96059998;473.61194994;27;42;15;8738.000000;1.000000;1.000000;1.000000;1.000000;-0.177885;0.177885;-0.177885;1.000000
445595.72860153;5696567.01459892;473.59404995;14;20;12;4369.000000;1.000000;1.000000;1.000000;1.000000;-0.197594;0.197594;-0.197594;1.000000
445595.70290192;5696567.01239975;473.58824970;24;29;24;6682.000000;1.000000;1.000000;1.000000;1.000000;-0.187815;0.187815;-0.187815;1.000000
445595.74950226;5696566.77259834;473.56185009;95;83;50;21074.000000;1.000000;1.000000;1.000000;1.000000;-0.091375;-0.091375;0.091375;1.000000
445595.72970207;5696567.00509842;473.60094978;12;18;10;3855.000000;1.000000;1.000000;1.000000;1.000000;-0.189163;0.189163;-0.189163;1.000000
445595.60150154;5696566.95409973;473.58995010;58;64;44;15420.000000;1.000000;1.000000;1.000000;1.000000;-0.124100;0.124100;-0.124100;1.000000
445595.63890083;5696566.95519836;473.59394981;23;31;10;6682.000000;1.000000;1.000000;1.000000;1.000000;-0.125198;0.125198;-0.125198;1.000000
445595.68000229;5696566.84399994;473.59214975;85;93;42;21588.000000;1.000000;1.000000;1.000000;1.000000;-0.025972;0.025972;-0.025972;1.000000
445595.67770203;5696566.90009888;473.60435011;147;162;110;38807.000000;1.000000;1.000000;1.000000;1.000000;-0.072781;0.072781;-0.072781;1.000000
445595.62540253;5696567.02909859;473.57795002;6;11;3;2056.000000;1.000000;1.000000;1.000000;1.000000;-0.199104;0.199104;-0.199104;1.000000
445595.68530090;5696566.88299950;473.60685017;69;82;31;18504.000000;1.000000;1.000000;1.000000;1.000000;-0.059560;0.059560;-0.059560;1.000000
445595.70170219;5696567.02199944;473.58365013;23;27;22;6425.000000;1.000000;1.000000;1.000000;1.000000;-0.196882;0.196882;-0.196882;1.000000
445595.66290100;5696566.83399971;473.58664991;70;74;27;17219.000000;1.000000;1.000000;1.000000;1.000000;-0.006228;0.006228;-0.006228;1.000000
445595.67280205;5696566.99409874;473.59595015;40;48;35;11308.000000;1.000000;1.000000;1.000000;1.000000;-0.164754;0.164754;-0.164754;1.000000
445595.74920090;5696566.96809967;473.61074974;49;62;39;14135.000000;1.000000;1.000000;1.000000;1.000000;-0.165427;0.165427;-0.165427;1.000000
445595.64140137;5696566.88029869;473.59084990;97;106;65;25186.000000;1.000000;1.000000;1.000000;1.000000;-0.050299;0.050299;-0.050299;1.000000
445595.71780212;5696566.84749992;473.59154989;143;155;105;37265.000000;1.000000;1.000000;1.000000;1.000000;-0.062188;0.062188;-0.062188;1.000000
445595.72140129;5696566.77059944;473.55824997;112;99;70;25443.000000;1.000000;1.000000;1.000000;1.000000;-0.063274;0.063274;-0.063274;1.000000
445595.60820206;5696567.01909836;473.57704975;15;21;9;4369.000000;1.000000;1.000000;1.000000;1.000000;-0.189098;0.189098;-0.189098;1.000000
445595.60950096;5696566.78759964;473.58594992;177;174;164;44461.000000;1.000000;1.000000;1.000000;1.000000;0.042400;-0.042400;0.042400;1.000000
445595.70960052;5696566.82979973;473.57935001;123;131;90;31868.000000;1.000000;1.000000;1.000000;1.000000;-0.051474;0.051474;-0.051474;1.000000
445595.76800163;5696566.77319916;473.56734993;155;146;106;37008.000000;1.000000;1.000000;1.000000;1.000000;-0.109875;-0.109875;0.109875;1.000000
445595.75720222;5696566.81139954;473.57424976;139;147;103;35723.000000;1.000000;1.000000;1.000000;1.000000;-0.099075;-0.099075;0.099075;1.000000
445595.61570175;5696566.80329903;473.58645012;160;159;142;40349.000000;1.000000;1.000000;1.000000;1.000000;0.026701;-0.026701;0.026701;1.000000
445595.78740128;5696566.92489822;473.60724976;83;104;57;23644.000000;1.000000;1.000000;1.000000;1.000000;-0.160367;0.160367;-0.160367;1.000000
445595.67570122;5696566.95619972;473.60955002;28;39;18;8481.000000;1.000000;1.000000;1.000000;1.000000;-0.127418;0.127418;-0.127418;1.000000
445595.55150230;5696566.84649857;473.59564974;206;208;198;52942.000000;1.000000;1.000000;1.000000;1.000000;-0.016499;0.016499;-0.016499;1.000000
445595.68380173;5696566.76939972;473.55884983;85;79;52;19789.000000;1.000000;1.000000;1.000000;1.000000;-0.025675;0.025675;-0.025675;1.000000
445595.64010056;5696566.91769989;473.59354975;85;96;58;22616.000000;1.000000;1.000000;1.000000;1.000000;-0.087700;0.087700;-0.087700;1.000000
445595.56530197;5696566.91539963;473.58785011;212;209;182;52942.000000;1.000000;1.000000;1.000000;1.000000;-0.085400;0.085400;-0.085400;1.000000
445595.56380089;5696566.95059975;473.59044983;67;68;47;16705.000000;1.000000;1.000000;1.000000;1.000000;-0.120601;0.120601;-0.120601;1.000000
445595.56990250;5696566.84019859;473.58944990;160;158;144;40349.000000;1.000000;1.000000;1.000000;1.000000;-0.010199;0.010199;-0.010199;1.000000
445595.66410072;5696567.02079971;473.58424999;13;16;10;3598.000000;1.000000;1.000000;1.000000;1.000000;-0.190893;0.190893;-0.190893;1.000000
445595.67430122;5696566.77019890;473.56535007;84;79;49;19789.000000;1.000000;1.000000;1.000000;1.000000;-0.016174;0.016174;-0.016174;1.000000
445595.80530174;5696566.96299942;473.60155012;13;25;7;4883.000000;1.000000;1.000000;1.000000;1.000000;-0.198367;0.198367;-0.198367;1.000000
445595.56660088;5696566.90369995;473.58544971;176;173;145;43690.000000;1.000000;1.000000;1.000000;1.000000;-0.073700;0.073700;-0.073700;1.000000
445595.64500244;5696566.84259995;473.58824970;99;102;58;24672.000000;1.000000;1.000000;1.000000;1.000000;-0.012600;0.012600;-0.012600;1.000000
445595.73080261;5696566.79999931;473.56594994;67;65;31;15677.000000;1.000000;1.000000;1.000000;1.000000;-0.072676;-0.072676;0.072676;1.000000
445595.60050209;5696566.98939903;473.58094980;20;21;13;4883.000000;1.000000;1.000000;1.000000;1.000000;-0.159399;0.159399;-0.159399;1.000000
445595.63570221;5696566.99299820;473.58724977;185;189;176;47802.000000;1.000000;1.000000;1.000000;1.000000;-0.162998;0.162998;-0.162998;1.000000
445595.62910088;5696567.01939972;473.58024981;8;11;4;2313.000000;1.000000;1.000000;1.000000;1.000000;-0.189400;0.189400;-0.189400;1.000000
445595.69330223;5696566.79879959;473.56654980;135;129;98;32639.000000;1.000000;1.000000;1.000000;1.000000;-0.035175;0.035175;-0.035175;1.000000
445595.69930084;5696566.81679924;473.57404997;145;148;109;36494.000000;1.000000;1.000000;1.000000;1.000000;-0.041174;0.041174;-0.041174;1.000000
445595.77570160;5696566.78399857;473.57474997;122;123;77;30069.000000;1.000000;1.000000;1.000000;1.000000;-0.117575;-0.117575;0.117575;1.000000
445595.60660179;5696566.87899979;473.57994987;144;144;111;35980.000000;1.000000;1.000000;1.000000;1.000000;-0.049000;0.049000;-0.049000;1.000000
445595.64410217;5696566.80539902;473.58304979;161;161;130;40349.000000;1.000000;1.000000;1.000000;1.000000;0.014025;-0.014025;0.014025;1.000000
445595.63590057;5696567.01869972;473.58295013;8;10;5;2056.000000;1.000000;1.000000;1.000000;1.000000;-0.188700;0.188700;-0.188700;1.000000
445595.80810173;5696566.91609962;473.59644987;43;62;29;13364.000000;1.000000;1.000000;1.000000;1.000000;-0.172932;0.172932;-0.172932;1.000000
445595.61040123;5696566.97199829;473.58584978;9;11;4;2313.000000;1.000000;1.000000;1.000000;1.000000;-0.141998;0.141998;-0.141998;1.000000
445595.64620216;5696567.02719887;473.58115007;10;12;6;2570.000000;1.000000;1.000000;1.000000;1.000000;-0.197199;0.197199;-0.197199;1.000000
445595.72630127;5696566.90229996;473.62054970;85;103;48;23387.000000;1.000000;1.000000;1.000000;1.000000;-0.099373;0.099373;-0.099373;1.000000
445595.61600121;5696566.88039978;473.58274986;85;88;54;21331.000000;1.000000;1.000000;1.000000;1.000000;-0.050400;0.050400;-0.050400;1.000000
445595.65590103;5696566.80669983;473.58134987;128;128;95;31868.000000;1.000000;1.000000;1.000000;1.000000;0.002226;-0.002226;0.002226;1.000000
445595.77400215;5696566.84929855;473.59184982;99;115;65;26728.000000;1.000000;1.000000;1.000000;1.000000;-0.117471;-0.117471;0.117471;1.000000
445595.59900101;5696566.82359894;473.58355000;176;174;159;44204.000000;1.000000;1.000000;1.000000;1.000000;0.006401;-0.006401;0.006401;1.000000
445595.67570122;5696566.76069839;473.56535007;117;116;90;29041.000000;1.000000;1.000000;1.000000;1.000000;-0.017574;0.017574;-0.017574;1.000000
445595.75660141;5696566.99549873;473.60675003;156;166;143;41120.000000;1.000000;1.000000;1.000000;1.000000;-0.192580;0.192580;-0.192580;1.000000
445595.69380196;5696566.99449928;473.59684994;16;25;15;5397.000000;1.000000;1.000000;1.000000;1.000000;-0.168323;0.168323;-0.168323;1.000000
445595.58070190;5696566.99829872;473.57315018;21;25;15;5654.000000;1.000000;1.000000;1.000000;1.000000;-0.168299;0.168299;-0.168299;1.000000
445595.62230118;5696566.92639931;473.59054996;103;113;74;26985.000000;1.000000;1.000000;1.000000;1.000000;-0.096441;0.096441;-0.096441;1.000000
445595.62910088;5696566.97259911;473.58675005;14;17;8;3855.000000;1.000000;1.000000;1.000000;1.000000;-0.142599;0.142599;-0.142599;1.000000
445595.75940140;5696566.75299843;473.55975010;118;105;70;26985.000000;1.000000;1.000000;1.000000;1.000000;-0.101274;-0.101274;0.101274;1.000000
445595.76200111;5696566.87819870;473.60794975;125;144;96;34181.000000;1.000000;1.000000;1.000000;1.000000;-0.114512;-0.114512;0.114512;1.000000
445595.68980225;5696566.88249977;473.60934975;80;93;43;21331.000000;1.000000;1.000000;1.000000;1.000000;-0.061315;0.061315;-0.061315;1.000000
445595.76250084;5696566.88509949;473.61035015;150;168;121;40349.000000;1.000000;1.000000;1.000000;1.000000;-0.118025;-0.118025;0.118025;1.000000
445595.76640137;5696566.81049927;473.57704975;119;128;84;30840.000000;1.000000;1.000000;1.000000;1.000000;-0.108274;-0.108274;0.108274;1.000000
445595.75920113;5696566.95080002;473.61334993;31;46;18;9766.000000;1.000000;1.000000;1.000000;1.000000;-0.157508;0.157508;-0.157508;1.000000
445595.61900146;5696566.96419914;473.58614971;15;19;7;4112.000000;1.000000;1.000000;1.000000;1.000000;-0.134199;0.134199;-0.134199;1.000000
445595.77220161;5696566.85639961;473.59415009;79;97;42;21845.000000;1.000000;1.000000;1.000000;1.000000;-0.117090;-0.117090;0.117090;1.000000
445595.73690231;5696566.85499962;473.59714987;106;124;64;28784.000000;1.000000;1.000000;1.000000;1.000000;-0.082647;-0.082647;0.082647;1.000000
445595.69910248;5696566.85149963;473.59774973;166;176;129;42919.000000;1.000000;1.000000;1.000000;1.000000;-0.046273;0.046273;-0.046273;1.000000
445595.72140129;5696566.94949921;473.61854984;125;143;112;34438.000000;1.000000;1.000000;1.000000;1.000000;-0.135217;0.135217;-0.135217;1.000000
445595.60910233;5696566.98149879;473.58355000;10;11;5;2570.000000;1.000000;1.000000;1.000000;1.000000;-0.151499;0.151499;-0.151499;1.000000
445595.73000153;5696566.79069908;473.56344988;107;99;66;24929.000000;1.000000;1.000000;1.000000;1.000000;-0.071875;-0.071875;0.071875;1.000000
445595.69260223;5696566.78959854;473.56174995;144;134;103;34181.000000;1.000000;1.000000;1.000000;1.000000;-0.034475;0.034475;-0.034475;1.000000
445595.72770126;5696566.86039932;473.60615017;162;176;127;42662.000000;1.000000;1.000000;1.000000;1.000000;-0.075926;-0.075926;0.075926;1.000000
445595.64910133;5696566.88889893;473.59364988;78;90;48;20817.000000;1.000000;1.000000;1.000000;1.000000;-0.058899;0.058899;-0.058899;1.000000
445595.69660194;5696566.77989967;473.55725004;131;121;91;30840.000000;1.000000;1.000000;1.000000;1.000000;-0.038475;0.038475;-0.038475;1.000000
445595.75450142;5696566.87189873;473.60514977;103;123;72;28527.000000;1.000000;1.000000;1.000000;1.000000;-0.105088;-0.105088;0.105088;1.000000
445595.73510178;5696566.86659821;473.60885002;148;165;113;39578.000000;1.000000;1.000000;1.000000;1.000000;-0.085232;-0.085232;0.085232;1.000000
445595.76560219;5696566.82919891;473.58185007;106;119;72;28013.000000;1.000000;1.000000;1.000000;1.000000;-0.107475;-0.107475;0.107475;1.000000
445595.56430252;5696566.93179901;473.59264996;184;183;160;46260.000000;1.000000;1.000000;1.000000;1.000000;-0.101799;0.101799;-0.101799;1.000000
445595.83810242;5696566.90649994;473.58605005;40;53;25;11822.000000;1.000000;1.000000;1.000000;1.000000;-0.195559;0.195559;-0.195559;1.000000
445595.76990135;5696566.94039925;473.61364986;125;142;104;33924.000000;1.000000;1.000000;1.000000;1.000000;-0.157104;0.157104;-0.157104;1.000000
445595.73230179;5696566.93919952;473.61424973;47;65;28;14135.000000;1.000000;1.000000;1.000000;1.000000;-0.132009;0.132009;-0.132009;1.000000
445595.76660164;5696566.97819908;473.60934975;142;156;128;38036.000000;1.000000;1.000000;1.000000;1.000000;-0.183657;0.183657;-0.183657;1.000000
445595.69370087;5696566.97329910;473.60825016;18;29;15;6168.000000;1.000000;1.000000;1.000000;1.000000;-0.147649;0.147649;-0.147649;1.000000
445595.75480087;5696566.83949860;473.58384993;119;132;83;31354.000000;1.000000;1.000000;1.000000;1.000000;-0.097139;-0.097139;0.097139;1.000000
445595.71430214;5696566.94779976;473.61824991;150;167;135;40606.000000;1.000000;1.000000;1.000000;1.000000;-0.130508;0.130508;-0.130508;1.000000
445595.60050209;5696566.94249924;473.58974983;153;160;130;39578.000000;1.000000;1.000000;1.000000;1.000000;-0.112499;0.112499;-0.112499;1.000000
445595.67960175;5696566.83709915;473.58734991;75;82;36;19018.000000;1.000000;1.000000;1.000000;1.000000;-0.022618;0.022618;-0.022618;1.000000
445595.63050087;5696566.88830002;473.58815004;73;81;46;19018.000000;1.000000;1.000000;1.000000;1.000000;-0.058300;0.058300;-0.058300;1.000000
445595.74430092;5696566.89369972;473.61665012;175;194;144;46774.000000;1.000000;1.000000;1.000000;1.000000;-0.107162;-0.107162;0.107162;1.000000
445595.63760193;5696566.78729828;473.58494999;154;153;133;38807.000000;1.000000;1.000000;1.000000;1.000000;0.020525;-0.020525;0.020525;1.000000
445595.72060211;5696566.76139839;473.55574991;93;79;48;20303.000000;1.000000;1.000000;1.000000;1.000000;-0.062475;0.062475;-0.062475;1.000000
445595.72360237;5696566.92129906;473.61604979;72;92;39;20560.000000;1.000000;1.000000;1.000000;1.000000;-0.112350;0.112350;-0.112350;1.000000
445595.72680099;5696566.84209831;473.58724977;103;116;64;27242.000000;1.000000;1.000000;1.000000;1.000000;-0.069732;-0.069732;0.069732;1.000000
445595.65480240;5696566.76939972;473.58085014;131;132;106;32896.000000;1.000000;1.000000;1.000000;1.000000;0.003325;-0.003325;0.003325;1.000000
445595.75470169;5696566.87649925;473.60984995;108;127;77;29555.000000;1.000000;1.000000;1.000000;1.000000;-0.107186;-0.107186;0.107186;1.000000
445595.68780144;5696566.91069992;473.60965015;112;129;76;30326.000000;1.000000;1.000000;1.000000;1.000000;-0.085983;0.085983;-0.085983;1.000000
445595.78890236;5696566.91539963;473.60724976;58;78;31;16962.000000;1.000000;1.000000;1.000000;1.000000;-0.156190;0.156190;-0.156190;1.000000
445595.67230232;5696567.01059921;473.58914997;13;18;11;3855.000000;1.000000;1.000000;1.000000;1.000000;-0.181155;0.181155;-0.181155;1.000000
