//X;Y;Z;R;G;B;Intensity;Return Number;Number Of Returns;Scan Direction Flag;Point Source ID;C2M signed distances[-][<0.8];C2M signed distances[<0.4];C2M signed distances[-][<0.2];Stump123
445584.15760239;5696578.49009903;474.43755009;159;158;132;39835.000000;1.000000;1.000000;1.000000;1.000000;-0.171677;0.171677;-0.171677;1.000000
445584.23190125;5696578.26429947;474.39405014;195;194;165;49087.000000;1.000000;1.000000;1.000000;1.000000;-0.136276;0.136276;-0.136276;1.000000
445584.27219971;5696578.37719925;474.40885021;55;56;25;13364.000000;1.000000;1.000000;1.000000;1.000000;-0.182774;0.182774;-0.182774;1.000000
445584.09350021;5696578.43369873;474.39204981;186;184;169;46774.000000;1.000000;1.000000;1.000000;1.000000;0.103720;-0.103720;0.103720;1.000000
445584.19140060;5696578.32669933;474.38364985;182;180;164;45746.000000;1.000000;1.000000;1.000000;1.000000;-0.095776;0.095776;-0.095776;1.000000
445584.20039948;5696578.42979916;474.45274975;108;110;87;27242.000000;1.000000;1.000000;1.000000;1.000000;-0.144698;0.144698;-0.144698;1.000000
445584.25330170;5696578.41579922;474.44105007;102;101;64;24929.000000;1.000000;1.000000;1.000000;1.000000;-0.179509;0.179509;-0.179509;1.000000
445584.19970139;5696578.49309929;474.44185020;152;154;124;38550.000000;1.000000;1.000000;1.000000;1.000000;-0.193477;0.193477;-0.193477;1.000000
445584.06190308;5696578.50639923;474.41484978;189;189;170;47802.000000;1.000000;1.000000;1.000000;1.000000;-0.176399;0.176399;-0.176399;1.000000
445584.27470215;5696578.35129936;474.40395023;156;153;135;38807.000000;1.000000;1.000000;1.000000;1.000000;-0.180339;0.180339;-0.180339;1.000000
445584.27340134;5696578.38649948;474.40194990;47;45;16;10794.000000;1.000000;1.000000;1.000000;1.000000;-0.186539;0.186539;-0.186539;1.000000
445584.10210236;5696578.49079903;474.42345001;196;193;177;49344.000000;1.000000;1.000000;1.000000;1.000000;-0.160929;0.160929;-0.160929;1.000000
445584.22250183;5696578.26289948;474.39125015;198;195;166;49344.000000;1.000000;1.000000;1.000000;1.000000;-0.126877;0.126877;-0.126877;1.000000
445584.21719940;5696578.37489899;474.43195011;179;181;166;45746.000000;1.000000;1.000000;1.000000;1.000000;-0.129600;0.129600;-0.129600;1.000000
445584.29010208;5696578.18199928;474.38404991;187;185;161;46774.000000;1.000000;1.000000;1.000000;1.000000;-0.194477;0.194477;-0.194477;1.000000
445584.26990326;5696578.42419918;474.40224983;126;120;90;30326.000000;1.000000;1.000000;1.000000;1.000000;-0.198107;0.198107;-0.198107;1.000000
445584.14670380;5696578.49589928;474.43015005;199;197;168;49858.000000;1.000000;1.000000;1.000000;1.000000;-0.173585;0.173585;-0.173585;1.000000
445584.22279938;5696578.45849903;474.42854979;172;168;125;42148.000000;1.000000;1.000000;1.000000;1.000000;-0.180791;0.180791;-0.180791;1.000000
445584.27120026;5696578.34219940;474.41064980;90;85;66;21588.000000;1.000000;1.000000;1.000000;1.000000;-0.175999;0.175999;-0.175999;1.000000
445584.23470123;5696578.40309914;474.46565010;99;99;70;24415.000000;1.000000;1.000000;1.000000;1.000000;-0.157117;0.157117;-0.157117;1.000000
445584.17720230;5696578.41839893;474.42364981;183;183;165;46517.000000;1.000000;1.000000;1.000000;1.000000;-0.120288;0.120288;-0.120288;1.000000
445584.22200211;5696578.40469940;474.43944981;186;185;158;46774.000000;1.000000;1.000000;1.000000;1.000000;-0.146803;0.146803;-0.146803;1.000000
445584.21540268;5696578.44919880;474.46995022;110;116;86;28270.000000;1.000000;1.000000;1.000000;1.000000;-0.168982;0.168982;-0.168982;1.000000
445584.15270050;5696578.33499916;474.37725021;200;197;177;50115.000000;1.000000;1.000000;1.000000;1.000000;-0.057294;0.057294;-0.057294;1.000000
445584.19300278;5696578.28929909;474.37395002;178;177;156;44718.000000;1.000000;1.000000;1.000000;1.000000;-0.097378;0.097378;-0.097378;1.000000
445584.03830154;5696578.46919926;474.39465000;183;177;157;45232.000000;1.000000;1.000000;1.000000;1.000000;-0.139199;0.139199;-0.139199;1.000000
445584.22450073;5696578.42259892;474.47244980;96;95;67;23644.000000;1.000000;1.000000;1.000000;1.000000;-0.158693;0.158693;-0.158693;1.000000
445584.07550247;5696578.44239910;474.39374973;177;173;161;44204.000000;1.000000;1.000000;1.000000;1.000000;-0.112399;0.112399;-0.112399;1.000000
445584.06940277;5696578.51939877;474.43164970;198;192;174;49087.000000;1.000000;1.000000;1.000000;1.000000;-0.189399;0.189399;-0.189399;1.000000
445584.20680054;5696578.35509880;474.41254999;165;167;153;42148.000000;1.000000;1.000000;1.000000;1.000000;-0.113973;0.113973;-0.113973;1.000000
445584.17060287;5696578.39129932;474.40905001;162;161;147;40863.000000;1.000000;1.000000;1.000000;1.000000;-0.096847;0.096847;-0.096847;1.000000
445584.17670258;5696578.35119923;474.39724972;161;163;151;41377.000000;1.000000;1.000000;1.000000;1.000000;-0.083803;0.083803;-0.083803;1.000000
445584.14340027;5696578.39169891;474.39155008;196;195;181;49601.000000;1.000000;1.000000;1.000000;1.000000;-0.078034;0.078034;-0.078034;1.000000
445584.28000076;5696578.22949894;474.39575006;184;184;164;46517.000000;1.000000;1.000000;1.000000;1.000000;-0.184376;0.184376;-0.184376;1.000000
445584.24100311;5696578.26349934;474.39674999;183;184;154;46260.000000;1.000000;1.000000;1.000000;1.000000;-0.145378;0.145378;-0.145378;1.000000
445584.19890030;5696578.33749874;474.39575006;145;145;130;36751.000000;1.000000;1.000000;1.000000;1.000000;-0.103547;0.103547;-0.103547;1.000000
445584.20120056;5696578.37649925;474.42654993;146;147;133;37265.000000;1.000000;1.000000;1.000000;1.000000;-0.115362;0.115362;-0.115362;1.000000
445584.12410172;5696578.40989883;474.39085009;178;177;162;44975.000000;1.000000;1.000000;1.000000;1.000000;-0.084822;0.084822;-0.084822;1.000000
445584.15860184;5696578.44809921;474.43015005;218;220;201;55769.000000;1.000000;1.000000;1.000000;1.000000;-0.133841;0.133841;-0.133841;1.000000
445584.28050049;5696578.35799892;474.39265015;118;112;92;28527.000000;1.000000;1.000000;1.000000;1.000000;-0.186984;0.186984;-0.186984;1.000000
445584.17770203;5696578.42759903;474.43074991;194;193;176;49087.000000;1.000000;1.000000;1.000000;1.000000;-0.127523;0.127523;-0.127523;1.000000
445584.15440186;5696578.32559879;474.37255003;214;209;188;53456.000000;1.000000;1.000000;1.000000;1.000000;-0.058777;0.058777;-0.058777;1.000000
445584.11980255;5696578.44509895;474.40275003;188;186;171;47288.000000;1.000000;1.000000;1.000000;1.000000;-0.117611;0.117611;-0.117611;1.000000
445584.04580124;5696578.47769936;474.39974977;147;142;122;36237.000000;1.000000;1.000000;1.000000;1.000000;-0.147699;0.147699;-0.147699;1.000000
445584.07660110;5696578.39579876;474.37694981;177;170;159;43690.000000;1.000000;1.000000;1.000000;1.000000;-0.065799;0.065799;-0.065799;1.000000
445584.16440018;5696578.48939903;474.44024994;161;162;136;40606.000000;1.000000;1.000000;1.000000;1.000000;-0.173603;0.173603;-0.173603;1.000000
445584.10530289;5696578.37909897;474.38034966;173;169;153;43176.000000;1.000000;1.000000;1.000000;1.000000;-0.050044;0.050044;-0.050044;1.000000
445584.23900040;5696578.45699890;474.42924978;145;145;100;35980.000000;1.000000;1.000000;1.000000;1.000000;-0.191534;0.191534;-0.191534;1.000000
445584.26560028;5696578.32879932;474.40325024;66;62;42;15420.000000;1.000000;1.000000;1.000000;1.000000;-0.169975;0.169975;-0.169975;1.000000
445584.05299957;5696578.51179894;474.41685011;198;195;176;49601.000000;1.000000;1.000000;1.000000;1.000000;-0.181799;0.181799;-0.181799;1.000000
445584.04700287;5696578.46139915;474.39265015;169;162;144;41634.000000;1.000000;1.000000;1.000000;1.000000;-0.131399;0.131399;-0.131399;1.000000
445584.25590332;5696578.32959946;474.41214993;100;101;85;25186.000000;1.000000;1.000000;1.000000;1.000000;-0.160278;0.160278;-0.160278;1.000000
445584.22459991;5696578.41359909;474.45134975;165;164;144;41634.000000;1.000000;1.000000;1.000000;1.000000;-0.153699;0.153699;-0.153699;1.000000
445584.15160187;5696578.41169937;474.40614988;222;220;201;56026.000000;1.000000;1.000000;1.000000;1.000000;-0.099036;0.099036;-0.099036;1.000000
445584.19260223;5696578.34729870;474.40024998;178;180;167;45489.000000;1.000000;1.000000;1.000000;1.000000;-0.098508;0.098508;-0.098508;1.000000
445584.19070251;5696578.41929920;474.43825008;143;144;127;36237.000000;1.000000;1.000000;1.000000;1.000000;-0.130438;0.130438;-0.130438;1.000000
445584.24390228;5696578.39319904;474.44735004;166;165;147;41891.000000;1.000000;1.000000;1.000000;1.000000;-0.161184;0.161184;-0.161184;1.000000
445584.17230042;5696578.31689938;474.37334969;200;195;179;49858.000000;1.000000;1.000000;1.000000;1.000000;-0.076675;0.076675;-0.076675;1.000000
445584.24609955;5696578.32349880;474.40934994;148;151;139;38036.000000;1.000000;1.000000;1.000000;1.000000;-0.150475;0.150475;-0.150475;1.000000
445584.28850372;5696578.33419903;474.37174990;134;133;115;33667.000000;1.000000;1.000000;1.000000;1.000000;-0.192924;0.192924;-0.192924;1.000000
445584.06950195;5696578.51489933;474.41995003;184;186;156;46774.000000;1.000000;1.000000;1.000000;1.000000;-0.184899;0.184899;-0.184899;1.000000
445584.28940018;5696578.23089893;474.39855005;185;186;162;47031.000000;1.000000;1.000000;1.000000;1.000000;-0.193775;0.193775;-0.193775;1.000000
445584.25030334;5696578.26479919;474.40185024;172;170;134;42662.000000;1.000000;1.000000;1.000000;1.000000;-0.154678;0.154678;-0.154678;1.000000
445584.19380005;5696578.43059929;474.44315006;161;159;141;40349.000000;1.000000;1.000000;1.000000;1.000000;-0.140565;0.140565;-0.140565;1.000000
445584.15630157;5696578.50189884;474.43765022;140;137;109;34438.000000;1.000000;1.000000;1.000000;1.000000;-0.182293;0.182293;-0.182293;1.000000
445584.16530045;5696578.47529896;474.44245007;143;139;116;35209.000000;1.000000;1.000000;1.000000;1.000000;-0.161141;0.161141;-0.161141;1.000000
445584.26110275;5696578.42209919;474.43674995;83;79;46;19532.000000;1.000000;1.000000;1.000000;1.000000;-0.189381;0.189381;-0.189381;1.000000
445584.05140121;5696578.52579887;474.42854979;181;180;155;45489.000000;1.000000;1.000000;1.000000;1.000000;-0.195799;0.195799;-0.195799;1.000000
445584.14550217;5696578.45409878;474.42264988;187;188;169;47545.000000;1.000000;1.000000;1.000000;1.000000;-0.133747;0.133747;-0.133747;1.000000
445584.22150238;5696578.47479923;474.44024994;137;137;98;33924.000000;1.000000;1.000000;1.000000;1.000000;-0.191864;0.191864;-0.191864;1.000000
445584.25650223;5696578.28289898;474.40465023;128;130;106;32382.000000;1.000000;1.000000;1.000000;1.000000;-0.160877;0.160877;-0.160877;1.000000
445584.14430054;5696578.31489952;474.36735012;218;214;197;54741.000000;1.000000;1.000000;1.000000;1.000000;-0.048676;0.048676;-0.048676;1.000000
445584.27840240;5696578.26689919;474.40544989;132;135;109;33667.000000;1.000000;1.000000;1.000000;1.000000;-0.182777;0.182777;-0.182777;1.000000
445584.23570068;5696578.37539871;474.43744995;134;132;117;33410.000000;1.000000;1.000000;1.000000;1.000000;-0.147249;0.147249;-0.147249;1.000000
445584.15330322;5696578.52079876;474.44004967;171;171;147;43176.000000;1.000000;1.000000;1.000000;1.000000;-0.199326;0.199326;-0.199326;1.000000
445584.23980148;5696578.30089958;474.39944984;134;135;116;33924.000000;1.000000;1.000000;1.000000;1.000000;-0.144176;0.144176;-0.144176;1.000000
445584.21400269;5696578.43299873;474.46744968;104;103;76;25700.000000;1.000000;1.000000;1.000000;1.000000;-0.156914;0.156914;-0.156914;1.000000
445584.23140152;5696578.31099899;474.39914991;135;135;119;34181.000000;1.000000;1.000000;1.000000;1.000000;-0.135777;0.135777;-0.135777;1.000000
445584.17140015;5696578.37259872;474.40424969;161;161;147;40863.000000;1.000000;1.000000;1.000000;1.000000;-0.086928;0.086928;-0.086928;1.000000
445584.20370300;5696578.41099937;474.44334986;159;160;151;40606.000000;1.000000;1.000000;1.000000;1.000000;-0.135062;0.135062;-0.135062;1.000000
445584.27100189;5696578.40559872;474.39045002;103;98;67;24672.000000;1.000000;1.000000;1.000000;1.000000;-0.190977;0.190977;-0.190977;1.000000
445584.25259979;5696578.41779907;474.46194984;223;223;191;56283.000000;1.000000;1.000000;1.000000;1.000000;-0.179860;0.179860;-0.179860;1.000000
445584.22900208;5696578.30899914;474.39444973;143;145;126;36494.000000;1.000000;1.000000;1.000000;1.000000;-0.133377;0.133377;-0.133377;1.000000
445584.23040207;5696578.27379902;474.39405014;183;183;157;46260.000000;1.000000;1.000000;1.000000;1.000000;-0.134777;0.134777;-0.134777;1.000000
445584.19790085;5696578.48139961;474.45795013;204;209;205;53199.000000;1.000000;1.000000;1.000000;1.000000;-0.182708;0.182708;-0.182708;1.000000
445584.16780289;5696578.44719894;474.43284990;230;233;212;58853.000000;1.000000;1.000000;1.000000;1.000000;-0.137642;0.137642;-0.137642;1.000000
445584.20509918;5696578.27169903;474.38124992;199;196;170;49858.000000;1.000000;1.000000;1.000000;1.000000;-0.109474;0.109474;-0.109474;1.000000
445584.16250046;5696578.34329899;474.38485004;173;173;157;43947.000000;1.000000;1.000000;1.000000;1.000000;-0.068185;0.068185;-0.068185;1.000000
445584.19710358;5696578.38149937;474.42415001;152;152;134;38550.000000;1.000000;1.000000;1.000000;1.000000;-0.113798;0.113798;-0.113798;1.000000
445584.23520096;5696578.40549953;474.45874979;109;108;81;26985.000000;1.000000;1.000000;1.000000;1.000000;-0.158687;0.158687;-0.158687;1.000000
445584.20450027;5696578.29039867;474.38145020;175;169;142;42919.000000;1.000000;1.000000;1.000000;1.000000;-0.108875;0.108875;-0.108875;1.000000
445584.20580109;5696578.25299938;474.37874987;198;195;170;49601.000000;1.000000;1.000000;1.000000;1.000000;-0.110176;0.110176;-0.110176;1.000000
445584.12890060;5696578.44419868;474.40774967;183;182;166;46260.000000;1.000000;1.000000;1.000000;1.000000;-0.118948;0.118948;-0.118948;1.000000
445584.27910049;5696578.24809940;474.40294983;172;171;145;43176.000000;1.000000;1.000000;1.000000;1.000000;-0.183475;0.183475;-0.183475;1.000000
445584.25830276;5696578.41769894;474.43895008;79;77;38;18761.000000;1.000000;1.000000;1.000000;1.000000;-0.184811;0.184811;-0.184811;1.000000
445584.06460388;5696578.48059948;474.40535023;154;152;133;38550.000000;1.000000;1.000000;1.000000;1.000000;-0.150599;0.150599;-0.150599;1.000000
445584.12859924;5696578.50219925;474.43174984;187;184;160;46774.000000;1.000000;1.000000;1.000000;1.000000;-0.175328;0.175328;-0.175328;1.000000
445584.26510056;5696578.30299957;474.41225006;112;111;96;28013.000000;1.000000;1.000000;1.000000;1.000000;-0.169476;0.169476;-0.169476;1.000000
445584.11390121;5696578.36899956;474.37594988;185;181;169;46260.000000;1.000000;1.000000;1.000000;1.000000;-0.043070;0.043070;-0.043070;1.000000
445584.27470215;5696578.37699898;474.40424969;49;49;18;11565.000000;1.000000;1.000000;1.000000;1.000000;-0.185142;0.185142;-0.185142;1.000000
445584.18290146;5696578.33899887;474.39034988;180;179;164;45489.000000;1.000000;1.000000;1.000000;1.000000;-0.087739;0.087739;-0.087739;1.000000
445584.21110352;5696578.42179878;474.45785000;102;102;83;25443.000000;1.000000;1.000000;1.000000;1.000000;-0.147521;0.147521;-0.147521;1.000000
445584.22580154;5696578.47649868;474.45214989;109;111;59;26728.000000;1.000000;1.000000;1.000000;1.000000;-0.195979;0.195979;-0.195979;1.000000
445584.26700027;5696578.41749866;474.39974977;115;109;76;27499.000000;1.000000;1.000000;1.000000;1.000000;-0.192420;0.192420;-0.192420;1.000000
445584.19150360;5696578.27079876;474.36894991;203;199;173;50629.000000;1.000000;1.000000;1.000000;1.000000;-0.095879;0.095879;-0.095879;1.000000
445584.22320374;5696578.44199951;474.43765022;162;159;121;39835.000000;1.000000;1.000000;1.000000;1.000000;-0.169765;0.169765;-0.169765;1.000000
445584.09450348;5696578.38709934;474.37764980;156;151;137;38550.000000;1.000000;1.000000;1.000000;1.000000;0.057110;-0.057110;0.057110;1.000000
445584.23670013;5696578.41939934;474.45424988;153;149;119;37522.000000;1.000000;1.000000;1.000000;1.000000;-0.167016;0.167016;-0.167016;1.000000
445584.22520264;5696578.31869896;474.39664986;158;160;144;40349.000000;1.000000;1.000000;1.000000;1.000000;-0.129578;0.129578;-0.129578;1.000000
445584.14850052;5696578.46309956;474.42754986;166;165;146;41891.000000;1.000000;1.000000;1.000000;1.000000;-0.143218;0.143218;-0.143218;1.000000
445584.14719971;5696578.50049885;474.43024971;189;187;156;47288.000000;1.000000;1.000000;1.000000;1.000000;-0.178129;0.178129;-0.178129;1.000000
445584.11549957;5696578.41769894;474.39055016;166;165;149;41891.000000;1.000000;1.000000;1.000000;1.000000;-0.089923;0.089923;-0.089923;1.000000
445584.26990326;5696578.27469929;474.40284969;136;135;113;33924.000000;1.000000;1.000000;1.000000;1.000000;-0.174278;0.174278;-0.174278;1.000000
445584.15530212;5696578.30689915;474.36544992;223;218;200;55769.000000;1.000000;1.000000;1.000000;1.000000;-0.059677;0.059677;-0.059677;1.000000
445584.22710236;5696578.38319881;474.43715002;188;190;171;48059.000000;1.000000;1.000000;1.000000;1.000000;-0.141832;0.141832;-0.141832;1.000000
445584.14740189;5696578.41679867;474.40595009;220;220;201;55769.000000;1.000000;1.000000;1.000000;1.000000;-0.101069;0.101069;-0.101069;1.000000
445584.19740112;5696578.49339874;474.44175007;162;164;134;41120.000000;1.000000;1.000000;1.000000;1.000000;-0.192503;0.192503;-0.192503;1.000000
445584.07500275;5696578.43539913;474.39125015;167;162;150;41634.000000;1.000000;1.000000;1.000000;1.000000;-0.105399;0.105399;-0.105399;1.000000
445584.22100266;5696578.27239903;474.39365007;182;180;153;45489.000000;1.000000;1.000000;1.000000;1.000000;-0.125378;0.125378;-0.125378;1.000000
445584.21540268;5696578.42119892;474.46505024;62;65;44;15677.000000;1.000000;1.000000;1.000000;1.000000;-0.150545;0.150545;-0.150545;1.000000
445584.14259918;5696578.38249882;474.38905003;171;169;153;42919.000000;1.000000;1.000000;1.000000;1.000000;-0.070446;0.070446;-0.070446;1.000000
445584.17950256;5696578.42049892;474.42845013;183;182;165;46260.000000;1.000000;1.000000;1.000000;1.000000;-0.123392;0.123392;-0.123392;1.000000
445584.04680069;5696578.43119915;474.38525011;149;145;135;37265.000000;1.000000;1.000000;1.000000;1.000000;-0.101199;0.101199;-0.101199;1.000000
445584.24410065;5696578.39319904;474.44264986;147;148;123;37008.000000;1.000000;1.000000;1.000000;1.000000;-0.161366;0.161366;-0.161366;1.000000
445584.22880371;5696578.28099926;474.39405014;162;160;135;40349.000000;1.000000;1.000000;1.000000;1.000000;-0.133179;0.133179;-0.133179;1.000000
445584.23260315;5696578.24559887;474.39144995;203;203;176;51400.000000;1.000000;1.000000;1.000000;1.000000;-0.136978;0.136978;-0.136978;1.000000
445584.25090225;5696578.20919903;474.37554981;199;191;161;48830.000000;1.000000;1.000000;1.000000;1.000000;-0.155277;0.155277;-0.155277;1.000000
445584.09390076;5696578.40809925;474.38245012;165;163;149;41634.000000;1.000000;1.000000;1.000000;1.000000;0.078118;-0.078118;0.078118;1.000000
445584.28429993;5696578.28259953;474.41054966;147;149;133;37522.000000;1.000000;1.000000;1.000000;1.000000;-0.188675;0.188675;-0.188675;1.000000
445584.13570221;5696578.35299881;474.37675001;161;156;141;39835.000000;1.000000;1.000000;1.000000;1.000000;-0.046207;0.046207;-0.046207;1.000000
445584.24070175;5696578.43319901;474.44535019;140;132;97;33410.000000;1.000000;1.000000;1.000000;1.000000;-0.178037;0.178037;-0.178037;1.000000
445584.11220367;5696578.43429955;474.39295008;195;193;177;49087.000000;1.000000;1.000000;1.000000;1.000000;-0.105609;0.105609;-0.105609;1.000000
445584.23489960;5696578.32689960;474.40654995;146;149;134;37522.000000;1.000000;1.000000;1.000000;1.000000;-0.139275;0.139275;-0.139275;1.000000
445584.08450134;5696578.40669926;474.37974979;186;182;170;46517.000000;1.000000;1.000000;1.000000;1.000000;-0.076719;0.076719;-0.076719;1.000000
445584.11900146;5696578.49849899;474.42894985;199;194;176;49601.000000;1.000000;1.000000;1.000000;1.000000;-0.170113;0.170113;-0.170113;1.000000
445584.23050125;5696578.46709927;474.43125011;199;192;152;48573.000000;1.000000;1.000000;1.000000;1.000000;-0.192322;0.192322;-0.192322;1.000000
445584.21540268;5696578.44919880;474.46995022;111;117;86;28527.000000;1.000000;1.000000;1.000000;1.000000;-0.168982;0.168982;-0.168982;1.000000
445584.28840073;5696578.21939953;474.39605000;180;179;153;45232.000000;1.000000;1.000000;1.000000;1.000000;-0.192776;0.192776;-0.192776;1.000000
445584.16860016;5696578.36359890;474.39694979;142;145;129;36494.000000;1.000000;1.000000;1.000000;1.000000;-0.080338;0.080338;-0.080338;1.000000
445584.13250168;5696578.39979942;474.39115002;200;198;182;50372.000000;1.000000;1.000000;1.000000;1.000000;-0.078942;0.078942;-0.078942;1.000000
445584.16710098;5696578.43799885;474.42805006;227;229;208;58082.000000;1.000000;1.000000;1.000000;1.000000;-0.129509;0.129509;-0.129509;1.000000
445584.19980057;5696578.49319942;474.43954994;154;155;124;38807.000000;1.000000;1.000000;1.000000;1.000000;-0.193615;0.193615;-0.193615;1.000000
445584.17760284;5696578.48569878;474.45004990;188;190;176;48059.000000;1.000000;1.000000;1.000000;1.000000;-0.175962;0.175962;-0.175962;1.000000
445584.14960297;5696578.44669922;474.42044975;197;198;179;50115.000000;1.000000;1.000000;1.000000;1.000000;-0.128578;0.128578;-0.128578;1.000000
445584.27920349;5696578.22029884;474.39325001;188;186;162;47031.000000;1.000000;1.000000;1.000000;1.000000;-0.183578;0.183578;-0.183578;1.000000
445584.24030121;5696578.25419910;474.39424994;188;188;158;47288.000000;1.000000;1.000000;1.000000;1.000000;-0.144676;0.144676;-0.144676;1.000000
445584.20310028;5696578.33009918;474.39115002;154;153;141;38807.000000;1.000000;1.000000;1.000000;1.000000;-0.107475;0.107475;-0.107475;1.000000
445584.19610031;5696578.40019901;474.43354990;159;155;147;39835.000000;1.000000;1.000000;1.000000;1.000000;-0.122569;0.122569;-0.122569;1.000000
445584.12320145;5696578.40059956;474.39074995;171;169;153;42919.000000;1.000000;1.000000;1.000000;1.000000;-0.075794;0.075794;-0.075794;1.000000
445584.16029938;5696578.43869884;474.42544987;227;228;209;57825.000000;1.000000;1.000000;1.000000;1.000000;-0.126484;0.126484;-0.126484;1.000000
445584.11919983;5696578.43589886;474.39794971;182;182;166;46260.000000;1.000000;1.000000;1.000000;1.000000;-0.108491;0.108491;-0.108491;1.000000
445584.11030014;5696578.51079948;474.44035007;172;170;145;42919.000000;1.000000;1.000000;1.000000;1.000000;-0.181394;0.181394;-0.181394;1.000000
445584.29080017;5696578.16559895;474.38614990;175;174;155;44204.000000;1.000000;1.000000;1.000000;1.000000;-0.195175;0.195175;-0.195175;1.000000
445584.28540237;5696578.37199886;474.36275007;24;16;8;4369.000000;1.000000;1.000000;1.000000;1.000000;-0.194369;0.194369;-0.194369;1.000000
445584.04860123;5696578.42399891;474.38294985;143;140;129;35723.000000;1.000000;1.000000;1.000000;1.000000;-0.093999;0.093999;-0.093999;1.000000
445584.19849976;5696578.30039890;474.37894966;173;170;150;43176.000000;1.000000;1.000000;1.000000;1.000000;-0.102875;0.102875;-0.102875;1.000000
445584.07230194;5696578.52839954;474.43654968;200;194;173;49601.000000;1.000000;1.000000;1.000000;1.000000;-0.198400;0.198400;-0.198400;1.000000
445584.28429993;5696578.30819901;474.41314985;140;144;139;36494.000000;1.000000;1.000000;1.000000;1.000000;-0.188675;0.188675;-0.188675;1.000000
445584.17750366;5696578.36269959;474.40434982;160;162;147;40863.000000;1.000000;1.000000;1.000000;1.000000;-0.088167;0.088167;-0.088167;1.000000
445584.21730240;5696578.40509899;474.43925001;202;201;177;50886.000000;1.000000;1.000000;1.000000;1.000000;-0.142987;0.142987;-0.142987;1.000000
445584.17850311;5696578.43909939;474.43794968;211;212;191;53713.000000;1.000000;1.000000;1.000000;1.000000;-0.137009;0.137009;-0.137009;1.000000
445584.13740356;5696578.43409927;474.40574982;183;182;164;46260.000000;1.000000;1.000000;1.000000;1.000000;-0.112170;0.112170;-0.112170;1.000000
445584.28360184;5696578.37909897;474.36514999;52;47;31;11822.000000;1.000000;1.000000;1.000000;1.000000;-0.194283;0.194283;-0.194283;1.000000
445584.11120041;5696578.45289906;474.40245010;202;201;189;51143.000000;1.000000;1.000000;1.000000;1.000000;-0.123882;0.123882;-0.123882;1.000000
445584.10339935;5696578.44209869;474.39734985;193;192;176;48830.000000;1.000000;1.000000;1.000000;1.000000;-0.112368;0.112368;-0.112368;1.000000
445584.13890274;5696578.48729904;474.42974998;185;182;158;46260.000000;1.000000;1.000000;1.000000;1.000000;-0.163144;0.163144;-0.163144;1.000000
445584.07400330;5696578.45179947;474.39605000;189;186;174;47545.000000;1.000000;1.000000;1.000000;1.000000;-0.121799;0.121799;-0.121799;1.000000
445584.06990250;5696578.52629955;474.43405010;183;180;154;45746.000000;1.000000;1.000000;1.000000;1.000000;-0.196300;0.196300;-0.196300;1.000000
445584.27120026;5696578.40569885;474.38584997;106;104;73;25957.000000;1.000000;1.000000;1.000000;1.000000;-0.191199;0.191199;-0.191199;1.000000
445584.06560333;5696578.43399914;474.38854982;178;171;158;43947.000000;1.000000;1.000000;1.000000;1.000000;-0.103999;0.103999;-0.103999;1.000000
445584.25810059;5696578.27349957;474.40224983;132;134;109;33410.000000;1.000000;1.000000;1.000000;1.000000;-0.162476;0.162476;-0.162476;1.000000
445584.21550186;5696578.38429935;474.43664982;184;185;174;47031.000000;1.000000;1.000000;1.000000;1.000000;-0.131601;0.131601;-0.131601;1.000000
445584.26230057;5696578.38009937;474.42705013;197;186;164;47802.000000;1.000000;1.000000;1.000000;1.000000;-0.174042;0.174042;-0.174042;1.000000
445584.11090286;5696578.48299892;474.42145016;189;186;171;47545.000000;1.000000;1.000000;1.000000;1.000000;-0.153760;0.153760;-0.153760;1.000000
445584.10830124;5696578.50879868;474.42854979;165;159;138;40606.000000;1.000000;1.000000;1.000000;1.000000;-0.179247;0.179247;-0.179247;1.000000
445584.21710022;5696578.33559902;474.40354969;143;145;130;36494.000000;1.000000;1.000000;1.000000;1.000000;-0.121604;0.121604;-0.121604;1.000000
445584.03490265;5696578.48799904;474.40404989;161;157;129;39835.000000;1.000000;1.000000;1.000000;1.000000;-0.157999;0.157999;-0.157999;1.000000
445584.26640137;5696578.31239899;474.40315010;83;89;67;21588.000000;1.000000;1.000000;1.000000;1.000000;-0.170776;0.170776;-0.170776;1.000000
445584.26659973;5696578.29349907;474.41225006;155;154;140;39064.000000;1.000000;1.000000;1.000000;1.000000;-0.170975;0.170975;-0.170975;1.000000
445584.17380341;5696578.37459953;474.40665009;172;170;159;43433.000000;1.000000;1.000000;1.000000;1.000000;-0.090005;0.090005;-0.090005;1.000000
445584.22200211;5696578.44929894;474.42834999;178;173;131;43433.000000;1.000000;1.000000;1.000000;1.000000;-0.173791;0.173791;-0.173791;1.000000
445584.20590027;5696578.41069897;474.44584991;143;146;135;36751.000000;1.000000;1.000000;1.000000;1.000000;-0.136649;0.136649;-0.136649;1.000000
445584.21310242;5696578.30829914;474.38434984;172;174;156;43947.000000;1.000000;1.000000;1.000000;1.000000;-0.117477;0.117477;-0.117477;1.000000
445584.16750153;5696578.41019924;474.41375019;186;187;168;47288.000000;1.000000;1.000000;1.000000;1.000000;-0.107695;0.107695;-0.107695;1.000000
445584.13130005;5696578.44629868;474.41025021;192;192;174;48830.000000;1.000000;1.000000;1.000000;1.000000;-0.121647;0.121647;-0.121647;1.000000
445584.22450073;5696578.45809944;474.44255020;164;163;118;40606.000000;1.000000;1.000000;1.000000;1.000000;-0.181710;0.181710;-0.181710;1.000000
445584.26980026;5696578.37739952;474.41104986;41;43;9;9766.000000;1.000000;1.000000;1.000000;1.000000;-0.180510;0.180510;-0.180510;1.000000
445584.08400162;5696578.46239956;474.40364983;204;200;188;51143.000000;1.000000;1.000000;1.000000;1.000000;-0.132405;0.132405;-0.132405;1.000000
445584.24620255;5696578.41409882;474.44065001;116;117;85;29041.000000;1.000000;1.000000;1.000000;1.000000;-0.172471;0.172471;-0.172471;1.000000
445584.20210083;5696578.49069889;474.43724968;160;161;130;40349.000000;1.000000;1.000000;1.000000;1.000000;-0.192772;0.192772;-0.192772;1.000000
445584.26910217;5696578.23749931;474.39535000;186;181;153;46003.000000;1.000000;1.000000;1.000000;1.000000;-0.173477;0.173477;-0.173477;1.000000
445584.19009979;5696578.34289940;474.39535000;174;175;163;44461.000000;1.000000;1.000000;1.000000;1.000000;-0.095351;0.095351;-0.095351;1.000000
445584.07140167;5696578.47989948;474.40794994;168;167;152;42405.000000;1.000000;1.000000;1.000000;1.000000;-0.149899;0.149899;-0.149899;1.000000
445584.28950317;5696578.17509945;474.38385012;186;184;161;46774.000000;1.000000;1.000000;1.000000;1.000000;-0.193878;0.193878;-0.193878;1.000000
445584.22590073;5696578.36479958;474.42525007;158;159;139;40092.000000;1.000000;1.000000;1.000000;1.000000;-0.134844;0.134844;-0.134844;1.000000
445584.26640137;5696578.38939960;474.40634968;36;32;8;7710.000000;1.000000;1.000000;1.000000;1.000000;-0.180812;0.180812;-0.180812;1.000000
445584.26510056;5696578.42459877;474.40444996;142;137;107;34695.000000;1.000000;1.000000;1.000000;1.000000;-0.194090;0.194090;-0.194090;1.000000
445584.15170105;5696578.38159950;474.39414980;160;157;142;40092.000000;1.000000;1.000000;1.000000;1.000000;-0.076204;0.076204;-0.076204;1.000000
445584.18630035;5696578.41979893;474.43104984;170;168;151;42662.000000;1.000000;1.000000;1.000000;1.000000;-0.127616;0.127616;-0.127616;1.000000
445584.13060196;5696578.46499928;474.41274979;184;182;167;46260.000000;1.000000;1.000000;1.000000;1.000000;-0.139457;0.139457;-0.139457;1.000000
445584.28249939;5696578.29419907;474.42224981;148;150;135;37779.000000;1.000000;1.000000;1.000000;1.000000;-0.186874;0.186874;-0.186874;1.000000
445584.26640137;5696578.40599926;474.39024975;98;93;61;23130.000000;1.000000;1.000000;1.000000;1.000000;-0.186924;0.186924;-0.186924;1.000000
445584.24320038;5696578.39069946;474.45895006;115;113;95;28527.000000;1.000000;1.000000;1.000000;1.000000;-0.159571;0.159571;-0.159571;1.000000
445584.24329956;5696578.34929951;474.42114975;123;124;106;31097.000000;1.000000;1.000000;1.000000;1.000000;-0.148930;0.148930;-0.148930;1.000000
445584.20930298;5696578.31799896;474.38434984;186;187;172;47545.000000;1.000000;1.000000;1.000000;1.000000;-0.113678;0.113678;-0.113678;1.000000
445584.25310333;5696578.23679932;474.38534977;167;169;143;42405.000000;1.000000;1.000000;1.000000;1.000000;-0.157478;0.157478;-0.157478;1.000000
445584.26630219;5696578.34029873;474.41045000;63;61;45;15163.000000;1.000000;1.000000;1.000000;1.000000;-0.170988;0.170988;-0.170988;1.000000
445584.23010071;5696578.44129951;474.43794968;157;154;115;38550.000000;1.000000;1.000000;1.000000;1.000000;-0.174560;0.174560;-0.174560;1.000000
445584.20250137;5696578.31869896;474.38164999;186;185;171;47031.000000;1.000000;1.000000;1.000000;1.000000;-0.106876;0.106876;-0.106876;1.000000
445584.16470154;5696578.47059925;474.44694998;161;159;131;40092.000000;1.000000;1.000000;1.000000;1.000000;-0.156652;0.156652;-0.156652;1.000000
445584.26860245;5696578.41709908;474.41615011;49;50;25;11822.000000;1.000000;1.000000;1.000000;1.000000;-0.193668;0.193668;-0.193668;1.000000
445584.15610321;5696578.44369896;474.42534973;212;213;196;53970.000000;1.000000;1.000000;1.000000;1.000000;-0.128783;0.128783;-0.128783;1.000000
445584.28709991;5696578.31579884;474.36455013;111;105;80;26728.000000;1.000000;1.000000;1.000000;1.000000;-0.191475;0.191475;-0.191475;1.000000
445584.24300201;5696578.41409882;474.45914986;166;163;132;41120.000000;1.000000;1.000000;1.000000;1.000000;-0.169684;0.169684;-0.169684;1.000000
445584.24720200;5696578.33959873;474.41884996;119;119;107;30069.000000;1.000000;1.000000;1.000000;1.000000;-0.151881;0.151881;-0.151881;1.000000
445584.28260239;5696578.39779957;474.37454988;75;69;44;17476.000000;1.000000;1.000000;1.000000;1.000000;-0.198890;0.198890;-0.198890;1.000000
445584.16760071;5696578.50299938;474.44985010;153;152;136;38550.000000;1.000000;1.000000;1.000000;1.000000;-0.187375;0.187375;-0.187375;1.000000
445584.05460175;5696578.50009926;474.40745022;177;177;161;44975.000000;1.000000;1.000000;1.000000;1.000000;-0.170099;0.170099;-0.170099;1.000000
445584.12759979;5696578.52089890;474.43895008;182;180;169;46003.000000;1.000000;1.000000;1.000000;1.000000;-0.193558;0.193558;-0.193558;1.000000
445584.25940140;5696578.40589912;474.44115021;65;67;38;16191.000000;1.000000;1.000000;1.000000;1.000000;-0.180509;0.180509;-0.180509;1.000000
445584.23540314;5696578.46449955;474.41984989;209;201;162;51143.000000;1.000000;1.000000;1.000000;1.000000;-0.193980;0.193980;-0.193980;1.000000
445584.19830139;5696578.43009956;474.44805004;123;124;102;31097.000000;1.000000;1.000000;1.000000;1.000000;-0.143396;0.143396;-0.143396;1.000000
445584.15760239;5696578.46449955;474.43494989;193;195;174;49344.000000;1.000000;1.000000;1.000000;1.000000;-0.148092;0.148092;-0.148092;1.000000
445584.21220215;5696578.29899891;474.38425018;138;133;112;33924.000000;1.000000;1.000000;1.000000;1.000000;-0.116577;0.116577;-0.116577;1.000000
445584.27920349;5696578.36979874;474.39274981;93;91;69;22873.000000;1.000000;1.000000;1.000000;1.000000;-0.187843;0.187843;-0.187843;1.000000
445584.25310333;5696578.38549908;474.43594982;158;158;135;39835.000000;1.000000;1.000000;1.000000;1.000000;-0.166972;0.166972;-0.166972;1.000000
445584.18470200;5696578.27149876;474.36634972;197;194;170;49344.000000;1.000000;1.000000;1.000000;1.000000;-0.089077;0.089077;-0.089077;1.000000
445584.12810333;5696578.49309929;474.42234995;176;172;150;43690.000000;1.000000;1.000000;1.000000;1.000000;-0.166302;0.166302;-0.166302;1.000000
445584.13480194;5696578.37159927;474.38394978;169;166;152;42405.000000;1.000000;1.000000;1.000000;1.000000;-0.057143;0.057143;-0.057143;1.000000
445584.28610046;5696578.29429920;474.39444973;77;72;45;17990.000000;1.000000;1.000000;1.000000;1.000000;-0.190475;0.190475;-0.190475;1.000000
445584.27430161;5696578.31879910;474.39654972;76;75;53;18504.000000;1.000000;1.000000;1.000000;1.000000;-0.178677;0.178677;-0.178677;1.000000
445584.15100296;5696578.49309929;474.43265011;160;157;132;39835.000000;1.000000;1.000000;1.000000;1.000000;-0.172244;0.172244;-0.172244;1.000000
445584.05460175;5696578.46989925;474.39774992;144;142;126;35980.000000;1.000000;1.000000;1.000000;1.000000;-0.139899;0.139899;-0.139899;1.000000
445584.20150192;5696578.28149899;474.37655022;190;186;161;47288.000000;1.000000;1.000000;1.000000;1.000000;-0.105877;0.105877;-0.105877;1.000000
445584.20000275;5696578.35579880;474.40994980;186;188;174;47545.000000;1.000000;1.000000;1.000000;1.000000;-0.107519;0.107519;-0.107519;1.000000
445584.12410172;5696578.35179909;474.37384989;171;169;156;43176.000000;1.000000;1.000000;1.000000;1.000000;-0.035863;0.035863;-0.035863;1.000000
445584.22380264;5696578.45339878;474.44945004;156;155;114;38550.000000;1.000000;1.000000;1.000000;1.000000;-0.177923;0.177923;-0.177923;1.000000
445584.18200119;5696578.32299908;474.37844994;190;188;169;47802.000000;1.000000;1.000000;1.000000;1.000000;-0.086376;0.086376;-0.086376;1.000000
445584.18240173;5696578.36679943;474.40924980;164;164;148;41634.000000;1.000000;1.000000;1.000000;1.000000;-0.094257;0.094257;-0.094257;1.000000
445584.21439941;5696578.40289886;474.44845011;160;165;149;41377.000000;1.000000;1.000000;1.000000;1.000000;-0.139361;0.139361;-0.139361;1.000000
445584.17600067;5696578.40229900;474.41645004;172;173;155;43690.000000;1.000000;1.000000;1.000000;1.000000;-0.108108;0.108108;-0.108108;1.000000
445584.28040131;5696578.32319935;474.37365009;145;138;119;35466.000000;1.000000;1.000000;1.000000;1.000000;-0.184776;0.184776;-0.184776;1.000000
445584.28350266;5696578.35789879;474.37645008;118;111;91;28270.000000;1.000000;1.000000;1.000000;1.000000;-0.189938;0.189938;-0.189938;1.000000
445584.25480087;5696578.37389954;474.42425014;119;114;91;28784.000000;1.000000;1.000000;1.000000;1.000000;-0.165119;0.165119;-0.165119;1.000000
445584.21840103;5696578.29139908;474.38674976;148;148;127;37265.000000;1.000000;1.000000;1.000000;1.000000;-0.122776;0.122776;-0.122776;1.000000
445584.25220306;5696578.22759922;474.38514997;170;168;144;42405.000000;1.000000;1.000000;1.000000;1.000000;-0.156578;0.156578;-0.156578;1.000000
445584.04530151;5696578.49869926;474.40465023;161;159;138;40349.000000;1.000000;1.000000;1.000000;1.000000;-0.168699;0.168699;-0.168699;1.000000
445584.28680237;5696578.29899891;474.38994982;77;70;51;17990.000000;1.000000;1.000000;1.000000;1.000000;-0.191177;0.191177;-0.191177;1.000000
445584.23579987;5696578.46909912;474.42224981;221;213;175;54227.000000;1.000000;1.000000;1.000000;1.000000;-0.197478;0.197478;-0.197478;1.000000
445584.27430161;5696578.32099922;474.40124990;69;65;43;16191.000000;1.000000;1.000000;1.000000;1.000000;-0.178677;0.178677;-0.178677;1.000000
445584.21500214;5696578.40989883;474.44854977;162;165;152;41634.000000;1.000000;1.000000;1.000000;1.000000;-0.143648;0.143648;-0.143648;1.000000
445584.17070206;5696578.32639893;474.37564995;197;193;177;49344.000000;1.000000;1.000000;1.000000;1.000000;-0.075077;0.075077;-0.075077;1.000000
445584.20760162;5696578.40359886;474.44584991;164;169;158;42662.000000;1.000000;1.000000;1.000000;1.000000;-0.133998;0.133998;-0.133998;1.000000
445584.16930206;5696578.40299900;474.41144993;167;167;149;42405.000000;1.000000;1.000000;1.000000;1.000000;-0.103717;0.103717;-0.103717;1.000000
445584.23690231;5696578.39379890;474.44934990;174;172;159;43947.000000;1.000000;1.000000;1.000000;1.000000;-0.155015;0.155015;-0.155015;1.000000
445584.16309937;5696578.31779869;474.37054970;207;199;180;51143.000000;1.000000;1.000000;1.000000;1.000000;-0.067474;0.067474;-0.067474;1.000000
445584.19260223;5696578.41449936;474.43594982;169;170;153;42919.000000;1.000000;1.000000;1.000000;1.000000;-0.128626;0.128626;-0.128626;1.000000
445584.18370255;5696578.44559868;474.44054987;207;210;188;52942.000000;1.000000;1.000000;1.000000;1.000000;-0.145330;0.145330;-0.145330;1.000000
445584.25970276;5696578.38249882;474.43855001;215;212;195;54227.000000;1.000000;1.000000;1.000000;1.000000;-0.172272;0.172272;-0.172272;1.000000
445584.22220047;5696578.30969913;474.39174988;148;148;130;37522.000000;1.000000;1.000000;1.000000;1.000000;-0.126575;0.126575;-0.126575;1.000000
445584.25980194;5696578.23839958;474.39494993;182;177;148;44975.000000;1.000000;1.000000;1.000000;1.000000;-0.164177;0.164177;-0.164177;1.000000
445584.22340210;5696578.44199951;474.43304970;166;161;125;40606.000000;1.000000;1.000000;1.000000;1.000000;-0.169914;0.169914;-0.169914;1.000000
445584.23470123;5696578.40309914;474.46565010;96;97;68;23901.000000;1.000000;1.000000;1.000000;1.000000;-0.157117;0.157117;-0.157117;1.000000
445584.23530014;5696578.36629875;474.42794992;132;134;115;33667.000000;1.000000;1.000000;1.000000;1.000000;-0.144315;0.144315;-0.144315;1.000000
445584.26160248;5696578.40109928;474.43424990;68;70;45;16962.000000;1.000000;1.000000;1.000000;1.000000;-0.180565;0.180565;-0.180565;1.000000
445584.22210129;5696578.40699871;474.44185020;181;180;151;45489.000000;1.000000;1.000000;1.000000;1.000000;-0.148071;0.148071;-0.148071;1.000000
445584.11480148;5696578.51259907;474.44754984;151;148;113;37265.000000;1.000000;1.000000;1.000000;1.000000;-0.183603;0.183603;-0.183603;1.000000
445584.27740295;5696578.28319939;474.41025021;154;154;139;39064.000000;1.000000;1.000000;1.000000;1.000000;-0.181778;0.181778;-0.181778;1.000000
445584.08530243;5696578.38799961;474.37484982;154;149;136;38293.000000;1.000000;1.000000;1.000000;1.000000;-0.058055;0.058055;-0.058055;1.000000
445584.15730103;5696578.42739876;474.41585018;224;224;206;57054.000000;1.000000;1.000000;1.000000;1.000000;-0.115284;0.115284;-0.115284;1.000000
445584.20560272;5696578.43859871;474.45774986;117;117;92;29298.000000;1.000000;1.000000;1.000000;1.000000;-0.154560;0.154560;-0.154560;1.000000
445584.09760101;5696578.51919945;474.42824986;175;173;140;43433.000000;1.000000;1.000000;1.000000;1.000000;-0.189210;0.189210;-0.189210;1.000000
445584.11390121;5696578.42709930;474.39295008;176;174;159;44204.000000;1.000000;1.000000;1.000000;1.000000;-0.098804;0.098804;-0.098804;1.000000
445584.26390274;5696578.39639957;474.42495014;68;69;45;16962.000000;1.000000;1.000000;1.000000;1.000000;-0.180904;0.180904;-0.180904;1.000000
445584.03750046;5696578.45989903;474.39225008;183;177;157;45232.000000;1.000000;1.000000;1.000000;1.000000;-0.129899;0.129899;-0.129899;1.000000
445584.16180237;5696578.48509892;474.43774988;154;154;128;38807.000000;1.000000;1.000000;1.000000;1.000000;-0.168627;0.168627;-0.168627;1.000000
445584.27760132;5696578.35799892;474.40415003;137;134;114;33924.000000;1.000000;1.000000;1.000000;1.000000;-0.184118;0.184118;-0.184118;1.000000
445584.27180298;5696578.39369877;474.39965012;59;55;26;13621.000000;1.000000;1.000000;1.000000;1.000000;-0.187340;0.187340;-0.187340;1.000000
445584.04610260;5696578.45209892;474.39255001;179;174;159;44461.000000;1.000000;1.000000;1.000000;1.000000;-0.122099;0.122099;-0.122099;1.000000
445584.21450241;5696578.47539909;474.43995001;163;164;127;40863.000000;1.000000;1.000000;1.000000;1.000000;-0.187810;0.187810;-0.187810;1.000000
445584.26510056;5696578.43359955;474.42315008;115;107;66;26728.000000;1.000000;1.000000;1.000000;1.000000;-0.198632;0.198632;-0.198632;1.000000
445584.18220337;5696578.32749947;474.38315012;183;179;161;45746.000000;1.000000;1.000000;1.000000;1.000000;-0.086578;0.086578;-0.086578;1.000000
445584.08320053;5696578.51579960;474.42985012;180;180;157;45489.000000;1.000000;1.000000;1.000000;1.000000;-0.185800;0.185800;-0.185800;1.000000
445584.21650131;5696578.36339958;474.42245008;164;166;150;41891.000000;1.000000;1.000000;1.000000;1.000000;-0.125406;0.125406;-0.125406;1.000000
445584.18040283;5696578.40179928;474.42124989;169;169;153;42919.000000;1.000000;1.000000;1.000000;1.000000;-0.111096;0.111096;-0.111096;1.000000
445584.10460098;5696578.39779957;474.38285019;155;151;136;38550.000000;1.000000;1.000000;1.000000;1.000000;-0.068391;0.068391;-0.068391;1.000000
445584.21050079;5696578.44049938;474.45804979;147;147;119;36751.000000;1.000000;1.000000;1.000000;1.000000;-0.159394;0.159394;-0.159394;1.000000
445584.08400162;5696578.46469887;474.40835001;211;207;195;52942.000000;1.000000;1.000000;1.000000;1.000000;-0.134704;0.134704;-0.134704;1.000000
445584.24270065;5696578.40499886;474.44745018;148;150;120;37522.000000;1.000000;1.000000;1.000000;1.000000;-0.165094;0.165094;-0.165094;1.000000
445584.09690292;5696578.36129959;474.37274982;199;192;178;49344.000000;1.000000;1.000000;1.000000;1.000000;-0.031326;0.031326;-0.031326;1.000000
445584.20730026;5696578.36199959;474.41734983;175;178;161;44975.000000;1.000000;1.000000;1.000000;1.000000;-0.116169;0.116169;-0.116169;1.000000
445584.13570221;5696578.32499893;474.37174990;184;180;162;46003.000000;1.000000;1.000000;1.000000;1.000000;-0.040077;0.040077;-0.040077;1.000000
445584.24660309;5696578.33039959;474.41174986;134;136;124;34438.000000;1.000000;1.000000;1.000000;1.000000;-0.150979;0.150979;-0.150979;1.000000
445584.23230179;5696578.45999916;474.42894985;176;171;128;42919.000000;1.000000;1.000000;1.000000;1.000000;-0.188627;0.188627;-0.188627;1.000000
445584.05710037;5696578.44409950;474.39055016;193;189;177;48316.000000;1.000000;1.000000;1.000000;1.000000;-0.114100;0.114100;-0.114100;1.000000
445584.16090210;5696578.47579868;474.43755009;139;139;118;34952.000000;1.000000;1.000000;1.000000;1.000000;-0.159745;0.159745;-0.159745;1.000000
445584.26300247;5696578.35919960;474.41984989;130;130;111;32639.000000;1.000000;1.000000;1.000000;1.000000;-0.169905;0.169905;-0.169905;1.000000
445584.12120255;5696578.46359928;474.41004993;194;192;180;49087.000000;1.000000;1.000000;1.000000;1.000000;-0.136026;0.136026;-0.136026;1.000000
445584.10760315;5696578.49959953;474.42374994;186;181;159;46260.000000;1.000000;1.000000;1.000000;1.000000;-0.170022;0.170022;-0.170022;1.000000
445584.17500122;5696578.51149948;474.45954992;128;129;107;32382.000000;1.000000;1.000000;1.000000;1.000000;-0.198098;0.198098;-0.198098;1.000000
445584.28260239;5696578.17349918;474.37655022;181;178;153;45232.000000;1.000000;1.000000;1.000000;1.000000;-0.186977;0.186977;-0.186977;1.000000
445584.04269989;5696578.49889954;474.40924980;172;168;145;42662.000000;1.000000;1.000000;1.000000;1.000000;-0.168900;0.168900;-0.168900;1.000000
445584.09770020;5696578.37049873;474.37524988;173;166;151;42662.000000;1.000000;1.000000;1.000000;1.000000;-0.040552;0.040552;-0.040552;1.000000
445584.15850266;5696578.50389870;474.44474985;151;147;128;37522.000000;1.000000;1.000000;1.000000;1.000000;-0.184917;0.184917;-0.184917;1.000000
445584.27270325;5696578.35839947;474.41095020;159;156;138;39578.000000;1.000000;1.000000;1.000000;1.000000;-0.179341;0.179341;-0.179341;1.000000
445584.27450378;5696578.32109936;474.39664986;82;78;56;19532.000000;1.000000;1.000000;1.000000;1.000000;-0.178879;0.178879;-0.178879;1.000000
445584.13640030;5696578.36219891;474.38154985;166;164;150;41891.000000;1.000000;1.000000;1.000000;1.000000;-0.051956;0.051956;-0.051956;1.000000
445584.23870285;5696578.44029911;474.45464994;180;182;145;45489.000000;1.000000;1.000000;1.000000;1.000000;-0.180658;0.180658;-0.180658;1.000000
445584.21960266;5696578.33999928;474.40835001;131;132;117;33410.000000;1.000000;1.000000;1.000000;1.000000;-0.124380;0.124380;-0.124380;1.000000
445584.18470200;5696578.29949959;474.37134983;178;174;154;44461.000000;1.000000;1.000000;1.000000;1.000000;-0.089077;0.089077;-0.089077;1.000000
445584.16470154;5696578.43589886;474.42565014;224;226;205;57311.000000;1.000000;1.000000;1.000000;1.000000;-0.126436;0.126436;-0.126436;1.000000
445584.23380096;5696578.43389900;474.44504978;150;145;110;36494.000000;1.000000;1.000000;1.000000;1.000000;-0.172880;0.172880;-0.172880;1.000000
445584.29530151;5696578.16509922;474.38875010;174;173;151;43690.000000;1.000000;1.000000;1.000000;1.000000;-0.199677;0.199677;-0.199677;1.000000
445584.29369934;5696578.20019920;474.39374973;165;159;131;40349.000000;1.000000;1.000000;1.000000;1.000000;-0.198074;0.198074;-0.198074;1.000000
445584.08340271;5696578.42309959;474.38684990;194;190;176;48573.000000;1.000000;1.000000;1.000000;1.000000;-0.093102;0.093102;-0.093102;1.000000
445584.12920197;5696578.50919922;474.43184998;163;158;140;40349.000000;1.000000;1.000000;1.000000;1.000000;-0.182318;0.182318;-0.182318;1.000000
445584.25390060;5696578.42039879;474.43874981;107;103;68;25700.000000;1.000000;1.000000;1.000000;1.000000;-0.182272;0.182272;-0.182272;1.000000
445584.14060028;5696578.41749866;474.40334990;208;208;189;52685.000000;1.000000;1.000000;1.000000;1.000000;-0.098381;0.098381;-0.098381;1.000000
445584.17530258;5696578.45569904;474.44035007;216;221;204;55769.000000;1.000000;1.000000;1.000000;1.000000;-0.148825;0.148825;-0.148825;1.000000
445584.17900284;5696578.38339909;474.41394999;167;165;151;42148.000000;1.000000;1.000000;1.000000;1.000000;-0.099012;0.099012;-0.099012;1.000000
445584.13660248;5696578.45499905;474.41524984;191;191;173;48573.000000;1.000000;1.000000;1.000000;1.000000;-0.131544;0.131544;-0.131544;1.000000
445584.21210297;5696578.27329929;474.38394978;187;184;156;46517.000000;1.000000;1.000000;1.000000;1.000000;-0.116478;0.116478;-0.116478;1.000000
445584.17170151;5696578.34239872;474.38754990;164;165;152;41891.000000;1.000000;1.000000;1.000000;1.000000;-0.077080;0.077080;-0.077080;1.000000
445584.29280289;5696578.29359921;474.39944984;93;87;60;21845.000000;1.000000;1.000000;1.000000;1.000000;-0.197178;0.197178;-0.197178;1.000000
445584.17040070;5696578.41909893;474.42105009;193;193;175;49087.000000;1.000000;1.000000;1.000000;1.000000;-0.116319;0.116319;-0.116319;1.000000
445584.05340393;5696578.51869877;474.42154982;201;198;172;50372.000000;1.000000;1.000000;1.000000;1.000000;-0.188699;0.188699;-0.188699;1.000000
445584.20270355;5696578.45759876;474.45785000;191;194;165;48573.000000;1.000000;1.000000;1.000000;1.000000;-0.166575;0.166575;-0.166575;1.000000
445584.25740250;5696578.43629940;474.44614985;135;124;98;31868.000000;1.000000;1.000000;1.000000;1.000000;-0.193576;0.193576;-0.193576;1.000000
445584.23360260;5696578.43159874;474.44495012;152;148;113;37265.000000;1.000000;1.000000;1.000000;1.000000;-0.171348;0.171348;-0.171348;1.000000
445584.10370071;5696578.44669922;474.39974977;191;189;175;48316.000000;1.000000;1.000000;1.000000;1.000000;-0.116978;0.116978;-0.116978;1.000000
