//X;Y;Z;R;G;B;Intensity;Return Number;Number Of Returns;Scan Direction Flag;Point Source ID;C2M signed distances[-][<0.8];C2M signed distances[<0.4];C2M signed distances[-][<0.2];Stump36
445649.87650116;5696566.67069824;470.26274993;69;64;59;16448.000000;1.000000;1.000000;1.000000;1.000000;0.031624;0.031624;-0.031624;1.000000
445649.80430038;5696567.02079971;470.25664999;70;84;55;19532.000000;1.000000;1.000000;1.000000;1.000000;-0.052425;0.052425;-0.052425;1.000000
445649.98579987;5696566.67560013;470.33994987;69;69;69;17733.000000;1.000000;1.000000;1.000000;1.000000;-0.077675;0.077675;-0.077675;1.000000
445649.97170074;5696566.60890015;470.35714986;49;51;50;12850.000000;1.000000;1.000000;1.000000;1.000000;-0.063576;0.063576;-0.063576;1.000000
445649.77029999;5696566.98199852;470.25464990;89;111;69;25443.000000;1.000000;1.000000;1.000000;1.000000;-0.038059;0.038059;-0.038059;1.000000
445649.77250107;5696567.13119896;470.25654985;55;75;31;16448.000000;1.000000;1.000000;1.000000;1.000000;-0.020626;0.020626;-0.020626;1.000000
445649.91769989;5696567.02609833;470.29215004;13;29;10;5654.000000;1.000000;1.000000;1.000000;1.000000;-0.165825;0.165825;-0.165825;1.000000
445649.80540283;5696566.98559959;470.26094987;114;130;98;31097.000000;1.000000;1.000000;1.000000;1.000000;-0.061155;0.061155;-0.061155;1.000000
445649.86230286;5696566.62279900;470.27084996;26;21;16;5397.000000;1.000000;1.000000;1.000000;1.000000;0.045822;-0.045822;0.045822;1.000000
445649.62479980;5696566.90199860;470.25644996;159;155;150;39835.000000;1.000000;1.000000;1.000000;1.000000;-0.146054;0.146054;-0.146054;1.000000
445649.62380035;5696566.86479958;470.25364997;128;124;122;31868.000000;1.000000;1.000000;1.000000;1.000000;-0.132718;0.132718;-0.132718;1.000000
445650.14340027;5696566.92449959;470.36864998;90;95;98;23901.000000;1.000000;1.000000;1.000000;1.000000;-0.094500;0.094500;-0.094500;1.000000
445649.82980164;5696566.68699844;470.24214985;133;130;119;33153.000000;1.000000;1.000000;1.000000;1.000000;0.078323;0.078323;-0.078323;1.000000
445649.92040070;5696567.13849838;470.25864985;56;60;46;14649.000000;1.000000;1.000000;1.000000;1.000000;-0.168526;0.168526;-0.168526;1.000000
445649.78520020;5696566.58369835;470.23895003;179;173;160;44461.000000;1.000000;1.000000;1.000000;1.000000;0.122925;-0.122925;0.122925;1.000000
445649.69940002;5696566.86730011;470.24074986;185;187;182;47545.000000;1.000000;1.000000;1.000000;1.000000;-0.064381;0.064381;-0.064381;1.000000
445649.79430206;5696566.83499916;470.24694993;130;137;114;33924.000000;1.000000;1.000000;1.000000;1.000000;-0.004999;0.004999;-0.004999;1.000000
445649.78420074;5696566.64919861;470.24195005;149;146;136;37265.000000;1.000000;1.000000;1.000000;1.000000;0.123924;0.123924;-0.123924;1.000000
445650.06710251;5696566.95809944;470.31434991;39;40;37;10023.000000;1.000000;1.000000;1.000000;1.000000;-0.128099;0.128099;-0.128099;1.000000
445650.13840302;5696566.86509903;470.46085002;81;85;83;21331.000000;1.000000;1.000000;1.000000;1.000000;-0.035099;0.035099;-0.035099;1.000000
445649.66330154;5696566.82869919;470.23634984;106;107;104;27242.000000;1.000000;1.000000;1.000000;1.000000;0.088583;-0.088583;0.088583;1.000000
445650.07769974;5696566.94999893;470.32174994;36;39;38;9509.000000;1.000000;1.000000;1.000000;1.000000;-0.119999;0.119999;-0.119999;1.000000
445649.73600204;5696567.09249886;470.25904991;104;127;81;29555.000000;1.000000;1.000000;1.000000;1.000000;0.015873;-0.015873;0.015873;1.000000
445649.80200012;5696566.90169914;470.26674988;71;94;50;21074.000000;1.000000;1.000000;1.000000;1.000000;-0.071699;0.071699;-0.071699;1.000000
445649.96580322;5696566.78809937;470.28915002;46;49;49;12336.000000;1.000000;1.000000;1.000000;1.000000;0.041901;-0.041901;0.041901;1.000000
445650.10900314;5696566.92109879;470.34605004;59;64;63;15934.000000;1.000000;1.000000;1.000000;1.000000;0.091599;-0.091599;0.091599;1.000000
445649.73330124;5696566.73099907;470.24304988;144;145;130;36751.000000;1.000000;1.000000;1.000000;1.000000;0.100728;-0.100728;0.100728;1.000000
445650.13480194;5696566.88009842;470.41664984;58;62;62;15420.000000;1.000000;1.000000;1.000000;1.000000;-0.050098;0.050098;-0.050098;1.000000
445649.73750122;5696567.05509956;470.25175001;42;52;24;11565.000000;1.000000;1.000000;1.000000;1.000000;0.014374;-0.014374;0.014374;1.000000
445649.87930115;5696566.82909973;470.26934983;80;87;65;21074.000000;1.000000;1.000000;1.000000;1.000000;0.000900;-0.000900;0.000900;1.000000
445649.80050095;5696566.90889938;470.26444985;68;87;45;19532.000000;1.000000;1.000000;1.000000;1.000000;-0.078899;0.078899;-0.078899;1.000000
445649.95070084;5696566.64629944;470.33104994;34;34;34;8738.000000;1.000000;1.000000;1.000000;1.000000;-0.042576;0.042576;-0.042576;1.000000
445649.91349991;5696566.68079956;470.29244997;36;35;35;8995.000000;1.000000;1.000000;1.000000;1.000000;-0.005375;0.005375;-0.005375;1.000000
445650.00980194;5696566.62829979;470.38474991;81;89;94;22359.000000;1.000000;1.000000;1.000000;1.000000;-0.101677;0.101677;-0.101677;1.000000
445650.02430161;5696566.75859840;470.33104994;23;27;32;6682.000000;1.000000;1.000000;1.000000;1.000000;0.071402;-0.071402;0.071402;1.000000
445649.98140152;5696566.83329971;470.29504992;52;52;49;13107.000000;1.000000;1.000000;1.000000;1.000000;0.003300;-0.003300;0.003300;1.000000
445650.08900269;5696566.94889839;470.32684996;62;65;63;16191.000000;1.000000;1.000000;1.000000;1.000000;0.118898;-0.118898;0.118898;1.000000
445650.09910019;5696566.84079941;470.45184996;55;60;60;14906.000000;1.000000;1.000000;1.000000;1.000000;0.011345;-0.011345;0.011345;1.000000
445649.65020187;5696567.13519867;470.28134992;64;90;50;19789.000000;1.000000;1.000000;1.000000;1.000000;0.101673;-0.101673;0.101673;1.000000
445650.03450211;5696566.69660004;470.49845006;52;62;63;15163.000000;1.000000;1.000000;1.000000;1.000000;-0.126377;0.126377;-0.126377;1.000000
445650.03130157;5696566.69509895;470.46105005;49;58;62;14135.000000;1.000000;1.000000;1.000000;1.000000;-0.123177;0.123177;-0.123177;1.000000
445649.66690262;5696566.79329880;470.23844983;100;100;98;25443.000000;1.000000;1.000000;1.000000;1.000000;0.092560;-0.092560;0.092560;1.000000
445650.13410004;5696566.96089943;470.33834984;54;61;64;15163.000000;1.000000;1.000000;1.000000;1.000000;-0.130899;0.130899;-0.130899;1.000000
445649.79440125;5696566.61079987;470.24665000;158;150;138;38807.000000;1.000000;1.000000;1.000000;1.000000;0.113724;-0.113724;0.113724;1.000000
445649.80100067;5696567.10539825;470.24354984;84;95;66;22616.000000;1.000000;1.000000;1.000000;1.000000;-0.049126;0.049126;-0.049126;1.000000
445650.13770111;5696566.88459976;470.41214993;63;68;69;16962.000000;1.000000;1.000000;1.000000;1.000000;-0.054600;0.054600;-0.054600;1.000000
445649.66720016;5696567.16409882;470.27545001;39;65;29;13621.000000;1.000000;1.000000;1.000000;1.000000;0.084675;-0.084675;0.084675;1.000000
445649.68570145;5696566.96909912;470.23665001;132;133;122;33667.000000;1.000000;1.000000;1.000000;1.000000;0.080911;-0.080911;0.080911;1.000000
445649.89400299;5696567.11049850;470.26644995;67;75;60;17990.000000;1.000000;1.000000;1.000000;1.000000;-0.142128;0.142128;-0.142128;1.000000
445649.67410095;5696567.06069954;470.26985003;153;165;125;40349.000000;1.000000;1.000000;1.000000;1.000000;0.077774;-0.077774;0.077774;1.000000
445650.09440048;5696566.87309845;470.36344983;96;103;104;25957.000000;1.000000;1.000000;1.000000;1.000000;0.043098;-0.043098;0.043098;1.000000
445649.94880112;5696566.75689896;470.29034998;68;71;71;17990.000000;1.000000;1.000000;1.000000;1.000000;-0.040676;0.040676;-0.040676;1.000000
445649.83979996;5696566.60399826;470.26265003;90;82;71;21331.000000;1.000000;1.000000;1.000000;1.000000;0.068325;-0.068325;0.068325;1.000000
445649.68840225;5696566.92439850;470.24094989;171;171;164;43690.000000;1.000000;1.000000;1.000000;1.000000;0.111084;-0.111084;0.111084;1.000000
445649.87280090;5696566.61459930;470.28055002;38;34;28;8738.000000;1.000000;1.000000;1.000000;1.000000;0.035324;-0.035324;0.035324;1.000000
445649.80040176;5696567.15209969;470.25105001;140;158;107;37522.000000;1.000000;1.000000;1.000000;1.000000;-0.048527;0.048527;-0.048527;1.000000
445650.10099991;5696566.84809883;470.42404987;57;62;62;15420.000000;1.000000;1.000000;1.000000;1.000000;0.018880;-0.018880;0.018880;1.000000
445649.80190094;5696566.64049919;470.24504997;113;111;103;28270.000000;1.000000;1.000000;1.000000;1.000000;0.106224;-0.106224;0.106224;1.000000
445649.75080307;5696566.94419868;470.24634983;61;73;41;16705.000000;1.000000;1.000000;1.000000;1.000000;0.071268;-0.071268;0.071268;1.000000
445649.71540268;5696566.91479881;470.24434998;70;73;61;17990.000000;1.000000;1.000000;1.000000;1.000000;-0.092310;0.092310;-0.092310;1.000000
445649.68150146;5696566.87589844;470.24234988;152;152;146;38807.000000;1.000000;1.000000;1.000000;1.000000;-0.084018;0.084018;-0.084018;1.000000
445649.79260071;5696566.84219940;470.24934985;107;115;87;28013.000000;1.000000;1.000000;1.000000;1.000000;-0.012199;0.012199;-0.012199;1.000000
445650.00890167;5696566.59169968;470.48674991;33;42;43;10023.000000;1.000000;1.000000;1.000000;1.000000;-0.100777;0.100777;-0.100777;1.000000
445649.82980164;5696567.08869942;470.24464991;34;35;20;8481.000000;1.000000;1.000000;1.000000;1.000000;-0.077927;0.077927;-0.077927;1.000000
445650.09940155;5696566.85079964;470.41464998;53;58;60;14392.000000;1.000000;1.000000;1.000000;1.000000;0.021140;-0.021140;0.021140;1.000000
445650.10200317;5696566.84529884;470.44964983;70;74;74;18504.000000;1.000000;1.000000;1.000000;1.000000;0.016575;-0.016575;0.016575;1.000000
445649.92049988;5696567.11959847;470.26775004;77;84;71;20560.000000;1.000000;1.000000;1.000000;1.000000;-0.168625;0.168625;-0.168625;1.000000
445649.83730133;5696566.66989906;470.24694993;140;137;131;35209.000000;1.000000;1.000000;1.000000;1.000000;0.070824;0.070824;-0.070824;1.000000
445650.06280334;5696566.80979927;470.41485002;40;48;56;11822.000000;1.000000;1.000000;1.000000;1.000000;0.020201;-0.020201;0.020201;1.000000
445650.02110107;5696566.78959854;470.31025006;19;21;24;5140.000000;1.000000;1.000000;1.000000;1.000000;0.040401;-0.040401;0.040401;1.000000
445650.03429993;5696566.88179977;470.31194999;32;35;35;8738.000000;1.000000;1.000000;1.000000;1.000000;-0.051800;0.051800;-0.051800;1.000000
445649.80210312;5696567.07020004;470.25014998;30;37;18;8224.000000;1.000000;1.000000;1.000000;1.000000;-0.050228;0.050228;-0.050228;1.000000
445649.89299973;5696566.69940002;470.26615002;70;62;55;16191.000000;1.000000;1.000000;1.000000;1.000000;0.015125;0.015125;-0.015125;1.000000
445649.95190247;5696566.58999832;470.34204986;37;34;28;8738.000000;1.000000;1.000000;1.000000;1.000000;-0.043777;0.043777;-0.043777;1.000000
445649.90440186;5696566.87799843;470.28044989;104;122;85;28784.000000;1.000000;1.000000;1.000000;1.000000;0.047998;-0.047998;0.047998;1.000000
445649.75770004;5696567.04619987;470.25254991;24;36;7;7453.000000;1.000000;1.000000;1.000000;1.000000;-0.005825;0.005825;-0.005825;1.000000
445649.90630157;5696567.05289848;470.28954985;39;56;37;12336.000000;1.000000;1.000000;1.000000;1.000000;-0.154427;0.154427;-0.154427;1.000000
445649.98870285;5696566.63779839;470.35124995;16;18;19;4369.000000;1.000000;1.000000;1.000000;1.000000;-0.080578;0.080578;-0.080578;1.000000
445649.75900085;5696567.01099976;470.25444986;122;135;100;32639.000000;1.000000;1.000000;1.000000;1.000000;-0.008328;0.008328;-0.008328;1.000000
445649.76020248;5696566.97359856;470.25405004;108;130;87;30326.000000;1.000000;1.000000;1.000000;1.000000;-0.042535;0.042535;-0.042535;1.000000
445649.90740021;5696567.01539810;470.29154994;74;96;67;22102.000000;1.000000;1.000000;1.000000;1.000000;-0.155525;0.155525;-0.155525;1.000000
445650.02000244;5696567.02119835;470.29664995;36;36;25;8738.000000;1.000000;1.000000;1.000000;1.000000;-0.191198;0.191198;-0.191198;1.000000
445649.65789993;5696566.95049866;470.24455001;145;145;140;37008.000000;1.000000;1.000000;1.000000;1.000000;0.114263;-0.114263;0.114263;1.000000
445649.69890030;5696567.07249840;470.26414992;106;122;82;28784.000000;1.000000;1.000000;1.000000;1.000000;0.052975;-0.052975;0.052975;1.000000
445649.88200195;5696566.63719948;470.27884986;48;42;36;11051.000000;1.000000;1.000000;1.000000;1.000000;0.026123;-0.026123;0.026123;1.000000
445649.76150330;5696567.14149864;470.26315000;49;73;26;15420.000000;1.000000;1.000000;1.000000;1.000000;-0.009628;0.009628;-0.009628;1.000000
445649.85450180;5696566.92229851;470.28565003;102;123;82;28784.000000;1.000000;1.000000;1.000000;1.000000;-0.092299;0.092299;-0.092299;1.000000
445649.84119995;5696566.59449966;470.26484992;76;67;55;17476.000000;1.000000;1.000000;1.000000;1.000000;0.066925;-0.066925;0.066925;1.000000
445649.85830124;5696566.88459976;470.28075006;96;118;70;27242.000000;1.000000;1.000000;1.000000;1.000000;-0.054600;0.054600;-0.054600;1.000000
445650.02420242;5696566.68749817;470.39535000;60;67;72;16705.000000;1.000000;1.000000;1.000000;1.000000;-0.116077;0.116077;-0.116077;1.000000
445650.11820038;5696566.86039932;470.43194987;90;95;94;23901.000000;1.000000;1.000000;1.000000;1.000000;0.030400;-0.030400;0.030400;1.000000
445649.79870041;5696566.93719872;470.25775005;43;64;24;13621.000000;1.000000;1.000000;1.000000;1.000000;-0.091002;0.091002;-0.091002;1.000000
445649.94630249;5696566.98359879;470.29754998;44;66;38;14392.000000;1.000000;1.000000;1.000000;1.000000;-0.153599;0.153599;-0.153599;1.000000
445650.13240250;5696566.98919876;470.32935001;63;66;68;16705.000000;1.000000;1.000000;1.000000;1.000000;-0.159199;0.159199;-0.159199;1.000000
445649.80230148;5696566.62169846;470.24944999;157;152;142;39064.000000;1.000000;1.000000;1.000000;1.000000;0.105824;-0.105824;0.105824;1.000000
445649.91110046;5696567.11819847;470.26724984;92;99;86;24415.000000;1.000000;1.000000;1.000000;1.000000;-0.159225;0.159225;-0.159225;1.000000
445649.91220291;5696566.94249924;470.29314997;57;84;45;18247.000000;1.000000;1.000000;1.000000;1.000000;-0.112499;0.112499;-0.112499;1.000000
445649.91349991;5696566.90499886;470.29044988;68;92;54;20560.000000;1.000000;1.000000;1.000000;1.000000;-0.074999;0.074999;-0.074999;1.000000
445649.76630219;5696566.86319931;470.25304987;110;117;91;28784.000000;1.000000;1.000000;1.000000;1.000000;-0.033199;0.033199;-0.033199;1.000000
445649.57580002;5696566.90869911;470.26825001;234;237;233;60395.000000;1.000000;1.000000;1.000000;1.000000;-0.192863;0.192863;-0.192863;1.000000
445650.03420074;5696566.66860016;470.49804999;42;51;51;12336.000000;1.000000;1.000000;1.000000;1.000000;-0.126076;0.126076;-0.126076;1.000000
445649.97280319;5696566.76629837;470.29614999;57;59;62;14906.000000;1.000000;1.000000;1.000000;1.000000;0.063702;-0.063702;0.063702;1.000000
445649.84110077;5696566.79080017;470.25794985;36;35;26;8738.000000;1.000000;1.000000;1.000000;1.000000;0.039200;-0.039200;0.039200;1.000000
445649.84460266;5696566.75309952;470.25764992;175;175;162;44461.000000;1.000000;1.000000;1.000000;1.000000;0.063522;0.063522;-0.063522;1.000000
445650.12300308;5696566.85470016;470.46934988;95;98;94;24672.000000;1.000000;1.000000;1.000000;1.000000;0.024700;-0.024700;0.024700;1.000000
445650.08030136;5696566.82359894;470.47175004;56;64;67;15677.000000;1.000000;1.000000;1.000000;1.000000;0.006401;-0.006401;0.006401;1.000000
445649.88100250;5696566.71699913;470.25884988;81;72;60;18761.000000;1.000000;1.000000;1.000000;1.000000;0.027122;0.027122;-0.027122;1.000000
445650.03540237;5696566.70589836;470.49854996;64;73;74;17990.000000;1.000000;1.000000;1.000000;1.000000;0.124102;-0.124102;0.124102;1.000000
445650.03000076;5696566.70469864;470.45875003;57;67;71;16448.000000;1.000000;1.000000;1.000000;1.000000;-0.121876;0.121876;-0.121876;1.000000
445649.68490036;5696567.01569946;470.24884989;143;147;121;36494.000000;1.000000;1.000000;1.000000;1.000000;0.066975;-0.066975;0.066975;1.000000
445649.80140121;5696566.91819962;470.26224997;67;87;44;19532.000000;1.000000;1.000000;1.000000;1.000000;-0.088200;0.088200;-0.088200;1.000000
445649.83490189;5696566.95699890;470.27355005;21;38;16;7710.000000;1.000000;1.000000;1.000000;1.000000;-0.101232;0.101232;-0.101232;1.000000
445649.71820267;5696566.87019928;470.24394991;174;179;171;45232.000000;1.000000;1.000000;1.000000;1.000000;-0.052439;0.052439;-0.052439;1.000000
445650.06800278;5696566.82609947;470.38504984;55;61;68;15163.000000;1.000000;1.000000;1.000000;1.000000;0.003901;-0.003901;0.003901;1.000000
445649.94790085;5696566.95309837;470.30195000;84;106;74;24415.000000;1.000000;1.000000;1.000000;1.000000;-0.123098;0.123098;-0.123098;1.000000
445649.92060287;5696566.68239983;470.29515006;48;47;45;12079.000000;1.000000;1.000000;1.000000;1.000000;-0.012478;0.012478;-0.012478;1.000000
445649.65880020;5696567.17420013;470.27514984;64;87;54;19532.000000;1.000000;1.000000;1.000000;1.000000;0.093075;-0.093075;0.093075;1.000000
445649.98530014;5696566.95419891;470.30364992;58;69;47;16191.000000;1.000000;1.000000;1.000000;1.000000;0.124199;-0.124199;0.124199;1.000000
445650.02070053;5696566.95789917;470.30524995;41;43;32;10537.000000;1.000000;1.000000;1.000000;1.000000;-0.127899;0.127899;-0.127899;1.000000
445649.94900330;5696566.91549881;470.30384995;110;125;95;30069.000000;1.000000;1.000000;1.000000;1.000000;-0.085499;0.085499;-0.085499;1.000000
445649.84610184;5696566.93009956;470.28075006;120;142;106;33667.000000;1.000000;1.000000;1.000000;1.000000;-0.100100;0.100100;-0.100100;1.000000
445650.02890213;5696566.72489937;470.36804988;90;96;98;24158.000000;1.000000;1.000000;1.000000;1.000000;0.105101;-0.105101;0.105101;1.000000
445649.84840210;5696566.64299973;470.25644996;128;123;117;31611.000000;1.000000;1.000000;1.000000;1.000000;0.059723;-0.059723;0.059723;1.000000
445650.03180130;5696566.72399910;470.40544989;59;66;71;16448.000000;1.000000;1.000000;1.000000;1.000000;0.106001;-0.106001;0.106001;1.000000
445649.87320145;5696567.15469940;470.24974992;113;109;89;27756.000000;1.000000;1.000000;1.000000;1.000000;-0.121326;0.121326;-0.121326;1.000000
445650.03260239;5696566.72339828;470.44044997;69;76;78;19018.000000;1.000000;1.000000;1.000000;1.000000;0.106602;-0.106602;0.106602;1.000000
445649.86370285;5696567.12759979;470.24895002;83;82;66;20560.000000;1.000000;1.000000;1.000000;1.000000;-0.111828;0.111828;-0.111828;1.000000
445650.02390106;5696566.91789825;470.30725004;96;95;86;24158.000000;1.000000;1.000000;1.000000;1.000000;-0.087898;0.087898;-0.087898;1.000000
445649.98660095;5696566.91899879;470.30554988;58;64;47;15420.000000;1.000000;1.000000;1.000000;1.000000;0.088999;-0.088999;0.088999;1.000000
445649.88770111;5696566.60599907;470.29504992;89;83;71;21331.000000;1.000000;1.000000;1.000000;1.000000;0.020424;-0.020424;0.020424;1.000000
445650.02900131;5696566.68629845;470.44214990;43;50;55;12336.000000;1.000000;1.000000;1.000000;1.000000;-0.120876;0.120876;-0.120876;1.000000
445649.88230331;5696566.96869858;470.28514983;42;70;31;14649.000000;1.000000;1.000000;1.000000;1.000000;-0.138299;0.138299;-0.138299;1.000000
445649.73760040;5696566.85199936;470.24464991;154;160;149;40092.000000;1.000000;1.000000;1.000000;1.000000;-0.026225;0.026225;-0.026225;1.000000
445650.00080307;5696566.64819916;470.36354997;41;49;54;12079.000000;1.000000;1.000000;1.000000;1.000000;-0.092678;0.092678;-0.092678;1.000000
445649.82100113;5696566.66909988;470.24385001;162;161;153;41120.000000;1.000000;1.000000;1.000000;1.000000;0.087124;0.087124;-0.087124;1.000000
445650.00840195;5696566.67560013;470.35724999;45;52;59;12850.000000;1.000000;1.000000;1.000000;1.000000;-0.100277;0.100277;-0.100277;1.000000
445650.03450211;5696566.68749817;470.47965004;39;49;53;11822.000000;1.000000;1.000000;1.000000;1.000000;-0.126377;0.126377;-0.126377;1.000000
445649.69620331;5696567.17529877;470.27685000;132;162;117;38036.000000;1.000000;1.000000;1.000000;1.000000;0.055672;-0.055672;0.055672;1.000000
445649.72380264;5696566.97949989;470.24315001;76;85;60;20303.000000;1.000000;1.000000;1.000000;1.000000;0.045675;-0.045675;0.045675;1.000000
445649.87030228;5696567.01429947;470.28285005;32;58;22;11822.000000;1.000000;1.000000;1.000000;1.000000;-0.118428;0.118428;-0.118428;1.000000
445649.73520096;5696567.13909920;470.27125003;22;46;9;8738.000000;1.000000;1.000000;1.000000;1.000000;0.016674;-0.016674;0.016674;1.000000
445650.00220306;5696566.57440002;470.44194986;45;52;54;12850.000000;1.000000;1.000000;1.000000;1.000000;-0.094078;0.094078;-0.094078;1.000000
445649.66110046;5696567.09919937;470.27674987;88;111;63;25186.000000;1.000000;1.000000;1.000000;1.000000;0.090775;-0.090775;0.090775;1.000000
445649.82500275;5696567.02109917;470.26454999;106;121;95;29041.000000;1.000000;1.000000;1.000000;1.000000;-0.073128;0.073128;-0.073128;1.000000
445649.98299988;5696566.60769852;470.36465003;38;42;46;10537.000000;1.000000;1.000000;1.000000;1.000000;-0.074875;0.074875;-0.074875;1.000000
445649.80130203;5696566.83439835;470.24735000;137;142;123;35466.000000;1.000000;1.000000;1.000000;1.000000;-0.004398;0.004398;-0.004398;1.000000
445649.93990143;5696566.91649826;470.29874994;100;119;89;28270.000000;1.000000;1.000000;1.000000;1.000000;-0.086498;0.086498;-0.086498;1.000000
445650.16200073;5696566.92729958;470.37654998;39;45;50;11051.000000;1.000000;1.000000;1.000000;1.000000;-0.097300;0.097300;-0.097300;1.000000
445650.01480301;5696566.84399994;470.30364992;48;49;48;12336.000000;1.000000;1.000000;1.000000;1.000000;-0.014000;0.014000;-0.014000;1.000000
445649.74250229;5696566.77689941;470.23934986;79;78;67;19789.000000;1.000000;1.000000;1.000000;1.000000;0.053921;-0.053921;0.053921;1.000000
445650.05790146;5696566.84649857;470.33824994;43;47;50;11822.000000;1.000000;1.000000;1.000000;1.000000;-0.016499;0.016499;-0.016499;1.000000
445650.02790268;5696566.71479996;470.42144992;55;63;66;15420.000000;1.000000;1.000000;1.000000;1.000000;0.115200;-0.115200;0.115200;1.000000
445649.72510345;5696566.94429977;470.24514987;85;92;79;22616.000000;1.000000;1.000000;1.000000;1.000000;0.076051;-0.076051;0.076051;1.000000
445649.82040222;5696567.08729942;470.24414994;23;26;12;5911.000000;1.000000;1.000000;1.000000;1.000000;-0.068527;0.068527;-0.068527;1.000000
445649.91510208;5696566.65239914;470.30154993;54;52;46;13107.000000;1.000000;1.000000;1.000000;1.000000;-0.006977;0.006977;-0.006977;1.000000
445650.02120026;5696566.69739922;470.37675001;38;46;53;11308.000000;1.000000;1.000000;1.000000;1.000000;-0.113075;0.113075;-0.113075;1.000000
445649.84070023;5696566.61319931;470.26274993;93;84;75;21845.000000;1.000000;1.000000;1.000000;1.000000;0.067425;-0.067425;0.067425;1.000000
445650.02650269;5696566.69629868;470.41424992;50;57;62;14135.000000;1.000000;1.000000;1.000000;1.000000;-0.118378;0.118378;-0.118378;1.000000
445649.98650177;5696566.65919884;470.34204986;68;68;68;17476.000000;1.000000;1.000000;1.000000;1.000000;-0.078377;0.078377;-0.078377;1.000000
445649.95220001;5696566.61799820;470.34235003;51;48;44;12336.000000;1.000000;1.000000;1.000000;1.000000;-0.044075;0.044075;-0.044075;1.000000
445650.02300079;5696566.65929993;470.41594984;45;53;57;13107.000000;1.000000;1.000000;1.000000;1.000000;-0.114876;0.114876;-0.114876;1.000000
445650.02600296;5696566.65839966;470.45105006;51;58;65;14392.000000;1.000000;1.000000;1.000000;1.000000;-0.117878;0.117878;-0.117878;1.000000
445649.95340164;5696566.58049973;470.34194996;37;35;28;8738.000000;1.000000;1.000000;1.000000;1.000000;-0.045277;0.045277;-0.045277;1.000000
445649.69020279;5696566.89609917;470.24534990;175;173;166;44204.000000;1.000000;1.000000;1.000000;1.000000;-0.090402;0.090402;-0.090402;1.000000
445650.03989990;5696566.75299843;470.44344999;61;69;74;17219.000000;1.000000;1.000000;1.000000;1.000000;0.077002;-0.077002;0.077002;1.000000
445650.02940186;5696566.69549950;470.45164992;53;60;65;14906.000000;1.000000;1.000000;1.000000;1.000000;-0.121277;0.121277;-0.121277;1.000000
445650.04480179;5696566.78139885;470.39275004;31;40;49;9766.000000;1.000000;1.000000;1.000000;1.000000;0.048601;-0.048601;0.048601;1.000000
445649.91960342;5696566.60739906;470.31744983;90;87;81;22359.000000;1.000000;1.000000;1.000000;1.000000;-0.011478;0.011478;-0.011478;1.000000
445650.07230194;5696566.82789810;470.39684989;58;64;70;15934.000000;1.000000;1.000000;1.000000;1.000000;0.002102;-0.002102;0.002102;1.000000
445650.02589996;5696566.64939888;470.43454983;60;66;71;16448.000000;1.000000;1.000000;1.000000;1.000000;-0.117775;0.117775;-0.117775;1.000000
445649.70210083;5696567.05369957;470.25705006;80;89;53;21074.000000;1.000000;1.000000;1.000000;1.000000;0.049774;-0.049774;0.049774;1.000000
445649.65250214;5696566.89259918;470.24595000;185;182;176;46774.000000;1.000000;1.000000;1.000000;1.000000;-0.117446;0.117446;-0.117446;1.000000
445649.91590317;5696566.57029922;470.32154991;124;122;113;31097.000000;1.000000;1.000000;1.000000;1.000000;-0.007778;0.007778;-0.007778;1.000000
445649.93150146;5696566.63659866;470.32075002;63;62;57;15677.000000;1.000000;1.000000;1.000000;1.000000;-0.023376;0.023376;-0.023376;1.000000
445649.86390121;5696566.59449966;470.27985003;98;91;77;23387.000000;1.000000;1.000000;1.000000;1.000000;0.044224;-0.044224;0.044224;1.000000
445650.02680023;5696566.65099915;470.46954991;69;75;78;18761.000000;1.000000;1.000000;1.000000;1.000000;-0.118675;0.118675;-0.118675;1.000000
445649.95120056;5696567.12150009;470.26685001;14;19;13;4112.000000;1.000000;1.000000;1.000000;1.000000;-0.199326;0.199326;-0.199326;1.000000
445650.01379974;5696566.62010010;470.43374993;41;50;56;12079.000000;1.000000;1.000000;1.000000;1.000000;-0.105675;0.105675;-0.105675;1.000000
445650.10120209;5696566.91239937;470.34564998;38;45;44;10794.000000;1.000000;1.000000;1.000000;1.000000;0.082588;-0.082588;0.082588;1.000000
445649.90990265;5696566.78419884;470.27495005;95;93;87;23644.000000;1.000000;1.000000;1.000000;1.000000;-0.001778;0.001778;-0.001778;1.000000
445649.66480072;5696567.06159981;470.27174999;170;183;144;44718.000000;1.000000;1.000000;1.000000;1.000000;0.087074;-0.087074;0.087074;1.000000
445649.82090195;5696567.04959877;470.25775005;17;24;10;5140.000000;1.000000;1.000000;1.000000;1.000000;-0.069027;0.069027;-0.069027;1.000000
445649.56870087;5696566.85339935;470.26035001;144;147;143;37265.000000;1.000000;1.000000;1.000000;1.000000;-0.184663;0.184663;-0.184663;1.000000
445649.79150208;5696566.86079987;470.25884988;99;112;81;26728.000000;1.000000;1.000000;1.000000;1.000000;-0.030800;0.030800;-0.030800;1.000000
445649.65150269;5696566.85759933;470.24545004;111;107;102;27499.000000;1.000000;1.000000;1.000000;1.000000;-0.104098;0.104098;-0.104098;1.000000
445649.92490204;5696567.02769859;470.29244997;9;23;7;4369.000000;1.000000;1.000000;1.000000;1.000000;-0.173027;0.173027;-0.173027;1.000000
445649.70470245;5696567.16519936;470.27484991;45;74;31;15420.000000;1.000000;1.000000;1.000000;1.000000;0.047173;-0.047173;0.047173;1.000000
445649.99020203;5696566.57389839;470.39485003;43;48;46;11822.000000;1.000000;1.000000;1.000000;1.000000;-0.082077;0.082077;-0.082077;1.000000
445649.69180115;5696567.07309921;470.26615002;128;143;103;34438.000000;1.000000;1.000000;1.000000;1.000000;0.060074;-0.060074;0.060074;1.000000
445650.05790146;5696566.82529839;470.34725000;45;52;60;12850.000000;1.000000;1.000000;1.000000;1.000000;0.004702;-0.004702;0.004702;1.000000
445650.02779968;5696566.78889854;470.31524994;16;19;24;4626.000000;1.000000;1.000000;1.000000;1.000000;0.041101;-0.041101;0.041101;1.000000
445650.03820236;5696566.75259979;470.48064997;57;66;73;16448.000000;1.000000;1.000000;1.000000;1.000000;0.077400;-0.077400;0.077400;1.000000
445650.04210098;5696566.75199898;470.49714996;58;68;71;16705.000000;1.000000;1.000000;1.000000;1.000000;0.078001;-0.078001;0.078001;1.000000
445649.89750107;5696566.63550003;470.29355003;62;59;52;15163.000000;1.000000;1.000000;1.000000;1.000000;0.010624;-0.010624;0.010624;1.000000
445649.57950027;5696566.87099846;470.26335003;218;220;215;56026.000000;1.000000;1.000000;1.000000;1.000000;-0.177183;0.177183;-0.177183;1.000000
445649.94090088;5696566.68260010;470.31235005;48;49;50;12336.000000;1.000000;1.000000;1.000000;1.000000;-0.032776;0.032776;-0.032776;1.000000
445649.74699982;5696566.82329948;470.23534991;99;102;93;25700.000000;1.000000;1.000000;1.000000;1.000000;0.008286;-0.008286;0.008286;1.000000
445649.81910141;5696566.93739899;470.27265002;45;66;35;14392.000000;1.000000;1.000000;1.000000;1.000000;-0.102619;0.102619;-0.102619;1.000000
445650.10939987;5696566.88559921;470.36664989;128;134;133;33924.000000;1.000000;1.000000;1.000000;1.000000;0.056340;-0.056340;0.056340;1.000000
445649.81740005;5696566.76039894;470.25414993;97;96;82;24158.000000;1.000000;1.000000;1.000000;1.000000;0.069601;-0.069601;0.069601;1.000000
445649.89700134;5696566.56059845;470.30655005;105;101;89;25700.000000;1.000000;1.000000;1.000000;1.000000;0.011124;-0.011124;0.011124;1.000000
445649.75259979;5696567.12129982;470.26245000;130;153;108;36237.000000;1.000000;1.000000;1.000000;1.000000;-0.000725;0.000725;-0.000725;1.000000
445649.83590134;5696566.58569916;470.25985004;105;96;82;24929.000000;1.000000;1.000000;1.000000;1.000000;0.072224;-0.072224;0.072224;1.000000
445649.65120132;5696567.14449890;470.27915003;62;85;48;19018.000000;1.000000;1.000000;1.000000;1.000000;0.100674;-0.100674;0.100674;1.000000
445650.00180252;5696566.61739929;470.38185002;95;102;107;25700.000000;1.000000;1.000000;1.000000;1.000000;-0.093678;0.093678;-0.093678;1.000000
445650.00670059;5696566.63819893;470.36835005;106;114;117;28527.000000;1.000000;1.000000;1.000000;1.000000;-0.098576;0.098576;-0.098576;1.000000
445650.00100143;5696566.61039932;470.38644983;91;99;104;24929.000000;1.000000;1.000000;1.000000;1.000000;-0.092876;0.092876;-0.092876;1.000000
445649.72390182;5696566.72949989;470.24254992;122;122;109;30840.000000;1.000000;1.000000;1.000000;1.000000;0.104321;-0.104321;0.104321;1.000000
445649.87490280;5696567.08179863;470.26755001;49;59;45;13878.000000;1.000000;1.000000;1.000000;1.000000;-0.123028;0.123028;-0.123028;1.000000
445649.71890076;5696566.84919937;470.23674991;187;192;185;48573.000000;1.000000;1.000000;1.000000;1.000000;-0.038156;0.038156;-0.038156;1.000000
445649.90200241;5696566.69849976;470.27355005;60;53;47;13878.000000;1.000000;1.000000;1.000000;1.000000;0.006123;-0.006123;0.006123;1.000000
445649.75790222;5696566.81519897;470.23574998;78;80;70;20046.000000;1.000000;1.000000;1.000000;1.000000;0.014801;-0.014801;0.014801;1.000000
445649.91110046;5696566.74669846;470.27454998;121;118;108;30069.000000;1.000000;1.000000;1.000000;1.000000;-0.002975;0.002975;-0.002975;1.000000
445649.67580231;5696566.76439865;470.24074986;53;52;45;13107.000000;1.000000;1.000000;1.000000;1.000000;0.100452;-0.100452;0.100452;1.000000
445649.81990250;5696566.92099960;470.27244999;76;100;57;22616.000000;1.000000;1.000000;1.000000;1.000000;-0.091000;0.091000;-0.091000;1.000000
445649.94190033;5696566.62839897;470.33274986;56;54;51;13878.000000;1.000000;1.000000;1.000000;1.000000;-0.033775;0.033775;-0.033775;1.000000
445649.69730194;5696567.13779839;470.27884986;49;77;28;16191.000000;1.000000;1.000000;1.000000;1.000000;0.054573;-0.054573;0.054573;1.000000
445649.93460281;5696566.59879883;470.32974984;97;94;88;24158.000000;1.000000;1.000000;1.000000;1.000000;-0.026478;0.026478;-0.026478;1.000000
445649.84080322;5696567.06180008;470.25644996;40;46;30;10794.000000;1.000000;1.000000;1.000000;1.000000;-0.088928;0.088928;-0.088928;1.000000
445649.91909988;5696567.14799889;470.25405004;57;63;47;15163.000000;1.000000;1.000000;1.000000;1.000000;-0.167225;0.167225;-0.167225;1.000000
445649.80500229;5696566.82469948;470.24735000;122;126;111;31611.000000;1.000000;1.000000;1.000000;1.000000;0.005746;-0.005746;0.005746;1.000000
445650.13140305;5696566.91869934;470.36334993;88;95;97;23901.000000;1.000000;1.000000;1.000000;1.000000;-0.088699;0.088699;-0.088699;1.000000
445650.13670166;5696566.86769875;470.45155003;85;87;86;22102.000000;1.000000;1.000000;1.000000;1.000000;-0.037699;0.037699;-0.037699;1.000000
445649.67210205;5696567.09119995;470.27475001;125;146;98;34438.000000;1.000000;1.000000;1.000000;1.000000;0.079773;-0.079773;0.079773;1.000000
445649.95370300;5696566.83129890;470.28444983;126;130;121;32639.000000;1.000000;1.000000;1.000000;1.000000;-0.001299;0.001299;-0.001299;1.000000
445649.72830017;5696566.85059937;470.23954989;167;172;162;43433.000000;1.000000;1.000000;1.000000;1.000000;-0.031307;0.031307;-0.031307;1.000000
445649.80520065;5696566.75219925;470.24884989;125;123;108;31097.000000;1.000000;1.000000;1.000000;1.000000;0.077838;-0.077838;0.077838;1.000000
445649.58810242;5696566.86319931;470.26364996;234;235;231;60138.000000;1.000000;1.000000;1.000000;1.000000;-0.167104;0.167104;-0.167104;1.000000
445649.76730164;5696566.81439980;470.23385002;98;100;86;24929.000000;1.000000;1.000000;1.000000;1.000000;0.015600;-0.015600;0.015600;1.000000
445650.10020264;5696566.90309914;470.34784986;37;45;46;10794.000000;1.000000;1.000000;1.000000;1.000000;0.073242;-0.073242;0.073242;1.000000
445649.96980103;5696566.67489822;470.32984998;40;41;43;10280.000000;1.000000;1.000000;1.000000;1.000000;-0.061676;0.061676;-0.061676;1.000000
445650.06600006;5696566.82639893;470.37794997;52;59;66;14649.000000;1.000000;1.000000;1.000000;1.000000;0.003601;-0.003601;0.003601;1.000000
445650.10430344;5696566.86479958;470.38485004;83;89;88;22359.000000;1.000000;1.000000;1.000000;1.000000;0.035865;-0.035865;0.035865;1.000000
445649.92690094;5696566.99949844;470.29224994;77;98;70;22616.000000;1.000000;1.000000;1.000000;1.000000;-0.169498;0.169498;-0.169498;1.000000
445649.84620102;5696566.71569832;470.25024988;99;93;79;23901.000000;1.000000;1.000000;1.000000;1.000000;0.061924;0.061924;-0.061924;1.000000
445649.84729965;5696566.67819984;470.24985005;144;138;130;35466.000000;1.000000;1.000000;1.000000;1.000000;0.060825;0.060825;-0.060825;1.000000
445650.02160080;5696566.96719940;470.30305006;52;53;41;13107.000000;1.000000;1.000000;1.000000;1.000000;-0.137199;0.137199;-0.137199;1.000000
445650.00950058;5696566.60169991;470.44024994;39;49;54;11822.000000;1.000000;1.000000;1.000000;1.000000;-0.101376;0.101376;-0.101376;1.000000
445649.92230042;5696566.71979912;470.28164985;68;64;59;16448.000000;1.000000;1.000000;1.000000;1.000000;-0.014175;0.014175;-0.014175;1.000000
445649.94880112;5696566.67229851;470.32194998;47;47;48;12079.000000;1.000000;1.000000;1.000000;1.000000;-0.040676;0.040676;-0.040676;1.000000
445649.99320038;5696566.72189911;470.32215001;20;19;22;4883.000000;1.000000;1.000000;1.000000;1.000000;-0.085075;0.085075;-0.085075;1.000000
445649.91430099;5696566.70889862;470.28114988;48;42;40;11051.000000;1.000000;1.000000;1.000000;1.000000;-0.006176;0.006176;-0.006176;1.000000
445649.77420242;5696566.66649826;470.23945000;151;149;138;38036.000000;1.000000;1.000000;1.000000;1.000000;0.133923;0.133923;-0.133923;1.000000
445649.88540085;5696567.07369812;470.27724983;57;70;54;16448.000000;1.000000;1.000000;1.000000;1.000000;-0.133526;0.133526;-0.133526;1.000000
445649.95820053;5696566.69489868;470.31565001;47;47;49;12079.000000;1.000000;1.000000;1.000000;1.000000;-0.050076;0.050076;-0.050076;1.000000
445649.63670166;5696567.08969887;470.27784993;137;149;114;36237.000000;1.000000;1.000000;1.000000;1.000000;0.115173;-0.115173;0.115173;1.000000
445649.93910034;5696567.13909920;470.25944998;17;22;15;4883.000000;1.000000;1.000000;1.000000;1.000000;-0.187225;0.187225;-0.187225;1.000000
445649.80940063;5696566.66789825;470.24105002;155;154;144;39321.000000;1.000000;1.000000;1.000000;1.000000;0.098724;0.098724;-0.098724;1.000000
445649.96360214;5696566.76719864;470.29344990;43;45;47;11308.000000;1.000000;1.000000;1.000000;1.000000;-0.055477;0.055477;-0.055477;1.000000
445649.81110199;5696566.63959892;470.24775006;111;109;102;27756.000000;1.000000;1.000000;1.000000;1.000000;0.097023;-0.097023;0.097023;1.000000
445649.93029984;5696567.10229881;470.27495005;47;57;46;13364.000000;1.000000;1.000000;1.000000;1.000000;-0.178425;0.178425;-0.178425;1.000000
445649.66760071;5696566.95199974;470.24035003;165;164;159;41891.000000;1.000000;1.000000;1.000000;1.000000;0.105568;-0.105568;0.105568;1.000000
445649.81410034;5696566.77239807;470.24944999;37;36;27;8995.000000;1.000000;1.000000;1.000000;1.000000;0.057603;-0.057603;0.057603;1.000000
445649.95919998;5696566.68299873;470.32254984;52;52;51;13107.000000;1.000000;1.000000;1.000000;1.000000;-0.051075;0.051075;-0.051075;1.000000
445649.73670013;5696567.12969978;470.26884987;73;97;53;21588.000000;1.000000;1.000000;1.000000;1.000000;0.015175;-0.015175;0.015175;1.000000
445649.85980042;5696567.02469833;470.27784993;86;107;74;24929.000000;1.000000;1.000000;1.000000;1.000000;-0.107925;0.107925;-0.107925;1.000000
445649.92560013;5696566.80139931;470.27344992;55;57;51;14135.000000;1.000000;1.000000;1.000000;1.000000;-0.017475;0.017475;-0.017475;1.000000
445649.72900208;5696566.83189972;470.23704984;192;195;187;49601.000000;1.000000;1.000000;1.000000;1.000000;-0.022952;0.022952;-0.022952;1.000000
445649.74430283;5696567.15939911;470.26724984;39;67;22;13621.000000;1.000000;1.000000;1.000000;1.000000;0.007572;-0.007572;0.007572;1.000000
445649.86840256;5696566.83939941;470.27364995;116;124;99;30326.000000;1.000000;1.000000;1.000000;1.000000;-0.009399;0.009399;-0.009399;1.000000
445649.74559982;5696567.12189873;470.26454999;130;154;108;36237.000000;1.000000;1.000000;1.000000;1.000000;0.006275;-0.006275;0.006275;1.000000
445649.75850113;5696566.79649933;470.23564984;120;120;110;30326.000000;1.000000;1.000000;1.000000;1.000000;0.033501;-0.033501;0.033501;1.000000
445650.16349991;5696566.92239960;470.38354995;44;51;56;12593.000000;1.000000;1.000000;1.000000;1.000000;-0.092400;0.092400;-0.092400;1.000000
445649.65190323;5696567.12799843;470.28134992;65;93;51;20303.000000;1.000000;1.000000;1.000000;1.000000;0.099972;-0.099972;0.099972;1.000000
445649.63730057;5696567.04080017;470.26794984;152;158;133;39321.000000;1.000000;1.000000;1.000000;1.000000;0.114574;-0.114574;0.114574;1.000000
445650.08910187;5696566.88550003;470.34944989;61;69;70;16962.000000;1.000000;1.000000;1.000000;1.000000;0.055500;-0.055500;0.055500;1.000000
445649.81220062;5696566.60209854;470.24965002;137;129;119;33410.000000;1.000000;1.000000;1.000000;1.000000;0.095924;-0.095924;0.095924;1.000000
445649.88710220;5696566.64369972;470.28154995;35;30;26;7967.000000;1.000000;1.000000;1.000000;1.000000;0.021023;-0.021023;0.021023;1.000000
445649.86990173;5696566.65019997;470.26214983;57;51;47;13364.000000;1.000000;1.000000;1.000000;1.000000;0.038223;0.038223;-0.038223;1.000000
445649.91290100;5696567.11329849;470.26965000;121;130;117;32125.000000;1.000000;1.000000;1.000000;1.000000;-0.161026;0.161026;-0.161026;1.000000
445649.80020340;5696567.09619911;470.24335005;89;99;73;23901.000000;1.000000;1.000000;1.000000;1.000000;-0.048328;0.048328;-0.048328;1.000000
445649.96590240;5696566.72239883;470.30694987;60;61;62;15420.000000;1.000000;1.000000;1.000000;1.000000;-0.057777;0.057777;-0.057777;1.000000
445649.72730072;5696567.10259827;470.26574995;111;137;91;31868.000000;1.000000;1.000000;1.000000;1.000000;0.024574;-0.024574;0.024574;1.000000
445649.94440277;5696566.80429848;470.27674987;83;85;79;21331.000000;1.000000;1.000000;1.000000;1.000000;0.025702;-0.025702;0.025702;1.000000
445649.66340073;5696566.85659988;470.23904993;117;115;109;29298.000000;1.000000;1.000000;1.000000;1.000000;-0.092386;0.092386;-0.092386;1.000000
445650.11970337;5696566.86759956;470.41345002;100;104;104;26214.000000;1.000000;1.000000;1.000000;1.000000;0.037600;-0.037600;0.037600;1.000000
445650.02580078;5696566.73250015;470.34704997;39;45;52;11051.000000;1.000000;1.000000;1.000000;1.000000;0.097500;-0.097500;0.097500;1.000000
445649.68690308;5696566.93389900;470.24094989;153;153;147;39064.000000;1.000000;1.000000;1.000000;1.000000;0.104358;-0.104358;0.104358;1.000000
445650.05140121;5696566.78749855;470.41415002;55;62;68;15420.000000;1.000000;1.000000;1.000000;1.000000;0.042501;-0.042501;0.042501;1.000000
445649.82540329;5696566.97669991;470.26635005;9;22;4;4112.000000;1.000000;1.000000;1.000000;1.000000;-0.082936;0.082936;-0.082936;1.000000
445649.99600037;5696566.91819962;470.30364992;48;51;38;12336.000000;1.000000;1.000000;1.000000;1.000000;0.088200;-0.088200;0.088200;1.000000
445649.87750061;5696567.10739906;470.26335003;55;59;49;14392.000000;1.000000;1.000000;1.000000;1.000000;-0.125626;0.125626;-0.125626;1.000000
445649.65690048;5696567.05069931;470.26895000;174;182;149;44975.000000;1.000000;1.000000;1.000000;1.000000;0.094975;-0.094975;0.094975;1.000000
445649.58690079;5696566.90069969;470.26635005;235;237;233;60395.000000;1.000000;1.000000;1.000000;1.000000;-0.179485;0.179485;-0.179485;1.000000
445650.03240021;5696566.95909889;470.30814983;53;52;43;13107.000000;1.000000;1.000000;1.000000;1.000000;-0.129099;0.129099;-0.129099;1.000000
445649.99740036;5696566.88079842;470.29865005;32;33;24;7967.000000;1.000000;1.000000;1.000000;1.000000;0.050798;-0.050798;0.050798;1.000000
445649.88710220;5696566.83769997;470.26985003;81;90;61;21588.000000;1.000000;1.000000;1.000000;1.000000;-0.007700;0.007700;-0.007700;1.000000
445650.02570160;5696566.70369919;470.39564993;42;50;58;12336.000000;1.000000;1.000000;1.000000;1.000000;-0.117577;0.117577;-0.117577;1.000000
445649.92460068;5696566.83889969;470.26924994;118;127;104;31097.000000;1.000000;1.000000;1.000000;1.000000;-0.008900;0.008900;-0.008900;1.000000
445650.14760025;5696566.92169960;470.37345006;73;79;83;19789.000000;1.000000;1.000000;1.000000;1.000000;0.091700;-0.091700;0.091700;1.000000
445649.99850281;5696566.84329994;470.30055000;53;53;51;13364.000000;1.000000;1.000000;1.000000;1.000000;0.013300;-0.013300;0.013300;1.000000
445649.88860138;5696566.80259903;470.26714994;38;39;31;9509.000000;1.000000;1.000000;1.000000;1.000000;0.019524;0.019524;-0.019524;1.000000
445650.11110123;5696566.88299950;470.37605001;132;137;136;34695.000000;1.000000;1.000000;1.000000;1.000000;0.053511;-0.053511;0.053511;1.000000
445650.05550201;5696566.77169998;470.50024988;50;60;64;14649.000000;1.000000;1.000000;1.000000;1.000000;0.058300;-0.058300;0.058300;1.000000
445650.14190109;5696566.96949966;470.33885004;55;60;63;14906.000000;1.000000;1.000000;1.000000;1.000000;-0.139500;0.139500;-0.139500;1.000000
445649.69110306;5696567.06389816;470.26364996;115;129;90;30840.000000;1.000000;1.000000;1.000000;1.000000;0.060772;-0.060772;0.060772;1.000000
445650.03709991;5696566.77369888;470.33874990;48;55;62;13621.000000;1.000000;1.000000;1.000000;1.000000;0.056301;-0.056301;0.056301;1.000000
445649.99870117;5696566.64839943;470.35885002;25;31;35;7453.000000;1.000000;1.000000;1.000000;1.000000;-0.090576;0.090576;-0.090576;1.000000
445650.02050217;5696566.69499977;470.38835003;44;52;59;12850.000000;1.000000;1.000000;1.000000;1.000000;-0.112377;0.112377;-0.112377;1.000000
445649.83680161;5696566.97550018;470.27154996;11;29;7;5397.000000;1.000000;1.000000;1.000000;1.000000;-0.093647;0.093647;-0.093647;1.000000
445650.00390060;5696566.69499977;470.34095003;17;19;21;4626.000000;1.000000;1.000000;1.000000;1.000000;-0.095776;0.095776;-0.095776;1.000000
445650.02840240;5696566.69599922;470.42365005;39;46;52;11308.000000;1.000000;1.000000;1.000000;1.000000;-0.120277;0.120277;-0.120277;1.000000
445649.99930008;5696566.67420013;470.34754993;21;27;32;6425.000000;1.000000;1.000000;1.000000;1.000000;-0.091175;0.091175;-0.091175;1.000000
445650.03110321;5696566.71619995;470.45895006;65;73;78;18247.000000;1.000000;1.000000;1.000000;1.000000;0.113800;-0.113800;0.113800;1.000000
445649.87940033;5696567.06019981;470.27915003;55;69;50;15934.000000;1.000000;1.000000;1.000000;1.000000;-0.127525;0.127525;-0.127525;1.000000
445650.09240158;5696566.83929832;470.44214990;42;46;48;11565.000000;1.000000;1.000000;1.000000;1.000000;0.009298;-0.009298;0.009298;1.000000
445650.09490021;5696566.83379944;470.47954990;52;56;55;13878.000000;1.000000;1.000000;1.000000;1.000000;0.003799;-0.003799;0.003799;1.000000
445650.05809982;5696566.79809959;470.44244983;40;49;55;11822.000000;1.000000;1.000000;1.000000;1.000000;0.031900;-0.031900;0.031900;1.000000
445650.05220230;5696566.79979904;470.36774995;56;62;65;15420.000000;1.000000;1.000000;1.000000;1.000000;0.030201;-0.030201;0.030201;1.000000
445649.91600235;5696566.61709984;470.31274988;58;56;48;14135.000000;1.000000;1.000000;1.000000;1.000000;-0.007877;0.007877;-0.007877;1.000000
445649.69429977;5696567.01709946;470.24934985;122;127;100;31354.000000;1.000000;1.000000;1.000000;1.000000;0.057575;-0.057575;0.057575;1.000000
445649.56970032;5696566.89059837;470.26315000;207;211;207;53713.000000;1.000000;1.000000;1.000000;1.000000;-0.191989;0.191989;-0.191989;1.000000
445649.96190079;5696566.60059937;470.34964993;62;61;54;15420.000000;1.000000;1.000000;1.000000;1.000000;-0.053776;0.053776;-0.053776;1.000000
445650.02499969;5696566.65899857;470.42304995;46;52;57;12850.000000;1.000000;1.000000;1.000000;1.000000;-0.116875;0.116875;-0.116875;1.000000
445649.60490234;5696566.89209946;470.26245000;203;202;200;51914.000000;1.000000;1.000000;1.000000;1.000000;-0.159553;0.159553;-0.159553;1.000000
445649.96300323;5696566.56309898;470.35154988;85;85;76;21588.000000;1.000000;1.000000;1.000000;1.000000;-0.054878;0.054878;-0.054878;1.000000
445650.16020020;5696566.99109848;470.33994987;70;74;76;18761.000000;1.000000;1.000000;1.000000;1.000000;-0.161098;0.161098;-0.161098;1.000000
445649.90649994;5696566.63459976;470.30094983;77;73;64;18761.000000;1.000000;1.000000;1.000000;1.000000;0.001625;-0.001625;0.001625;1.000000
445650.02779968;5696566.65809830;470.46274998;51;59;65;14649.000000;1.000000;1.000000;1.000000;1.000000;-0.119675;0.119675;-0.119675;1.000000
445649.95560272;5696566.58019836;470.34445002;34;34;29;8481.000000;1.000000;1.000000;1.000000;1.000000;-0.047478;0.047478;-0.047478;1.000000
445649.68390091;5696566.82219894;470.23254992;148;150;145;38036.000000;1.000000;1.000000;1.000000;1.000000;0.068420;-0.068420;0.068420;1.000000
445650.01040085;5696566.60119827;470.47054984;35;45;49;10794.000000;1.000000;1.000000;1.000000;1.000000;-0.102276;0.102276;-0.102276;1.000000
445650.12370117;5696566.95019920;470.33774998;65;71;73;17733.000000;1.000000;1.000000;1.000000;1.000000;0.120199;-0.120199;0.120199;1.000000
445649.79880341;5696567.16149910;470.25344994;123;142;88;33410.000000;1.000000;1.000000;1.000000;1.000000;-0.046928;0.046928;-0.046928;1.000000
445650.08990295;5696566.91359909;470.33815004;29;35;35;8481.000000;1.000000;1.000000;1.000000;1.000000;0.083599;-0.083599;0.083599;1.000000
445649.87490280;5696567.12639816;470.25644996;55;56;46;13878.000000;1.000000;1.000000;1.000000;1.000000;-0.123028;0.123028;-0.123028;1.000000
445649.90520294;5696566.82909973;470.26594998;99;106;87;25957.000000;1.000000;1.000000;1.000000;1.000000;-0.000900;0.000900;-0.000900;1.000000
445649.80450256;5696567.04879959;470.25694992;84;92;70;22359.000000;1.000000;1.000000;1.000000;1.000000;-0.052628;0.052628;-0.052628;1.000000
445649.99540146;5696566.59929855;470.38374998;113;119;121;30069.000000;1.000000;1.000000;1.000000;1.000000;-0.087276;0.087276;-0.087276;1.000000
445649.80570038;5696567.01139839;470.25654985;44;58;29;12850.000000;1.000000;1.000000;1.000000;1.000000;-0.053964;0.053964;-0.053964;1.000000
445649.91580017;5696567.05429848;470.29005005;50;67;47;15163.000000;1.000000;1.000000;1.000000;1.000000;-0.163925;0.163925;-0.163925;1.000000
445649.76970108;5696566.97499855;470.25455000;97;119;77;27499.000000;1.000000;1.000000;1.000000;1.000000;-0.044069;0.044069;-0.044069;1.000000
445649.91690262;5696567.01679810;470.29195001;21;40;16;7967.000000;1.000000;1.000000;1.000000;1.000000;-0.165028;0.165028;-0.165028;1.000000
445649.90910156;5696566.70239838;470.27854993;58;52;47;13621.000000;1.000000;1.000000;1.000000;1.000000;-0.000977;0.000977;-0.000977;1.000000
445649.62410172;5696566.89279945;470.25394990;157;153;149;39321.000000;1.000000;1.000000;1.000000;1.000000;-0.142372;0.142372;-0.142372;1.000000
445649.86870010;5696567.04489906;470.27845003;31;48;25;10280.000000;1.000000;1.000000;1.000000;1.000000;-0.116825;0.116825;-0.116825;1.000000
