//X;Y;Z;R;G;B;Intensity;Return Number;Number Of Returns;Scan Direction Flag;Point Source ID;C2M signed distances[-][<0.8];C2M signed distances[<0.4];C2M signed distances[-][<0.2];Stump34
445606.97490128;5696567.04849823;472.85645010;123;126;107;31611.000000;1.000000;1.000000;1.000000;1.000000;0.026976;-0.026976;0.026976;1.000000
445607.42560108;5696567.02139862;472.81134989;153;144;125;37008.000000;1.000000;1.000000;1.000000;1.000000;-0.191399;0.191399;-0.191399;1.000000
445607.53440197;5696566.86939819;472.77944996;176;176;168;44975.000000;1.000000;1.000000;1.000000;1.000000;-0.039398;0.039398;-0.039398;1.000000
445607.15370186;5696567.23289879;472.85045006;98;114;70;26728.000000;1.000000;1.000000;1.000000;1.000000;-0.151825;0.151825;-0.151825;1.000000
445607.45530136;5696566.97699936;472.78655006;145;143;132;36494.000000;1.000000;1.000000;1.000000;1.000000;-0.146999;0.146999;-0.146999;1.000000
445607.16170128;5696567.05509956;472.82305004;147;160;110;38550.000000;1.000000;1.000000;1.000000;1.000000;-0.159824;0.159824;-0.159824;1.000000
445607.38100155;5696566.97399910;472.82035019;175;175;159;44461.000000;1.000000;1.000000;1.000000;1.000000;-0.143999;0.143999;-0.143999;1.000000
445607.12270172;5696567.14709862;472.84104969;162;174;131;42405.000000;1.000000;1.000000;1.000000;1.000000;-0.120825;0.120825;-0.120825;1.000000
445607.15070160;5696566.89999969;472.79745008;161;172;135;42148.000000;1.000000;1.000000;1.000000;1.000000;0.070000;-0.070000;0.070000;1.000000
445607.40760143;5696566.94849976;472.80034973;139;137;122;34695.000000;1.000000;1.000000;1.000000;1.000000;-0.118501;0.118501;-0.118501;1.000000
445607.55910118;5696566.95369919;472.76765015;131;130;122;33153.000000;1.000000;1.000000;1.000000;1.000000;-0.123740;0.123740;-0.123740;1.000000
445607.22270115;5696566.97489937;472.80625011;158;169;132;41377.000000;1.000000;1.000000;1.000000;1.000000;-0.144899;0.144899;-0.144899;1.000000
445606.99490173;5696567.00259979;472.83584978;25;26;15;6168.000000;1.000000;1.000000;1.000000;1.000000;0.006975;-0.006975;0.006975;1.000000
445607.44480141;5696567.02209862;472.80055000;96;87;72;22616.000000;1.000000;1.000000;1.000000;1.000000;-0.192099;0.192099;-0.192099;1.000000
445607.48030193;5696567.02589996;472.79985001;92;82;67;21331.000000;1.000000;1.000000;1.000000;1.000000;-0.195900;0.195900;-0.195900;1.000000
445606.99370201;5696567.04009827;472.83624985;100;105;83;25957.000000;1.000000;1.000000;1.000000;1.000000;0.008175;-0.008175;0.008175;1.000000
445607.43690117;5696566.95759972;472.79015018;98;94;81;23901.000000;1.000000;1.000000;1.000000;1.000000;-0.127624;0.127624;-0.127624;1.000000
445607.39430149;5696566.99370010;472.82585003;163;161;146;40863.000000;1.000000;1.000000;1.000000;1.000000;-0.163700;0.163700;-0.163700;1.000000
445607.12430199;5696567.05620010;472.82375004;135;146;98;35209.000000;1.000000;1.000000;1.000000;1.000000;-0.122425;0.122425;-0.122425;1.000000
445607.01630123;5696567.02419861;472.82084991;78;85;61;20560.000000;1.000000;1.000000;1.000000;1.000000;-0.014424;0.014424;-0.014424;1.000000
445607.00150116;5696567.10679825;472.85374977;170;174;144;43433.000000;1.000000;1.000000;1.000000;1.000000;0.000376;-0.000376;0.000376;1.000000
445607.12660130;5696567.02799995;472.81885006;135;141;100;34438.000000;1.000000;1.000000;1.000000;1.000000;-0.124724;0.124724;-0.124724;1.000000
445607.26930149;5696566.96839912;472.79664995;133;143;94;34438.000000;1.000000;1.000000;1.000000;1.000000;-0.138399;0.138399;-0.138399;1.000000
445607.16760166;5696567.38339813;472.85524990;207;210;201;53456.000000;1.000000;1.000000;1.000000;1.000000;-0.174115;0.174115;-0.174115;1.000000
445607.17850121;5696567.37529953;472.85564997;187;190;175;48059.000000;1.000000;1.000000;1.000000;1.000000;-0.182341;0.182341;-0.182341;1.000000
445607.15400131;5696567.02079971;472.81764986;214;218;181;54484.000000;1.000000;1.000000;1.000000;1.000000;-0.152124;0.152124;-0.152124;1.000000
445607.00840195;5696566.99439819;472.82945015;55;58;44;14135.000000;1.000000;1.000000;1.000000;1.000000;-0.006525;0.006525;-0.006525;1.000000
445607.04360111;5696567.01470001;472.81724979;108;119;85;28527.000000;1.000000;1.000000;1.000000;1.000000;-0.041724;0.041724;-0.041724;1.000000
445607.14030178;5696567.15949829;472.83964970;170;181;142;44461.000000;1.000000;1.000000;1.000000;1.000000;-0.138425;0.138425;-0.138425;1.000000
445607.10230167;5696567.19520004;472.87564995;105;115;84;27756.000000;1.000000;1.000000;1.000000;1.000000;-0.100425;0.100425;-0.100425;1.000000
445607.09870155;5696567.23059853;472.87354996;119;133;99;32125.000000;1.000000;1.000000;1.000000;1.000000;-0.096825;0.096825;-0.096825;1.000000
445607.02250202;5696567.26799973;472.87755014;80;94;66;22102.000000;1.000000;1.000000;1.000000;1.000000;-0.020625;0.020625;-0.020625;1.000000
445607.06000145;5696567.26689919;472.87454988;64;76;51;17733.000000;1.000000;1.000000;1.000000;1.000000;-0.058125;0.058125;-0.058125;1.000000
445607.17190178;5696567.27339943;472.84244968;90;103;65;24158.000000;1.000000;1.000000;1.000000;1.000000;-0.170025;0.170025;-0.170025;1.000000
445607.07780178;5696566.90409859;472.81514980;59;64;49;15420.000000;1.000000;1.000000;1.000000;1.000000;-0.074099;0.074099;-0.074099;1.000000
445607.17060192;5696567.30859955;472.84044983;157;171;132;41634.000000;1.000000;1.000000;1.000000;1.000000;-0.168725;0.168725;-0.168725;1.000000
445607.12620171;5696567.45749863;472.83794977;34;33;29;8224.000000;1.000000;1.000000;1.000000;1.000000;-0.124476;0.124476;-0.124476;1.000000
445607.08840187;5696567.45399864;472.83844997;102;101;92;25700.000000;1.000000;1.000000;1.000000;1.000000;-0.087059;0.087059;-0.087059;1.000000
445607.47330196;5696566.99629982;472.78984978;138;132;119;33924.000000;1.000000;1.000000;1.000000;1.000000;-0.166300;0.166300;-0.166300;1.000000
445607.08740147;5696567.49159821;472.83424999;82;79;65;20046.000000;1.000000;1.000000;1.000000;1.000000;-0.085525;0.085525;-0.085525;1.000000
445607.01170166;5696566.91209991;472.84725000;31;33;30;8224.000000;1.000000;1.000000;1.000000;1.000000;-0.052276;0.052276;-0.052276;1.000000
445607.08590134;5696566.91509827;472.81334974;101;108;83;26471.000000;1.000000;1.000000;1.000000;1.000000;-0.085098;0.085098;-0.085098;1.000000
445607.14730175;5696566.94449814;472.80944969;116;131;84;31097.000000;1.000000;1.000000;1.000000;1.000000;-0.114498;0.114498;-0.114498;1.000000
445607.15630157;5696566.99269875;472.81274988;100;106;68;25700.000000;1.000000;1.000000;1.000000;1.000000;-0.154425;0.154425;-0.154425;1.000000
445607.11850174;5696566.98909958;472.81334974;104;109;66;26214.000000;1.000000;1.000000;1.000000;1.000000;-0.116625;0.116625;-0.116625;1.000000
445607.08110149;5696566.98799904;472.81164982;82;86;55;20817.000000;1.000000;1.000000;1.000000;1.000000;-0.079225;0.079225;-0.079225;1.000000
445607.37430199;5696566.88869865;472.79115011;159;157;142;39835.000000;1.000000;1.000000;1.000000;1.000000;-0.058755;0.058755;-0.058755;1.000000
445607.03820141;5696566.91219910;472.82975008;15;17;14;4112.000000;1.000000;1.000000;1.000000;1.000000;-0.063100;0.063100;-0.063100;1.000000
445607.23140152;5696566.99499901;472.81154968;144;153;120;37522.000000;1.000000;1.000000;1.000000;1.000000;-0.164999;0.164999;-0.164999;1.000000
445607.19250114;5696567.02899940;472.81014969;165;173;137;42662.000000;1.000000;1.000000;1.000000;1.000000;-0.190624;0.190624;-0.190624;1.000000
445607.00270184;5696567.03240021;472.82725002;88;92;69;22616.000000;1.000000;1.000000;1.000000;1.000000;-0.000825;0.000825;-0.000825;1.000000
445607.03200157;5696567.04149826;472.81934978;138;150;111;36494.000000;1.000000;1.000000;1.000000;1.000000;-0.030125;0.030125;-0.030125;1.000000
445607.07440193;5696566.94179924;472.81314995;30;31;14;7196.000000;1.000000;1.000000;1.000000;1.000000;-0.075886;0.075886;-0.075886;1.000000
445607.18010147;5696567.04879959;472.81685020;123;134;85;32125.000000;1.000000;1.000000;1.000000;1.000000;-0.178225;0.178225;-0.178225;1.000000
445607.14460190;5696567.04729851;472.82224991;118;129;81;30840.000000;1.000000;1.000000;1.000000;1.000000;-0.142725;0.142725;-0.142725;1.000000
445607.15310200;5696567.09529884;472.83715012;139;154;107;37008.000000;1.000000;1.000000;1.000000;1.000000;-0.151225;0.151225;-0.151225;1.000000
445607.10720165;5696567.04609879;472.82054998;141;152;107;36751.000000;1.000000;1.000000;1.000000;1.000000;-0.105325;0.105325;-0.105325;1.000000
445607.04720123;5696567.17259987;472.85895016;162;171;142;42405.000000;1.000000;1.000000;1.000000;1.000000;-0.045324;0.045324;-0.045324;1.000000
445607.12000187;5696567.17519959;472.85755016;150;160;120;39064.000000;1.000000;1.000000;1.000000;1.000000;-0.118125;0.118125;-0.118125;1.000000
445607.11870201;5696567.01709946;472.81605007;127;131;93;32125.000000;1.000000;1.000000;1.000000;1.000000;-0.116825;0.116825;-0.116825;1.000000
445607.07650192;5696567.28439911;472.85454990;35;49;25;10794.000000;1.000000;1.000000;1.000000;1.000000;-0.074625;0.074625;-0.074625;1.000000
445607.04130180;5696567.28520020;472.85995008;28;40;18;8481.000000;1.000000;1.000000;1.000000;1.000000;-0.039425;0.039425;-0.039425;1.000000
445607.18690117;5696567.36519821;472.85584976;139;144;121;35723.000000;1.000000;1.000000;1.000000;1.000000;-0.188342;0.188342;-0.188342;1.000000
445607.03670128;5696567.35809906;472.85365011;202;208;197;52428.000000;1.000000;1.000000;1.000000;1.000000;-0.044747;0.044747;-0.044747;1.000000
445607.41110142;5696566.91079910;472.80004980;170;170;156;43176.000000;1.000000;1.000000;1.000000;1.000000;-0.080799;0.080799;-0.080799;1.000000
445607.37360199;5696566.90969856;472.79834988;151;149;135;38036.000000;1.000000;1.000000;1.000000;1.000000;-0.079766;0.079766;-0.079766;1.000000
445607.00060184;5696566.96689995;472.84275009;18;19;13;4626.000000;1.000000;1.000000;1.000000;1.000000;0.001275;-0.001275;0.001275;1.000000
445607.33460148;5696566.94359978;472.80165007;148;143;119;36237.000000;1.000000;1.000000;1.000000;1.000000;-0.113600;0.113600;-0.113600;1.000000
445607.25840195;5696566.97869881;472.80095007;150;162;116;39321.000000;1.000000;1.000000;1.000000;1.000000;-0.148699;0.148699;-0.148699;1.000000
445607.18570145;5696567.40269859;472.85624983;45;43;38;11051.000000;1.000000;1.000000;1.000000;1.000000;-0.193545;0.193545;-0.193545;1.000000
445607.14830120;5696567.40149887;472.85454990;97;99;96;25186.000000;1.000000;1.000000;1.000000;1.000000;-0.158931;0.158931;-0.158931;1.000000
445607.02530201;5696567.19539841;472.87214996;65;69;45;16705.000000;1.000000;1.000000;1.000000;1.000000;-0.023425;0.023425;-0.023425;1.000000
445607.15470131;5696567.05569847;472.82275011;136;148;96;35466.000000;1.000000;1.000000;1.000000;1.000000;-0.152824;0.152824;-0.152824;1.000000
445606.99420174;5696566.97449883;472.84485008;23;25;19;5911.000000;1.000000;1.000000;1.000000;1.000000;0.007675;-0.007675;0.007675;1.000000
445607.14820202;5696566.98169907;472.81465008;107;114;72;27499.000000;1.000000;1.000000;1.000000;1.000000;-0.146325;0.146325;-0.146325;1.000000
445607.11080177;5696566.98059853;472.81054976;70;75;36;17733.000000;1.000000;1.000000;1.000000;1.000000;-0.108925;0.108925;-0.108925;1.000000
445607.07330139;5696566.97939880;472.81124975;104;108;78;26471.000000;1.000000;1.000000;1.000000;1.000000;-0.071424;0.071424;-0.071424;1.000000
445607.29610165;5696566.98670013;472.81204988;172;178;144;44204.000000;1.000000;1.000000;1.000000;1.000000;-0.156700;0.156700;-0.156700;1.000000
445607.22130116;5696566.98670013;472.81094982;187;195;163;48573.000000;1.000000;1.000000;1.000000;1.000000;-0.156700;0.156700;-0.156700;1.000000
445607.04230125;5696567.05219849;472.81995012;116;129;86;30840.000000;1.000000;1.000000;1.000000;1.000000;-0.040424;0.040424;-0.040424;1.000000
445607.03100117;5696566.91279991;472.83414986;19;21;18;5140.000000;1.000000;1.000000;1.000000;1.000000;-0.058649;0.058649;-0.058649;1.000000
445607.36430176;5696566.90819939;472.79554989;171;169;153;42919.000000;1.000000;1.000000;1.000000;1.000000;-0.078199;0.078199;-0.078199;1.000000
445607.56030186;5696566.91619881;472.76725008;50;47;41;12079.000000;1.000000;1.000000;1.000000;1.000000;-0.086295;0.086295;-0.086295;1.000000
445607.36800201;5696567.01929863;472.84124996;150;152;132;38293.000000;1.000000;1.000000;1.000000;1.000000;-0.189299;0.189299;-0.189299;1.000000
445607.14160164;5696567.12209900;472.83694984;135;149;99;35723.000000;1.000000;1.000000;1.000000;1.000000;-0.139725;0.139725;-0.139725;1.000000
445607.06260117;5696567.19419868;472.87384989;126;131;102;32382.000000;1.000000;1.000000;1.000000;1.000000;-0.060724;0.060724;-0.060724;1.000000
445607.17820175;5696566.91849907;472.79425003;120;131;86;31354.000000;1.000000;1.000000;1.000000;1.000000;-0.088499;0.088499;-0.088499;1.000000
445607.02530201;5696566.94849976;472.82735016;95;97;87;24415.000000;1.000000;1.000000;1.000000;1.000000;-0.028006;0.028006;-0.028006;1.000000
445607.06660183;5696567.11969955;472.83584978;149;158;115;38550.000000;1.000000;1.000000;1.000000;1.000000;-0.064725;0.064725;-0.064725;1.000000
445607.25210197;5696566.95839890;472.79344990;157;167;122;40863.000000;1.000000;1.000000;1.000000;1.000000;-0.128399;0.128399;-0.128399;1.000000
445607.10420139;5696567.12089928;472.83524992;182;193;147;47288.000000;1.000000;1.000000;1.000000;1.000000;-0.102324;0.102324;-0.102324;1.000000
445607.55540188;5696567.02829941;472.79864981;44;31;22;8481.000000;1.000000;1.000000;1.000000;1.000000;-0.198299;0.198299;-0.198299;1.000000
445607.51780136;5696567.02709969;472.79925014;110;97;87;25443.000000;1.000000;1.000000;1.000000;1.000000;-0.197100;0.197100;-0.197100;1.000000
445606.98950203;5696567.18929871;472.87745001;143;142;126;35980.000000;1.000000;1.000000;1.000000;1.000000;0.012375;-0.012375;0.012375;1.000000
445607.17550190;5696567.23569878;472.83984997;82;100;51;22873.000000;1.000000;1.000000;1.000000;1.000000;-0.173625;0.173625;-0.173625;1.000000
445607.32220181;5696567.02599915;472.83234980;106;113;82;27499.000000;1.000000;1.000000;1.000000;1.000000;-0.195999;0.195999;-0.195999;1.000000
445607.41060169;5696566.98319824;472.80555012;128;126;110;31868.000000;1.000000;1.000000;1.000000;1.000000;-0.153198;0.153198;-0.153198;1.000000
445607.07190140;5696567.45319946;472.84004976;149;149;137;37779.000000;1.000000;1.000000;1.000000;1.000000;-0.070792;0.070792;-0.070792;1.000000
445607.02310188;5696567.22579964;472.88175013;80;89;73;21588.000000;1.000000;1.000000;1.000000;1.000000;-0.021225;0.021225;-0.021225;1.000000
445607.18770130;5696566.91769989;472.79005005;113;124;80;29555.000000;1.000000;1.000000;1.000000;1.000000;0.087700;-0.087700;0.087700;1.000000
445607.03340157;5696567.21759995;472.89605000;145;150;127;37265.000000;1.000000;1.000000;1.000000;1.000000;-0.031525;0.031525;-0.031525;1.000000
445607.29820164;5696566.92379959;472.78814985;122;120;94;30069.000000;1.000000;1.000000;1.000000;1.000000;-0.093800;0.093800;-0.093800;1.000000
445607.03490170;5696566.94999893;472.82544996;83;85;72;21074.000000;1.000000;1.000000;1.000000;1.000000;-0.035827;0.035827;-0.035827;1.000000
445607.54470165;5696567.01069839;472.79094984;97;86;76;22616.000000;1.000000;1.000000;1.000000;1.000000;-0.180698;0.180698;-0.180698;1.000000
445607.03420170;5696567.45199974;472.84305002;110;115;95;28527.000000;1.000000;1.000000;1.000000;1.000000;-0.034322;0.034322;-0.034322;1.000000
445607.47170170;5696567.00579842;472.79225018;159;152;139;39064.000000;1.000000;1.000000;1.000000;1.000000;-0.175798;0.175798;-0.175798;1.000000
445607.03330143;5696567.48950012;472.83874990;167;164;145;41634.000000;1.000000;1.000000;1.000000;1.000000;-0.031425;0.031425;-0.031425;1.000000
445607.01070126;5696567.33019836;472.85444977;125;134;110;32896.000000;1.000000;1.000000;1.000000;1.000000;-0.008827;0.008827;-0.008827;1.000000
445607.25920113;5696566.95779999;472.79134991;133;143;97;34438.000000;1.000000;1.000000;1.000000;1.000000;-0.127800;0.127800;-0.127800;1.000000
445607.05100163;5696567.06999977;472.82054998;130;141;96;33924.000000;1.000000;1.000000;1.000000;1.000000;-0.049125;0.049125;-0.049125;1.000000
445607.55600174;5696567.00049980;472.77964975;157;145;135;37779.000000;1.000000;1.000000;1.000000;1.000000;-0.170500;0.170500;-0.170500;1.000000
445607.10790165;5696567.05539902;472.82294991;144;157;106;37779.000000;1.000000;1.000000;1.000000;1.000000;-0.106025;0.106025;-0.106025;1.000000
445607.17490108;5696567.41069992;472.85354998;38;37;33;9252.000000;1.000000;1.000000;1.000000;1.000000;-0.180848;0.180848;-0.180848;1.000000
445607.51000126;5696567.01619919;472.79414989;99;86;76;22616.000000;1.000000;1.000000;1.000000;1.000000;-0.186199;0.186199;-0.186199;1.000000
445607.44910152;5696566.88419922;472.78275015;136;135;126;34438.000000;1.000000;1.000000;1.000000;1.000000;-0.054199;0.054199;-0.054199;1.000000
445607.22480114;5696566.91199883;472.78464987;180;185;149;46003.000000;1.000000;1.000000;1.000000;1.000000;-0.081999;0.081999;-0.081999;1.000000
445607.33100136;5696566.99029930;472.82294991;122;123;94;30583.000000;1.000000;1.000000;1.000000;1.000000;-0.160299;0.160299;-0.160299;1.000000
445607.06900127;5696567.08929832;472.82394983;130;141;93;33924.000000;1.000000;1.000000;1.000000;1.000000;-0.067124;0.067124;-0.067124;1.000000
445607.13560112;5696567.24149902;472.85444977;74;88;46;20303.000000;1.000000;1.000000;1.000000;1.000000;-0.133724;0.133724;-0.133724;1.000000
445607.07200153;5696567.19800003;472.87895014;93;100;69;24158.000000;1.000000;1.000000;1.000000;1.000000;-0.070125;0.070125;-0.070125;1.000000
445607.44780167;5696566.92169960;472.78555014;95;93;84;23644.000000;1.000000;1.000000;1.000000;1.000000;-0.091700;0.091700;-0.091700;1.000000
445607.05890186;5696567.27649887;472.86534979;31;44;21;9509.000000;1.000000;1.000000;1.000000;1.000000;-0.057025;0.057025;-0.057025;1.000000
445607.03540142;5696567.20829971;472.88444998;117;121;94;29812.000000;1.000000;1.000000;1.000000;1.000000;-0.033525;0.033525;-0.033525;1.000000
445607.13460167;5696567.06689842;472.82665016;127;139;90;33410.000000;1.000000;1.000000;1.000000;1.000000;-0.132725;0.132725;-0.132725;1.000000
445607.06120117;5696567.23839958;472.89295008;141;153;125;37522.000000;1.000000;1.000000;1.000000;1.000000;-0.059324;0.059324;-0.059324;1.000000
445607.02370174;5696567.27729996;472.87074997;57;69;45;15934.000000;1.000000;1.000000;1.000000;1.000000;-0.021825;0.021825;-0.021825;1.000000
445607.13690193;5696567.20629890;472.85634996;121;138;99;32896.000000;1.000000;1.000000;1.000000;1.000000;-0.135025;0.135025;-0.135025;1.000000
445607.10530193;5696567.28879936;472.84665014;52;71;36;15677.000000;1.000000;1.000000;1.000000;1.000000;-0.103425;0.103425;-0.103425;1.000000
445607.14160164;5696567.32749947;472.84875013;87;109;62;24929.000000;1.000000;1.000000;1.000000;1.000000;-0.139725;0.139725;-0.139725;1.000000
445607.17830189;5696567.13289841;472.82245018;139;157;106;37265.000000;1.000000;1.000000;1.000000;1.000000;-0.176425;0.176425;-0.176425;1.000000
445607.17920120;5696567.32869919;472.84574987;91;106;63;24672.000000;1.000000;1.000000;1.000000;1.000000;-0.177324;0.177324;-0.177324;1.000000
445607.14010151;5696567.36259850;472.85134985;189;198;178;49601.000000;1.000000;1.000000;1.000000;1.000000;-0.142017;0.142017;-0.142017;1.000000
445607.10260113;5696567.36139877;472.84964993;228;234;222;59110.000000;1.000000;1.000000;1.000000;1.000000;-0.105505;0.105505;-0.105505;1.000000
445607.06510170;5696567.36019905;472.85034992;225;231;222;58596.000000;1.000000;1.000000;1.000000;1.000000;-0.070067;0.070067;-0.070067;1.000000
445607.06400116;5696567.39769943;472.84835007;56;60;57;14906.000000;1.000000;1.000000;1.000000;1.000000;-0.090436;0.090436;-0.090436;1.000000
445607.02640160;5696567.39649971;472.85134985;46;56;43;13107.000000;1.000000;1.000000;1.000000;1.000000;0.070878;-0.070878;0.070878;1.000000
445607.29240139;5696566.88469894;472.78504993;140;136;117;34695.000000;1.000000;1.000000;1.000000;1.000000;-0.054699;0.054699;-0.054699;1.000000
445607.02520187;5696567.43169983;472.84705021;83;93;74;22359.000000;1.000000;1.000000;1.000000;1.000000;-0.039399;0.039399;-0.039399;1.000000
445607.17190178;5696567.47649963;472.84954979;59;58;49;14649.000000;1.000000;1.000000;1.000000;1.000000;-0.170025;0.170025;-0.170025;1.000000
445607.00730141;5696567.20849808;472.88544991;86;85;64;21074.000000;1.000000;1.000000;1.000000;1.000000;-0.005424;0.005424;-0.005424;1.000000
445607.35580166;5696566.88819893;472.78564980;148;147;131;37265.000000;1.000000;1.000000;1.000000;1.000000;-0.058199;0.058199;-0.058199;1.000000
445607.46880157;5696566.89409836;472.78144981;143;143;134;36494.000000;1.000000;1.000000;1.000000;1.000000;-0.064124;0.064124;-0.064124;1.000000
445606.98170193;5696566.94739922;472.85794975;46;48;43;11822.000000;1.000000;1.000000;1.000000;1.000000;0.025649;-0.025649;0.025649;1.000000
445607.46530159;5696566.93179901;472.78174974;206;205;197;52428.000000;1.000000;1.000000;1.000000;1.000000;-0.101846;0.101846;-0.101846;1.000000
445607.35210140;5696566.96279915;472.81664993;178;176;155;44718.000000;1.000000;1.000000;1.000000;1.000000;-0.132799;0.132799;-0.132799;1.000000
445607.46380146;5696566.96689995;472.78445007;152;151;142;38550.000000;1.000000;1.000000;1.000000;1.000000;-0.136909;0.136909;-0.136909;1.000000
445607.53720196;5696567.00439842;472.78824999;115;101;92;26728.000000;1.000000;1.000000;1.000000;1.000000;-0.174398;0.174398;-0.174398;1.000000
445607.42850121;5696566.91869934;472.79155018;163;160;150;40863.000000;1.000000;1.000000;1.000000;1.000000;-0.088699;0.088699;-0.088699;1.000000
445607.16180141;5696567.02939995;472.81815006;174;180;137;44461.000000;1.000000;1.000000;1.000000;1.000000;-0.159925;0.159925;-0.159925;1.000000
445607.20040138;5696567.06789978;472.82035019;186;198;157;48573.000000;1.000000;1.000000;1.000000;1.000000;-0.198524;0.198524;-0.198524;1.000000
445607.00850113;5696567.13410004;472.85904982;155;162;130;40092.000000;1.000000;1.000000;1.000000;1.000000;-0.006624;0.006624;-0.006624;1.000000
445607.08460148;5696567.17369850;472.86065008;177;182;147;45232.000000;1.000000;1.000000;1.000000;1.000000;-0.082725;0.082725;-0.082725;1.000000
445607.00960167;5696567.17140015;472.85955002;204;210;190;52942.000000;1.000000;1.000000;1.000000;1.000000;-0.007725;0.007725;-0.007725;1.000000
445607.04800137;5696567.09119995;472.82765009;126;136;88;32639.000000;1.000000;1.000000;1.000000;1.000000;-0.046124;0.046124;-0.046124;1.000000
445607.12130173;5696567.21469887;472.85804989;100;118;81;27756.000000;1.000000;1.000000;1.000000;1.000000;-0.119425;0.119425;-0.119425;1.000000
445606.96500118;5696566.91860016;472.85914995;178;179;172;45489.000000;1.000000;1.000000;1.000000;1.000000;0.057876;-0.057876;0.057876;1.000000
445607.04310139;5696567.46990021;472.83894970;140;141;121;35466.000000;1.000000;1.000000;1.000000;1.000000;-0.041224;0.041224;-0.041224;1.000000
445607.02590187;5696567.20459946;472.87925007;84;86;67;21331.000000;1.000000;1.000000;1.000000;1.000000;-0.024025;0.024025;-0.024025;1.000000
445607.11770161;5696567.25019844;472.85605003;105;117;84;28013.000000;1.000000;1.000000;1.000000;1.000000;-0.115825;0.115825;-0.115825;1.000000
445607.39200123;5696566.90789993;472.80144979;120;119;104;30069.000000;1.000000;1.000000;1.000000;1.000000;-0.077900;0.077900;-0.077900;1.000000
445607.01840122;5696566.93029984;472.83844997;57;60;54;14906.000000;1.000000;1.000000;1.000000;1.000000;-0.037196;0.037196;-0.037196;1.000000
445607.16790112;5696566.93569954;472.80095007;157;170;126;41377.000000;1.000000;1.000000;1.000000;1.000000;-0.105700;0.105700;-0.105700;1.000000
445607.29810150;5696566.89579971;472.78545000;108;107;85;26728.000000;1.000000;1.000000;1.000000;1.000000;-0.065800;0.065800;-0.065800;1.000000
445607.26300152;5696566.89449890;472.78385021;104;100;76;25186.000000;1.000000;1.000000;1.000000;1.000000;-0.064499;0.064499;-0.064499;1.000000
445607.55310162;5696566.86989983;472.78034975;176;176;168;44975.000000;1.000000;1.000000;1.000000;1.000000;-0.039900;0.039900;-0.039900;1.000000
445607.24160202;5696566.97550018;472.80474998;103;114;71;26985.000000;1.000000;1.000000;1.000000;1.000000;-0.145500;0.145500;-0.145500;1.000000
445607.26150139;5696566.92959984;472.78655006;125;129;93;31611.000000;1.000000;1.000000;1.000000;1.000000;-0.099600;0.099600;-0.099600;1.000000
445607.20410164;5696566.97439964;472.80305006;199;208;178;51914.000000;1.000000;1.000000;1.000000;1.000000;-0.144400;0.144400;-0.144400;1.000000
445606.98290165;5696567.00359924;472.84464981;26;27;20;6425.000000;1.000000;1.000000;1.000000;1.000000;0.018975;-0.018975;0.018975;1.000000
445607.53650196;5696567.02769859;472.80014994;55;41;33;11308.000000;1.000000;1.000000;1.000000;1.000000;-0.197699;0.197699;-0.197699;1.000000
445607.46160133;5696567.02529915;472.79904987;87;80;66;20560.000000;1.000000;1.000000;1.000000;1.000000;-0.195299;0.195299;-0.195299;1.000000
445607.01340111;5696567.07789810;472.83995010;154;160;124;39578.000000;1.000000;1.000000;1.000000;1.000000;-0.011524;0.011524;-0.011524;1.000000
445607.00280197;5696567.32149895;472.85634996;101;109;83;26471.000000;1.000000;1.000000;1.000000;1.000000;-0.000925;0.000925;-0.000925;1.000000
445607.29950150;5696566.88639839;472.78534986;122;119;99;30069.000000;1.000000;1.000000;1.000000;1.000000;-0.056398;0.056398;-0.056398;1.000000
445606.99960144;5696566.91079910;472.85365011;84;85;83;21588.000000;1.000000;1.000000;1.000000;1.000000;0.052567;-0.052567;0.052567;1.000000
445607.26080139;5696566.92259987;472.78634979;116;118;86;29041.000000;1.000000;1.000000;1.000000;1.000000;-0.092600;0.092600;-0.092600;1.000000
445607.05810173;5696567.09959991;472.82824995;111;121;68;28784.000000;1.000000;1.000000;1.000000;1.000000;-0.056225;0.056225;-0.056225;1.000000
445607.22300156;5696566.91909988;472.78695013;179;189;149;46517.000000;1.000000;1.000000;1.000000;1.000000;-0.089100;0.089100;-0.089100;1.000000
445607.03620155;5696566.98729904;472.82124998;88;94;73;22873.000000;1.000000;1.000000;1.000000;1.000000;-0.034325;0.034325;-0.034325;1.000000
445607.29710110;5696567.00049980;472.81694986;159;167;130;41120.000000;1.000000;1.000000;1.000000;1.000000;-0.170500;0.170500;-0.170500;1.000000
445607.25970181;5696566.99939926;472.81524994;152;161;125;39578.000000;1.000000;1.000000;1.000000;1.000000;-0.169399;0.169399;-0.169399;1.000000
445607.10790165;5696567.02739914;472.81794979;176;182;144;45232.000000;1.000000;1.000000;1.000000;1.000000;-0.106025;0.106025;-0.106025;1.000000
445607.03290184;5696567.02509888;472.81694986;148;158;127;38807.000000;1.000000;1.000000;1.000000;1.000000;-0.031025;0.031025;-0.031025;1.000000
445607.14530190;5696567.02859886;472.81974985;158;164;123;40349.000000;1.000000;1.000000;1.000000;1.000000;-0.143425;0.143425;-0.143425;1.000000
445606.99130161;5696567.09839828;472.85545017;162;167;136;41634.000000;1.000000;1.000000;1.000000;1.000000;0.010575;-0.010575;0.010575;1.000000
445607.02170189;5696567.06089981;472.82844975;160;170;131;41634.000000;1.000000;1.000000;1.000000;1.000000;-0.019825;0.019825;-0.019825;1.000000
445607.00950153;5696567.36769875;472.85484983;100;111;93;26985.000000;1.000000;1.000000;1.000000;1.000000;0.038462;-0.038462;0.038462;1.000000
445607.09730156;5696567.28019913;472.85085012;27;43;17;8995.000000;1.000000;1.000000;1.000000;1.000000;-0.095425;0.095425;-0.095425;1.000000
445607.02260120;5696567.49989899;472.83834984;118;116;97;29298.000000;1.000000;1.000000;1.000000;1.000000;-0.020724;0.020724;-0.020724;1.000000
445607.13360126;5696567.31649979;472.84824993;136;157;113;37265.000000;1.000000;1.000000;1.000000;1.000000;-0.131724;0.131724;-0.131724;1.000000
445607.09610184;5696567.31539925;472.84655001;123;142;103;33924.000000;1.000000;1.000000;1.000000;1.000000;-0.094225;0.094225;-0.094225;1.000000
445607.09480198;5696567.35279854;472.84924986;199;208;188;52171.000000;1.000000;1.000000;1.000000;1.000000;-0.095681;0.095681;-0.095681;1.000000
445607.17060192;5696567.10549934;472.83344986;105;121;74;28527.000000;1.000000;1.000000;1.000000;1.000000;-0.168725;0.168725;-0.168725;1.000000
445607.05710133;5696567.34929855;472.84985020;223;230;216;58082.000000;1.000000;1.000000;1.000000;1.000000;-0.058499;0.058499;-0.058499;1.000000
445607.35940178;5696566.99919899;472.83365013;143;144;120;36237.000000;1.000000;1.000000;1.000000;1.000000;-0.169199;0.169199;-0.169199;1.000000
445607.07980164;5696567.22999962;472.87734987;100;118;82;27756.000000;1.000000;1.000000;1.000000;1.000000;-0.077925;0.077925;-0.077925;1.000000
445607.00600155;5696567.26709946;472.87914993;108;118;94;28784.000000;1.000000;1.000000;1.000000;1.000000;-0.004125;0.004125;-0.004125;1.000000
445607.04140194;5696567.26859863;472.87605001;57;73;44;16705.000000;1.000000;1.000000;1.000000;1.000000;-0.039525;0.039525;-0.039525;1.000000
445607.09550198;5696567.10079964;472.82994987;158;171;119;41377.000000;1.000000;1.000000;1.000000;1.000000;-0.093625;0.093625;-0.093625;1.000000
445607.19060143;5696567.27169998;472.83864977;112;126;84;30069.000000;1.000000;1.000000;1.000000;1.000000;-0.188725;0.188725;-0.188725;1.000000
445607.15320118;5696567.27279861;472.84154989;47;63;30;13878.000000;1.000000;1.000000;1.000000;1.000000;-0.151324;0.151324;-0.151324;1.000000
445607.09160145;5696567.17529877;472.86564972;140;147;108;35980.000000;1.000000;1.000000;1.000000;1.000000;-0.089725;0.089725;-0.089725;1.000000
445607.18930157;5696567.30909927;472.84135010;157;168;131;41120.000000;1.000000;1.000000;1.000000;1.000000;-0.187425;0.187425;-0.187425;1.000000
445607.16740139;5696567.35539825;472.85255005;86;98;65;23130.000000;1.000000;1.000000;1.000000;1.000000;-0.167462;0.167462;-0.167462;1.000000
445607.13210114;5696567.09269913;472.83155014;156;167;130;40863.000000;1.000000;1.000000;1.000000;1.000000;-0.130224;0.130224;-0.130224;1.000000
445607.53270157;5696566.92560013;472.77775003;138;139;132;35209.000000;1.000000;1.000000;1.000000;1.000000;-0.095601;0.095601;-0.095601;1.000000
445607.08390148;5696566.94329842;472.81355001;44;46;23;10794.000000;1.000000;1.000000;1.000000;1.000000;-0.084627;0.084627;-0.084627;1.000000
445607.17750175;5696566.90929993;472.79174997;121;131;89;31611.000000;1.000000;1.000000;1.000000;1.000000;-0.079300;0.079300;-0.079300;1.000000
445607.06060131;5696567.25039871;472.87904980;71;91;54;20560.000000;1.000000;1.000000;1.000000;1.000000;-0.058724;0.058724;-0.058724;1.000000
445607.02860172;5696566.91300018;472.83634998;20;21;18;5140.000000;1.000000;1.000000;1.000000;1.000000;-0.057279;0.057279;-0.057279;1.000000
445607.14030178;5696566.91720016;472.80415012;152;163;123;39835.000000;1.000000;1.000000;1.000000;1.000000;-0.087200;0.087200;-0.087200;1.000000
445607.40090187;5696566.92809875;472.80214979;158;157;142;39835.000000;1.000000;1.000000;1.000000;1.000000;-0.098106;0.098106;-0.098106;1.000000
445607.17670162;5696566.95589836;472.80165007;154;164;127;40092.000000;1.000000;1.000000;1.000000;1.000000;-0.125898;0.125898;-0.125898;1.000000
445607.32430180;5696566.96079834;472.80604984;116;115;89;28784.000000;1.000000;1.000000;1.000000;1.000000;-0.130798;0.130798;-0.130798;1.000000
445606.99080189;5696566.98649986;472.84244968;17;20;9;4369.000000;1.000000;1.000000;1.000000;1.000000;0.011075;-0.011075;0.011075;1.000000
445607.10710152;5696567.45459946;472.83934977;103;103;96;26214.000000;1.000000;1.000000;1.000000;1.000000;-0.105610;0.105610;-0.105610;1.000000
445606.98490150;5696567.02219971;472.83804991;39;40;28;9766.000000;1.000000;1.000000;1.000000;1.000000;0.016975;-0.016975;0.016975;1.000000
445607.03450115;5696566.99449928;472.82124998;85;92;67;22359.000000;1.000000;1.000000;1.000000;1.000000;-0.032624;0.032624;-0.032624;1.000000
445607.10640152;5696567.49449928;472.83514978;101;99;86;25186.000000;1.000000;1.000000;1.000000;1.000000;-0.104525;0.104525;-0.104525;1.000000
445607.07090195;5696567.49069984;472.83584978;57;55;38;13621.000000;1.000000;1.000000;1.000000;1.000000;-0.069025;0.069025;-0.069025;1.000000
445607.29500111;5696567.00529869;472.82154991;148;156;120;38293.000000;1.000000;1.000000;1.000000;1.000000;-0.175299;0.175299;-0.175299;1.000000
445607.25790127;5696567.00649841;472.81755020;164;171;136;42405.000000;1.000000;1.000000;1.000000;1.000000;-0.176498;0.176498;-0.176498;1.000000
445607.14620121;5696567.03789909;472.81984999;132;139;96;33924.000000;1.000000;1.000000;1.000000;1.000000;-0.144324;0.144324;-0.144324;1.000000
445607.01660164;5696567.20539864;472.87885000;76;78;58;19275.000000;1.000000;1.000000;1.000000;1.000000;-0.014725;0.014725;-0.014725;1.000000
445607.01420124;5696567.24479874;472.91184999;177;183;163;46003.000000;1.000000;1.000000;1.000000;1.000000;-0.012324;0.012324;-0.012324;1.000000
445607.10860165;5696567.03669937;472.82044985;168;176;136;43433.000000;1.000000;1.000000;1.000000;1.000000;-0.106725;0.106725;-0.106725;1.000000
445607.12660130;5696567.28919991;472.84294989;50;68;33;14906.000000;1.000000;1.000000;1.000000;1.000000;-0.124724;0.124724;-0.124724;1.000000
445607.03340157;5696567.03199966;472.81934978;137;148;114;35980.000000;1.000000;1.000000;1.000000;1.000000;-0.031525;0.031525;-0.031525;1.000000
445607.16190155;5696567.29069908;472.83984997;68;83;44;19018.000000;1.000000;1.000000;1.000000;1.000000;-0.160025;0.160025;-0.160025;1.000000
445607.15680130;5696566.94599922;472.80754997;148;162;118;39064.000000;1.000000;1.000000;1.000000;1.000000;0.115999;-0.115999;0.115999;1.000000
445607.08200176;5696567.43589981;472.84034969;174;175;168;44461.000000;1.000000;1.000000;1.000000;1.000000;-0.084774;0.084774;-0.084774;1.000000
445607.15340145;5696567.47599991;472.84165003;53;52;44;13107.000000;1.000000;1.000000;1.000000;1.000000;-0.151525;0.151525;-0.151525;1.000000
445607.08070190;5696567.47109993;472.83834984;79;78;64;19532.000000;1.000000;1.000000;1.000000;1.000000;-0.078825;0.078825;-0.078825;1.000000
445607.13000114;5696567.35419853;472.85085012;144;156;128;38293.000000;1.000000;1.000000;1.000000;1.000000;-0.130389;0.130389;-0.130389;1.000000
445606.99180134;5696567.10529907;472.85794975;168;173;142;43176.000000;1.000000;1.000000;1.000000;1.000000;0.010076;-0.010076;0.010076;1.000000
445607.11790188;5696566.98219879;472.81325008;90;96;54;22873.000000;1.000000;1.000000;1.000000;1.000000;-0.116025;0.116025;-0.116025;1.000000
445607.32700165;5696566.90709885;472.78924992;128;125;105;31611.000000;1.000000;1.000000;1.000000;1.000000;-0.077099;0.077099;-0.077099;1.000000
445607.30310162;5696566.98829849;472.81475021;197;201;169;50372.000000;1.000000;1.000000;1.000000;1.000000;-0.158298;0.158298;-0.158298;1.000000
445607.23060139;5696566.98579987;472.80905010;150;159;124;39064.000000;1.000000;1.000000;1.000000;1.000000;-0.155800;0.155800;-0.155800;1.000000
445607.08280190;5696566.98079880;472.81164982;97;101;68;24672.000000;1.000000;1.000000;1.000000;1.000000;-0.080925;0.080925;-0.080925;1.000000
445607.38360126;5696566.91799934;472.80125000;117;116;102;29298.000000;1.000000;1.000000;1.000000;1.000000;-0.087999;0.087999;-0.087999;1.000000
445607.22920139;5696567.02319916;472.81414988;86;95;57;22616.000000;1.000000;1.000000;1.000000;1.000000;-0.193199;0.193199;-0.193199;1.000000
445607.16860111;5696567.13139923;472.82894995;159;174;124;42148.000000;1.000000;1.000000;1.000000;1.000000;-0.166724;0.166724;-0.166724;1.000000
445607.02660187;5696566.93899925;472.82954981;58;60;53;14906.000000;1.000000;1.000000;1.000000;1.000000;-0.035023;0.035023;-0.035023;1.000000
445607.09350117;5696567.39029892;472.85195019;96;102;101;25700.000000;1.000000;1.000000;1.000000;1.000000;-0.109686;0.109686;-0.109686;1.000000
445607.05610188;5696567.38909920;472.85024979;61;64;61;15934.000000;1.000000;1.000000;1.000000;1.000000;0.080206;-0.080206;0.080206;1.000000
445607.03500183;5696567.20369919;472.88205006;121;127;102;31354.000000;1.000000;1.000000;1.000000;1.000000;-0.033125;0.033125;-0.033125;1.000000
445607.01850136;5696567.38789948;472.85314991;59;69;54;16448.000000;1.000000;1.000000;1.000000;1.000000;0.060239;-0.060239;0.060239;1.000000
445607.05490120;5696567.42429932;472.84595015;68;73;63;17990.000000;1.000000;1.000000;1.000000;1.000000;-0.065925;0.065925;-0.065925;1.000000
445606.99470146;5696567.27279861;472.88334991;134;140;122;34952.000000;1.000000;1.000000;1.000000;1.000000;0.007175;-0.007175;0.007175;1.000000
445607.10670193;5696567.27929886;472.84884979;33;49;19;10280.000000;1.000000;1.000000;1.000000;1.000000;-0.104825;0.104825;-0.104825;1.000000
445607.01730164;5696567.42309959;472.84884979;158;170;150;42148.000000;1.000000;1.000000;1.000000;1.000000;-0.043165;0.043165;-0.043165;1.000000
445607.14070137;5696567.31819923;472.84854986;131;152;107;35980.000000;1.000000;1.000000;1.000000;1.000000;-0.138824;0.138824;-0.138824;1.000000
445607.10560139;5696567.31679924;472.84695007;144;164;122;39321.000000;1.000000;1.000000;1.000000;1.000000;-0.103724;0.103724;-0.103724;1.000000
445607.17840202;5696567.31939896;472.84564974;134;149;106;35723.000000;1.000000;1.000000;1.000000;1.000000;-0.176525;0.176525;-0.176525;1.000000
445607.10410126;5696567.35199936;472.84964993;182;193;170;48059.000000;1.000000;1.000000;1.000000;1.000000;-0.104565;0.104565;-0.104565;1.000000
445607.06650169;5696567.35079964;472.85024979;220;228;213;57311.000000;1.000000;1.000000;1.000000;1.000000;-0.067890;0.067890;-0.067890;1.000000
445607.24010189;5696567.01519974;472.81685020;111;119;85;28784.000000;1.000000;1.000000;1.000000;1.000000;-0.185200;0.185200;-0.185200;1.000000
445607.01540192;5696567.04059990;472.82324984;137;146;116;35980.000000;1.000000;1.000000;1.000000;1.000000;-0.013525;0.013525;-0.013525;1.000000
445607.16350182;5696567.04789932;472.82074978;130;142;91;33924.000000;1.000000;1.000000;1.000000;1.000000;-0.161625;0.161625;-0.161625;1.000000
445607.17680176;5696567.35449989;472.85064985;75;87;54;20303.000000;1.000000;1.000000;1.000000;1.000000;-0.176632;0.176632;-0.176632;1.000000
445607.36350163;5696566.92689903;472.80044987;160;156;138;39835.000000;1.000000;1.000000;1.000000;1.000000;-0.096899;0.096899;-0.096899;1.000000
445607.39500149;5696567.00519951;472.83535006;171;171;155;43433.000000;1.000000;1.000000;1.000000;1.000000;-0.175200;0.175200;-0.175200;1.000000
445607.43390186;5696567.00449951;472.79985001;118;111;95;28527.000000;1.000000;1.000000;1.000000;1.000000;-0.174524;0.174524;-0.174524;1.000000
445607.13950165;5696567.35569962;472.84894993;136;149;120;36237.000000;1.000000;1.000000;1.000000;1.000000;-0.140004;0.140004;-0.140004;1.000000
445607.50930126;5696567.00699814;472.79164984;72;61;50;16191.000000;1.000000;1.000000;1.000000;1.000000;-0.176998;0.176998;-0.176998;1.000000
445607.13300140;5696567.10419853;472.83634998;150;160;118;39064.000000;1.000000;1.000000;1.000000;1.000000;-0.131124;0.131124;-0.131124;1.000000
445607.13170155;5696567.14169891;472.83904984;154;167;121;40606.000000;1.000000;1.000000;1.000000;1.000000;-0.129825;0.129825;-0.129825;1.000000
445607.10050114;5696567.38959892;472.85225012;109;114;112;28784.000000;1.000000;1.000000;1.000000;1.000000;-0.115234;0.115234;-0.115234;1.000000
445607.06550129;5696567.38830002;472.84835007;62;66;63;16448.000000;1.000000;1.000000;1.000000;1.000000;-0.086296;0.086296;-0.086296;1.000000
445607.02780159;5696567.38699921;472.85125019;70;78;66;19018.000000;1.000000;1.000000;1.000000;1.000000;0.062618;-0.062618;0.062618;1.000000
445607.19940193;5696567.29189880;472.84154989;98;109;64;25700.000000;1.000000;1.000000;1.000000;1.000000;-0.197525;0.197525;-0.197525;1.000000
445607.11720188;5696567.43729980;472.83964970;96;96;95;24415.000000;1.000000;1.000000;1.000000;1.000000;-0.118286;0.118286;-0.118286;1.000000
445607.06210144;5696567.42599876;472.84625008;141;144;136;36494.000000;1.000000;1.000000;1.000000;1.000000;-0.070929;0.070929;-0.070929;1.000000
445607.02450188;5696567.42479904;472.84695007;89;99;80;23901.000000;1.000000;1.000000;1.000000;1.000000;-0.044789;0.044789;-0.044789;1.000000
445607.13720139;5696567.42840012;472.84504988;74;73;76;18761.000000;1.000000;1.000000;1.000000;1.000000;-0.139800;0.139800;-0.139800;1.000000
445607.53240116;5696566.89759834;472.77745010;178;177;169;45232.000000;1.000000;1.000000;1.000000;1.000000;-0.067602;0.067602;-0.067602;1.000000
445607.39070137;5696566.94529922;472.80415012;154;153;138;38807.000000;1.000000;1.000000;1.000000;1.000000;-0.115299;0.115299;-0.115299;1.000000
445607.17330177;5696567.46699913;472.84945013;69;70;62;17476.000000;1.000000;1.000000;1.000000;1.000000;-0.171425;0.171425;-0.171425;1.000000
445607.42500122;5696566.98429878;472.79925014;173;169;155;43176.000000;1.000000;1.000000;1.000000;1.000000;-0.154299;0.154299;-0.154299;1.000000
445607.38910110;5696567.01969917;472.83995010;121;124;107;31097.000000;1.000000;1.000000;1.000000;1.000000;-0.189699;0.189699;-0.189699;1.000000
445607.35170181;5696567.01849945;472.83824970;155;157;129;39321.000000;1.000000;1.000000;1.000000;1.000000;-0.188499;0.188499;-0.188499;1.000000
445607.12120159;5696566.91649826;472.81024982;131;141;106;34438.000000;1.000000;1.000000;1.000000;1.000000;0.086498;0.086498;-0.086498;1.000000
445607.04620178;5696567.19339951;472.87304976;112;116;89;28527.000000;1.000000;1.000000;1.000000;1.000000;-0.044325;0.044325;-0.044325;1.000000
445607.00870140;5696567.19229897;472.87134983;96;98;78;24415.000000;1.000000;1.000000;1.000000;1.000000;-0.006824;0.006824;-0.006824;1.000000
445607.15180119;5696567.30789955;472.84194996;157;173;134;41891.000000;1.000000;1.000000;1.000000;1.000000;-0.149924;0.149924;-0.149924;1.000000
445607.14460190;5696567.45579918;472.84104969;51;51;47;12850.000000;1.000000;1.000000;1.000000;1.000000;-0.142937;0.142937;-0.142937;1.000000
445607.01610191;5696567.45829971;472.84455015;70;77;55;18504.000000;1.000000;1.000000;1.000000;1.000000;-0.015148;0.015148;-0.015148;1.000000
445607.20150192;5696567.46899994;472.85074999;155;155;147;39578.000000;1.000000;1.000000;1.000000;1.000000;-0.199625;0.199625;-0.199625;1.000000
445607.16430195;5696567.46789940;472.84445002;57;58;52;14649.000000;1.000000;1.000000;1.000000;1.000000;-0.162425;0.162425;-0.162425;1.000000
445607.32780178;5696566.88839920;472.78434994;126;123;102;31097.000000;1.000000;1.000000;1.000000;1.000000;-0.058399;0.058399;-0.058399;1.000000
445607.11470135;5696567.28800018;472.84464981;57;76;39;16962.000000;1.000000;1.000000;1.000000;1.000000;-0.112824;0.112824;-0.112824;1.000000
445607.14590176;5696567.22429855;472.85004999;113;127;85;30326.000000;1.000000;1.000000;1.000000;1.000000;-0.144025;0.144025;-0.144025;1.000000
445607.11620148;5696567.47489937;472.83535006;85;83;72;21074.000000;1.000000;1.000000;1.000000;1.000000;-0.114325;0.114325;-0.114325;1.000000
445607.06010159;5696567.28579910;472.85855009;25;43;13;8738.000000;1.000000;1.000000;1.000000;1.000000;-0.058225;0.058225;-0.058225;1.000000
445607.01940163;5696567.32239922;472.85244991;96;110;80;26214.000000;1.000000;1.000000;1.000000;1.000000;-0.017525;0.017525;-0.017525;1.000000
445607.02020176;5696567.35729988;472.85524990;170;178;163;44461.000000;1.000000;1.000000;1.000000;1.000000;0.032880;-0.032880;0.032880;1.000000
445607.53100117;5696566.93279846;472.77775003;119;120;112;30326.000000;1.000000;1.000000;1.000000;1.000000;-0.102820;0.102820;-0.102820;1.000000
445607.11990173;5696566.95399864;472.81304981;84;95;50;22102.000000;1.000000;1.000000;1.000000;1.000000;-0.118459;0.118459;-0.118459;1.000000
445607.12590130;5696567.04669960;472.82135012;134;145;99;34952.000000;1.000000;1.000000;1.000000;1.000000;-0.124024;0.124024;-0.124024;1.000000
445607.08480175;5696566.95259865;472.81145002;79;83;55;20046.000000;1.000000;1.000000;1.000000;1.000000;-0.083728;0.083728;-0.083728;1.000000
445607.41770180;5696567.01279839;472.81314995;133;127;109;32382.000000;1.000000;1.000000;1.000000;1.000000;-0.182798;0.182798;-0.182798;1.000000
445607.19540127;5696567.18979843;472.82154991;120;139;88;32639.000000;1.000000;1.000000;1.000000;1.000000;-0.193524;0.193524;-0.193524;1.000000
445607.39970119;5696566.96559914;472.80244972;141;139;125;35466.000000;1.000000;1.000000;1.000000;1.000000;-0.135599;0.135599;-0.135599;1.000000
445606.98830135;5696567.05919846;472.84095003;106;111;87;27242.000000;1.000000;1.000000;1.000000;1.000000;0.013576;-0.013576;0.013576;1.000000
445607.26660164;5696566.99650009;472.81084969;171;180;141;44461.000000;1.000000;1.000000;1.000000;1.000000;-0.166500;0.166500;-0.166500;1.000000
445607.19410141;5696566.99389847;472.80754997;153;161;130;39835.000000;1.000000;1.000000;1.000000;1.000000;-0.163898;0.163898;-0.163898;1.000000
445607.41690166;5696567.00350006;472.81075003;116;112;96;28527.000000;1.000000;1.000000;1.000000;1.000000;-0.173500;0.173500;-0.173500;1.000000
445607.50310143;5696566.96099861;472.78144981;197;196;188;50115.000000;1.000000;1.000000;1.000000;1.000000;-0.130999;0.130999;-0.130999;1.000000
445607.06470116;5696566.91469963;472.81705000;43;48;36;11565.000000;1.000000;1.000000;1.000000;1.000000;-0.079889;0.079889;-0.079889;1.000000
445607.03940113;5696567.13599976;472.85115005;131;139;102;33924.000000;1.000000;1.000000;1.000000;1.000000;-0.037524;0.037524;-0.037524;1.000000
445607.02230175;5696567.09809883;472.84054996;158;163;125;40349.000000;1.000000;1.000000;1.000000;1.000000;-0.020425;0.020425;-0.020425;1.000000
445606.99770172;5696567.20699890;472.88735010;87;85;67;21331.000000;1.000000;1.000000;1.000000;1.000000;0.004175;-0.004175;0.004175;1.000000
445607.08930119;5696567.05480011;472.81984999;148;162;115;39064.000000;1.000000;1.000000;1.000000;1.000000;-0.087424;0.087424;-0.087424;1.000000
445607.16700180;5696567.40209969;472.85545017;87;86;83;21845.000000;1.000000;1.000000;1.000000;1.000000;-0.176094;0.176094;-0.176094;1.000000
445607.01460178;5696567.24719818;472.90724995;146;154;131;38293.000000;1.000000;1.000000;1.000000;1.000000;-0.012725;0.012725;-0.012725;1.000000
445607.08920200;5696567.25029953;472.86634972;90;108;70;25186.000000;1.000000;1.000000;1.000000;1.000000;-0.087325;0.087325;-0.087325;1.000000
445607.20100124;5696567.25449951;472.83185007;106;120;73;28270.000000;1.000000;1.000000;1.000000;1.000000;-0.199124;0.199124;-0.199124;1.000000
445607.01270111;5696567.28309830;472.86794998;55;65;41;15163.000000;1.000000;1.000000;1.000000;1.000000;-0.010824;0.010824;-0.010824;1.000000
445607.06640156;5696567.32279976;472.84754993;74;90;53;20817.000000;1.000000;1.000000;1.000000;1.000000;-0.064525;0.064525;-0.064525;1.000000
445607.04980190;5696567.11659821;472.83974983;148;155;113;38036.000000;1.000000;1.000000;1.000000;1.000000;-0.047925;0.047925;-0.047925;1.000000
445607.08350189;5696567.19459923;472.87715008;100;105;73;25443.000000;1.000000;1.000000;1.000000;1.000000;-0.081625;0.081625;-0.081625;1.000000
445607.10390194;5696567.32399948;472.84695007;97;119;75;27499.000000;1.000000;1.000000;1.000000;1.000000;-0.102025;0.102025;-0.102025;1.000000
445607.09390171;5696567.13819893;472.83964970;164;174;131;42662.000000;1.000000;1.000000;1.000000;1.000000;-0.092025;0.092025;-0.092025;1.000000
445607.08140190;5696567.45469864;472.84054996;114;114;103;28784.000000;1.000000;1.000000;1.000000;1.000000;-0.080020;0.080020;-0.080020;1.000000
445607.04380138;5696567.45349892;472.84114983;119;122;105;30583.000000;1.000000;1.000000;1.000000;1.000000;-0.043118;0.043118;-0.043118;1.000000
445607.04050167;5696567.49119957;472.83675005;172;169;152;43176.000000;1.000000;1.000000;1.000000;1.000000;-0.038625;0.038625;-0.038625;1.000000
445607.17300137;5696567.43899925;472.84915020;34;33;31;8481.000000;1.000000;1.000000;1.000000;1.000000;-0.172857;0.172857;-0.172857;1.000000
445607.08500202;5696566.90579994;472.81314995;114;120;100;29812.000000;1.000000;1.000000;1.000000;1.000000;-0.075800;0.075800;-0.075800;1.000000
445607.00720127;5696566.93820007;472.84494974;36;38;33;9252.000000;1.000000;1.000000;1.000000;1.000000;-0.025850;0.025850;-0.025850;1.000000
445607.12140186;5696566.94449814;472.81295015;98;110;64;25957.000000;1.000000;1.000000;1.000000;1.000000;0.114498;0.114498;-0.114498;1.000000
445607.34460171;5696566.95419891;472.80914976;151;149;125;37522.000000;1.000000;1.000000;1.000000;1.000000;0.124199;-0.124199;0.124199;1.000000
