//X;Y;Z;R;G;B;Intensity;Return Number;Number Of Returns;Scan Direction Flag;Point Source ID;C2M signed distances[-][<0.8];C2M signed distances[<0.4];C2M signed distances[-][<0.2];Stump97
445650.43910034;5696616.29609879;471.12334969;69;70;70;17733.000000;1.000000;1.000000;1.000000;1.000000;-0.030975;0.030975;-0.030975;1.000000
445650.40890320;5696616.21649750;471.16295006;164;168;155;42405.000000;1.000000;1.000000;1.000000;1.000000;-0.000778;0.000778;-0.000778;1.000000
445650.07590302;5696616.18699844;471.28265001;12;14;7;3084.000000;1.000000;1.000000;1.000000;1.000000;-0.146346;0.146346;-0.146346;1.000000
445650.12240036;5696616.31809814;471.14185001;70;82;70;19789.000000;1.000000;1.000000;1.000000;1.000000;0.098943;-0.098943;0.098943;1.000000
445650.12210281;5696616.18799789;471.24515011;121;119;113;30326.000000;1.000000;1.000000;1.000000;1.000000;-0.101284;0.101284;-0.101284;1.000000
445650.07380112;5696616.17970093;471.31504967;32;30;28;7710.000000;1.000000;1.000000;1.000000;1.000000;-0.147471;0.147471;-0.147471;1.000000
445650.24260147;5696616.33259781;471.14984991;165;168;158;42662.000000;1.000000;1.000000;1.000000;1.000000;-0.002857;0.002857;-0.002857;1.000000
445650.39340027;5696616.30279739;471.11434986;14;13;11;3341.000000;1.000000;1.000000;1.000000;1.000000;0.014725;-0.014725;0.014725;1.000000
445650.35420044;5696616.16969879;471.19014980;91;100;74;24158.000000;1.000000;1.000000;1.000000;1.000000;0.053925;-0.053925;0.053925;1.000000
445650.35040100;5696616.31839951;471.11494972;52;50;44;12593.000000;1.000000;1.000000;1.000000;1.000000;0.012650;-0.012650;0.012650;1.000000
445650.19380005;5696616.19879730;471.17864992;9;10;5;2313.000000;1.000000;1.000000;1.000000;1.000000;-0.044589;0.044589;-0.044589;1.000000
445650.52340134;5696616.27869995;471.13625004;174;171;171;43947.000000;1.000000;1.000000;1.000000;1.000000;0.052213;-0.052213;0.052213;1.000000
445650.05630310;5696616.34129913;471.09954979;77;79;75;19789.000000;1.000000;1.000000;1.000000;1.000000;-0.164710;0.164710;-0.164710;1.000000
445650.38590057;5696616.25340088;471.17864992;61;61;58;15420.000000;1.000000;1.000000;1.000000;1.000000;0.022224;-0.022224;0.022224;1.000000
445650.11620148;5696616.47529800;471.13884975;27;35;24;7967.000000;1.000000;1.000000;1.000000;1.000000;-0.178930;0.178930;-0.178930;1.000000
445650.17410095;5696616.21459778;471.18254997;19;22;15;5140.000000;1.000000;1.000000;1.000000;1.000000;-0.069281;0.069281;-0.069281;1.000000
445650.40870102;5696616.18849762;471.16025021;42;48;30;11308.000000;1.000000;1.000000;1.000000;1.000000;-0.000576;0.000576;-0.000576;1.000000
445650.13550003;5696616.45709808;471.13944962;19;28;15;5911.000000;1.000000;1.000000;1.000000;1.000000;-0.152971;0.152971;-0.152971;1.000000
445650.24480255;5696616.23189743;471.15334990;42;53;35;12079.000000;1.000000;1.000000;1.000000;1.000000;0.073318;-0.073318;0.073318;1.000000
445650.39600189;5696616.27389725;471.15374996;14;18;18;4112.000000;1.000000;1.000000;1.000000;1.000000;0.012123;-0.012123;0.012123;1.000000
445650.09270294;5696616.33769806;471.11514999;39;45;37;10794.000000;1.000000;1.000000;1.000000;1.000000;-0.128153;0.128153;-0.128153;1.000000
445650.32850082;5696616.33669861;471.12115004;9;7;5;1799.000000;1.000000;1.000000;1.000000;1.000000;-0.006699;0.006699;-0.006699;1.000000
445650.32420166;5696616.15819748;471.20965006;89;95;66;23130.000000;1.000000;1.000000;1.000000;1.000000;0.083923;-0.083923;0.083923;1.000000
445650.51080139;5696616.17000015;471.13905003;237;235;223;60138.000000;1.000000;1.000000;1.000000;1.000000;-0.054112;0.054112;-0.054112;1.000000
445650.28550156;5696616.22769745;471.17614986;36;42;29;9766.000000;1.000000;1.000000;1.000000;1.000000;0.091527;-0.091527;0.091527;1.000000
445650.46730240;5696616.32150085;471.12255003;119;123;120;31097.000000;1.000000;1.000000;1.000000;1.000000;-0.059177;0.059177;-0.059177;1.000000
445650.13620193;5696616.26999863;471.15124990;20;20;17;4883.000000;1.000000;1.000000;1.000000;1.000000;0.103573;-0.103573;0.103573;1.000000
445650.29100235;5696616.30449875;471.16095020;133;131;124;33410.000000;1.000000;1.000000;1.000000;1.000000;0.025501;-0.025501;0.025501;1.000000
445650.43330200;5696616.17009933;471.14715006;50;53;38;12850.000000;1.000000;1.000000;1.000000;1.000000;-0.025177;0.025177;-0.025177;1.000000
445650.21180161;5696616.42429932;471.14255001;77;82;71;20303.000000;1.000000;1.000000;1.000000;1.000000;-0.094711;0.094711;-0.094711;1.000000
445650.36550339;5696616.27659805;471.16165020;16;15;11;3598.000000;1.000000;1.000000;1.000000;1.000000;0.042622;-0.042622;0.042622;1.000000
445650.32850082;5696616.31789978;471.13254978;44;43;39;10794.000000;1.000000;1.000000;1.000000;1.000000;0.012100;-0.012100;0.012100;1.000000
445650.25060089;5696616.39029892;471.14384987;20;22;17;5140.000000;1.000000;1.000000;1.000000;1.000000;-0.060312;0.060312;-0.060312;1.000000
445650.23350342;5696616.23299988;471.14584972;33;43;26;9766.000000;1.000000;1.000000;1.000000;1.000000;0.071636;-0.071636;0.071636;1.000000
445650.27130325;5696616.34149750;471.15584995;75;73;70;18761.000000;1.000000;1.000000;1.000000;1.000000;-0.011497;0.011497;-0.011497;1.000000
445650.50530060;5696616.25939758;471.13514997;165;162;160;41634.000000;1.000000;1.000000;1.000000;1.000000;0.075887;-0.075887;0.075887;1.000000
445650.25710114;5696616.42510040;471.12365009;32;39;27;8995.000000;1.000000;1.000000;1.000000;1.000000;-0.095100;0.095100;-0.095100;1.000000
445650.03429993;5696616.38749893;471.11315014;89;91;86;22873.000000;1.000000;1.000000;1.000000;1.000000;-0.194995;0.194995;-0.194995;1.000000
445650.28880127;5696616.15439804;471.21035006;83;88;71;21588.000000;1.000000;1.000000;1.000000;1.000000;0.068176;-0.068176;0.068176;1.000000
445650.12660034;5696616.18530090;471.24294998;124;122;115;31097.000000;1.000000;1.000000;1.000000;1.000000;-0.096306;0.096306;-0.096306;1.000000
445650.22830017;5696616.29450043;471.13005020;37;43;35;10280.000000;1.000000;1.000000;1.000000;1.000000;0.035500;-0.035500;0.035500;1.000000
445650.28050049;5696616.52789886;471.13054993;207;211;203;53456.000000;1.000000;1.000000;1.000000;1.000000;-0.197916;0.197916;-0.197916;1.000000
445650.20700272;5696616.26389893;471.12404968;86;98;77;23644.000000;1.000000;1.000000;1.000000;1.000000;0.067490;-0.067490;0.067490;1.000000
445650.06040009;5696616.40559967;471.14244987;252;254;250;64764.000000;1.000000;1.000000;1.000000;1.000000;-0.177165;0.177165;-0.177165;1.000000
445650.21560104;5696616.15709885;471.17915012;53;52;49;13107.000000;1.000000;1.000000;1.000000;1.000000;-0.005024;0.005024;-0.005024;1.000000
445650.03670319;5696616.33149918;471.09854986;137;134;132;34438.000000;1.000000;1.000000;1.000000;1.000000;-0.183928;0.183928;-0.183928;1.000000
445650.48520096;5696616.34079941;471.12824966;161;164;162;41634.000000;1.000000;1.000000;1.000000;1.000000;-0.049126;0.049126;-0.049126;1.000000
445650.51350220;5696616.13659866;471.16674997;91;92;78;23130.000000;1.000000;1.000000;1.000000;1.000000;-0.050873;0.050873;-0.050873;1.000000
445650.34970291;5696616.22379883;471.19525005;110;121;101;29555.000000;1.000000;1.000000;1.000000;1.000000;0.058422;-0.058422;0.058422;1.000000
445650.55060013;5696616.31600006;471.12865021;108;102;104;26728.000000;1.000000;1.000000;1.000000;1.000000;-0.014000;0.014000;-0.014000;1.000000
445650.28989990;5696616.52939804;471.13104965;175;178;169;45232.000000;1.000000;1.000000;1.000000;1.000000;-0.199398;0.199398;-0.199398;1.000000
445650.30740173;5696616.15500076;471.21355011;129;133;110;33153.000000;1.000000;1.000000;1.000000;1.000000;0.086777;-0.086777;0.086777;1.000000
445650.47900208;5696616.27589996;471.13184978;167;169;166;43176.000000;1.000000;1.000000;1.000000;1.000000;-0.070877;0.070877;-0.070877;1.000000
445650.40559967;5696616.23530014;471.17234995;165;166;160;42405.000000;1.000000;1.000000;1.000000;1.000000;0.002525;-0.002525;0.002525;1.000000
445650.51900299;5696616.20439728;471.13285019;188;187;177;47802.000000;1.000000;1.000000;1.000000;1.000000;-0.061917;0.061917;-0.061917;1.000000
445650.38310059;5696616.26790054;471.16704990;17;18;16;4369.000000;1.000000;1.000000;1.000000;1.000000;0.025024;-0.025024;0.025024;1.000000
445650.23340042;5696616.30100067;471.13275005;12;18;10;3855.000000;1.000000;1.000000;1.000000;1.000000;0.028999;-0.028999;0.028999;1.000000
445650.40490158;5696616.19819839;471.16254999;32;37;21;8481.000000;1.000000;1.000000;1.000000;1.000000;0.003223;-0.003223;0.003223;1.000000
445650.48060043;5696616.17059906;471.13534977;122;124;106;31097.000000;1.000000;1.000000;1.000000;1.000000;-0.072475;0.072475;-0.072475;1.000000
445650.48460205;5696616.12539871;471.16295006;111;113;97;28270.000000;1.000000;1.000000;1.000000;1.000000;-0.076477;0.076477;-0.076477;1.000000
445650.12560089;5696616.16919907;471.23105003;41;39;35;10023.000000;1.000000;1.000000;1.000000;1.000000;-0.095154;0.095154;-0.095154;1.000000
445650.16030319;5696616.31939896;471.13425018;25;32;26;7453.000000;1.000000;1.000000;1.000000;1.000000;0.061246;-0.061246;0.061246;1.000000
445650.07900055;5696616.21349915;471.21554996;20;15;12;4112.000000;1.000000;1.000000;1.000000;1.000000;-0.150052;0.150052;-0.150052;1.000000
445650.21339996;5696616.34009750;471.13925030;4;7;4;1285.000000;1.000000;1.000000;1.000000;1.000000;-0.012416;0.012416;-0.012416;1.000000
445650.22739990;5696616.28520020;471.12995007;28;35;26;7967.000000;1.000000;1.000000;1.000000;1.000000;0.044800;-0.044800;0.044800;1.000000
445650.42970093;5696616.29459961;471.12284996;58;61;60;15163.000000;1.000000;1.000000;1.000000;1.000000;-0.021576;0.021576;-0.021576;1.000000
445650.39400299;5696616.30750092;471.10975029;22;23;20;5654.000000;1.000000;1.000000;1.000000;1.000000;0.014122;-0.014122;0.014122;1.000000
445650.23670013;5696616.52529724;471.10994961;29;36;19;8224.000000;1.000000;1.000000;1.000000;1.000000;-0.195297;0.195297;-0.195297;1.000000
445650.21710022;5696616.18770035;471.15625002;51;53;48;13107.000000;1.000000;1.000000;1.000000;1.000000;-0.025218;0.025218;-0.025218;1.000000
445650.10220154;5696616.20609863;471.25604965;58;48;50;13107.000000;1.000000;1.000000;1.000000;1.000000;-0.125441;0.125441;-0.125441;1.000000
445650.02359970;5696616.17560013;471.27784969;22;28;23;6425.000000;1.000000;1.000000;1.000000;1.000000;-0.197302;0.197302;-0.197302;1.000000
445650.07170303;5696616.16559799;471.33344986;35;31;26;7967.000000;1.000000;1.000000;1.000000;1.000000;-0.148922;0.148922;-0.148922;1.000000
445650.28960236;5696616.35629852;471.14294960;8;6;6;1542.000000;1.000000;1.000000;1.000000;1.000000;-0.026299;0.026299;-0.026299;1.000000
445650.48630341;5696616.30330093;471.13025000;206;207;205;52942.000000;1.000000;1.000000;1.000000;1.000000;0.053899;-0.053899;0.053899;1.000000
445650.21830185;5696616.19930084;471.15415003;69;71;62;17733.000000;1.000000;1.000000;1.000000;1.000000;-0.036684;0.036684;-0.036684;1.000000
445650.25390060;5696616.51869782;471.12925007;70;77;63;18761.000000;1.000000;1.000000;1.000000;1.000000;-0.188698;0.188698;-0.188698;1.000000
445650.18210037;5696616.47859772;471.13485004;76;81;66;19789.000000;1.000000;1.000000;1.000000;1.000000;-0.153510;0.153510;-0.153510;1.000000
445650.03630264;5696616.35029800;471.09415009;99;98;97;25186.000000;1.000000;1.000000;1.000000;1.000000;-0.185437;0.185437;-0.185437;1.000000
445650.10960205;5696616.32649811;471.13205006;84;98;83;23644.000000;1.000000;1.000000;1.000000;1.000000;0.111078;-0.111078;0.111078;1.000000
445650.27570160;5696616.44449814;471.11535027;42;50;36;11822.000000;1.000000;1.000000;1.000000;1.000000;-0.114540;0.114540;-0.114540;1.000000
445650.08400162;5696616.16699799;471.32235004;46;43;38;11051.000000;1.000000;1.000000;1.000000;1.000000;-0.136627;0.136627;-0.136627;1.000000
445650.26850327;5696616.15649994;471.19784977;26;26;17;6425.000000;1.000000;1.000000;1.000000;1.000000;0.047878;-0.047878;0.047878;1.000000
445650.32520111;5696616.37219818;471.11204960;15;14;14;3598.000000;1.000000;1.000000;1.000000;1.000000;-0.042198;0.042198;-0.042198;1.000000
445650.19610031;5696616.15629776;471.19455006;37;40;28;9509.000000;1.000000;1.000000;1.000000;1.000000;-0.024525;0.024525;-0.024525;1.000000
445650.21020325;5696616.21169861;471.15154984;60;62;50;15420.000000;1.000000;1.000000;1.000000;1.000000;-0.050153;0.050153;-0.050153;1.000000
445650.32150085;5696616.36079987;471.11875011;10;6;7;1799.000000;1.000000;1.000000;1.000000;1.000000;-0.030800;0.030800;-0.030800;1.000000
445650.26500137;5696616.22970016;471.16824963;72;84;65;20046.000000;1.000000;1.000000;1.000000;1.000000;0.080132;-0.080132;0.080132;1.000000
445650.18320282;5696616.26359756;471.13234999;61;67;56;16191.000000;1.000000;1.000000;1.000000;1.000000;0.076221;-0.076221;0.076221;1.000000
445650.02770050;5696616.18490036;471.25715019;21;27;22;6168.000000;1.000000;1.000000;1.000000;1.000000;-0.193974;0.193974;-0.193974;1.000000
445650.20010193;5696616.24559982;471.13524963;8;11;1;2056.000000;1.000000;1.000000;1.000000;1.000000;-0.085770;0.085770;-0.085770;1.000000
445650.04010208;5696616.21809967;471.15325024;14;12;7;3084.000000;1.000000;1.000000;1.000000;1.000000;-0.188839;0.188839;-0.188839;1.000000
445650.33090027;5696616.29879959;471.14405014;52;51;46;12850.000000;1.000000;1.000000;1.000000;1.000000;0.031200;-0.031200;0.031200;1.000000
445650.39770325;5696616.19879730;471.16684963;29;35;19;7967.000000;1.000000;1.000000;1.000000;1.000000;0.010422;-0.010422;0.010422;1.000000
445650.10740097;5696616.23229797;471.19374992;32;28;24;7196.000000;1.000000;1.000000;1.000000;1.000000;-0.132493;0.132493;-0.132493;1.000000
445650.11160095;5696616.21959885;471.23105003;77;76;72;19275.000000;1.000000;1.000000;1.000000;1.000000;-0.122277;0.122277;-0.122277;1.000000
445650.21830185;5696616.19930084;471.15415003;72;75;65;18761.000000;1.000000;1.000000;1.000000;1.000000;-0.036684;0.036684;-0.036684;1.000000
445650.33240326;5696616.52339752;471.10955002;40;38;33;9766.000000;1.000000;1.000000;1.000000;1.000000;-0.193398;0.193398;-0.193398;1.000000
445650.05990036;5696616.16889771;471.34224989;22;11;8;3341.000000;1.000000;1.000000;1.000000;1.000000;-0.160743;0.160743;-0.160743;1.000000
445650.50950058;5696616.20299728;471.13234999;207;207;197;52685.000000;1.000000;1.000000;1.000000;1.000000;-0.068346;0.068346;-0.068346;1.000000
445650.53920181;5696616.38960083;471.11964991;201;199;200;51143.000000;1.000000;1.000000;1.000000;1.000000;-0.059601;0.059601;-0.059601;1.000000
445650.28960236;5696616.33519943;471.15194990;29;25;22;6425.000000;1.000000;1.000000;1.000000;1.000000;-0.005199;0.005199;-0.005199;1.000000
445650.22100266;5696616.44230087;471.13154985;66;74;58;17733.000000;1.000000;1.000000;1.000000;1.000000;-0.112301;0.112301;-0.112301;1.000000
445650.25740250;5696616.40619858;471.13044979;34;37;29;8995.000000;1.000000;1.000000;1.000000;1.000000;-0.076199;0.076199;-0.076199;1.000000
445650.21350296;5696616.15959747;471.17904999;15;18;12;4112.000000;1.000000;1.000000;1.000000;1.000000;-0.007122;0.007122;-0.007122;1.000000
445650.34040268;5696616.26239975;471.16974976;21;22;15;5140.000000;1.000000;1.000000;1.000000;1.000000;0.067600;-0.067600;0.067600;1.000000
445650.24130066;5696616.37000092;471.15255024;129;131;127;33153.000000;1.000000;1.000000;1.000000;1.000000;-0.040001;0.040001;-0.040001;1.000000
445650.10860260;5696616.24159821;471.18695023;20;22;18;5140.000000;1.000000;1.000000;1.000000;1.000000;-0.136642;0.136642;-0.136642;1.000000
445650.13500031;5696616.24399765;471.17654993;28;29;23;7196.000000;1.000000;1.000000;1.000000;1.000000;-0.117764;0.117764;-0.117764;1.000000
445650.09710129;5696616.23819931;471.17474987;24;25;21;6168.000000;1.000000;1.000000;1.000000;1.000000;-0.144556;0.144556;-0.144556;1.000000
445650.05260284;5696616.35099991;471.09714987;106;108;105;27499.000000;1.000000;1.000000;1.000000;1.000000;-0.169329;0.169329;-0.169329;1.000000
445650.29640015;5696616.37229736;471.12944986;10;9;9;2313.000000;1.000000;1.000000;1.000000;1.000000;-0.042297;0.042297;-0.042297;1.000000
445650.12650116;5696616.15959747;471.24265005;56;49;44;12850.000000;1.000000;1.000000;1.000000;1.000000;-0.094124;0.094124;-0.094124;1.000000
445650.26730164;5696616.16379745;471.18855001;20;20;13;4883.000000;1.000000;1.000000;1.000000;1.000000;0.046679;-0.046679;0.046679;1.000000
445650.43840225;5696616.15310104;471.15424969;35;37;23;8738.000000;1.000000;1.000000;1.000000;1.000000;-0.030277;0.030277;-0.030277;1.000000
445650.10220154;5696616.20609863;471.25604965;57;47;51;12850.000000;1.000000;1.000000;1.000000;1.000000;-0.125441;0.125441;-0.125441;1.000000
445650.03720291;5696616.36179932;471.09894993;49;49;45;12336.000000;1.000000;1.000000;1.000000;1.000000;-0.186158;0.186158;-0.186158;1.000000
445650.05109985;5696616.42539795;471.13065006;77;85;67;20560.000000;1.000000;1.000000;1.000000;1.000000;-0.194524;0.194524;-0.194524;1.000000
445650.23170288;5696616.15329941;471.17744972;68;69;62;17219.000000;1.000000;1.000000;1.000000;1.000000;0.011078;-0.011078;0.011078;1.000000
445650.33800323;5696616.33600052;471.11455013;15;14;11;3341.000000;1.000000;1.000000;1.000000;1.000000;-0.006001;0.006001;-0.006001;1.000000
445650.15670212;5696616.21129807;471.19805004;55;54;49;13621.000000;1.000000;1.000000;1.000000;1.000000;-0.079775;0.079775;-0.079775;1.000000
445650.09510239;5696616.33979996;471.11765005;23;29;22;6682.000000;1.000000;1.000000;1.000000;1.000000;-0.125905;0.125905;-0.125905;1.000000
445650.53130157;5696616.33419998;471.12795021;195;192;191;49344.000000;1.000000;1.000000;1.000000;1.000000;-0.004579;0.004579;-0.004579;1.000000
445650.27010162;5696616.37219818;471.14224960;7;8;5;1799.000000;1.000000;1.000000;1.000000;1.000000;-0.042198;0.042198;-0.042198;1.000000
445650.21280106;5696616.19039734;471.15374996;36;36;34;8995.000000;1.000000;1.000000;1.000000;1.000000;-0.028800;0.028800;-0.028800;1.000000
445650.13940247;5696616.19129761;471.22965004;103;100;96;25700.000000;1.000000;1.000000;1.000000;1.000000;-0.085624;0.085624;-0.085624;1.000000
445650.10010345;5696616.18519791;471.26044991;74;74;68;18761.000000;1.000000;1.000000;1.000000;1.000000;-0.122233;0.122233;-0.122233;1.000000
445650.06740005;5696616.18049820;471.30314972;26;28;24;6682.000000;1.000000;1.000000;1.000000;1.000000;-0.153941;0.153941;-0.153941;1.000000
445650.13250168;5696616.21319778;471.22024967;63;62;60;15934.000000;1.000000;1.000000;1.000000;1.000000;-0.100919;0.100919;-0.100919;1.000000
445650.33900269;5696616.26959808;471.16505005;23;24;17;5654.000000;1.000000;1.000000;1.000000;1.000000;0.060402;-0.060402;0.060402;1.000000
445650.06800278;5696616.17309769;471.32634975;27;25;23;6425.000000;1.000000;1.000000;1.000000;1.000000;-0.152781;0.152781;-0.152781;1.000000
445650.13610275;5696616.40369995;471.11794998;147;149;135;37522.000000;1.000000;1.000000;1.000000;1.000000;-0.112141;0.112141;-0.112141;1.000000
445650.25530060;5696616.48129852;471.12424995;92;97;83;23901.000000;1.000000;1.000000;1.000000;1.000000;-0.151299;0.151299;-0.151299;1.000000
445650.14830215;5696616.16250046;471.23204996;57;55;48;13878.000000;1.000000;1.000000;1.000000;1.000000;-0.072323;0.072323;-0.072323;1.000000
445650.37080200;5696616.22189911;471.18925001;131;137;122;34181.000000;1.000000;1.000000;1.000000;1.000000;0.037323;-0.037323;0.037323;1.000000
445650.25470169;5696616.15329941;471.18545010;37;37;30;9252.000000;1.000000;1.000000;1.000000;1.000000;0.034077;-0.034077;0.034077;1.000000
445650.24990280;5696616.25720032;471.14454987;76;90;60;21074.000000;1.000000;1.000000;1.000000;1.000000;0.072826;-0.072826;0.072826;1.000000
445650.10080154;5696616.16340073;471.30445005;59;56;49;14392.000000;1.000000;1.000000;1.000000;1.000000;-0.119823;0.119823;-0.119823;1.000000
445650.53880127;5696616.36160095;471.12165024;219;214;214;55255.000000;1.000000;1.000000;1.000000;1.000000;-0.031601;0.031601;-0.031601;1.000000
445650.28130157;5696616.27739914;471.16254999;175;179;168;45232.000000;1.000000;1.000000;1.000000;1.000000;0.052632;-0.052632;0.052632;1.000000
445650.37400253;5696616.29979904;471.12274982;14;13;10;3084.000000;1.000000;1.000000;1.000000;1.000000;0.030337;-0.030337;0.030337;1.000000
445650.17080124;5696616.24329956;471.15945007;32;36;30;8738.000000;1.000000;1.000000;1.000000;1.000000;-0.094667;0.094667;-0.094667;1.000000
445650.16180237;5696616.19660004;471.20974972;63;62;57;15677.000000;1.000000;1.000000;1.000000;1.000000;-0.067349;0.067349;-0.067349;1.000000
445650.20860107;5696616.15989883;471.18584969;19;21;13;4883.000000;1.000000;1.000000;1.000000;1.000000;-0.012024;0.012024;-0.012024;1.000000
445650.42660339;5696616.15410049;471.16064980;35;39;23;9252.000000;1.000000;1.000000;1.000000;1.000000;-0.018478;0.018478;-0.018478;1.000000
445650.37560089;5696616.26379974;471.17135002;25;25;23;6168.000000;1.000000;1.000000;1.000000;1.000000;0.032524;-0.032524;0.032524;1.000000
445650.36070068;5696616.21349915;471.18864967;85;94;74;22873.000000;1.000000;1.000000;1.000000;1.000000;0.047424;-0.047424;0.047424;1.000000
445650.16360291;5696616.22500046;471.17754986;39;39;35;9766.000000;1.000000;1.000000;1.000000;1.000000;-0.084115;0.084115;-0.084115;1.000000
445650.27589996;5696616.20279892;471.18004992;84;94;73;22616.000000;1.000000;1.000000;1.000000;1.000000;0.067990;-0.067990;0.067990;1.000000
445650.16730316;5696616.25530060;471.15714981;47;56;46;13364.000000;1.000000;1.000000;1.000000;1.000000;0.091778;-0.091778;0.091778;1.000000
445650.07900055;5696616.23999985;471.16464998;44;39;37;10280.000000;1.000000;1.000000;1.000000;1.000000;-0.161247;0.161247;-0.161247;1.000000
445650.12930115;5696616.17309769;471.26154997;106;108;97;27242.000000;1.000000;1.000000;1.000000;1.000000;-0.091697;0.091697;-0.091697;1.000000
445650.06390198;5696616.16379745;471.34705021;73;64;60;16962.000000;1.000000;1.000000;1.000000;1.000000;-0.156723;0.156723;-0.156723;1.000000
445650.27260025;5696616.25720032;471.15955021;19;25;12;5397.000000;1.000000;1.000000;1.000000;1.000000;0.072800;-0.072800;0.072800;1.000000
445650.11730011;5696616.15740021;471.28884985;41;37;33;9509.000000;1.000000;1.000000;1.000000;1.000000;-0.103325;0.103325;-0.103325;1.000000
445650.09650238;5696616.23349960;471.17934992;31;31;24;7710.000000;1.000000;1.000000;1.000000;1.000000;-0.142648;0.142648;-0.142648;1.000000
445650.30260284;5696616.48169907;471.11474993;28;31;25;7453.000000;1.000000;1.000000;1.000000;1.000000;-0.151699;0.151699;-0.151699;1.000000
445650.47459991;5696616.34889801;471.12085011;117;121;120;30583.000000;1.000000;1.000000;1.000000;1.000000;-0.061501;0.061501;-0.061501;1.000000
445650.15740021;5696616.15699966;471.22534992;79;75;74;19532.000000;1.000000;1.000000;1.000000;1.000000;-0.063225;0.063225;-0.063225;1.000000
445650.25180252;5696616.33169754;471.15255024;213;215;207;54741.000000;1.000000;1.000000;1.000000;1.000000;-0.001699;0.001699;-0.001699;1.000000
445650.20919998;5696616.24469955;471.13794996;30;36;20;8224.000000;1.000000;1.000000;1.000000;1.000000;-0.083113;0.083113;-0.083113;1.000000
445650.34240158;5696616.14959915;471.20334961;62;70;41;16448.000000;1.000000;1.000000;1.000000;1.000000;0.065723;-0.065723;0.065723;1.000000
445650.26220139;5696616.50860031;471.13184978;138;145;131;36237.000000;1.000000;1.000000;1.000000;1.000000;-0.178600;0.178600;-0.178600;1.000000
445650.42620285;5696616.17069824;471.15154984;63;70;51;16705.000000;1.000000;1.000000;1.000000;1.000000;-0.018078;0.018078;-0.018078;1.000000
445650.13690002;5696616.36379822;471.12214996;25;38;22;8224.000000;1.000000;1.000000;1.000000;1.000000;-0.090289;0.090289;-0.090289;1.000000
445650.17049988;5696616.25989731;471.14804985;34;34;29;8481.000000;1.000000;1.000000;1.000000;1.000000;0.086180;-0.086180;0.086180;1.000000
445650.17840012;5696616.48599823;471.13014986;83;89;75;21845.000000;1.000000;1.000000;1.000000;1.000000;-0.161612;0.161612;-0.161612;1.000000
445650.36490067;5696616.30290039;471.12474968;25;23;19;5911.000000;1.000000;1.000000;1.000000;1.000000;0.029627;-0.029627;0.029627;1.000000
445650.54000290;5696616.32639893;471.12594988;160;155;156;40092.000000;1.000000;1.000000;1.000000;1.000000;0.003601;-0.003601;0.003601;1.000000
445650.12199982;5696616.20689972;471.23374989;79;78;71;19789.000000;1.000000;1.000000;1.000000;1.000000;-0.107439;0.107439;-0.107439;1.000000
445650.07570084;5696616.46509750;471.13454964;36;47;39;10794.000000;1.000000;1.000000;1.000000;1.000000;-0.198127;0.198127;-0.198127;1.000000
445650.54750259;5696616.35379990;471.12194969;209;204;203;52685.000000;1.000000;1.000000;1.000000;1.000000;0.023800;-0.023800;0.023800;1.000000
445650.25420197;5696616.27789886;471.14275028;95;109;86;26214.000000;1.000000;1.000000;1.000000;1.000000;0.052101;-0.052101;0.052101;1.000000
445650.03199966;5696616.38769730;471.11305000;75;78;70;19532.000000;1.000000;1.000000;1.000000;1.000000;-0.197252;0.197252;-0.197252;1.000000
445650.11820038;5696616.19539841;471.24274971;102;101;95;25700.000000;1.000000;1.000000;1.000000;1.000000;-0.106995;0.106995;-0.106995;1.000000
445650.30930145;5696616.29820068;471.15704967;47;45;41;11565.000000;1.000000;1.000000;1.000000;1.000000;0.031799;-0.031799;0.031799;1.000000
445650.15740021;5696616.19930084;471.20954992;83;84;79;21331.000000;1.000000;1.000000;1.000000;1.000000;-0.072511;0.072511;-0.072511;1.000000
445650.26570328;5696616.23670013;471.16604998;71;81;62;19275.000000;1.000000;1.000000;1.000000;1.000000;0.086448;-0.086448;0.086448;1.000000
445650.13179977;5696616.31730087;471.13995029;69;82;69;19532.000000;1.000000;1.000000;1.000000;1.000000;0.089728;-0.089728;0.089728;1.000000
445650.42030151;5696616.16169937;471.16045000;53;57;39;13621.000000;1.000000;1.000000;1.000000;1.000000;-0.012177;0.012177;-0.012177;1.000000
445650.34710129;5696616.29500015;471.14014961;19;17;15;4369.000000;1.000000;1.000000;1.000000;1.000000;0.035039;-0.035039;0.035039;1.000000
445650.05710037;5696616.18110092;471.32595016;4;6;3;1285.000000;1.000000;1.000000;1.000000;1.000000;-0.164209;0.164209;-0.164209;1.000000
445650.14520081;5696616.43749817;471.14205029;42;51;41;12079.000000;1.000000;1.000000;1.000000;1.000000;-0.131319;0.131319;-0.131319;1.000000
445650.49200256;5696616.12940033;471.16095020;118;120;104;30069.000000;1.000000;1.000000;1.000000;1.000000;-0.072372;0.072372;-0.072372;1.000000
445650.18900116;5696616.27249725;471.12575008;79;87;75;21331.000000;1.000000;1.000000;1.000000;1.000000;0.065625;-0.065625;0.065625;1.000000
445650.22500046;5696616.31109818;471.13244965;14;19;7;4112.000000;1.000000;1.000000;1.000000;1.000000;0.018902;-0.018902;0.018902;1.000000
445650.24860199;5696616.52879913;471.11284973;8;13;5;2570.000000;1.000000;1.000000;1.000000;1.000000;-0.198826;0.198826;-0.198826;1.000000
445650.29200180;5696616.41739853;471.11115028;22;27;21;6168.000000;1.000000;1.000000;1.000000;1.000000;-0.087399;0.087399;-0.087399;1.000000
445650.20580109;5696616.30129822;471.12445023;25;33;27;7453.000000;1.000000;1.000000;1.000000;1.000000;0.032304;-0.032304;0.032304;1.000000
445650.45600327;5696616.32269867;471.11504986;96;102;99;25443.000000;1.000000;1.000000;1.000000;1.000000;-0.047878;0.047878;-0.047878;1.000000
445650.41040237;5696616.30829819;471.11054995;47;48;49;12079.000000;1.000000;1.000000;1.000000;1.000000;-0.002277;0.002277;-0.002277;1.000000
445650.52160080;5696616.16419800;471.14645006;189;183;178;47288.000000;1.000000;1.000000;1.000000;1.000000;-0.042807;0.042807;-0.042807;1.000000
445650.14890106;5696616.34620102;471.13174965;26;33;29;7710.000000;1.000000;1.000000;1.000000;1.000000;-0.073531;0.073531;-0.073531;1.000000
445650.18330200;5696616.16919907;471.19414999;39;38;31;9509.000000;1.000000;1.000000;1.000000;1.000000;-0.037758;0.037758;-0.037758;1.000000
445650.30840118;5696616.26779755;471.16594984;105;106;100;26985.000000;1.000000;1.000000;1.000000;1.000000;0.062202;-0.062202;0.062202;1.000000
445650.29370316;5696616.17749985;471.20155003;125;131;107;32382.000000;1.000000;1.000000;1.000000;1.000000;0.074382;-0.074382;0.074382;1.000000
445650.07230194;5696616.39789780;471.12194969;78;80;71;20046.000000;1.000000;1.000000;1.000000;1.000000;-0.163125;0.163125;-0.163125;1.000000
445650.18070038;5696616.52580078;471.10734989;66;71;55;17219.000000;1.000000;1.000000;1.000000;1.000000;-0.199830;0.199830;-0.199830;1.000000
445650.25600250;5696616.39459808;471.13714983;23;25;18;5911.000000;1.000000;1.000000;1.000000;1.000000;-0.064598;0.064598;-0.064598;1.000000
445650.31280334;5696616.22049912;471.17724993;66;74;57;17733.000000;1.000000;1.000000;1.000000;1.000000;0.095322;-0.095322;0.095322;1.000000
445650.20919998;5696616.22360046;471.14704992;27;30;19;6939.000000;1.000000;1.000000;1.000000;1.000000;-0.062107;0.062107;-0.062107;1.000000
445650.02919968;5696616.34860046;471.09375002;51;50;49;12850.000000;1.000000;1.000000;1.000000;1.000000;-0.192327;0.192327;-0.192327;1.000000
445650.46500214;5696616.13669785;471.15284969;73;75;63;18761.000000;1.000000;1.000000;1.000000;1.000000;-0.056877;0.056877;-0.056877;1.000000
445650.13610275;5696616.40369995;471.11794998;147;149;135;37522.000000;1.000000;1.000000;1.000000;1.000000;-0.112141;0.112141;-0.112141;1.000000
445650.22710236;5696616.47929962;471.12295010;74;80;65;19532.000000;1.000000;1.000000;1.000000;1.000000;-0.149300;0.149300;-0.149300;1.000000
445650.17680176;5696616.32029922;471.13275005;52;59;51;14392.000000;1.000000;1.000000;1.000000;1.000000;0.044884;-0.044884;0.044884;1.000000
445650.25030334;5696616.19610031;471.16484978;9;15;7;3084.000000;1.000000;1.000000;1.000000;1.000000;0.044529;-0.044529;0.044529;1.000000
445650.35670288;5696616.27979858;471.15665009;21;21;18;5140.000000;1.000000;1.000000;1.000000;1.000000;0.051422;-0.051422;0.051422;1.000000
445650.15900238;5696616.50409897;471.12944986;133;139;125;34695.000000;1.000000;1.000000;1.000000;1.000000;-0.184683;0.184683;-0.184683;1.000000
445650.23660095;5696616.43390091;471.12974979;48;55;41;13107.000000;1.000000;1.000000;1.000000;1.000000;-0.103901;0.103901;-0.103901;1.000000
445650.27530106;5696616.39529999;471.12645008;21;23;19;5397.000000;1.000000;1.000000;1.000000;1.000000;-0.065354;0.065354;-0.065354;1.000000
445650.31390198;5696616.35899933;471.12774994;11;9;9;2313.000000;1.000000;1.000000;1.000000;1.000000;-0.028999;0.028999;-0.028999;1.000000
445650.19630249;5696616.25530060;471.13514997;18;29;16;6168.000000;1.000000;1.000000;1.000000;1.000000;0.078559;-0.078559;0.078559;1.000000
445650.31770142;5696616.49209793;471.11084988;12;14;11;3341.000000;1.000000;1.000000;1.000000;1.000000;-0.162098;0.162098;-0.162098;1.000000
445650.04670151;5696616.23859985;471.15144970;17;18;8;4112.000000;1.000000;1.000000;1.000000;1.000000;-0.189786;0.189786;-0.189786;1.000000
445650.12420090;5696616.18549927;471.24515011;127;125;118;31868.000000;1.000000;1.000000;1.000000;1.000000;-0.098683;0.098683;-0.098683;1.000000
445650.22690018;5696616.49809845;471.11614992;40;46;35;10794.000000;1.000000;1.000000;1.000000;1.000000;-0.168098;0.168098;-0.168098;1.000000
445650.15950211;5696616.15450104;471.22545006;90;88;84;22616.000000;1.000000;1.000000;1.000000;1.000000;-0.061123;0.061123;-0.061123;1.000000
445650.23170288;5696616.30809982;471.13504984;12;16;10;3598.000000;1.000000;1.000000;1.000000;1.000000;0.021900;-0.021900;0.021900;1.000000
445650.29460342;5696616.35829742;471.13855030;9;7;5;1799.000000;1.000000;1.000000;1.000000;1.000000;-0.028297;0.028297;-0.028297;1.000000
445650.21960266;5696616.45179947;471.12925007;68;76;58;18247.000000;1.000000;1.000000;1.000000;1.000000;-0.121804;0.121804;-0.121804;1.000000
445650.06560333;5696616.34269913;471.10465004;20;21;18;5140.000000;1.000000;1.000000;1.000000;1.000000;-0.155541;0.155541;-0.155541;1.000000
445650.20470245;5696616.34789856;471.14125015;6;9;6;1799.000000;1.000000;1.000000;1.000000;1.000000;-0.023956;0.023956;-0.023956;1.000000
445650.09959991;5696616.38159760;471.10434963;38;44;36;10537.000000;1.000000;1.000000;1.000000;1.000000;-0.131565;0.131565;-0.131565;1.000000
445650.48120316;5696616.20089920;471.13345005;222;226;212;57311.000000;1.000000;1.000000;1.000000;1.000000;-0.073078;0.073078;-0.073078;1.000000
445650.42970093;5696616.17980011;471.14485027;60;65;48;15677.000000;1.000000;1.000000;1.000000;1.000000;-0.021576;0.021576;-0.021576;1.000000
445650.12320145;5696616.32509811;471.13964989;67;84;68;19789.000000;1.000000;1.000000;1.000000;1.000000;0.097547;-0.097547;0.097547;1.000000
445650.21680267;5696616.47080048;471.12704994;66;72;55;17476.000000;1.000000;1.000000;1.000000;1.000000;-0.140852;0.140852;-0.140852;1.000000
445650.28030212;5696616.31489761;471.16064980;163;161;156;41377.000000;1.000000;1.000000;1.000000;1.000000;0.015364;-0.015364;0.015364;1.000000
445650.07030304;5696616.40489777;471.12894966;100;103;95;25957.000000;1.000000;1.000000;1.000000;1.000000;-0.167948;0.167948;-0.167948;1.000000
445650.25890167;5696616.39900024;471.13504984;29;31;25;7453.000000;1.000000;1.000000;1.000000;1.000000;-0.069000;0.069000;-0.069000;1.000000
445650.18540009;5696616.36599930;471.14065029;19;25;21;5654.000000;1.000000;1.000000;1.000000;1.000000;-0.050366;0.050366;-0.050366;1.000000
445650.20960052;5696616.46909912;471.12894966;62;68;52;16448.000000;1.000000;1.000000;1.000000;1.000000;-0.139535;0.139535;-0.139535;1.000000
445650.18270309;5696616.24230011;471.15065004;50;54;43;13107.000000;1.000000;1.000000;1.000000;1.000000;-0.088236;0.088236;-0.088236;1.000000
445650.07460220;5696616.34179886;471.10975029;27;31;24;7453.000000;1.000000;1.000000;1.000000;1.000000;-0.146499;0.146499;-0.146499;1.000000
445650.31290253;5696616.18269928;471.20015003;87;99;75;23644.000000;1.000000;1.000000;1.000000;1.000000;0.094232;-0.094232;0.094232;1.000000
445650.16250046;5696616.25350006;471.15684988;61;60;54;15163.000000;1.000000;1.000000;1.000000;1.000000;0.096077;-0.096077;0.096077;1.000000
445650.32300003;5696616.35359772;471.12104990;9;5;6;1542.000000;1.000000;1.000000;1.000000;1.000000;-0.023598;0.023598;-0.023598;1.000000
445650.03530319;5696616.36889847;471.10364964;53;54;50;13621.000000;1.000000;1.000000;1.000000;1.000000;-0.189360;0.189360;-0.189360;1.000000
445650.27260025;5696616.17259796;471.19115021;23;28;16;6425.000000;1.000000;1.000000;1.000000;1.000000;0.052779;-0.052779;0.052779;1.000000
445650.29740341;5696616.36039932;471.13394978;16;16;13;3855.000000;1.000000;1.000000;1.000000;1.000000;-0.030399;0.030399;-0.030399;1.000000
445650.34780319;5696616.28309830;471.15164997;14;14;11;3341.000000;1.000000;1.000000;1.000000;1.000000;0.046959;-0.046959;0.046959;1.000000
445650.11079987;5696616.31699951;471.13664963;107;120;108;29298.000000;1.000000;1.000000;1.000000;1.000000;0.110592;-0.110592;0.110592;1.000000
445650.19170197;5696616.25580032;471.13495018;40;48;35;11308.000000;1.000000;1.000000;1.000000;1.000000;0.079638;-0.079638;0.079638;1.000000
445650.12080200;5696616.19529922;471.23584988;91;91;84;23130.000000;1.000000;1.000000;1.000000;1.000000;-0.104519;0.104519;-0.104519;1.000000
445650.25720032;5696616.28689774;471.14765026;45;55;37;12850.000000;1.000000;1.000000;1.000000;1.000000;0.043102;-0.043102;0.043102;1.000000
445650.37940033;5696616.16049774;471.18424990;131;140;114;34438.000000;1.000000;1.000000;1.000000;1.000000;0.028725;-0.028725;0.028725;1.000000
445650.06229980;5696616.38719757;471.11434986;80;84;80;21074.000000;1.000000;1.000000;1.000000;1.000000;-0.168340;0.168340;-0.168340;1.000000
445650.25119980;5696616.18199738;471.16704990;5;9;2;1799.000000;1.000000;1.000000;1.000000;1.000000;0.036025;-0.036025;0.036025;1.000000
445650.24020203;5696616.16430099;471.16634991;36;38;31;9252.000000;1.000000;1.000000;1.000000;1.000000;0.019625;-0.019625;0.019625;1.000000
445650.16360291;5696616.18950089;471.20744993;53;51;47;13107.000000;1.000000;1.000000;1.000000;1.000000;-0.062565;0.062565;-0.062565;1.000000
445650.20269974;5696616.18659790;471.16254999;27;30;20;6939.000000;1.000000;1.000000;1.000000;1.000000;-0.029749;0.029749;-0.029749;1.000000
445650.12420090;5696616.43709763;471.14104988;58;66;52;15934.000000;1.000000;1.000000;1.000000;1.000000;-0.144109;0.144109;-0.144109;1.000000
445650.26379974;5696616.23929794;471.16134979;42;52;37;12079.000000;1.000000;1.000000;1.000000;1.000000;0.087804;-0.087804;0.087804;1.000000
445650.05590256;5696616.40159805;471.13054993;112;115;109;29041.000000;1.000000;1.000000;1.000000;1.000000;-0.179610;0.179610;-0.179610;1.000000
445650.05770309;5696616.16909988;471.33984997;26;18;16;5140.000000;1.000000;1.000000;1.000000;1.000000;-0.162944;0.162944;-0.162944;1.000000
445650.23410233;5696616.31239899;471.14224960;19;25;13;5397.000000;1.000000;1.000000;1.000000;1.000000;0.017601;-0.017601;0.017601;1.000000
445650.15270050;5696616.27079971;471.14965012;55;57;50;14135.000000;1.000000;1.000000;1.000000;1.000000;0.090102;-0.090102;0.090102;1.000000
445650.40260132;5696616.30190094;471.11474993;31;32;30;7967.000000;1.000000;1.000000;1.000000;1.000000;0.005524;-0.005524;0.005524;1.000000
445650.54829987;5696616.36300095;471.12204983;209;204;204;52685.000000;1.000000;1.000000;1.000000;1.000000;0.033001;-0.033001;0.033001;1.000000
445650.16160019;5696616.48509796;471.13635017;159;168;152;41891.000000;1.000000;1.000000;1.000000;1.000000;-0.165950;0.165950;-0.165950;1.000000
445650.51310165;5696616.36160095;471.12274982;171;171;170;43690.000000;1.000000;1.000000;1.000000;1.000000;-0.037411;0.037411;-0.037411;1.000000
445650.20020111;5696616.44879730;471.13995029;79;86;69;21074.000000;1.000000;1.000000;1.000000;1.000000;-0.120540;0.120540;-0.120540;1.000000
445650.10480316;5696616.17259796;471.28604986;84;77;70;20046.000000;1.000000;1.000000;1.000000;1.000000;-0.116050;0.116050;-0.116050;1.000000
445650.41240128;5696616.27239807;471.14975025;27;30;28;7196.000000;1.000000;1.000000;1.000000;1.000000;-0.004276;0.004276;-0.004276;1.000000
445650.11490067;5696616.26949890;471.15724995;15;19;16;4369.000000;1.000000;1.000000;1.000000;1.000000;0.121811;-0.121811;0.121811;1.000000
445650.08930023;5696616.41239746;471.13915016;57;64;46;15163.000000;1.000000;1.000000;1.000000;1.000000;-0.155034;0.155034;-0.155034;1.000000
445650.49720200;5696616.24839981;471.13705017;192;190;187;48830.000000;1.000000;1.000000;1.000000;1.000000;-0.089077;0.089077;-0.089077;1.000000
445650.17680176;5696616.49320038;471.12774994;79;85;68;20817.000000;1.000000;1.000000;1.000000;1.000000;-0.168982;0.168982;-0.168982;1.000000
445650.48439987;5696616.33379944;471.13044979;194;197;194;50115.000000;1.000000;1.000000;1.000000;1.000000;-0.048873;0.048873;-0.048873;1.000000
445650.21809967;5696616.45899780;471.12694981;73;81;62;19532.000000;1.000000;1.000000;1.000000;1.000000;-0.129023;0.129023;-0.129023;1.000000
445650.23690231;5696616.41509827;471.13654997;32;37;26;8738.000000;1.000000;1.000000;1.000000;1.000000;-0.085098;0.085098;-0.085098;1.000000
445650.20580109;5696616.15780075;471.19035007;21;24;15;5654.000000;1.000000;1.000000;1.000000;1.000000;-0.014824;0.014824;-0.014824;1.000000
445650.51370056;5696616.32399948;471.13404991;195;194;192;49858.000000;1.000000;1.000000;1.000000;1.000000;0.020330;-0.020330;0.020330;1.000000
445650.43680008;5696616.17919739;471.14045002;57;59;43;14392.000000;1.000000;1.000000;1.000000;1.000000;-0.028675;0.028675;-0.028675;1.000000
445650.10390289;5696616.41580017;471.13285019;82;92;68;22102.000000;1.000000;1.000000;1.000000;1.000000;-0.144864;0.144864;-0.144864;1.000000
445650.16330154;5696616.24149902;471.16614964;52;56;49;13878.000000;1.000000;1.000000;1.000000;1.000000;-0.097251;0.097251;-0.097251;1.000000
445650.18130310;5696616.44819839;471.14144995;186;192;178;48316.000000;1.000000;1.000000;1.000000;1.000000;-0.124568;0.124568;-0.124568;1.000000
445650.45020111;5696616.29260071;471.13075020;87;91;91;22873.000000;1.000000;1.000000;1.000000;1.000000;-0.042076;0.042076;-0.042076;1.000000
445650.30090149;5696616.28719910;471.16354992;162;162;154;41377.000000;1.000000;1.000000;1.000000;1.000000;0.042801;-0.042801;0.042801;1.000000
445650.43320282;5696616.21909912;471.14774992;201;206;193;52171.000000;1.000000;1.000000;1.000000;1.000000;-0.025078;0.025078;-0.025078;1.000000
445650.51260193;5696616.28679855;471.13355019;160;157;156;40349.000000;1.000000;1.000000;1.000000;1.000000;0.047828;-0.047828;0.047828;1.000000
445650.21710022;5696616.49429901;471.11794998;49;52;40;12593.000000;1.000000;1.000000;1.000000;1.000000;-0.164337;0.164337;-0.164337;1.000000
445650.29210098;5696616.49889954;471.12375023;22;25;18;5911.000000;1.000000;1.000000;1.000000;1.000000;-0.168900;0.168900;-0.168900;1.000000
445650.25620087;5696616.46259888;471.11704971;81;89;76;21845.000000;1.000000;1.000000;1.000000;1.000000;-0.132599;0.132599;-0.132599;1.000000
445650.10519989;5696616.23250015;471.19135000;25;23;18;5911.000000;1.000000;1.000000;1.000000;1.000000;-0.134507;0.134507;-0.134507;1.000000
445650.19730194;5696616.50549896;471.11255028;40;44;33;10537.000000;1.000000;1.000000;1.000000;1.000000;-0.177042;0.177042;-0.177042;1.000000
445650.29590042;5696616.38879974;471.12264969;19;22;19;5140.000000;1.000000;1.000000;1.000000;1.000000;-0.058800;0.058800;-0.058800;1.000000
445650.31440170;5696616.50869949;471.11555006;16;17;11;4112.000000;1.000000;1.000000;1.000000;1.000000;-0.178699;0.178699;-0.178699;1.000000
445650.28040131;5696616.18120010;471.19164993;58;65;47;15420.000000;1.000000;1.000000;1.000000;1.000000;0.062360;-0.062360;0.062360;1.000000
445650.16060074;5696616.37079819;471.13025000;7;8;7;1799.000000;1.000000;1.000000;1.000000;1.000000;-0.072577;0.072577;-0.072577;1.000000
445650.13940247;5696616.22690018;471.19974997;46;45;41;11308.000000;1.000000;1.000000;1.000000;1.000000;-0.102971;0.102971;-0.102971;1.000000
445650.41020020;5696616.28930099;471.12894966;43;41;39;10537.000000;1.000000;1.000000;1.000000;1.000000;-0.002075;0.002075;-0.002075;1.000000
445650.33600052;5696616.31959732;471.12594988;59;58;54;14649.000000;1.000000;1.000000;1.000000;1.000000;0.010403;-0.010403;0.010403;1.000000
445650.33780106;5696616.27919968;471.15815022;23;24;17;5654.000000;1.000000;1.000000;1.000000;1.000000;0.050800;-0.050800;0.050800;1.000000
445650.12770279;5696616.19459732;471.23844959;120;119;113;30326.000000;1.000000;1.000000;1.000000;1.000000;-0.097713;0.097713;-0.097713;1.000000
445650.33640106;5696616.30309875;471.13504984;99;100;87;25186.000000;1.000000;1.000000;1.000000;1.000000;0.026901;-0.026901;0.026901;1.000000
445650.20330246;5696616.35740097;471.14135029;14;18;15;4112.000000;1.000000;1.000000;1.000000;1.000000;-0.032417;0.032417;-0.032417;1.000000
445650.19180115;5696616.45889862;471.13975002;79;84;67;20560.000000;1.000000;1.000000;1.000000;1.000000;-0.132082;0.132082;-0.132082;1.000000
445650.13500031;5696616.47590073;471.13734962;56;66;54;15677.000000;1.000000;1.000000;1.000000;1.000000;-0.169170;0.169170;-0.169170;1.000000
445650.16440018;5696616.19639786;471.20525028;40;39;34;9766.000000;1.000000;1.000000;1.000000;1.000000;-0.065036;0.065036;-0.065036;1.000000
445650.17010315;5696616.47730072;471.13894989;133;139;126;34695.000000;1.000000;1.000000;1.000000;1.000000;-0.155724;0.155724;-0.155724;1.000000
445650.20890244;5696616.44100006;471.13794996;75;81;65;19789.000000;1.000000;1.000000;1.000000;1.000000;-0.111617;0.111617;-0.111617;1.000000
445650.46140106;5696616.33149918;471.11774971;119;120;116;30583.000000;1.000000;1.000000;1.000000;1.000000;-0.053297;0.053297;-0.053297;1.000000
445650.36800201;5696616.25979813;471.17555000;48;49;45;12336.000000;1.000000;1.000000;1.000000;1.000000;0.040123;-0.040123;0.040123;1.000000
445650.30190094;5696616.24970062;471.16785004;77;80;72;20046.000000;1.000000;1.000000;1.000000;1.000000;0.080299;-0.080299;0.080299;1.000000
445650.08240326;5696616.23250015;471.17864992;31;27;23;6939.000000;1.000000;1.000000;1.000000;1.000000;-0.154627;0.154627;-0.154627;1.000000
445650.48330124;5696616.13489731;471.15835001;124;126;112;31611.000000;1.000000;1.000000;1.000000;1.000000;-0.075176;0.075176;-0.075176;1.000000
445650.17830093;5696616.31080063;471.13034966;64;71;63;17476.000000;1.000000;1.000000;1.000000;1.000000;0.046475;-0.046475;0.046475;1.000000
445650.45330246;5696616.25699814;471.14444973;132;134;130;33924.000000;1.000000;1.000000;1.000000;1.000000;-0.045177;0.045177;-0.045177;1.000000
445650.02890213;5696616.37639816;471.10574963;32;32;24;7967.000000;1.000000;1.000000;1.000000;1.000000;-0.197257;0.197257;-0.197257;1.000000
445650.49150284;5696616.18589981;471.13364985;198;200;184;50629.000000;1.000000;1.000000;1.000000;1.000000;-0.076605;0.076605;-0.076605;1.000000
445650.48930176;5696616.23979767;471.13884975;207;205;201;52685.000000;1.000000;1.000000;1.000000;1.000000;-0.081177;0.081177;-0.081177;1.000000
445650.16620071;5696616.17040070;471.21435024;61;58;51;14906.000000;1.000000;1.000000;1.000000;1.000000;-0.054813;0.054813;-0.054813;1.000000
445650.38080032;5696616.19779785;471.17775013;36;45;26;10280.000000;1.000000;1.000000;1.000000;1.000000;0.027325;-0.027325;0.027325;1.000000
445650.11210068;5696616.21750076;471.21474983;38;39;34;9766.000000;1.000000;1.000000;1.000000;1.000000;-0.121037;0.121037;-0.121037;1.000000
445650.19429977;5696616.38619812;471.14125015;81;85;78;21331.000000;1.000000;1.000000;1.000000;1.000000;-0.062058;0.062058;-0.062058;1.000000
445650.15229996;5696616.48589905;471.13824989;191;201;188;50372.000000;1.000000;1.000000;1.000000;1.000000;-0.170214;0.170214;-0.170214;1.000000
445650.25840195;5696616.16480072;471.17884972;24;25;19;6168.000000;1.000000;1.000000;1.000000;1.000000;0.037812;-0.037812;0.037812;1.000000
445650.19310196;5696616.44940002;471.14195015;118;126;111;31097.000000;1.000000;1.000000;1.000000;1.000000;-0.122531;0.122531;-0.122531;1.000000
445650.08220108;5696616.41069992;471.13654997;18;22;16;5140.000000;1.000000;1.000000;1.000000;1.000000;-0.160230;0.160230;-0.160230;1.000000
445650.19420059;5696616.41189774;471.14395000;205;209;197;52942.000000;1.000000;1.000000;1.000000;1.000000;-0.086055;0.086055;-0.086055;1.000000
445650.30420120;5696616.42099960;471.10704996;12;16;9;3598.000000;1.000000;1.000000;1.000000;1.000000;-0.091000;0.091000;-0.091000;1.000000
445650.40699966;5696616.15109833;471.17374994;91;97;78;23901.000000;1.000000;1.000000;1.000000;1.000000;0.001125;-0.001125;0.001125;1.000000
445650.07180222;5696616.23829849;471.16655018;45;42;38;10794.000000;1.000000;1.000000;1.000000;1.000000;-0.166812;0.166812;-0.166812;1.000000
445650.45190247;5696616.26650055;471.14214994;118;119;117;30326.000000;1.000000;1.000000;1.000000;1.000000;-0.043777;0.043777;-0.043777;1.000000
445650.30480011;5696616.34329803;471.14115002;12;8;7;2313.000000;1.000000;1.000000;1.000000;1.000000;-0.013298;0.013298;-0.013298;1.000000
445650.46940048;5696616.22759827;471.14014961;216;215;208;54998.000000;1.000000;1.000000;1.000000;1.000000;-0.061275;0.061275;-0.061275;1.000000
445650.50730331;5696616.23110016;471.13724997;161;158;153;40606.000000;1.000000;1.000000;1.000000;1.000000;-0.089345;0.089345;-0.089345;1.000000
445650.26490219;5696616.24859818;471.15684988;36;46;29;10537.000000;1.000000;1.000000;1.000000;1.000000;0.081402;-0.081402;0.081402;1.000000
445650.35710342;5696616.28219803;471.15205004;6;6;4;1285.000000;1.000000;1.000000;1.000000;1.000000;0.049191;-0.049191;0.049191;1.000000
445650.39370163;5696616.28849991;471.13044979;10;8;7;2056.000000;1.000000;1.000000;1.000000;1.000000;0.014423;-0.014423;0.014423;1.000000
445650.13580139;5696616.18219955;471.23864986;97;96;90;24415.000000;1.000000;1.000000;1.000000;1.000000;-0.086676;0.086676;-0.086676;1.000000
445650.16489990;5696616.27440079;471.14564993;70;73;64;18247.000000;1.000000;1.000000;1.000000;1.000000;0.078718;-0.078718;0.078718;1.000000
445650.25020035;5696616.21949966;471.16274979;87;98;78;23644.000000;1.000000;1.000000;1.000000;1.000000;0.063891;-0.063891;0.063891;1.000000
445650.36610229;5696616.29569824;471.13394978;15;14;10;3341.000000;1.000000;1.000000;1.000000;1.000000;0.035954;-0.035954;0.035954;1.000000
445650.29820068;5696616.15590103;471.21315004;132;137;117;34181.000000;1.000000;1.000000;1.000000;1.000000;0.077576;-0.077576;0.077576;1.000000
445650.38670166;5696616.27479752;471.15334990;10;9;8;2313.000000;1.000000;1.000000;1.000000;1.000000;0.021423;-0.021423;0.021423;1.000000
