//X;Y;Z;R;G;B;Intensity;Return Number;Number Of Returns;Scan Direction Flag;Point Source ID;C2M signed distances[-][<0.8];C2M signed distances[<0.4];C2M signed distances[-][<0.2];Stump96
445649.00700195;5696606.51819809;470.94684984;206;212;191;53199.000000;1.000000;1.000000;1.000000;1.000000;-0.188198;0.188198;-0.188198;1.000000
445648.93150146;5696606.31030090;470.94564988;153;151;154;38807.000000;1.000000;1.000000;1.000000;1.000000;0.043805;-0.043805;0.043805;1.000000
445648.96230133;5696606.24650009;470.96024992;138;141;145;35980.000000;1.000000;1.000000;1.000000;1.000000;0.083914;-0.083914;0.083914;1.000000
445648.99370010;5696606.13830002;470.97204997;50;42;44;11308.000000;1.000000;1.000000;1.000000;1.000000;-0.191700;0.191700;-0.191700;1.000000
445648.96199997;5696606.26529892;470.95344998;44;46;49;11565.000000;1.000000;1.000000;1.000000;1.000000;0.065274;-0.065274;0.065274;1.000000
445648.84230240;5696606.43759735;470.95704987;133;139;116;34438.000000;1.000000;1.000000;1.000000;1.000000;-0.167465;0.167465;-0.167465;1.000000
445649.00730331;5696606.29400070;470.94184997;101;104;110;26471.000000;1.000000;1.000000;1.000000;1.000000;0.035999;-0.035999;0.035999;1.000000
445648.96360214;5696606.42429932;470.93674995;246;248;242;63222.000000;1.000000;1.000000;1.000000;1.000000;-0.094561;0.094561;-0.094561;1.000000
445648.96759995;5696606.52419861;470.94984986;110;115;85;28270.000000;1.000000;1.000000;1.000000;1.000000;-0.194222;0.194222;-0.194222;1.000000
445648.89439972;5696606.48670013;470.94144990;86;88;68;21845.000000;1.000000;1.000000;1.000000;1.000000;-0.174257;0.174257;-0.174257;1.000000
445648.97080048;5696606.45389755;470.94214990;168;170;164;43176.000000;1.000000;1.000000;1.000000;1.000000;-0.123898;0.123898;-0.123898;1.000000
445648.90470322;5696606.30109985;470.94894983;201;200;199;51400.000000;1.000000;1.000000;1.000000;1.000000;0.071980;-0.071980;0.071980;1.000000
445648.93290146;5696606.27519806;470.94525005;50;49;50;12593.000000;1.000000;1.000000;1.000000;1.000000;0.066532;-0.066532;0.066532;1.000000
445649.00570114;5696606.27779968;470.94394996;92;94;98;23901.000000;1.000000;1.000000;1.000000;1.000000;0.052200;-0.052200;0.052200;1.000000
445648.90590103;5696606.26359756;470.94855000;100;98;95;25186.000000;1.000000;1.000000;1.000000;1.000000;0.092729;-0.092729;0.092729;1.000000
445648.86160095;5696606.39150055;470.95274999;144;147;143;37265.000000;1.000000;1.000000;1.000000;1.000000;-0.125176;0.125176;-0.125176;1.000000
445648.88640030;5696606.50369843;470.94595005;119;119;96;29812.000000;1.000000;1.000000;1.000000;1.000000;-0.193042;0.193042;-0.193042;1.000000
445649.01050003;5696606.39900024;470.93164994;208;205;202;52685.000000;1.000000;1.000000;1.000000;1.000000;-0.069000;0.069000;-0.069000;1.000000
445648.93070038;5696606.34789856;470.93674995;164;166;169;42405.000000;1.000000;1.000000;1.000000;1.000000;-0.043755;0.043755;-0.043755;1.000000
445648.97280319;5696606.42339905;470.93724992;246;247;241;63222.000000;1.000000;1.000000;1.000000;1.000000;-0.093399;0.093399;-0.093399;1.000000
445648.99260147;5696606.17349823;470.96544983;105;103;101;26471.000000;1.000000;1.000000;1.000000;1.000000;-0.156502;0.156502;-0.156502;1.000000
445648.87350281;5696606.34589966;470.95744993;97;100;103;25443.000000;1.000000;1.000000;1.000000;1.000000;-0.098417;0.098417;-0.098417;1.000000
445648.88800247;5696606.41950043;470.94264986;162;166;155;41891.000000;1.000000;1.000000;1.000000;1.000000;-0.121808;0.121808;-0.121808;1.000000
445648.97030075;5696606.27639969;470.94694998;36;38;43;9509.000000;1.000000;1.000000;1.000000;1.000000;0.053601;-0.053601;0.053601;1.000000
445648.99130066;5696606.21100052;470.96814992;109;111;115;28270.000000;1.000000;1.000000;1.000000;1.000000;-0.118999;0.118999;-0.118999;1.000000
445649.01630219;5696606.49169739;470.94464995;91;95;81;23644.000000;1.000000;1.000000;1.000000;1.000000;-0.161697;0.161697;-0.161697;1.000000
445649.01740082;5696606.45419891;470.94654991;199;198;190;50629.000000;1.000000;1.000000;1.000000;1.000000;-0.124199;0.124199;-0.124199;1.000000
445649.00470169;5696606.31310089;470.93505003;158;159;163;40863.000000;1.000000;1.000000;1.000000;1.000000;0.016899;-0.016899;0.016899;1.000000
445648.95850189;5696606.52509888;470.94704988;102;106;76;25957.000000;1.000000;1.000000;1.000000;1.000000;-0.195475;0.195475;-0.195475;1.000000
445648.98090179;5696606.46229752;470.94264986;164;166;161;42148.000000;1.000000;1.000000;1.000000;1.000000;-0.132298;0.132298;-0.132298;1.000000
445648.89360245;5696606.30909927;470.95324995;221;221;221;56797.000000;1.000000;1.000000;1.000000;1.000000;0.079810;-0.079810;0.079810;1.000000
445648.87540253;5696606.28969772;470.95455005;177;175;171;44975.000000;1.000000;1.000000;1.000000;1.000000;0.103402;-0.103402;0.103402;1.000000
445648.95170029;5696606.25689896;470.95754983;57;59;62;14906.000000;1.000000;1.000000;1.000000;1.000000;0.075511;-0.075511;0.075511;1.000000
445648.82450302;5696606.39940079;470.96284987;93;98;80;24158.000000;1.000000;1.000000;1.000000;1.000000;-0.161767;0.161767;-0.161767;1.000000
445648.83020218;5696606.43849762;470.96825006;112;119;94;29298.000000;1.000000;1.000000;1.000000;1.000000;-0.177457;0.177457;-0.177457;1.000000
445648.92150314;5696606.32769974;470.94304993;202;203;205;51914.000000;1.000000;1.000000;1.000000;1.000000;0.049178;-0.049178;0.049178;1.000000
445648.79800232;5696606.39699753;470.97554996;99;105;76;25700.000000;1.000000;1.000000;1.000000;1.000000;-0.185170;0.185170;-0.185170;1.000000
445648.95040329;5696606.31099899;470.94184997;93;93;99;23901.000000;1.000000;1.000000;1.000000;1.000000;0.027749;-0.027749;0.027749;1.000000
445648.87110336;5696606.43979843;470.94444992;153;157;138;39321.000000;1.000000;1.000000;1.000000;1.000000;-0.148191;0.148191;-0.148191;1.000000
445648.90440186;5696606.46719940;470.93694999;114;117;98;29298.000000;1.000000;1.000000;1.000000;1.000000;-0.152346;0.152346;-0.152346;1.000000
445649.00030334;5696606.22889908;470.96175005;115;118;125;30069.000000;1.000000;1.000000;1.000000;1.000000;-0.101101;0.101101;-0.101101;1.000000
445649.00130280;5696606.19140060;470.96604993;153;154;151;39321.000000;1.000000;1.000000;1.000000;1.000000;-0.138599;0.138599;-0.138599;1.000000
445648.92280014;5696606.51669891;470.94304993;134;136;110;33924.000000;1.000000;1.000000;1.000000;1.000000;-0.192727;0.192727;-0.192727;1.000000
445649.00900085;5696606.46430023;470.94634988;130;130;121;33153.000000;1.000000;1.000000;1.000000;1.000000;-0.134300;0.134300;-0.134300;1.000000
445648.78680237;5696606.37929733;470.97954990;125;131;103;32382.000000;1.000000;1.000000;1.000000;1.000000;-0.190320;0.190320;-0.190320;1.000000
445648.93060120;5696606.52540024;470.94344999;141;145;115;35980.000000;1.000000;1.000000;1.000000;1.000000;-0.199458;0.199458;-0.199458;1.000000
445648.81320007;5696606.43749817;470.98144986;96;103;71;24929.000000;1.000000;1.000000;1.000000;1.000000;-0.190628;0.190628;-0.190628;1.000000
445648.88620193;5696606.47579773;470.94324996;94;96;78;23901.000000;1.000000;1.000000;1.000000;1.000000;-0.168477;0.168477;-0.168477;1.000000
445648.90220078;5696606.34810074;470.94704988;133;134;138;34438.000000;1.000000;1.000000;1.000000;1.000000;-0.070780;0.070780;-0.070780;1.000000
445648.83900269;5696606.42849930;470.95914986;143;148;129;37008.000000;1.000000;1.000000;1.000000;1.000000;-0.164399;0.164399;-0.164399;1.000000
445648.91380127;5696606.27229889;470.94674994;92;90;87;23130.000000;1.000000;1.000000;1.000000;1.000000;0.080985;-0.080985;0.080985;1.000000
445649.00010117;5696606.44409760;470.94564988;161;160;154;40863.000000;1.000000;1.000000;1.000000;1.000000;0.114098;-0.114098;0.114098;1.000000
445649.03540237;5696606.44560059;470.94264986;149;150;141;38036.000000;1.000000;1.000000;1.000000;1.000000;0.115601;-0.115601;0.115601;1.000000
445648.79580124;5696606.39949997;470.97784998;94;100;70;24158.000000;1.000000;1.000000;1.000000;1.000000;-0.188134;0.188134;-0.188134;1.000000
445648.82110031;5696606.44619949;470.97954990;104;113;79;27242.000000;1.000000;1.000000;1.000000;1.000000;-0.189369;0.189369;-0.189369;1.000000
445649.06030090;5696606.62269791;470.96685006;70;90;58;20560.000000;1.000000;1.000000;1.000000;1.000000;-0.191576;0.191576;-0.191576;1.000000
445648.98150070;5696606.44359787;470.94244983;171;171;167;43690.000000;1.000000;1.000000;1.000000;1.000000;0.113598;-0.113598;0.113598;1.000000
445648.95090302;5696606.29220016;470.94394996;58;58;64;14906.000000;1.000000;1.000000;1.000000;1.000000;0.042636;-0.042636;0.042636;1.000000
445648.89920242;5696606.36469849;470.94484999;72;73;76;18761.000000;1.000000;1.000000;1.000000;1.000000;-0.079407;0.079407;-0.079407;1.000000
445649.00880249;5696606.22109802;470.96435000;108;111;116;28270.000000;1.000000;1.000000;1.000000;1.000000;0.108902;-0.108902;0.108902;1.000000
445648.96080215;5696606.52709778;470.95184996;100;106;77;25957.000000;1.000000;1.000000;1.000000;1.000000;-0.197343;0.197343;-0.197343;1.000000
445648.96350296;5696606.21129807;470.96455004;130;132;133;33667.000000;1.000000;1.000000;1.000000;1.000000;0.118916;-0.118916;0.118916;1.000000
445648.90390213;5696606.29179962;470.94884994;162;159;158;40863.000000;1.000000;1.000000;1.000000;1.000000;0.076886;-0.076886;0.076886;1.000000
445648.87210281;5696606.40220078;470.94875004;183;187;179;47288.000000;1.000000;1.000000;1.000000;1.000000;-0.122147;0.122147;-0.122147;1.000000
445648.90979965;5696606.37549789;470.93844988;92;94;94;23901.000000;1.000000;1.000000;1.000000;1.000000;-0.075961;0.075961;-0.075961;1.000000
445649.01730164;5696606.27669724;470.94214990;68;70;74;17733.000000;1.000000;1.000000;1.000000;1.000000;0.053303;-0.053303;0.053303;1.000000
445648.93100174;5696606.32909973;470.94354989;184;186;190;47545.000000;1.000000;1.000000;1.000000;1.000000;0.039635;-0.039635;0.039635;1.000000
445648.90380295;5696606.51379974;470.94444992;121;121;98;30326.000000;1.000000;1.000000;1.000000;1.000000;-0.195570;0.195570;-0.195570;1.000000
445648.98040207;5696606.48110016;470.94054987;127;129;118;32639.000000;1.000000;1.000000;1.000000;1.000000;-0.151100;0.151100;-0.151100;1.000000
445649.05880173;5696606.63220032;470.96685006;64;84;50;19018.000000;1.000000;1.000000;1.000000;1.000000;-0.193075;0.193075;-0.193075;1.000000
445648.78920181;5696606.40699966;470.98464992;94;102;68;24415.000000;1.000000;1.000000;1.000000;1.000000;-0.197089;0.197089;-0.197089;1.000000
445648.90660294;5696606.43899735;470.93435003;177;179;166;45232.000000;1.000000;1.000000;1.000000;1.000000;-0.126410;0.126410;-0.126410;1.000000
445648.94420059;5696606.44249924;470.93614985;174;177;169;44975.000000;1.000000;1.000000;1.000000;1.000000;-0.115561;0.115561;-0.115561;1.000000
445649.00790222;5696606.45269974;470.94614985;173;173;166;44204.000000;1.000000;1.000000;1.000000;1.000000;-0.122700;0.122700;-0.122700;1.000000
445648.90780075;5696606.40379913;470.93864991;129;132;125;33410.000000;1.000000;1.000000;1.000000;1.000000;-0.096920;0.096920;-0.096920;1.000000
445648.82780273;5696606.46660049;470.97774984;114;124;89;30069.000000;1.000000;1.000000;1.000000;1.000000;-0.197632;0.197632;-0.197632;1.000000
445648.81470306;5696606.42579849;470.97434999;116;121;92;29812.000000;1.000000;1.000000;1.000000;1.000000;-0.183002;0.183002;-0.183002;1.000000
445648.84080322;5696606.44700058;470.95945003;106;113;83;27499.000000;1.000000;1.000000;1.000000;1.000000;-0.174766;0.174766;-0.174766;1.000000
445648.99450119;5696606.37719925;470.93065001;184;186;183;47545.000000;1.000000;1.000000;1.000000;1.000000;0.047199;-0.047199;0.047199;1.000000
445648.91220291;5696606.32850082;470.94494988;204;204;206;52428.000000;1.000000;1.000000;1.000000;1.000000;0.058443;-0.058443;0.058443;1.000000
445648.97940262;5696606.47179993;470.94275000;160;161;155;41120.000000;1.000000;1.000000;1.000000;1.000000;-0.141800;0.141800;-0.141800;1.000000
445648.83760269;5696606.43799789;470.95924999;117;124;99;30583.000000;1.000000;1.000000;1.000000;1.000000;-0.171345;0.171345;-0.171345;1.000000
445648.99380310;5696606.37019928;470.93054988;148;150;148;38293.000000;1.000000;1.000000;1.000000;1.000000;0.040199;-0.040199;0.040199;1.000000
445648.88870056;5696606.40310104;470.94484999;152;155;148;39321.000000;1.000000;1.000000;1.000000;1.000000;-0.109798;0.109798;-0.109798;1.000000
445648.96199997;5696606.22080048;470.96455004;149;153;157;39064.000000;1.000000;1.000000;1.000000;1.000000;0.109540;-0.109540;0.109540;1.000000
445648.84230240;5696606.46549805;470.96444990;140;146;120;36237.000000;1.000000;1.000000;1.000000;1.000000;-0.186620;0.186620;-0.186620;1.000000
445648.78030212;5696606.36120041;470.98134996;145;149;126;37265.000000;1.000000;1.000000;1.000000;1.000000;-0.192865;0.192865;-0.192865;1.000000
445648.93210037;5696606.29159744;470.94544985;66;64;67;16448.000000;1.000000;1.000000;1.000000;1.000000;0.054397;-0.054397;0.054397;1.000000
445648.98760040;5696606.28420074;470.94324996;83;84;90;21588.000000;1.000000;1.000000;1.000000;1.000000;-0.045799;0.045799;-0.045799;1.000000
445648.84290131;5696606.47239883;470.96455004;160;167;139;41377.000000;1.000000;1.000000;1.000000;1.000000;-0.191288;0.191288;-0.191288;1.000000
445648.98590286;5696606.31249817;470.93415000;153;154;159;39578.000000;1.000000;1.000000;1.000000;1.000000;-0.017502;0.017502;-0.017502;1.000000
445648.81070145;5696606.43770035;470.98595001;102;110;77;26471.000000;1.000000;1.000000;1.000000;1.000000;-0.192810;0.192810;-0.192810;1.000000
445648.85310181;5696606.40159805;470.95484998;142;145;138;36751.000000;1.000000;1.000000;1.000000;1.000000;-0.137617;0.137617;-0.137617;1.000000
445648.99680145;5696606.30439957;470.93684985;151;153;157;39064.000000;1.000000;1.000000;1.000000;1.000000;-0.025600;0.025600;-0.025600;1.000000
445648.93280228;5696606.25399979;470.95435001;72;73;72;18504.000000;1.000000;1.000000;1.000000;1.000000;0.084892;-0.084892;0.084892;1.000000
445649.00800140;5696606.25639923;470.95074989;30;32;39;8224.000000;1.000000;1.000000;1.000000;1.000000;0.073601;-0.073601;0.073601;1.000000
445648.93410309;5696606.21879776;470.95634987;110;109;106;27756.000000;1.000000;1.000000;1.000000;1.000000;0.117047;-0.117047;0.117047;1.000000
445649.01570328;5696606.51040085;470.94484999;144;149;130;37265.000000;1.000000;1.000000;1.000000;1.000000;-0.180401;0.180401;-0.180401;1.000000
445648.79780014;5696606.42489822;470.98525002;96;104;68;24929.000000;1.000000;1.000000;1.000000;1.000000;-0.197167;0.197167;-0.197167;1.000000
445648.98290070;5696606.43409927;470.94244983;208;209;205;53456.000000;1.000000;1.000000;1.000000;1.000000;0.104099;-0.104099;0.104099;1.000000
445648.94149979;5696606.29310043;470.94584991;62;62;66;15934.000000;1.000000;1.000000;1.000000;1.000000;0.047010;-0.047010;0.047010;1.000000
445648.78820236;5696606.36979874;470.97945001;146;152;130;37779.000000;1.000000;1.000000;1.000000;1.000000;-0.186715;0.186715;-0.186715;1.000000
445648.91650208;5696606.25319870;470.95124986;88;87;83;22102.000000;1.000000;1.000000;1.000000;1.000000;0.093957;-0.093957;0.093957;1.000000
445648.90369995;5696606.33859833;470.94704988;181;182;185;46774.000000;1.000000;1.000000;1.000000;1.000000;-0.067477;0.067477;-0.067477;1.000000
445648.98940094;5696606.25810059;470.95225002;36;39;46;9766.000000;1.000000;1.000000;1.000000;1.000000;-0.071899;0.071899;-0.071899;1.000000
445648.87850006;5696606.49510010;470.94774987;140;143;122;35723.000000;1.000000;1.000000;1.000000;1.000000;-0.189065;0.189065;-0.189065;1.000000
445648.99150284;5696606.42629822;470.94275000;176;177;173;45232.000000;1.000000;1.000000;1.000000;1.000000;0.096298;-0.096298;0.096298;1.000000
445648.99839981;5696606.27609833;470.94595005;91;93;98;23644.000000;1.000000;1.000000;1.000000;1.000000;-0.053902;0.053902;-0.053902;1.000000
445648.97260101;5696606.39549835;470.93454983;206;208;205;53199.000000;1.000000;1.000000;1.000000;1.000000;-0.065498;0.065498;-0.065498;1.000000
445649.02400024;5696606.29719742;470.94034984;57;60;64;15163.000000;1.000000;1.000000;1.000000;1.000000;-0.032803;0.032803;-0.032803;1.000000
445648.97039993;5696606.49839981;470.93794991;132;135;117;33924.000000;1.000000;1.000000;1.000000;1.000000;-0.168400;0.168400;-0.168400;1.000000
445648.85530289;5696606.35449799;470.96365001;113;115;117;29298.000000;1.000000;1.000000;1.000000;1.000000;-0.117897;0.117897;-0.117897;1.000000
445648.85650070;5696606.31699951;470.96324994;193;194;191;49601.000000;1.000000;1.000000;1.000000;1.000000;0.114864;-0.114864;0.114864;1.000000
445649.00490005;5696606.36219986;470.92864992;118;119;119;30326.000000;1.000000;1.000000;1.000000;1.000000;-0.032200;0.032200;-0.032200;1.000000
445648.85450180;5696606.39209946;470.95474984;130;133;128;33667.000000;1.000000;1.000000;1.000000;1.000000;-0.131687;0.131687;-0.131687;1.000000
445648.89110001;5696606.35600098;470.95134999;82;84;88;21331.000000;1.000000;1.000000;1.000000;1.000000;-0.083669;0.083669;-0.083669;1.000000
445648.85799988;5696606.27960022;470.95595004;144;141;135;36237.000000;1.000000;1.000000;1.000000;1.000000;0.123390;-0.123390;0.123390;1.000000
445648.93449982;5696606.24690063;470.95435001;51;53;52;13364.000000;1.000000;1.000000;1.000000;1.000000;0.090613;-0.090613;0.090613;1.000000
445649.00730331;5696606.24949844;470.95295002;40;42;48;10794.000000;1.000000;1.000000;1.000000;1.000000;0.080502;-0.080502;0.080502;1.000000
445648.91100128;5696606.51549728;470.94244983;135;135;111;33924.000000;1.000000;1.000000;1.000000;1.000000;-0.194845;0.194845;-0.194845;1.000000
445648.91020020;5696606.35669907;470.94284989;121;122;126;31354.000000;1.000000;1.000000;1.000000;1.000000;-0.066062;0.066062;-0.066062;1.000000
445648.94890030;5696606.32049759;470.94184997;127;127;132;32639.000000;1.000000;1.000000;1.000000;1.000000;0.023714;-0.023714;0.023714;1.000000
445648.79710205;5696606.41559799;470.98274996;102;109;75;26471.000000;1.000000;1.000000;1.000000;1.000000;-0.193489;0.193489;-0.193489;1.000000
445648.87160309;5696606.42099960;470.94654991;205;209;197;52942.000000;1.000000;1.000000;1.000000;1.000000;-0.134487;0.134487;-0.134487;1.000000
445648.91240128;5696606.28169830;470.94674994;100;96;95;24929.000000;1.000000;1.000000;1.000000;1.000000;0.075652;-0.075652;0.075652;1.000000
445648.88770111;5696606.46629913;470.94315006;91;95;75;23387.000000;1.000000;1.000000;1.000000;1.000000;-0.159544;0.159544;-0.159544;1.000000
445648.95010193;5696606.28520020;470.94614985;55;55;59;14135.000000;1.000000;1.000000;1.000000;1.000000;0.049278;-0.049278;0.049278;1.000000
445648.82360275;5696606.44599731;470.97494986;100;109;76;26214.000000;1.000000;1.000000;1.000000;1.000000;-0.187274;0.187274;-0.187274;1.000000
445648.89800079;5696606.44899948;470.93875005;127;129;112;32382.000000;1.000000;1.000000;1.000000;1.000000;-0.139411;0.139411;-0.139411;1.000000
445648.81270035;5696606.43059738;470.97895004;106;113;82;27499.000000;1.000000;1.000000;1.000000;1.000000;-0.187245;0.187245;-0.187245;1.000000
445648.83419998;5696606.45450027;470.96624996;110;117;88;28527.000000;1.000000;1.000000;1.000000;1.000000;-0.184696;0.184696;-0.184696;1.000000
445649.01640137;5696606.26750000;470.94435002;40;41;46;10537.000000;1.000000;1.000000;1.000000;1.000000;0.062500;-0.062500;0.062500;1.000000
445648.87619980;5696606.29899796;470.95464994;209;208;204;53199.000000;1.000000;1.000000;1.000000;1.000000;0.099386;-0.099386;0.099386;1.000000
445648.84440048;5696606.36249741;470.96324994;95;99;101;25186.000000;1.000000;1.000000;1.000000;1.000000;-0.130343;0.130343;-0.130343;1.000000
445648.87920197;5696606.47640045;470.94525005;111;113;94;28270.000000;1.000000;1.000000;1.000000;1.000000;-0.172602;0.172602;-0.172602;1.000000
445649.02720078;5696606.25939758;470.94704988;18;20;28;5140.000000;1.000000;1.000000;1.000000;1.000000;-0.070602;0.070602;-0.070602;1.000000
445648.91160019;5696606.34720047;470.94514992;148;150;153;38293.000000;1.000000;1.000000;1.000000;1.000000;-0.061482;0.061482;-0.061482;1.000000
445648.84630020;5696606.33429916;470.96534993;162;165;165;42148.000000;1.000000;1.000000;1.000000;1.000000;-0.124401;0.124401;-0.124401;1.000000
445649.02449997;5696606.27839859;470.94244983;52;54;58;13621.000000;1.000000;1.000000;1.000000;1.000000;-0.051601;0.051601;-0.051601;1.000000
445648.84780319;5696606.32480057;470.96534993;160;162;160;41377.000000;1.000000;1.000000;1.000000;1.000000;0.122934;-0.122934;0.122934;1.000000
445648.86690338;5696606.29979904;470.95654990;218;217;213;55512.000000;1.000000;1.000000;1.000000;1.000000;0.108031;-0.108031;0.108031;1.000000
445648.94080170;5696606.50580032;470.93674995;99;101;77;24929.000000;1.000000;1.000000;1.000000;1.000000;-0.178312;0.178312;-0.178312;1.000000
445648.99960144;5696606.22199829;470.96394994;107;110;115;28013.000000;1.000000;1.000000;1.000000;1.000000;-0.108002;0.108002;-0.108002;1.000000
445648.78970154;5696606.36030014;470.97945001;142;147;128;36751.000000;1.000000;1.000000;1.000000;1.000000;-0.183445;0.183445;-0.183445;1.000000
445648.83240326;5696606.46389969;470.97324993;119;126;96;30840.000000;1.000000;1.000000;1.000000;1.000000;-0.192445;0.192445;-0.192445;1.000000
445648.89920242;5696606.41160019;470.93834998;154;158;148;39835.000000;1.000000;1.000000;1.000000;1.000000;-0.108444;0.108444;-0.108444;1.000000
445648.78030212;5696606.38680084;470.98394992;106;113;79;27499.000000;1.000000;1.000000;1.000000;1.000000;-0.198620;0.198620;-0.198620;1.000000
445648.91780289;5696606.21800049;470.95324995;115;112;110;28784.000000;1.000000;1.000000;1.000000;1.000000;0.123832;-0.123832;0.123832;1.000000
445648.95080002;5696606.48850067;470.93694999;157;157;143;39835.000000;1.000000;1.000000;1.000000;1.000000;-0.159736;0.159736;-0.159736;1.000000
445648.80790146;5696606.43329819;470.98574998;96;105;69;25186.000000;1.000000;1.000000;1.000000;1.000000;-0.192744;0.192744;-0.192744;1.000000
445648.99220093;5696606.40529831;470.93554999;214;214;211;54741.000000;1.000000;1.000000;1.000000;1.000000;0.075298;-0.075298;0.075298;1.000000
445648.99930008;5696606.43490036;470.94315006;181;180;175;46003.000000;1.000000;1.000000;1.000000;1.000000;0.104900;-0.104900;0.104900;1.000000
445649.02990158;5696606.43449982;470.93754985;180;178;170;45489.000000;1.000000;1.000000;1.000000;1.000000;0.104500;-0.104500;0.104500;1.000000
445648.99630173;5696606.32319839;470.93474986;145;147;149;37522.000000;1.000000;1.000000;1.000000;1.000000;-0.006802;0.006802;-0.006802;1.000000
445648.93300064;5696606.49719818;470.93624999;83;84;64;20817.000000;1.000000;1.000000;1.000000;1.000000;-0.171380;0.171380;-0.171380;1.000000
445648.82590302;5696606.38989838;470.96274998;96;100;86;24929.000000;1.000000;1.000000;1.000000;1.000000;-0.156630;0.156630;-0.156630;1.000000
445648.93010147;5696606.31979950;470.94334986;178;178;182;45746.000000;1.000000;1.000000;1.000000;1.000000;0.041789;-0.041789;0.041789;1.000000
445648.86150177;5696606.43829926;470.94864990;152;158;136;39321.000000;1.000000;1.000000;1.000000;1.000000;-0.153743;0.153743;-0.153743;1.000000
445648.97200211;5696606.44209869;470.94205000;187;189;183;48059.000000;1.000000;1.000000;1.000000;1.000000;-0.112099;0.112099;-0.112099;1.000000
445648.86610229;5696606.31849869;470.96144988;211;212;210;54227.000000;1.000000;1.000000;1.000000;1.000000;0.105155;-0.105155;0.105155;1.000000
445648.84520157;5696606.37179764;470.96344997;89;92;94;23387.000000;1.000000;1.000000;1.000000;1.000000;-0.132206;0.132206;-0.132206;1.000000
445648.96280106;5696606.22780045;470.96234991;177;182;186;46260.000000;1.000000;1.000000;1.000000;1.000000;0.102499;-0.102499;0.102499;1.000000
445648.95400055;5696606.20979889;470.96404984;127;129;131;32896.000000;1.000000;1.000000;1.000000;1.000000;0.121346;-0.121346;0.121346;1.000000
445649.02499969;5696606.30649765;470.93814995;60;61;65;15677.000000;1.000000;1.000000;1.000000;1.000000;-0.023502;0.023502;-0.023502;1.000000
445648.90170105;5696606.31999786;470.95134999;222;223;224;57054.000000;1.000000;1.000000;1.000000;1.000000;0.069648;-0.069648;0.069648;1.000000
445649.00640305;5696606.28479965;470.94174983;109;111;116;28270.000000;1.000000;1.000000;1.000000;1.000000;0.045200;-0.045200;0.045200;1.000000
445648.98010071;5696606.23779877;470.96094992;153;157;163;40092.000000;1.000000;1.000000;1.000000;1.000000;0.092201;-0.092201;0.092201;1.000000
445648.87400253;5696606.32710083;470.95954992;204;206;206;52685.000000;1.000000;1.000000;1.000000;1.000000;0.096668;-0.096668;0.096668;1.000000
445648.81140335;5696606.44689758;470.98844983;98;108;73;25957.000000;1.000000;1.000000;1.000000;1.000000;-0.197528;0.197528;-0.197528;1.000000
445648.85379990;5696606.40849884;470.95264985;160;164;153;41377.000000;1.000000;1.000000;1.000000;1.000000;-0.140750;0.140750;-0.140750;1.000000
445648.88599976;5696606.32839783;470.95544984;209;211;211;53970.000000;1.000000;1.000000;1.000000;1.000000;0.084642;-0.084642;0.084642;1.000000
445648.89520081;5696606.29960068;470.95085003;203;202;201;51914.000000;1.000000;1.000000;1.000000;1.000000;0.081322;-0.081322;0.081322;1.000000
445648.89159973;5696606.33729752;470.95344998;186;188;190;48059.000000;1.000000;1.000000;1.000000;1.000000;-0.079363;0.079363;-0.079363;1.000000
445649.01020248;5696606.23279770;470.95754983;91;93;101;23901.000000;1.000000;1.000000;1.000000;1.000000;0.097202;-0.097202;0.097202;1.000000
445648.86639984;5696606.49379929;470.95414998;165;168;145;42148.000000;1.000000;1.000000;1.000000;1.000000;-0.194148;0.194148;-0.194148;1.000000
445648.87470062;5696606.30839737;470.95704987;221;221;219;56540.000000;1.000000;1.000000;1.000000;1.000000;0.098329;-0.098329;0.098329;1.000000
445648.95120056;5696606.27339752;470.95074989;64;66;67;16705.000000;1.000000;1.000000;1.000000;1.000000;0.059843;-0.059843;0.059843;1.000000
445648.90279968;5696606.32929810;470.94684984;204;205;207;52428.000000;1.000000;1.000000;1.000000;1.000000;0.067831;-0.067831;0.067831;1.000000
445648.93800171;5696606.32850082;470.94144990;160;161;166;41377.000000;1.000000;1.000000;1.000000;1.000000;0.032660;-0.032660;0.032660;1.000000
445648.99300201;5696606.41449936;470.93805005;200;201;197;51400.000000;1.000000;1.000000;1.000000;1.000000;0.084499;-0.084499;0.084499;1.000000
445648.77090271;5696606.33180054;470.97354986;116;116;98;29298.000000;1.000000;1.000000;1.000000;1.000000;-0.199732;0.199732;-0.199732;1.000000
445648.84790237;5696606.47429855;470.96245005;175;184;155;45746.000000;1.000000;1.000000;1.000000;1.000000;-0.189429;0.189429;-0.189429;1.000000
445648.94940002;5696606.30169876;470.94404985;68;68;74;17476.000000;1.000000;1.000000;1.000000;1.000000;0.035377;-0.035377;0.035377;1.000000
445648.98150070;5696606.41570099;470.93514993;224;226;222;57568.000000;1.000000;1.000000;1.000000;1.000000;0.085701;-0.085701;0.085701;1.000000
445648.93500336;5696606.22809799;470.95645000;106;107;107;27242.000000;1.000000;1.000000;1.000000;1.000000;0.107949;-0.107949;0.107949;1.000000
445648.98280151;5696606.37819870;470.93244984;159;160;159;40863.000000;1.000000;1.000000;1.000000;1.000000;0.048199;-0.048199;0.048199;1.000000
445648.83690079;5696606.33510025;470.96965005;174;176;176;44975.000000;1.000000;1.000000;1.000000;1.000000;-0.133823;0.133823;-0.133823;1.000000
445648.94210251;5696606.47059830;470.93875005;169;171;160;43433.000000;1.000000;1.000000;1.000000;1.000000;-0.143463;0.143463;-0.143463;1.000000
445648.98630341;5696606.34049805;470.93214991;82;85;89;21588.000000;1.000000;1.000000;1.000000;1.000000;0.010498;-0.010498;0.010498;1.000000
445648.98240097;5696606.19079788;470.96984984;96;96;94;24415.000000;1.000000;1.000000;1.000000;1.000000;-0.139202;0.139202;-0.139202;1.000000
445648.97790344;5696606.30380066;470.93834998;107;108;114;27756.000000;1.000000;1.000000;1.000000;1.000000;0.026199;-0.026199;0.026199;1.000000
445648.83430298;5696606.37980087;470.96304991;116;120;115;30326.000000;1.000000;1.000000;1.000000;1.000000;-0.145136;0.145136;-0.145136;1.000000
445648.96070297;5696606.27490051;470.94884994;36;37;42;9509.000000;1.000000;1.000000;1.000000;1.000000;0.055986;-0.055986;0.055986;1.000000
445648.96280106;5696606.41509827;470.93435003;242;244;239;62194.000000;1.000000;1.000000;1.000000;1.000000;-0.085457;0.085457;-0.085457;1.000000
445648.83240326;5696606.40809830;470.96094992;113;119;100;29555.000000;1.000000;1.000000;1.000000;1.000000;-0.158761;0.158761;-0.158761;1.000000
445648.96630295;5696606.37739761;470.93404986;163;165;164;42148.000000;1.000000;1.000000;1.000000;1.000000;-0.047594;0.047594;-0.047594;1.000000
445648.96740158;5696606.33989914;470.93595006;122;124;128;31611.000000;1.000000;1.000000;1.000000;1.000000;-0.010411;0.010411;-0.010411;1.000000
445648.98610123;5696606.29360016;470.94324996;112;114;120;29298.000000;1.000000;1.000000;1.000000;1.000000;-0.036400;0.036400;-0.036400;1.000000
445648.92410095;5696606.47699936;470.93564989;143;145;127;36494.000000;1.000000;1.000000;1.000000;1.000000;-0.154187;0.154187;-0.154187;1.000000
445648.95930298;5696606.48069962;470.93964984;137;138;127;34952.000000;1.000000;1.000000;1.000000;1.000000;-0.151124;0.151124;-0.151124;1.000000
445648.81730087;5696606.39999969;470.96714999;97;101;81;24929.000000;1.000000;1.000000;1.000000;1.000000;-0.168549;0.168549;-0.168549;1.000000
445649.00170334;5696606.40679749;470.93595006;221;220;216;56283.000000;1.000000;1.000000;1.000000;1.000000;0.076797;-0.076797;0.076797;1.000000
445648.87830170;5696606.46710022;470.94514992;101;104;85;25957.000000;1.000000;1.000000;1.000000;1.000000;-0.165289;0.165289;-0.165289;1.000000
445648.96949966;5696606.51709946;470.94514992;108;112;87;27756.000000;1.000000;1.000000;1.000000;1.000000;-0.187103;0.187103;-0.187103;1.000000
445649.00460251;5696606.52070053;470.95144989;193;200;180;50115.000000;1.000000;1.000000;1.000000;1.000000;-0.190701;0.190701;-0.190701;1.000000
445648.84740265;5696606.34589966;470.96554996;167;171;171;43433.000000;1.000000;1.000000;1.000000;1.000000;-0.124246;0.124246;-0.124246;1.000000
445648.84850128;5696606.30610092;470.96274998;163;164;160;41891.000000;1.000000;1.000000;1.000000;1.000000;0.124442;-0.124442;0.124442;1.000000
445648.87610062;5696606.27099808;470.95194985;130;126;122;32382.000000;1.000000;1.000000;1.000000;1.000000;0.111429;-0.111429;0.111429;1.000000
445648.85980042;5696606.47339828;470.95365002;183;188;167;47288.000000;1.000000;1.000000;1.000000;1.000000;-0.181233;0.181233;-0.181233;1.000000
445648.89210327;5696606.36540039;470.94684984;60;62;66;15677.000000;1.000000;1.000000;1.000000;1.000000;-0.086134;0.086134;-0.086134;1.000000
445648.96970184;5696606.29279907;470.94244983;61;63;69;16191.000000;1.000000;1.000000;1.000000;1.000000;0.037212;-0.037212;0.037212;1.000000
445648.95280273;5696606.24510010;470.95974996;113;116;119;29555.000000;1.000000;1.000000;1.000000;1.000000;0.086751;-0.086751;0.086751;1.000000
445648.92480286;5696606.43260010;470.93284990;224;226;218;57568.000000;1.000000;1.000000;1.000000;1.000000;-0.112368;0.112368;-0.112368;1.000000
445649.02400024;5696606.34169968;470.92925002;113;115;114;29298.000000;1.000000;1.000000;1.000000;1.000000;0.011700;-0.011700;0.011700;1.000000
445648.86250122;5696606.40069778;470.95054986;161;164;158;41634.000000;1.000000;1.000000;1.000000;1.000000;-0.129187;0.129187;-0.129187;1.000000
445648.92030151;5696606.33949860;470.94315006;177;179;181;45746.000000;1.000000;1.000000;1.000000;1.000000;-0.051214;0.051214;-0.051214;1.000000
445649.03720291;5696606.43619736;470.93564989;155;154;145;39321.000000;1.000000;1.000000;1.000000;1.000000;0.106197;-0.106197;0.106197;1.000000
445648.81369980;5696606.44449814;470.98385002;91;99;64;23644.000000;1.000000;1.000000;1.000000;1.000000;-0.194257;0.194257;-0.194257;1.000000
445648.92820175;5696606.39489944;470.93485000;102;105;99;26471.000000;1.000000;1.000000;1.000000;1.000000;-0.077536;0.077536;-0.077536;1.000000
445648.81740005;5696606.35320099;470.97124984;176;180;174;45746.000000;1.000000;1.000000;1.000000;1.000000;-0.154973;0.154973;-0.154973;1.000000
445648.96570023;5696606.39609726;470.93424990;205;208;206;52942.000000;1.000000;1.000000;1.000000;1.000000;-0.066281;0.066281;-0.066281;1.000000
445648.90640076;5696606.24479874;470.95074989;71;68;66;17476.000000;1.000000;1.000000;1.000000;1.000000;0.106697;-0.106697;0.106697;1.000000
445648.88860138;5696606.44989975;470.94074990;112;116;99;28784.000000;1.000000;1.000000;1.000000;1.000000;-0.145273;0.145273;-0.145273;1.000000
445648.99860199;5696606.45360001;470.94575002;134;134;127;34181.000000;1.000000;1.000000;1.000000;1.000000;0.123600;-0.123600;0.123600;1.000000
445649.03620346;5696606.45479782;470.94505002;170;172;162;43690.000000;1.000000;1.000000;1.000000;1.000000;0.124798;-0.124798;0.124798;1.000000
445648.96690186;5696606.35859879;470.93384983;101;103;105;26214.000000;1.000000;1.000000;1.000000;1.000000;-0.028840;0.028840;-0.028840;1.000000
445648.90590103;5696606.43199738;470.93424990;208;211;199;53456.000000;1.000000;1.000000;1.000000;1.000000;-0.120801;0.120801;-0.120801;1.000000
445648.79740341;5696606.39010056;470.97315003;96;101;74;24672.000000;1.000000;1.000000;1.000000;1.000000;-0.183353;0.183353;-0.183353;1.000000
445648.94340332;5696606.43319901;470.93595006;200;202;196;51400.000000;1.000000;1.000000;1.000000;1.000000;-0.106729;0.106729;-0.106729;1.000000
445649.00580032;5696606.32469757;470.93284990;137;139;142;35466.000000;1.000000;1.000000;1.000000;1.000000;0.005302;-0.005302;0.005302;1.000000
445648.90920074;5696606.39430054;470.93864991;115;117;112;29555.000000;1.000000;1.000000;1.000000;1.000000;-0.088925;0.088925;-0.088925;1.000000
445648.80080231;5696606.35239990;470.97514989;160;163;150;41120.000000;1.000000;1.000000;1.000000;1.000000;-0.171296;0.171296;-0.171296;1.000000
445648.77869995;5696606.36829956;470.98134996;158;162;136;40349.000000;1.000000;1.000000;1.000000;1.000000;-0.195711;0.195711;-0.195711;1.000000
445648.94700058;5696606.39549835;470.93334987;153;156;151;39578.000000;1.000000;1.000000;1.000000;1.000000;-0.069629;0.069629;-0.069629;1.000000
445648.93330200;5696606.45049866;470.93575003;190;192;181;48830.000000;1.000000;1.000000;1.000000;1.000000;-0.126147;0.126147;-0.126147;1.000000
445649.00320251;5696606.36939819;470.92864992;168;168;167;42919.000000;1.000000;1.000000;1.000000;1.000000;-0.039398;0.039398;-0.039398;1.000000
445648.85180099;5696606.43670090;470.95284988;144;150;129;37265.000000;1.000000;1.000000;1.000000;1.000000;-0.159702;0.159702;-0.159702;1.000000
445648.94220169;5696606.49640091;470.93665006;115;116;96;29041.000000;1.000000;1.000000;1.000000;1.000000;-0.168811;0.168811;-0.168811;1.000000
445648.85880096;5696606.28890045;470.95834996;174;172;167;44204.000000;1.000000;1.000000;1.000000;1.000000;0.119139;-0.119139;0.119139;1.000000
445648.97050293;5696606.25749786;470.95604994;48;50;55;12593.000000;1.000000;1.000000;1.000000;1.000000;0.072502;-0.072502;0.072502;1.000000
445649.00080307;5696606.21240051;470.96854999;119;122;126;31097.000000;1.000000;1.000000;1.000000;1.000000;-0.117599;0.117599;-0.117599;1.000000
445648.92780121;5696606.36689957;470.93684985;125;127;128;32382.000000;1.000000;1.000000;1.000000;1.000000;-0.056530;0.056530;-0.056530;1.000000
445648.96650131;5696606.33059891;470.93584992;116;118;122;30069.000000;1.000000;1.000000;1.000000;1.000000;-0.004169;0.004169;-0.004169;1.000000
445649.49850281;5696605.87999924;470.90555002;117;117;115;29812.000000;1.000000;1.000000;1.000000;1.000000;-0.034624;0.034624;-0.034624;1.000000
445649.41080292;5696605.72659882;470.92774989;82;80;73;20303.000000;1.000000;1.000000;1.000000;1.000000;-0.160172;0.160172;-0.160172;1.000000
445649.59070023;5696605.88109787;470.88644983;114;111;105;28527.000000;1.000000;1.000000;1.000000;1.000000;0.051098;-0.051098;0.051098;1.000000
445649.40310104;5696605.71800049;470.92494990;98;95;86;24158.000000;1.000000;1.000000;1.000000;1.000000;-0.171612;0.171612;-0.171612;1.000000
445649.50060089;5696605.83279999;470.91905000;95;97;93;24415.000000;1.000000;1.000000;1.000000;1.000000;-0.032526;0.032526;-0.032526;1.000000
445649.47770126;5696605.90529831;470.90264990;143;147;148;37265.000000;1.000000;1.000000;1.000000;1.000000;-0.055426;0.055426;-0.055426;1.000000
445649.53100021;5696605.98419769;470.91995003;93;96;90;24158.000000;1.000000;1.000000;1.000000;1.000000;-0.002127;0.002127;-0.002127;1.000000
445649.53220184;5696605.94439896;470.91485002;149;149;141;38036.000000;1.000000;1.000000;1.000000;1.000000;-0.000925;0.000925;-0.000925;1.000000
445649.36990173;5696605.82659729;470.89914991;192;188;178;48316.000000;1.000000;1.000000;1.000000;1.000000;-0.163261;0.163261;-0.163261;1.000000
445649.42970093;5696605.70829971;470.93764998;109;111;97;27756.000000;1.000000;1.000000;1.000000;1.000000;-0.159712;0.159712;-0.159712;1.000000
445649.44700058;5696606.00620087;470.90944983;122;118;119;30583.000000;1.000000;1.000000;1.000000;1.000000;-0.086126;0.086126;-0.086126;1.000000
445649.44849976;5696605.97099884;470.90905001;102;101;100;25957.000000;1.000000;1.000000;1.000000;1.000000;-0.084627;0.084627;-0.084627;1.000000
445649.41069992;5696605.79910095;470.92394998;70;68;69;17476.000000;1.000000;1.000000;1.000000;1.000000;-0.126266;0.126266;-0.126266;1.000000
445649.54900177;5696605.79809769;470.91384985;165;164;159;41891.000000;1.000000;1.000000;1.000000;1.000000;-0.031902;0.031902;-0.031902;1.000000
445649.55860336;5696606.00269897;470.91674997;162;165;163;41891.000000;1.000000;1.000000;1.000000;1.000000;0.025476;-0.025476;0.025476;1.000000
445649.33790024;5696605.91799744;470.91744997;142;139;140;35980.000000;1.000000;1.000000;1.000000;1.000000;-0.195227;0.195227;-0.195227;1.000000
445649.37570007;5696605.92159851;470.91684987;72;72;76;18504.000000;1.000000;1.000000;1.000000;1.000000;-0.157427;0.157427;-0.157427;1.000000
445649.57069977;5696605.70500000;470.91374995;101;98;84;24929.000000;1.000000;1.000000;1.000000;1.000000;-0.125079;0.125079;-0.125079;1.000000
445649.42889984;5696605.77389725;470.93374993;129;128;126;32896.000000;1.000000;1.000000;1.000000;1.000000;-0.118367;0.118367;-0.118367;1.000000
445649.44149979;5696605.89459808;470.90555002;167;168;168;42919.000000;1.000000;1.000000;1.000000;1.000000;-0.091627;0.091627;-0.091627;1.000000
445649.59740265;5696605.93849762;470.90844991;159;159;142;40349.000000;1.000000;1.000000;1.000000;1.000000;-0.063745;0.063745;-0.063745;1.000000
445649.34190186;5696605.85479935;470.90514996;112;110;100;28013.000000;1.000000;1.000000;1.000000;1.000000;-0.191225;0.191225;-0.191225;1.000000
445649.41170319;5696605.76379974;470.93284990;81;79;78;20303.000000;1.000000;1.000000;1.000000;1.000000;-0.138297;0.138297;-0.138297;1.000000
445649.49990280;5696605.87050064;470.90785005;96;96;95;24415.000000;1.000000;1.000000;1.000000;1.000000;-0.033224;0.033224;-0.033224;1.000000
445649.59460266;5696606.03219803;470.90474989;69;71;78;18247.000000;1.000000;1.000000;1.000000;1.000000;0.001022;-0.001022;0.001022;1.000000
445649.48560150;5696605.99099930;470.90395000;113;112;113;28784.000000;1.000000;1.000000;1.000000;1.000000;-0.047525;0.047525;-0.047525;1.000000
445649.41500290;5696605.91340073;470.90914990;98;98;100;25186.000000;1.000000;1.000000;1.000000;1.000000;-0.118124;0.118124;-0.118124;1.000000
445649.48790176;5696605.91599854;470.90555002;79;83;84;20817.000000;1.000000;1.000000;1.000000;1.000000;-0.045225;0.045225;-0.045225;1.000000
445649.52530106;5696605.91720016;470.90724995;113;112;108;28527.000000;1.000000;1.000000;1.000000;1.000000;-0.007826;0.007826;-0.007826;1.000000
445649.45320328;5696605.85129745;470.91945006;79;77;75;19789.000000;1.000000;1.000000;1.000000;1.000000;-0.079924;0.079924;-0.079924;1.000000
445649.53849991;5696605.83419998;470.90914990;92;92;87;23387.000000;1.000000;1.000000;1.000000;1.000000;0.005373;-0.005373;0.005373;1.000000
445649.34510239;5696605.77020081;470.91835000;155;150;149;38807.000000;1.000000;1.000000;1.000000;1.000000;-0.197305;0.197305;-0.197305;1.000000
445649.42370041;5696605.85650070;470.90894987;75;72;68;18504.000000;1.000000;1.000000;1.000000;1.000000;-0.109426;0.109426;-0.109426;1.000000
445649.35350235;5696605.78119858;470.90944983;147;141;139;36494.000000;1.000000;1.000000;1.000000;1.000000;-0.186136;0.186136;-0.186136;1.000000
445649.53390320;5696605.93499954;470.91014983;107;108;99;27242.000000;1.000000;1.000000;1.000000;1.000000;0.000776;-0.000776;0.000776;1.000000
445649.51140030;5696606.04680069;470.91514995;185;189;191;48316.000000;1.000000;1.000000;1.000000;1.000000;-0.021727;0.021727;-0.021727;1.000000
445649.36700256;5696605.92930038;470.91884996;70;66;67;17219.000000;1.000000;1.000000;1.000000;1.000000;-0.166124;0.166124;-0.166124;1.000000
445649.40080078;5696605.79070099;470.91874983;89;85;83;21845.000000;1.000000;1.000000;1.000000;1.000000;-0.138038;0.138038;-0.138038;1.000000
445649.54440125;5696605.92009933;470.90584995;71;68;62;17476.000000;1.000000;1.000000;1.000000;1.000000;0.011274;-0.011274;0.011274;1.000000
445649.36950119;5696605.87330063;470.90194990;172;171;164;43690.000000;1.000000;1.000000;1.000000;1.000000;-0.163626;0.163626;-0.163626;1.000000
445649.43160065;5696605.72920044;470.93805005;63;65;53;16191.000000;1.000000;1.000000;1.000000;1.000000;-0.143067;0.143067;-0.143067;1.000000
445649.48260315;5696606.03779800;470.91374995;121;123;121;31354.000000;1.000000;1.000000;1.000000;1.000000;-0.050524;0.050524;-0.050524;1.000000
445649.38490112;5696605.69639786;470.91925003;56;55;47;13878.000000;1.000000;1.000000;1.000000;1.000000;-0.199551;0.199551;-0.199551;1.000000
445649.55420120;5696605.87029846;470.89634993;76;75;72;19018.000000;1.000000;1.000000;1.000000;1.000000;0.021074;-0.021074;0.021074;1.000000
445649.55770309;5696605.83489807;470.90074994;79;79;73;20046.000000;1.000000;1.000000;1.000000;1.000000;0.004898;-0.004898;0.004898;1.000000
445649.43910034;5696605.78219803;470.93435003;110;109;108;28013.000000;1.000000;1.000000;1.000000;1.000000;-0.105480;0.105480;-0.105480;1.000000
445649.41660126;5696605.81030090;470.91964986;86;81;79;21074.000000;1.000000;1.000000;1.000000;1.000000;-0.118179;0.118179;-0.118179;1.000000
445649.46220215;5696605.86919983;470.91084983;66;66;63;16705.000000;1.000000;1.000000;1.000000;1.000000;-0.070925;0.070925;-0.070925;1.000000
445649.57870300;5696605.76269730;470.90785005;99;97;88;24672.000000;1.000000;1.000000;1.000000;1.000000;-0.067303;0.067303;-0.067303;1.000000
445649.39010056;5696605.81999786;470.90464999;95;91;85;23387.000000;1.000000;1.000000;1.000000;1.000000;-0.143376;0.143376;-0.143376;1.000000
445649.38280304;5696605.77139862;470.91534998;93;88;88;22873.000000;1.000000;1.000000;1.000000;1.000000;-0.161342;0.161342;-0.161342;1.000000
445649.38739975;5696605.83899887;470.90004994;216;213;205;54741.000000;1.000000;1.000000;1.000000;1.000000;-0.145727;0.145727;-0.145727;1.000000
445649.60430344;5696606.03380020;470.90054991;38;40;46;10280.000000;1.000000;1.000000;1.000000;1.000000;-0.008678;0.008678;-0.008678;1.000000
445649.36380203;5696605.78969772;470.90774991;131;128;127;32896.000000;1.000000;1.000000;1.000000;1.000000;-0.174055;0.174055;-0.174055;1.000000
445649.37320145;5696605.99419983;470.91524984;132;132;129;33667.000000;1.000000;1.000000;1.000000;1.000000;-0.159925;0.159925;-0.159925;1.000000
445649.57190140;5696605.66749771;470.91334989;122;121;103;30583.000000;1.000000;1.000000;1.000000;1.000000;-0.162534;0.162534;-0.162534;1.000000
445649.35750015;5696605.92790039;470.91844990;87;84;86;21845.000000;1.000000;1.000000;1.000000;1.000000;-0.175627;0.175627;-0.175627;1.000000
445649.55590256;5696605.67579849;470.92205002;91;92;69;22873.000000;1.000000;1.000000;1.000000;1.000000;-0.154202;0.154202;-0.154202;1.000000
445649.55529984;5696605.64100082;470.91464998;122;121;98;30326.000000;1.000000;1.000000;1.000000;1.000000;-0.188999;0.188999;-0.188999;1.000000
445649.57710083;5696606.02210052;470.91084983;191;194;197;49601.000000;1.000000;1.000000;1.000000;1.000000;0.018524;-0.018524;0.018524;1.000000
445649.57830246;5696605.98459824;470.91045000;113;115;108;29041.000000;1.000000;1.000000;1.000000;1.000000;0.024687;-0.024687;0.024687;1.000000
445649.36240204;5696605.84599884;470.89905002;143;140;128;35723.000000;1.000000;1.000000;1.000000;1.000000;-0.170725;0.170725;-0.170725;1.000000
445649.36120041;5696605.80869873;470.90084984;81;76;68;19532.000000;1.000000;1.000000;1.000000;1.000000;-0.173241;0.173241;-0.173241;1.000000
445649.41040237;5696605.77329834;470.92824986;77;77;76;19532.000000;1.000000;1.000000;1.000000;1.000000;-0.135190;0.135190;-0.135190;1.000000
445649.41150101;5696605.73579987;470.93024995;64;62;55;15677.000000;1.000000;1.000000;1.000000;1.000000;-0.153839;0.153839;-0.153839;1.000000
445649.34130295;5696605.90149887;470.91275002;131;130;130;33410.000000;1.000000;1.000000;1.000000;1.000000;-0.191824;0.191824;-0.191824;1.000000
445649.42810257;5696605.76460083;470.93365004;132;131;129;33667.000000;1.000000;1.000000;1.000000;1.000000;-0.123722;0.123722;-0.123722;1.000000
445649.52110107;5696606.00149735;470.91734983;112;114;114;29041.000000;1.000000;1.000000;1.000000;1.000000;-0.012026;0.012026;-0.012026;1.000000
445649.54420288;5696605.88989838;470.89844992;41;39;39;10023.000000;1.000000;1.000000;1.000000;1.000000;0.011076;-0.011076;0.011076;1.000000
445649.40800293;5696606.01439865;470.91004993;86;84;84;21588.000000;1.000000;1.000000;1.000000;1.000000;-0.125124;0.125124;-0.125124;1.000000
445649.48340042;5696606.01909836;470.90884997;46;46;46;11822.000000;1.000000;1.000000;1.000000;1.000000;-0.049726;0.049726;-0.049726;1.000000
445649.59600266;5696606.02269943;470.90704991;118;121;126;30840.000000;1.000000;1.000000;1.000000;1.000000;-0.000378;0.000378;-0.000378;1.000000
445649.39780243;5696605.78399857;470.91855003;58;53;54;13878.000000;1.000000;1.000000;1.000000;1.000000;-0.142930;0.142930;-0.142930;1.000000
445649.45060165;5696605.94280060;470.90645005;125;125;127;32125.000000;1.000000;1.000000;1.000000;1.000000;-0.082525;0.082525;-0.082525;1.000000
445649.41410263;5696605.90410049;470.90905001;162;163;163;41634.000000;1.000000;1.000000;1.000000;1.000000;-0.119024;0.119024;-0.119024;1.000000
445649.48930176;5696605.90649994;470.90544989;140;143;144;36494.000000;1.000000;1.000000;1.000000;1.000000;-0.043825;0.043825;-0.043825;1.000000
445649.52480133;5696605.91029938;470.90474989;102;101;99;25957.000000;1.000000;1.000000;1.000000;1.000000;-0.008326;0.008326;-0.008326;1.000000
445649.36460312;5696606.00429733;470.91964986;171;172;169;43947.000000;1.000000;1.000000;1.000000;1.000000;-0.168524;0.168524;-0.168524;1.000000
445649.54770096;5696606.01069839;470.91634991;191;194;194;49601.000000;1.000000;1.000000;1.000000;1.000000;0.014574;-0.014574;0.014574;1.000000
445649.55100067;5696605.97299774;470.92074992;112;115;108;29041.000000;1.000000;1.000000;1.000000;1.000000;0.017874;-0.017874;0.017874;1.000000
445649.44690140;5696605.85659988;470.91464998;52;49;48;12593.000000;1.000000;1.000000;1.000000;1.000000;-0.086226;0.086226;-0.086226;1.000000
445649.40710266;5696605.82769974;470.90785005;125;121;118;31097.000000;1.000000;1.000000;1.000000;1.000000;-0.126045;0.126045;-0.126045;1.000000
445649.56540115;5696605.64710052;470.91045000;93;90;72;22616.000000;1.000000;1.000000;1.000000;1.000000;-0.182902;0.182902;-0.182902;1.000000
445649.51460083;5696605.69339951;470.94135000;170;175;151;43690.000000;1.000000;1.000000;1.000000;1.000000;-0.137851;0.137851;-0.137851;1.000000
445649.38840302;5696606.03249939;470.91634991;135;135;132;34438.000000;1.000000;1.000000;1.000000;1.000000;-0.144724;0.144724;-0.144724;1.000000
445649.53880127;5696606.03959854;470.91394999;161;165;169;42148.000000;1.000000;1.000000;1.000000;1.000000;0.005674;-0.005674;0.005674;1.000000
445649.50130280;5696606.03840073;470.91454985;181;184;183;46774.000000;1.000000;1.000000;1.000000;1.000000;-0.031824;0.031824;-0.031824;1.000000
445649.38660248;5696605.88329895;470.90754988;199;199;196;50886.000000;1.000000;1.000000;1.000000;1.000000;-0.146524;0.146524;-0.146524;1.000000
445649.36499985;5696605.73329742;470.91874983;68;63;63;16448.000000;1.000000;1.000000;1.000000;1.000000;-0.193954;0.193954;-0.193954;1.000000
