//X;Y;Z;R;G;B;Intensity;Return Number;Number Of Returns;Scan Direction Flag;Point Source ID;C2M signed distances[-][<0.8];C2M signed distances[<0.4];C2M signed distances[-][<0.2];Stump61
445637.53630264;5696554.49219902;470.64794995;154;155;148;39321.000000;1.000000;1.000000;1.000000;1.000000;-0.162199;0.162199;-0.162199;1.000000
445637.31530197;5696554.44669922;470.68394997;149;145;117;36751.000000;1.000000;1.000000;1.000000;1.000000;-0.116699;0.116699;-0.116699;1.000000
445637.48030289;5696554.52739914;470.66674997;80;82;72;20560.000000;1.000000;1.000000;1.000000;1.000000;-0.197399;0.197399;-0.197399;1.000000
445637.10799988;5696554.51239975;470.70105006;141;139;113;34952.000000;1.000000;1.000000;1.000000;1.000000;-0.199730;0.199730;-0.199730;1.000000
445637.40770157;5696554.45009811;470.66485002;119;107;85;27756.000000;1.000000;1.000000;1.000000;1.000000;-0.120099;0.120099;-0.120099;1.000000
445637.14669998;5696554.47609909;470.69995000;110;106;90;26985.000000;1.000000;1.000000;1.000000;1.000000;-0.152205;0.152205;-0.152205;1.000000
445637.18660172;5696554.40229996;470.69855000;81;68;55;17990.000000;1.000000;1.000000;1.000000;1.000000;-0.072353;0.072353;-0.072353;1.000000
445637.22430237;5696554.40579803;470.70034983;109;95;80;24929.000000;1.000000;1.000000;1.000000;1.000000;-0.075798;0.075798;-0.075798;1.000000
445637.52550323;5696554.34389885;470.63164999;77;76;71;19275.000000;1.000000;1.000000;1.000000;1.000000;-0.013899;0.013899;-0.013899;1.000000
445637.03890045;5696554.39729889;470.69884994;143;142;129;35980.000000;1.000000;1.000000;1.000000;1.000000;-0.164840;0.164840;-0.164840;1.000000
445637.52670105;5696554.30649956;470.63124992;74;75;70;19018.000000;1.000000;1.000000;1.000000;1.000000;0.023500;-0.023500;0.023500;1.000000
445637.45250137;5696554.30349930;470.66284992;133;131;118;33410.000000;1.000000;1.000000;1.000000;1.000000;0.026501;-0.026501;0.026501;1.000000
445637.08510025;5696554.17629822;470.66564991;156;151;134;38550.000000;1.000000;1.000000;1.000000;1.000000;-0.106866;0.106866;-0.106866;1.000000
445637.05240067;5696554.10000046;470.66334989;137;127;109;32896.000000;1.000000;1.000000;1.000000;1.000000;-0.136976;0.136976;-0.136976;1.000000
445637.20060165;5696554.06809814;470.62765004;111;110;97;27756.000000;1.000000;1.000000;1.000000;1.000000;0.011225;-0.011225;0.011225;1.000000
445637.01710327;5696554.02379807;470.66544988;129;129;106;32382.000000;1.000000;1.000000;1.000000;1.000000;-0.172274;0.172274;-0.172274;1.000000
445637.13240250;5696553.99029930;470.63065006;122;113;92;29041.000000;1.000000;1.000000;1.000000;1.000000;-0.056974;0.056974;-0.056974;1.000000
445637.31580170;5696554.42569931;470.68144991;172;165;140;42148.000000;1.000000;1.000000;1.000000;1.000000;-0.095699;0.095699;-0.095699;1.000000
445637.50420197;5696554.39939888;470.64765002;72;70;62;17733.000000;1.000000;1.000000;1.000000;1.000000;-0.069399;0.069399;-0.069399;1.000000
445637.50320251;5696554.36219986;470.64485003;99;98;90;24929.000000;1.000000;1.000000;1.000000;1.000000;-0.032200;0.032200;-0.032200;1.000000
445637.04560287;5696554.44349869;470.69735004;177;176;163;44718.000000;1.000000;1.000000;1.000000;1.000000;-0.183175;0.183175;-0.183175;1.000000
445637.52540024;5696554.50249870;470.65214993;159;161;152;40863.000000;1.000000;1.000000;1.000000;1.000000;-0.172499;0.172499;-0.172499;1.000000
445637.15830048;5696554.44940002;470.69785001;170;165;154;42405.000000;1.000000;1.000000;1.000000;1.000000;-0.123378;0.123378;-0.123378;1.000000
445637.09880264;5696554.30559929;470.68184998;141;126;110;32896.000000;1.000000;1.000000;1.000000;1.000000;0.093803;-0.093803;0.093803;1.000000
445637.59040268;5696554.32889946;470.61115005;75;74;68;18761.000000;1.000000;1.000000;1.000000;1.000000;0.001101;-0.001101;0.001101;1.000000
445637.03750046;5696554.43249901;470.69914987;124;123;110;31097.000000;1.000000;1.000000;1.000000;1.000000;-0.183228;0.183228;-0.183228;1.000000
445637.37360199;5696554.41119965;470.66524984;108;100;74;25443.000000;1.000000;1.000000;1.000000;1.000000;-0.081266;0.081266;-0.081266;1.000000
445637.15900238;5696554.21619995;470.66485002;189;179;163;46260.000000;1.000000;1.000000;1.000000;1.000000;-0.070202;0.070202;-0.070202;1.000000
445637.19440277;5696554.21769913;470.66184999;166;152;133;39578.000000;1.000000;1.000000;1.000000;1.000000;0.065044;-0.065044;0.065044;1.000000
445637.19820221;5696554.14309891;470.62844994;170;162;148;41634.000000;1.000000;1.000000;1.000000;1.000000;0.008825;-0.008825;0.008825;1.000000
445637.05140121;5696554.06279953;470.66045000;93;86;61;21845.000000;1.000000;1.000000;1.000000;1.000000;-0.137976;0.137976;-0.137976;1.000000
445637.16680344;5696554.02929886;470.62334992;119;109;94;28270.000000;1.000000;1.000000;1.000000;1.000000;-0.022573;0.022573;-0.022573;1.000000
445637.24820145;5696554.51779945;470.71435000;110;113;104;28527.000000;1.000000;1.000000;1.000000;1.000000;-0.187835;0.187835;-0.187835;1.000000
445637.28350266;5696554.51930054;470.71134998;224;227;222;57825.000000;1.000000;1.000000;1.000000;1.000000;-0.189301;0.189301;-0.189301;1.000000
445637.39540298;5696554.52350052;470.67454984;120;118;96;29812.000000;1.000000;1.000000;1.000000;1.000000;-0.193501;0.193501;-0.193501;1.000000
445637.58390244;5696554.49499901;470.63374998;121;121;116;30840.000000;1.000000;1.000000;1.000000;1.000000;-0.164999;0.164999;-0.164999;1.000000
445637.50890167;5696554.52960022;470.65874984;138;138;131;35209.000000;1.000000;1.000000;1.000000;1.000000;-0.199600;0.199600;-0.199600;1.000000
445637.51000031;5696554.49209793;470.66065003;127;128;119;32382.000000;1.000000;1.000000;1.000000;1.000000;-0.162098;0.162098;-0.162098;1.000000
445637.47490128;5696554.41589935;470.65824987;89;87;78;22102.000000;1.000000;1.000000;1.000000;1.000000;-0.085899;0.085899;-0.085899;1.000000
445637.39970215;5696554.41129883;470.65704991;99;91;65;23130.000000;1.000000;1.000000;1.000000;1.000000;-0.081342;0.081342;-0.081342;1.000000
445637.17630203;5696554.44069870;470.69624998;74;67;59;17476.000000;1.000000;1.000000;1.000000;1.000000;-0.111468;0.111468;-0.111468;1.000000
445637.13850220;5696554.43719872;470.69684984;171;166;154;42662.000000;1.000000;1.000000;1.000000;1.000000;-0.118658;0.118658;-0.118658;1.000000
445637.25250061;5696554.40559967;470.69694998;151;139;125;36237.000000;1.000000;1.000000;1.000000;1.000000;-0.075600;0.075600;-0.075600;1.000000
445637.13990219;5696554.40199860;470.69645001;173;164;151;42405.000000;1.000000;1.000000;1.000000;1.000000;-0.087359;0.087359;-0.087359;1.000000
445637.59270294;5696554.30529984;470.61564996;36;36;31;8995.000000;1.000000;1.000000;1.000000;1.000000;0.024700;-0.024700;0.024700;1.000000
445637.18130310;5696554.29080017;470.69004991;155;139;125;36494.000000;1.000000;1.000000;1.000000;1.000000;0.040023;-0.040023;0.040023;1.000000
445637.14590271;5696554.28940018;470.69304993;96;79;65;21074.000000;1.000000;1.000000;1.000000;1.000000;0.059484;-0.059484;0.059484;1.000000
445637.26010330;5696554.21859940;470.65774991;150;135;120;35209.000000;1.000000;1.000000;1.000000;1.000000;0.096623;-0.096623;0.096623;1.000000
445637.22270020;5696554.21749886;470.65604999;121;106;87;27756.000000;1.000000;1.000000;1.000000;1.000000;0.072835;-0.072835;0.072835;1.000000
445637.17490204;5696554.27049835;470.68485000;108;91;75;24158.000000;1.000000;1.000000;1.000000;1.000000;0.061237;-0.061237;0.061237;1.000000
445637.29310043;5696554.52079971;470.70945003;203;206;200;52428.000000;1.000000;1.000000;1.000000;1.000000;-0.190800;0.190800;-0.190800;1.000000
445637.32500275;5696554.20579918;470.64424994;168;154;135;40092.000000;1.000000;1.000000;1.000000;1.000000;0.124201;-0.124201;0.124201;1.000000
445637.29960068;5696554.14789780;470.61914994;87;78;58;20046.000000;1.000000;1.000000;1.000000;1.000000;0.110224;-0.110224;0.110224;1.000000
445637.11340149;5696554.17619904;470.65995004;164;158;141;40349.000000;1.000000;1.000000;1.000000;1.000000;-0.079496;0.079496;-0.079496;1.000000
445637.22650345;5696554.14290054;470.62275006;174;164;150;42405.000000;1.000000;1.000000;1.000000;1.000000;0.037127;-0.037127;0.037127;1.000000
445637.11499985;5696554.14099892;470.65494992;138;135;121;34438.000000;1.000000;1.000000;1.000000;1.000000;-0.074377;0.074377;-0.074377;1.000000
445637.26580246;5696554.10899933;470.61485006;109;101;89;26214.000000;1.000000;1.000000;1.000000;1.000000;0.076426;-0.076426;0.076426;1.000000
445637.22250183;5696554.44089897;470.70994999;117;112;105;28784.000000;1.000000;1.000000;1.000000;1.000000;-0.110899;0.110899;-0.110899;1.000000
445637.30440338;5696554.07269867;470.61614992;40;37;26;9252.000000;1.000000;1.000000;1.000000;1.000000;0.115026;-0.115026;0.115026;1.000000
445637.23230179;5696554.03019913;470.62404992;176;172;160;43947.000000;1.000000;1.000000;1.000000;1.000000;0.042925;-0.042925;0.042925;1.000000
445637.19250305;5696554.02929886;470.62224986;106;100;86;25700.000000;1.000000;1.000000;1.000000;1.000000;0.003126;-0.003126;0.003126;1.000000
445637.40500076;5696554.52499969;470.67264988;115;114;96;28784.000000;1.000000;1.000000;1.000000;1.000000;-0.195025;0.195025;-0.195025;1.000000
445637.37050064;5696554.48369797;470.67754986;139;136;121;34695.000000;1.000000;1.000000;1.000000;1.000000;-0.153769;0.153769;-0.153769;1.000000
445637.55600174;5696554.47410019;470.63925006;90;89;84;22616.000000;1.000000;1.000000;1.000000;1.000000;-0.144343;0.144343;-0.144343;1.000000
445637.22030075;5696554.51589783;470.70614984;118;117;99;29555.000000;1.000000;1.000000;1.000000;1.000000;-0.185898;0.185898;-0.185898;1.000000
445637.55540283;5696554.49289902;470.63944985;122;123;116;31097.000000;1.000000;1.000000;1.000000;1.000000;-0.163146;0.163146;-0.163146;1.000000
445637.22160156;5696554.47839935;470.70344998;161;159;146;40606.000000;1.000000;1.000000;1.000000;1.000000;-0.148399;0.148399;-0.148399;1.000000
445637.56440170;5696554.30769928;470.62605001;58;60;56;14906.000000;1.000000;1.000000;1.000000;1.000000;0.022301;-0.022301;0.022301;1.000000
445637.33440216;5696554.44739922;470.67785003;146;142;113;35980.000000;1.000000;1.000000;1.000000;1.000000;-0.117399;0.117399;-0.117399;1.000000
445637.56509979;5696554.52229889;470.64024999;115;115;108;29298.000000;1.000000;1.000000;1.000000;1.000000;-0.192299;0.192299;-0.192299;1.000000
445637.56540115;5696554.44759949;470.63474991;55;56;55;14135.000000;1.000000;1.000000;1.000000;1.000000;-0.117599;0.117599;-0.117599;1.000000
445637.43520172;5696554.46859940;470.66404988;133;129;117;32896.000000;1.000000;1.000000;1.000000;1.000000;-0.138662;0.138662;-0.138662;1.000000
445637.55790146;5696554.21479996;470.62924983;50;49;48;12593.000000;1.000000;1.000000;1.000000;1.000000;0.115382;-0.115382;0.115382;1.000000
445637.17230042;5696554.09399994;470.63605000;111;109;98;27756.000000;1.000000;1.000000;1.000000;1.000000;-0.017076;0.017076;-0.017076;1.000000
445637.12140091;5696554.21269806;470.66314985;179;167;151;43176.000000;1.000000;1.000000;1.000000;1.000000;-0.090551;0.090551;-0.090551;1.000000
445637.41360291;5696554.33749969;470.66384985;71;62;50;16191.000000;1.000000;1.000000;1.000000;1.000000;-0.007500;0.007500;-0.007500;1.000000
445637.56550034;5696554.27019890;470.62794997;159;160;151;40606.000000;1.000000;1.000000;1.000000;1.000000;0.059801;-0.059801;0.059801;1.000000
445637.52930267;5696554.28739937;470.63815000;95;93;84;23644.000000;1.000000;1.000000;1.000000;1.000000;0.042601;-0.042601;0.042601;1.000000
445637.40279968;5696554.42029961;470.65964987;105;94;67;24158.000000;1.000000;1.000000;1.000000;1.000000;-0.090457;0.090457;-0.090457;1.000000
445637.13710220;5696554.44669922;470.69684984;171;166;154;42662.000000;1.000000;1.000000;1.000000;1.000000;-0.127872;0.127872;-0.127872;1.000000
445637.17690094;5696554.44759949;470.69634988;89;83;73;21331.000000;1.000000;1.000000;1.000000;1.000000;-0.118259;0.118259;-0.118259;1.000000
445637.14090164;5696554.41129883;470.69435002;150;143;132;36751.000000;1.000000;1.000000;1.000000;1.000000;-0.094654;0.094654;-0.094654;1.000000
445637.21710022;5696554.37619980;470.69494988;122;104;88;27499.000000;1.000000;1.000000;1.000000;1.000000;-0.046334;0.046334;-0.046334;1.000000
445637.06680115;5696554.36909874;470.69514992;150;149;136;37779.000000;1.000000;1.000000;1.000000;1.000000;-0.128661;0.128661;-0.128661;1.000000
445637.03300293;5696554.33029945;470.69074990;131;128;112;32639.000000;1.000000;1.000000;1.000000;1.000000;-0.156374;0.156374;-0.156374;1.000000
445637.10580261;5696554.33519943;470.69184997;131;120;109;31354.000000;1.000000;1.000000;1.000000;1.000000;-0.083736;0.083736;-0.083736;1.000000
445637.18080338;5696554.33759888;470.69284989;43;28;19;7967.000000;1.000000;1.000000;1.000000;1.000000;-0.011456;0.011456;-0.011456;1.000000
445637.18200119;5696554.30010040;470.69254996;98;83;71;22102.000000;1.000000;1.000000;1.000000;1.000000;0.030796;-0.030796;0.030796;1.000000
445637.14450272;5696554.29889877;470.69315006;79;62;50;16705.000000;1.000000;1.000000;1.000000;1.000000;0.054598;-0.054598;0.054598;1.000000
445637.33410080;5696554.23289879;470.65435006;141;125;109;32896.000000;1.000000;1.000000;1.000000;1.000000;0.097101;-0.097101;0.097101;1.000000
445637.22330292;5696554.22669800;470.66084983;134;117;99;30840.000000;1.000000;1.000000;1.000000;1.000000;0.081285;-0.081285;0.081285;1.000000
445637.56670197;5696554.23269852;470.62754991;73;72;67;18247.000000;1.000000;1.000000;1.000000;1.000000;0.097301;-0.097301;0.097301;1.000000
445637.05580338;5696554.19289978;470.67625000;143;139;123;35466.000000;1.000000;1.000000;1.000000;1.000000;-0.139367;0.139367;-0.139367;1.000000
445637.17020233;5696554.12219818;470.63625004;161;156;144;40092.000000;1.000000;1.000000;1.000000;1.000000;-0.019175;0.019175;-0.019175;1.000000
445637.35170181;5696554.45739944;470.67645003;155;147;122;37522.000000;1.000000;1.000000;1.000000;1.000000;-0.127399;0.127399;-0.127399;1.000000
445637.13599976;5696554.08329971;470.64124991;201;199;185;50886.000000;1.000000;1.000000;1.000000;1.000000;-0.053377;0.053377;-0.053377;1.000000
445637.03960236;5696554.37859924;470.69634988;149;147;133;37522.000000;1.000000;1.000000;1.000000;1.000000;-0.157462;0.157462;-0.157462;1.000000
445637.48360260;5696554.43379791;470.65884997;102;101;92;25700.000000;1.000000;1.000000;1.000000;1.000000;-0.103798;0.103798;-0.103798;1.000000
445637.11230286;5696554.38119896;470.69494988;144;137;122;35209.000000;1.000000;1.000000;1.000000;1.000000;-0.092530;0.092530;-0.092530;1.000000
445637.59550293;5696554.43809898;470.62194993;60;60;56;15163.000000;1.000000;1.000000;1.000000;1.000000;-0.108099;0.108099;-0.108099;1.000000
445637.15100296;5696554.34490021;470.69624998;112;99;88;25957.000000;1.000000;1.000000;1.000000;1.000000;-0.041165;0.041165;-0.041165;1.000000
445637.18869980;5696554.34619911;470.69104983;47;30;22;8738.000000;1.000000;1.000000;1.000000;1.000000;-0.016213;0.016213;-0.016213;1.000000
445637.56060226;5696554.36419876;470.61955001;138;139;134;35466.000000;1.000000;1.000000;1.000000;1.000000;-0.034406;0.034406;-0.034406;1.000000
445637.19009979;5696554.31099899;470.69065001;62;47;37;12850.000000;1.000000;1.000000;1.000000;1.000000;0.019001;-0.019001;0.019001;1.000000
445637.48610123;5696554.35890015;470.65575006;73;71;63;17990.000000;1.000000;1.000000;1.000000;1.000000;-0.028900;0.028900;-0.028900;1.000000
445637.12190063;5696554.40839966;470.69575002;156;151;138;38807.000000;1.000000;1.000000;1.000000;1.000000;-0.103439;0.103439;-0.103439;1.000000
445637.45680054;5696554.42230042;470.65744998;211;208;196;53199.000000;1.000000;1.000000;1.000000;1.000000;-0.092300;0.092300;-0.092300;1.000000
445637.49230011;5696554.42599876;470.65674998;86;85;76;21588.000000;1.000000;1.000000;1.000000;1.000000;-0.096011;0.096011;-0.096011;1.000000
445637.48530014;5696554.32399948;470.65294983;44;43;37;10794.000000;1.000000;1.000000;1.000000;1.000000;0.006001;-0.006001;0.006001;1.000000
445637.60430344;5696554.43029984;470.61765005;84;84;79;21331.000000;1.000000;1.000000;1.000000;1.000000;-0.100300;0.100300;-0.100300;1.000000
445637.56170090;5696554.32670029;470.62144997;36;36;33;8995.000000;1.000000;1.000000;1.000000;1.000000;0.004248;-0.004248;0.004248;1.000000
445637.03670319;5696554.22019775;470.68964984;201;200;188;50886.000000;1.000000;1.000000;1.000000;1.000000;-0.166644;0.166644;-0.166644;1.000000
445637.23370178;5696554.37710007;470.69104983;85;67;49;17990.000000;1.000000;1.000000;1.000000;1.000000;-0.047100;0.047100;-0.047100;1.000000
445637.12470062;5696554.33579834;470.69034984;141;129;117;33667.000000;1.000000;1.000000;1.000000;1.000000;-0.064936;0.064936;-0.064936;1.000000
445637.16190155;5696554.33689888;470.69665005;107;93;82;24415.000000;1.000000;1.000000;1.000000;1.000000;-0.028328;0.028328;-0.028328;1.000000
445637.45829971;5696554.38709839;470.65715005;183;181;171;46260.000000;1.000000;1.000000;1.000000;1.000000;-0.057098;0.057098;-0.057098;1.000000
445637.45930298;5696554.34959991;470.65905001;180;177;169;45489.000000;1.000000;1.000000;1.000000;1.000000;-0.019600;0.019600;-0.019600;1.000000
445637.30010040;5696554.15479858;470.62395002;103;91;70;23644.000000;1.000000;1.000000;1.000000;1.000000;0.110757;-0.110757;0.110757;1.000000
445637.11330231;5696554.14819916;470.65734984;143;138;122;35209.000000;1.000000;1.000000;1.000000;1.000000;-0.076075;0.076075;-0.076075;1.000000
445637.26430328;5696554.11849792;470.61485006;148;141;127;36237.000000;1.000000;1.000000;1.000000;1.000000;0.074926;-0.074926;0.074926;1.000000
445637.46270187;5696554.31189926;470.66104986;160;158;149;40349.000000;1.000000;1.000000;1.000000;1.000000;0.018373;-0.018373;0.018373;1.000000
445637.57250031;5696554.31639870;470.61955001;47;47;43;11822.000000;1.000000;1.000000;1.000000;1.000000;0.013601;-0.013601;0.013601;1.000000
445637.01790054;5696554.21959885;470.69114997;232;232;223;59367.000000;1.000000;1.000000;1.000000;1.000000;-0.183798;0.183798;-0.183798;1.000000
445637.42650040;5696554.27329834;470.65894987;155;147;133;37779.000000;1.000000;1.000000;1.000000;1.000000;0.056702;-0.056702;0.056702;1.000000
445637.38850220;5696554.26739891;470.65954997;162;150;137;39064.000000;1.000000;1.000000;1.000000;1.000000;0.062601;-0.062601;0.062601;1.000000
445637.46160324;5696554.27469833;470.66054990;154;149;138;38293.000000;1.000000;1.000000;1.000000;1.000000;0.055340;-0.055340;0.055340;1.000000
445637.46540268;5696554.23699959;470.65334990;182;178;168;45746.000000;1.000000;1.000000;1.000000;1.000000;0.093147;-0.093147;0.093147;1.000000
445637.24550064;5696554.11789902;470.61634995;107;100;87;25700.000000;1.000000;1.000000;1.000000;1.000000;0.056124;-0.056124;0.056124;1.000000
445637.06520279;5696554.03349884;470.65614988;122;125;94;30840.000000;1.000000;1.000000;1.000000;1.000000;-0.124174;0.124174;-0.124174;1.000000
445637.21370132;5696554.00399979;470.61824991;99;91;77;23387.000000;1.000000;1.000000;1.000000;1.000000;0.024324;-0.024324;0.024324;1.000000
445637.06430252;5696553.99859818;470.65564992;92;97;68;23644.000000;1.000000;1.000000;1.000000;1.000000;-0.125074;0.125074;-0.125074;1.000000
445637.28880127;5696554.00639923;470.61695005;80;78;67;19789.000000;1.000000;1.000000;1.000000;1.000000;0.099424;-0.099424;0.099424;1.000000
445637.25130280;5696554.00519951;470.61754992;138;130;118;33667.000000;1.000000;1.000000;1.000000;1.000000;0.061926;-0.061926;0.061926;1.000000
445637.30529984;5696554.08199890;470.61625006;47;44;33;11051.000000;1.000000;1.000000;1.000000;1.000000;0.115923;-0.115923;0.115923;1.000000
445637.30400284;5696554.04469879;470.61815001;82;81;73;20560.000000;1.000000;1.000000;1.000000;1.000000;0.114626;-0.114626;0.114626;1.000000
445637.08170135;5696554.03439911;470.65454986;90;90;61;22102.000000;1.000000;1.000000;1.000000;1.000000;-0.107676;0.107676;-0.107676;1.000000
445637.19510086;5696554.00339897;470.61504986;185;177;163;45489.000000;1.000000;1.000000;1.000000;1.000000;0.005724;-0.005724;0.005724;1.000000
445637.30860336;5696553.96949966;470.61975004;97;94;88;24158.000000;1.000000;1.000000;1.000000;1.000000;0.119226;-0.119226;0.119226;1.000000
445637.15610321;5696554.27210052;470.69104983;79;60;43;16191.000000;1.000000;1.000000;1.000000;1.000000;0.066779;-0.066779;0.066779;1.000000
445637.48870285;5696554.28629883;470.65494992;84;83;76;21074.000000;1.000000;1.000000;1.000000;1.000000;0.043701;-0.043701;0.043701;1.000000
445637.34220322;5696554.24379929;470.65244987;108;92;77;24415.000000;1.000000;1.000000;1.000000;1.000000;0.086269;-0.086269;0.086269;1.000000
445637.61010178;5696554.52299889;470.63065006;141;140;135;35723.000000;1.000000;1.000000;1.000000;1.000000;-0.193076;0.193076;-0.193076;1.000000
445637.45470245;5696554.24740036;470.65294983;125;117;107;30326.000000;1.000000;1.000000;1.000000;1.000000;0.082600;-0.082600;0.082600;1.000000
445637.42550095;5696554.51619919;470.66645004;105;104;90;26214.000000;1.000000;1.000000;1.000000;1.000000;-0.186199;0.186199;-0.186199;1.000000
445637.31140335;5696554.51219948;470.70085003;146;146;134;37008.000000;1.000000;1.000000;1.000000;1.000000;-0.182224;0.182224;-0.182224;1.000000
445637.42630203;5696554.47640045;470.66835000;136;132;120;33667.000000;1.000000;1.000000;1.000000;1.000000;-0.146400;0.146400;-0.146400;1.000000
445637.12580307;5696554.50369843;470.70175006;156;153;135;38807.000000;1.000000;1.000000;1.000000;1.000000;-0.184967;0.184967;-0.184967;1.000000
445637.49210175;5696554.24849899;470.65695002;85;78;70;20303.000000;1.000000;1.000000;1.000000;1.000000;0.081511;-0.081511;0.081511;1.000000
445637.39030273;5696554.43999870;470.66634991;120;105;77;27242.000000;1.000000;1.000000;1.000000;1.000000;-0.109999;0.109999;-0.109999;1.000000
445637.49110229;5696554.21129807;470.65185000;47;44;38;11308.000000;1.000000;1.000000;1.000000;1.000000;0.118702;-0.118702;0.118702;1.000000
445637.23680313;5696554.12570007;470.61835005;111;101;87;26214.000000;1.000000;1.000000;1.000000;1.000000;0.047426;-0.047426;0.047426;1.000000
445637.09080322;5696554.08249863;470.65555002;159;152;134;39064.000000;1.000000;1.000000;1.000000;1.000000;-0.098574;0.098574;-0.098574;1.000000
445637.05440338;5696554.04379852;470.65804984;85;85;52;20817.000000;1.000000;1.000000;1.000000;1.000000;-0.134974;0.134974;-0.134974;1.000000
445637.09200104;5696554.04509933;470.65514996;74;71;45;17733.000000;1.000000;1.000000;1.000000;1.000000;-0.097376;0.097376;-0.097376;1.000000
445637.35740097;5696554.36359985;470.66855003;121;107;94;28013.000000;1.000000;1.000000;1.000000;1.000000;-0.033600;0.033600;-0.033600;1.000000
445637.20300110;5696554.01439865;470.61784985;119;110;96;28527.000000;1.000000;1.000000;1.000000;1.000000;0.013624;-0.013624;0.013624;1.000000
445637.21290024;5696554.46059998;470.70274999;73;69;60;17733.000000;1.000000;1.000000;1.000000;1.000000;-0.130642;0.130642;-0.130642;1.000000
445637.02869995;5696554.41459854;470.70094993;158;157;143;39835.000000;1.000000;1.000000;1.000000;1.000000;-0.181587;0.181587;-0.181587;1.000000
445637.51680191;5696554.32609947;470.63104989;58;58;51;14649.000000;1.000000;1.000000;1.000000;1.000000;0.003901;-0.003901;0.003901;1.000000
445637.53090103;5696553.95170029;470.73674991;137;132;103;33410.000000;1.000000;1.000000;1.000000;1.000000;0.121700;-0.121700;0.121700;1.000000
445637.39400299;5696554.32989891;470.66754987;114;107;96;27499.000000;1.000000;1.000000;1.000000;1.000000;0.000101;-0.000101;0.000101;1.000000
445637.21320160;5696554.24619873;470.66765000;72;54;39;14649.000000;1.000000;1.000000;1.000000;1.000000;0.083880;-0.083880;0.083880;1.000000
445637.39890106;5696554.21549805;470.63144996;165;155;136;39835.000000;1.000000;1.000000;1.000000;1.000000;0.114517;-0.114517;0.114517;1.000000
445637.28149994;5696553.97899826;470.61864998;116;113;104;28784.000000;1.000000;1.000000;1.000000;1.000000;0.092123;-0.092123;0.092123;1.000000
445637.10270126;5696554.24009903;470.66724994;213;197;178;51143.000000;1.000000;1.000000;1.000000;1.000000;-0.122904;0.122904;-0.122904;1.000000
445637.06750305;5696554.16390045;470.66704990;151;144;127;37008.000000;1.000000;1.000000;1.000000;1.000000;-0.122365;0.122365;-0.122365;1.000000
445637.18320282;5696554.05809982;470.62914993;215;214;203;54741.000000;1.000000;1.000000;1.000000;1.000000;-0.006174;0.006174;-0.006174;1.000000
445637.03400238;5696554.05269821;470.66194989;130;126;100;31868.000000;1.000000;1.000000;1.000000;1.000000;-0.155375;0.155375;-0.155375;1.000000
445637.14700134;5696554.01939972;470.62704994;112;102;82;26214.000000;1.000000;1.000000;1.000000;1.000000;-0.042376;0.042376;-0.042376;1.000000
445637.31890305;5696554.38109787;470.67634990;49;33;23;9252.000000;1.000000;1.000000;1.000000;1.000000;-0.051098;0.051098;-0.051098;1.000000
445637.61880310;5696554.51519974;470.62864997;109;109;102;27756.000000;1.000000;1.000000;1.000000;1.000000;-0.185376;0.185376;-0.185376;1.000000
445637.11270340;5696554.19489868;470.66254999;188;182;165;46517.000000;1.000000;1.000000;1.000000;1.000000;-0.087442;0.087442;-0.087442;1.000000
445637.28240021;5696554.34239777;470.67894985;93;79;67;20817.000000;1.000000;1.000000;1.000000;1.000000;-0.012419;0.012419;-0.012419;1.000000
445637.50840195;5696554.31499870;470.63984992;62;61;53;15420.000000;1.000000;1.000000;1.000000;1.000000;0.015001;-0.015001;0.015001;1.000000
445637.09940155;5696554.25889786;470.67664983;203;178;154;46774.000000;1.000000;1.000000;1.000000;1.000000;0.114678;-0.114678;0.114678;1.000000
445637.33699997;5696554.37249954;470.67244985;60;45;35;12336.000000;1.000000;1.000000;1.000000;1.000000;-0.042569;0.042569;-0.042569;1.000000
445637.35010345;5696554.52269943;470.69344999;161;161;143;40863.000000;1.000000;1.000000;1.000000;1.000000;-0.192699;0.192699;-0.192699;1.000000
445637.52400024;5696554.30430038;470.63345005;74;74;69;18761.000000;1.000000;1.000000;1.000000;1.000000;0.025700;-0.025700;0.025700;1.000000
445637.54960068;5696554.45599945;470.64104988;72;73;69;18504.000000;1.000000;1.000000;1.000000;1.000000;-0.126218;0.126218;-0.126218;1.000000
445637.21430023;5696554.19969948;470.64855005;137;124;104;32125.000000;1.000000;1.000000;1.000000;1.000000;0.053305;-0.053305;0.053305;1.000000
445637.54850204;5696554.41879852;470.63824989;69;71;64;17733.000000;1.000000;1.000000;1.000000;1.000000;-0.089024;0.089024;-0.089024;1.000000
445637.32880219;5696554.33579834;470.67394998;103;89;77;23387.000000;1.000000;1.000000;1.000000;1.000000;-0.005798;0.005798;-0.005798;1.000000
445637.51350220;5696554.34269913;470.63574984;89;88;82;22359.000000;1.000000;1.000000;1.000000;1.000000;-0.012699;0.012699;-0.012699;1.000000
445637.29450043;5696554.29459961;470.67424991;138;124;110;32382.000000;1.000000;1.000000;1.000000;1.000000;0.035400;-0.035400;0.035400;1.000000
445637.36750229;5696554.29949959;470.67295005;85;69;54;18504.000000;1.000000;1.000000;1.000000;1.000000;0.030547;-0.030547;0.030547;1.000000
445637.40509995;5696554.30069931;470.67234995;79;68;55;17733.000000;1.000000;1.000000;1.000000;1.000000;0.029457;-0.029457;0.029457;1.000000
445637.22100266;5696554.25709923;470.67275002;73;54;40;14906.000000;1.000000;1.000000;1.000000;1.000000;0.072901;-0.072901;0.072901;1.000000
445637.25840195;5696554.25819977;470.67444994;51;36;26;10023.000000;1.000000;1.000000;1.000000;1.000000;0.071800;-0.071800;0.071800;1.000000
445637.07420166;5696554.21229942;470.67264988;152;147;129;37522.000000;1.000000;1.000000;1.000000;1.000000;-0.129515;0.129515;-0.129515;1.000000
445637.04000290;5696554.17339905;470.67524983;144;139;126;35723.000000;1.000000;1.000000;1.000000;1.000000;-0.150746;0.150746;-0.150746;1.000000
445637.06460007;5696554.18519791;470.67184999;137;132;116;33667.000000;1.000000;1.000000;1.000000;1.000000;-0.128853;0.128853;-0.128853;1.000000
445636.99400146;5696554.10529907;470.67234995;229;227;215;58082.000000;1.000000;1.000000;1.000000;1.000000;-0.195375;0.195375;-0.195375;1.000000
445637.25780304;5696554.02559860;470.61815001;67;61;48;15677.000000;1.000000;1.000000;1.000000;1.000000;0.068426;-0.068426;0.068426;1.000000
445637.44410141;5696554.22759827;470.64054992;135;127;113;32639.000000;1.000000;1.000000;1.000000;1.000000;0.102402;-0.102402;0.102402;1.000000
445637.14470108;5696554.07549866;470.63925006;189;187;173;47802.000000;1.000000;1.000000;1.000000;1.000000;-0.044676;0.044676;-0.044676;1.000000
445637.35020264;5696554.49479874;470.68374993;133;131;113;33153.000000;1.000000;1.000000;1.000000;1.000000;-0.164799;0.164799;-0.164799;1.000000
445637.12160309;5696554.02859886;470.63995006;114;106;84;26985.000000;1.000000;1.000000;1.000000;1.000000;-0.067774;0.067774;-0.067774;1.000000
445637.12050064;5696553.99129875;470.63714983;101;95;74;24158.000000;1.000000;1.000000;1.000000;1.000000;-0.068876;0.068876;-0.068876;1.000000
445637.53709991;5696554.50139816;470.64804985;153;154;148;39321.000000;1.000000;1.000000;1.000000;1.000000;-0.171398;0.171398;-0.171398;1.000000
445637.31610306;5696554.45590027;470.68645002;129;126;100;31868.000000;1.000000;1.000000;1.000000;1.000000;-0.125900;0.125900;-0.125900;1.000000
445637.05650146;5696554.43540009;470.69774987;178;177;165;44975.000000;1.000000;1.000000;1.000000;1.000000;-0.169603;0.169603;-0.169603;1.000000
445637.31380280;5696554.48409851;470.69135000;184;181;164;46260.000000;1.000000;1.000000;1.000000;1.000000;-0.154100;0.154100;-0.154100;1.000000
445637.15520294;5696554.28849991;470.69344999;120;103;89;27242.000000;1.000000;1.000000;1.000000;1.000000;0.053760;-0.053760;0.053760;1.000000
445637.09399994;5696554.43659790;470.69715001;123;122;109;30840.000000;1.000000;1.000000;1.000000;1.000000;-0.143038;0.143038;-0.143038;1.000000
445637.52309998;5696554.39769943;470.64154984;82;81;72;20560.000000;1.000000;1.000000;1.000000;1.000000;-0.067699;0.067699;-0.067699;1.000000
445637.30210312;5696554.35219772;470.67754986;80;66;56;17733.000000;1.000000;1.000000;1.000000;1.000000;-0.022198;0.022198;-0.022198;1.000000
445637.33760269;5696554.35369881;470.67225005;56;40;30;11051.000000;1.000000;1.000000;1.000000;1.000000;-0.023892;0.023892;-0.023892;1.000000
445637.30350311;5696554.31479843;470.67254998;106;92;81;24158.000000;1.000000;1.000000;1.000000;1.000000;0.015203;-0.015203;0.015203;1.000000
445637.55669983;5696554.25229843;470.62964990;76;74;68;18761.000000;1.000000;1.000000;1.000000;1.000000;0.078080;-0.078080;0.078080;1.000000
445637.33860214;5696554.31619843;470.67415001;101;84;68;22359.000000;1.000000;1.000000;1.000000;1.000000;0.014379;-0.014379;0.014379;1.000000
445637.22950180;5696554.27490051;470.67575004;73;56;43;15163.000000;1.000000;1.000000;1.000000;1.000000;0.055099;-0.055099;0.055099;1.000000
445637.28660019;5696554.28599937;470.67614986;124;108;95;28527.000000;1.000000;1.000000;1.000000;1.000000;0.044001;-0.044001;0.044001;1.000000
445637.11110123;5696554.04569824;470.64905002;108;102;76;25700.000000;1.000000;1.000000;1.000000;1.000000;-0.078276;0.078276;-0.078276;1.000000
445637.59440048;5696554.25350006;470.62675001;90;88;78;22359.000000;1.000000;1.000000;1.000000;1.000000;0.076500;-0.076500;0.076500;1.000000
445637.18070038;5696554.16089828;470.63954999;166;159;145;40863.000000;1.000000;1.000000;1.000000;1.000000;-0.012150;0.012150;-0.012150;1.000000
445637.39730270;5696554.29209908;470.67184999;114;102;87;26471.000000;1.000000;1.000000;1.000000;1.000000;0.037902;-0.037902;0.037902;1.000000
445637.61150177;5696554.48559959;470.62564995;100;99;94;25186.000000;1.000000;1.000000;1.000000;1.000000;-0.155751;0.155751;-0.155751;1.000000
445637.43150146;5696554.33109863;470.66684987;60;54;44;13878.000000;1.000000;1.000000;1.000000;1.000000;-0.003375;0.003375;-0.003375;1.000000
445637.32230194;5696554.28750046;470.66604998;140;125;112;32896.000000;1.000000;1.000000;1.000000;1.000000;0.042500;-0.042500;0.042500;1.000000
445637.26680191;5696554.27609833;470.67974998;79;65;57;17476.000000;1.000000;1.000000;1.000000;1.000000;0.053902;-0.053902;0.053902;1.000000
445637.15800293;5696554.23489960;470.67435004;156;140;121;36494.000000;1.000000;1.000000;1.000000;1.000000;-0.087607;0.087607;-0.087607;1.000000
445637.41760071;5696554.24399956;470.63954999;79;68;52;17733.000000;1.000000;1.000000;1.000000;1.000000;0.086000;-0.086000;0.086000;1.000000
445637.33979996;5696554.51199921;470.69284989;164;163;148;41377.000000;1.000000;1.000000;1.000000;1.000000;-0.182074;0.182074;-0.182074;1.000000
445637.52440079;5696554.51889999;470.65464999;145;146;139;37008.000000;1.000000;1.000000;1.000000;1.000000;-0.188900;0.188900;-0.188900;1.000000
445637.30570038;5696554.47309883;470.69315006;160;157;138;39835.000000;1.000000;1.000000;1.000000;1.000000;-0.143118;0.143118;-0.143118;1.000000
445637.08380325;5696554.42599876;470.69424989;131;130;118;32896.000000;1.000000;1.000000;1.000000;1.000000;-0.142694;0.142694;-0.142694;1.000000
445637.12650116;5696554.48499878;470.69914987;149;147;131;37265.000000;1.000000;1.000000;1.000000;1.000000;-0.167266;0.167266;-0.167266;1.000000
445637.53830154;5696554.43599899;470.64264991;90;92;87;23130.000000;1.000000;1.000000;1.000000;1.000000;-0.105999;0.105999;-0.105999;1.000000
445637.28180130;5696554.38899811;470.68645002;79;63;50;16962.000000;1.000000;1.000000;1.000000;1.000000;-0.059013;0.059013;-0.059013;1.000000
445637.20770081;5696554.34679993;470.68724992;107;90;81;24158.000000;1.000000;1.000000;1.000000;1.000000;-0.016800;0.016800;-0.016800;1.000000
445637.24550064;5696554.35039909;470.68435003;86;71;61;19018.000000;1.000000;1.000000;1.000000;1.000000;-0.020926;0.020926;-0.020926;1.000000
445637.24660309;5696554.31289871;470.68624999;124;111;102;29041.000000;1.000000;1.000000;1.000000;1.000000;0.017896;-0.017896;0.017896;1.000000
445637.58320053;5696554.32720001;470.61314990;81;81;75;20560.000000;1.000000;1.000000;1.000000;1.000000;0.002800;-0.002800;0.002800;1.000000
445637.43869980;5696554.37729843;470.65614988;59;52;39;13364.000000;1.000000;1.000000;1.000000;1.000000;-0.047303;0.047303;-0.047303;1.000000
445637.24800308;5696554.27540024;470.68124988;93;78;67;20817.000000;1.000000;1.000000;1.000000;1.000000;0.054737;-0.054737;0.054737;1.000000
445637.40340240;5696554.37589844;470.65684988;90;81;64;20817.000000;1.000000;1.000000;1.000000;1.000000;-0.046141;0.046141;-0.046141;1.000000
445637.10590179;5696554.36310013;470.69684984;190;184;171;47288.000000;1.000000;1.000000;1.000000;1.000000;-0.089798;0.089798;-0.089798;1.000000
445637.06850250;5696554.36199959;470.69505002;151;150;138;38036.000000;1.000000;1.000000;1.000000;1.000000;-0.125038;0.125038;-0.125038;1.000000
445637.36090286;5696554.24209793;470.64864995;79;62;47;16705.000000;1.000000;1.000000;1.000000;1.000000;0.087902;-0.087902;0.087902;1.000000
445637.39890106;5696554.24569901;470.64345004;124;110;93;28784.000000;1.000000;1.000000;1.000000;1.000000;0.084322;-0.084322;0.084322;1.000000
445637.02740295;5696554.19309814;470.68424990;212;211;199;53713.000000;1.000000;1.000000;1.000000;1.000000;-0.166793;0.166793;-0.166793;1.000000
445637.43620117;5696554.24689873;470.64744999;127;116;102;30069.000000;1.000000;1.000000;1.000000;1.000000;0.083162;-0.083162;0.083162;1.000000
445637.15139969;5696554.17969902;470.65474989;150;143;128;36751.000000;1.000000;1.000000;1.000000;1.000000;-0.046596;0.046596;-0.046596;1.000000
445637.23880203;5696554.48849876;470.70665004;140;139;127;35209.000000;1.000000;1.000000;1.000000;1.000000;-0.158499;0.158499;-0.158499;1.000000
445637.42740067;5696554.45999916;470.66354992;127;121;107;31097.000000;1.000000;1.000000;1.000000;1.000000;-0.129999;0.129999;-0.129999;1.000000
445637.01230057;5696554.15259941;470.67604997;209;206;195;52685.000000;1.000000;1.000000;1.000000;1.000000;-0.177076;0.177076;-0.177076;1.000000
445637.09490021;5696554.37109955;470.69875004;181;175;161;44975.000000;1.000000;1.000000;1.000000;1.000000;-0.103029;0.103029;-0.103029;1.000000
445637.28700073;5696554.20229919;470.64954998;132;114;96;30069.000000;1.000000;1.000000;1.000000;1.000000;0.109546;-0.109546;0.109546;1.000000
445637.11010178;5696554.00849922;470.64614989;88;81;61;20560.000000;1.000000;1.000000;1.000000;1.000000;-0.079275;0.079275;-0.079275;1.000000
445637.53910263;5696554.39169891;470.63514997;174;176;169;44718.000000;1.000000;1.000000;1.000000;1.000000;-0.061699;0.061699;-0.061699;1.000000
445637.32010086;5696554.34359940;470.67594983;55;42;33;11308.000000;1.000000;1.000000;1.000000;1.000000;-0.013599;0.013599;-0.013599;1.000000
445637.09810074;5696554.29640015;470.67934992;115;98;80;25957.000000;1.000000;1.000000;1.000000;1.000000;0.097264;-0.097264;0.097264;1.000000
445637.50720032;5696554.35249908;470.64024999;101;100;93;25443.000000;1.000000;1.000000;1.000000;1.000000;-0.022499;0.022499;-0.022499;1.000000
445637.28370102;5696554.30489929;470.67614986;137;123;110;32125.000000;1.000000;1.000000;1.000000;1.000000;0.025101;-0.025101;0.025101;1.000000
445637.32140167;5696554.30609901;470.67324998;132;117;103;30583.000000;1.000000;1.000000;1.000000;1.000000;0.023901;-0.023901;0.023901;1.000000
445637.35890015;5696554.30729874;470.67264988;95;80;65;21074.000000;1.000000;1.000000;1.000000;1.000000;0.022701;-0.022701;0.022701;1.000000
445637.39410217;5696554.30869873;470.67424991;96;86;71;22359.000000;1.000000;1.000000;1.000000;1.000000;0.021301;-0.021301;0.021301;1.000000
445637.21220215;5696554.26489838;470.67485001;75;55;41;15163.000000;1.000000;1.000000;1.000000;1.000000;0.065155;-0.065155;0.065155;1.000000
445637.24970062;5696554.26599892;470.67654993;58;43;31;11822.000000;1.000000;1.000000;1.000000;1.000000;0.064038;-0.064038;0.064038;1.000000
445637.28510101;5696554.26750000;470.67114999;93;77;67;20560.000000;1.000000;1.000000;1.000000;1.000000;0.062500;-0.062500;0.062500;1.000000
445637.06530197;5696554.22009857;470.67695000;170;165;147;42148.000000;1.000000;1.000000;1.000000;1.000000;-0.140984;0.140984;-0.140984;1.000000
445637.07250031;5696554.48069962;470.69665005;104;102;85;25700.000000;1.000000;1.000000;1.000000;1.000000;-0.190711;0.190711;-0.190711;1.000000
445637.41260345;5696554.34929855;470.65695002;93;84;70;21845.000000;1.000000;1.000000;1.000000;1.000000;-0.019299;0.019299;-0.019299;1.000000
445637.15380295;5696554.30029877;470.69584991;104;86;74;23130.000000;1.000000;1.000000;1.000000;1.000000;0.046343;-0.046343;0.046343;1.000000
445637.53110321;5696554.40869911;470.64205005;183;183;176;46774.000000;1.000000;1.000000;1.000000;1.000000;-0.078699;0.078699;-0.078699;1.000000
445637.42030151;5696554.40249832;470.64855005;84;73;49;18761.000000;1.000000;1.000000;1.000000;1.000000;-0.072498;0.072498;-0.072498;1.000000
445637.57360275;5696554.51219948;470.63815000;139;139;132;35466.000000;1.000000;1.000000;1.000000;1.000000;-0.182199;0.182199;-0.182199;1.000000
445637.12140091;5696554.18709953;470.66045000;193;187;171;48059.000000;1.000000;1.000000;1.000000;1.000000;-0.076132;0.076132;-0.076132;1.000000
445637.31229980;5696554.08359917;470.61894991;60;58;47;14649.000000;1.000000;1.000000;1.000000;1.000000;0.122923;-0.122923;0.122923;1.000000
445637.60640152;5696554.37419899;470.61004998;60;59;50;14906.000000;1.000000;1.000000;1.000000;1.000000;-0.044236;0.044236;-0.044236;1.000000
445637.16940125;5696554.16879852;470.64844992;161;154;139;39578.000000;1.000000;1.000000;1.000000;1.000000;-0.025736;0.025736;-0.025736;1.000000
445637.23970230;5696554.49999817;470.70914986;120;121;111;30583.000000;1.000000;1.000000;1.000000;1.000000;-0.169998;0.169998;-0.169998;1.000000
445637.53429993;5696554.26819809;470.64284994;77;75;67;19018.000000;1.000000;1.000000;1.000000;1.000000;0.061802;-0.061802;0.061802;1.000000
445637.35239990;5696554.46439941;470.67654993;160;154;132;39321.000000;1.000000;1.000000;1.000000;1.000000;-0.134399;0.134399;-0.134399;1.000000
445637.27610214;5696554.46399887;470.70805003;134;132;117;33410.000000;1.000000;1.000000;1.000000;1.000000;-0.134058;0.134058;-0.134058;1.000000
445637.35400208;5696554.42930038;470.67155005;105;96;62;24158.000000;1.000000;1.000000;1.000000;1.000000;-0.099300;0.099300;-0.099300;1.000000
445637.53970154;5696554.39859970;470.63765003;175;177;170;44975.000000;1.000000;1.000000;1.000000;1.000000;-0.068600;0.068600;-0.068600;1.000000
445637.24210175;5696554.42510040;470.70834996;147;139;126;35723.000000;1.000000;1.000000;1.000000;1.000000;-0.095108;0.095108;-0.095108;1.000000
445637.53680237;5696554.29149826;470.63395001;78;77;71;19532.000000;1.000000;1.000000;1.000000;1.000000;0.038502;-0.038502;0.038502;1.000000
445637.52150162;5696554.43509872;470.64884998;213;213;207;54484.000000;1.000000;1.000000;1.000000;1.000000;-0.105099;0.105099;-0.105099;1.000000
445637.22650345;5696554.34749802;470.68575003;134;118;108;31097.000000;1.000000;1.000000;1.000000;1.000000;-0.017498;0.017498;-0.017498;1.000000
445637.08000000;5696554.30499847;470.68324997;137;126;110;32639.000000;1.000000;1.000000;1.000000;1.000000;0.112198;-0.112198;0.112198;1.000000
445637.11510284;5696554.30639847;470.68494989;128;112;99;29555.000000;1.000000;1.000000;1.000000;1.000000;0.077934;-0.077934;0.077934;1.000000
445637.34600266;5696554.20619782;470.64524986;129;116;97;30069.000000;1.000000;1.000000;1.000000;1.000000;0.123802;-0.123802;0.123802;1.000000
445637.57300003;5696554.25079926;470.62804987;161;161;155;41120.000000;1.000000;1.000000;1.000000;1.000000;0.079201;-0.079201;0.079201;1.000000
445637.35519989;5696554.39179810;470.67114999;56;44;24;11565.000000;1.000000;1.000000;1.000000;1.000000;-0.061798;0.061798;-0.061798;1.000000
445637.50780304;5696554.35949905;470.64034988;104;103;96;26214.000000;1.000000;1.000000;1.000000;1.000000;-0.029499;0.029499;-0.029499;1.000000
445637.39510162;5696554.32029922;470.67444994;134;124;112;32125.000000;1.000000;1.000000;1.000000;1.000000;0.009701;-0.009701;0.009701;1.000000
445637.57720001;5696554.44660004;470.63054993;59;60;58;15163.000000;1.000000;1.000000;1.000000;1.000000;-0.116600;0.116600;-0.116600;1.000000
445637.20549973;5696554.43089874;470.70214989;25;18;12;4883.000000;1.000000;1.000000;1.000000;1.000000;-0.100899;0.100899;-0.100899;1.000000
445637.10010345;5696554.26819809;470.67914989;155;129;105;34438.000000;1.000000;1.000000;1.000000;1.000000;0.108578;-0.108578;0.108578;1.000000
445637.04740341;5696554.38719948;470.69674994;178;176;163;44975.000000;1.000000;1.000000;1.000000;1.000000;-0.153063;0.153063;-0.153063;1.000000
445637.45400055;5696554.44359787;470.65995004;194;190;178;48573.000000;1.000000;1.000000;1.000000;1.000000;-0.113598;0.113598;-0.113598;1.000000
445637.12260254;5696554.38970001;470.69324996;110;103;88;26471.000000;1.000000;1.000000;1.000000;1.000000;-0.089571;0.089571;-0.089571;1.000000
445637.49400146;5696554.44459923;470.65704991;130;131;122;33153.000000;1.000000;1.000000;1.000000;1.000000;-0.114644;0.114644;-0.114644;1.000000
445637.01130112;5696554.34869965;470.69004991;76;71;51;17990.000000;1.000000;1.000000;1.000000;1.000000;-0.179055;0.179055;-0.179055;1.000000
445637.27070053;5696554.39699944;470.69065001;134;120;106;31354.000000;1.000000;1.000000;1.000000;1.000000;-0.066999;0.066999;-0.066999;1.000000
445637.60500153;5696554.41160019;470.61514999;93;94;87;23644.000000;1.000000;1.000000;1.000000;1.000000;-0.081601;0.081601;-0.081601;1.000000
445637.16130264;5696554.35569962;470.69684984;70;56;45;14906.000000;1.000000;1.000000;1.000000;1.000000;-0.038061;0.038061;-0.038061;1.000000
445637.19910248;5696554.35689934;470.69164993;106;90;81;23901.000000;1.000000;1.000000;1.000000;1.000000;-0.026899;0.026899;-0.026899;1.000000
445637.45870026;5696554.36839874;470.65925004;179;176;166;44975.000000;1.000000;1.000000;1.000000;1.000000;-0.038399;0.038399;-0.038399;1.000000
445637.57200058;5696554.33519943;470.61734988;82;82;78;20817.000000;1.000000;1.000000;1.000000;1.000000;-0.005199;0.005199;-0.005199;1.000000
445637.01710327;5696554.23819931;470.69595005;179;179;169;45489.000000;1.000000;1.000000;1.000000;1.000000;-0.191953;0.191953;-0.191953;1.000000
445637.31450089;5696554.25099953;470.65835001;64;49;39;13364.000000;1.000000;1.000000;1.000000;1.000000;0.079000;-0.079000;0.079000;1.000000
445637.34990128;5696554.25239952;470.65524985;65;49;36;13364.000000;1.000000;1.000000;1.000000;1.000000;0.077600;-0.077600;0.077600;1.000000
445637.42760284;5696554.25689896;470.65185000;139;130;115;33667.000000;1.000000;1.000000;1.000000;1.000000;0.073101;-0.073101;0.073101;1.000000
445637.50220306;5696554.25689896;470.65754988;116;110;99;28270.000000;1.000000;1.000000;1.000000;1.000000;0.073101;-0.073101;0.073101;1.000000
445637.27840240;5696554.21229942;470.65384986;144;127;109;33410.000000;1.000000;1.000000;1.000000;1.000000;0.107140;-0.107140;0.107140;1.000000
445637.46619995;5696554.22059830;470.65314986;199;196;184;50115.000000;1.000000;1.000000;1.000000;1.000000;0.109491;-0.109491;0.109491;1.000000
445637.50150116;5696554.22199829;470.65244987;22;18;13;4626.000000;1.000000;1.000000;1.000000;1.000000;0.108002;-0.108002;0.108002;1.000000
445637.09539993;5696554.13119896;470.65634992;157;150;133;38550.000000;1.000000;1.000000;1.000000;1.000000;-0.093977;0.093977;-0.093977;1.000000
445637.24610336;5696554.09910019;470.61614992;134;129;117;33153.000000;1.000000;1.000000;1.000000;1.000000;0.056726;-0.056726;0.056726;1.000000
445637.06220062;5696554.05249985;470.65855004;97;94;62;23387.000000;1.000000;1.000000;1.000000;1.000000;-0.127176;0.127176;-0.127176;1.000000
445637.06369980;5696554.01729782;470.65584995;119;124;94;30583.000000;1.000000;1.000000;1.000000;1.000000;-0.125677;0.125677;-0.125677;1.000000
445637.17690094;5696553.98409851;470.61634995;218;207;190;53456.000000;1.000000;1.000000;1.000000;1.000000;-0.012476;0.012476;-0.012476;1.000000
445637.25190170;5696553.98649796;470.61734988;105;101;90;25700.000000;1.000000;1.000000;1.000000;1.000000;0.062525;-0.062525;0.062525;1.000000
445637.28700073;5696553.98789795;470.61905005;157;156;147;39835.000000;1.000000;1.000000;1.000000;1.000000;0.097624;-0.097624;0.097624;1.000000
445637.31360062;5696554.07179840;470.61885001;68;66;56;16705.000000;1.000000;1.000000;1.000000;1.000000;0.124224;-0.124224;0.124224;1.000000
445637.52530106;5696554.52809914;470.65485003;132;132;124;33667.000000;1.000000;1.000000;1.000000;1.000000;-0.198099;0.198099;-0.198099;1.000000
445637.30420120;5696554.48259933;470.69554998;183;181;165;46003.000000;1.000000;1.000000;1.000000;1.000000;-0.152602;0.152602;-0.152602;1.000000
445637.15870102;5696554.40259941;470.69735004;175;165;153;42662.000000;1.000000;1.000000;1.000000;1.000000;-0.078814;0.078814;-0.078814;1.000000
445637.17450150;5696554.23569878;470.67275002;114;98;80;25700.000000;1.000000;1.000000;1.000000;1.000000;-0.083956;0.083956;-0.083956;1.000000
445637.42240341;5696554.37649925;470.65304996;65;55;39;14392.000000;1.000000;1.000000;1.000000;1.000000;-0.046499;0.046499;-0.046499;1.000000
445637.12479980;5696554.36379822;470.69304993;173;162;148;41891.000000;1.000000;1.000000;1.000000;1.000000;-0.072887;0.072887;-0.072887;1.000000
445637.08699997;5696554.36019905;470.69595005;192;190;176;48573.000000;1.000000;1.000000;1.000000;1.000000;-0.106738;0.106738;-0.106738;1.000000
445637.16340073;5696554.32739838;470.69665005;111;95;85;25186.000000;1.000000;1.000000;1.000000;1.000000;0.026106;-0.026106;0.026106;1.000000
445637.23310287;5696554.20030029;470.64704992;127;111;89;29041.000000;1.000000;1.000000;1.000000;1.000000;0.064746;-0.064746;0.064746;1.000000
445637.12660034;5696554.08409889;470.64314987;201;199;185;50886.000000;1.000000;1.000000;1.000000;1.000000;-0.062777;0.062777;-0.062777;1.000000
445637.50330170;5696553.94980057;470.72385003;104;102;71;25443.000000;1.000000;1.000000;1.000000;1.000000;0.119809;-0.119809;0.119809;1.000000
445637.20380219;5696554.21689804;470.65754988;136;120;102;31354.000000;1.000000;1.000000;1.000000;1.000000;0.065736;-0.065736;0.065736;1.000000
445637.13370331;5696554.13929947;470.65345003;163;159;147;40606.000000;1.000000;1.000000;1.000000;1.000000;-0.055674;0.055674;-0.055674;1.000000
445637.06060226;5696554.06189926;470.66084983;104;98;72;24672.000000;1.000000;1.000000;1.000000;1.000000;-0.128775;0.128775;-0.128775;1.000000
445637.17600067;5696554.02839859;470.62374999;107;100;85;25700.000000;1.000000;1.000000;1.000000;1.000000;-0.013376;0.013376;-0.013376;1.000000
