//X;Y;Z;R;G;B;Intensity;Return Number;Number Of Returns;Scan Direction Flag;Point Source ID;C2M signed distances[-][<0.8];C2M signed distances[<0.4];C2M signed distances[-][<0.2];Stump29
445619.47790154;5696579.37539871;472.32665016;125;121;107;30840.000000;1.000000;1.000000;1.000000;1.000000;-0.097668;0.097668;-0.097668;1.000000
445619.22400101;5696579.38409908;472.37815001;149;148;139;37779.000000;1.000000;1.000000;1.000000;1.000000;-0.060859;0.060859;-0.060859;1.000000
445619.36360176;5696579.18259914;472.33785011;177;177;172;45232.000000;1.000000;1.000000;1.000000;1.000000;0.013276;-0.013276;0.013276;1.000000
445619.29220207;5696579.14249905;472.33414986;159;160;156;40863.000000;1.000000;1.000000;1.000000;1.000000;0.040325;-0.040325;0.040325;1.000000
445619.44140060;5696579.11229904;472.33355000;112;111;106;28270.000000;1.000000;1.000000;1.000000;1.000000;-0.064523;0.064523;-0.064523;1.000000
445619.44240196;5696579.07479961;472.33544971;65;65;65;16705.000000;1.000000;1.000000;1.000000;1.000000;-0.065525;0.065525;-0.065525;1.000000
445619.25810249;5696579.02889927;472.33594992;153;153;150;39064.000000;1.000000;1.000000;1.000000;1.000000;0.006225;-0.006225;0.006225;1.000000
445619.44590195;5696579.03709896;472.33514978;104;106;104;26985.000000;1.000000;1.000000;1.000000;1.000000;-0.069025;0.069025;-0.069025;1.000000
445619.39720161;5696579.29609879;472.34534981;142;142;132;35980.000000;1.000000;1.000000;1.000000;1.000000;-0.020324;0.020324;-0.020324;1.000000
445619.11890228;5696579.46149929;472.38135006;84;87;83;21845.000000;1.000000;1.000000;1.000000;1.000000;-0.187015;0.187015;-0.187015;1.000000
445619.44850166;5696579.39189919;472.33955004;172;169;156;43176.000000;1.000000;1.000000;1.000000;1.000000;-0.094665;0.094665;-0.094665;1.000000
445619.37860115;5696579.50089939;472.35395004;71;69;57;17476.000000;1.000000;1.000000;1.000000;1.000000;-0.170908;0.170908;-0.170908;1.000000
445619.45340164;5696579.24199875;472.33564999;138;136;129;34695.000000;1.000000;1.000000;1.000000;1.000000;-0.076524;0.076524;-0.076524;1.000000
445619.41200073;5696579.35319908;472.34434988;126;124;109;31354.000000;1.000000;1.000000;1.000000;1.000000;-0.042093;0.042093;-0.042093;1.000000
445619.14220245;5696579.34009941;472.39024975;127;127;120;32382.000000;1.000000;1.000000;1.000000;1.000000;-0.110139;0.110139;-0.110139;1.000000
445619.37750061;5696579.28619869;472.34664967;154;153;143;39064.000000;1.000000;1.000000;1.000000;1.000000;-0.000623;0.000623;-0.000623;1.000000
445619.41130074;5696579.39759930;472.34725000;116;112;96;28527.000000;1.000000;1.000000;1.000000;1.000000;-0.075859;0.075859;-0.075859;1.000000
445619.46140106;5696579.07549961;472.33164980;78;78;75;19789.000000;1.000000;1.000000;1.000000;1.000000;-0.084524;0.084524;-0.084524;1.000000
445619.27680214;5696579.02939899;472.33675005;104;104;100;26471.000000;1.000000;1.000000;1.000000;1.000000;0.024925;-0.024925;0.024925;1.000000
445619.26570137;5696579.10539921;472.32555010;136;133;127;34181.000000;1.000000;1.000000;1.000000;1.000000;0.013824;-0.013824;0.013824;1.000000
445619.34420212;5696579.20069893;472.33715012;148;148;142;37779.000000;1.000000;1.000000;1.000000;1.000000;0.032675;-0.032675;0.032675;1.000000
445619.36680229;5696579.35019882;472.35395004;141;138;124;35209.000000;1.000000;1.000000;1.000000;1.000000;-0.020199;0.020199;-0.020199;1.000000
445619.31470116;5696579.03299912;472.33384993;53;53;51;13364.000000;1.000000;1.000000;1.000000;1.000000;0.062176;-0.062176;0.062176;1.000000
445619.42720230;5696579.03659924;472.33435013;98;99;98;25186.000000;1.000000;1.000000;1.000000;1.000000;-0.050325;0.050325;-0.050325;1.000000
445619.46250160;5696579.03799923;472.33365013;88;89;88;22616.000000;1.000000;1.000000;1.000000;1.000000;-0.085624;0.085624;-0.085624;1.000000
445619.37770088;5696579.31419952;472.34934999;115;113;101;28784.000000;1.000000;1.000000;1.000000;1.000000;-0.000823;0.000823;-0.000823;1.000000
445619.42040070;5696579.16559895;472.33785011;134;133;127;33924.000000;1.000000;1.000000;1.000000;1.000000;-0.043523;0.043523;-0.043523;1.000000
445619.14760216;5696579.23039921;472.35195019;90;87;74;22102.000000;1.000000;1.000000;1.000000;1.000000;-0.113082;0.113082;-0.113082;1.000000
445619.46750076;5696578.92589958;472.29985001;168;163;150;41891.000000;1.000000;1.000000;1.000000;1.000000;0.095900;-0.095900;0.095900;1.000000
445619.18900116;5696578.95159920;472.30854990;111;104;91;26728.000000;1.000000;1.000000;1.000000;1.000000;-0.062876;0.062876;-0.062876;1.000000
445619.27110107;5696578.98359879;472.31734993;150;150;142;38293.000000;1.000000;1.000000;1.000000;1.000000;0.019224;-0.019224;0.019224;1.000000
445619.29390152;5696579.31959923;472.35265018;179;176;167;44975.000000;1.000000;1.000000;1.000000;1.000000;0.010401;-0.010401;0.010401;1.000000
445619.32900246;5696579.32099922;472.35424997;181;179;168;45746.000000;1.000000;1.000000;1.000000;1.000000;0.009093;-0.009093;0.009093;1.000000
445619.26780136;5696579.23569878;472.34345009;79;78;71;19789.000000;1.000000;1.000000;1.000000;1.000000;0.051732;-0.051732;0.051732;1.000000
445619.38030251;5696579.23929890;472.34394981;157;157;149;40092.000000;1.000000;1.000000;1.000000;1.000000;-0.003425;0.003425;-0.003425;1.000000
445619.47960098;5696579.29119881;472.32345011;112;111;104;28270.000000;1.000000;1.000000;1.000000;1.000000;0.093234;-0.093234;0.093234;1.000000
445619.08380135;5696579.19889935;472.35335018;142;139;130;35466.000000;1.000000;1.000000;1.000000;1.000000;-0.168520;0.168520;-0.168520;1.000000
445619.46410187;5696579.43029888;472.33365013;141;136;124;34952.000000;1.000000;1.000000;1.000000;1.000000;-0.132921;0.132921;-0.132921;1.000000
445619.07490166;5696579.15299900;472.35244991;155;151;142;38807.000000;1.000000;1.000000;1.000000;1.000000;-0.176976;0.176976;-0.176976;1.000000
445619.07950218;5696579.07779892;472.35405018;61;59;53;14906.000000;1.000000;1.000000;1.000000;1.000000;-0.172375;0.172375;-0.172375;1.000000
445619.19510086;5696578.97189911;472.31844999;118;115;104;29298.000000;1.000000;1.000000;1.000000;1.000000;-0.056777;0.056777;-0.056777;1.000000
445619.46520241;5696579.39279945;472.33325006;160;156;144;39835.000000;1.000000;1.000000;1.000000;1.000000;-0.108375;0.108375;-0.108375;1.000000
445619.17230232;5696579.30479916;472.37494995;164;163;154;41634.000000;1.000000;1.000000;1.000000;1.000000;0.083470;-0.083470;0.083470;1.000000
445619.06940086;5696579.33749874;472.39164974;86;86;79;21845.000000;1.000000;1.000000;1.000000;1.000000;-0.182631;0.182631;-0.182631;1.000000
445619.07480247;5696579.22769936;472.35564997;100;97;88;24672.000000;1.000000;1.000000;1.000000;1.000000;-0.181755;0.181755;-0.181755;1.000000
445619.22260101;5696579.23279961;472.35304977;197;199;191;50629.000000;1.000000;1.000000;1.000000;1.000000;-0.054635;0.054635;-0.054635;1.000000
445619.43820198;5696579.20599945;472.33914997;140;138;131;35209.000000;1.000000;1.000000;1.000000;1.000000;-0.061325;0.061325;-0.061325;1.000000
445619.11360176;5696579.19149883;472.35225012;156;154;143;39321.000000;1.000000;1.000000;1.000000;1.000000;-0.138361;0.138361;-0.138361;1.000000
445619.12450226;5696579.37669952;472.39225008;92;94;89;23644.000000;1.000000;1.000000;1.000000;1.000000;-0.135666;0.135666;-0.135666;1.000000
445619.34790237;5696579.34949883;472.35774996;156;152;140;38807.000000;1.000000;1.000000;1.000000;1.000000;-0.019499;0.019499;-0.019499;1.000000
445619.23800095;5696579.27109917;472.35185005;109;109;103;27756.000000;1.000000;1.000000;1.000000;1.000000;0.060513;-0.060513;0.060513;1.000000
445619.49990089;5696579.28229912;472.31955006;129;129;123;32896.000000;1.000000;1.000000;1.000000;1.000000;0.080203;-0.080203;0.080203;1.000000
445619.13010223;5696579.19229897;472.35074999;141;139;127;35466.000000;1.000000;1.000000;1.000000;1.000000;-0.121908;0.121908;-0.121908;1.000000
445619.05830200;5696579.15219887;472.35624983;147;144;135;36751.000000;1.000000;1.000000;1.000000;1.000000;-0.193575;0.193575;-0.193575;1.000000
445619.09830101;5696579.07839878;472.35255005;41;39;34;10023.000000;1.000000;1.000000;1.000000;1.000000;-0.153576;0.153576;-0.153576;1.000000
445619.10090073;5696579.00579937;472.35185005;138;140;133;35466.000000;1.000000;1.000000;1.000000;1.000000;-0.150977;0.150977;-0.150977;1.000000
445619.17870148;5696578.97109898;472.31764986;161;155;144;39835.000000;1.000000;1.000000;1.000000;1.000000;-0.073176;0.073176;-0.073176;1.000000
445619.21380241;5696578.97249897;472.31924965;159;158;147;40349.000000;1.000000;1.000000;1.000000;1.000000;-0.038075;0.038075;-0.038075;1.000000
445619.25150116;5696578.97369869;472.31635000;114;114;104;28784.000000;1.000000;1.000000;1.000000;1.000000;-0.000376;0.000376;-0.000376;1.000000
445619.36430176;5696578.97959908;472.31454994;161;159;152;40606.000000;1.000000;1.000000;1.000000;1.000000;0.012576;-0.012576;0.012576;1.000000
445619.40170105;5696579.16499908;472.33704998;165;165;159;42148.000000;1.000000;1.000000;1.000000;1.000000;-0.024824;0.024824;-0.024824;1.000000
445619.41900070;5696578.99089916;472.31714966;134;131;121;33410.000000;1.000000;1.000000;1.000000;1.000000;-0.042123;0.042123;-0.042123;1.000000
445619.46480186;5696579.43949898;472.33614971;123;118;107;30326.000000;1.000000;1.000000;1.000000;1.000000;-0.140431;0.140431;-0.140431;1.000000
445619.46610077;5696579.40199955;472.33344986;155;151;140;38550.000000;1.000000;1.000000;1.000000;1.000000;-0.114651;0.114651;-0.114651;1.000000
445619.26500137;5696579.12409885;472.32805016;140;139;131;35466.000000;1.000000;1.000000;1.000000;1.000000;0.013124;-0.013124;0.013124;1.000000
445619.42960175;5696579.21379955;472.33885004;155;154;147;39321.000000;1.000000;1.000000;1.000000;1.000000;-0.052724;0.052724;-0.052724;1.000000
445619.21590240;5696579.17759903;472.33575012;108;107;100;27242.000000;1.000000;1.000000;1.000000;1.000000;-0.035975;0.035975;-0.035975;1.000000
445619.23860176;5696579.51359947;472.37344982;20;20;19;4883.000000;1.000000;1.000000;1.000000;1.000000;-0.184079;0.184079;-0.184079;1.000000
445619.27610214;5696579.51479919;472.37514975;202;203;195;51657.000000;1.000000;1.000000;1.000000;1.000000;-0.184809;0.184809;-0.184809;1.000000
445619.24360092;5696579.36599930;472.37185003;132;131;121;33410.000000;1.000000;1.000000;1.000000;1.000000;-0.036938;0.036938;-0.036938;1.000000
445619.28130157;5696579.36719902;472.36894991;131;131;121;33153.000000;1.000000;1.000000;1.000000;1.000000;-0.037244;0.037244;-0.037244;1.000000
445619.28730209;5696579.21759899;472.33944990;125;123;115;31354.000000;1.000000;1.000000;1.000000;1.000000;0.047208;-0.047208;0.047208;1.000000
445619.32480247;5696579.21879871;472.33885004;161;158;151;40606.000000;1.000000;1.000000;1.000000;1.000000;0.052075;-0.052075;0.052075;1.000000
445619.21830185;5696579.10259922;472.33494999;202;199;190;50886.000000;1.000000;1.000000;1.000000;1.000000;-0.033576;0.033576;-0.033576;1.000000
445619.18190201;5696579.06399925;472.33524992;188;184;173;47031.000000;1.000000;1.000000;1.000000;1.000000;-0.069975;0.069975;-0.069975;1.000000
445619.42650230;5696578.99709900;472.31984999;142;140;131;35723.000000;1.000000;1.000000;1.000000;1.000000;-0.049625;0.049625;-0.049625;1.000000
445619.40920074;5696579.22259911;472.34275009;161;160;154;40863.000000;1.000000;1.000000;1.000000;1.000000;-0.032323;0.032323;-0.032323;1.000000
445619.43330200;5696579.10139950;472.33304979;119;118;113;30069.000000;1.000000;1.000000;1.000000;1.000000;-0.056425;0.056425;-0.056425;1.000000
445619.36280067;5696578.98909958;472.31685020;158;155;146;39578.000000;1.000000;1.000000;1.000000;1.000000;0.014077;-0.014077;0.014077;1.000000
445619.26720245;5696579.28239925;472.34865000;152;149;142;38293.000000;1.000000;1.000000;1.000000;1.000000;0.047601;-0.047601;0.047601;1.000000
445619.24790199;5696579.51269920;472.37384989;25;25;22;6168.000000;1.000000;1.000000;1.000000;1.000000;-0.182742;0.182742;-0.182742;1.000000
445619.44250114;5696579.50449951;472.34294989;29;25;16;6425.000000;1.000000;1.000000;1.000000;1.000000;-0.186431;0.186431;-0.186431;1.000000
445619.17410095;5696579.05539902;472.33474972;105;99;90;25443.000000;1.000000;1.000000;1.000000;1.000000;-0.077776;0.077776;-0.077776;1.000000
445619.28310211;5696579.51409920;472.37304976;197;197;188;50372.000000;1.000000;1.000000;1.000000;1.000000;-0.184099;0.184099;-0.184099;1.000000
445619.10760124;5696579.09869869;472.34394981;138;135;128;34695.000000;1.000000;1.000000;1.000000;1.000000;-0.144276;0.144276;-0.144276;1.000000
445619.14280136;5696579.10009869;472.34555008;53;50;43;12850.000000;1.000000;1.000000;1.000000;1.000000;-0.109076;0.109076;-0.109076;1.000000
445619.18040092;5696579.10139950;472.34254982;151;147;139;37779.000000;1.000000;1.000000;1.000000;1.000000;-0.071476;0.071476;-0.071476;1.000000
445619.09570129;5696579.35109909;472.40695002;215;217;211;55255.000000;1.000000;1.000000;1.000000;1.000000;-0.157595;0.157595;-0.157595;1.000000
445619.40260132;5696579.14859875;472.33454992;155;155;151;39578.000000;1.000000;1.000000;1.000000;1.000000;-0.025724;0.025724;-0.025724;1.000000
445619.33100136;5696579.10849960;472.33544971;168;167;162;42662.000000;1.000000;1.000000;1.000000;1.000000;0.045876;-0.045876;0.045876;1.000000
445619.36600121;5696579.10759933;472.33474972;114;113;107;28784.000000;1.000000;1.000000;1.000000;1.000000;0.010876;-0.010876;0.010876;1.000000
445619.47890099;5696579.11349876;472.33295013;147;147;141;37522.000000;1.000000;1.000000;1.000000;1.000000;-0.102024;0.102024;-0.102024;1.000000
445619.29450233;5696579.06749924;472.33564999;114;112;108;28784.000000;1.000000;1.000000;1.000000;1.000000;0.042625;-0.042625;0.042625;1.000000
445619.32980164;5696579.06899937;472.33264973;56;52;48;13364.000000;1.000000;1.000000;1.000000;1.000000;0.047076;-0.047076;0.047076;1.000000
445619.29590233;5696579.03239925;472.33535006;65;65;61;16448.000000;1.000000;1.000000;1.000000;1.000000;0.044025;-0.044025;0.044025;1.000000
445619.33340080;5696579.03359898;472.33474972;77;77;74;19532.000000;1.000000;1.000000;1.000000;1.000000;0.043477;-0.043477;0.043477;1.000000
445619.37100227;5696579.03479870;472.33404972;81;79;77;20303.000000;1.000000;1.000000;1.000000;1.000000;0.005875;-0.005875;0.005875;1.000000
445619.40620239;5696579.03619869;472.33334972;129;130;129;33153.000000;1.000000;1.000000;1.000000;1.000000;-0.029325;0.029325;-0.029325;1.000000
445619.48120125;5696579.03859909;472.33444979;51;52;52;13107.000000;1.000000;1.000000;1.000000;1.000000;-0.104324;0.104324;-0.104324;1.000000
445619.14300163;5696579.32359894;472.39015009;189;189;181;48316.000000;1.000000;1.000000;1.000000;1.000000;0.109064;-0.109064;0.109064;1.000000
445619.41120155;5696578.92409904;472.29964973;136;129;116;33153.000000;1.000000;1.000000;1.000000;1.000000;-0.060894;0.060894;-0.060894;1.000000
445619.24910172;5696579.05769928;472.33584978;66;65;61;16448.000000;1.000000;1.000000;1.000000;1.000000;-0.002776;0.002776;-0.002776;1.000000
445619.28210075;5696578.94539936;472.30334999;173;165;152;42405.000000;1.000000;1.000000;1.000000;1.000000;0.030223;-0.030223;0.030223;1.000000
445619.32980164;5696579.33019932;472.35675003;166;162;151;41377.000000;1.000000;1.000000;1.000000;1.000000;-0.002092;0.002092;-0.002092;1.000000
445619.36750229;5696579.33149918;472.35144999;118;115;102;29298.000000;1.000000;1.000000;1.000000;1.000000;-0.001499;0.001499;-0.001499;1.000000
445619.06570061;5696579.17959888;472.35234978;129;125;118;32125.000000;1.000000;1.000000;1.000000;1.000000;-0.186177;0.186177;-0.186177;1.000000
445619.22070129;5696579.28899868;472.35594990;138;137;129;34952.000000;1.000000;1.000000;1.000000;1.000000;0.051508;-0.051508;0.051508;1.000000
445619.25620087;5696579.29039867;472.35055019;141;139;133;35466.000000;1.000000;1.000000;1.000000;1.000000;0.039601;-0.039601;0.039601;1.000000
445619.39190109;5696579.41789921;472.35354998;135;131;116;33410.000000;1.000000;1.000000;1.000000;1.000000;-0.089174;0.089174;-0.089174;1.000000
445619.35760124;5696579.37899883;472.35855009;143;142;130;35980.000000;1.000000;1.000000;1.000000;1.000000;-0.048999;0.048999;-0.048999;1.000000
445619.50490196;5696579.38469894;472.31864979;152;147;134;37779.000000;1.000000;1.000000;1.000000;1.000000;-0.080804;0.080804;-0.080804;1.000000
445619.29830177;5696579.00199898;472.32114985;185;186;179;47288.000000;1.000000;1.000000;1.000000;1.000000;0.046424;-0.046424;0.046424;1.000000
445619.17300232;5696579.31409939;472.37734987;146;144;135;36751.000000;1.000000;1.000000;1.000000;1.000000;0.080462;-0.080462;0.080462;1.000000
445619.25550087;5696579.30909927;472.35314991;177;174;166;44718.000000;1.000000;1.000000;1.000000;1.000000;0.020901;-0.020901;0.020901;1.000000
445619.29300125;5696579.31029900;472.35244991;158;155;146;39578.000000;1.000000;1.000000;1.000000;1.000000;0.019701;-0.019701;0.019701;1.000000
445619.33050163;5696579.31149872;472.35414984;165;163;153;41634.000000;1.000000;1.000000;1.000000;1.000000;0.018710;-0.018710;0.018710;1.000000
445619.07390221;5696579.24419888;472.35575010;98;95;87;24415.000000;1.000000;1.000000;1.000000;1.000000;-0.187025;0.187025;-0.187025;1.000000
445619.36810120;5696579.31269939;472.35125019;137;136;125;34695.000000;1.000000;1.000000;1.000000;1.000000;0.008776;-0.008776;0.008776;1.000000
445619.14630135;5696579.06239899;472.34524967;127;122;114;31354.000000;1.000000;1.000000;1.000000;1.000000;-0.105576;0.105576;-0.105576;1.000000
445619.10910233;5696579.24559887;472.35734989;152;150;139;38293.000000;1.000000;1.000000;1.000000;1.000000;-0.154424;0.154424;-0.154424;1.000000
445619.26320084;5696579.13129910;472.33034994;181;180;173;46003.000000;1.000000;1.000000;1.000000;1.000000;0.011323;-0.011323;0.011323;1.000000
445619.47450073;5696579.21669872;472.33395006;89;87;78;22102.000000;1.000000;1.000000;1.000000;1.000000;-0.097623;0.097623;-0.097623;1.000000
445619.32760246;5696579.17189892;472.33605005;96;98;95;24929.000000;1.000000;1.000000;1.000000;1.000000;0.049275;-0.049275;0.049275;1.000000
445619.16480072;5696579.26829918;472.36245014;155;153;143;39064.000000;1.000000;1.000000;1.000000;1.000000;0.106721;-0.106721;0.106721;1.000000
445619.20230110;5696579.26949890;472.36184980;171;171;163;43690.000000;1.000000;1.000000;1.000000;1.000000;0.078219;-0.078219;0.078219;1.000000
445619.21030243;5696579.51149948;472.37444975;37;36;36;9252.000000;1.000000;1.000000;1.000000;1.000000;-0.186200;0.186200;-0.186200;1.000000
445619.40010078;5696579.17449959;472.33944990;154;154;148;39321.000000;1.000000;1.000000;1.000000;1.000000;-0.023223;0.023223;-0.023223;1.000000
445619.43770226;5696579.17569931;472.33874990;111;111;106;28270.000000;1.000000;1.000000;1.000000;1.000000;-0.060825;0.060825;-0.060825;1.000000
445619.36770065;5696579.10049923;472.33474972;109;108;102;27499.000000;1.000000;1.000000;1.000000;1.000000;0.009177;-0.009177;0.009177;1.000000
445619.51420219;5696579.35809906;472.31644966;146;141;127;35980.000000;1.000000;1.000000;1.000000;1.000000;-0.057507;0.057507;-0.057507;1.000000
445619.11810120;5696579.04149921;472.35535004;113;110;104;28270.000000;1.000000;1.000000;1.000000;1.000000;-0.133776;0.133776;-0.133776;1.000000
445619.08410080;5696579.00259884;472.35564997;156;157;150;39835.000000;1.000000;1.000000;1.000000;1.000000;-0.167777;0.167777;-0.167777;1.000000
445619.36670120;5696579.32219894;472.35125019;117;114;102;29041.000000;1.000000;1.000000;1.000000;1.000000;0.007801;-0.007801;0.007801;1.000000
445619.50190170;5696579.20729931;472.32805016;133;131;126;33667.000000;1.000000;1.000000;1.000000;1.000000;-0.125024;0.125024;-0.125024;1.000000
445619.24740227;5696579.08599957;472.32914974;57;54;47;13878.000000;1.000000;1.000000;1.000000;1.000000;-0.004475;0.004475;-0.004475;1.000000
445619.15320213;5696579.30409916;472.38334991;210;210;200;53456.000000;1.000000;1.000000;1.000000;1.000000;0.102018;-0.102018;0.102018;1.000000
445619.09900101;5696579.04079922;472.36385014;127;126;121;32125.000000;1.000000;1.000000;1.000000;1.000000;-0.152876;0.152876;-0.152876;1.000000
445619.14680107;5696579.24909885;472.35675003;119;116;102;29555.000000;1.000000;1.000000;1.000000;1.000000;-0.122183;0.122183;-0.122183;1.000000
445619.07540138;5696579.20899876;472.35545017;137;133;124;34181.000000;1.000000;1.000000;1.000000;1.000000;-0.177878;0.177878;-0.177878;1.000000
445619.39970215;5696579.01579960;472.33054974;214;215;210;54998.000000;1.000000;1.000000;1.000000;1.000000;-0.022825;0.022825;-0.022825;1.000000
445619.09670074;5696579.33019932;472.39274981;183;184;176;46774.000000;1.000000;1.000000;1.000000;1.000000;-0.155177;0.155177;-0.155177;1.000000
445619.10060127;5696579.25569923;472.35944988;114;111;101;28270.000000;1.000000;1.000000;1.000000;1.000000;-0.166226;0.166226;-0.166226;1.000000
445619.13730247;5696579.21969898;472.35134985;112;110;97;28013.000000;1.000000;1.000000;1.000000;1.000000;-0.119251;0.119251;-0.119251;1.000000
445619.10330208;5696579.18079956;472.35164978;164;161;152;41120.000000;1.000000;1.000000;1.000000;1.000000;-0.148575;0.148575;-0.148575;1.000000
445619.39040192;5696579.45309933;472.35624983;69;66;52;16705.000000;1.000000;1.000000;1.000000;1.000000;-0.123840;0.123840;-0.123840;1.000000
445619.24610146;5696579.33559902;472.35764982;136;133;122;33924.000000;1.000000;1.000000;1.000000;1.000000;-0.008044;0.008044;-0.008044;1.000000
445619.28290184;5696579.30189903;472.35195019;146;143;135;36751.000000;1.000000;1.000000;1.000000;1.000000;0.028102;-0.028102;0.028102;1.000000
445619.32280167;5696579.30289944;472.35144999;124;123;112;31354.000000;1.000000;1.000000;1.000000;1.000000;0.027101;-0.027101;0.027101;1.000000
445619.35800179;5696579.30429943;472.35064985;139;138;128;35209.000000;1.000000;1.000000;1.000000;1.000000;0.018876;-0.018876;0.018876;1.000000
445619.50610168;5696579.34719952;472.31825020;136;132;118;33667.000000;1.000000;1.000000;1.000000;1.000000;-0.060761;0.060761;-0.060761;1.000000
445619.06680115;5696579.14209946;472.35424997;154;151;142;38550.000000;1.000000;1.000000;1.000000;1.000000;-0.185076;0.185076;-0.185076;1.000000
445619.14960106;5696578.95979889;472.31624987;114;107;96;27499.000000;1.000000;1.000000;1.000000;1.000000;-0.102276;0.102276;-0.102276;1.000000
445619.22480209;5696578.96449955;472.31734993;174;171;162;43690.000000;1.000000;1.000000;1.000000;1.000000;-0.027075;0.027075;-0.027075;1.000000
445619.47260101;5696579.02069958;472.33155014;210;211;204;53713.000000;1.000000;1.000000;1.000000;1.000000;-0.095724;0.095724;-0.095724;1.000000
445619.11290176;5696579.21019943;472.35475018;150;147;136;37522.000000;1.000000;1.000000;1.000000;1.000000;-0.140948;0.140948;-0.140948;1.000000
445619.11910065;5696579.02509888;472.35284998;112;111;105;28270.000000;1.000000;1.000000;1.000000;1.000000;-0.132777;0.132777;-0.132777;1.000000
445619.44770248;5696578.97189911;472.31584980;117;113;103;29041.000000;1.000000;1.000000;1.000000;1.000000;-0.070859;0.070859;-0.070859;1.000000
445619.45640190;5696578.96409901;472.31384995;132;128;118;32896.000000;1.000000;1.000000;1.000000;1.000000;-0.080154;0.080154;-0.080154;1.000000
445619.18330200;5696579.45309933;472.38644983;181;183;180;46774.000000;1.000000;1.000000;1.000000;1.000000;-0.140911;0.140911;-0.140911;1.000000
445619.26140221;5696579.38519867;472.37984993;141;141;133;35980.000000;1.000000;1.000000;1.000000;1.000000;-0.055199;0.055199;-0.055199;1.000000
445619.29330070;5696579.49689873;472.37104990;42;43;31;10537.000000;1.000000;1.000000;1.000000;1.000000;-0.166899;0.166899;-0.166899;1.000000
445619.33320244;5696579.42309959;472.36964991;95;94;83;23901.000000;1.000000;1.000000;1.000000;1.000000;-0.093259;0.093259;-0.093259;1.000000
445619.33680161;5696579.38769920;472.37164976;217;217;207;55255.000000;1.000000;1.000000;1.000000;1.000000;-0.058370;0.058370;-0.058370;1.000000
445619.16400154;5696579.47129925;472.38584997;84;86;82;21588.000000;1.000000;1.000000;1.000000;1.000000;-0.166396;0.166396;-0.166396;1.000000
445619.25110062;5696579.23489960;472.34734966;113;114;105;28784.000000;1.000000;1.000000;1.000000;1.000000;-0.048349;0.048349;-0.048349;1.000000
445619.42490204;5696579.28899868;472.33955004;95;93;83;23644.000000;1.000000;1.000000;1.000000;1.000000;-0.048025;0.048025;-0.048025;1.000000
445619.13040169;5696579.43469913;472.38154985;70;70;67;17733.000000;1.000000;1.000000;1.000000;1.000000;-0.160369;0.160369;-0.160369;1.000000
445619.17150124;5696579.32349880;472.37974979;147;146;138;37265.000000;1.000000;1.000000;1.000000;1.000000;0.080639;-0.080639;0.080639;1.000000
445619.25050171;5696579.25359924;472.34754993;97;96;89;24415.000000;1.000000;1.000000;1.000000;1.000000;-0.067049;0.067049;-0.067049;1.000000
445619.28590210;5696579.25509937;472.34454967;136;134;126;34181.000000;1.000000;1.000000;1.000000;1.000000;0.074901;-0.074901;0.074901;1.000000
445619.40110214;5696579.18599899;472.34194996;121;122;117;31097.000000;1.000000;1.000000;1.000000;1.000000;-0.024225;0.024225;-0.024225;1.000000
445619.43870171;5696579.18719872;472.34124996;131;131;124;33410.000000;1.000000;1.000000;1.000000;1.000000;-0.061824;0.061824;-0.061824;1.000000
445619.25300224;5696579.36519917;472.36994984;142;141;131;35980.000000;1.000000;1.000000;1.000000;1.000000;-0.035199;0.035199;-0.035199;1.000000
445619.39700134;5696579.06269939;472.33325006;42;41;39;10537.000000;1.000000;1.000000;1.000000;1.000000;-0.020124;0.020124;-0.020124;1.000000
445619.27200134;5696579.15139874;472.33334972;157;159;154;40349.000000;1.000000;1.000000;1.000000;1.000000;0.020124;-0.020124;0.020124;1.000000
445619.45430191;5696579.50349911;472.33874990;106;102;90;25957.000000;1.000000;1.000000;1.000000;1.000000;-0.189991;0.189991;-0.189991;1.000000
445619.08620079;5696579.37759884;472.41384985;132;136;130;34438.000000;1.000000;1.000000;1.000000;1.000000;-0.172379;0.172379;-0.172379;1.000000
445619.19940193;5696579.34439953;472.37424995;139;137;129;34952.000000;1.000000;1.000000;1.000000;1.000000;-0.054415;0.054415;-0.054415;1.000000
445619.05530174;5696579.00269897;472.37304976;107;106;101;26985.000000;1.000000;1.000000;1.000000;1.000000;-0.196576;0.196576;-0.196576;1.000000
445619.48390205;5696579.21589954;472.32975008;85;84;77;21331.000000;1.000000;1.000000;1.000000;1.000000;-0.107025;0.107025;-0.107025;1.000000
445619.28890236;5696579.23609932;472.34205009;96;94;85;23901.000000;1.000000;1.000000;1.000000;1.000000;0.061934;-0.061934;0.061934;1.000000
445619.36160095;5696579.23869904;472.34305002;151;150;144;38293.000000;1.000000;1.000000;1.000000;1.000000;0.015276;-0.015276;0.015276;1.000000
445619.43440063;5696579.06389912;472.33494999;38;38;38;9766.000000;1.000000;1.000000;1.000000;1.000000;-0.057523;0.057523;-0.057523;1.000000
445619.34700211;5696579.15379913;472.33444979;77;79;77;20046.000000;1.000000;1.000000;1.000000;1.000000;0.029875;-0.029875;0.029875;1.000000
445619.49760063;5696579.35729893;472.32035019;135;131;116;33410.000000;1.000000;1.000000;1.000000;1.000000;-0.072141;0.072141;-0.072141;1.000000
445619.15640076;5696579.04289921;472.33844997;63;57;50;14906.000000;1.000000;1.000000;1.000000;1.000000;-0.095477;0.095477;-0.095477;1.000000
445619.45080193;5696579.28899868;472.33374979;111;110;102;28013.000000;1.000000;1.000000;1.000000;1.000000;-0.073925;0.073925;-0.073925;1.000000
445619.42840202;5696579.17649944;472.33834984;121;121;115;30840.000000;1.000000;1.000000;1.000000;1.000000;-0.051525;0.051525;-0.051525;1.000000
445619.30530174;5696579.49819954;472.36695005;38;38;26;9252.000000;1.000000;1.000000;1.000000;1.000000;-0.168200;0.168200;-0.168200;1.000000
445619.20570190;5696579.19489868;472.33785011;64;63;53;15934.000000;1.000000;1.000000;1.000000;1.000000;-0.046959;0.046959;-0.046959;1.000000
445619.38700111;5696579.49079903;472.35424997;107;105;91;26728.000000;1.000000;1.000000;1.000000;1.000000;-0.161117;0.161117;-0.161117;1.000000
445619.35340126;5696579.19979961;472.33995010;178;177;171;45232.000000;1.000000;1.000000;1.000000;1.000000;0.023476;-0.023476;0.023476;1.000000
445619.28360184;5696579.33679874;472.35704996;186;184;173;47031.000000;1.000000;1.000000;1.000000;1.000000;-0.006799;0.006799;-0.006799;1.000000
445619.35670097;5696579.34179886;472.35344984;152;149;136;38036.000000;1.000000;1.000000;1.000000;1.000000;-0.011799;0.011799;-0.011799;1.000000
445619.24770172;5696579.30049904;472.35265018;149;146;139;37522.000000;1.000000;1.000000;1.000000;1.000000;0.029795;-0.029795;0.029795;1.000000
445619.50740250;5696579.30969913;472.31554987;138;138;132;35209.000000;1.000000;1.000000;1.000000;1.000000;0.060484;-0.060484;0.060484;1.000000
445619.16940125;5696579.15619953;472.33804991;109;106;97;26985.000000;1.000000;1.000000;1.000000;1.000000;-0.082476;0.082476;-0.082476;1.000000
445619.17300232;5696579.04379948;472.33454992;80;74;66;19018.000000;1.000000;1.000000;1.000000;1.000000;-0.078875;0.078875;-0.078875;1.000000
445619.43360146;5696579.05459888;472.33484985;28;29;29;7196.000000;1.000000;1.000000;1.000000;1.000000;-0.056724;0.056724;-0.056724;1.000000
445619.17670067;5696579.00839909;472.33664991;170;170;164;43433.000000;1.000000;1.000000;1.000000;1.000000;-0.075177;0.075177;-0.075177;1.000000
445619.25180061;5696579.01079948;472.33544971;212;214;211;54741.000000;1.000000;1.000000;1.000000;1.000000;-0.000077;0.000077;-0.000077;1.000000
445619.19190224;5696579.04439934;472.33314993;104;100;91;25700.000000;1.000000;1.000000;1.000000;1.000000;-0.059975;0.059975;-0.059975;1.000000
445619.29000099;5696578.95629890;472.30625011;172;168;157;42919.000000;1.000000;1.000000;1.000000;1.000000;0.038124;-0.038124;0.038124;1.000000
445619.29080208;5696578.93759926;472.30135014;170;161;144;41377.000000;1.000000;1.000000;1.000000;1.000000;0.038925;-0.038925;0.038925;1.000000
445619.36360176;5696578.94019897;472.30004980;149;144;133;37008.000000;1.000000;1.000000;1.000000;1.000000;0.036680;-0.036680;0.036680;1.000000
445619.07440193;5696579.40199955;472.41585018;130;130;125;33153.000000;1.000000;1.000000;1.000000;1.000000;-0.191524;0.191524;-0.191524;1.000000
445619.17520149;5696579.01779945;472.33664991;114;113;107;28784.000000;1.000000;1.000000;1.000000;1.000000;-0.076676;0.076676;-0.076676;1.000000
445619.13810165;5696579.22889908;472.35384991;108;106;92;26985.000000;1.000000;1.000000;1.000000;1.000000;-0.121354;0.121354;-0.121354;1.000000
445619.25030144;5696579.02019890;472.33544971;179;181;178;46260.000000;1.000000;1.000000;1.000000;1.000000;-0.001576;0.001576;-0.001576;1.000000
445619.05970200;5696579.11479958;472.35125019;148;145;136;37008.000000;1.000000;1.000000;1.000000;1.000000;-0.192175;0.192175;-0.192175;1.000000
445619.23230179;5696578.97079952;472.32004978;138;137;127;34952.000000;1.000000;1.000000;1.000000;1.000000;-0.019576;0.019576;-0.019576;1.000000
445619.41830070;5696578.98159893;472.31465008;128;125;116;31868.000000;1.000000;1.000000;1.000000;1.000000;-0.041423;0.041423;-0.041423;1.000000
445619.45570190;5696578.98279961;472.31635000;128;124;115;31868.000000;1.000000;1.000000;1.000000;1.000000;-0.078825;0.078825;-0.078825;1.000000
445619.19700249;5696579.39819916;472.38415005;129;128;120;32639.000000;1.000000;1.000000;1.000000;1.000000;-0.087535;0.087535;-0.087535;1.000000
445619.10190208;5696579.21819885;472.35675003;168;165;155;42148.000000;1.000000;1.000000;1.000000;1.000000;-0.153239;0.153239;-0.153239;1.000000
445619.10910233;5696579.06809910;472.35295012;49;47;42;12079.000000;1.000000;1.000000;1.000000;1.000000;-0.142775;0.142775;-0.142775;1.000000
445619.11020096;5696579.03289898;472.35724976;130;130;124;33153.000000;1.000000;1.000000;1.000000;1.000000;-0.141676;0.141676;-0.141676;1.000000
445619.07400139;5696578.99419888;472.35514977;179;179;173;45746.000000;1.000000;1.000000;1.000000;1.000000;-0.177876;0.177876;-0.177876;1.000000
445619.36360176;5696579.44379910;472.35955002;151;147;134;37522.000000;1.000000;1.000000;1.000000;1.000000;-0.113799;0.113799;-0.113799;1.000000
445619.29230125;5696579.32899960;472.35505011;179;176;166;44975.000000;1.000000;1.000000;1.000000;1.000000;0.001000;-0.001000;0.001000;1.000000
445619.33120163;5696579.29279907;472.35164978;119;117;107;29812.000000;1.000000;1.000000;1.000000;1.000000;0.037365;-0.037365;0.037365;1.000000
445619.49240120;5696579.43009956;472.32564976;175;171;160;43690.000000;1.000000;1.000000;1.000000;1.000000;-0.123290;0.123290;-0.123290;1.000000
445619.39970215;5696579.42659958;472.35405018;163;159;146;40606.000000;1.000000;1.000000;1.000000;1.000000;-0.099260;0.099260;-0.099260;1.000000
445619.36550148;5696579.38759907;472.35664989;175;174;160;44204.000000;1.000000;1.000000;1.000000;1.000000;-0.057599;0.057599;-0.057599;1.000000
445619.20100220;5696579.30699928;472.36455013;119;117;108;29812.000000;1.000000;1.000000;1.000000;1.000000;0.055833;-0.055833;0.055833;1.000000
445619.46090134;5696579.31849869;472.32754995;95;93;82;23644.000000;1.000000;1.000000;1.000000;1.000000;-0.084024;0.084024;-0.084024;1.000000
445619.50080116;5696579.24479874;472.32614996;141;140;134;35723.000000;1.000000;1.000000;1.000000;1.000000;0.106307;-0.106307;0.106307;1.000000
445619.43150146;5696579.12969883;472.32865002;161;161;154;41120.000000;1.000000;1.000000;1.000000;1.000000;-0.054624;0.054624;-0.054624;1.000000
445619.28490074;5696579.08719929;472.32854988;126;123;118;31611.000000;1.000000;1.000000;1.000000;1.000000;0.033023;-0.033023;0.033023;1.000000
445619.20100220;5696579.51239880;472.37634995;38;38;37;9509.000000;1.000000;1.000000;1.000000;1.000000;-0.189361;0.189361;-0.189361;1.000000
445619.46220215;5696579.48639877;472.33664991;100;95;83;24415.000000;1.000000;1.000000;1.000000;1.000000;-0.178160;0.178160;-0.178160;1.000000
445619.21100243;5696579.04729946;472.32935001;95;92;86;23644.000000;1.000000;1.000000;1.000000;1.000000;-0.040875;0.040875;-0.040875;1.000000
445619.14080246;5696578.96979912;472.32525017;101;97;86;24672.000000;1.000000;1.000000;1.000000;1.000000;-0.111075;0.111075;-0.111075;1.000000
445619.11760147;5696579.06029900;472.35554983;146;143;137;36751.000000;1.000000;1.000000;1.000000;1.000000;-0.134276;0.134276;-0.134276;1.000000
445619.34630211;5696579.38689907;472.36744978;172;172;160;43690.000000;1.000000;1.000000;1.000000;1.000000;-0.056899;0.056899;-0.056899;1.000000
445619.49400146;5696579.39489944;472.32294991;166;162;150;41377.000000;1.000000;1.000000;1.000000;1.000000;-0.095732;0.095732;-0.095732;1.000000
445619.08310135;5696579.43199928;472.38635017;112;112;106;28527.000000;1.000000;1.000000;1.000000;1.000000;-0.197203;0.197203;-0.197203;1.000000
445619.30750092;5696579.40429886;472.38224985;182;184;175;46774.000000;1.000000;1.000000;1.000000;1.000000;-0.074299;0.074299;-0.074299;1.000000
445619.42070206;5696579.37109955;472.34264996;126;124;108;31354.000000;1.000000;1.000000;1.000000;1.000000;-0.060081;0.060081;-0.060081;1.000000
445619.43160065;5696579.33509930;472.33804991;168;166;152;42405.000000;1.000000;1.000000;1.000000;1.000000;-0.054960;0.054960;-0.054960;1.000000
445619.13540085;5696579.28489883;472.37304976;83;81;71;20560.000000;1.000000;1.000000;1.000000;1.000000;0.124904;-0.124904;0.124904;1.000000
445619.43280228;5696579.29759892;472.33764984;83;82;71;20817.000000;1.000000;1.000000;1.000000;1.000000;-0.055925;0.055925;-0.055925;1.000000
445619.25330170;5696579.17879875;472.33745005;136;137;130;34695.000000;1.000000;1.000000;1.000000;1.000000;0.001424;-0.001424;0.001424;1.000000
445619.47640236;5696579.18849953;472.33605005;137;135;130;34695.000000;1.000000;1.000000;1.000000;1.000000;-0.099525;0.099525;-0.099525;1.000000
445619.21700104;5696579.14009960;472.33774998;32;30;25;7710.000000;1.000000;1.000000;1.000000;1.000000;-0.034876;0.034876;-0.034876;1.000000
445619.25470169;5696579.14139946;472.33244993;154;153;147;39064.000000;1.000000;1.000000;1.000000;1.000000;0.002824;-0.002824;0.002824;1.000000
445619.32720192;5696579.14389904;472.33804991;118;120;117;30583.000000;1.000000;1.000000;1.000000;1.000000;0.049675;-0.049675;0.049675;1.000000
445619.13320168;5696579.36889942;472.39024975;115;115;108;29298.000000;1.000000;1.000000;1.000000;1.000000;-0.124888;0.124888;-0.124888;1.000000
445619.13430222;5696579.33139904;472.39214994;191;191;183;48830.000000;1.000000;1.000000;1.000000;1.000000;-0.117583;0.117583;-0.117583;1.000000
445619.20970161;5696579.29699905;472.35785009;121;120;110;30583.000000;1.000000;1.000000;1.000000;1.000000;0.053552;-0.053552;0.053552;1.000000
445619.17580231;5696579.25809868;472.35584976;142;141;129;35723.000000;1.000000;1.000000;1.000000;1.000000;-0.104311;0.104311;-0.104311;1.000000
445619.50860222;5696579.27449902;472.31984999;146;147;143;37522.000000;1.000000;1.000000;1.000000;1.000000;0.078684;-0.078684;0.078684;1.000000
445619.36330231;5696579.41579922;472.36154987;132;127;113;32382.000000;1.000000;1.000000;1.000000;1.000000;-0.085799;0.085799;-0.085799;1.000000
445619.40730103;5696579.07339867;472.33384993;98;98;96;24929.000000;1.000000;1.000000;1.000000;1.000000;-0.030424;0.030424;-0.030424;1.000000
445619.22300156;5696579.02749928;472.33435013;84;85;82;21588.000000;1.000000;1.000000;1.000000;1.000000;-0.028876;0.028876;-0.028876;1.000000
445619.18310173;5696579.02649887;472.33484985;83;81;74;20560.000000;1.000000;1.000000;1.000000;1.000000;-0.068776;0.068776;-0.068776;1.000000
445619.29650124;5696579.21679886;472.33984997;99;97;88;24672.000000;1.000000;1.000000;1.000000;1.000000;0.053993;-0.053993;0.053993;1.000000
445619.32890137;5696579.40469940;472.37615015;116;118;107;29812.000000;1.000000;1.000000;1.000000;1.000000;-0.074708;0.074708;-0.074708;1.000000
445619.18120201;5696579.32499893;472.37554981;170;168;160;42919.000000;1.000000;1.000000;1.000000;1.000000;0.070852;-0.070852;0.070852;1.000000
445619.13810165;5696579.25689896;472.35885002;124;121;108;30840.000000;1.000000;1.000000;1.000000;1.000000;-0.133641;0.133641;-0.133641;1.000000
445619.06440170;5696579.21699913;472.35505011;151;148;139;37779.000000;1.000000;1.000000;1.000000;1.000000;-0.189907;0.189907;-0.189907;1.000000
445619.10180099;5696579.19029911;472.35174992;170;168;158;42919.000000;1.000000;1.000000;1.000000;1.000000;-0.150121;0.150121;-0.150121;1.000000
445619.18750198;5696578.96339901;472.31335022;151;146;135;37522.000000;1.000000;1.000000;1.000000;1.000000;-0.064375;0.064375;-0.064375;1.000000
445619.35250099;5696579.49859913;472.35745003;99;97;83;24672.000000;1.000000;1.000000;1.000000;1.000000;-0.168599;0.168599;-0.168599;1.000000
445619.44800194;5696579.18639954;472.33935024;135;134;128;34181.000000;1.000000;1.000000;1.000000;1.000000;-0.071125;0.071125;-0.071125;1.000000
445619.10440071;5696579.36669930;472.40284969;109;112;105;28270.000000;1.000000;1.000000;1.000000;1.000000;-0.151974;0.151974;-0.151974;1.000000
445619.48040207;5696579.50579937;472.33535006;92;89;75;22616.000000;1.000000;1.000000;1.000000;1.000000;-0.194826;0.194826;-0.194826;1.000000
445619.21100243;5696579.25949867;472.35514977;169;169;161;43176.000000;1.000000;1.000000;1.000000;1.000000;0.081494;-0.081494;0.081494;1.000000
445619.47460182;5696578.98339947;472.31484987;150;145;136;37265.000000;1.000000;1.000000;1.000000;1.000000;-0.097724;0.097724;-0.097724;1.000000
445619.45470245;5696578.99919899;472.32114985;143;141;130;35980.000000;1.000000;1.000000;1.000000;1.000000;-0.077825;0.077825;-0.077825;1.000000
445619.13200195;5696579.40639885;472.39064981;83;83;78;21074.000000;1.000000;1.000000;1.000000;1.000000;-0.142151;0.142151;-0.142151;1.000000
445619.20020111;5696579.11129959;472.33894970;151;148;139;37779.000000;1.000000;1.000000;1.000000;1.000000;-0.051676;0.051676;-0.051676;1.000000
445619.16380127;5696579.07259949;472.33914997;147;144;134;36751.000000;1.000000;1.000000;1.000000;1.000000;-0.088076;0.088076;-0.088076;1.000000
445619.18190201;5696579.51169880;472.38245012;31;31;29;7710.000000;1.000000;1.000000;1.000000;1.000000;-0.194707;0.194707;-0.194707;1.000000
445619.14530190;5696579.47069939;472.38495018;166;169;164;42919.000000;1.000000;1.000000;1.000000;1.000000;-0.176507;0.176507;-0.176507;1.000000
445619.08610161;5696579.17079933;472.34845020;166;162;153;41634.000000;1.000000;1.000000;1.000000;1.000000;-0.165776;0.165776;-0.165776;1.000000
445619.12300117;5696579.13709934;472.34275009;159;154;145;39578.000000;1.000000;1.000000;1.000000;1.000000;-0.128876;0.128876;-0.128876;1.000000
445619.20160110;5696579.07379921;472.33384993;206;203;192;51914.000000;1.000000;1.000000;1.000000;1.000000;-0.050276;0.050276;-0.050276;1.000000
445619.46430214;5696579.28079899;472.32954981;121;120;112;30583.000000;1.000000;1.000000;1.000000;1.000000;-0.087425;0.087425;-0.087425;1.000000
445619.43420227;5696579.28809937;472.33764984;85;83;73;21074.000000;1.000000;1.000000;1.000000;1.000000;-0.057325;0.057325;-0.057325;1.000000
445619.27720078;5696579.47729881;472.37704994;38;40;31;9766.000000;1.000000;1.000000;1.000000;1.000000;-0.147329;0.147329;-0.147329;1.000000
445619.31620224;5696579.44329937;472.37374975;67;66;59;16705.000000;1.000000;1.000000;1.000000;1.000000;-0.113299;0.113299;-0.113299;1.000000
445619.09630211;5696579.35799892;472.40934994;213;215;209;54741.000000;1.000000;1.000000;1.000000;1.000000;-0.158075;0.158075;-0.158075;1.000000
445619.20810135;5696579.36219891;472.37484982;200;199;191;50886.000000;1.000000;1.000000;1.000000;1.000000;-0.054343;0.054343;-0.054343;1.000000
445619.06500061;5696579.00189884;472.36415007;160;159;154;40606.000000;1.000000;1.000000;1.000000;1.000000;-0.186877;0.186877;-0.186877;1.000000
445619.41930206;5696579.20539959;472.34065010;128;127;121;32382.000000;1.000000;1.000000;1.000000;1.000000;-0.042425;0.042425;-0.042425;1.000000
445619.49690063;5696579.13279922;472.33624985;136;135;131;34438.000000;1.000000;1.000000;1.000000;1.000000;-0.120023;0.120023;-0.120023;1.000000
445619.08500107;5696578.98399933;472.34854986;207;208;200;52942.000000;1.000000;1.000000;1.000000;1.000000;-0.166876;0.166876;-0.166876;1.000000
445619.36770065;5696579.50899895;472.35354998;38;34;23;8481.000000;1.000000;1.000000;1.000000;1.000000;-0.178999;0.178999;-0.178999;1.000000
445619.40770157;5696579.48429878;472.34804966;97;93;80;23644.000000;1.000000;1.000000;1.000000;1.000000;-0.157348;0.157348;-0.157348;1.000000
445619.44290169;5696579.48349960;472.34264996;28;24;14;6168.000000;1.000000;1.000000;1.000000;1.000000;-0.167097;0.167097;-0.167097;1.000000
445619.38220222;5696579.18309887;472.34104969;163;163;159;41634.000000;1.000000;1.000000;1.000000;1.000000;-0.005325;0.005325;-0.005325;1.000000
445619.27620132;5696579.04819878;472.33694984;110;107;104;27499.000000;1.000000;1.000000;1.000000;1.000000;0.024324;-0.024324;0.024324;1.000000
445619.07150085;5696579.06919868;472.35825016;74;72;66;18247.000000;1.000000;1.000000;1.000000;1.000000;-0.180377;0.180377;-0.180377;1.000000
445619.17800148;5696579.17409904;472.33864977;118;116;106;29555.000000;1.000000;1.000000;1.000000;1.000000;-0.073876;0.073876;-0.073876;1.000000
445619.17940147;5696579.13889893;472.33834984;42;38;34;9766.000000;1.000000;1.000000;1.000000;1.000000;-0.072476;0.072476;-0.072476;1.000000
445619.36500175;5696579.14509876;472.33285000;70;71;67;17990.000000;1.000000;1.000000;1.000000;1.000000;0.011876;-0.011876;0.011876;1.000000
445619.25690086;5696579.06629951;472.33634998;69;69;65;17476.000000;1.000000;1.000000;1.000000;1.000000;0.005023;-0.005023;0.005023;1.000000
445619.14910133;5696578.98759945;472.33514978;154;153;142;39064.000000;1.000000;1.000000;1.000000;1.000000;-0.102776;0.102776;-0.102776;1.000000
445619.34620102;5696579.35899933;472.36245014;153;151;138;38550.000000;1.000000;1.000000;1.000000;1.000000;-0.028999;0.028999;-0.028999;1.000000
445619.12640198;5696579.05249889;472.35125019;152;149;142;38293.000000;1.000000;1.000000;1.000000;1.000000;-0.125475;0.125475;-0.125475;1.000000
445619.09190186;5696579.01119907;472.35615017;127;128;122;32639.000000;1.000000;1.000000;1.000000;1.000000;-0.159976;0.159976;-0.159976;1.000000
445619.25880249;5696579.45789917;472.38065006;33;33;29;8224.000000;1.000000;1.000000;1.000000;1.000000;-0.127899;0.127899;-0.127899;1.000000
445619.21750076;5696579.33349903;472.36564972;177;175;166;44718.000000;1.000000;1.000000;1.000000;1.000000;-0.034554;0.034554;-0.034554;1.000000
445619.42830093;5696578.98999889;472.31755020;123;120;110;30583.000000;1.000000;1.000000;1.000000;1.000000;-0.051424;0.051424;-0.051424;1.000000
445619.46580132;5696578.99119957;472.31685020;135;131;120;33410.000000;1.000000;1.000000;1.000000;1.000000;-0.088924;0.088924;-0.088924;1.000000
445619.33210190;5696579.50749882;472.36124994;53;52;38;12850.000000;1.000000;1.000000;1.000000;1.000000;-0.177553;0.177553;-0.177553;1.000000
445619.33320244;5696579.46989925;472.36315014;158;158;146;40092.000000;1.000000;1.000000;1.000000;1.000000;-0.140006;0.140006;-0.140006;1.000000
445619.51810081;5696579.47909935;472.32504990;95;91;78;23130.000000;1.000000;1.000000;1.000000;1.000000;-0.156116;0.156116;-0.156116;1.000000
445619.51930244;5696579.44159897;472.32464983;157;154;143;39321.000000;1.000000;1.000000;1.000000;1.000000;-0.120358;0.120358;-0.120358;1.000000
445619.37450226;5696579.17449959;472.33824970;164;164;160;41891.000000;1.000000;1.000000;1.000000;1.000000;0.002375;-0.002375;0.002375;1.000000
445619.26390083;5696579.35489948;472.36564972;161;159;148;40606.000000;1.000000;1.000000;1.000000;1.000000;-0.024899;0.024899;-0.024899;1.000000
445619.30170067;5696579.35839947;472.36275007;136;135;124;34438.000000;1.000000;1.000000;1.000000;1.000000;-0.028399;0.028399;-0.028399;1.000000
445619.29470070;5696579.48739918;472.37094976;33;35;23;8481.000000;1.000000;1.000000;1.000000;1.000000;-0.157399;0.157399;-0.157399;1.000000
445619.47770126;5696579.34739883;472.32634975;125;123;110;31354.000000;1.000000;1.000000;1.000000;1.000000;-0.088405;0.088405;-0.088405;1.000000
445619.45320137;5696579.06449898;472.33584978;44;43;44;11051.000000;1.000000;1.000000;1.000000;1.000000;-0.076324;0.076324;-0.076324;1.000000
445619.47550209;5696579.17919930;472.33824970;143;142;137;36237.000000;1.000000;1.000000;1.000000;1.000000;-0.098625;0.098625;-0.098625;1.000000
445619.23650177;5696579.09409912;472.32875015;96;93;85;23901.000000;1.000000;1.000000;1.000000;1.000000;-0.015376;0.015376;-0.015376;1.000000
445619.26900108;5696579.02079876;472.33634998;156;157;153;40092.000000;1.000000;1.000000;1.000000;1.000000;0.017124;-0.017124;0.017124;1.000000
445619.08310135;5696579.41309937;472.40014984;127;127;122;32382.000000;1.000000;1.000000;1.000000;1.000000;-0.188125;0.188125;-0.188125;1.000000
445619.49100121;5696579.46749886;472.33064987;141;136;123;34952.000000;1.000000;1.000000;1.000000;1.000000;-0.155852;0.155852;-0.155852;1.000000
445619.19130142;5696579.51089867;472.38054993;25;25;24;6168.000000;1.000000;1.000000;1.000000;1.000000;-0.190772;0.190772;-0.190772;1.000000
445619.26950081;5696578.99299915;472.31965019;181;182;173;46260.000000;1.000000;1.000000;1.000000;1.000000;0.017623;-0.017623;0.017623;1.000000
445619.30670174;5696579.02209957;472.33334972;122;122;119;31097.000000;1.000000;1.000000;1.000000;1.000000;0.054824;-0.054824;0.054824;1.000000
445619.29810150;5696579.45189960;472.37764980;60;61;55;15420.000000;1.000000;1.000000;1.000000;1.000000;-0.121900;0.121900;-0.121900;1.000000
445619.42450150;5696579.26089867;472.34154989;154;153;145;39064.000000;1.000000;1.000000;1.000000;1.000000;-0.047624;0.047624;-0.047624;1.000000
445619.20480164;5696579.21349915;472.34504988;63;62;53;15677.000000;1.000000;1.000000;1.000000;1.000000;-0.054265;0.054265;-0.054265;1.000000
445619.06270226;5696579.09579952;472.34884979;170;167;159;42919.000000;1.000000;1.000000;1.000000;1.000000;-0.189175;0.189175;-0.189175;1.000000
445619.13670166;5696579.06099899;472.34714987;164;160;153;41120.000000;1.000000;1.000000;1.000000;1.000000;-0.115176;0.115176;-0.115176;1.000000
445619.40640076;5696579.47269924;472.35255005;91;88;75;22359.000000;1.000000;1.000000;1.000000;1.000000;-0.145721;0.145721;-0.145721;1.000000
445619.40780075;5696579.43749912;472.35214998;122;119;107;30326.000000;1.000000;1.000000;1.000000;1.000000;-0.111858;0.111858;-0.111858;1.000000
445619.41710098;5696579.02819927;472.33374979;155;156;153;39835.000000;1.000000;1.000000;1.000000;1.000000;-0.040224;0.040224;-0.040224;1.000000
