//X;Y;Z;R;G;B;Intensity;Return Number;Number Of Returns;Scan Direction Flag;Point Source ID;C2M signed distances[-][<0.8];C2M signed distances[<0.4];C2M signed distances[-][<0.2];Stump94
445613.87230118;5696583.48349960;472.74414970;185;178;165;45746.000000;1.000000;1.000000;1.000000;1.000000;-0.153500;0.153500;-0.153500;1.000000
445613.38500126;5696583.10109909;472.75255014;103;102;98;25957.000000;1.000000;1.000000;1.000000;1.000000;-0.195624;0.195624;-0.195624;1.000000
445613.72310169;5696583.43899925;472.74615004;119;109;88;28013.000000;1.000000;1.000000;1.000000;1.000000;0.109027;-0.109027;0.109027;1.000000
445613.76200111;5696583.40499886;472.74524977;105;96;76;24672.000000;1.000000;1.000000;1.000000;1.000000;0.075590;-0.075590;0.075590;1.000000
445613.39500149;5696583.27789886;472.74104979;131;127;120;32639.000000;1.000000;1.000000;1.000000;1.000000;-0.052101;0.052101;-0.052101;1.000000
445613.49440201;5696583.36449821;472.73735001;187;182;170;46774.000000;1.000000;1.000000;1.000000;1.000000;0.034498;-0.034498;0.034498;1.000000
445613.68330200;5696583.33529861;472.73854973;124;117;105;30069.000000;1.000000;1.000000;1.000000;1.000000;0.005299;-0.005299;0.005299;1.000000
445613.42400177;5696583.28699883;472.73784973;144;138;128;35466.000000;1.000000;1.000000;1.000000;1.000000;-0.043001;0.043001;-0.043001;1.000000
445613.53470142;5696583.29309853;472.73364975;167;159;147;41120.000000;1.000000;1.000000;1.000000;1.000000;-0.036935;0.036935;-0.036935;1.000000
445613.65200146;5696583.14899834;472.73724987;196;193;183;49344.000000;1.000000;1.000000;1.000000;1.000000;-0.119580;0.119580;-0.119580;1.000000
445613.61800201;5696583.11019905;472.73525002;162;156;146;40092.000000;1.000000;1.000000;1.000000;1.000000;-0.151093;0.151093;-0.151093;1.000000
445613.58180149;5696583.07149895;472.73315002;127;121;113;31097.000000;1.000000;1.000000;1.000000;1.000000;-0.184808;0.184808;-0.184808;1.000000
445613.58610161;5696583.17369850;472.74615004;119;114;107;29298.000000;1.000000;1.000000;1.000000;1.000000;-0.156301;0.156301;-0.156301;1.000000
445613.85200127;5696583.49239929;472.74564983;196;189;176;48573.000000;1.000000;1.000000;1.000000;1.000000;-0.162399;0.162399;-0.162399;1.000000
445613.51100166;5696583.17129906;472.74744989;198;200;195;50886.000000;1.000000;1.000000;1.000000;1.000000;-0.158701;0.158701;-0.158701;1.000000
445613.64700134;5696583.29659851;472.73875000;148;143;134;36751.000000;1.000000;1.000000;1.000000;1.000000;-0.033401;0.033401;-0.033401;1.000000
445613.45810135;5696583.32589920;472.73754980;176;166;153;42919.000000;1.000000;1.000000;1.000000;1.000000;-0.004101;0.004101;-0.004101;1.000000
445613.31950195;5696583.09569939;472.74014999;143;139;133;35723.000000;1.000000;1.000000;1.000000;1.000000;-0.130125;0.130125;-0.130125;1.000000
445613.85050114;5696583.52979858;472.75304987;163;158;146;40606.000000;1.000000;1.000000;1.000000;1.000000;-0.199799;0.199799;-0.199799;1.000000
445613.66730125;5696583.44629868;472.75544979;178;170;155;43690.000000;1.000000;1.000000;1.000000;1.000000;0.116299;-0.116299;0.116299;1.000000
445613.48190125;5696583.43789871;472.75154974;182;177;161;45232.000000;1.000000;1.000000;1.000000;1.000000;0.107899;-0.107899;0.107899;1.000000
445613.55700119;5696583.44249924;472.75505020;170;164;151;42148.000000;1.000000;1.000000;1.000000;1.000000;0.112499;-0.112499;0.112499;1.000000
445613.86620148;5696583.15739830;472.72135021;162;154;141;39578.000000;1.000000;1.000000;1.000000;1.000000;0.093679;-0.093679;0.093679;1.000000
445613.86740120;5696583.11999901;472.72095015;168;159;146;41120.000000;1.000000;1.000000;1.000000;1.000000;0.097210;-0.097210;0.097210;1.000000
445613.40840157;5696583.40709885;472.76424982;106;105;83;26214.000000;1.000000;1.000000;1.000000;1.000000;0.077099;-0.077099;0.077099;1.000000
445613.79470165;5696583.11739929;472.71994974;203;193;180;49858.000000;1.000000;1.000000;1.000000;1.000000;0.024814;-0.024814;0.024814;1.000000
445613.83220108;5696583.11859901;472.72165014;167;156;144;40349.000000;1.000000;1.000000;1.000000;1.000000;0.062165;-0.062165;0.062165;1.000000
445613.79600151;5696583.07989891;472.71724989;170;157;144;40863.000000;1.000000;1.000000;1.000000;1.000000;0.028450;-0.028450;0.028450;1.000000
445613.33680161;5696583.36699875;472.76515009;166;167;143;42148.000000;1.000000;1.000000;1.000000;1.000000;0.036999;-0.036999;0.036999;1.000000
445613.72430141;5696583.03979881;472.72055008;184;172;158;44718.000000;1.000000;1.000000;1.000000;1.000000;-0.040609;0.040609;-0.040609;1.000000
445613.75970181;5696583.04129990;472.71744968;188;175;162;45489.000000;1.000000;1.000000;1.000000;1.000000;-0.005371;0.005371;-0.005371;1.000000
445613.78050144;5696583.45229919;472.74424984;185;176;162;45489.000000;1.000000;1.000000;1.000000;1.000000;0.122299;-0.122299;0.122299;1.000000
445613.62920197;5696583.05309875;472.73274996;151;147;138;37779.000000;1.000000;1.000000;1.000000;1.000000;-0.136353;0.136353;-0.136353;1.000000
445613.30290134;5696583.25569923;472.76695015;125;127;126;32382.000000;1.000000;1.000000;1.000000;1.000000;-0.074508;0.074508;-0.074508;1.000000
445613.34030159;5696583.25229843;472.75925018;21;19;21;4883.000000;1.000000;1.000000;1.000000;1.000000;-0.077702;0.077702;-0.077702;1.000000
445613.30400188;5696583.21589859;472.76424982;212;214;211;54741.000000;1.000000;1.000000;1.000000;1.000000;-0.114189;0.114189;-0.114189;1.000000
445613.30780132;5696583.18059929;472.76165010;141;141;137;35980.000000;1.000000;1.000000;1.000000;1.000000;-0.118424;0.118424;-0.118424;1.000000
445613.41910179;5696583.14679916;472.76394989;79;81;82;20560.000000;1.000000;1.000000;1.000000;1.000000;-0.183201;0.183201;-0.183201;1.000000
445613.89090164;5696583.45619972;472.74235012;134;128;118;32896.000000;1.000000;1.000000;1.000000;1.000000;-0.126200;0.126200;-0.126200;1.000000
445613.75050171;5696583.27319916;472.72685005;196;189;177;48573.000000;1.000000;1.000000;1.000000;1.000000;-0.060584;0.060584;-0.060584;1.000000
445613.82340153;5696583.27809914;472.72784998;176;167;152;43176.000000;1.000000;1.000000;1.000000;1.000000;0.051901;-0.051901;0.051901;1.000000
445613.78800114;5696583.27439888;472.72854998;172;165;152;42405.000000;1.000000;1.000000;1.000000;1.000000;0.055601;-0.055601;0.055601;1.000000
445613.75170143;5696583.23569878;472.72644999;136;129;118;33153.000000;1.000000;1.000000;1.000000;1.000000;-0.047469;0.047469;-0.047469;1.000000
445613.82700165;5696583.24039848;472.72524979;190;182;168;46774.000000;1.000000;1.000000;1.000000;1.000000;0.069889;-0.069889;0.069889;1.000000
445613.67880161;5696583.23309906;472.73014977;176;169;158;43433.000000;1.000000;1.000000;1.000000;1.000000;-0.096901;0.096901;-0.096901;1.000000
445613.82820137;5696583.20299919;472.72485020;169;160;147;41377.000000;1.000000;1.000000;1.000000;1.000000;0.054303;-0.054303;0.054303;1.000000
445613.86340149;5696583.20439919;472.72415020;128;119;104;30840.000000;1.000000;1.000000;1.000000;1.000000;0.089366;-0.089366;0.089366;1.000000
445613.64250191;5696583.19439896;472.73035004;98;90;79;23387.000000;1.000000;1.000000;1.000000;1.000000;-0.131893;0.131893;-0.131893;1.000000
445613.68000134;5696583.19559868;472.72975018;137;130;119;33410.000000;1.000000;1.000000;1.000000;1.000000;-0.094541;0.094541;-0.094541;1.000000
445613.86700161;5696583.16669853;472.72384979;168;159;146;41120.000000;1.000000;1.000000;1.000000;1.000000;0.093898;-0.093898;0.093898;1.000000
445613.61190136;5696583.04309853;472.73185017;183;180;171;46003.000000;1.000000;1.000000;1.000000;1.000000;-0.152996;0.152996;-0.152996;1.000000
445613.78180130;5696583.41489990;472.74154999;181;172;156;44204.000000;1.000000;1.000000;1.000000;1.000000;0.084900;-0.084900;0.084900;1.000000
445613.81940182;5696583.41609962;472.74095013;171;162;150;41891.000000;1.000000;1.000000;1.000000;1.000000;-0.086100;0.086100;-0.086100;1.000000
445613.48350151;5696583.40279968;472.74655010;132;127;111;32382.000000;1.000000;1.000000;1.000000;1.000000;0.072800;-0.072800;0.072800;1.000000
445613.45370110;5696583.43809898;472.75495007;129;124;108;31611.000000;1.000000;1.000000;1.000000;1.000000;0.108130;-0.108130;0.108130;1.000000
445613.38330181;5696583.36049850;472.75554993;175;173;159;44204.000000;1.000000;1.000000;1.000000;1.000000;0.031168;-0.031168;0.031168;1.000000
445613.42090137;5696583.36169823;472.75495007;167;165;155;42148.000000;1.000000;1.000000;1.000000;1.000000;0.031698;-0.031698;0.031698;1.000000
445613.35170181;5696583.24889954;472.75974991;28;25;29;6682.000000;1.000000;1.000000;1.000000;1.000000;-0.081100;0.081100;-0.081100;1.000000
445613.38690193;5696583.24809845;472.75435020;72;71;70;18247.000000;1.000000;1.000000;1.000000;1.000000;-0.082191;0.082191;-0.082191;1.000000
445613.82230194;5696583.52779968;472.75175001;164;160;149;40863.000000;1.000000;1.000000;1.000000;1.000000;-0.197800;0.197800;-0.197800;1.000000
445613.78490170;5696583.52659996;472.75005009;179;175;164;44718.000000;1.000000;1.000000;1.000000;1.000000;-0.196600;0.196600;-0.196600;1.000000
445613.49140175;5696583.43929871;472.75204994;174;169;153;43176.000000;1.000000;1.000000;1.000000;1.000000;0.109299;-0.109299;0.109299;1.000000
445613.56640156;5696583.44170006;472.75315001;152;147;134;37779.000000;1.000000;1.000000;1.000000;1.000000;0.111718;-0.111718;0.111718;1.000000
445613.67680176;5696583.44779976;472.75355007;180;172;156;44204.000000;1.000000;1.000000;1.000000;1.000000;0.117800;-0.117800;0.117800;1.000000
445613.84030159;5696583.15519913;472.72015001;145;136;123;35209.000000;1.000000;1.000000;1.000000;1.000000;0.067967;-0.067967;0.067967;1.000000
445613.80400188;5696583.11649902;472.72034981;202;191;178;49344.000000;1.000000;1.000000;1.000000;1.000000;0.034152;-0.034152;0.034152;1.000000
445613.83920200;5696583.11789902;472.71964981;159;148;136;38293.000000;1.000000;1.000000;1.000000;1.000000;0.069196;-0.069196;0.069196;1.000000
445613.76640137;5696583.11529930;472.72104980;213;201;187;52171.000000;1.000000;1.000000;1.000000;1.000000;-0.003300;0.003300;-0.003300;1.000000
445613.80550201;5696583.08139999;472.71775009;184;172;160;44718.000000;1.000000;1.000000;1.000000;1.000000;0.037839;-0.037839;0.037839;1.000000
445613.76770123;5696583.07790001;472.71824982;203;188;174;48830.000000;1.000000;1.000000;1.000000;1.000000;0.000330;-0.000330;0.000330;1.000000
445613.73140152;5696583.03919991;472.71854975;188;174;160;45232.000000;1.000000;1.000000;1.000000;1.000000;-0.033485;0.033485;-0.033485;1.000000
445613.55850132;5696583.40509995;472.74764969;171;166;153;42662.000000;1.000000;1.000000;1.000000;1.000000;0.075100;-0.075100;0.075100;1.000000
445613.30910118;5696583.33939941;472.75194981;162;159;143;40606.000000;1.000000;1.000000;1.000000;1.000000;0.009399;-0.009399;0.009399;1.000000
445613.31360157;5696583.26649864;472.75824978;35;37;37;9252.000000;1.000000;1.000000;1.000000;1.000000;-0.063501;0.063501;-0.063501;1.000000
445613.58600147;5696583.42589958;472.75145008;137;132;119;33924.000000;1.000000;1.000000;1.000000;1.000000;0.095900;-0.095900;0.095900;1.000000
445613.32780178;5696583.33999832;472.75274994;202;199;182;50886.000000;1.000000;1.000000;1.000000;1.000000;0.009998;-0.009998;0.009998;1.000000
445613.40950115;5696583.19219978;472.75934984;150;154;155;39064.000000;1.000000;1.000000;1.000000;1.000000;-0.137800;0.137800;-0.137800;1.000000
445613.66710194;5696583.05669983;472.72744991;137;129;117;33410.000000;1.000000;1.000000;1.000000;1.000000;-0.098751;0.098751;-0.098751;1.000000
445613.44700153;5696583.38970001;472.75175001;84;81;69;20560.000000;1.000000;1.000000;1.000000;1.000000;0.060185;-0.060185;0.060185;1.000000
445613.37530144;5696583.34959991;472.75505020;197;195;181;49858.000000;1.000000;1.000000;1.000000;1.000000;0.019600;-0.019600;0.019600;1.000000
445613.41060169;5696583.35099991;472.75435020;206;204;193;52171.000000;1.000000;1.000000;1.000000;1.000000;0.021000;-0.021000;0.021000;1.000000
445613.41450127;5696583.24089821;472.75084974;79;80;77;20303.000000;1.000000;1.000000;1.000000;1.000000;-0.089102;0.089102;-0.089102;1.000000
445613.81450184;5696583.51919945;472.75124981;164;160;149;40863.000000;1.000000;1.000000;1.000000;1.000000;-0.189199;0.189199;-0.189199;1.000000
445613.66900166;5696583.43919952;472.75304987;193;185;171;47545.000000;1.000000;1.000000;1.000000;1.000000;0.109200;-0.109200;0.109200;1.000000
445613.48130138;5696583.43089874;472.75145008;171;165;150;42405.000000;1.000000;1.000000;1.000000;1.000000;0.100899;-0.100899;0.100899;1.000000
445613.55630119;5696583.43329819;472.75255014;176;170;156;43690.000000;1.000000;1.000000;1.000000;1.000000;0.103298;-0.103298;0.103298;1.000000
445613.83010109;5696583.14679916;472.72195007;167;157;144;40606.000000;1.000000;1.000000;1.000000;1.000000;0.058310;-0.058310;0.058310;1.000000
445613.79390152;5696583.10809906;472.71985008;193;182;169;47031.000000;1.000000;1.000000;1.000000;1.000000;0.024595;-0.024595;0.024595;1.000000
445613.79510124;5696583.07069977;472.71714975;164;151;138;39321.000000;1.000000;1.000000;1.000000;1.000000;0.028126;-0.028126;0.028126;1.000000
445613.41060169;5696583.37899979;472.75934984;116;114;101;29041.000000;1.000000;1.000000;1.000000;1.000000;0.049000;-0.049000;0.049000;1.000000
445613.44630154;5696583.38270004;472.75395014;95;92;81;23387.000000;1.000000;1.000000;1.000000;1.000000;0.053153;-0.053153;0.053153;1.000000
445613.53050144;5696583.17889984;472.74375011;118;117;112;29812.000000;1.000000;1.000000;1.000000;1.000000;-0.151100;0.151100;-0.151100;1.000000
445613.46620186;5696583.39269836;472.74804976;109;105;91;26728.000000;1.000000;1.000000;1.000000;1.000000;0.062698;-0.062698;0.062698;1.000000
445613.32060154;5696583.31040009;472.74744989;72;67;58;17219.000000;1.000000;1.000000;1.000000;1.000000;-0.019600;0.019600;-0.019600;1.000000
445613.35810192;5696583.31159981;472.74685003;110;103;92;26471.000000;1.000000;1.000000;1.000000;1.000000;-0.018400;0.018400;-0.018400;1.000000
445613.52890118;5696583.41259964;472.74644997;184;178;163;45746.000000;1.000000;1.000000;1.000000;1.000000;0.082600;-0.082600;0.082600;1.000000
445613.56620129;5696583.41369827;472.75045015;170;165;152;42405.000000;1.000000;1.000000;1.000000;1.000000;0.083718;-0.083718;0.083718;1.000000
445613.56790169;5696583.37859924;472.74314978;191;187;175;47802.000000;1.000000;1.000000;1.000000;1.000000;0.048727;-0.048727;0.048727;1.000000
445613.71800144;5696583.38340004;472.74294998;143;136;115;34695.000000;1.000000;1.000000;1.000000;1.000000;0.053400;-0.053400;0.053400;1.000000
445613.31040199;5696583.32769974;472.74954988;101;96;82;24415.000000;1.000000;1.000000;1.000000;1.000000;-0.002300;0.002300;-0.002300;1.000000
445613.38480194;5696583.29519852;472.74314978;111;107;97;27499.000000;1.000000;1.000000;1.000000;1.000000;-0.035692;0.035692;-0.035692;1.000000
445613.34950169;5696583.29369934;472.74624969;63;58;52;14906.000000;1.000000;1.000000;1.000000;1.000000;-0.036301;0.036301;-0.036301;1.000000
445613.42690189;5696583.22339828;472.74884989;56;56;58;14392.000000;1.000000;1.000000;1.000000;1.000000;-0.106602;0.106602;-0.106602;1.000000
445613.46570118;5696583.18719872;472.74784996;139;139;136;35466.000000;1.000000;1.000000;1.000000;1.000000;-0.142801;0.142801;-0.142801;1.000000
445613.50330170;5696583.18839844;472.74494984;68;67;62;16962.000000;1.000000;1.000000;1.000000;1.000000;-0.141609;0.141609;-0.141609;1.000000
445613.46690186;5696583.14969833;472.74744989;42;42;43;10794.000000;1.000000;1.000000;1.000000;1.000000;-0.180302;0.180302;-0.180302;1.000000
445613.50220116;5696583.15109833;472.74445011;108;109;104;27756.000000;1.000000;1.000000;1.000000;1.000000;-0.178902;0.178902;-0.178902;1.000000
445613.61500175;5696583.15699966;472.74494984;184;181;172;46260.000000;1.000000;1.000000;1.000000;1.000000;-0.157006;0.157006;-0.157006;1.000000
445613.35780151;5696583.10839851;472.74674990;100;96;92;24672.000000;1.000000;1.000000;1.000000;1.000000;-0.168425;0.168425;-0.168425;1.000000
445613.59010132;5696583.52799995;472.76914980;82;75;53;19018.000000;1.000000;1.000000;1.000000;1.000000;0.198000;0.198000;-0.198000;1.000000
445613.49290188;5696583.17769821;472.74664976;180;182;176;46260.000000;1.000000;1.000000;1.000000;1.000000;-0.152302;0.152302;-0.152302;1.000000
445613.29940136;5696583.36589821;472.76114990;139;139;113;34952.000000;1.000000;1.000000;1.000000;1.000000;0.037027;-0.037027;0.037027;1.000000
445613.48860176;5696583.29979904;472.73164989;159;148;137;38550.000000;1.000000;1.000000;1.000000;1.000000;-0.030201;0.030201;-0.030201;1.000000
445613.52730186;5696583.26349838;472.73064997;169;162;151;41634.000000;1.000000;1.000000;1.000000;1.000000;-0.066502;0.066502;-0.066502;1.000000
445613.71540173;5696583.19699867;472.72664978;142;135;126;34952.000000;1.000000;1.000000;1.000000;1.000000;-0.059297;0.059297;-0.059297;1.000000
445613.79070194;5696583.20179947;472.72545006;182;175;163;44975.000000;1.000000;1.000000;1.000000;1.000000;0.017813;-0.017813;0.017813;1.000000
445613.79190166;5696583.16429909;472.72504999;181;174;163;44718.000000;1.000000;1.000000;1.000000;1.000000;0.019094;-0.019094;0.019094;1.000000
445613.68120201;5696583.15809830;472.72935011;182;177;166;45489.000000;1.000000;1.000000;1.000000;1.000000;-0.091003;0.091003;-0.091003;1.000000
445613.71650131;5696583.15959938;472.72625019;186;180;169;46260.000000;1.000000;1.000000;1.000000;1.000000;-0.055867;0.055867;-0.055867;1.000000
445613.71800144;5696583.12439926;472.72594978;179;169;157;43690.000000;1.000000;1.000000;1.000000;1.000000;-0.052174;0.052174;-0.052174;1.000000
445613.42620190;5696583.19310005;472.75315001;153;155;156;39578.000000;1.000000;1.000000;1.000000;1.000000;-0.136900;0.136900;-0.136900;1.000000
445613.68510159;5696583.04799850;472.72585012;158;148;135;38293.000000;1.000000;1.000000;1.000000;1.000000;-0.080244;0.080244;-0.080244;1.000000
445613.27850159;5696583.18809898;472.75344994;150;149;146;38036.000000;1.000000;1.000000;1.000000;1.000000;-0.089125;0.089125;-0.089125;1.000000
445613.82940109;5696583.16549881;472.72445013;169;161;150;41634.000000;1.000000;1.000000;1.000000;1.000000;0.056445;-0.056445;0.056445;1.000000
445613.35950191;5696583.27649887;472.74644997;27;23;22;6168.000000;1.000000;1.000000;1.000000;1.000000;-0.053501;0.053501;-0.053501;1.000000
445613.89760120;5696583.50449951;472.74554970;188;180;170;46517.000000;1.000000;1.000000;1.000000;1.000000;-0.174500;0.174500;-0.174500;1.000000
445613.86350163;5696583.46559914;472.74585011;157;149;137;38550.000000;1.000000;1.000000;1.000000;1.000000;-0.135599;0.135599;-0.135599;1.000000
445613.86480148;5696583.42819984;472.74314978;142;135;125;34952.000000;1.000000;1.000000;1.000000;1.000000;-0.098200;0.098200;-0.098200;1.000000
445613.78960140;5696583.42349823;472.74204971;181;172;159;44461.000000;1.000000;1.000000;1.000000;1.000000;-0.093498;0.093498;-0.093498;1.000000
445613.71440132;5696583.23679932;472.72704985;196;189;179;48830.000000;1.000000;1.000000;1.000000;1.000000;-0.073806;0.073806;-0.073806;1.000000
445613.78960140;5696583.23929985;472.72354986;202;195;182;50115.000000;1.000000;1.000000;1.000000;1.000000;0.047633;-0.047633;0.047633;1.000000
445613.68250187;5696583.12069901;472.72664978;140;133;121;34181.000000;1.000000;1.000000;1.000000;1.000000;-0.087373;0.087373;-0.087373;1.000000
445613.75560196;5696583.12559898;472.72295000;183;172;159;44461.000000;1.000000;1.000000;1.000000;1.000000;-0.014721;0.014721;-0.014721;1.000000
445613.64610203;5696583.08199890;472.72685005;164;159;148;40863.000000;1.000000;1.000000;1.000000;1.000000;-0.121288;0.121288;-0.121288;1.000000
445613.68370159;5696583.08319862;472.72625019;179;170;159;43947.000000;1.000000;1.000000;1.000000;1.000000;-0.083837;0.083837;-0.083837;1.000000
445613.49440201;5696583.14250000;472.74394991;118;118;115;30069.000000;1.000000;1.000000;1.000000;1.000000;-0.187500;0.187500;-0.187500;1.000000
445613.75310143;5696583.20059975;472.72604992;160;154;143;39578.000000;1.000000;1.000000;1.000000;1.000000;-0.022486;0.022486;-0.022486;1.000000
445613.75410183;5696583.16079910;472.72564985;177;169;158;43690.000000;1.000000;1.000000;1.000000;1.000000;-0.018414;0.018414;-0.018414;1.000000
445613.64740189;5696583.04679878;472.72874977;178;173;162;44461.000000;1.000000;1.000000;1.000000;1.000000;-0.117795;0.117795;-0.117795;1.000000
445613.86220177;5696583.24179848;472.72685005;197;189;176;48573.000000;1.000000;1.000000;1.000000;1.000000;0.088202;-0.088202;0.088202;1.000000
445613.34650143;5696583.14429863;472.76065018;123;122;119;31097.000000;1.000000;1.000000;1.000000;1.000000;-0.157125;0.157125;-0.157125;1.000000
445613.43590172;5696583.24139984;472.74254992;81;79;76;20303.000000;1.000000;1.000000;1.000000;1.000000;-0.088600;0.088600;-0.088600;1.000000
445613.43680199;5696583.20379837;472.74904968;81;81;82;20817.000000;1.000000;1.000000;1.000000;1.000000;-0.126202;0.126202;-0.126202;1.000000
445613.36780174;5696583.08879860;472.74464991;101;98;94;25186.000000;1.000000;1.000000;1.000000;1.000000;-0.178425;0.178425;-0.178425;1.000000
445613.53200157;5696583.14369972;472.74335005;194;193;186;49344.000000;1.000000;1.000000;1.000000;1.000000;-0.186300;0.186300;-0.186300;1.000000
445613.40130146;5696583.40769966;472.76625015;97;98;74;24415.000000;1.000000;1.000000;1.000000;1.000000;0.077700;-0.077700;0.077700;1.000000
445613.32750137;5696583.36789902;472.76475002;171;172;147;43176.000000;1.000000;1.000000;1.000000;1.000000;0.037899;-0.037899;0.037899;1.000000
445613.29340179;5696583.25420006;472.76655008;191;193;192;49344.000000;1.000000;1.000000;1.000000;1.000000;-0.076493;0.076493;-0.076493;1.000000
445613.33100136;5696583.25319870;472.76125004;27;25;28;6425.000000;1.000000;1.000000;1.000000;1.000000;-0.076801;0.076801;-0.076801;1.000000
445613.29700191;5696583.21659859;472.76384975;196;198;195;50629.000000;1.000000;1.000000;1.000000;1.000000;-0.107625;0.107625;-0.107625;1.000000
445613.31710155;5696583.15179832;472.75474979;131;128;124;32896.000000;1.000000;1.000000;1.000000;1.000000;-0.127725;0.127725;-0.127725;1.000000
445613.56950195;5696583.14489944;472.74274971;168;164;155;42148.000000;1.000000;1.000000;1.000000;1.000000;-0.185131;0.185131;-0.185131;1.000000
445613.74100121;5696583.27169998;472.72874977;193;187;175;48059.000000;1.000000;1.000000;1.000000;1.000000;-0.061758;0.061758;-0.061758;1.000000
445613.77640160;5696583.27549942;472.72804977;177;169;156;43433.000000;1.000000;1.000000;1.000000;1.000000;-0.054501;0.054501;-0.054501;1.000000
445613.81390198;5696583.27669914;472.72744991;184;175;161;45232.000000;1.000000;1.000000;1.000000;1.000000;0.053301;-0.053301;0.053301;1.000000
445613.51790150;5696583.26199921;472.73014977;172;165;153;42405.000000;1.000000;1.000000;1.000000;1.000000;-0.068001;0.068001;-0.068001;1.000000
445613.81760128;5696583.23899849;472.72475006;184;177;164;45489.000000;1.000000;1.000000;1.000000;1.000000;0.062143;-0.062143;0.062143;1.000000
445613.55670174;5696583.22799881;472.73154976;79;72;62;18761.000000;1.000000;1.000000;1.000000;1.000000;-0.102001;0.102001;-0.102001;1.000000
445613.78120144;5696583.20029839;472.72504999;161;154;143;39578.000000;1.000000;1.000000;1.000000;1.000000;0.009029;-0.009029;0.009029;1.000000
445613.81860168;5696583.20150002;472.72674992;171;163;150;41891.000000;1.000000;1.000000;1.000000;1.000000;0.044578;-0.044578;0.044578;1.000000
445613.85630138;5696583.20269974;472.72375013;133;123;108;31868.000000;1.000000;1.000000;1.000000;1.000000;0.082123;-0.082123;0.082123;1.000000
445613.63310154;5696583.19520004;472.73224976;108;99;89;25700.000000;1.000000;1.000000;1.000000;1.000000;-0.134800;0.134800;-0.134800;1.000000
445613.66830166;5696583.19669922;472.73154976;143;136;125;34952.000000;1.000000;1.000000;1.000000;1.000000;-0.106287;0.106287;-0.106287;1.000000
445613.67330177;5696583.12150009;472.72615005;139;132;120;33924.000000;1.000000;1.000000;1.000000;1.000000;-0.096605;0.096605;-0.096605;1.000000
445613.78370197;5696583.12539871;472.72195007;211;201;188;51914.000000;1.000000;1.000000;1.000000;1.000000;0.013337;-0.013337;0.013337;1.000000
445613.63680180;5696583.08279999;472.72874977;134;129;118;33153.000000;1.000000;1.000000;1.000000;1.000000;-0.130620;0.130620;-0.130620;1.000000
445613.71330173;5696583.04779823;472.72244980;189;176;161;45746.000000;1.000000;1.000000;1.000000;1.000000;-0.052086;0.052086;-0.052086;1.000000
445613.60260113;5696583.04389961;472.73134996;184;180;171;46260.000000;1.000000;1.000000;1.000000;1.000000;-0.162328;0.162328;-0.162328;1.000000
445613.29360111;5696583.30109985;472.75544979;71;67;62;17219.000000;1.000000;1.000000;1.000000;1.000000;-0.030740;0.030740;-0.030740;1.000000
445613.67770203;5696583.42909821;472.74634983;191;182;165;46774.000000;1.000000;1.000000;1.000000;1.000000;0.099098;-0.099098;0.099098;1.000000
445613.75390156;5696583.39399918;472.74704983;111;102;81;26214.000000;1.000000;1.000000;1.000000;1.000000;0.066354;-0.066354;0.066354;1.000000
445613.57650192;5696583.39649971;472.74604990;167;162;150;41634.000000;1.000000;1.000000;1.000000;1.000000;0.066500;-0.066500;0.066500;1.000000
445613.65190132;5696583.40119942;472.74254992;155;146;131;37779.000000;1.000000;1.000000;1.000000;1.000000;0.071199;-0.071199;0.071199;1.000000
445613.46760185;5696583.35529907;472.74294998;180;175;165;44975.000000;1.000000;1.000000;1.000000;1.000000;0.025299;-0.025299;0.025299;1.000000
445613.39350136;5696583.31309898;472.74375011;106;99;89;25700.000000;1.000000;1.000000;1.000000;1.000000;-0.016904;0.016904;-0.016904;1.000000
445613.63140114;5696583.43569954;472.75134995;194;186;174;48059.000000;1.000000;1.000000;1.000000;1.000000;0.105700;-0.105700;0.105700;1.000000
445613.30030163;5696583.34719856;472.75395014;139;135;117;34438.000000;1.000000;1.000000;1.000000;1.000000;0.019052;-0.019052;0.019052;1.000000
445613.33550175;5696583.34859856;472.75554993;208;206;188;52428.000000;1.000000;1.000000;1.000000;1.000000;0.018599;-0.018599;0.018599;1.000000
445613.30160149;5696583.30979927;472.75124981;79;74;65;19018.000000;1.000000;1.000000;1.000000;1.000000;-0.021349;0.021349;-0.021349;1.000000
445613.41770180;5696583.20319946;472.75525000;73;76;78;19275.000000;1.000000;1.000000;1.000000;1.000000;-0.126801;0.126801;-0.126801;1.000000
445613.41890152;5696583.16569908;472.75484993;74;75;76;19018.000000;1.000000;1.000000;1.000000;1.000000;-0.164301;0.164301;-0.164301;1.000000
445613.30860146;5696583.16189964;472.75675013;179;177;172;45489.000000;1.000000;1.000000;1.000000;1.000000;-0.119225;0.119225;-0.119225;1.000000
445613.72230156;5696583.06799896;472.72074987;188;175;161;45489.000000;1.000000;1.000000;1.000000;1.000000;-0.044364;0.044364;-0.044364;1.000000
445613.86770161;5696583.14799889;472.72135021;152;143;130;37008.000000;1.000000;1.000000;1.000000;1.000000;0.095763;-0.095763;0.095763;1.000000
445613.83140190;5696583.10929878;472.71924974;187;176;164;45489.000000;1.000000;1.000000;1.000000;1.000000;0.061948;-0.061948;0.061948;1.000000
445613.83250149;5696583.07179840;472.72114994;174;164;153;42405.000000;1.000000;1.000000;1.000000;1.000000;0.065385;-0.065385;0.065385;1.000000
445613.47220142;5696583.20529945;472.74375011;69;66;64;16962.000000;1.000000;1.000000;1.000000;1.000000;-0.124701;0.124701;-0.124701;1.000000
445613.32670124;5696583.12529953;472.74554970;124;120;115;30840.000000;1.000000;1.000000;1.000000;1.000000;-0.137324;0.137324;-0.137324;1.000000
445613.32460125;5696583.44949921;472.79124977;136;153;106;36494.000000;1.000000;1.000000;1.000000;1.000000;0.119499;-0.119499;0.119499;1.000000
445613.59460171;5696583.44369896;472.75444986;179;172;160;44204.000000;1.000000;1.000000;1.000000;1.000000;0.113699;-0.113699;0.113699;1.000000
445613.62980183;5696583.44509895;472.75374987;202;194;181;49858.000000;1.000000;1.000000;1.000000;1.000000;0.115099;-0.115099;0.115099;1.000000
445613.51970108;5696583.44139870;472.75105001;153;148;134;37779.000000;1.000000;1.000000;1.000000;1.000000;0.111399;-0.111399;0.111399;1.000000
445613.44550140;5696583.39919861;472.75414993;105;101;87;25700.000000;1.000000;1.000000;1.000000;1.000000;0.069469;-0.069469;0.069469;1.000000
445613.30110176;5696583.35649879;472.75645020;144;140;118;35466.000000;1.000000;1.000000;1.000000;1.000000;0.027510;-0.027510;0.027510;1.000000
445613.30350121;5696583.28149994;472.75565006;83;82;79;20817.000000;1.000000;1.000000;1.000000;1.000000;-0.048756;0.048756;-0.048756;1.000000
445613.41860111;5696583.21239861;472.75535013;44;45;47;11308.000000;1.000000;1.000000;1.000000;1.000000;-0.117601;0.117601;-0.117601;1.000000
445613.45630177;5696583.13889893;472.75154974;47;47;50;12079.000000;1.000000;1.000000;1.000000;1.000000;-0.191101;0.191101;-0.191101;1.000000
445613.43550117;5696583.44669922;472.76354982;169;165;146;42148.000000;1.000000;1.000000;1.000000;1.000000;0.116699;-0.116699;0.116699;1.000000
445613.36290176;5696583.36929901;472.76165010;168;169;149;42662.000000;1.000000;1.000000;1.000000;1.000000;0.039299;-0.039299;0.039299;1.000000
445613.75850113;5696583.07869919;472.71784975;200;186;172;48316.000000;1.000000;1.000000;1.000000;1.000000;-0.008902;0.008902;-0.008902;1.000000
445613.40750130;5696583.22269829;472.76424982;66;68;69;17219.000000;1.000000;1.000000;1.000000;1.000000;-0.107302;0.107302;-0.107302;1.000000
445613.70610149;5696583.19789894;472.72625019;146;140;130;35980.000000;1.000000;1.000000;1.000000;1.000000;-0.068635;0.068635;-0.068635;1.000000
445613.40980156;5696583.14769943;472.76585009;104;104;105;26728.000000;1.000000;1.000000;1.000000;1.000000;-0.182301;0.182301;-0.182301;1.000000
445613.78240116;5696583.16279991;472.72464993;181;174;163;44718.000000;1.000000;1.000000;1.000000;1.000000;0.009705;-0.009705;0.009705;1.000000
445613.70960148;5696583.16019829;472.72594978;184;178;168;45746.000000;1.000000;1.000000;1.000000;1.000000;-0.062790;0.062790;-0.062790;1.000000
445613.70850189;5696583.12299927;472.72545006;167;158;145;40863.000000;1.000000;1.000000;1.000000;1.000000;-0.061567;0.061567;-0.061567;1.000000
445613.74610146;5696583.12419899;472.72254993;195;184;170;47545.000000;1.000000;1.000000;1.000000;1.000000;-0.024116;0.024116;-0.024116;1.000000
445613.67560108;5696583.04659851;472.72545006;127;119;106;30583.000000;1.000000;1.000000;1.000000;1.000000;-0.089638;0.089638;-0.089638;1.000000
445613.85140141;5696583.27779968;472.72914984;189;181;166;46517.000000;1.000000;1.000000;1.000000;1.000000;0.052200;-0.052200;0.052200;1.000000
445613.86130150;5696583.05509956;472.72225000;174;167;156;42919.000000;1.000000;1.000000;1.000000;1.000000;0.095170;-0.095170;0.095170;1.000000
445613.81310184;5696583.52859886;472.75134995;167;163;153;41891.000000;1.000000;1.000000;1.000000;1.000000;-0.198599;0.198599;-0.198599;1.000000
445613.83100136;5696583.15599831;472.72205021;154;145;132;37522.000000;1.000000;1.000000;1.000000;1.000000;0.058635;-0.058635;0.058635;1.000000
445613.83450134;5696583.04359825;472.72095015;146;138;127;35723.000000;1.000000;1.000000;1.000000;1.000000;0.069140;-0.069140;0.069140;1.000000
445613.59380157;5696583.43449982;472.75194981;160;154;141;39578.000000;1.000000;1.000000;1.000000;1.000000;0.104500;-0.104500;0.104500;1.000000
445613.75840195;5696583.10439880;472.72055008;200;187;172;48573.000000;1.000000;1.000000;1.000000;1.000000;-0.010604;0.010604;-0.010604;1.000000
445613.79630192;5696583.03319939;472.71674969;186;175;163;45232.000000;1.000000;1.000000;1.000000;1.000000;0.031663;-0.031663;0.031663;1.000000
445613.76110180;5696583.03179939;472.71744968;184;172;159;44718.000000;1.000000;1.000000;1.000000;1.000000;-0.003381;0.003381;-0.003381;1.000000
445613.87080200;5696583.49299820;472.74414970;199;192;179;49344.000000;1.000000;1.000000;1.000000;1.000000;-0.162998;0.162998;-0.162998;1.000000
445613.83800133;5696583.41659935;472.74414970;184;175;163;45232.000000;1.000000;1.000000;1.000000;1.000000;-0.086599;0.086599;-0.086599;1.000000
445613.85500153;5696583.24019821;472.72644999;197;189;176;48573.000000;1.000000;1.000000;1.000000;1.000000;0.089802;-0.089802;0.089802;1.000000
445613.70480164;5696583.23539932;472.72895004;209;202;192;52171.000000;1.000000;1.000000;1.000000;1.000000;-0.081091;0.081091;-0.081091;1.000000
445613.74250134;5696583.23659904;472.72604992;143;136;126;35209.000000;1.000000;1.000000;1.000000;1.000000;-0.053257;0.053257;-0.053257;1.000000
445613.74350174;5696583.19909866;472.72795012;154;148;138;38036.000000;1.000000;1.000000;1.000000;1.000000;-0.031524;0.031524;-0.031524;1.000000
445613.74480160;5696583.16159828;472.72524979;192;185;174;47545.000000;1.000000;1.000000;1.000000;1.000000;-0.027746;0.027746;-0.027746;1.000000
445613.81990154;5696583.16399963;472.72405006;169;162;151;41634.000000;1.000000;1.000000;1.000000;1.000000;0.047058;-0.047058;0.047058;1.000000
445613.67440136;5696583.08409889;472.72585012;185;177;166;45746.000000;1.000000;1.000000;1.000000;1.000000;-0.093175;0.093175;-0.093175;1.000000
445613.38480194;5696583.35109909;472.75544979;210;208;196;53199.000000;1.000000;1.000000;1.000000;1.000000;0.022538;-0.022538;0.022538;1.000000
445613.78000172;5696583.23779877;472.72545006;187;180;167;46260.000000;1.000000;1.000000;1.000000;1.000000;0.044009;-0.044009;0.044009;1.000000
445613.67190178;5696583.15899857;472.73124983;190;184;173;47288.000000;1.000000;1.000000;1.000000;1.000000;-0.100342;0.100342;-0.100342;1.000000
445613.63790138;5696583.04529961;472.73064997;172;168;159;43176.000000;1.000000;1.000000;1.000000;1.000000;-0.127184;0.127184;-0.127184;1.000000
445613.42010124;5696583.35249908;472.75245001;210;208;198;53199.000000;1.000000;1.000000;1.000000;1.000000;0.022499;-0.022499;0.022499;1.000000
445613.38860138;5696583.24319847;472.75904991;69;69;70;17733.000000;1.000000;1.000000;1.000000;1.000000;-0.086956;0.086956;-0.086956;1.000000
445613.86150177;5696583.52179916;472.75115015;201;196;185;50372.000000;1.000000;1.000000;1.000000;1.000000;-0.191799;0.191799;-0.191799;1.000000
445613.82380112;5696583.51829918;472.75164988;160;155;144;39835.000000;1.000000;1.000000;1.000000;1.000000;-0.188299;0.188299;-0.188299;1.000000
445613.67840202;5696583.43829926;472.75115015;190;181;166;46774.000000;1.000000;1.000000;1.000000;1.000000;0.108299;-0.108299;0.108299;1.000000
445613.56550129;5696583.43239983;472.75295021;161;155;142;39835.000000;1.000000;1.000000;1.000000;1.000000;0.102406;-0.102406;0.102406;1.000000
445613.83950146;5696583.14589890;472.72004988;165;156;142;40349.000000;1.000000;1.000000;1.000000;1.000000;0.067749;-0.067749;0.067749;1.000000
445613.76570137;5696583.10609825;472.71854975;206;193;178;50115.000000;1.000000;1.000000;1.000000;1.000000;-0.003425;0.003425;-0.003425;1.000000
445613.80310162;5696583.10729988;472.72025015;187;177;163;45746.000000;1.000000;1.000000;1.000000;1.000000;0.033827;-0.033827;0.033827;1.000000
445613.76690109;5696583.06859978;472.71814968;206;193;178;50115.000000;1.000000;1.000000;1.000000;1.000000;0.000111;-0.000111;0.000111;1.000000
445613.80460175;5696583.07209976;472.71754982;188;177;165;45746.000000;1.000000;1.000000;1.000000;1.000000;0.037520;-0.037520;0.037520;1.000000
445613.73300179;5696583.03199966;472.71854975;184;171;159;44461.000000;1.000000;1.000000;1.000000;1.000000;-0.031439;0.031439;-0.031439;1.000000
445613.57730110;5696583.40569885;472.74854996;171;165;153;42405.000000;1.000000;1.000000;1.000000;1.000000;0.075699;-0.075699;0.075699;1.000000
445613.65050133;5696583.41069992;472.74254992;161;152;139;39321.000000;1.000000;1.000000;1.000000;1.000000;0.080700;-0.080700;0.080700;1.000000
445613.34770115;5696583.12789925;472.75344994;144;141;137;36237.000000;1.000000;1.000000;1.000000;1.000000;-0.158324;0.158324;-0.158324;1.000000
445613.75760181;5696583.06950005;472.71775009;212;198;184;51400.000000;1.000000;1.000000;1.000000;1.000000;-0.009226;0.009226;-0.009226;1.000000
445613.46610172;5696583.36469849;472.74305012;183;179;168;45746.000000;1.000000;1.000000;1.000000;1.000000;0.034698;-0.034698;0.034698;1.000000
445613.62350185;5696583.14689835;472.74284985;191;188;178;48059.000000;1.000000;1.000000;1.000000;1.000000;-0.147893;0.147893;-0.147893;1.000000
445613.44560154;5696583.42709930;472.75684978;139;137;120;34695.000000;1.000000;1.000000;1.000000;1.000000;0.097299;-0.097299;0.097299;1.000000
445613.80340202;5696583.13529976;472.72055008;195;186;174;48059.000000;1.000000;1.000000;1.000000;1.000000;0.032381;-0.032381;0.032381;1.000000
445613.83370121;5696583.03429993;472.72074987;149;141;130;36494.000000;1.000000;1.000000;1.000000;1.000000;0.068921;-0.068921;0.068921;1.000000
445613.44640167;5696583.43639954;472.75925018;132;127;111;32382.000000;1.000000;1.000000;1.000000;1.000000;0.106631;-0.106631;0.106631;1.000000
445613.41980179;5696583.17499931;472.75495007;149;151;151;38550.000000;1.000000;1.000000;1.000000;1.000000;-0.155001;0.155001;-0.155001;1.000000
445613.75700195;5696583.11389931;472.72055008;206;193;179;50115.000000;1.000000;1.000000;1.000000;1.000000;-0.012594;0.012594;-0.012594;1.000000
445613.40990170;5696583.39769943;472.76184990;147;146;129;37008.000000;1.000000;1.000000;1.000000;1.000000;0.067699;-0.067699;0.067699;1.000000
445613.72290142;5696583.07499893;472.72085001;188;175;161;45489.000000;1.000000;1.000000;1.000000;1.000000;-0.044202;0.044202;-0.044202;1.000000
445613.83350189;5696583.08109863;472.71894981;179;169;158;43690.000000;1.000000;1.000000;1.000000;1.000000;0.065803;-0.065803;0.065803;1.000000
445613.79720123;5696583.04249962;472.71684982;187;175;164;45489.000000;1.000000;1.000000;1.000000;1.000000;0.031981;-0.031981;0.031981;1.000000
445613.33120163;5696583.09689911;472.74305012;142;138;132;35466.000000;1.000000;1.000000;1.000000;1.000000;-0.141825;0.141825;-0.141825;1.000000
445613.34200199;5696583.24739845;472.76394989;23;23;26;5911.000000;1.000000;1.000000;1.000000;1.000000;-0.082602;0.082602;-0.082602;1.000000
445613.37940128;5696583.24629982;472.76095011;54;54;55;13878.000000;1.000000;1.000000;1.000000;1.000000;-0.083738;0.083738;-0.083738;1.000000
445613.30570133;5696583.20879944;472.76415016;203;205;201;52171.000000;1.000000;1.000000;1.000000;1.000000;-0.116324;0.116324;-0.116324;1.000000
445613.42070110;5696583.13970001;472.76625015;84;85;87;21588.000000;1.000000;1.000000;1.000000;1.000000;-0.190300;0.190300;-0.190300;1.000000
445613.82340153;5696583.30379875;472.73045017;170;165;151;42148.000000;1.000000;1.000000;1.000000;1.000000;0.026201;-0.026201;0.026201;1.000000
445613.74830158;5696583.30139931;472.73175003;187;181;170;46517.000000;1.000000;1.000000;1.000000;1.000000;-0.036850;0.036850;-0.036850;1.000000
445613.48770149;5696583.29049881;472.73145010;139;129;118;33410.000000;1.000000;1.000000;1.000000;1.000000;-0.039501;0.039501;-0.039501;1.000000
445613.74970158;5696583.26389893;472.72664978;189;181;169;46774.000000;1.000000;1.000000;1.000000;1.000000;-0.069627;0.069627;-0.069627;1.000000
445613.78720196;5696583.26509865;472.72604992;177;168;155;43433.000000;1.000000;1.000000;1.000000;1.000000;0.064901;-0.064901;0.064901;1.000000
445613.82470139;5696583.26629837;472.72774984;190;181;167;46774.000000;1.000000;1.000000;1.000000;1.000000;0.063702;-0.063702;0.063702;1.000000
445613.67800148;5696583.22379883;472.72994997;172;166;155;42662.000000;1.000000;1.000000;1.000000;1.000000;-0.101068;0.101068;-0.101068;1.000000
445613.75090130;5696583.22649963;472.72625019;115;108;98;28013.000000;1.000000;1.000000;1.000000;1.000000;-0.040137;0.040137;-0.040137;1.000000
445613.82620152;5696583.23119934;472.72504999;169;161;147;41377.000000;1.000000;1.000000;1.000000;1.000000;0.063521;-0.063521;0.063521;1.000000
445613.60290154;5696583.22139938;472.73115017;87;79;69;20560.000000;1.000000;1.000000;1.000000;1.000000;-0.108844;0.108844;-0.108844;1.000000
445613.78870113;5696583.22999962;472.72335007;195;189;177;48573.000000;1.000000;1.000000;1.000000;1.000000;0.038582;-0.038582;0.038582;1.000000
445613.86490162;5696583.19489868;472.72405006;121;110;95;28527.000000;1.000000;1.000000;1.000000;1.000000;0.090273;-0.090273;0.090273;1.000000
445613.64160164;5696583.18509872;472.73014977;115;106;95;27499.000000;1.000000;1.000000;1.000000;1.000000;-0.132211;0.132211;-0.132211;1.000000
445613.67920120;5696583.18629845;472.72954990;121;114;103;29298.000000;1.000000;1.000000;1.000000;1.000000;-0.094759;0.094759;-0.094759;1.000000
445613.79210194;5696583.19229897;472.72545006;168;162;149;41634.000000;1.000000;1.000000;1.000000;1.000000;0.017547;-0.017547;0.017547;1.000000
445613.68160160;5696583.11139877;472.72644999;159;151;139;39064.000000;1.000000;1.000000;1.000000;1.000000;-0.087692;0.087692;-0.087692;1.000000
445613.79710110;5696583.48109825;472.74774982;122;113;98;29298.000000;1.000000;1.000000;1.000000;1.000000;-0.151098;0.151098;-0.151098;1.000000
445613.87470158;5696583.40859993;472.74335005;154;149;138;38293.000000;1.000000;1.000000;1.000000;1.000000;-0.078600;0.078600;-0.078600;1.000000
445613.83720119;5696583.40739830;472.74165012;204;196;184;50629.000000;1.000000;1.000000;1.000000;1.000000;-0.077398;0.077398;-0.077398;1.000000
445613.40850170;5696583.43509872;472.76685001;147;148;121;37008.000000;1.000000;1.000000;1.000000;1.000000;0.105099;-0.105099;0.105099;1.000000
445613.33630188;5696583.36009987;472.76034977;189;188;167;47545.000000;1.000000;1.000000;1.000000;1.000000;0.030100;-0.030100;0.030100;1.000000
445613.71430119;5696583.26249893;472.72975018;186;179;168;46003.000000;1.000000;1.000000;1.000000;1.000000;-0.067501;0.067501;-0.067501;1.000000
445613.41380127;5696583.21279915;472.75985004;42;45;46;11308.000000;1.000000;1.000000;1.000000;1.000000;-0.117201;0.117201;-0.117201;1.000000
445613.71680172;5696583.18759926;472.72664978;123;117;107;30069.000000;1.000000;1.000000;1.000000;1.000000;-0.057313;0.057313;-0.057313;1.000000
445613.68060120;5696583.15119942;472.72924997;194;188;177;48316.000000;1.000000;1.000000;1.000000;1.000000;-0.091173;0.091173;-0.091173;1.000000
445613.71800144;5696583.15009888;472.72625019;167;161;149;41377.000000;1.000000;1.000000;1.000000;1.000000;-0.053777;0.053777;-0.053777;1.000000
445613.79100140;5696583.15499886;472.72494986;174;167;155;42919.000000;1.000000;1.000000;1.000000;1.000000;0.018775;-0.018775;0.018775;1.000000
445613.71950157;5696583.11499985;472.72354986;179;169;157;43690.000000;1.000000;1.000000;1.000000;1.000000;-0.050090;0.050090;-0.050090;1.000000
445613.68310173;5696583.07629974;472.72604992;156;147;135;38036.000000;1.000000;1.000000;1.000000;1.000000;-0.084005;0.084005;-0.084005;1.000000
445613.68660172;5696583.03859909;472.72585012;159;150;136;38807.000000;1.000000;1.000000;1.000000;1.000000;-0.078160;0.078160;-0.078160;1.000000
445613.82740124;5696583.19369896;472.72464993;137;129;117;33410.000000;1.000000;1.000000;1.000000;1.000000;0.052770;-0.052770;0.052770;1.000000
445613.34590157;5696583.13509949;472.75584986;134;132;127;33924.000000;1.000000;1.000000;1.000000;1.000000;-0.156525;0.156525;-0.156525;1.000000
445613.37220200;5696583.39639862;472.76714994;123;124;97;30840.000000;1.000000;1.000000;1.000000;1.000000;0.066399;-0.066399;0.066399;1.000000
445613.86210163;5696583.26750000;472.72944977;200;192;178;49344.000000;1.000000;1.000000;1.000000;1.000000;0.062500;-0.062500;0.062500;1.000000
445613.86360176;5696583.23229988;472.72674992;189;181;167;46517.000000;1.000000;1.000000;1.000000;1.000000;0.096803;-0.096803;0.096803;1.000000
445613.71560200;5696583.22509964;472.72704985;196;189;180;48830.000000;1.000000;1.000000;1.000000;1.000000;-0.066657;0.066657;-0.066657;1.000000
445613.64770134;5696583.07479866;472.72914984;161;156;145;40092.000000;1.000000;1.000000;1.000000;1.000000;-0.119243;0.119243;-0.119243;1.000000
445613.75440128;5696583.18879898;472.72594978;145;139;128;35723.000000;1.000000;1.000000;1.000000;1.000000;-0.019862;0.019862;-0.019862;1.000000
445613.30930145;5696583.17109879;472.76154997;172;171;167;43690.000000;1.000000;1.000000;1.000000;1.000000;-0.119925;0.119925;-0.119925;1.000000
445613.75580128;5696583.15359886;472.72564985;168;160;149;41377.000000;1.000000;1.000000;1.000000;1.000000;-0.016269;0.016269;-0.016269;1.000000
445613.64630135;5696583.10999878;472.72944977;129;122;110;31354.000000;1.000000;1.000000;1.000000;1.000000;-0.122836;0.122836;-0.122836;1.000000
445613.52660187;5696583.25420006;472.72814991;162;155;145;39835.000000;1.000000;1.000000;1.000000;1.000000;-0.075800;0.075800;-0.075800;1.000000
445613.40050133;5696583.39849861;472.76604988;146;145;126;36751.000000;1.000000;1.000000;1.000000;1.000000;0.068499;-0.068499;0.068499;1.000000
445613.29490192;5696583.24479874;472.76644995;202;205;204;52171.000000;1.000000;1.000000;1.000000;1.000000;-0.086011;0.086011;-0.086011;1.000000
445613.33270176;5696583.24829872;472.76585009;31;29;33;7710.000000;1.000000;1.000000;1.000000;1.000000;-0.081701;0.081701;-0.081701;1.000000
445613.72950180;5696583.09539993;472.72144987;186;174;160;45232.000000;1.000000;1.000000;1.000000;1.000000;-0.038887;0.038887;-0.038887;1.000000
445613.76710136;5696583.09659966;472.71845009;189;175;160;45489.000000;1.000000;1.000000;1.000000;1.000000;-0.001435;0.001435;-0.001435;1.000000
445613.83980186;5696583.09919937;472.71945002;172;161;148;41634.000000;1.000000;1.000000;1.000000;1.000000;0.070962;-0.070962;0.070962;1.000000
445613.51600178;5696583.29259880;472.73045017;171;163;151;42148.000000;1.000000;1.000000;1.000000;1.000000;-0.037401;0.037401;-0.037401;1.000000
445613.77800186;5696583.26599892;472.72564985;187;179;165;46003.000000;1.000000;1.000000;1.000000;1.000000;-0.064001;0.064001;-0.064001;1.000000
445613.55470188;5696583.25630005;472.73175003;167;160;149;41120.000000;1.000000;1.000000;1.000000;1.000000;-0.073700;0.073700;-0.073700;1.000000
445613.81540115;5696583.26719864;472.72734978;191;182;169;47031.000000;1.000000;1.000000;1.000000;1.000000;0.062801;-0.062801;0.062801;1.000000
445613.81670197;5696583.22969826;472.72464993;156;149;137;38293.000000;1.000000;1.000000;1.000000;1.000000;0.055109;-0.055109;0.055109;1.000000
445613.55590160;5696583.21879967;472.73134996;64;57;48;14906.000000;1.000000;1.000000;1.000000;1.000000;-0.111200;0.111200;-0.111200;1.000000
445613.74390133;5696583.22709854;472.72594978;123;116;105;29812.000000;1.000000;1.000000;1.000000;1.000000;-0.045075;0.045075;-0.045075;1.000000
445613.77920158;5696583.22849854;472.72524979;181;175;163;44975.000000;1.000000;1.000000;1.000000;1.000000;0.034689;-0.034689;0.034689;1.000000
445613.66980179;5696583.18719872;472.73145010;120;112;101;29041.000000;1.000000;1.000000;1.000000;1.000000;-0.104197;0.104197;-0.104197;1.000000
445613.85540112;5696583.19339951;472.72365000;131;120;105;31097.000000;1.000000;1.000000;1.000000;1.000000;0.080772;-0.080772;0.080772;1.000000
445613.78030117;5696583.19109924;472.72485020;157;150;139;38550.000000;1.000000;1.000000;1.000000;1.000000;0.005844;-0.005844;0.005844;1.000000
445613.67330177;5696583.14949997;472.73115017;201;196;185;50372.000000;1.000000;1.000000;1.000000;1.000000;-0.098352;0.098352;-0.098352;1.000000
445613.67240150;5696583.11229904;472.72604992;143;135;124;34952.000000;1.000000;1.000000;1.000000;1.000000;-0.096930;0.096930;-0.096930;1.000000
445613.63810165;5696583.07329948;472.73105003;151;147;136;37522.000000;1.000000;1.000000;1.000000;1.000000;-0.128730;0.128730;-0.128730;1.000000
445613.71240147;5696583.03859909;472.72235014;185;172;158;44718.000000;1.000000;1.000000;1.000000;1.000000;-0.052411;0.052411;-0.052411;1.000000
445613.60400112;5696583.44520004;472.75484993;195;188;175;48316.000000;1.000000;1.000000;1.000000;1.000000;0.115504;-0.115504;0.115504;1.000000
445613.64160164;5696583.44639977;472.75425007;201;194;180;49858.000000;1.000000;1.000000;1.000000;1.000000;0.116400;-0.116400;0.116400;1.000000
445613.30800159;5696583.35579880;472.75675013;167;164;142;41634.000000;1.000000;1.000000;1.000000;1.000000;0.025803;-0.025803;0.025803;1.000000
445613.34550198;5696583.35699852;472.75845005;177;177;156;44718.000000;1.000000;1.000000;1.000000;1.000000;0.026999;-0.026999;0.026999;1.000000
445613.31070145;5696583.28319939;472.75365021;68;64;61;16448.000000;1.000000;1.000000;1.000000;1.000000;-0.046801;0.046801;-0.046801;1.000000
