//X;Y;Z;R;G;B;Intensity;Return Number;Number Of Returns;Scan Direction Flag;Point Source ID;C2M signed distances[-][<0.8];C2M signed distances[<0.4];C2M signed distances[-][<0.2];Stump23
445593.35100182;5696572.96359928;473.68785002;190;184;163;47031.000000;1.000000;1.000000;1.000000;1.000000;-0.192875;0.192875;-0.192875;1.000000
445593.34190186;5696573.17889889;473.71324970;91;84;46;20817.000000;1.000000;1.000000;1.000000;1.000000;-0.183775;0.183775;-0.183775;1.000000
445593.31120117;5696573.00869949;473.73084976;91;88;52;21588.000000;1.000000;1.000000;1.000000;1.000000;-0.153074;0.153074;-0.153074;1.000000
445593.19330223;5696573.20839890;473.75344994;148;137;76;34181.000000;1.000000;1.000000;1.000000;1.000000;-0.035175;0.035175;-0.035175;1.000000
445593.23850067;5696572.99619873;473.76235010;83;83;48;20303.000000;1.000000;1.000000;1.000000;1.000000;-0.080374;0.080374;-0.080374;1.000000
445593.34960182;5696572.97539909;473.69024994;211;205;183;52428.000000;1.000000;1.000000;1.000000;1.000000;-0.191475;0.191475;-0.191475;1.000000
445593.28500183;5696572.96179874;473.74774982;166;172;131;42405.000000;1.000000;1.000000;1.000000;1.000000;-0.126875;0.126875;-0.126875;1.000000
445593.24910172;5696573.38079937;473.75344994;74;76;27;17990.000000;1.000000;1.000000;1.000000;1.000000;-0.104197;0.104197;-0.104197;1.000000
445593.23550232;5696573.49159916;473.76804974;123;124;83;30583.000000;1.000000;1.000000;1.000000;1.000000;-0.179168;0.179168;-0.179168;1.000000
445593.28420074;5696572.95249947;473.74755003;136;139;100;34181.000000;1.000000;1.000000;1.000000;1.000000;-0.126074;0.126074;-0.126074;1.000000
445593.29800232;5696572.97009953;473.73675014;117;122;78;29555.000000;1.000000;1.000000;1.000000;1.000000;-0.139875;0.139875;-0.139875;1.000000
445593.25690086;5696572.96879871;473.76515009;84;87;56;21074.000000;1.000000;1.000000;1.000000;1.000000;-0.098774;0.098774;-0.098774;1.000000
445593.27640160;5696572.99749954;473.75474979;104;112;64;26728.000000;1.000000;1.000000;1.000000;1.000000;-0.118275;0.118275;-0.118275;1.000000
445593.12770088;5696572.99229916;473.77594997;118;113;75;28270.000000;1.000000;1.000000;1.000000;1.000000;0.030426;-0.030426;0.030426;1.000000
445593.30360229;5696573.02799900;473.73304989;122;117;82;29298.000000;1.000000;1.000000;1.000000;1.000000;-0.145475;0.145475;-0.145475;1.000000
445593.25790222;5696572.97809895;473.76065018;126;130;95;31868.000000;1.000000;1.000000;1.000000;1.000000;-0.099775;0.099775;-0.099775;1.000000
445593.19690140;5696573.12619884;473.76205017;139;132;79;32896.000000;1.000000;1.000000;1.000000;1.000000;-0.038774;0.038774;-0.038774;1.000000
445593.23170097;5696573.36839874;473.75245001;147;150;94;36494.000000;1.000000;1.000000;1.000000;1.000000;-0.082992;0.082992;-0.082992;1.000000
445593.18730171;5696573.29309948;473.74954988;137;130;102;33153.000000;1.000000;1.000000;1.000000;1.000000;-0.029175;0.029175;-0.029175;1.000000
445593.21840103;5696573.45139893;473.75285007;135;137;97;33924.000000;1.000000;1.000000;1.000000;1.000000;-0.135538;0.135538;-0.135538;1.000000
445593.18830116;5696573.30239876;473.74744989;129;122;91;30840.000000;1.000000;1.000000;1.000000;1.000000;-0.030174;0.030174;-0.030174;1.000000
445593.30480202;5696573.37339886;473.74884989;109;106;38;25443.000000;1.000000;1.000000;1.000000;1.000000;-0.152961;0.152961;-0.152961;1.000000
445593.22820099;5696573.40609940;473.75274994;66;71;37;16705.000000;1.000000;1.000000;1.000000;1.000000;-0.103448;0.103448;-0.103448;1.000000
445593.23530205;5696573.08079918;473.74924995;103;93;48;23387.000000;1.000000;1.000000;1.000000;1.000000;-0.077175;0.077175;-0.077175;1.000000
445593.27490051;5696573.00699909;473.75474979;82;87;41;20560.000000;1.000000;1.000000;1.000000;1.000000;-0.116774;0.116774;-0.116774;1.000000
445593.15600212;5696572.97539909;473.78634979;185;188;159;47031.000000;1.000000;1.000000;1.000000;1.000000;0.002125;-0.002125;0.002125;1.000000
445593.30460175;5696573.44809921;473.75204994;132;134;84;32639.000000;1.000000;1.000000;1.000000;1.000000;-0.188155;0.188155;-0.188155;1.000000
445593.22790154;5696573.05339916;473.75325014;96;91;50;22359.000000;1.000000;1.000000;1.000000;1.000000;-0.069775;0.069775;-0.069775;1.000000
445593.26330193;5696573.49129875;473.77164986;112;114;75;28013.000000;1.000000;1.000000;1.000000;1.000000;-0.192559;0.192559;-0.192559;1.000000
445593.27770050;5696572.95999916;473.75204994;163;169;129;41634.000000;1.000000;1.000000;1.000000;1.000000;-0.119574;0.119574;-0.119574;1.000000
445593.33520134;5696573.13059910;473.71005013;62;51;16;12850.000000;1.000000;1.000000;1.000000;1.000000;-0.177074;0.177074;-0.177074;1.000000
445593.19190224;5696573.44219883;473.74924995;107;108;63;26214.000000;1.000000;1.000000;1.000000;1.000000;-0.117172;0.117172;-0.117172;1.000000
445593.22200211;5696573.16379936;473.74965002;62;49;11;12336.000000;1.000000;1.000000;1.000000;1.000000;-0.063875;0.063875;-0.063875;1.000000
445593.33380135;5696573.16799934;473.71514990;86;74;38;18761.000000;1.000000;1.000000;1.000000;1.000000;-0.175674;0.175674;-0.175674;1.000000
445593.18320091;5696573.19999893;473.75294973;116;100;42;25186.000000;1.000000;1.000000;1.000000;1.000000;-0.025074;0.025074;-0.025074;1.000000
445593.22090157;5696573.20129879;473.74765017;119;114;56;28013.000000;1.000000;1.000000;1.000000;1.000000;-0.062775;0.062775;-0.062775;1.000000
445593.33040054;5696573.20569904;473.71304991;39;35;8;8481.000000;1.000000;1.000000;1.000000;1.000000;-0.172274;0.172274;-0.172274;1.000000
445593.17170151;5696573.45109947;473.75075008;127;127;78;31097.000000;1.000000;1.000000;1.000000;1.000000;-0.121858;0.121858;-0.121858;1.000000
445593.32750137;5696572.97249897;473.70785000;88;78;46;19789.000000;1.000000;1.000000;1.000000;1.000000;-0.169374;0.169374;-0.169374;1.000000
445593.17740067;5696573.31049927;473.74704983;139;132;102;33410.000000;1.000000;1.000000;1.000000;1.000000;-0.019274;0.019274;-0.019274;1.000000
445593.25130089;5696573.35259922;473.75084974;130;129;63;31354.000000;1.000000;1.000000;1.000000;1.000000;-0.095876;0.095876;-0.095876;1.000000
445593.21400269;5696573.35149868;473.74685003;160;160;104;39321.000000;1.000000;1.000000;1.000000;1.000000;-0.059869;0.059869;-0.059869;1.000000
445593.18070038;5696572.98499878;473.77824976;35;31;13;7710.000000;1.000000;1.000000;1.000000;1.000000;-0.022573;0.022573;-0.022573;1.000000
445593.22780045;5696573.45279892;473.75334980;137;140;101;34438.000000;1.000000;1.000000;1.000000;1.000000;-0.141188;0.141188;-0.141188;1.000000
445593.20920189;5696573.45229919;473.75014975;123;123;84;30326.000000;1.000000;1.000000;1.000000;1.000000;-0.132536;0.132536;-0.132536;1.000000
445593.16000183;5696573.05939873;473.76884987;117;108;44;26471.000000;1.000000;1.000000;1.000000;1.000000;-0.001875;0.001875;-0.001875;1.000000
445593.15760239;5696573.13439949;473.76965000;89;76;24;19018.000000;1.000000;1.000000;1.000000;1.000000;0.000525;-0.000525;0.000525;1.000000
445593.19530113;5696573.30179890;473.74774982;155;148;115;37522.000000;1.000000;1.000000;1.000000;1.000000;-0.037174;0.037174;-0.037174;1.000000
445593.31520088;5696573.19539936;473.71694996;129;122;92;30840.000000;1.000000;1.000000;1.000000;1.000000;-0.157074;0.157074;-0.157074;1.000000
445593.31640060;5696573.15789898;473.71654989;130;111;79;29041.000000;1.000000;1.000000;1.000000;1.000000;-0.158274;0.158274;-0.158274;1.000000
445593.31780060;5696573.12269886;473.71614983;81;69;32;17476.000000;1.000000;1.000000;1.000000;1.000000;-0.159674;0.159674;-0.159674;1.000000
445593.22550209;5696573.48099907;473.76055004;103;105;66;25700.000000;1.000000;1.000000;1.000000;1.000000;-0.165349;0.165349;-0.165349;1.000000
445593.32140167;5696573.01029881;473.71504976;82;70;36;17733.000000;1.000000;1.000000;1.000000;1.000000;-0.163275;0.163275;-0.163275;1.000000
445593.28450211;5696573.00839909;473.75294973;108;112;66;26985.000000;1.000000;1.000000;1.000000;1.000000;-0.126375;0.126375;-0.126375;1.000000
445593.32270248;5696572.97279938;473.71224977;85;77;46;19275.000000;1.000000;1.000000;1.000000;1.000000;-0.164576;0.164576;-0.164576;1.000000
445593.30830200;5696572.95059879;473.72765018;57;57;22;13621.000000;1.000000;1.000000;1.000000;1.000000;-0.150175;0.150175;-0.150175;1.000000
445593.28170212;5696573.11879929;473.73315002;122;104;56;26728.000000;1.000000;1.000000;1.000000;1.000000;-0.123575;0.123575;-0.123575;1.000000
445593.16740234;5696573.11479958;473.76984980;143;137;79;33924.000000;1.000000;1.000000;1.000000;1.000000;-0.009275;0.009275;-0.009275;1.000000
445593.18840225;5696573.50779922;473.75684978;194;190;158;48059.000000;1.000000;1.000000;1.000000;1.000000;-0.180358;0.180358;-0.180358;1.000000
445593.30930145;5696572.96219929;473.72784998;113;114;75;28013.000000;1.000000;1.000000;1.000000;1.000000;-0.151175;0.151175;-0.151175;1.000000
445593.29370125;5696573.02649887;473.74184992;105;103;63;25443.000000;1.000000;1.000000;1.000000;1.000000;-0.135574;0.135574;-0.135574;1.000000
445593.22700127;5696573.47149952;473.75815012;108;108;69;26471.000000;1.000000;1.000000;1.000000;1.000000;-0.157372;0.157372;-0.157372;1.000000
445593.32940109;5696573.06579884;473.70435001;107;103;52;25186.000000;1.000000;1.000000;1.000000;1.000000;-0.171274;0.171274;-0.171274;1.000000
445593.25670059;5696572.98989876;473.76074984;139;144;104;35466.000000;1.000000;1.000000;1.000000;1.000000;-0.098574;0.098574;-0.098574;1.000000
445593.22000130;5696573.14519890;473.75624992;125;114;72;28784.000000;1.000000;1.000000;1.000000;1.000000;-0.061874;0.061874;-0.061874;1.000000
445593.26920135;5696573.39749916;473.75915005;90;89;55;21845.000000;1.000000;1.000000;1.000000;1.000000;-0.129976;0.129976;-0.129976;1.000000
445593.31200226;5696573.18629940;473.71904995;118;107;81;27499.000000;1.000000;1.000000;1.000000;1.000000;-0.153875;0.153875;-0.153875;1.000000
445593.20690163;5696573.10659893;473.75985004;144;136;81;33924.000000;1.000000;1.000000;1.000000;1.000000;-0.048775;0.048775;-0.048775;1.000000
445593.22860153;5696573.46209915;473.75575020;121;122;84;30069.000000;1.000000;1.000000;1.000000;1.000000;-0.149723;0.149723;-0.149723;1.000000
445593.20630081;5696573.12539871;473.76004984;153;148;99;37008.000000;1.000000;1.000000;1.000000;1.000000;-0.048174;0.048174;-0.048174;1.000000
445593.33320053;5696573.18669899;473.71534969;51;44;15;10794.000000;1.000000;1.000000;1.000000;1.000000;-0.175074;0.175074;-0.175074;1.000000
445593.24930199;5696573.17539890;473.73934986;72;54;15;14135.000000;1.000000;1.000000;1.000000;1.000000;-0.091175;0.091175;-0.091175;1.000000
445593.31790169;5696573.00119884;473.72174980;89;82;45;20560.000000;1.000000;1.000000;1.000000;1.000000;-0.159775;0.159775;-0.159775;1.000000
445593.17900093;5696573.08799942;473.77005007;151;141;85;35209.000000;1.000000;1.000000;1.000000;1.000000;-0.020874;0.020874;-0.020874;1.000000
445593.20140274;5696572.97619923;473.76744987;27;23;8;5654.000000;1.000000;1.000000;1.000000;1.000000;-0.043276;0.043276;-0.043276;1.000000
445593.26060112;5696573.37969883;473.75624992;86;86;36;20560.000000;1.000000;1.000000;1.000000;1.000000;-0.113890;0.113890;-0.113890;1.000000
445593.24770172;5696573.44389923;473.76104977;110;115;82;28013.000000;1.000000;1.000000;1.000000;1.000000;-0.144902;0.144902;-0.144902;1.000000
445593.27670105;5696573.21279915;473.72704985;170;165;121;41377.000000;1.000000;1.000000;1.000000;1.000000;-0.118574;0.118574;-0.118574;1.000000
445593.17290123;5696573.41359909;473.75035002;94;94;56;22873.000000;1.000000;1.000000;1.000000;1.000000;-0.084895;0.084895;-0.084895;1.000000
445593.19750221;5696573.50689896;473.75955011;153;151;116;37779.000000;1.000000;1.000000;1.000000;1.000000;-0.181228;0.181228;-0.181228;1.000000
445593.31340225;5696573.17679890;473.71894981;62;47;23;12336.000000;1.000000;1.000000;1.000000;1.000000;-0.155275;0.155275;-0.155275;1.000000
445593.23600204;5696573.49849899;473.77054979;133;134;95;33153.000000;1.000000;1.000000;1.000000;1.000000;-0.185624;0.185624;-0.185624;1.000000
445593.21160133;5696573.37729939;473.74935009;122;127;82;30840.000000;1.000000;1.000000;1.000000;1.000000;-0.071392;0.071392;-0.071392;1.000000
445593.35770233;5696573.01199921;473.69105007;119;113;87;28527.000000;1.000000;1.000000;1.000000;1.000000;-0.199575;0.199575;-0.199575;1.000000
445593.15070160;5696573.06029900;473.76844980;132;124;60;30583.000000;1.000000;1.000000;1.000000;1.000000;0.007425;-0.007425;0.007425;1.000000
445593.26860245;5696573.39059933;473.75675013;125;123;81;30326.000000;1.000000;1.000000;1.000000;1.000000;-0.126004;0.126004;-0.126004;1.000000
445593.27240189;5696573.23899944;473.72015001;104;96;52;23901.000000;1.000000;1.000000;1.000000;1.000000;-0.114275;-0.114275;0.114275;1.000000
445593.27320107;5696573.27619942;473.72765018;142;133;88;33410.000000;1.000000;1.000000;1.000000;1.000000;-0.115074;-0.115074;0.115074;1.000000
445593.19990166;5696573.48109921;473.75705006;121;119;82;29555.000000;1.000000;1.000000;1.000000;1.000000;-0.156768;0.156768;-0.156768;1.000000
445593.28830154;5696572.97079952;473.74564983;159;165;123;40606.000000;1.000000;1.000000;1.000000;1.000000;-0.130175;0.130175;-0.130175;1.000000
445593.25410088;5696573.08139904;473.74774982;119;114;68;28270.000000;1.000000;1.000000;1.000000;1.000000;-0.095974;0.095974;-0.095974;1.000000
445593.17160233;5696573.22679909;473.75504972;132;108;50;27756.000000;1.000000;1.000000;1.000000;1.000000;-0.013475;0.013475;-0.013475;1.000000
445593.28140076;5696573.04399879;473.73924973;61;56;20;13621.000000;1.000000;1.000000;1.000000;1.000000;-0.123274;0.123274;-0.123274;1.000000
445593.32290085;5696573.04759892;473.70855000;123;113;70;28527.000000;1.000000;1.000000;1.000000;1.000000;-0.164774;0.164774;-0.164774;1.000000
445593.20270164;5696573.16079910;473.75804998;110;98;54;24672.000000;1.000000;1.000000;1.000000;1.000000;-0.044575;0.044575;-0.044575;1.000000
445593.16250046;5696573.01249893;473.77075006;97;89;50;22359.000000;1.000000;1.000000;1.000000;1.000000;-0.004374;0.004374;-0.004374;1.000000
445593.16520126;5696573.16189869;473.76095011;79;57;16;15163.000000;1.000000;1.000000;1.000000;1.000000;-0.007074;0.007074;-0.007074;1.000000
445593.24030121;5696573.15519913;473.74104979;85;69;30;17733.000000;1.000000;1.000000;1.000000;1.000000;-0.082174;0.082174;-0.082174;1.000000
445593.16140182;5696573.04999931;473.76884987;111;103;42;25186.000000;1.000000;1.000000;1.000000;1.000000;-0.003275;0.003275;-0.003275;1.000000
445593.25210197;5696572.96919926;473.76725008;67;70;39;16705.000000;1.000000;1.000000;1.000000;1.000000;-0.093975;0.093975;-0.093975;1.000000
445593.15980156;5696573.08509930;473.77384998;176;164;105;41377.000000;1.000000;1.000000;1.000000;1.000000;-0.001675;0.001675;-0.001675;1.000000
445593.26090057;5696573.09959896;473.73894979;176;169;121;42405.000000;1.000000;1.000000;1.000000;1.000000;-0.102774;0.102774;-0.102774;1.000000
445593.26360138;5696573.05489929;473.74324991;84;82;43;20046.000000;1.000000;1.000000;1.000000;1.000000;-0.105474;0.105474;-0.105474;1.000000
445593.21940048;5696573.46299942;473.75304987;119;119;79;29298.000000;1.000000;1.000000;1.000000;1.000000;-0.146435;0.146435;-0.146435;1.000000
445593.22160156;5696573.38569935;473.75224974;142;145;103;35723.000000;1.000000;1.000000;1.000000;1.000000;-0.084448;0.084448;-0.084448;1.000000
445593.33880051;5696573.09289940;473.70744993;181;180;132;44975.000000;1.000000;1.000000;1.000000;1.000000;-0.180674;0.180674;-0.180674;1.000000
445593.33990105;5696573.20719917;473.71355011;57;54;23;13107.000000;1.000000;1.000000;1.000000;1.000000;-0.181774;0.181774;-0.181774;1.000000
445593.21660049;5696573.27659901;473.74134972;128;119;86;30326.000000;1.000000;1.000000;1.000000;1.000000;-0.058474;0.058474;-0.058474;1.000000
445593.23910149;5696573.19269951;473.74144985;113;106;54;26214.000000;1.000000;1.000000;1.000000;1.000000;-0.080975;0.080975;-0.080975;1.000000
445593.19090088;5696572.96769913;473.77384998;63;61;45;15163.000000;1.000000;1.000000;1.000000;1.000000;-0.032774;0.032774;-0.032774;1.000000
445593.18880089;5696573.28369911;473.74954988;158;151;126;38550.000000;1.000000;1.000000;1.000000;1.000000;-0.030674;0.030674;-0.030674;1.000000
445593.25260170;5696573.31289871;473.74344971;169;165;99;40606.000000;1.000000;1.000000;1.000000;1.000000;-0.094475;0.094475;-0.094475;1.000000
445593.25390060;5696573.05339916;473.74744989;81;78;37;19018.000000;1.000000;1.000000;1.000000;1.000000;-0.095774;0.095774;-0.095774;1.000000
445593.21490105;5696573.31169899;473.74634983;162;154;106;38807.000000;1.000000;1.000000;1.000000;1.000000;-0.056774;0.056774;-0.056774;1.000000
445593.23570068;5696573.23039921;473.73934986;128;126;74;30840.000000;1.000000;1.000000;1.000000;1.000000;-0.077574;0.077574;-0.077574;1.000000
445593.26620110;5696573.01469906;473.75684978;120;124;80;30069.000000;1.000000;1.000000;1.000000;1.000000;-0.108074;0.108074;-0.108074;1.000000
445593.31720169;5696573.01759918;473.71955015;83;73;38;18504.000000;1.000000;1.000000;1.000000;1.000000;-0.159075;0.159075;-0.159075;1.000000
445593.17640121;5696573.34799870;473.74274971;148;148;119;37008.000000;1.000000;1.000000;1.000000;1.000000;-0.025650;0.025650;-0.025650;1.000000
445593.29880150;5696573.07299908;473.72405006;145;154;98;37265.000000;1.000000;1.000000;1.000000;1.000000;-0.140675;0.140675;-0.140675;1.000000
445593.21660049;5696573.51659878;473.77215006;147;148;112;36751.000000;1.000000;1.000000;1.000000;1.000000;-0.195546;0.195546;-0.195546;1.000000
445593.23390205;5696573.09029873;473.74924995;86;78;31;19275.000000;1.000000;1.000000;1.000000;1.000000;-0.075775;0.075775;-0.075775;1.000000
445593.25630196;5696573.22159870;473.73084976;144;142;91;34952.000000;1.000000;1.000000;1.000000;1.000000;-0.098175;0.098175;-0.098175;1.000000
445593.34770210;5696573.05719955;473.69574978;133;119;77;30326.000000;1.000000;1.000000;1.000000;1.000000;-0.189575;0.189575;-0.189575;1.000000
445593.23530205;5696573.30279930;473.74254992;128;124;68;30583.000000;1.000000;1.000000;1.000000;1.000000;-0.077175;0.077175;-0.077175;1.000000
445593.34430130;5696572.94769867;473.69894983;66;59;38;14906.000000;1.000000;1.000000;1.000000;1.000000;-0.186174;0.186174;-0.186174;1.000000
445593.31860168;5696572.98249920;473.71924974;105;102;66;25186.000000;1.000000;1.000000;1.000000;1.000000;-0.160475;0.160475;-0.160475;1.000000
445593.26660164;5696573.18329914;473.73325016;73;54;22;14392.000000;1.000000;1.000000;1.000000;1.000000;-0.108475;0.108475;-0.108475;1.000000
445593.15830048;5696573.14139946;473.76744987;79;63;16;15934.000000;1.000000;1.000000;1.000000;1.000000;-0.000174;0.000174;-0.000174;1.000000
445593.27140244;5696573.11039932;473.73495008;132;122;76;30583.000000;1.000000;1.000000;1.000000;1.000000;-0.113276;0.113276;-0.113276;1.000000
445593.26620110;5696572.98909958;473.75654985;133;139;96;33924.000000;1.000000;1.000000;1.000000;1.000000;-0.108074;0.108074;-0.108074;1.000000
445593.15900238;5696573.33789928;473.74414970;148;147;125;37008.000000;1.000000;1.000000;1.000000;1.000000;-0.007948;0.007948;-0.007948;1.000000
445593.19430168;5696573.33929928;473.74344971;149;145;101;36237.000000;1.000000;1.000000;1.000000;1.000000;-0.037351;0.037351;-0.037351;1.000000
445593.34950073;5696573.00099953;473.69514992;155;150;125;38036.000000;1.000000;1.000000;1.000000;1.000000;-0.191374;0.191374;-0.191374;1.000000
445593.19310196;5696573.37679871;473.74384977;197;200;172;50372.000000;1.000000;1.000000;1.000000;1.000000;-0.058424;0.058424;-0.058424;1.000000
445593.34330185;5696573.38389881;473.74604990;140;138;81;33924.000000;1.000000;1.000000;1.000000;1.000000;-0.192860;0.192860;-0.192860;1.000000
445593.31040199;5696572.99939926;473.73064997;90;85;47;21074.000000;1.000000;1.000000;1.000000;1.000000;-0.152275;0.152275;-0.152275;1.000000
445593.34860046;5696572.96379955;473.69005014;169;162;141;41377.000000;1.000000;1.000000;1.000000;1.000000;-0.190474;0.190474;-0.190474;1.000000
445593.32430084;5696573.38319881;473.74984982;175;172;116;42662.000000;1.000000;1.000000;1.000000;1.000000;-0.174482;0.174482;-0.174482;1.000000
445593.19170197;5696573.02149876;473.76515009;92;82;42;20560.000000;1.000000;1.000000;1.000000;1.000000;-0.033575;0.033575;-0.033575;1.000000
445593.22730072;5696573.02529915;473.75985004;81;76;40;18761.000000;1.000000;1.000000;1.000000;1.000000;-0.069174;0.069174;-0.069174;1.000000
445593.25290115;5696573.34309872;473.74844982;122;119;48;28784.000000;1.000000;1.000000;1.000000;1.000000;-0.095675;0.095675;-0.095675;1.000000
445593.25960167;5696573.36809929;473.75374987;99;98;38;23387.000000;1.000000;1.000000;1.000000;1.000000;-0.108391;0.108391;-0.108391;1.000000
445593.17560204;5696573.12579926;473.76804974;135;128;74;31868.000000;1.000000;1.000000;1.000000;1.000000;-0.017475;0.017475;-0.017475;1.000000
445593.32220085;5696573.43709953;473.75274994;110;111;54;26728.000000;1.000000;1.000000;1.000000;1.000000;-0.195935;0.195935;-0.195935;1.000000
445593.14020164;5696573.12209900;473.76634981;89;80;23;19532.000000;1.000000;1.000000;1.000000;1.000000;0.017925;-0.017925;0.017925;1.000000
445593.30050095;5696573.06579884;473.72405006;135;142;88;34181.000000;1.000000;1.000000;1.000000;1.000000;-0.142374;0.142374;-0.142374;1.000000
445593.15590103;5696572.99659927;473.78184988;94;91;59;22616.000000;1.000000;1.000000;1.000000;1.000000;0.002226;-0.002226;0.002226;1.000000
445593.19080170;5696573.25539883;473.74924995;84;67;34;17476.000000;1.000000;1.000000;1.000000;1.000000;-0.032675;0.032675;-0.032675;1.000000
445593.22710236;5696573.06979950;473.75334980;169;161;115;40606.000000;1.000000;1.000000;1.000000;1.000000;-0.068975;0.068975;-0.068975;1.000000
445593.29930122;5696573.10329922;473.72445013;160;160;110;39578.000000;1.000000;1.000000;1.000000;1.000000;-0.141174;0.141174;-0.141174;1.000000
445593.22470100;5696573.14479931;473.75414993;107;94;50;23901.000000;1.000000;1.000000;1.000000;1.000000;-0.066574;0.066574;-0.066574;1.000000
445593.32340057;5696573.02889927;473.70834972;117;104;67;26471.000000;1.000000;1.000000;1.000000;1.000000;-0.165274;0.165274;-0.165274;1.000000
445593.18260201;5696573.21879871;473.75315001;125;108;46;27242.000000;1.000000;1.000000;1.000000;1.000000;-0.024475;0.024475;-0.024475;1.000000
445593.17250259;5696573.23609932;473.75285007;123;101;47;25957.000000;1.000000;1.000000;1.000000;1.000000;-0.014376;0.014376;-0.014376;1.000000
445593.20100220;5696573.41339882;473.74695017;90;90;51;21845.000000;1.000000;1.000000;1.000000;1.000000;-0.093774;0.093774;-0.093774;1.000000
445593.17920120;5696573.25649937;473.75115015;106;86;52;22616.000000;1.000000;1.000000;1.000000;1.000000;-0.021074;0.021074;-0.021074;1.000000
445593.25380142;5696573.10019882;473.74324991;145;136;89;34181.000000;1.000000;1.000000;1.000000;1.000000;-0.095675;0.095675;-0.095675;1.000000
445593.27610214;5696573.01859959;473.75264980;86;88;45;21074.000000;1.000000;1.000000;1.000000;1.000000;-0.117975;0.117975;-0.117975;1.000000
445593.23110207;5696573.38709934;473.75264980;90;95;51;22616.000000;1.000000;1.000000;1.000000;1.000000;-0.092659;0.092659;-0.092659;1.000000
445593.33750160;5696573.07669933;473.70254995;113;108;60;26728.000000;1.000000;1.000000;1.000000;1.000000;-0.179375;0.179375;-0.179375;1.000000
445593.19340141;5696572.96749886;473.77154972;66;64;47;15934.000000;1.000000;1.000000;1.000000;1.000000;-0.035275;0.035275;-0.035275;1.000000
445593.23440178;5696573.07149895;473.75134995;150;141;96;35466.000000;1.000000;1.000000;1.000000;1.000000;-0.076275;0.076275;-0.076275;1.000000
445593.29780205;5696573.13839920;473.72714998;158;139;98;35980.000000;1.000000;1.000000;1.000000;1.000000;-0.139675;0.139675;-0.139675;1.000000
445593.14750107;5696573.17059906;473.75794985;200;177;128;45746.000000;1.000000;1.000000;1.000000;1.000000;0.010626;-0.010626;0.010626;1.000000
445593.26480110;5696573.21149929;473.72884991;150;145;98;36237.000000;1.000000;1.000000;1.000000;1.000000;-0.106674;0.106674;-0.106674;1.000000
445593.31090172;5696573.07429894;473.71764996;146;153;94;37008.000000;1.000000;1.000000;1.000000;1.000000;-0.152775;0.152775;-0.152775;1.000000
445593.34400185;5696573.39309891;473.74854996;197;196;151;49087.000000;1.000000;1.000000;1.000000;1.000000;-0.196293;0.196293;-0.196293;1.000000
445593.14630135;5696573.20799931;473.75834991;153;123;66;32125.000000;1.000000;1.000000;1.000000;1.000000;0.011826;-0.011826;0.011826;1.000000
445593.23750122;5696573.03369911;473.75804998;98;97;58;23901.000000;1.000000;1.000000;1.000000;1.000000;-0.079374;0.079374;-0.079374;1.000000
445593.30850037;5696573.07449921;473.71985008;157;164;107;39835.000000;1.000000;1.000000;1.000000;1.000000;-0.150373;0.150373;-0.150373;1.000000
445593.30600174;5696573.14939888;473.72295000;142;124;89;32125.000000;1.000000;1.000000;1.000000;1.000000;-0.147875;0.147875;-0.147875;1.000000
445593.29560097;5696573.21339901;473.72324993;190;184;143;46517.000000;1.000000;1.000000;1.000000;1.000000;-0.137474;0.137474;-0.137474;1.000000
445593.17920120;5696573.28219898;473.75145008;165;155;132;39835.000000;1.000000;1.000000;1.000000;1.000000;-0.021074;0.021074;-0.021074;1.000000
445593.22020157;5696573.47219952;473.75554993;113;112;73;27756.000000;1.000000;1.000000;1.000000;1.000000;-0.155158;0.155158;-0.155158;1.000000
445593.29240234;5696573.47239883;473.76114990;134;135;97;33410.000000;1.000000;1.000000;1.000000;1.000000;-0.195723;0.195723;-0.195723;1.000000
445593.22390182;5696573.13549908;473.75404980;153;141;98;35723.000000;1.000000;1.000000;1.000000;1.000000;-0.065775;0.065775;-0.065775;1.000000
445593.25760086;5696573.39859875;473.75864985;57;58;26;13878.000000;1.000000;1.000000;1.000000;1.000000;-0.120834;0.120834;-0.120834;1.000000
445593.25680168;5696573.24969872;473.72655012;161;157;120;39578.000000;1.000000;1.000000;1.000000;1.000000;-0.098675;0.098675;-0.098675;1.000000
445593.21480186;5696573.36069878;473.74695017;136;138;84;33667.000000;1.000000;1.000000;1.000000;1.000000;-0.064455;0.064455;-0.064455;1.000000
445593.18890198;5696573.04279907;473.76765015;97;86;38;21588.000000;1.000000;1.000000;1.000000;1.000000;-0.030775;0.030775;-0.030775;1.000000
445593.15360077;5696573.04139908;473.76835014;114;107;49;26214.000000;1.000000;1.000000;1.000000;1.000000;0.004526;-0.004526;0.004526;1.000000
445593.21920212;5696573.25529869;473.74125006;93;87;50;21588.000000;1.000000;1.000000;1.000000;1.000000;-0.061075;0.061075;-0.061075;1.000000
445593.33920105;5696572.99259956;473.69924976;183;174;146;44461.000000;1.000000;1.000000;1.000000;1.000000;-0.181074;0.181074;-0.181074;1.000000
445593.20250137;5696573.40389927;473.74695017;164;165;129;41120.000000;1.000000;1.000000;1.000000;1.000000;-0.086199;0.086199;-0.086199;1.000000
445593.19110115;5696573.43299873;473.74905016;76;76;32;18247.000000;1.000000;1.000000;1.000000;1.000000;-0.108148;0.108148;-0.108148;1.000000
445593.26620110;5696573.24889954;473.72235014;156;149;113;37779.000000;1.000000;1.000000;1.000000;1.000000;-0.108074;-0.108074;0.108074;1.000000
445593.23460205;5696573.48009880;473.76324989;110;113;75;27499.000000;1.000000;1.000000;1.000000;1.000000;-0.168458;0.168458;-0.168458;1.000000
445593.14510162;5696572.98349960;473.78594973;189;189;159;47545.000000;1.000000;1.000000;1.000000;1.000000;0.013025;-0.013025;0.013025;1.000000
445593.13440140;5696573.01269920;473.77185013;81;69;30;17476.000000;1.000000;1.000000;1.000000;1.000000;0.023726;-0.023726;0.023726;1.000000
445593.32780273;5696573.10319908;473.71404984;112;110;62;26985.000000;1.000000;1.000000;1.000000;1.000000;-0.169676;0.169676;-0.169676;1.000000
445593.17110260;5696573.24549873;473.75294973;109;87;40;22616.000000;1.000000;1.000000;1.000000;1.000000;-0.012976;0.012976;-0.012976;1.000000
445593.27440079;5696573.45539959;473.76244976;143;146;111;36237.000000;1.000000;1.000000;1.000000;1.000000;-0.171011;0.171011;-0.171011;1.000000
445593.25390060;5696573.48979958;473.77124979;115;116;76;28527.000000;1.000000;1.000000;1.000000;1.000000;-0.186302;0.186302;-0.186302;1.000000
445593.23830231;5696572.97049912;473.76664974;88;86;57;21331.000000;1.000000;1.000000;1.000000;1.000000;-0.080175;0.080175;-0.080175;1.000000
445593.30410202;5696573.17769917;473.72085001;71;55;32;14649.000000;1.000000;1.000000;1.000000;1.000000;-0.145975;0.145975;-0.145975;1.000000
445593.19080170;5696573.01229961;473.76504995;76;68;33;16962.000000;1.000000;1.000000;1.000000;1.000000;-0.032675;0.032675;-0.032675;1.000000
445593.19200142;5696573.17109879;473.75764992;101;87;43;22102.000000;1.000000;1.000000;1.000000;1.000000;-0.033875;0.033875;-0.033875;1.000000
445593.21560104;5696573.29289921;473.74384977;166;159;123;40349.000000;1.000000;1.000000;1.000000;1.000000;-0.057474;0.057474;-0.057474;1.000000
445593.14980133;5696573.07669933;473.77094986;145;135;75;33667.000000;1.000000;1.000000;1.000000;1.000000;0.008326;-0.008326;0.008326;1.000000
445593.25360115;5696573.29649933;473.73864986;131;126;63;30840.000000;1.000000;1.000000;1.000000;1.000000;-0.095474;0.095474;-0.095474;1.000000
445593.26750191;5696573.02639874;473.75234987;107;110;67;26728.000000;1.000000;1.000000;1.000000;1.000000;-0.109375;0.109375;-0.109375;1.000000
445593.26140221;5696573.33299931;473.74644997;157;154;84;37779.000000;1.000000;1.000000;1.000000;1.000000;-0.103319;0.103319;-0.103319;1.000000
445593.23630150;5696573.04329880;473.75344994;87;84;46;20560.000000;1.000000;1.000000;1.000000;1.000000;-0.078175;0.078175;-0.078175;1.000000
445593.23190125;5696573.11849888;473.74714996;101;90;46;22616.000000;1.000000;1.000000;1.000000;1.000000;-0.073774;0.073774;-0.073774;1.000000
445593.23710068;5696573.45419891;473.75845005;125;130;94;31868.000000;1.000000;1.000000;1.000000;1.000000;-0.147181;0.147181;-0.147181;1.000000
445593.19610222;5696573.31099899;473.74784996;146;139;102;35209.000000;1.000000;1.000000;1.000000;1.000000;-0.037975;0.037975;-0.037975;1.000000
445593.34690102;5696573.04799946;473.69334986;148;132;95;33924.000000;1.000000;1.000000;1.000000;1.000000;-0.188774;0.188774;-0.188774;1.000000
445593.21250160;5696572.96819885;473.76314976;71;69;53;17219.000000;1.000000;1.000000;1.000000;1.000000;-0.054375;0.054375;-0.054375;1.000000
445593.31090172;5696573.02749928;473.72405006;101;91;56;23130.000000;1.000000;1.000000;1.000000;1.000000;-0.152775;0.152775;-0.152775;1.000000
445593.35260208;5696572.95649918;473.68785002;164;158;136;40349.000000;1.000000;1.000000;1.000000;1.000000;-0.194475;0.194475;-0.194475;1.000000
445593.18760117;5696573.07799919;473.76564981;130;122;68;30326.000000;1.000000;1.000000;1.000000;1.000000;-0.029474;0.029474;-0.029474;1.000000
445593.17690094;5696573.32919891;473.74484970;138;132;99;33410.000000;1.000000;1.000000;1.000000;1.000000;-0.018774;0.018774;-0.018774;1.000000
445593.20770081;5696573.04109867;473.76144983;107;99;52;24672.000000;1.000000;1.000000;1.000000;1.000000;-0.049574;0.049574;-0.049574;1.000000
445593.17810257;5696573.36649902;473.74305012;229;231;212;58596.000000;1.000000;1.000000;1.000000;1.000000;-0.041608;0.041608;-0.041608;1.000000
445593.20660217;5696573.07859905;473.75955011;128;118;64;29555.000000;1.000000;1.000000;1.000000;1.000000;-0.048475;0.048475;-0.048475;1.000000
445593.26110085;5696572.96139915;473.76065018;101;104;71;25443.000000;1.000000;1.000000;1.000000;1.000000;-0.102974;0.102974;-0.102974;1.000000
445593.15100105;5696573.11399944;473.76905014;115;106;47;26214.000000;1.000000;1.000000;1.000000;1.000000;0.007126;-0.007126;0.007126;1.000000
445593.26530273;5696573.23959930;473.72454979;110;104;61;25957.000000;1.000000;1.000000;1.000000;1.000000;-0.107176;-0.107176;0.107176;1.000000
445593.18640144;5696573.11539944;473.76604988;116;108;52;26728.000000;1.000000;1.000000;1.000000;1.000000;-0.028275;0.028275;-0.028275;1.000000
445593.20420273;5696573.15359886;473.76034977;95;85;38;21074.000000;1.000000;1.000000;1.000000;1.000000;-0.046076;0.046076;-0.046076;1.000000
445593.30660065;5696573.13069923;473.72274973;140;123;83;31611.000000;1.000000;1.000000;1.000000;1.000000;-0.148474;0.148474;-0.148474;1.000000
445593.25550087;5696573.02509888;473.75645020;117;121;77;29298.000000;1.000000;1.000000;1.000000;1.000000;-0.097374;0.097374;-0.097374;1.000000
445593.21580132;5696573.09889896;473.75325014;112;106;53;25957.000000;1.000000;1.000000;1.000000;1.000000;-0.057674;0.057674;-0.057674;1.000000
445593.16340073;5696573.19009884;473.75654985;110;86;33;22359.000000;1.000000;1.000000;1.000000;1.000000;-0.005274;0.005274;-0.005274;1.000000
445593.17910202;5696573.50639923;473.75175001;195;191;160;48316.000000;1.000000;1.000000;1.000000;1.000000;-0.177642;0.177642;-0.177642;1.000000
445593.18020065;5696573.46889885;473.75364973;118;115;75;28527.000000;1.000000;1.000000;1.000000;1.000000;-0.140642;0.140642;-0.140642;1.000000
445593.21930130;5696573.43499954;473.75035002;114;117;80;28784.000000;1.000000;1.000000;1.000000;1.000000;-0.121520;0.121520;-0.121520;1.000000
445593.21990211;5696573.23879917;473.74344971;115;110;61;27242.000000;1.000000;1.000000;1.000000;1.000000;-0.061775;0.061775;-0.061775;1.000000
445593.25870140;5696573.17459877;473.73504974;82;61;25;16191.000000;1.000000;1.000000;1.000000;1.000000;-0.100574;0.100574;-0.100574;1.000000
445593.26130112;5696573.12759884;473.73694994;114;95;52;24415.000000;1.000000;1.000000;1.000000;1.000000;-0.103174;0.103174;-0.103174;1.000000
445593.21100052;5696573.39609917;473.74954988;171;173;139;43176.000000;1.000000;1.000000;1.000000;1.000000;-0.084645;0.084645;-0.084645;1.000000
445593.17360123;5696573.39489944;473.74784996;160;159;135;40092.000000;1.000000;1.000000;1.000000;1.000000;-0.066719;0.066719;-0.066719;1.000000
445593.29220207;5696573.03369911;473.73724987;82;79;42;19275.000000;1.000000;1.000000;1.000000;1.000000;-0.134075;0.134075;-0.134075;1.000000
445593.33020218;5696573.07499893;473.70685007;110;108;57;26214.000000;1.000000;1.000000;1.000000;1.000000;-0.172075;0.172075;-0.172075;1.000000
445593.24780090;5696573.18489941;473.73934986;88;75;31;19018.000000;1.000000;1.000000;1.000000;1.000000;-0.089674;0.089674;-0.089674;1.000000
445593.35340126;5696573.12199886;473.70384981;178;178;130;44204.000000;1.000000;1.000000;1.000000;1.000000;-0.195274;0.195274;-0.195274;1.000000
445593.28590210;5696573.40069874;473.75764992;69;62;25;15420.000000;1.000000;1.000000;1.000000;1.000000;-0.146030;0.146030;-0.146030;1.000000
445593.17390259;5696572.96449955;473.78235008;159;161;140;40606.000000;1.000000;1.000000;1.000000;1.000000;-0.015776;0.015776;-0.015776;1.000000
445593.20980270;5696573.25609882;473.74545004;89;80;45;20046.000000;1.000000;1.000000;1.000000;1.000000;-0.051676;0.051676;-0.051676;1.000000
445593.24410065;5696573.29509933;473.73815014;112;106;50;25957.000000;1.000000;1.000000;1.000000;1.000000;-0.085974;0.085974;-0.085974;1.000000
445593.20510109;5696573.33129890;473.74615004;159;154;106;38550.000000;1.000000;1.000000;1.000000;1.000000;-0.046992;0.046992;-0.046992;1.000000
445593.16740234;5696573.32779892;473.74445011;149;143;113;36237.000000;1.000000;1.000000;1.000000;1.000000;-0.009275;0.009275;-0.009275;1.000000
445593.28020103;5696573.33369930;473.74494984;172;168;94;41377.000000;1.000000;1.000000;1.000000;1.000000;-0.122130;-0.122130;0.122130;1.000000
445593.20380219;5696573.36649902;473.74424984;131;135;94;33153.000000;1.000000;1.000000;1.000000;1.000000;-0.058467;0.058467;-0.058467;1.000000
445593.16620071;5696573.36529930;473.74484970;246;246;233;62708.000000;1.000000;1.000000;1.000000;1.000000;-0.036211;0.036211;-0.036211;1.000000
445593.17590149;5696572.98539932;473.78034975;52;46;26;11565.000000;1.000000;1.000000;1.000000;1.000000;-0.017775;0.017775;-0.017775;1.000000
445593.31730087;5696573.06449898;473.71084978;132;133;81;32382.000000;1.000000;1.000000;1.000000;1.000000;-0.159174;0.159174;-0.159174;1.000000
445593.25930222;5696573.15589912;473.73484995;228;214;179;54998.000000;1.000000;1.000000;1.000000;1.000000;-0.101175;0.101175;-0.101175;1.000000
445593.21740158;5696573.49569901;473.76265003;111;110;71;27242.000000;1.000000;1.000000;1.000000;1.000000;-0.175982;0.175982;-0.175982;1.000000
445593.31930168;5696572.98939903;473.71934988;108;104;67;25957.000000;1.000000;1.000000;1.000000;1.000000;-0.161175;0.161175;-0.161175;1.000000
445593.17500122;5696572.97609909;473.78254988;94;92;74;23130.000000;1.000000;1.000000;1.000000;1.000000;-0.016874;0.016874;-0.016874;1.000000
445593.26780136;5696573.19489868;473.73105003;100;91;51;22873.000000;1.000000;1.000000;1.000000;1.000000;-0.109674;0.109674;-0.109674;1.000000
445593.31700142;5696573.13919933;473.71635010;100;84;47;21588.000000;1.000000;1.000000;1.000000;1.000000;-0.158875;0.158875;-0.158875;1.000000
445593.35270126;5696573.14289959;473.71105005;142;140;93;34695.000000;1.000000;1.000000;1.000000;1.000000;-0.194574;0.194574;-0.194574;1.000000
445593.20390137;5696573.17239960;473.75355007;101;87;42;22102.000000;1.000000;1.000000;1.000000;1.000000;-0.045774;0.045774;-0.045774;1.000000
445593.32430084;5696573.14089878;473.71434977;83;67;32;17219.000000;1.000000;1.000000;1.000000;1.000000;-0.166174;0.166174;-0.166174;1.000000
445593.35140045;5696573.18039902;473.71374990;99;98;55;23901.000000;1.000000;1.000000;1.000000;1.000000;-0.193274;0.193274;-0.193274;1.000000
445593.20050247;5696573.21009930;473.75154974;143;137;77;33924.000000;1.000000;1.000000;1.000000;1.000000;-0.042376;0.042376;-0.042376;1.000000
445593.32340057;5696573.40189941;473.75705006;180;176;134;44204.000000;1.000000;1.000000;1.000000;1.000000;-0.180236;0.180236;-0.180236;1.000000
445593.26250275;5696573.09239872;473.74125006;159;155;108;38807.000000;1.000000;1.000000;1.000000;1.000000;-0.104376;0.104376;-0.104376;1.000000
445593.33580215;5696573.05819901;473.70225002;132;122;77;30840.000000;1.000000;1.000000;1.000000;1.000000;-0.177675;0.177675;-0.177675;1.000000
445593.16520126;5696573.20869930;473.75455000;117;93;32;23901.000000;1.000000;1.000000;1.000000;1.000000;-0.007074;0.007074;-0.007074;1.000000
445593.30010040;5696573.01889904;473.73974993;144;145;105;35980.000000;1.000000;1.000000;1.000000;1.000000;-0.141973;0.141973;-0.141973;1.000000
445593.21110161;5696573.17179878;473.74924995;80;66;24;16705.000000;1.000000;1.000000;1.000000;1.000000;-0.052975;0.052975;-0.052975;1.000000
445593.23030098;5696572.95949944;473.76615002;121;117;96;29555.000000;1.000000;1.000000;1.000000;1.000000;-0.072174;0.072174;-0.072174;1.000000
445593.19040115;5696573.03329952;473.76524975;108;99;52;24672.000000;1.000000;1.000000;1.000000;1.000000;-0.032274;0.032274;-0.032274;1.000000
445593.15260132;5696573.02979954;473.76814987;106;98;44;24158.000000;1.000000;1.000000;1.000000;1.000000;0.005526;-0.005526;0.005526;1.000000
445593.29970177;5696573.03539951;473.73064997;85;81;44;20046.000000;1.000000;1.000000;1.000000;1.000000;-0.141575;0.141575;-0.141575;1.000000
445593.15140160;5696573.06729897;473.76854994;134;125;62;30840.000000;1.000000;1.000000;1.000000;1.000000;0.006725;-0.006725;0.006725;1.000000
445593.32530220;5696573.17809875;473.71714975;54;41;13;10537.000000;1.000000;1.000000;1.000000;1.000000;-0.167175;0.167175;-0.167175;1.000000
445593.20990189;5696573.20929916;473.74965002;121;115;57;28270.000000;1.000000;1.000000;1.000000;1.000000;-0.051775;0.051775;-0.051775;1.000000
445593.28440102;5696573.43579872;473.76034977;93;96;54;23130.000000;1.000000;1.000000;1.000000;1.000000;-0.164738;0.164738;-0.164738;1.000000
445593.24680145;5696573.43459900;473.76095011;116;120;88;29555.000000;1.000000;1.000000;1.000000;1.000000;-0.137128;0.137128;-0.137128;1.000000
445593.27570160;5696573.41789921;473.75974991;64;61;31;14906.000000;1.000000;1.000000;1.000000;1.000000;-0.146799;0.146799;-0.146799;1.000000
445593.24060257;5696573.41649921;473.75815012;48;52;22;12079.000000;1.000000;1.000000;1.000000;1.000000;-0.119517;0.119517;-0.119517;1.000000
445593.27400215;5696573.23179920;473.72244980;101;95;47;23387.000000;1.000000;1.000000;1.000000;1.000000;-0.115875;-0.115875;0.115875;1.000000
445593.17230042;5696573.20809944;473.75255014;101;81;21;20560.000000;1.000000;1.000000;1.000000;1.000000;-0.014174;0.014174;-0.014174;1.000000
445593.15010269;5696573.10469921;473.77124979;135;126;66;31354.000000;1.000000;1.000000;1.000000;1.000000;0.008024;-0.008024;0.008024;1.000000
445593.31970222;5696573.09219940;473.71595003;120;125;70;30069.000000;1.000000;1.000000;1.000000;1.000000;-0.161575;0.161575;-0.161575;1.000000
445593.25720222;5696573.23089893;473.73105003;145;143;94;35466.000000;1.000000;1.000000;1.000000;1.000000;-0.099075;0.099075;-0.099075;1.000000
445593.25380142;5696573.26859959;473.72895004;195;188;155;47802.000000;1.000000;1.000000;1.000000;1.000000;-0.095675;0.095675;-0.095675;1.000000
445593.26560219;5696573.00779922;473.75675013;105;111;65;26728.000000;1.000000;1.000000;1.000000;1.000000;-0.107475;0.107475;-0.107475;1.000000
445593.22780045;5696573.00649937;473.76195004;111;110;74;27242.000000;1.000000;1.000000;1.000000;1.000000;-0.069674;0.069674;-0.069674;1.000000
445593.29730042;5696573.15719898;473.72494986;94;73;45;19532.000000;1.000000;1.000000;1.000000;1.000000;-0.139174;0.139174;-0.139174;1.000000
445593.24370201;5696573.50939949;473.77794983;142;145;110;35980.000000;1.000000;1.000000;1.000000;1.000000;-0.198764;0.198764;-0.198764;1.000000
445593.25910194;5696573.38919933;473.75624992;69;68;28;16191.000000;1.000000;1.000000;1.000000;1.000000;-0.117049;0.117049;-0.117049;1.000000
445593.32170113;5696573.21349915;473.71514990;57;53;22;12850.000000;1.000000;1.000000;1.000000;1.000000;-0.163574;0.163574;-0.163574;1.000000
445593.18770226;5696573.10589893;473.76835014;124;114;58;28270.000000;1.000000;1.000000;1.000000;1.000000;-0.029575;0.029575;-0.029575;1.000000
445593.28310211;5696573.24979885;473.71374990;159;151;117;38293.000000;1.000000;1.000000;1.000000;1.000000;-0.124975;-0.124975;0.124975;1.000000
445593.20530136;5696573.28449924;473.74795010;149;141;112;35980.000000;1.000000;1.000000;1.000000;1.000000;-0.047174;0.047174;-0.047174;1.000000
445593.30210121;5696572.99069889;473.73955013;98;101;58;24415.000000;1.000000;1.000000;1.000000;1.000000;-0.143974;0.143974;-0.143974;1.000000
445593.18660172;5696573.14339931;473.76634981;133;121;68;30326.000000;1.000000;1.000000;1.000000;1.000000;-0.028475;0.028475;-0.028475;1.000000
445593.27280243;5696573.26929958;473.72284986;184;176;142;44718.000000;1.000000;1.000000;1.000000;1.000000;-0.114676;-0.114676;0.114676;1.000000
445593.17000206;5696573.28309925;473.75105001;148;137;112;35209.000000;1.000000;1.000000;1.000000;1.000000;-0.011875;0.011875;-0.011875;1.000000
445593.28520210;5696573.44509895;473.76044991;117;120;80;29298.000000;1.000000;1.000000;1.000000;1.000000;-0.171452;0.171452;-0.171452;1.000000
445593.15320213;5696573.01329906;473.77264978;101;92;53;23130.000000;1.000000;1.000000;1.000000;1.000000;0.004925;-0.004925;0.004925;1.000000
445593.15200241;5696573.04849918;473.76835014;130;123;61;30326.000000;1.000000;1.000000;1.000000;1.000000;0.006124;-0.006124;0.006124;1.000000
445593.15520103;5696572.96389874;473.78144981;153;159;130;39578.000000;1.000000;1.000000;1.000000;1.000000;0.002926;-0.002926;0.002926;1.000000
445593.18610199;5696573.08739956;473.76574995;125;119;65;29298.000000;1.000000;1.000000;1.000000;1.000000;-0.027975;0.027975;-0.027975;1.000000
445593.15060242;5696573.08589943;473.77344992;158;147;87;36751.000000;1.000000;1.000000;1.000000;1.000000;0.007524;-0.007524;0.007524;1.000000
445593.18480118;5696573.12489899;473.76844980;122;116;60;28527.000000;1.000000;1.000000;1.000000;1.000000;-0.026674;0.026674;-0.026674;1.000000
445593.14280136;5696573.04939945;473.76564981;167;161;100;40092.000000;1.000000;1.000000;1.000000;1.000000;0.015326;-0.015326;0.015326;1.000000
445593.20630081;5696573.31949909;473.74604990;153;146;102;36751.000000;1.000000;1.000000;1.000000;1.000000;-0.048174;0.048174;-0.048174;1.000000
445593.25510223;5696573.28479870;473.73395016;119;112;61;27756.000000;1.000000;1.000000;1.000000;1.000000;-0.096975;0.096975;-0.096975;1.000000
445593.33830078;5696572.98329933;473.69915010;196;185;158;47545.000000;1.000000;1.000000;1.000000;1.000000;-0.180174;0.180174;-0.180174;1.000000
445593.27780159;5696573.36179932;473.75215008;127;126;57;30326.000000;1.000000;1.000000;1.000000;1.000000;-0.123827;-0.123827;0.123827;1.000000
445593.24270065;5696573.36039932;473.75054981;148;148;86;36237.000000;1.000000;1.000000;1.000000;1.000000;-0.089871;0.089871;-0.089871;1.000000
445593.18930252;5696572.97489937;473.77384998;40;37;23;9252.000000;1.000000;1.000000;1.000000;1.000000;-0.031176;0.031176;-0.031176;1.000000
445593.20420273;5696573.39669903;473.74695017;199;200;167;50372.000000;1.000000;1.000000;1.000000;1.000000;-0.081066;0.081066;-0.081066;1.000000
445593.16630180;5696573.39319904;473.74984982;129;130;105;32382.000000;1.000000;1.000000;1.000000;1.000000;-0.063726;0.063726;-0.063726;1.000000
445593.29370125;5696573.40929897;473.75804998;56;52;14;12593.000000;1.000000;1.000000;1.000000;1.000000;-0.157063;0.157063;-0.157063;1.000000
445593.28980072;5696573.05499943;473.73045017;87;87;45;21074.000000;1.000000;1.000000;1.000000;1.000000;-0.131674;0.131674;-0.131674;1.000000
445593.31830223;5696573.07599934;473.71334984;134;138;83;33410.000000;1.000000;1.000000;1.000000;1.000000;-0.160175;0.160175;-0.160175;1.000000
445593.24000175;5696572.98669918;473.76224997;89;89;62;22102.000000;1.000000;1.000000;1.000000;1.000000;-0.081875;0.081875;-0.081875;1.000000
445593.23910149;5696573.02649887;473.76034977;91;89;51;21845.000000;1.000000;1.000000;1.000000;1.000000;-0.080975;0.080975;-0.080975;1.000000
445593.25960167;5696573.18389900;473.73525002;78;62;24;15934.000000;1.000000;1.000000;1.000000;1.000000;-0.101475;0.101475;-0.101475;1.000000
445593.25830086;5696573.40779884;473.76114990;47;48;20;11308.000000;1.000000;1.000000;1.000000;1.000000;-0.126836;0.126836;-0.126836;1.000000
445593.31300171;5696573.43799885;473.75234987;115;115;62;28013.000000;1.000000;1.000000;1.000000;1.000000;-0.188812;0.188812;-0.188812;1.000000
445593.31340225;5696573.41919907;473.75675013;80;77;29;18504.000000;1.000000;1.000000;1.000000;1.000000;-0.179072;0.179072;-0.179072;1.000000
445593.31920059;5696573.11319931;473.71845009;92;86;45;21331.000000;1.000000;1.000000;1.000000;1.000000;-0.161074;0.161074;-0.161074;1.000000
445593.35410126;5696573.13119896;473.70624973;170;168;122;41891.000000;1.000000;1.000000;1.000000;1.000000;-0.195974;0.195974;-0.195974;1.000000
445593.20050247;5696573.46009930;473.75215008;116;115;74;28270.000000;1.000000;1.000000;1.000000;1.000000;-0.136827;0.136827;-0.136827;1.000000
445593.16270264;5696573.25569923;473.75264980;136;116;77;30069.000000;1.000000;1.000000;1.000000;1.000000;-0.004576;0.004576;-0.004576;1.000000
445593.18440063;5696572.99639900;473.77154972;40;36;11;8738.000000;1.000000;1.000000;1.000000;1.000000;-0.026274;0.026274;-0.026274;1.000000
445593.27010162;5696573.38109882;473.75664999;119;118;65;28784.000000;1.000000;1.000000;1.000000;1.000000;-0.123083;0.123083;-0.123083;1.000000
445593.24390228;5696573.32069881;473.74545004;165;160;98;39578.000000;1.000000;1.000000;1.000000;1.000000;-0.085775;0.085775;-0.085775;1.000000
445593.28140076;5696573.48269947;473.76774981;130;130;95;32382.000000;1.000000;1.000000;1.000000;1.000000;-0.196249;0.196249;-0.196249;1.000000
445593.16900070;5696573.32059868;473.74674990;159;151;122;38550.000000;1.000000;1.000000;1.000000;1.000000;-0.010874;0.010874;-0.010874;1.000000
445593.29710205;5696572.96079929;473.73665001;91;96;54;22873.000000;1.000000;1.000000;1.000000;1.000000;-0.138975;0.138975;-0.138975;1.000000
445593.27940186;5696573.32439907;473.74244978;177;173;100;42662.000000;1.000000;1.000000;1.000000;1.000000;-0.121275;-0.121275;0.121275;1.000000
445593.25620087;5696572.96179874;473.76504995;67;69;37;16448.000000;1.000000;1.000000;1.000000;1.000000;-0.098074;0.098074;-0.098074;1.000000
445593.32090195;5696573.02909954;473.71285011;102;90;53;22873.000000;1.000000;1.000000;1.000000;1.000000;-0.162775;0.162775;-0.162775;1.000000
445593.20310219;5696573.35949905;473.74405005;134;137;90;33410.000000;1.000000;1.000000;1.000000;1.000000;-0.053786;0.053786;-0.053786;1.000000
