//X;Y;Z;R;G;B;Intensity;Return Number;Number Of Returns;Scan Direction Flag;Point Source ID;C2M signed distances[-][<0.8];C2M signed distances[<0.4];C2M signed distances[-][<0.2];Stump83
445589.25230225;5696573.69429882;473.96784975;89;81;73;21074.000000;1.000000;1.000000;1.000000;1.000000;-0.135702;0.135702;-0.135702;1.000000
445589.50810059;5696573.77809914;473.96644976;26;19;14;5140.000000;1.000000;1.000000;1.000000;1.000000;-0.064015;0.064015;-0.064015;1.000000
445589.29840286;5696573.68539913;473.96514990;58;52;41;13364.000000;1.000000;1.000000;1.000000;1.000000;-0.144601;0.144601;-0.144601;1.000000
445589.37000092;5696573.72549923;473.96425011;70;67;52;16962.000000;1.000000;1.000000;1.000000;1.000000;-0.104501;0.104501;-0.104501;1.000000
445589.25870140;5696573.75929935;473.96194984;171;153;129;39835.000000;1.000000;1.000000;1.000000;1.000000;-0.071029;0.071029;-0.071029;1.000000
445589.25690277;5696573.79429920;473.96924974;167;145;118;38036.000000;1.000000;1.000000;1.000000;1.000000;-0.036053;0.036053;-0.036053;1.000000
445589.51570137;5696573.80779942;473.96245005;26;17;11;4883.000000;1.000000;1.000000;1.000000;1.000000;-0.050245;0.050245;-0.050245;1.000000
445589.40410049;5696573.83919914;473.96245005;167;163;141;41377.000000;1.000000;1.000000;1.000000;1.000000;0.009199;-0.009199;0.009199;1.000000
445589.58940132;5696573.84759911;473.96624996;178;164;144;42662.000000;1.000000;1.000000;1.000000;1.000000;0.120071;-0.120071;0.120071;1.000000
445589.55190094;5696573.84649952;473.96455004;160;145;125;37779.000000;1.000000;1.000000;1.000000;1.000000;0.082932;-0.082932;0.082932;1.000000
445589.55060013;5696573.88169868;473.96264984;50;35;17;9509.000000;1.000000;1.000000;1.000000;1.000000;0.095229;-0.095229;0.095229;1.000000
445589.28890045;5696573.90829952;473.96274998;159;146;126;37779.000000;1.000000;1.000000;1.000000;1.000000;0.078300;-0.078300;0.078300;1.000000
445589.33230026;5696573.72429951;473.96714975;72;64;49;16448.000000;1.000000;1.000000;1.000000;1.000000;-0.105700;0.105700;-0.105700;1.000000
445589.25990112;5696573.72179897;473.96154978;64;50;36;13364.000000;1.000000;1.000000;1.000000;1.000000;-0.108498;0.108498;-0.108498;1.000000
445589.48140152;5696573.76659878;473.96274998;48;43;34;11051.000000;1.000000;1.000000;1.000000;1.000000;-0.064310;0.064310;-0.064310;1.000000
445589.32670029;5696573.91179951;473.96215012;163;159;136;40349.000000;1.000000;1.000000;1.000000;1.000000;0.081800;-0.081800;0.081800;1.000000
445589.47420128;5696573.69239910;473.96854975;46;38;26;10023.000000;1.000000;1.000000;1.000000;1.000000;-0.137647;0.137647;-0.137647;1.000000
445589.47340210;5696573.73229893;473.96665003;58;52;42;13364.000000;1.000000;1.000000;1.000000;1.000000;-0.097740;0.097740;-0.097740;1.000000
445589.32550247;5696573.72499950;473.96455004;47;39;26;10023.000000;1.000000;1.000000;1.000000;1.000000;-0.105000;0.105000;-0.105000;1.000000
445589.28320129;5696573.79669960;473.96114971;93;69;40;18761.000000;1.000000;1.000000;1.000000;1.000000;-0.033300;0.033300;-0.033300;1.000000
445589.39480026;5696573.84009941;473.96204998;208;205;179;52171.000000;1.000000;1.000000;1.000000;1.000000;0.010099;-0.010099;0.010099;1.000000
445589.28210266;5696573.83419903;473.96154978;168;149;122;38807.000000;1.000000;1.000000;1.000000;1.000000;0.004199;-0.004199;0.004199;1.000000
445589.57990082;5696573.84619911;473.96584990;183;169;149;43947.000000;1.000000;1.000000;1.000000;1.000000;0.110468;-0.110468;0.110468;1.000000
445589.54250153;5696573.84499939;473.96414997;170;155;135;40349.000000;1.000000;1.000000;1.000000;1.000000;0.073423;-0.073423;0.073423;1.000000
445589.28090103;5696573.87169941;473.96194984;110;95;72;24672.000000;1.000000;1.000000;1.000000;1.000000;0.041699;-0.041699;0.041699;1.000000
445589.54140289;5696573.88249882;473.96215012;48;33;14;8995.000000;1.000000;1.000000;1.000000;1.000000;0.088121;-0.088121;0.088121;1.000000
445589.57870110;5696573.88369949;473.96624996;71;59;40;15420.000000;1.000000;1.000000;1.000000;1.000000;0.120680;-0.120680;0.120680;1.000000
445589.27970131;5696573.90909870;473.96234991;157;142;122;37008.000000;1.000000;1.000000;1.000000;1.000000;0.079099;-0.079099;0.079099;1.000000
445589.28910263;5696573.68629940;473.96474983;68;62;53;15934.000000;1.000000;1.000000;1.000000;1.000000;-0.143701;0.143701;-0.143701;1.000000
445589.25030144;5696573.72029884;473.96344997;45;31;20;8481.000000;1.000000;1.000000;1.000000;1.000000;-0.109701;0.109701;-0.109701;1.000000
445589.24910172;5696573.75779922;473.96385004;168;149;122;38807.000000;1.000000;1.000000;1.000000;1.000000;-0.072201;0.072201;-0.072201;1.000000
445589.31720169;5696573.91029938;473.96175005;158;152;130;38807.000000;1.000000;1.000000;1.000000;1.000000;0.080299;-0.080299;0.080299;1.000000
445589.50850113;5696573.80619915;473.96215012;21;15;10;4112.000000;1.000000;1.000000;1.000000;1.000000;-0.044732;0.044732;-0.044732;1.000000
445589.36060150;5696573.72639950;473.96614983;99;94;77;23901.000000;1.000000;1.000000;1.000000;1.000000;-0.103601;0.103601;-0.103601;1.000000
445589.20770081;5696573.65369900;473.99335005;44;36;29;9509.000000;1.000000;1.000000;1.000000;1.000000;-0.176301;0.176301;-0.176301;1.000000
445589.39100082;5696573.66239937;473.99004986;14;13;4;3084.000000;1.000000;1.000000;1.000000;1.000000;-0.167601;0.167601;-0.167601;1.000000
445589.57720192;5696573.70579918;473.99434998;70;56;36;14906.000000;1.000000;1.000000;1.000000;1.000000;-0.163658;0.163658;-0.163658;1.000000
445589.54230125;5696573.70679958;473.99274971;99;85;66;22359.000000;1.000000;1.000000;1.000000;1.000000;-0.142533;0.142533;-0.142533;1.000000
445589.31490143;5696573.73309906;473.95715000;41;29;15;7967.000000;1.000000;1.000000;1.000000;1.000000;-0.096901;0.096901;-0.096901;1.000000
445589.27740295;5696573.73189934;473.95545008;57;41;25;11308.000000;1.000000;1.000000;1.000000;1.000000;-0.098101;0.098101;-0.098101;1.000000
445589.57380112;5696573.74359901;473.99224998;77;63;50;16705.000000;1.000000;1.000000;1.000000;1.000000;-0.134574;0.134574;-0.134574;1.000000
445589.27850159;5696573.76919945;473.95825006;177;159;135;41377.000000;1.000000;1.000000;1.000000;1.000000;-0.060801;0.060801;-0.060801;1.000000
445589.31390198;5696573.77059944;473.95295002;95;80;57;20817.000000;1.000000;1.000000;1.000000;1.000000;-0.059401;0.059401;-0.059401;1.000000
445589.46170242;5696573.77789886;473.95734980;62;56;47;14392.000000;1.000000;1.000000;1.000000;1.000000;-0.052101;0.052101;-0.052101;1.000000
445589.46040161;5696573.81309898;473.95534994;175;172;162;43947.000000;1.000000;1.000000;1.000000;1.000000;-0.016901;0.016901;-0.016901;1.000000
445589.42280014;5696573.81189926;473.95604994;139;132;120;33924.000000;1.000000;1.000000;1.000000;1.000000;-0.018101;0.018101;-0.018101;1.000000
445589.38540085;5696573.81069954;473.95424988;148;137;117;35466.000000;1.000000;1.000000;1.000000;1.000000;-0.019300;0.019300;-0.019300;1.000000
445589.49570282;5696573.81679924;473.95704987;59;53;45;13621.000000;1.000000;1.000000;1.000000;1.000000;-0.028338;0.028338;-0.028338;1.000000
445589.38410194;5696573.84809883;473.95704987;168;167;136;41891.000000;1.000000;1.000000;1.000000;1.000000;0.018099;-0.018099;0.018099;1.000000
445589.49680145;5696573.85179909;473.95284988;89;77;61;20046.000000;1.000000;1.000000;1.000000;1.000000;0.034063;-0.034063;0.034063;1.000000
445589.34520157;5696573.88439949;473.96035006;131;135;98;33153.000000;1.000000;1.000000;1.000000;1.000000;0.054399;-0.054399;0.054399;1.000000
445589.38280113;5696573.88559921;473.95974972;87;86;60;21331.000000;1.000000;1.000000;1.000000;1.000000;0.055609;-0.055609;0.055609;1.000000
445589.30770119;5696573.88089951;473.95624973;127;121;94;30583.000000;1.000000;1.000000;1.000000;1.000000;0.050900;-0.050900;0.050900;1.000000
445589.53060158;5696573.89059933;473.95944979;64;51;26;13364.000000;1.000000;1.000000;1.000000;1.000000;-0.078470;0.078470;-0.078470;1.000000
445589.49560173;5696573.88919933;473.95324995;156;148;125;37779.000000;1.000000;1.000000;1.000000;1.000000;-0.057800;0.057800;-0.057800;1.000000
445589.31040199;5696573.80829914;473.95324995;97;74;48;20046.000000;1.000000;1.000000;1.000000;1.000000;-0.021701;0.021701;-0.021701;1.000000
445589.30930145;5696573.84579952;473.95125010;158;152;125;38550.000000;1.000000;1.000000;1.000000;1.000000;0.015800;-0.015800;0.015800;1.000000
445589.45930298;5696573.85059937;473.95344975;26;19;13;5140.000000;1.000000;1.000000;1.000000;1.000000;0.020599;-0.020599;0.020599;1.000000
445589.42030151;5696573.88679894;473.95914986;92;93;79;23387.000000;1.000000;1.000000;1.000000;1.000000;0.056799;-0.056799;0.056799;1.000000
445589.38780029;5696573.73569878;473.95354988;103;97;84;24929.000000;1.000000;1.000000;1.000000;1.000000;-0.094301;0.094301;-0.094301;1.000000
445589.34680183;5696573.84699924;473.95295002;170;171;136;42662.000000;1.000000;1.000000;1.000000;1.000000;0.017040;-0.017040;0.017040;1.000000
445589.19830139;5696573.65449913;473.99524977;48;41;33;10794.000000;1.000000;1.000000;1.000000;1.000000;-0.175501;0.175501;-0.175501;1.000000
445589.38380249;5696573.66079910;473.98974993;32;31;19;7453.000000;1.000000;1.000000;1.000000;1.000000;-0.169201;0.169201;-0.169201;1.000000
445589.56800278;5696573.70669945;473.99394991;56;40;21;10794.000000;1.000000;1.000000;1.000000;1.000000;-0.157115;0.157115;-0.157115;1.000000
445589.45340164;5696573.73889931;473.95655014;34;30;24;7710.000000;1.000000;1.000000;1.000000;1.000000;-0.091101;0.091101;-0.091101;1.000000
445589.38060196;5696573.73629959;473.95785000;88;81;67;20817.000000;1.000000;1.000000;1.000000;1.000000;-0.093756;0.093756;-0.093756;1.000000
445589.30550201;5696573.73169907;473.95445015;54;41;27;11051.000000;1.000000;1.000000;1.000000;1.000000;-0.098301;0.098301;-0.098301;1.000000
445589.30450256;5696573.77149876;473.95484974;111;96;72;24929.000000;1.000000;1.000000;1.000000;1.000000;-0.058501;0.058501;-0.058501;1.000000
445589.30080231;5696573.80679901;473.95505001;81;57;30;15677.000000;1.000000;1.000000;1.000000;1.000000;-0.023201;0.023201;-0.023201;1.000000
445589.37460144;5696573.84669884;473.95655014;132;134;99;33153.000000;1.000000;1.000000;1.000000;1.000000;0.016699;-0.016699;0.016699;1.000000
445589.33750160;5696573.84789951;473.95254995;163;164;131;41120.000000;1.000000;1.000000;1.000000;1.000000;0.017900;-0.017900;0.017900;1.000000
445589.29970177;5696573.84439953;473.95314981;170;162;136;41377.000000;1.000000;1.000000;1.000000;1.000000;0.014400;-0.014400;0.014400;1.000000
445589.52250107;5696573.85399921;473.95865013;168;152;131;39578.000000;1.000000;1.000000;1.000000;1.000000;0.057157;-0.057157;0.057157;1.000000
445589.48760040;5696573.85259922;473.95244982;51;41;29;10794.000000;1.000000;1.000000;1.000000;1.000000;0.028263;-0.028263;0.028263;1.000000
445589.44990166;5696573.85139950;473.95534994;30;25;19;6425.000000;1.000000;1.000000;1.000000;1.000000;0.021399;-0.021399;0.021399;1.000000
445589.29830177;5696573.88179882;473.95814993;123;113;88;29041.000000;1.000000;1.000000;1.000000;1.000000;0.051799;-0.051799;0.051799;1.000000
445589.41110046;5696573.88769920;473.95874979;64;63;48;15677.000000;1.000000;1.000000;1.000000;1.000000;0.057776;-0.057776;0.057776;1.000000
445589.56670197;5696573.74189957;473.99195005;80;69;58;18247.000000;1.000000;1.000000;1.000000;1.000000;-0.130354;0.130354;-0.130354;1.000000
445589.41330154;5696573.81039913;473.95785000;208;200;185;51400.000000;1.000000;1.000000;1.000000;1.000000;-0.019681;0.019681;-0.019681;1.000000
445589.33580215;5696573.88289936;473.95994999;188;190;156;47545.000000;1.000000;1.000000;1.000000;1.000000;0.052899;-0.052899;0.052899;1.000000
445589.44630249;5696573.88679894;473.95324995;88;86;73;21845.000000;1.000000;1.000000;1.000000;1.000000;0.056799;-0.056799;0.056799;1.000000
445589.48410233;5696573.89029892;473.95274975;198;193;173;49344.000000;1.000000;1.000000;1.000000;1.000000;-0.052785;0.052785;-0.052785;1.000000
445589.53050049;5696573.70549877;473.99224998;125;113;93;29298.000000;1.000000;1.000000;1.000000;1.000000;-0.138150;0.138150;-0.138150;1.000000
445589.26780136;5696573.73039921;473.95965006;48;33;17;8995.000000;1.000000;1.000000;1.000000;1.000000;-0.099723;0.099723;-0.099723;1.000000
445589.45460136;5696573.77619942;473.95464994;75;71;63;18247.000000;1.000000;1.000000;1.000000;1.000000;-0.053801;0.053801;-0.053801;1.000000
445589.48860176;5696573.81509884;473.95664980;121;115;105;29555.000000;1.000000;1.000000;1.000000;1.000000;-0.023348;0.023348;-0.023348;1.000000
445589.45120056;5696573.81399925;473.95265009;166;163;154;41634.000000;1.000000;1.000000;1.000000;1.000000;-0.016001;0.016001;-0.016001;1.000000
445589.52140244;5696573.89149960;473.95674994;73;60;34;15677.000000;1.000000;1.000000;1.000000;1.000000;-0.071090;0.071090;-0.071090;1.000000
445589.33990295;5696573.77289875;473.95174982;70;55;34;14649.000000;1.000000;1.000000;1.000000;1.000000;-0.057101;0.057101;-0.057101;1.000000
445589.20670135;5696573.64439877;473.99545004;121;110;100;28784.000000;1.000000;1.000000;1.000000;1.000000;-0.185601;0.185601;-0.185601;1.000000
445589.39250191;5696573.65299900;473.99004986;9;9;2;2056.000000;1.000000;1.000000;1.000000;1.000000;-0.177001;0.177001;-0.177001;1.000000
445589.57650192;5696573.69659908;473.99184992;85;72;49;18761.000000;1.000000;1.000000;1.000000;1.000000;-0.170309;0.170309;-0.170309;1.000000
445589.54120071;5696573.69519909;473.99254992;130;115;92;29812.000000;1.000000;1.000000;1.000000;1.000000;-0.152158;0.152158;-0.152158;1.000000
445589.27880295;5696573.72239883;473.95774986;111;98;82;25700.000000;1.000000;1.000000;1.000000;1.000000;-0.107601;0.107601;-0.107601;1.000000
445589.57520111;5696573.73399933;473.99454977;96;83;69;21845.000000;1.000000;1.000000;1.000000;1.000000;-0.141957;0.141957;-0.141957;1.000000
445589.42680176;5696573.72749908;473.95284988;59;53;44;13621.000000;1.000000;1.000000;1.000000;1.000000;-0.102501;0.102501;-0.102501;1.000000
445589.38920029;5696573.72849949;473.95814993;91;86;71;21845.000000;1.000000;1.000000;1.000000;1.000000;-0.101501;0.101501;-0.101501;1.000000
445589.54010208;5696573.73269947;473.99294998;24;14;8;4112.000000;1.000000;1.000000;1.000000;1.000000;-0.119558;0.119558;-0.119558;1.000000
445589.27760132;5696573.75989922;473.95814993;179;162;140;42148.000000;1.000000;1.000000;1.000000;1.000000;-0.070101;0.070101;-0.070101;1.000000
445589.31300171;5696573.76139935;473.95274975;125;110;90;28784.000000;1.000000;1.000000;1.000000;1.000000;-0.068601;0.068601;-0.068601;1.000000
445589.46290024;5696573.76609905;473.95725014;65;58;49;15163.000000;1.000000;1.000000;1.000000;1.000000;-0.063901;0.063901;-0.063901;1.000000
445589.45980270;5696573.80609901;473.95295002;88;85;76;21588.000000;1.000000;1.000000;1.000000;1.000000;-0.023901;0.023901;-0.023901;1.000000
445589.42230042;5696573.80489929;473.95354988;185;179;167;46003.000000;1.000000;1.000000;1.000000;1.000000;-0.025101;0.025101;-0.025101;1.000000
445589.38690193;5696573.80119904;473.95195009;130;117;99;30326.000000;1.000000;1.000000;1.000000;1.000000;-0.028801;0.028801;-0.028801;1.000000
445589.49600037;5696573.84249886;473.95265009;85;73;58;19018.000000;1.000000;1.000000;1.000000;1.000000;0.028285;-0.028285;0.028285;1.000000
445589.38550194;5696573.83869942;473.95694973;197;194;164;49087.000000;1.000000;1.000000;1.000000;1.000000;0.008699;-0.008699;0.008699;1.000000
445589.34660156;5696573.87259872;473.95795013;103;109;69;26214.000000;1.000000;1.000000;1.000000;1.000000;0.042610;-0.042610;0.042610;1.000000
445589.41950043;5696573.87749870;473.95895006;50;49;37;12079.000000;1.000000;1.000000;1.000000;1.000000;0.047499;-0.047499;0.047499;1.000000
445589.53220184;5696573.88339909;473.95944979;70;55;31;14392.000000;1.000000;1.000000;1.000000;1.000000;0.081504;-0.081504;0.081504;1.000000
445589.38430222;5696573.87609871;473.95965006;78;79;52;19275.000000;1.000000;1.000000;1.000000;1.000000;0.046099;-0.046099;0.046099;1.000000
445589.49490173;5696573.87999924;473.95074989;176;166;145;42662.000000;1.000000;1.000000;1.000000;1.000000;0.055580;-0.055580;0.055580;1.000000
445589.30790146;5696573.90889938;473.95895006;170;164;141;41891.000000;1.000000;1.000000;1.000000;1.000000;0.078899;-0.078899;0.078899;1.000000
445589.31190117;5696573.79879959;473.95314981;100;76;50;20560.000000;1.000000;1.000000;1.000000;1.000000;-0.031200;0.031200;-0.031200;1.000000
445589.49710281;5696573.80729874;473.95935013;29;21;14;5654.000000;1.000000;1.000000;1.000000;1.000000;-0.034876;0.034876;-0.034876;1.000000
445589.46070297;5696573.84109886;473.95344975;22;17;12;4369.000000;1.000000;1.000000;1.000000;1.000000;0.011099;-0.011099;0.011099;1.000000
445589.30920227;5696573.87149914;473.95624973;90;86;55;21331.000000;1.000000;1.000000;1.000000;1.000000;0.041499;-0.041499;0.041499;1.000000
445589.35050018;5696573.76249893;473.95445015;58;46;30;12079.000000;1.000000;1.000000;1.000000;1.000000;-0.067533;0.067533;-0.067533;1.000000
445589.43280228;5696573.69409950;473.95734980;109;113;80;27756.000000;1.000000;1.000000;1.000000;1.000000;-0.135900;0.135900;-0.135900;1.000000
445589.38320168;5696573.65379913;473.98955013;30;31;19;7453.000000;1.000000;1.000000;1.000000;1.000000;-0.176202;0.176202;-0.176202;1.000000
445589.56830032;5696573.73469933;473.99195005;96;82;70;21588.000000;1.000000;1.000000;1.000000;1.000000;-0.136464;0.136464;-0.136464;1.000000
445589.45260056;5696573.73199947;473.95874979;44;40;32;10280.000000;1.000000;1.000000;1.000000;1.000000;-0.098001;0.098001;-0.098001;1.000000
445589.41750153;5696573.72829922;473.95244982;72;67;59;17219.000000;1.000000;1.000000;1.000000;1.000000;-0.101701;0.101701;-0.101701;1.000000
445589.38220032;5696573.72909935;473.96014978;66;62;48;15677.000000;1.000000;1.000000;1.000000;1.000000;-0.100914;0.100914;-0.100914;1.000000
445589.30360229;5696573.75989922;473.95235016;145;130;110;33924.000000;1.000000;1.000000;1.000000;1.000000;-0.070101;0.070101;-0.070101;1.000000
445589.30230148;5696573.79739960;473.95505001;104;80;53;21588.000000;1.000000;1.000000;1.000000;1.000000;-0.032600;0.032600;-0.032600;1.000000
445589.41510208;5696573.80329903;473.95324995;219;212;198;54484.000000;1.000000;1.000000;1.000000;1.000000;-0.026701;0.026701;-0.026701;1.000000
445589.37640198;5696573.83959873;473.95424988;147;144;112;36237.000000;1.000000;1.000000;1.000000;1.000000;0.009599;-0.009599;0.009599;1.000000
445589.30120285;5696573.83489903;473.95314981;166;153;128;39578.000000;1.000000;1.000000;1.000000;1.000000;0.004899;-0.004899;0.004899;1.000000
445589.48640259;5696573.84099873;473.95454981;50;40;28;10537.000000;1.000000;1.000000;1.000000;1.000000;0.019231;-0.019231;0.019231;1.000000
445589.44910248;5696573.84209927;473.95524981;21;16;11;4112.000000;1.000000;1.000000;1.000000;1.000000;0.012099;-0.012099;0.012099;1.000000
445589.52400024;5696573.84449871;473.95865013;113;98;77;25700.000000;1.000000;1.000000;1.000000;1.000000;0.055308;-0.055308;0.055308;1.000000
445589.33730133;5696573.87349899;473.95755007;140;146;108;35980.000000;1.000000;1.000000;1.000000;1.000000;0.043499;-0.043499;0.043499;1.000000
445589.29990204;5696573.87229927;473.95585014;97;89;62;22616.000000;1.000000;1.000000;1.000000;1.000000;0.042299;-0.042299;0.042299;1.000000
445589.44780167;5696573.87729939;473.95324995;76;73;62;18504.000000;1.000000;1.000000;1.000000;1.000000;0.047299;-0.047299;0.047299;1.000000
445589.41000183;5696573.87609871;473.95855000;44;42;28;10537.000000;1.000000;1.000000;1.000000;1.000000;0.046137;-0.046137;0.046137;1.000000
445589.37250145;5696573.87489899;473.95914986;101;104;72;25443.000000;1.000000;1.000000;1.000000;1.000000;0.044899;-0.044899;0.044899;1.000000
445589.19950111;5696573.64269932;473.99744989;148;138;128;35723.000000;1.000000;1.000000;1.000000;1.000000;-0.187301;0.187301;-0.187301;1.000000
445589.56720169;5696573.69749935;473.99144985;77;63;40;16448.000000;1.000000;1.000000;1.000000;1.000000;-0.163961;0.163961;-0.163961;1.000000
445589.48770149;5696573.80579956;473.95655014;44;38;30;9766.000000;1.000000;1.000000;1.000000;1.000000;-0.029618;0.029618;-0.029618;1.000000
445589.45270164;5696573.80449875;473.95265009;128;125;116;31868.000000;1.000000;1.000000;1.000000;1.000000;-0.025501;0.025501;-0.025501;1.000000
445589.53210266;5696573.69609936;473.98985006;123;111;90;28784.000000;1.000000;1.000000;1.000000;1.000000;-0.147339;0.147339;-0.147339;1.000000
445589.26940163;5696573.72329910;473.95965006;80;67;51;17733.000000;1.000000;1.000000;1.000000;1.000000;-0.106753;0.106753;-0.106753;1.000000
445589.30480202;5696573.72469910;473.95664980;73;63;50;16448.000000;1.000000;1.000000;1.000000;1.000000;-0.105301;0.105301;-0.105301;1.000000
445589.45380219;5696573.76699932;473.95454981;87;82;74;21074.000000;1.000000;1.000000;1.000000;1.000000;-0.063001;0.063001;-0.063001;1.000000
445589.52290161;5696573.88199909;473.95664980;90;76;50;19789.000000;1.000000;1.000000;1.000000;1.000000;0.073733;-0.073733;0.073733;1.000000
445589.34100159;5696573.76109894;473.95405008;71;60;42;15677.000000;1.000000;1.000000;1.000000;1.000000;-0.068901;0.068901;-0.068901;1.000000
445589.27820023;5696573.69429882;473.96434977;75;68;58;17733.000000;1.000000;1.000000;1.000000;1.000000;-0.135701;0.135701;-0.135701;1.000000
445589.46500214;5696573.74009903;473.96175005;31;28;21;7196.000000;1.000000;1.000000;1.000000;1.000000;-0.089901;0.089901;-0.089901;1.000000
445589.35200127;5696573.73419960;473.96584990;110;101;84;25957.000000;1.000000;1.000000;1.000000;1.000000;-0.095802;0.095802;-0.095802;1.000000
445589.23810013;5696573.76579960;473.96574976;128;107;78;28270.000000;1.000000;1.000000;1.000000;1.000000;-0.064200;0.064200;-0.064200;1.000000
445589.27460297;5696573.80679901;473.96554996;112;88;60;23644.000000;1.000000;1.000000;1.000000;1.000000;-0.023201;0.023201;-0.023201;1.000000
445589.53520020;5696573.81759937;473.96584990;57;47;34;12336.000000;1.000000;1.000000;1.000000;1.000000;-0.065753;0.065753;-0.065753;1.000000
445589.27330215;5696573.84419926;473.96824982;159;140;117;36751.000000;1.000000;1.000000;1.000000;1.000000;0.014199;-0.014199;0.014199;1.000000
445589.42130096;5696573.84929951;473.96334984;25;22;10;5397.000000;1.000000;1.000000;1.000000;1.000000;0.019300;-0.019300;0.019300;1.000000
445589.53400238;5696573.85289867;473.96154978;191;176;156;45746.000000;1.000000;1.000000;1.000000;1.000000;0.067385;-0.067385;0.067385;1.000000
445589.56920059;5696573.85649879;473.96544983;143;128;107;33410.000000;1.000000;1.000000;1.000000;1.000000;0.102073;-0.102073;0.102073;1.000000
445589.27200134;5696573.87939938;473.96624996;103;85;67;22616.000000;1.000000;1.000000;1.000000;1.000000;0.049404;-0.049404;0.049404;1.000000
445589.27100189;5696573.91689880;473.96434977;193;178;160;46260.000000;1.000000;1.000000;1.000000;1.000000;0.086916;-0.086916;0.086916;1.000000
445589.46580132;5696573.70259960;473.96824982;26;22;12;5654.000000;1.000000;1.000000;1.000000;1.000000;-0.127400;0.127400;-0.127400;1.000000
445589.23960121;5696573.73059948;473.96304991;70;53;39;14392.000000;1.000000;1.000000;1.000000;1.000000;-0.099401;0.099401;-0.099401;1.000000
445589.49880035;5696573.77899940;473.96604969;38;34;27;8738.000000;1.000000;1.000000;1.000000;1.000000;-0.058265;0.058265;-0.058265;1.000000
445589.56740196;5696573.78129871;474.00645020;14;11;6;2827.000000;1.000000;1.000000;1.000000;1.000000;-0.108338;0.108338;-0.108338;1.000000
445589.34280212;5696573.73509892;473.96544983;88;78;60;20303.000000;1.000000;1.000000;1.000000;1.000000;-0.094901;0.094901;-0.094901;1.000000
445589.26650055;5696573.76789959;473.96234991;154;135;110;35209.000000;1.000000;1.000000;1.000000;1.000000;-0.062411;0.062411;-0.062411;1.000000
445589.26740082;5696573.80509956;473.96754982;140;117;90;30840.000000;1.000000;1.000000;1.000000;1.000000;-0.025458;0.025458;-0.025458;1.000000
445589.52580078;5696573.81619938;473.96304991;36;25;16;6939.000000;1.000000;1.000000;1.000000;1.000000;-0.056874;0.056874;-0.056874;1.000000
445589.56230171;5696573.85719879;473.96514990;121;106;86;27756.000000;1.000000;1.000000;1.000000;1.000000;0.095624;-0.095624;0.095624;1.000000
445589.26270111;5696573.88029869;473.96824982;73;56;38;15163.000000;1.000000;1.000000;1.000000;1.000000;0.051282;-0.051282;0.051282;1.000000
445589.37320145;5696573.88409908;473.96164991;98;98;67;24158.000000;1.000000;1.000000;1.000000;1.000000;0.054099;-0.054099;0.054099;1.000000
445589.26160248;5696573.91779907;473.96624996;186;172;155;44718.000000;1.000000;1.000000;1.000000;1.000000;0.088336;-0.088336;0.088336;1.000000
445589.26890190;5696573.69519909;473.96624996;84;76;67;19789.000000;1.000000;1.000000;1.000000;1.000000;-0.134855;0.134855;-0.134855;1.000000
445589.23220261;5696573.72889908;473.96735003;67;52;38;13878.000000;1.000000;1.000000;1.000000;1.000000;-0.101101;0.101101;-0.101101;1.000000
445589.23100098;5696573.76639946;473.96775009;130;110;83;29041.000000;1.000000;1.000000;1.000000;1.000000;-0.063601;0.063601;-0.063601;1.000000
445589.48940094;5696573.77749928;473.96324970;41;36;29;9252.000000;1.000000;1.000000;1.000000;1.000000;-0.055757;0.055757;-0.055757;1.000000
445589.41190155;5696573.84779938;473.96294977;49;48;29;11822.000000;1.000000;1.000000;1.000000;1.000000;0.018080;-0.018080;0.018080;1.000000
445589.30640228;5696573.69639881;473.96565010;39;34;20;8481.000000;1.000000;1.000000;1.000000;1.000000;-0.133601;0.133601;-0.133601;1.000000
445589.60080154;5696573.82079895;473.96884968;85;69;48;18247.000000;1.000000;1.000000;1.000000;1.000000;-0.130499;0.130499;-0.130499;1.000000
445589.56540115;5696573.78389938;474.00404980;17;14;9;3598.000000;1.000000;1.000000;1.000000;1.000000;-0.105392;0.105392;-0.105392;1.000000
445589.27960022;5696573.68479927;473.96665003;49;44;36;11308.000000;1.000000;1.000000;1.000000;1.000000;-0.145201;0.145201;-0.145201;1.000000
445589.46730240;5696573.69309910;473.96824982;30;25;13;6425.000000;1.000000;1.000000;1.000000;1.000000;-0.136901;0.136901;-0.136901;1.000000
445589.24090202;5696573.72109898;473.96534969;31;19;10;5397.000000;1.000000;1.000000;1.000000;1.000000;-0.108901;0.108901;-0.108901;1.000000
445589.31610115;5696573.72359951;473.96175005;46;37;23;9766.000000;1.000000;1.000000;1.000000;1.000000;-0.106400;0.106400;-0.106400;1.000000
445589.38870056;5696573.72389896;473.96035006;81;76;59;19275.000000;1.000000;1.000000;1.000000;1.000000;-0.106101;0.106101;-0.106101;1.000000
445589.46400269;5696573.73079880;473.96385004;40;36;27;9252.000000;1.000000;1.000000;1.000000;1.000000;-0.099201;0.099201;-0.099201;1.000000
445589.23970230;5696573.75859936;473.96574976;151;132;104;34438.000000;1.000000;1.000000;1.000000;1.000000;-0.071401;0.071401;-0.071401;1.000000
445589.53430183;5696573.80839928;473.96565010;48;38;27;10023.000000;1.000000;1.000000;1.000000;1.000000;-0.067239;0.067239;-0.067239;1.000000
445589.27240189;5696573.83269890;473.96574976;132;110;84;29041.000000;1.000000;1.000000;1.000000;1.000000;0.002716;-0.002716;0.002716;1.000000
445589.42050179;5696573.83999928;473.96324970;30;26;15;6425.000000;1.000000;1.000000;1.000000;1.000000;0.009999;-0.009999;0.009999;1.000000
445589.57070168;5696573.84709938;473.96544983;168;153;133;39835.000000;1.000000;1.000000;1.000000;1.000000;0.101525;-0.101525;0.101525;1.000000
445589.53330048;5696573.84589870;473.96134998;137;121;101;31611.000000;1.000000;1.000000;1.000000;1.000000;0.064659;-0.064659;0.064659;1.000000
445589.27350052;5696573.86989887;473.96624996;110;93;72;24415.000000;1.000000;1.000000;1.000000;1.000000;0.039899;-0.039899;0.039899;1.000000
445589.60700043;5696573.88569935;473.96525003;100;89;64;22873.000000;1.000000;1.000000;1.000000;1.000000;-0.147191;0.147191;-0.147191;1.000000
445589.27010162;5696573.90769871;473.96425011;148;133;114;34695.000000;1.000000;1.000000;1.000000;1.000000;0.077743;-0.077743;0.077743;1.000000
445589.27380188;5696573.79749878;473.96534969;116;92;64;24672.000000;1.000000;1.000000;1.000000;1.000000;-0.032501;0.032501;-0.032501;1.000000
445589.56950195;5696573.88449867;473.96584990;51;38;23;10280.000000;1.000000;1.000000;1.000000;1.000000;0.112900;-0.112900;0.112900;1.000000
445589.49790199;5696573.76969917;473.96584990;33;28;23;7196.000000;1.000000;1.000000;1.000000;1.000000;-0.066182;0.066182;-0.066182;1.000000
445589.35360153;5696573.72699936;473.96814968;136;130;112;33153.000000;1.000000;1.000000;1.000000;1.000000;-0.103001;0.103001;-0.103001;1.000000
445589.30540283;5696573.68709953;473.96784975;46;42;30;10537.000000;1.000000;1.000000;1.000000;1.000000;-0.142900;0.142900;-0.142900;1.000000
445589.27020081;5696573.68569954;473.96854975;23;17;11;4626.000000;1.000000;1.000000;1.000000;1.000000;-0.144322;0.144322;-0.144322;1.000000
445589.23160179;5696573.72199924;473.96724989;28;16;8;4626.000000;1.000000;1.000000;1.000000;1.000000;-0.108001;0.108001;-0.108001;1.000000
445589.37950142;5696573.72699936;473.96234991;74;71;56;17990.000000;1.000000;1.000000;1.000000;1.000000;-0.103034;0.103034;-0.103034;1.000000
445589.26570137;5696573.75859936;473.95994999;172;154;131;40092.000000;1.000000;1.000000;1.000000;1.000000;-0.071745;0.071745;-0.071745;1.000000
445589.23250015;5696573.75689896;473.96775009;131;112;87;29298.000000;1.000000;1.000000;1.000000;1.000000;-0.073101;0.073101;-0.073101;1.000000
445589.26650055;5696573.79579933;473.96735003;151;128;100;33667.000000;1.000000;1.000000;1.000000;1.000000;-0.034758;0.034758;-0.034758;1.000000
445589.52480133;5696573.80689915;473.96525003;33;23;15;6425.000000;1.000000;1.000000;1.000000;1.000000;-0.058894;0.058894;-0.058894;1.000000
445589.41090210;5696573.83849915;473.96504976;93;90;72;22616.000000;1.000000;1.000000;1.000000;1.000000;0.008941;-0.008941;0.008941;1.000000
445589.56120117;5696573.84559925;473.96495010;151;135;115;35209.000000;1.000000;1.000000;1.000000;1.000000;0.091908;-0.091908;0.091908;1.000000
445589.56010254;5696573.88309868;473.96304991;43;29;15;7967.000000;1.000000;1.000000;1.000000;1.000000;0.104045;-0.104045;0.104045;1.000000
445589.26070221;5696573.90849884;473.96614983;116;100;83;26214.000000;1.000000;1.000000;1.000000;1.000000;0.078993;-0.078993;0.078993;1.000000
445589.29850204;5696573.90969952;473.96084978;170;161;139;41377.000000;1.000000;1.000000;1.000000;1.000000;0.079700;-0.079700;0.079700;1.000000
445589.33590134;5696573.91089924;473.96254971;171;167;143;42405.000000;1.000000;1.000000;1.000000;1.000000;0.080899;-0.080899;0.080899;1.000000
445589.34180267;5696573.72579868;473.96764996;127;120;103;30840.000000;1.000000;1.000000;1.000000;1.000000;-0.104201;0.104201;-0.104201;1.000000
445589.49080093;5696573.76799877;473.96554996;47;42;35;10794.000000;1.000000;1.000000;1.000000;1.000000;-0.065201;0.065201;-0.065201;1.000000
445588.43260201;5696574.50529869;474.02194979;159;138;111;36237.000000;1.000000;1.000000;1.000000;1.000000;-0.175299;0.175299;-0.175299;1.000000
445588.12270172;5696574.36279877;474.06914999;141;144;136;36494.000000;1.000000;1.000000;1.000000;1.000000;-0.074306;0.074306;-0.074306;1.000000
445588.12170227;5696574.40029915;474.06495001;127;134;117;33410.000000;1.000000;1.000000;1.000000;1.000000;-0.097580;0.097580;-0.097580;1.000000
445588.19850166;5696574.32759960;474.07684996;114;122;110;30326.000000;1.000000;1.000000;1.000000;1.000000;-0.002400;0.002400;-0.002400;1.000000
445588.16110046;5696574.32639893;474.07515003;153;160;153;40349.000000;1.000000;1.000000;1.000000;1.000000;0.028505;-0.028505;0.028505;1.000000
445588.23410233;5696574.32679947;474.06444981;59;63;50;15420.000000;1.000000;1.000000;1.000000;1.000000;-0.003201;0.003201;-0.003201;1.000000
445588.32020195;5696574.51989944;474.05664970;109;95;70;24672.000000;1.000000;1.000000;1.000000;1.000000;-0.189899;0.189899;-0.189899;1.000000
445588.43330200;5696574.48659904;474.01944973;154;136;108;35466.000000;1.000000;1.000000;1.000000;1.000000;-0.156601;0.156601;-0.156601;1.000000
445588.13580139;5696574.47379883;474.05944969;119;112;90;28527.000000;1.000000;1.000000;1.000000;1.000000;-0.153455;0.153455;-0.153455;1.000000
445588.17330177;5696574.47499950;474.05884983;122;109;85;28270.000000;1.000000;1.000000;1.000000;1.000000;-0.145888;0.145888;-0.145888;1.000000
445588.39920242;5696574.44769867;474.02215006;175;162;137;41891.000000;1.000000;1.000000;1.000000;1.000000;-0.117699;0.117699;-0.117699;1.000000
445588.28520020;5696574.44369896;474.05415012;142;124;101;32382.000000;1.000000;1.000000;1.000000;1.000000;-0.113699;0.113699;-0.113699;1.000000
445588.31040199;5696574.33179958;474.04005005;172;166;141;42405.000000;1.000000;1.000000;1.000000;1.000000;0.001800;-0.001800;0.001800;1.000000
445588.42780121;5696574.18779953;474.04124977;82;74;45;18761.000000;1.000000;1.000000;1.000000;1.000000;0.050924;-0.050924;0.050924;1.000000
445588.43930252;5696574.37619884;474.02075006;95;87;69;22359.000000;1.000000;1.000000;1.000000;1.000000;-0.046199;0.046199;-0.046199;1.000000
445588.39650162;5696574.07629879;474.03854992;160;163;153;41377.000000;1.000000;1.000000;1.000000;1.000000;0.019625;-0.019625;0.019625;1.000000
445588.33940132;5696574.11879929;474.04575016;100;108;100;26728.000000;1.000000;1.000000;1.000000;1.000000;-0.037476;0.037476;-0.037476;1.000000
445588.08450134;5696574.43389900;474.07765009;119;123;109;30840.000000;1.000000;1.000000;1.000000;1.000000;-0.147628;0.147628;-0.147628;1.000000
445588.21750076;5696574.30029877;474.06575014;130;134;120;33667.000000;1.000000;1.000000;1.000000;1.000000;-0.029701;0.029701;-0.029701;1.000000
445588.10610016;5696574.33399876;474.06575014;149;153;144;38550.000000;1.000000;1.000000;1.000000;1.000000;-0.083373;0.083373;-0.083373;1.000000
445588.10220154;5696574.36929901;474.07065012;141;144;134;36494.000000;1.000000;1.000000;1.000000;1.000000;-0.095624;0.095624;-0.095624;1.000000
445588.41970261;5696574.15109928;474.04285004;77;68;39;17219.000000;1.000000;1.000000;1.000000;1.000000;0.042826;-0.042826;0.042826;1.000000
445588.37670143;5696574.28839882;474.03555014;120;114;87;28784.000000;1.000000;1.000000;1.000000;1.000000;-0.041601;0.041601;-0.041601;1.000000
445588.44860275;5696574.32859905;474.02764990;40;29;14;7710.000000;1.000000;1.000000;1.000000;1.000000;0.001401;-0.001401;0.001401;1.000000
445588.37560089;5696574.32589920;474.03354980;112;102;74;25957.000000;1.000000;1.000000;1.000000;1.000000;-0.004101;0.004101;-0.004101;1.000000
445588.37330063;5696574.40089901;474.03205015;56;49;27;12336.000000;1.000000;1.000000;1.000000;1.000000;0.070899;-0.070899;0.070899;1.000000
445588.36990173;5696574.43859871;474.03004982;155;146;122;37522.000000;1.000000;1.000000;1.000000;1.000000;-0.108599;0.108599;-0.108599;1.000000
445588.40640076;5696574.47729881;474.02745010;124;108;78;28013.000000;1.000000;1.000000;1.000000;1.000000;-0.147309;0.147309;-0.147309;1.000000
445588.40700157;5696574.51219948;474.03485014;183;163;138;42662.000000;1.000000;1.000000;1.000000;1.000000;-0.182203;0.182203;-0.182203;1.000000
445588.40700157;5696574.26219948;474.03424980;126;118;90;30069.000000;1.000000;1.000000;1.000000;1.000000;0.051610;-0.051610;0.051610;1.000000
445588.18150146;5696574.28969868;474.06395008;151;153;145;38807.000000;1.000000;1.000000;1.000000;1.000000;0.041064;-0.041064;0.041064;1.000000
445588.44120224;5696574.30109890;474.03154995;104;98;72;24672.000000;1.000000;1.000000;1.000000;1.000000;0.028901;-0.028901;0.028901;1.000000
445588.12040146;5696574.43549927;474.06295015;143;143;127;36237.000000;1.000000;1.000000;1.000000;1.000000;-0.126046;0.126046;-0.126046;1.000000
445588.32240112;5696574.49169930;474.05415012;113;95;69;24929.000000;1.000000;1.000000;1.000000;1.000000;-0.161699;0.161699;-0.161699;1.000000
445588.37240036;5696574.14839943;474.04764988;160;161;146;40863.000000;1.000000;1.000000;1.000000;1.000000;-0.004477;0.004477;-0.004477;1.000000
445588.29970177;5696574.14579876;474.04894974;56;62;65;15420.000000;1.000000;1.000000;1.000000;1.000000;-0.077175;0.077175;-0.077175;1.000000
445588.33380135;5696574.18699940;474.05104973;162;160;149;40863.000000;1.000000;1.000000;1.000000;1.000000;-0.043076;0.043076;-0.043076;1.000000
445588.37370117;5696574.18569954;474.04584982;123;118;94;29812.000000;1.000000;1.000000;1.000000;1.000000;-0.003176;0.003176;-0.003176;1.000000
445588.40590103;5696574.29969891;474.03464987;143;136;109;34695.000000;1.000000;1.000000;1.000000;1.000000;0.030383;-0.030383;0.030383;1.000000
445588.26320084;5696574.33139904;474.04955008;75;74;54;18504.000000;1.000000;1.000000;1.000000;1.000000;0.001399;-0.001399;0.001399;1.000000
445588.22450073;5696574.36769875;474.05055000;104;109;82;26728.000000;1.000000;1.000000;1.000000;1.000000;-0.037699;0.037699;-0.037699;1.000000
445588.22200211;5696574.44029911;474.04894974;122;105;81;27499.000000;1.000000;1.000000;1.000000;1.000000;-0.110299;0.110299;-0.110299;1.000000
445588.18660172;5696574.43889912;474.05205013;133;118;96;30840.000000;1.000000;1.000000;1.000000;1.000000;-0.108934;0.108934;-0.108934;1.000000
445588.40230186;5696574.33509930;474.03025009;96;88;62;22359.000000;1.000000;1.000000;1.000000;1.000000;-0.005204;0.005204;-0.005204;1.000000
445588.44010170;5696574.33639915;474.02495005;51;41;24;10794.000000;1.000000;1.000000;1.000000;1.000000;-0.006399;0.006399;-0.006399;1.000000
445588.36470230;5696574.40869911;474.03174974;63;57;28;14135.000000;1.000000;1.000000;1.000000;1.000000;-0.078699;0.078699;-0.078699;1.000000
445588.22690018;5696574.52379902;474.06185009;67;51;27;13621.000000;1.000000;1.000000;1.000000;1.000000;-0.193799;0.193799;-0.193799;1.000000
445588.32110031;5696574.52909954;474.05684998;126;112;87;29041.000000;1.000000;1.000000;1.000000;1.000000;-0.199100;0.199100;-0.199100;1.000000
445588.36340149;5696574.44609936;474.03445007;188;177;151;45489.000000;1.000000;1.000000;1.000000;1.000000;-0.116099;0.116099;-0.116099;1.000000
445588.25130280;5696574.37689884;474.04484989;127;129;97;31868.000000;1.000000;1.000000;1.000000;1.000000;0.046899;-0.046899;0.046899;1.000000
445588.21250160;5696574.41319950;474.04824974;171;167;143;42405.000000;1.000000;1.000000;1.000000;1.000000;0.083200;-0.083200;0.083200;1.000000
445588.33460052;5696574.19399937;474.04874994;133;132;117;33410.000000;1.000000;1.000000;1.000000;1.000000;-0.042276;0.042276;-0.042276;1.000000
445588.29460152;5696574.26769932;474.05025007;115;109;87;27756.000000;1.000000;1.000000;1.000000;1.000000;0.062301;-0.062301;0.062301;1.000000
445588.39770134;5696574.48509892;474.02944996;145;127;99;33153.000000;1.000000;1.000000;1.000000;1.000000;-0.155099;0.155099;-0.155099;1.000000
445588.43170174;5696574.52399929;474.02915003;179;157;128;41120.000000;1.000000;1.000000;1.000000;1.000000;-0.193999;0.193999;-0.193999;1.000000
445588.39630135;5696574.27259930;474.03385021;167;161;137;41120.000000;1.000000;1.000000;1.000000;1.000000;0.055802;-0.055802;0.055802;1.000000
445588.31760223;5696574.13719948;474.04734995;90;95;94;23901.000000;1.000000;1.000000;1.000000;1.000000;-0.059275;0.059275;-0.059275;1.000000
445588.43390091;5696574.27379902;474.03324987;154;148;123;37779.000000;1.000000;1.000000;1.000000;1.000000;0.056218;-0.056218;0.056218;1.000000
445588.26140030;5696574.38529881;474.04544975;111;111;82;27499.000000;1.000000;1.000000;1.000000;1.000000;0.055299;-0.055299;0.055299;1.000000
445588.38240250;5696574.20359905;474.04404976;98;93;65;23387.000000;1.000000;1.000000;1.000000;1.000000;0.005526;-0.005526;0.005526;1.000000
445588.17070206;5696574.29999931;474.06594994;149;153;144;38550.000000;1.000000;1.000000;1.000000;1.000000;0.035338;-0.035338;0.035338;1.000000
445588.39520081;5696574.31009872;474.03195002;117;109;81;27756.000000;1.000000;1.000000;1.000000;1.000000;0.019901;-0.019901;0.019901;1.000000
445588.43260201;5696574.30899914;474.03134968;106;98;73;24929.000000;1.000000;1.000000;1.000000;1.000000;0.021001;-0.021001;0.021001;1.000000
445588.19250114;5696574.28169926;474.06204988;138;140;132;35466.000000;1.000000;1.000000;1.000000;1.000000;0.048301;-0.048301;0.048301;1.000000
445588.15330132;5696574.31559952;474.07004978;158;164;156;41377.000000;1.000000;1.000000;1.000000;1.000000;0.038844;-0.038844;0.038844;1.000000
445588.41340073;5696574.32709892;474.02834990;63;55;31;13878.000000;1.000000;1.000000;1.000000;1.000000;0.002901;-0.002901;0.002901;1.000000
445588.25570114;5696574.50709923;474.06295015;73;56;32;14906.000000;1.000000;1.000000;1.000000;1.000000;-0.177099;0.177099;-0.177099;1.000000
445588.35580261;5696574.11959942;474.04654982;148;154;146;38807.000000;1.000000;1.000000;1.000000;1.000000;-0.021074;0.021074;-0.021074;1.000000
445588.07660110;5696574.36939915;474.06715014;152;155;142;39064.000000;1.000000;1.000000;1.000000;1.000000;-0.119460;0.119460;-0.119460;1.000000
445588.42930038;5696574.34669884;474.02694990;111;104;84;26471.000000;1.000000;1.000000;1.000000;1.000000;-0.016699;0.016699;-0.016699;1.000000
445588.39380081;5696574.34519871;474.03235008;117;108;83;27499.000000;1.000000;1.000000;1.000000;1.000000;-0.015199;0.015199;-0.015199;1.000000
445588.38830193;5696574.45799931;474.02644970;192;180;154;46260.000000;1.000000;1.000000;1.000000;1.000000;-0.127999;0.127999;-0.127999;1.000000
445588.45500191;5696574.44029911;474.01294996;130;118;99;30583.000000;1.000000;1.000000;1.000000;1.000000;-0.110299;0.110299;-0.110299;1.000000
445588.11600121;5696574.31439884;474.06365015;166;173;164;43433.000000;1.000000;1.000000;1.000000;1.000000;0.075016;-0.075016;0.075016;1.000000
445588.11360176;5696574.38939960;474.06675007;156;160;147;40349.000000;1.000000;1.000000;1.000000;1.000000;-0.096282;0.096282;-0.096282;1.000000
445588.07560165;5696574.38579948;474.07194998;165;167;156;42405.000000;1.000000;1.000000;1.000000;1.000000;-0.126722;0.126722;-0.126722;1.000000
445588.35450180;5696574.15709885;474.04925014;173;173;164;44204.000000;1.000000;1.000000;1.000000;1.000000;-0.022375;0.022375;-0.022375;1.000000
445588.19000061;5696574.35659893;474.06745007;113;121;102;29812.000000;1.000000;1.000000;1.000000;1.000000;-0.026599;0.026599;-0.026599;1.000000
445588.13310059;5696574.32439907;474.06914999;210;217;209;54998.000000;1.000000;1.000000;1.000000;1.000000;0.056554;-0.056554;0.056554;1.000000
445588.11460121;5696574.35189922;474.06864979;163;166;157;42148.000000;1.000000;1.000000;1.000000;1.000000;-0.077916;0.077916;-0.077916;1.000000
445588.11020096;5696574.42709930;474.06475021;147;148;132;37265.000000;1.000000;1.000000;1.000000;1.000000;-0.125288;0.125288;-0.125288;1.000000
445588.22640045;5696574.32049950;474.06635000;85;91;80;22359.000000;1.000000;1.000000;1.000000;1.000000;0.009501;-0.009501;0.009501;1.000000
445588.41220291;5696574.36459930;474.02874996;164;157;138;40349.000000;1.000000;1.000000;1.000000;1.000000;-0.034599;0.034599;-0.034599;1.000000
445588.10880096;5696574.46229942;474.06505014;79;76;56;19018.000000;1.000000;1.000000;1.000000;1.000000;-0.154905;0.154905;-0.154905;1.000000
445588.17890175;5696574.36459930;474.06944992;115;123;98;30069.000000;1.000000;1.000000;1.000000;1.000000;-0.036150;0.036150;-0.036150;1.000000
445588.27410133;5696574.32339867;474.04995014;135;133;113;33667.000000;1.000000;1.000000;1.000000;1.000000;-0.006601;0.006601;-0.006601;1.000000
445588.35280045;5696574.21329887;474.04754974;97;93;73;23644.000000;1.000000;1.000000;1.000000;1.000000;-0.024076;0.024076;-0.024076;1.000000
445588.20250137;5696574.26209934;474.05994989;152;153;143;38807.000000;1.000000;1.000000;1.000000;1.000000;-0.067901;0.067901;-0.067901;1.000000
445588.11530121;5696574.33309944;474.06615021;159;164;155;41377.000000;1.000000;1.000000;1.000000;1.000000;-0.074141;0.074141;-0.074141;1.000000
445588.21960266;5696574.24419888;474.05814983;167;171;158;43176.000000;1.000000;1.000000;1.000000;1.000000;-0.085801;0.085801;-0.085801;1.000000
445588.33560188;5696574.15649899;474.05074980;140;140;136;35723.000000;1.000000;1.000000;1.000000;1.000000;-0.041275;0.041275;-0.041275;1.000000
445588.29820068;5696574.15529926;474.04904987;81;84;83;21074.000000;1.000000;1.000000;1.000000;1.000000;-0.078676;0.078676;-0.078676;1.000000
445588.40620239;5696574.25299938;474.03415014;85;75;47;19018.000000;1.000000;1.000000;1.000000;1.000000;0.043931;-0.043931;0.043931;1.000000
445588.40500076;5696574.29039867;474.03445007;141;135;108;34181.000000;1.000000;1.000000;1.000000;1.000000;0.039725;-0.039725;0.039725;1.000000
445588.44250114;5696574.29159935;474.03385021;101;95;69;23901.000000;1.000000;1.000000;1.000000;1.000000;0.038401;-0.038401;0.038401;1.000000
445588.44150169;5696574.32689960;474.02724983;52;42;25;11051.000000;1.000000;1.000000;1.000000;1.000000;0.003100;-0.003100;0.003100;1.000000
445588.40400131;5696574.32799919;474.03025009;78;70;44;17733.000000;1.000000;1.000000;1.000000;1.000000;0.003390;-0.003390;0.003390;1.000000
445588.36400040;5696574.40169914;474.03394987;65;60;35;14906.000000;1.000000;1.000000;1.000000;1.000000;-0.071699;0.071699;-0.071699;1.000000
445588.39930161;5696574.40089901;474.02624990;44;35;22;9252.000000;1.000000;1.000000;1.000000;1.000000;-0.070899;0.070899;-0.070899;1.000000
445588.36270149;5696574.43689926;474.03195002;171;163;138;41634.000000;1.000000;1.000000;1.000000;1.000000;-0.106899;0.106899;-0.106899;1.000000
445588.39680298;5696574.47579868;474.02934982;147;130;101;33667.000000;1.000000;1.000000;1.000000;1.000000;-0.145799;0.145799;-0.145799;1.000000
445588.43100174;5696574.51469906;474.02664997;163;142;113;37265.000000;1.000000;1.000000;1.000000;1.000000;-0.184699;0.184699;-0.184699;1.000000
445588.39710052;5696574.23269947;474.03814985;111;102;81;26214.000000;1.000000;1.000000;1.000000;1.000000;0.023688;-0.023688;0.023688;1.000000
445588.35840042;5696574.26899918;474.03914978;153;148;123;37522.000000;1.000000;1.000000;1.000000;1.000000;-0.052000;0.052000;-0.052000;1.000000
445588.35730179;5696574.30649956;474.03714993;139;130;103;33153.000000;1.000000;1.000000;1.000000;1.000000;0.023500;-0.023500;0.023500;1.000000
445588.35610016;5696574.34399899;474.03754999;160;151;126;38550.000000;1.000000;1.000000;1.000000;1.000000;-0.013999;0.013999;-0.013999;1.000000
445588.28170212;5696574.37649925;474.04395010;106;102;75;25700.000000;1.000000;1.000000;1.000000;1.000000;0.046499;-0.046499;0.046499;1.000000
445588.31710251;5696574.38019951;474.04325010;140;134;108;33924.000000;1.000000;1.000000;1.000000;1.000000;-0.050200;0.050200;-0.050200;1.000000
445588.35150154;5696574.41919907;474.03595020;81;75;47;18761.000000;1.000000;1.000000;1.000000;1.000000;-0.089199;0.089199;-0.089199;1.000000
445588.35230072;5696574.45409878;474.03875019;200;187;161;48316.000000;1.000000;1.000000;1.000000;1.000000;-0.124099;0.124099;-0.124099;1.000000
445588.18310173;5696574.28019913;474.06164982;154;156;147;39578.000000;1.000000;1.000000;1.000000;1.000000;0.050195;-0.050195;0.050195;1.000000
445588.38670166;5696574.49529942;474.03615000;163;144;119;37522.000000;1.000000;1.000000;1.000000;1.000000;-0.165299;0.165299;-0.165299;1.000000
445588.31630142;5696574.17459877;474.05004980;123;124;117;31354.000000;1.000000;1.000000;1.000000;1.000000;-0.060575;0.060575;-0.060575;1.000000
445588.04610260;5696574.42569931;474.08274986;193;195;187;49601.000000;1.000000;1.000000;1.000000;1.000000;-0.172296;0.172296;-0.172296;1.000000
445588.28520020;5696574.47169884;474.05914976;139;123;97;31868.000000;1.000000;1.000000;1.000000;1.000000;-0.141699;0.141699;-0.141699;1.000000
445588.17360123;5696574.50299938;474.05914976;87;76;54;19532.000000;1.000000;1.000000;1.000000;1.000000;-0.173717;0.173717;-0.173717;1.000000
445588.13620193;5696574.50189884;474.05744984;90;82;61;21074.000000;1.000000;1.000000;1.000000;1.000000;-0.179936;0.179936;-0.179936;1.000000
445588.27900131;5696574.17349918;474.04605009;132;137;131;34438.000000;1.000000;1.000000;1.000000;1.000000;-0.097876;0.097876;-0.097876;1.000000
445588.32910164;5696574.11039932;474.04754974;79;89;80;21845.000000;1.000000;1.000000;1.000000;1.000000;-0.047775;0.047775;-0.047775;1.000000
445588.27770050;5696574.21089943;474.04874994;143;144;132;36494.000000;1.000000;1.000000;1.000000;1.000000;-0.099176;0.099176;-0.099176;1.000000
445588.39290054;5696574.14189919;474.04614975;117;115;96;29041.000000;1.000000;1.000000;1.000000;1.000000;0.016024;-0.016024;0.016024;1.000000
