//X;Y;Z;R;G;B;Intensity;Return Number;Number Of Returns;Scan Direction Flag;Point Source ID;C2M signed distances[-][<0.8];C2M signed distances[<0.4];C2M signed distances[-][<0.2];Stump82
445606.90100201;5696585.98839958;473.10885002;120;120;126;30840.000000;1.000000;1.000000;1.000000;1.000000;-0.100875;0.100875;-0.100875;1.000000
445606.83050163;5696585.91079910;473.11165001;138;137;133;34952.000000;1.000000;1.000000;1.000000;1.000000;-0.171375;0.171375;-0.171375;1.000000
445606.86560162;5696585.90989883;473.10855009;181;180;176;46003.000000;1.000000;1.000000;1.000000;1.000000;-0.136275;0.136275;-0.136275;1.000000
445606.86940201;5696585.87449844;473.10834982;109;102;95;26471.000000;1.000000;1.000000;1.000000;1.000000;-0.132475;0.132475;-0.132475;1.000000
445606.83300121;5696585.83579834;473.10855009;185;177;166;45746.000000;1.000000;1.000000;1.000000;1.000000;-0.168876;0.168876;-0.168876;1.000000
445606.86820133;5696585.83719833;473.10785009;186;177;167;45746.000000;1.000000;1.000000;1.000000;1.000000;-0.133676;0.133676;-0.133676;1.000000
445606.87330158;5696585.76219948;473.10015013;183;177;167;45489.000000;1.000000;1.000000;1.000000;1.000000;-0.145357;0.145357;-0.145357;1.000000
445606.83590134;5696585.76099976;473.09614994;159;149;137;38550.000000;1.000000;1.000000;1.000000;1.000000;-0.179747;0.179747;-0.179747;1.000000
445606.87200172;5696585.79959877;473.10295012;179;170;161;43947.000000;1.000000;1.000000;1.000000;1.000000;-0.133386;0.133386;-0.133386;1.000000
445606.82840164;5696585.93890007;473.11424973;226;227;224;58082.000000;1.000000;1.000000;1.000000;1.000000;-0.173475;0.173475;-0.173475;1.000000
445606.91780193;5696586.01719864;473.10755016;42;38;39;10023.000000;1.000000;1.000000;1.000000;1.000000;-0.084075;0.084075;-0.084075;1.000000
445606.90340145;5696585.91339882;473.10804989;215;214;212;54998.000000;1.000000;1.000000;1.000000;1.000000;-0.098475;0.098475;-0.098475;1.000000
445606.93520172;5696586.04619987;473.09245016;29;26;30;6939.000000;1.000000;1.000000;1.000000;1.000000;-0.066675;0.066675;-0.066675;1.000000
445606.88590153;5696585.66999825;473.09504988;162;155;145;39835.000000;1.000000;1.000000;1.000000;1.000000;-0.197613;0.197613;-0.197613;1.000000
445606.93490131;5696586.02489861;473.10844995;27;24;29;6425.000000;1.000000;1.000000;1.000000;1.000000;-0.066976;0.066976;-0.066976;1.000000
445606.89320190;5696585.93289955;473.11474993;233;234;234;59881.000000;1.000000;1.000000;1.000000;1.000000;-0.108675;0.108675;-0.108675;1.000000
445606.91110142;5696585.94989975;473.11814978;115;113;115;29041.000000;1.000000;1.000000;1.000000;1.000000;-0.090775;0.090775;-0.090775;1.000000
445606.83530148;5696585.77969940;473.09634974;144;135;123;34952.000000;1.000000;1.000000;1.000000;1.000000;-0.174004;0.174004;-0.174004;1.000000
445606.83650120;5696585.74229820;473.09595015;158;147;135;38036.000000;1.000000;1.000000;1.000000;1.000000;-0.187192;0.187192;-0.187192;1.000000
445606.86320122;5696586.00599869;473.10265018;18;19;25;4883.000000;1.000000;1.000000;1.000000;1.000000;-0.138676;0.138676;-0.138676;1.000000
445606.90550144;5696585.85729988;473.10045006;129;119;110;31097.000000;1.000000;1.000000;1.000000;1.000000;-0.096375;0.096375;-0.096375;1.000000
445606.83390148;5696585.81719978;473.10144999;193;186;174;47802.000000;1.000000;1.000000;1.000000;1.000000;-0.168462;0.168462;-0.168462;1.000000
445606.90670116;5696585.81979950;473.10004999;186;177;168;45746.000000;1.000000;1.000000;1.000000;1.000000;-0.095721;0.095721;-0.095721;1.000000
445606.91020115;5696585.78209885;473.09975006;144;137;128;35466.000000;1.000000;1.000000;1.000000;1.000000;-0.103436;0.103436;-0.103436;1.000000
445606.87270172;5696585.78089912;473.10034992;206;198;188;51143.000000;1.000000;1.000000;1.000000;1.000000;-0.138192;0.138192;-0.138192;1.000000
445606.81660183;5696585.77919968;473.09555008;164;154;143;39835.000000;1.000000;1.000000;1.000000;1.000000;-0.192113;0.192113;-0.192113;1.000000
445606.88200195;5696586.00659950;473.10115005;16;17;23;4369.000000;1.000000;1.000000;1.000000;1.000000;-0.119875;0.119875;-0.119875;1.000000
445606.88890179;5696585.85639961;473.10435011;150;141;132;36494.000000;1.000000;1.000000;1.000000;1.000000;-0.112975;0.112975;-0.112975;1.000000
445606.82510193;5696586.02129944;473.09875013;37;37;40;9509.000000;1.000000;1.000000;1.000000;1.000000;-0.176775;0.176775;-0.176775;1.000000
445606.80200203;5696585.88069923;473.11235001;102;96;86;24672.000000;1.000000;1.000000;1.000000;1.000000;-0.199875;0.199875;-0.199875;1.000000
445606.92420109;5696585.85779961;473.10134985;113;104;97;26985.000000;1.000000;1.000000;1.000000;1.000000;-0.077676;0.077676;-0.077676;1.000000
445606.83840187;5696585.91939934;473.10984995;191;192;188;49087.000000;1.000000;1.000000;1.000000;1.000000;-0.163475;0.163475;-0.163475;1.000000
445606.87590130;5696585.92059906;473.11154987;225;225;222;57568.000000;1.000000;1.000000;1.000000;1.000000;-0.125976;0.125976;-0.125976;1.000000
445606.91340168;5696585.92179878;473.11084988;230;232;230;59367.000000;1.000000;1.000000;1.000000;1.000000;-0.088475;0.088475;-0.088475;1.000000
445606.87740143;5696585.88539894;473.10885002;99;93;86;24158.000000;1.000000;1.000000;1.000000;1.000000;-0.124475;0.124475;-0.124475;1.000000
445606.87870129;5696585.84799965;473.10615017;188;180;170;46517.000000;1.000000;1.000000;1.000000;1.000000;-0.123176;0.123176;-0.123176;1.000000
445606.84070118;5696585.84439857;473.11135008;217;211;201;54227.000000;1.000000;1.000000;1.000000;1.000000;-0.161176;0.161176;-0.161176;1.000000
445606.89010151;5696585.81889923;473.10395004;184;175;167;45232.000000;1.000000;1.000000;1.000000;1.000000;-0.112325;0.112325;-0.112325;1.000000
445606.85390194;5696585.78029831;473.09954979;143;134;122;34695.000000;1.000000;1.000000;1.000000;1.000000;-0.156099;0.156099;-0.156099;1.000000
445606.89150150;5696585.78149994;473.09894993;161;154;144;39835.000000;1.000000;1.000000;1.000000;1.000000;-0.120561;0.120561;-0.120561;1.000000
445606.89290150;5696585.74629982;473.09854986;200;194;182;49858.000000;1.000000;1.000000;1.000000;1.000000;-0.137409;0.137409;-0.137409;1.000000
445606.87580116;5696585.68729980;473.09474995;154;148;136;38036.000000;1.000000;1.000000;1.000000;1.000000;-0.190416;0.190416;-0.190416;1.000000
445606.89420135;5696585.70889862;473.09585001;128;120;110;31097.000000;1.000000;1.000000;1.000000;1.000000;-0.162048;0.162048;-0.162048;1.000000
445606.89540203;5696585.67139824;473.09544994;150;145;134;37265.000000;1.000000;1.000000;1.000000;1.000000;-0.191027;0.191027;-0.191027;1.000000
445606.91230114;5696585.98719986;473.11625006;125;122;124;31611.000000;1.000000;1.000000;1.000000;1.000000;-0.089576;0.089576;-0.089576;1.000000
445606.93120201;5696585.94100006;473.11894991;133;133;133;34181.000000;1.000000;1.000000;1.000000;1.000000;-0.070675;0.070675;-0.070675;1.000000
445606.85240181;5696586.01400002;473.09994986;41;41;47;10537.000000;1.000000;1.000000;1.000000;1.000000;-0.149475;0.149475;-0.149475;1.000000
445606.81570156;5696585.82349976;473.10295012;173;165;152;42405.000000;1.000000;1.000000;1.000000;1.000000;-0.186289;0.186289;-0.186289;1.000000
445606.85750111;5696585.71699913;473.09665014;169;160;148;41377.000000;1.000000;1.000000;1.000000;1.000000;-0.183340;0.183340;-0.183340;1.000000
445606.89770134;5696586.02379997;473.09975006;37;35;38;8995.000000;1.000000;1.000000;1.000000;1.000000;-0.104176;0.104176;-0.104176;1.000000
445606.87380131;5696585.74339874;473.10004999;165;157;145;40606.000000;1.000000;1.000000;1.000000;1.000000;-0.154606;0.154606;-0.154606;1.000000
445606.87550171;5696585.70829971;473.09494974;155;146;135;37779.000000;1.000000;1.000000;1.000000;1.000000;-0.175447;0.175447;-0.175447;1.000000
445606.87180145;5696585.77159889;473.10024979;191;185;175;47545.000000;1.000000;1.000000;1.000000;1.000000;-0.142584;0.142584;-0.142584;1.000000
445606.91170128;5696585.74699982;473.09704973;149;144;132;37008.000000;1.000000;1.000000;1.000000;1.000000;-0.122559;0.122559;-0.122559;1.000000
445606.89830120;5696586.00509842;473.09954979;28;30;36;7710.000000;1.000000;1.000000;1.000000;1.000000;-0.103576;0.103576;-0.103576;1.000000
445606.86000164;5696586.04149826;473.09124996;85;81;79;20817.000000;1.000000;1.000000;1.000000;1.000000;-0.141875;0.141875;-0.141875;1.000000
445606.84280117;5696586.01260002;473.10185005;42;41;47;10537.000000;1.000000;1.000000;1.000000;1.000000;-0.159076;0.159076;-0.159076;1.000000
445606.80540188;5696586.01139839;473.10004999;48;48;55;12336.000000;1.000000;1.000000;1.000000;1.000000;-0.196475;0.196475;-0.196475;1.000000
445606.89120110;5696585.75350006;473.09854986;185;180;169;46260.000000;1.000000;1.000000;1.000000;1.000000;-0.134541;0.134541;-0.134541;1.000000
445606.85610111;5696585.75210007;473.09695007;115;106;94;27499.000000;1.000000;1.000000;1.000000;1.000000;-0.165285;0.165285;-0.165285;1.000000
445606.81420143;5696586.02929886;473.09604980;53;51;51;13107.000000;1.000000;1.000000;1.000000;1.000000;-0.187675;0.187675;-0.187675;1.000000
445606.82500179;5696585.76899918;473.09574987;180;170;160;43947.000000;1.000000;1.000000;1.000000;1.000000;-0.187099;0.187099;-0.187099;1.000000
445606.82870110;5696585.73369987;473.09555008;173;161;148;41891.000000;1.000000;1.000000;1.000000;1.000000;-0.198150;0.198150;-0.198150;1.000000
445606.89760120;5696585.84859856;473.10234978;167;157;148;40863.000000;1.000000;1.000000;1.000000;1.000000;-0.104276;0.104276;-0.104276;1.000000
445606.89880188;5696585.81110008;473.10195019;187;178;169;46003.000000;1.000000;1.000000;1.000000;1.000000;-0.104793;0.104793;-0.104793;1.000000
445606.90020187;5696585.77369888;473.09684994;133;126;117;32639.000000;1.000000;1.000000;1.000000;1.000000;-0.116222;0.116222;-0.116222;1.000000
445606.90140160;5696585.73619850;473.09655001;173;166;154;42662.000000;1.000000;1.000000;1.000000;1.000000;-0.137455;0.137455;-0.137455;1.000000
445606.90490158;5696585.69849976;473.09625008;126;119;109;30583.000000;1.000000;1.000000;1.000000;1.000000;-0.163391;0.163391;-0.163391;1.000000
445606.92510136;5696585.86709984;473.10144999;141;132;126;34438.000000;1.000000;1.000000;1.000000;1.000000;-0.076776;0.076776;-0.076776;1.000000
445606.81540115;5696586.04089935;473.09394981;68;66;63;16962.000000;1.000000;1.000000;1.000000;1.000000;-0.186476;0.186476;-0.186476;1.000000
445606.80450161;5696586.04889877;473.09354975;100;99;95;25186.000000;1.000000;1.000000;1.000000;1.000000;-0.197375;0.197375;-0.197375;1.000000
445606.84200199;5696586.05009850;473.09284975;170;165;161;42662.000000;1.000000;1.000000;1.000000;1.000000;-0.159875;0.159875;-0.159875;1.000000
445606.83620174;5696585.99439819;473.10825016;34;33;40;8738.000000;1.000000;1.000000;1.000000;1.000000;-0.165675;0.165675;-0.165675;1.000000
445606.89620121;5696585.68069847;473.09564974;146;141;130;36237.000000;1.000000;1.000000;1.000000;1.000000;-0.182916;0.182916;-0.182916;1.000000
445606.85300167;5696586.04209908;473.09324982;97;91;90;23644.000000;1.000000;1.000000;1.000000;1.000000;-0.148875;0.148875;-0.148875;1.000000
445606.90870197;5696586.01579865;473.10015013;26;25;29;6425.000000;1.000000;1.000000;1.000000;1.000000;-0.093175;0.093175;-0.093175;1.000000
445606.86370190;5696585.73499878;473.09945013;140;131;119;33924.000000;1.000000;1.000000;1.000000;1.000000;-0.167683;0.167683;-0.167683;1.000000
445606.86740120;5696585.69739922;473.09455015;168;160;149;41377.000000;1.000000;1.000000;1.000000;1.000000;-0.188856;0.188856;-0.188856;1.000000
445606.82620152;5696585.80859955;473.09865000;190;182;171;47031.000000;1.000000;1.000000;1.000000;1.000000;-0.176974;0.176974;-0.176974;1.000000
445606.80590160;5696585.84539993;473.10745003;191;184;171;47288.000000;1.000000;1.000000;1.000000;1.000000;-0.195975;0.195975;-0.195975;1.000000
445606.86250122;5696585.77249916;473.09985020;157;149;139;38550.000000;1.000000;1.000000;1.000000;1.000000;-0.150771;0.150771;-0.150771;1.000000
445606.93480118;5696586.04379852;473.09704973;29;26;30;6939.000000;1.000000;1.000000;1.000000;1.000000;-0.067076;0.067076;-0.067076;1.000000
445606.86330135;5696585.80739983;473.10265018;197;189;179;48830.000000;1.000000;1.000000;1.000000;1.000000;-0.140406;0.140406;-0.140406;1.000000
445606.88920124;5696586.03169830;473.09714987;31;28;29;7453.000000;1.000000;1.000000;1.000000;1.000000;-0.112676;0.112676;-0.112676;1.000000
445606.92690189;5696586.03519829;473.09884979;27;24;27;6425.000000;1.000000;1.000000;1.000000;1.000000;-0.074975;0.074975;-0.074975;1.000000
445606.87140186;5696585.99579819;473.10755016;31;30;36;7710.000000;1.000000;1.000000;1.000000;1.000000;-0.130475;0.130475;-0.130475;1.000000
445606.91410168;5696585.87509926;473.10335018;156;146;140;38036.000000;1.000000;1.000000;1.000000;1.000000;-0.087775;0.087775;-0.087775;1.000000
445606.91790112;5696585.83979996;473.10085012;120;110;102;28784.000000;1.000000;1.000000;1.000000;1.000000;-0.083976;0.083976;-0.083976;1.000000
445606.91690166;5696585.80249985;473.09795000;165;157;149;40606.000000;1.000000;1.000000;1.000000;1.000000;-0.089314;0.089314;-0.089314;1.000000
445606.88150127;5696585.80109985;473.10104992;175;167;158;43176.000000;1.000000;1.000000;1.000000;1.000000;-0.123796;0.123796;-0.123796;1.000000
445606.88400181;5696585.72619827;473.09795000;136;128;117;33153.000000;1.000000;1.000000;1.000000;1.000000;-0.157065;0.157065;-0.157065;1.000000
445606.84660156;5696585.72499855;473.09625008;173;162;150;41891.000000;1.000000;1.000000;1.000000;1.000000;-0.187445;0.187445;-0.187445;1.000000
445606.90870197;5696585.99689873;473.11154987;99;98;102;25186.000000;1.000000;1.000000;1.000000;1.000000;-0.093175;0.093175;-0.093175;1.000000
445606.89870174;5696586.03309830;473.09754993;30;27;29;7196.000000;1.000000;1.000000;1.000000;1.000000;-0.103175;0.103175;-0.103175;1.000000
445606.93520172;5696586.00840004;473.11754992;32;31;34;7967.000000;1.000000;1.000000;1.000000;1.000000;-0.066675;0.066675;-0.066675;1.000000
445606.83760174;5696585.93809898;473.11464979;226;228;225;58339.000000;1.000000;1.000000;1.000000;1.000000;-0.164275;0.164275;-0.164275;1.000000
445606.87510117;5696585.93929871;473.11634972;219;220;219;56283.000000;1.000000;1.000000;1.000000;1.000000;-0.126776;0.126776;-0.126776;1.000000
445606.91250141;5696585.94039925;473.11805012;176;177;177;45232.000000;1.000000;1.000000;1.000000;1.000000;-0.089375;0.089375;-0.089375;1.000000
445606.84000118;5696585.86309822;473.11385014;206;201;192;51657.000000;1.000000;1.000000;1.000000;1.000000;-0.161876;0.161876;-0.161876;1.000000
445606.87300117;5696585.96749886;473.11665012;47;48;53;12336.000000;1.000000;1.000000;1.000000;1.000000;-0.128876;0.128876;-0.128876;1.000000
445606.88540180;5696585.68869980;473.09284975;159;153;142;39321.000000;1.000000;1.000000;1.000000;1.000000;-0.183118;0.183118;-0.183118;1.000000
445606.80500134;5696586.03019913;473.09564974;56;54;56;13878.000000;1.000000;1.000000;1.000000;1.000000;-0.196876;0.196876;-0.196876;1.000000
445606.81810196;5696585.76969917;473.09544994;186;177;166;45746.000000;1.000000;1.000000;1.000000;1.000000;-0.193415;0.193415;-0.193415;1.000000
445606.92450150;5696585.88589867;473.10164978;122;114;110;29555.000000;1.000000;1.000000;1.000000;1.000000;-0.077375;0.077375;-0.077375;1.000000
445606.88810165;5696585.84719856;473.10185005;186;176;167;45746.000000;1.000000;1.000000;1.000000;1.000000;-0.113775;0.113775;-0.113775;1.000000
445606.88930138;5696585.80970009;473.10144999;182;174;165;44975.000000;1.000000;1.000000;1.000000;1.000000;-0.114391;0.114391;-0.114391;1.000000
445606.89060123;5696585.77219971;473.09875013;147;141;131;36237.000000;1.000000;1.000000;1.000000;1.000000;-0.125392;0.125392;-0.125392;1.000000
445606.89180191;5696585.73479851;473.09835007;192;184;172;47545.000000;1.000000;1.000000;1.000000;1.000000;-0.145533;0.145533;-0.145533;1.000000
445606.87440117;5696585.93229874;473.11625006;208;209;207;53456.000000;1.000000;1.000000;1.000000;1.000000;-0.127476;0.127476;-0.127476;1.000000
445606.91200169;5696585.93349846;473.11564972;211;213;213;54484.000000;1.000000;1.000000;1.000000;1.000000;-0.089875;0.089875;-0.089875;1.000000
445606.85920151;5696585.89180000;473.11044981;95;91;84;23387.000000;1.000000;1.000000;1.000000;1.000000;-0.142675;0.142675;-0.142675;1.000000
445606.86030109;5696585.85429962;473.11235001;172;165;155;42662.000000;1.000000;1.000000;1.000000;1.000000;-0.141576;0.141576;-0.141576;1.000000
445606.82280167;5696585.85309990;473.11065008;165;159;147;40863.000000;1.000000;1.000000;1.000000;1.000000;-0.179075;0.179075;-0.179075;1.000000
445606.82530125;5696586.00239952;473.10554983;49;48;55;12593.000000;1.000000;1.000000;1.000000;1.000000;-0.176576;0.176576;-0.176576;1.000000
445606.90410145;5696585.89469917;473.10545017;88;81;78;21074.000000;1.000000;1.000000;1.000000;1.000000;-0.097775;0.097775;-0.097775;1.000000
445606.86890133;5696585.81849869;473.10535004;179;171;162;44204.000000;1.000000;1.000000;1.000000;1.000000;-0.133472;0.133472;-0.133472;1.000000
445606.84150131;5696585.85359962;473.11385014;217;211;202;54227.000000;1.000000;1.000000;1.000000;1.000000;-0.160376;0.160376;-0.160376;1.000000
445606.85180195;5696585.80849846;473.10214998;205;198;188;51143.000000;1.000000;1.000000;1.000000;1.000000;-0.151607;0.151607;-0.151607;1.000000
445606.85800179;5696585.69590004;473.09404995;179;171;160;44204.000000;1.000000;1.000000;1.000000;1.000000;-0.196680;0.196680;-0.196680;1.000000
445606.85320194;5696585.77109917;473.09704973;130;121;110;31354.000000;1.000000;1.000000;1.000000;1.000000;-0.159917;0.159917;-0.159917;1.000000
445606.83750160;5696585.96369942;473.11964991;112;112;116;28784.000000;1.000000;1.000000;1.000000;1.000000;-0.164375;0.164375;-0.164375;1.000000
445606.85660179;5696585.73339851;473.09914972;148;138;124;35723.000000;1.000000;1.000000;1.000000;1.000000;-0.174461;0.174461;-0.174461;1.000000
445606.81440170;5696585.80739983;473.09805014;193;185;173;47802.000000;1.000000;1.000000;1.000000;1.000000;-0.188833;0.188833;-0.188833;1.000000
445606.80540188;5696586.05819901;473.09364988;158;156;151;40092.000000;1.000000;1.000000;1.000000;1.000000;-0.196475;0.196475;-0.196475;1.000000
445606.91760166;5696586.03599937;473.09844973;23;20;21;5397.000000;1.000000;1.000000;1.000000;1.000000;-0.084275;0.084275;-0.084275;1.000000
445606.87980183;5696586.05139931;473.08764984;80;75;71;19532.000000;1.000000;1.000000;1.000000;1.000000;-0.122075;0.122075;-0.122075;1.000000
445606.90840157;5696585.83829887;473.10034992;159;150;142;38807.000000;1.000000;1.000000;1.000000;1.000000;-0.093475;0.093475;-0.093475;1.000000
445606.93540199;5696586.02729996;473.10155012;30;28;33;7453.000000;1.000000;1.000000;1.000000;1.000000;-0.066475;0.066475;-0.066475;1.000000
445606.81580170;5696586.00099953;473.10745003;50;49;56;12850.000000;1.000000;1.000000;1.000000;1.000000;-0.186075;0.186075;-0.186075;1.000000
445606.92630203;5696586.00929840;473.11014988;56;56;60;14392.000000;1.000000;1.000000;1.000000;1.000000;-0.075575;0.075575;-0.075575;1.000000
445606.82050140;5696585.92799957;473.11144974;182;183;179;46774.000000;1.000000;1.000000;1.000000;1.000000;-0.181376;0.181376;-0.181376;1.000000
445606.89460190;5696585.89320000;473.10505011;84;76;72;19789.000000;1.000000;1.000000;1.000000;1.000000;-0.107275;0.107275;-0.107275;1.000000
445606.86190136;5696585.81919868;473.10734989;198;190;179;49087.000000;1.000000;1.000000;1.000000;1.000000;-0.140392;0.140392;-0.140392;1.000000
445606.84390171;5696585.79759987;473.09924986;180;172;162;44461.000000;1.000000;1.000000;1.000000;1.000000;-0.161264;0.161264;-0.161264;1.000000
445606.85350140;5696586.00449951;473.10685017;35;34;39;8738.000000;1.000000;1.000000;1.000000;1.000000;-0.148376;0.148376;-0.148376;1.000000
445606.83410175;5696586.04149826;473.09474995;112;109;107;28013.000000;1.000000;1.000000;1.000000;1.000000;-0.167775;0.167775;-0.167775;1.000000
445606.88040169;5696586.03489883;473.09214975;32;27;29;7196.000000;1.000000;1.000000;1.000000;1.000000;-0.121475;0.121475;-0.121475;1.000000
445606.83440121;5696586.02039917;473.09684994;35;34;37;8738.000000;1.000000;1.000000;1.000000;1.000000;-0.167476;0.167476;-0.167476;1.000000
445606.80640133;5696585.79639824;473.09754993;183;173;162;44718.000000;1.000000;1.000000;1.000000;1.000000;-0.198343;0.198343;-0.198343;1.000000
445606.87190159;5696585.97699936;473.10965015;51;55;61;13878.000000;1.000000;1.000000;1.000000;1.000000;-0.129975;0.129975;-0.129975;1.000000
445606.91420181;5696585.90309914;473.10605003;141;137;135;35209.000000;1.000000;1.000000;1.000000;1.000000;-0.087675;0.087675;-0.087675;1.000000
445606.83900173;5696585.90069969;473.10965015;118;115;109;29555.000000;1.000000;1.000000;1.000000;1.000000;-0.162875;0.162875;-0.162875;1.000000
445606.87930115;5696585.82919891;473.10594990;192;183;174;47288.000000;1.000000;1.000000;1.000000;1.000000;-0.122578;0.122578;-0.122578;1.000000
445606.82470139;5696586.04009827;473.09434988;85;82;80;21074.000000;1.000000;1.000000;1.000000;1.000000;-0.177176;0.177176;-0.177176;1.000000
445606.88270195;5696585.76359947;473.10064985;187;182;171;46774.000000;1.000000;1.000000;1.000000;1.000000;-0.136425;0.136425;-0.136425;1.000000
445606.84540184;5696585.76249893;473.09665014;125;116;105;30069.000000;1.000000;1.000000;1.000000;1.000000;-0.170414;0.170414;-0.170414;1.000000
445606.87210186;5696586.02389915;473.09854986;29;28;31;7196.000000;1.000000;1.000000;1.000000;1.000000;-0.129775;0.129775;-0.129775;1.000000
445606.82010181;5696585.89999969;473.11345007;158;156;149;39835.000000;1.000000;1.000000;1.000000;1.000000;-0.181775;0.181775;-0.181775;1.000000
445606.89310177;5696585.97969826;473.11065008;100;102;107;25957.000000;1.000000;1.000000;1.000000;1.000000;-0.108775;0.108775;-0.108775;1.000000
445606.85770138;5696585.90119942;473.11044981;110;106;101;27242.000000;1.000000;1.000000;1.000000;1.000000;-0.144176;0.144176;-0.144176;1.000000
445606.82130154;5696585.86249931;473.11305000;169;164;153;42148.000000;1.000000;1.000000;1.000000;1.000000;-0.180575;0.180575;-0.180575;1.000000
445606.86110123;5696585.86349876;473.11254980;136;128;119;33153.000000;1.000000;1.000000;1.000000;1.000000;-0.140776;0.140776;-0.140776;1.000000
445606.86010178;5696585.82629974;473.10965015;193;186;175;47802.000000;1.000000;1.000000;1.000000;1.000000;-0.141823;0.141823;-0.141823;1.000000
445606.81560143;5696586.01979836;473.09835007;43;42;46;10794.000000;1.000000;1.000000;1.000000;1.000000;-0.186275;0.186275;-0.186275;1.000000
445606.82530125;5696585.79699905;473.09614994;168;160;149;41377.000000;1.000000;1.000000;1.000000;1.000000;-0.179633;0.179633;-0.179633;1.000000
445606.82670124;5696585.76190002;473.09574987;187;177;166;45746.000000;1.000000;1.000000;1.000000;1.000000;-0.187947;0.187947;-0.187947;1.000000
445606.85310181;5696586.02099998;473.09774973;43;42;45;10794.000000;1.000000;1.000000;1.000000;1.000000;-0.148775;0.148775;-0.148775;1.000000
445606.89530190;5696585.87449844;473.10255005;140;132;125;34181.000000;1.000000;1.000000;1.000000;1.000000;-0.106575;0.106575;-0.106575;1.000000
445606.89670189;5696585.83939941;473.10214998;189;179;170;46517.000000;1.000000;1.000000;1.000000;1.000000;-0.105175;0.105175;-0.105175;1.000000
445606.89800175;5696585.80189903;473.09945013;183;174;166;44975.000000;1.000000;1.000000;1.000000;1.000000;-0.107609;0.107609;-0.107609;1.000000
445606.90150173;5696585.76419838;473.09914972;148;143;134;36751.000000;1.000000;1.000000;1.000000;1.000000;-0.120021;0.120021;-0.120021;1.000000
445606.90280159;5696585.72679909;473.09644987;154;145;133;37522.000000;1.000000;1.000000;1.000000;1.000000;-0.143061;0.143061;-0.143061;1.000000
445606.90400131;5696585.68929871;473.09604980;146;140;131;35980.000000;1.000000;1.000000;1.000000;1.000000;-0.171396;0.171396;-0.171396;1.000000
445606.93610199;5696585.99650009;473.12675001;87;83;83;21588.000000;1.000000;1.000000;1.000000;1.000000;-0.065775;0.065775;-0.065775;1.000000
445606.87660130;5696585.90189941;473.10895016;113;110;105;28270.000000;1.000000;1.000000;1.000000;1.000000;-0.125276;0.125276;-0.125276;1.000000
445606.80270203;5696585.86199959;473.10984995;140;134;122;34438.000000;1.000000;1.000000;1.000000;1.000000;-0.199175;0.199175;-0.199175;1.000000
445606.87790115;5696585.86439903;473.10624983;120;112;103;29041.000000;1.000000;1.000000;1.000000;1.000000;-0.123976;0.123976;-0.123976;1.000000
445606.84160145;5696585.82799919;473.10885002;206;199;186;51143.000000;1.000000;1.000000;1.000000;1.000000;-0.160288;0.160288;-0.160288;1.000000
445606.90720184;5696586.02529915;473.10024979;35;32;34;8481.000000;1.000000;1.000000;1.000000;1.000000;-0.094675;0.094675;-0.094675;1.000000
445606.92810162;5696586.00669868;473.11724998;49;48;51;12336.000000;1.000000;1.000000;1.000000;1.000000;-0.073775;0.073775;-0.073775;1.000000
445606.86250122;5696585.79819878;473.10244991;186;178;167;46003.000000;1.000000;1.000000;1.000000;1.000000;-0.142958;0.142958;-0.142958;1.000000
445606.86530121;5696585.72559937;473.09704973;145;136;124;35209.000000;1.000000;1.000000;1.000000;1.000000;-0.171908;0.171908;-0.171908;1.000000
445606.86400135;5696585.76299866;473.09975006;137;130;119;33410.000000;1.000000;1.000000;1.000000;1.000000;-0.153293;0.153293;-0.153293;1.000000
445606.89080151;5696586.02449997;473.09945013;41;39;42;10023.000000;1.000000;1.000000;1.000000;1.000000;-0.111075;0.111075;-0.111075;1.000000
445606.81520184;5696585.81659897;473.10055019;187;179;168;46260.000000;1.000000;1.000000;1.000000;1.000000;-0.187155;0.187155;-0.187155;1.000000
445606.85650166;5696585.70539864;473.09415009;179;171;160;44204.000000;1.000000;1.000000;1.000000;1.000000;-0.191467;0.191467;-0.191467;1.000000
445606.81020172;5696585.94529922;473.11584999;226;228;225;58339.000000;1.000000;1.000000;1.000000;1.000000;-0.191675;0.191675;-0.191675;1.000000
445606.84550198;5696585.94899948;473.11744978;229;231;230;59110.000000;1.000000;1.000000;1.000000;1.000000;-0.156375;0.156375;-0.156375;1.000000
445606.88290127;5696585.94789894;473.11684992;166;166;167;42662.000000;1.000000;1.000000;1.000000;1.000000;-0.118976;0.118976;-0.118976;1.000000
445606.92840202;5696586.02799995;473.10115005;28;26;30;6939.000000;1.000000;1.000000;1.000000;1.000000;-0.073475;0.073475;-0.073475;1.000000
445606.88830193;5696586.04359825;473.09025003;27;22;22;5911.000000;1.000000;1.000000;1.000000;1.000000;-0.113575;0.113575;-0.113575;1.000000
445606.92580135;5696586.04479988;473.08964970;28;24;28;6425.000000;1.000000;1.000000;1.000000;1.000000;-0.076076;0.076076;-0.076076;1.000000
445606.85710152;5696585.94789894;473.11794998;218;219;219;56026.000000;1.000000;1.000000;1.000000;1.000000;-0.144775;0.144775;-0.144775;1.000000
445606.89230164;5696585.94929894;473.11724998;145;144;146;37008.000000;1.000000;1.000000;1.000000;1.000000;-0.109575;0.109575;-0.109575;1.000000
445606.92980202;5696585.95049866;473.11894991;74;69;73;17990.000000;1.000000;1.000000;1.000000;1.000000;-0.072075;0.072075;-0.072075;1.000000
445606.82200153;5696585.87179955;473.11544992;198;194;183;49601.000000;1.000000;1.000000;1.000000;1.000000;-0.179875;0.179875;-0.179875;1.000000
445606.82660110;5696585.94609840;473.11654999;236;238;236;60909.000000;1.000000;1.000000;1.000000;1.000000;-0.175276;0.175276;-0.175276;1.000000
445606.86400135;5696585.94730003;473.11824991;204;205;205;52428.000000;1.000000;1.000000;1.000000;1.000000;-0.137876;0.137876;-0.137876;1.000000
445606.83150108;5696585.87319954;473.11595013;216;212;202;54484.000000;1.000000;1.000000;1.000000;1.000000;-0.170376;0.170376;-0.170376;1.000000
445606.87450130;5696585.95799835;473.11654999;89;92;94;23387.000000;1.000000;1.000000;1.000000;1.000000;-0.127376;0.127376;-0.127376;1.000000
445606.83680161;5696585.95679863;473.11945011;186;188;189;48059.000000;1.000000;1.000000;1.000000;1.000000;-0.165075;0.165075;-0.165075;1.000000
445606.83940132;5696585.88189896;473.11404993;156;152;144;39064.000000;1.000000;1.000000;1.000000;1.000000;-0.162476;0.162476;-0.162476;1.000000
445606.85160168;5696586.05159958;473.09105017;160;155;150;39835.000000;1.000000;1.000000;1.000000;1.000000;-0.150275;0.150275;-0.150275;1.000000
445606.89380177;5696585.93979843;473.11724998;213;213;213;54741.000000;1.000000;1.000000;1.000000;1.000000;-0.108075;0.108075;-0.108075;1.000000
445606.82380112;5696586.03079994;473.09415009;48;45;47;11822.000000;1.000000;1.000000;1.000000;1.000000;-0.178076;0.178076;-0.178076;1.000000
445606.80860146;5696585.95469864;473.11824991;213;216;215;54998.000000;1.000000;1.000000;1.000000;1.000000;-0.193275;0.193275;-0.193275;1.000000
445606.81360157;5696585.88189896;473.11525013;166;162;151;41377.000000;1.000000;1.000000;1.000000;1.000000;-0.188275;0.188275;-0.188275;1.000000
445606.83680161;5696585.77029999;473.09634974;150;141;129;36494.000000;1.000000;1.000000;1.000000;1.000000;-0.175539;0.175539;-0.175539;1.000000
445606.84610184;5696585.95589836;473.11994984;167;168;169;42919.000000;1.000000;1.000000;1.000000;1.000000;-0.155775;0.155775;-0.155775;1.000000
445606.88160141;5696585.95969971;473.11684992;74;75;79;19275.000000;1.000000;1.000000;1.000000;1.000000;-0.120275;0.120275;-0.120275;1.000000
445606.90930183;5696585.77279861;473.09964993;141;135;125;34695.000000;1.000000;1.000000;1.000000;1.000000;-0.108822;0.108822;-0.108822;1.000000
445606.89180191;5696585.96809967;473.11514999;60;60;66;15420.000000;1.000000;1.000000;1.000000;1.000000;-0.110075;0.110075;-0.110075;1.000000
445606.80630119;5696586.02069862;473.09795000;52;52;57;13364.000000;1.000000;1.000000;1.000000;1.000000;-0.195576;0.195576;-0.195576;1.000000
445606.87540157;5696585.73399933;473.09765007;145;136;124;35209.000000;1.000000;1.000000;1.000000;1.000000;-0.158783;0.158783;-0.158783;1.000000
445606.81720169;5696585.76039894;473.09534981;189;179;168;46260.000000;1.000000;1.000000;1.000000;1.000000;-0.197356;0.197356;-0.197356;1.000000
445606.84390171;5696586.02189835;473.09735014;39;38;41;9766.000000;1.000000;1.000000;1.000000;1.000000;-0.157975;0.157975;-0.157975;1.000000
445606.92360123;5696585.87659843;473.10155012;151;142;137;37008.000000;1.000000;1.000000;1.000000;1.000000;-0.078276;0.078276;-0.078276;1.000000
445606.88960178;5696585.83769997;473.10185005;201;192;182;49601.000000;1.000000;1.000000;1.000000;1.000000;-0.112275;0.112275;-0.112275;1.000000
445606.89080151;5696585.80019959;473.10144999;181;173;163;44718.000000;1.000000;1.000000;1.000000;1.000000;-0.115004;0.115004;-0.115004;1.000000
445606.89210136;5696585.76279839;473.09875013;157;152;142;39064.000000;1.000000;1.000000;1.000000;1.000000;-0.128712;0.128712;-0.128712;1.000000
445606.89330109;5696585.72529991;473.09835007;152;144;132;37265.000000;1.000000;1.000000;1.000000;1.000000;-0.150834;0.150834;-0.150834;1.000000
445606.89480122;5696585.69019897;473.09564974;158;152;142;39064.000000;1.000000;1.000000;1.000000;1.000000;-0.176095;0.176095;-0.176095;1.000000
445606.80680187;5696585.98299988;473.11375000;30;29;35;7453.000000;1.000000;1.000000;1.000000;1.000000;-0.195075;0.195075;-0.195075;1.000000
445606.91090115;5696585.73769959;473.09695007;146;140;127;35980.000000;1.000000;1.000000;1.000000;1.000000;-0.129599;0.129599;-0.129599;1.000000
445606.80870159;5696585.92679985;473.11084988;170;170;166;43433.000000;1.000000;1.000000;1.000000;1.000000;-0.193175;0.193175;-0.193175;1.000000
445606.84610184;5696585.92799957;473.11254980;201;202;198;51657.000000;1.000000;1.000000;1.000000;1.000000;-0.155775;0.155775;-0.155775;1.000000
445606.92280109;5696585.89529999;473.10634996;100;95;92;24672.000000;1.000000;1.000000;1.000000;1.000000;-0.079076;0.079076;-0.079076;1.000000
445606.84990128;5696585.89259918;473.11004974;103;100;92;25700.000000;1.000000;1.000000;1.000000;1.000000;-0.151976;0.151976;-0.151976;1.000000
445606.89540203;5696585.90249832;473.10755016;124;120;116;30840.000000;1.000000;1.000000;1.000000;1.000000;-0.106475;0.106475;-0.106475;1.000000
445606.85330112;5696585.79899986;473.09975006;180;172;161;44461.000000;1.000000;1.000000;1.000000;1.000000;-0.151775;0.151775;-0.151775;1.000000
445606.85580166;5696585.72409828;473.09665014;161;151;139;39064.000000;1.000000;1.000000;1.000000;1.000000;-0.180425;0.180425;-0.180425;1.000000
445606.81600197;5696585.79789932;473.09574987;169;160;149;41377.000000;1.000000;1.000000;1.000000;1.000000;-0.188626;0.188626;-0.188626;1.000000
445606.85460194;5696585.76159866;473.09704973;115;107;96;27756.000000;1.000000;1.000000;1.000000;1.000000;-0.162384;0.162384;-0.162384;1.000000
445606.87900169;5696586.02329834;473.09894993;36;34;37;8738.000000;1.000000;1.000000;1.000000;1.000000;-0.122875;0.122875;-0.122875;1.000000
445606.83800133;5696585.73279961;473.09595015;176;164;151;42662.000000;1.000000;1.000000;1.000000;1.000000;-0.190534;0.190534;-0.190534;1.000000
445606.91930111;5696585.98879822;473.11894991;108;106;107;27242.000000;1.000000;1.000000;1.000000;1.000000;-0.082576;0.082576;-0.082576;1.000000
445606.83400162;5696585.97569855;473.11724998;45;45;51;11565.000000;1.000000;1.000000;1.000000;1.000000;-0.167875;0.167875;-0.167875;1.000000
445606.91140182;5696585.97789963;473.11614992;85;84;86;21588.000000;1.000000;1.000000;1.000000;1.000000;-0.090475;0.090475;-0.090475;1.000000
445606.91650112;5696586.02439888;473.10064985;28;25;29;6682.000000;1.000000;1.000000;1.000000;1.000000;-0.085376;0.085376;-0.085376;1.000000
445606.90160187;5696585.94849976;473.11765005;131;130;132;33410.000000;1.000000;1.000000;1.000000;1.000000;-0.100275;0.100275;-0.100275;1.000000
445606.82710178;5696585.97639854;473.11695005;46;48;52;12079.000000;1.000000;1.000000;1.000000;1.000000;-0.174775;0.174775;-0.174775;1.000000
445606.86580189;5696585.94009979;473.11595013;222;223;223;57054.000000;1.000000;1.000000;1.000000;1.000000;-0.136075;0.136075;-0.136075;1.000000
445606.90330132;5696585.94129951;473.11765005;202;202;202;51657.000000;1.000000;1.000000;1.000000;1.000000;-0.098576;0.098576;-0.098576;1.000000
445606.82780178;5696585.98339851;473.11474993;30;29;35;7453.000000;1.000000;1.000000;1.000000;1.000000;-0.174075;0.174075;-0.174075;1.000000
445606.92050179;5696585.95139893;473.11854984;92;89;92;23130.000000;1.000000;1.000000;1.000000;1.000000;-0.081375;0.081375;-0.081375;1.000000
445606.86160191;5696586.03429993;473.09354975;41;37;39;9766.000000;1.000000;1.000000;1.000000;1.000000;-0.140275;0.140275;-0.140275;1.000000
445606.81480129;5696586.01279839;473.10055019;50;50;55;12850.000000;1.000000;1.000000;1.000000;1.000000;-0.187076;0.187076;-0.187076;1.000000
445606.90070160;5696585.75499924;473.09905006;168;163;153;41891.000000;1.000000;1.000000;1.000000;1.000000;-0.125943;0.125943;-0.125943;1.000000
445606.86310108;5696585.75379951;473.09964993;128;120;107;30840.000000;1.000000;1.000000;1.000000;1.000000;-0.158320;0.158320;-0.158320;1.000000
445606.85520180;5696585.74289902;473.09684994;130;121;109;31354.000000;1.000000;1.000000;1.000000;1.000000;-0.170588;0.170588;-0.170588;1.000000
445606.93610199;5696586.03429993;473.09924986;34;31;34;8224.000000;1.000000;1.000000;1.000000;1.000000;-0.065775;0.065775;-0.065775;1.000000
445606.86170109;5696585.78889854;473.09994986;181;172;162;44461.000000;1.000000;1.000000;1.000000;1.000000;-0.146077;0.146077;-0.146077;1.000000
445606.86670120;5696585.71609886;473.09704973;148;138;127;35723.000000;1.000000;1.000000;1.000000;1.000000;-0.176765;0.176765;-0.176765;1.000000
445606.88990124;5696586.01519974;473.09934999;34;32;37;8481.000000;1.000000;1.000000;1.000000;1.000000;-0.111976;0.111976;-0.111976;1.000000
445606.80650146;5696586.00179871;473.10704996;41;41;49;10537.000000;1.000000;1.000000;1.000000;1.000000;-0.195375;0.195375;-0.195375;1.000000
445606.88530167;5696585.89409836;473.10694983;80;74;70;19275.000000;1.000000;1.000000;1.000000;1.000000;-0.116575;0.116575;-0.116575;1.000000
445606.85240181;5696585.81769951;473.10694983;212;204;193;52685.000000;1.000000;1.000000;1.000000;1.000000;-0.149980;0.149980;-0.149980;1.000000
445606.84410198;5696586.00299843;473.10645010;36;36;42;9252.000000;1.000000;1.000000;1.000000;1.000000;-0.157775;0.157775;-0.157775;1.000000
445606.81360157;5696585.85399826;473.11025002;170;163;151;41891.000000;1.000000;1.000000;1.000000;1.000000;-0.188275;0.188275;-0.188275;1.000000
445606.91920193;5696586.00770004;473.10984995;66;66;68;16962.000000;1.000000;1.000000;1.000000;1.000000;-0.082675;0.082675;-0.082675;1.000000
445606.82910164;5696585.92019852;473.11175014;171;171;168;43690.000000;1.000000;1.000000;1.000000;1.000000;-0.172775;0.172775;-0.172775;1.000000
445606.86640175;5696585.91909988;473.11105015;214;215;211;54998.000000;1.000000;1.000000;1.000000;1.000000;-0.135475;0.135475;-0.135475;1.000000
445606.86790188;5696585.88399895;473.10834982;101;96;88;24672.000000;1.000000;1.000000;1.000000;1.000000;-0.133975;0.133975;-0.133975;1.000000
445606.83140190;5696585.84529884;473.11095001;189;182;171;46774.000000;1.000000;1.000000;1.000000;1.000000;-0.170475;0.170475;-0.170475;1.000000
445606.88730152;5696586.03429993;473.09245016;43;37;39;10023.000000;1.000000;1.000000;1.000000;1.000000;-0.114575;0.114575;-0.114575;1.000000
445606.91820152;5696586.04069908;473.09625008;23;20;20;5140.000000;1.000000;1.000000;1.000000;1.000000;-0.083675;0.083675;-0.083675;1.000000
445606.85710152;5696585.91999825;473.11065008;206;207;203;52942.000000;1.000000;1.000000;1.000000;1.000000;-0.144775;0.144775;-0.144775;1.000000
445606.85830124;5696585.88249977;473.11025002;101;97;89;24929.000000;1.000000;1.000000;1.000000;1.000000;-0.143576;0.143576;-0.143576;1.000000
445606.82430180;5696585.84359940;473.11054995;169;161;150;41634.000000;1.000000;1.000000;1.000000;1.000000;-0.177575;0.177575;-0.177575;1.000000
445606.86180122;5696585.84479912;473.10995008;189;181;171;46774.000000;1.000000;1.000000;1.000000;1.000000;-0.140076;0.140076;-0.140076;1.000000
445606.83260162;5696586.04869850;473.09245016;152;148;144;38036.000000;1.000000;1.000000;1.000000;1.000000;-0.169275;0.169275;-0.169275;1.000000
445606.81890114;5696585.93750008;473.11385014;219;220;217;56283.000000;1.000000;1.000000;1.000000;1.000000;-0.182976;0.182976;-0.182976;1.000000
445606.91190155;5696585.95919998;473.11824991;69;65;70;16962.000000;1.000000;1.000000;1.000000;1.000000;-0.089975;0.089975;-0.089975;1.000000
445606.82590111;5696585.77829941;473.09595015;162;152;140;39321.000000;1.000000;1.000000;1.000000;1.000000;-0.183413;0.183413;-0.183413;1.000000
445606.82700165;5696585.74079903;473.09555008;155;143;131;37265.000000;1.000000;1.000000;1.000000;1.000000;-0.196311;0.196311;-0.196311;1.000000
445606.81730183;5696585.99379929;473.10974981;37;36;43;9509.000000;1.000000;1.000000;1.000000;1.000000;-0.184575;0.184575;-0.184575;1.000000
445606.81960114;5696585.91879852;473.11124994;149;149;144;38036.000000;1.000000;1.000000;1.000000;1.000000;-0.182276;0.182276;-0.182276;1.000000
445606.89630135;5696585.88609894;473.10505011;110;102;97;26471.000000;1.000000;1.000000;1.000000;1.000000;-0.105576;0.105576;-0.105576;1.000000
445606.89820202;5696585.85559853;473.10244991;145;135;126;35209.000000;1.000000;1.000000;1.000000;1.000000;-0.103675;0.103675;-0.103675;1.000000
445606.82440193;5696585.81569870;473.10094978;185;177;165;45746.000000;1.000000;1.000000;1.000000;1.000000;-0.178050;0.178050;-0.178050;1.000000
445606.89970119;5696585.82039841;473.10204985;190;181;172;46774.000000;1.000000;1.000000;1.000000;1.000000;-0.102626;0.102626;-0.102626;1.000000
445606.90090187;5696585.78299912;473.09934999;147;140;130;36237.000000;1.000000;1.000000;1.000000;1.000000;-0.111378;0.111378;-0.111378;1.000000
445606.90340145;5696585.70799835;473.09625008;109;100;90;25957.000000;1.000000;1.000000;1.000000;1.000000;-0.156786;0.156786;-0.156786;1.000000
445606.90460117;5696585.67049988;473.09585001;168;163;152;41891.000000;1.000000;1.000000;1.000000;1.000000;-0.186823;0.186823;-0.186823;1.000000
445606.83390148;5696585.78919991;473.09644987;147;138;127;35723.000000;1.000000;1.000000;1.000000;1.000000;-0.172859;0.172859;-0.172859;1.000000
445606.83510120;5696585.75169952;473.09604980;156;147;135;38036.000000;1.000000;1.000000;1.000000;1.000000;-0.184242;0.184242;-0.184242;1.000000
445606.86190136;5696586.01549919;473.10034992;33;32;38;8224.000000;1.000000;1.000000;1.000000;1.000000;-0.139976;0.139976;-0.139976;1.000000
445606.87880142;5696586.04209908;473.08984997;40;35;34;9252.000000;1.000000;1.000000;1.000000;1.000000;-0.123075;0.123075;-0.123075;1.000000
445606.91650112;5696586.04559906;473.09154989;28;24;26;6425.000000;1.000000;1.000000;1.000000;1.000000;-0.085376;0.085376;-0.085376;1.000000
445606.90630157;5696585.86649902;473.10295012;143;133;125;34695.000000;1.000000;1.000000;1.000000;1.000000;-0.095575;0.095575;-0.095575;1.000000
445606.85260113;5696585.99519928;473.10904982;29;29;35;7453.000000;1.000000;1.000000;1.000000;1.000000;-0.149276;0.149276;-0.149276;1.000000
445606.90870197;5696585.79159935;473.09985020;166;158;149;40863.000000;1.000000;1.000000;1.000000;1.000000;-0.100778;0.100778;-0.100778;1.000000
445606.87120159;5696585.79039963;473.10045006;197;188;178;48573.000000;1.000000;1.000000;1.000000;1.000000;-0.136544;0.136544;-0.136544;1.000000
445606.87370117;5696585.71539886;473.09735014;128;118;107;30583.000000;1.000000;1.000000;1.000000;1.000000;-0.171937;0.171937;-0.171937;1.000000
445606.89010151;5696585.99639900;473.10844995;72;70;76;18247.000000;1.000000;1.000000;1.000000;1.000000;-0.111775;0.111775;-0.111775;1.000000
445606.89470108;5696585.92119987;473.11004974;241;242;240;61937.000000;1.000000;1.000000;1.000000;1.000000;-0.107176;0.107176;-0.107176;1.000000
445606.87260159;5696586.00509842;473.10074999;15;15;21;3855.000000;1.000000;1.000000;1.000000;1.000000;-0.129275;0.129275;-0.129275;1.000000
445606.91480167;5696585.85639961;473.10085012;109;99;91;25957.000000;1.000000;1.000000;1.000000;1.000000;-0.087075;0.087075;-0.087075;1.000000
445606.81400116;5696586.05039986;473.09394981;84;81;77;20817.000000;1.000000;1.000000;1.000000;1.000000;-0.187876;0.187876;-0.187876;1.000000
445606.91630180;5696585.82129868;473.09814980;152;144;136;37265.000000;1.000000;1.000000;1.000000;1.000000;-0.086016;0.086016;-0.086016;1.000000
445606.84480198;5696585.78119858;473.09684994;132;123;111;31868.000000;1.000000;1.000000;1.000000;1.000000;-0.164481;0.164481;-0.164481;1.000000
445606.88220127;5696585.78239830;473.09854986;189;181;172;46774.000000;1.000000;1.000000;1.000000;1.000000;-0.128795;0.128795;-0.128795;1.000000
445606.88340195;5696585.74489983;473.09814980;196;189;178;48573.000000;1.000000;1.000000;1.000000;1.000000;-0.145871;0.145871;-0.145871;1.000000
445606.86480148;5696585.97769936;473.11165001;39;42;48;10537.000000;1.000000;1.000000;1.000000;1.000000;-0.137075;0.137075;-0.137075;1.000000
445606.90010174;5696585.97909935;473.11095001;83;84;90;21588.000000;1.000000;1.000000;1.000000;1.000000;-0.101775;0.101775;-0.101775;1.000000
445606.86730202;5696585.90269859;473.10855009;115;113;107;28784.000000;1.000000;1.000000;1.000000;1.000000;-0.134575;0.134575;-0.134575;1.000000
445606.82970150;5696585.90149887;473.11154987;141;138;132;35466.000000;1.000000;1.000000;1.000000;1.000000;-0.172175;0.172175;-0.172175;1.000000
445606.86850174;5696585.86519821;473.10815002;128;120;111;31097.000000;1.000000;1.000000;1.000000;1.000000;-0.133375;0.133375;-0.133375;1.000000
445606.86970146;5696585.82779892;473.10785009;181;172;162;44461.000000;1.000000;1.000000;1.000000;1.000000;-0.132194;0.132194;-0.132194;1.000000
445606.83460148;5696585.82639893;473.10624983;186;178;165;45746.000000;1.000000;1.000000;1.000000;1.000000;-0.167314;0.167314;-0.167314;1.000000
445606.90240200;5696585.95769890;473.11784985;73;72;76;18504.000000;1.000000;1.000000;1.000000;1.000000;-0.099475;0.099475;-0.099475;1.000000
445606.83070190;5696585.86399849;473.11345007;206;201;191;51657.000000;1.000000;1.000000;1.000000;1.000000;-0.171175;0.171175;-0.171175;1.000000
445606.82330139;5696586.04959877;473.09205009;104;101;97;25957.000000;1.000000;1.000000;1.000000;1.000000;-0.178576;0.178576;-0.178576;1.000000
445606.86090191;5696586.05079849;473.09144976;150;145;140;37265.000000;1.000000;1.000000;1.000000;1.000000;-0.140975;0.140975;-0.140975;1.000000
445606.87510117;5696585.67799957;473.09224989;157;149;138;38550.000000;1.000000;1.000000;1.000000;1.000000;-0.197930;0.197930;-0.197930;1.000000
445606.82660110;5696585.99289902;473.11014988;39;38;45;10023.000000;1.000000;1.000000;1.000000;1.000000;-0.175276;0.175276;-0.175276;1.000000
445606.90420158;5696585.92259987;473.11044981;243;244;242;62451.000000;1.000000;1.000000;1.000000;1.000000;-0.097675;0.097675;-0.097675;1.000000
445606.93420132;5696586.01799973;473.10834982;27;26;31;6682.000000;1.000000;1.000000;1.000000;1.000000;-0.067676;0.067676;-0.067676;1.000000
445606.90490158;5696585.90389832;473.10794975;132;128;125;32896.000000;1.000000;1.000000;1.000000;1.000000;-0.096975;0.096975;-0.096975;1.000000
445606.82970150;5696585.92719849;473.11184980;198;199;195;50886.000000;1.000000;1.000000;1.000000;1.000000;-0.172175;0.172175;-0.172175;1.000000
445606.88690193;5696585.67929848;473.09284975;146;140;129;35980.000000;1.000000;1.000000;1.000000;1.000000;-0.189553;0.189553;-0.189553;1.000000
445606.86880119;5696585.89320000;473.10855009;88;84;77;21588.000000;1.000000;1.000000;1.000000;1.000000;-0.133076;0.133076;-0.133076;1.000000
445606.87000187;5696585.85579880;473.10815002;165;157;147;40606.000000;1.000000;1.000000;1.000000;1.000000;-0.131875;0.131875;-0.131875;1.000000
445606.83200176;5696585.85219963;473.11334993;196;190;179;48830.000000;1.000000;1.000000;1.000000;1.000000;-0.169875;0.169875;-0.169875;1.000000
445606.92710121;5696586.01629837;473.10794975;33;31;35;8224.000000;1.000000;1.000000;1.000000;1.000000;-0.074776;0.074776;-0.074776;1.000000
445606.81220158;5696585.89139946;473.11525013;167;164;155;41891.000000;1.000000;1.000000;1.000000;1.000000;-0.189675;0.189675;-0.189675;1.000000
445606.86420162;5696585.99409874;473.10724976;22;21;28;5654.000000;1.000000;1.000000;1.000000;1.000000;-0.137675;0.137675;-0.137675;1.000000
445606.81470116;5696586.05739983;473.09175016;130;127;122;32639.000000;1.000000;1.000000;1.000000;1.000000;-0.187176;0.187176;-0.187176;1.000000
445606.84470184;5696585.96539886;473.11765005;90;89;93;22873.000000;1.000000;1.000000;1.000000;1.000000;-0.157175;0.157175;-0.157175;1.000000
445606.91990192;5696585.97009857;473.11875011;51;48;51;12593.000000;1.000000;1.000000;1.000000;1.000000;-0.081975;0.081975;-0.081975;1.000000
445606.88380154;5696585.93149956;473.11434986;226;227;226;58082.000000;1.000000;1.000000;1.000000;1.000000;-0.118075;0.118075;-0.118075;1.000000
445606.92120178;5696585.93259819;473.11604979;196;198;198;50629.000000;1.000000;1.000000;1.000000;1.000000;-0.080675;0.080675;-0.080675;1.000000
445606.85090168;5696585.85509880;473.11424973;194;186;176;48059.000000;1.000000;1.000000;1.000000;1.000000;-0.150975;0.150975;-0.150975;1.000000
445606.92290123;5696585.92319878;473.11135008;209;211;210;53970.000000;1.000000;1.000000;1.000000;1.000000;-0.078976;0.078976;-0.078976;1.000000
445606.84770115;5696585.91849907;473.11025002;202;203;198;51914.000000;1.000000;1.000000;1.000000;1.000000;-0.154176;0.154176;-0.154176;1.000000
445606.88520153;5696585.91969879;473.10965015;235;235;232;60138.000000;1.000000;1.000000;1.000000;1.000000;-0.116675;0.116675;-0.116675;1.000000
445606.84900196;5696585.88329895;473.11214973;111;108;100;27756.000000;1.000000;1.000000;1.000000;1.000000;-0.152875;0.152875;-0.152875;1.000000
445606.88670166;5696585.88459976;473.10694983;99;92;86;23901.000000;1.000000;1.000000;1.000000;1.000000;-0.115175;0.115175;-0.115175;1.000000
445606.85020168;5696585.84589966;473.11175014;210;202;193;52171.000000;1.000000;1.000000;1.000000;1.000000;-0.151675;0.151675;-0.151675;1.000000
445606.81010159;5696585.91729935;473.11084988;138;138;132;35209.000000;1.000000;1.000000;1.000000;1.000000;-0.191775;0.191775;-0.191775;1.000000
445606.89940174;5696585.99549873;473.10885002;96;94;99;24415.000000;1.000000;1.000000;1.000000;1.000000;-0.102475;0.102475;-0.102475;1.000000
445606.86910160;5696585.84649857;473.10804989;187;179;169;46260.000000;1.000000;1.000000;1.000000;1.000000;-0.132775;0.132775;-0.132775;1.000000
