//X;Y;Z;R;G;B;Intensity;Return Number;Number Of Returns;Scan Direction Flag;Point Source ID;C2M signed distances[-][<0.8];C2M signed distances[<0.4];C2M signed distances[-][<0.2];Stump60
445644.03600128;5696587.77519997;470.99294998;115;112;104;28784.000000;1.000000;1.000000;1.000000;1.000000;0.061711;-0.061711;0.061711;1.000000
445644.07590302;5696587.70139893;470.99154999;98;95;87;24415.000000;1.000000;1.000000;1.000000;1.000000;-0.128601;0.128601;-0.128601;1.000000
445644.01740082;5696587.97779854;470.99685003;136;128;117;33153.000000;1.000000;1.000000;1.000000;1.000000;-0.155084;0.155084;-0.155084;1.000000
445644.01990326;5696587.90509995;470.99834992;153;147;138;37779.000000;1.000000;1.000000;1.000000;1.000000;-0.087281;0.087281;-0.087281;1.000000
445643.94950302;5696587.82749947;470.99895002;44;37;29;9766.000000;1.000000;1.000000;1.000000;1.000000;0.114901;-0.114901;0.114901;1.000000
445644.02690323;5696587.75499924;470.99694993;88;85;78;21845.000000;1.000000;1.000000;1.000000;1.000000;0.083841;-0.083841;0.083841;1.000000
445644.02800186;5696587.71739967;470.99884989;208;206;199;52685.000000;1.000000;1.000000;1.000000;1.000000;0.118330;-0.118330;0.118330;1.000000
445644.31770142;5696587.92699821;470.97015001;83;74;56;19018.000000;1.000000;1.000000;1.000000;1.000000;0.065825;-0.065825;0.065825;1.000000
445644.24670227;5696587.84019859;470.96595003;92;89;80;22616.000000;1.000000;1.000000;1.000000;1.000000;-0.005175;0.005175;-0.005175;1.000000
445644.28429993;5696587.84139832;470.96304991;131;127;117;32639.000000;1.000000;1.000000;1.000000;1.000000;-0.011398;0.011398;-0.011398;1.000000
445644.28660019;5696587.76639946;470.96455004;110;107;98;27242.000000;1.000000;1.000000;1.000000;1.000000;0.063601;-0.063601;0.063601;1.000000
445644.21490295;5696587.72629936;470.96784999;184;183;176;46774.000000;1.000000;1.000000;1.000000;1.000000;-0.103701;0.103701;-0.103701;1.000000
445644.25259979;5696587.72749908;470.96484997;75;73;66;18504.000000;1.000000;1.000000;1.000000;1.000000;0.102501;-0.102501;0.102501;1.000000
445643.96030243;5696587.99469955;471.00144984;129;120;108;31097.000000;1.000000;1.000000;1.000000;1.000000;-0.194827;0.194827;-0.194827;1.000000
445643.99790009;5696587.99589928;470.99845006;151;141;129;36494.000000;1.000000;1.000000;1.000000;1.000000;-0.178723;0.178723;-0.178723;1.000000
445643.96160324;5696587.95719917;470.99874999;163;155;144;40092.000000;1.000000;1.000000;1.000000;1.000000;-0.163530;0.163530;-0.163530;1.000000
445644.00020035;5696587.92089851;471.00004985;139;131;121;33924.000000;1.000000;1.000000;1.000000;1.000000;-0.111271;0.111271;-0.111271;1.000000
445644.22599991;5696587.89349945;470.96564986;105;97;86;25186.000000;1.000000;1.000000;1.000000;1.000000;-0.025877;0.025877;-0.025877;1.000000
445644.22720154;5696587.85599907;470.96525003;98;92;84;23644.000000;1.000000;1.000000;1.000000;1.000000;-0.024675;0.024675;-0.024675;1.000000
445643.96990021;5696587.77189835;471.00154998;104;99;91;25443.000000;1.000000;1.000000;1.000000;1.000000;0.110913;-0.110913;0.110913;1.000000
445644.00530060;5696587.77329834;470.99615004;131;128;121;32896.000000;1.000000;1.000000;1.000000;1.000000;0.081885;-0.081885;0.081885;1.000000
445644.01230057;5696587.84739883;470.99504997;67;66;59;16705.000000;1.000000;1.000000;1.000000;1.000000;-0.054906;0.054906;-0.054906;1.000000
445644.00860031;5696587.73559959;471.00055005;185;183;177;46774.000000;1.000000;1.000000;1.000000;1.000000;0.109647;-0.109647;0.109647;1.000000
445644.26850327;5696587.74709900;470.96344997;221;219;212;56026.000000;1.000000;1.000000;1.000000;1.000000;-0.082901;0.082901;-0.082901;1.000000
445644.26970108;5696587.70959862;470.96315004;87;83;76;21331.000000;1.000000;1.000000;1.000000;1.000000;-0.120401;0.120401;-0.120401;1.000000
445644.27330215;5696587.67419823;470.96514990;108;109;104;27756.000000;1.000000;1.000000;1.000000;1.000000;-0.155802;0.155802;-0.155802;1.000000
445644.17630203;5696587.71579941;470.97295000;120;121;110;30583.000000;1.000000;1.000000;1.000000;1.000000;-0.114201;0.114201;-0.114201;1.000000
445644.19009979;5696587.83609970;470.96805002;96;88;83;22873.000000;1.000000;1.000000;1.000000;1.000000;-0.006100;0.006100;-0.006100;1.000000
445644.30100067;5696587.89589890;470.96674993;188;183;173;47031.000000;1.000000;1.000000;1.000000;1.000000;0.049124;-0.049124;0.049124;1.000000
445644.11359985;5696587.85219963;470.98805000;167;163;158;41891.000000;1.000000;1.000000;1.000000;1.000000;0.022200;-0.022200;0.022200;1.000000
445644.30240067;5696587.86069878;470.96634986;92;87;76;22359.000000;1.000000;1.000000;1.000000;1.000000;-0.030699;0.030699;-0.030699;1.000000
445644.30380066;5696587.82329948;470.96134998;140;136;125;34695.000000;1.000000;1.000000;1.000000;1.000000;0.006702;-0.006702;0.006702;1.000000
445644.05410202;5696587.79449852;470.99394991;140;137;128;34952.000000;1.000000;1.000000;1.000000;1.000000;0.036958;-0.036958;0.036958;1.000000
445644.21450241;5696587.92249878;470.97015001;127;118;106;30583.000000;1.000000;1.000000;1.000000;1.000000;-0.037374;0.037374;-0.037374;1.000000
445644.11320313;5696587.72149857;470.98414995;109;107;95;27242.000000;1.000000;1.000000;1.000000;1.000000;-0.108501;0.108501;-0.108501;1.000000
445644.11450012;5696587.68629845;470.98604991;124;125;116;31611.000000;1.000000;1.000000;1.000000;1.000000;-0.143702;0.143702;-0.143702;1.000000
445644.11030014;5696587.74039848;470.98424985;97;96;83;24158.000000;1.000000;1.000000;1.000000;1.000000;-0.089602;0.089602;-0.089602;1.000000
445644.15710266;5696587.76190002;470.97494986;161;160;149;40863.000000;1.000000;1.000000;1.000000;1.000000;-0.068100;0.068100;-0.068100;1.000000
445644.12759979;5696588.00269897;470.98814990;174;167;155;42919.000000;1.000000;1.000000;1.000000;1.000000;-0.124277;0.124277;-0.124277;1.000000
445644.05600174;5696587.96259888;470.98904993;120;113;101;29041.000000;1.000000;1.000000;1.000000;1.000000;-0.132863;0.132863;-0.132863;1.000000
445644.11380203;5696587.70269974;470.98394992;178;177;166;45232.000000;1.000000;1.000000;1.000000;1.000000;-0.127300;0.127300;-0.127300;1.000000
445644.10110291;5696587.76699837;470.98414995;188;187;175;47545.000000;1.000000;1.000000;1.000000;1.000000;0.063002;-0.063002;0.063002;1.000000
445644.14620026;5696587.79789932;470.98184993;176;173;163;44204.000000;1.000000;1.000000;1.000000;1.000000;-0.032101;0.032101;-0.032101;1.000000
445644.14870270;5696587.72289856;470.97875001;146;147;133;37265.000000;1.000000;1.000000;1.000000;1.000000;-0.107101;0.107101;-0.107101;1.000000
445644.17450150;5696588.00309952;470.98554995;158;151;137;38807.000000;1.000000;1.000000;1.000000;1.000000;-0.077375;0.077375;-0.077375;1.000000
445644.05170258;5696588.01669891;470.98954989;119;109;96;28270.000000;1.000000;1.000000;1.000000;1.000000;-0.187129;0.187129;-0.187129;1.000000
445644.18070038;5696587.83689888;470.96994998;115;108;103;28013.000000;1.000000;1.000000;1.000000;1.000000;0.006899;-0.006899;0.006899;1.000000
445644.14960297;5696587.73219879;470.97654988;131;131;117;33153.000000;1.000000;1.000000;1.000000;1.000000;-0.097801;0.097801;-0.097801;1.000000
445644.18510254;5696587.73369987;470.97124984;173;173;163;43947.000000;1.000000;1.000000;1.000000;1.000000;-0.096300;0.096300;-0.096300;1.000000
445644.14230164;5696587.65799912;470.98464992;47;53;46;12850.000000;1.000000;1.000000;1.000000;1.000000;-0.172001;0.172001;-0.172001;1.000000
445644.14930161;5696587.70419891;470.97854998;170;171;160;43433.000000;1.000000;1.000000;1.000000;1.000000;-0.125801;0.125801;-0.125801;1.000000
445644.12970169;5696587.97449883;470.98784997;95;87;77;22616.000000;1.000000;1.000000;1.000000;1.000000;-0.122175;0.122175;-0.122175;1.000000
445644.16060074;5696587.72419937;470.97464993;152;152;140;38550.000000;1.000000;1.000000;1.000000;1.000000;0.105801;-0.105801;0.105801;1.000000
445644.07080276;5696588.01739891;470.98344995;144;136;123;34952.000000;1.000000;1.000000;1.000000;1.000000;-0.181074;0.181074;-0.181074;1.000000
445644.14960297;5696587.90969856;470.98105003;135;127;117;32896.000000;1.000000;1.000000;1.000000;1.000000;0.079699;-0.079699;0.079699;1.000000
445644.19429977;5696587.98729904;470.98164989;213;204;192;52685.000000;1.000000;1.000000;1.000000;1.000000;-0.057577;0.057577;-0.057577;1.000000
445644.15760239;5696587.94629868;470.98414995;175;167;156;43176.000000;1.000000;1.000000;1.000000;1.000000;-0.094275;0.094275;-0.094275;1.000000
445644.12860306;5696587.75980003;470.98064997;122;122;108;30840.000000;1.000000;1.000000;1.000000;1.000000;0.070200;-0.070200;0.070200;1.000000
445644.16990097;5696587.65089996;470.98114993;112;120;112;29812.000000;1.000000;1.000000;1.000000;1.000000;-0.179100;0.179100;-0.179100;1.000000
445644.12010010;5696587.79559906;470.98534991;146;143;133;36494.000000;1.000000;1.000000;1.000000;1.000000;-0.034401;0.034401;-0.034401;1.000000
445644.07150085;5696588.00089844;470.98554995;133;124;113;32125.000000;1.000000;1.000000;1.000000;1.000000;-0.170898;0.170898;-0.170898;1.000000
445644.08860214;5696587.86139877;470.99164989;218;219;215;56026.000000;1.000000;1.000000;1.000000;1.000000;0.031399;-0.031399;0.031399;1.000000
445644.01570328;5696587.78409966;470.99444987;114;111;103;28527.000000;1.000000;1.000000;1.000000;1.000000;0.066903;-0.066903;0.066903;1.000000
445644.09100159;5696587.78649910;470.98854997;146;143;133;36494.000000;1.000000;1.000000;1.000000;1.000000;-0.043501;0.043501;-0.043501;1.000000
445644.05450256;5696587.74779900;470.99344995;99;96;89;24672.000000;1.000000;1.000000;1.000000;1.000000;0.082792;-0.082792;0.082792;1.000000
445644.18260010;5696587.80859955;470.97434999;126;121;114;31097.000000;1.000000;1.000000;1.000000;1.000000;-0.021400;0.021400;-0.021400;1.000000
445644.09449966;5696587.67409904;470.98974993;66;67;61;16962.000000;1.000000;1.000000;1.000000;1.000000;-0.155901;0.155901;-0.155901;1.000000
445644.12820251;5696587.98399933;470.98794987;119;111;101;28784.000000;1.000000;1.000000;1.000000;1.000000;-0.123674;0.123674;-0.123674;1.000000
445644.14529999;5696587.78859909;470.98175003;190;187;177;47802.000000;1.000000;1.000000;1.000000;1.000000;-0.041401;0.041401;-0.041401;1.000000
445644.02480133;5696588.00739868;470.99755003;67;57;46;14906.000000;1.000000;1.000000;1.000000;1.000000;-0.181760;0.181760;-0.181760;1.000000
445643.95320328;5696587.96729858;470.99845006;142;134;124;34695.000000;1.000000;1.000000;1.000000;1.000000;-0.176665;0.176665;-0.176665;1.000000
445643.99190338;5696587.93099983;470.99744989;108;101;90;25957.000000;1.000000;1.000000;1.000000;1.000000;-0.124312;0.124312;-0.124312;1.000000
445644.18110092;5696587.86489876;470.96794989;63;52;46;13878.000000;1.000000;1.000000;1.000000;1.000000;0.034899;-0.034899;0.034899;1.000000
445644.29880341;5696587.72089966;470.96225001;59;56;50;14392.000000;1.000000;1.000000;1.000000;1.000000;0.109100;-0.109100;0.109100;1.000000
445643.97920044;5696587.99529846;470.99764993;139;131;119;33924.000000;1.000000;1.000000;1.000000;1.000000;-0.185953;0.185953;-0.185953;1.000000
445643.94980057;5696587.80869873;471.00344994;77;70;62;18247.000000;1.000000;1.000000;1.000000;1.000000;0.116540;-0.116540;0.116540;1.000000
445644.02740295;5696587.73619850;470.99904992;150;147;141;37779.000000;1.000000;1.000000;1.000000;1.000000;0.100826;-0.100826;0.100826;1.000000
445644.24600037;5696587.85659988;470.96374990;117;112;102;28784.000000;1.000000;1.000000;1.000000;1.000000;-0.005877;0.005877;-0.005877;1.000000
445644.28750046;5696587.75000008;470.96204998;188;185;178;47545.000000;1.000000;1.000000;1.000000;1.000000;0.080000;-0.080000;0.080000;1.000000
445644.25320251;5696587.70879944;470.96464993;55;52;46;13364.000000;1.000000;1.000000;1.000000;1.000000;0.121201;-0.121201;0.121201;1.000000
445644.10900314;5696588.00210007;470.98494985;169;159;148;41120.000000;1.000000;1.000000;1.000000;1.000000;-0.142874;0.142874;-0.142874;1.000000
445644.18410309;5696588.00449951;470.98374989;180;172;157;44204.000000;1.000000;1.000000;1.000000;1.000000;-0.067774;0.067774;-0.067774;1.000000
445644.18540009;5696587.96709831;470.98094990;165;157;146;40606.000000;1.000000;1.000000;1.000000;1.000000;-0.066477;0.066477;-0.066477;1.000000
445644.05510147;5696587.97899826;470.99154999;161;153;141;39578.000000;1.000000;1.000000;1.000000;1.000000;-0.149287;0.149287;-0.149287;1.000000
445644.15350159;5696587.87209900;470.97374990;131;121;112;31611.000000;1.000000;1.000000;1.000000;1.000000;0.042099;-0.042099;0.042099;1.000000
445644.14780243;5696587.71369942;470.97864987;158;158;146;40092.000000;1.000000;1.000000;1.000000;1.000000;-0.116301;0.116301;-0.116301;1.000000
445644.11490067;5696587.88949974;470.98385002;74;69;62;17733.000000;1.000000;1.000000;1.000000;1.000000;0.059500;-0.059500;0.059500;1.000000
445644.15150269;5696587.67829903;470.97834994;88;92;82;22873.000000;1.000000;1.000000;1.000000;1.000000;-0.151701;0.151701;-0.151701;1.000000
445644.10970123;5696587.75919922;470.98444988;122;121;109;30583.000000;1.000000;1.000000;1.000000;1.000000;-0.070801;0.070801;-0.070801;1.000000
445644.06340225;5696587.98999985;470.98735001;148;139;127;35980.000000;1.000000;1.000000;1.000000;1.000000;-0.160003;0.160003;-0.160003;1.000000
445644.02910049;5696587.95099838;470.99234988;104;96;85;24929.000000;1.000000;1.000000;1.000000;1.000000;-0.126036;0.126036;-0.126036;1.000000
445644.11850174;5696587.77709969;470.98265006;138;136;125;34695.000000;1.000000;1.000000;1.000000;1.000000;-0.052900;0.052900;-0.052900;1.000000
445643.91750153;5696587.90989883;470.99615004;127;119;108;30840.000000;1.000000;1.000000;1.000000;1.000000;-0.167201;0.167201;-0.167201;1.000000
445644.03020294;5696587.91349991;470.99434998;99;93;84;23901.000000;1.000000;1.000000;1.000000;1.000000;-0.090222;0.090222;-0.090222;1.000000
445644.06789978;5696587.91479881;470.98904993;135;130;123;33410.000000;1.000000;1.000000;1.000000;1.000000;-0.084799;0.084799;-0.084799;1.000000
445644.10440262;5696587.87869843;470.98794987;126;122;116;31354.000000;1.000000;1.000000;1.000000;1.000000;-0.048698;0.048698;-0.048698;1.000000
445643.99610336;5696587.79989822;470.99604990;105;102;93;25957.000000;1.000000;1.000000;1.000000;1.000000;0.074615;-0.074615;0.074615;1.000000
445644.16640289;5696587.93849953;470.97974994;174;165;154;42662.000000;1.000000;1.000000;1.000000;1.000000;-0.085474;0.085474;-0.085474;1.000000
445644.13130005;5696587.71279915;470.98015000;161;161;149;40863.000000;1.000000;1.000000;1.000000;1.000000;0.117201;-0.117201;0.117201;1.000000
445644.10920151;5696587.80579956;470.98965003;143;139;131;35723.000000;1.000000;1.000000;1.000000;1.000000;-0.024200;0.024200;-0.024200;1.000000
445643.94220169;5696587.97529991;471.00035002;149;141;128;36237.000000;1.000000;1.000000;1.000000;1.000000;-0.189839;0.189839;-0.189839;1.000000
445643.94350250;5696587.93789871;470.99764993;173;166;155;42662.000000;1.000000;1.000000;1.000000;1.000000;-0.162027;0.162027;-0.162027;1.000000
445643.98920258;5696587.75369843;471.00214984;93;91;84;23130.000000;1.000000;1.000000;1.000000;1.000000;0.107113;-0.107113;0.107113;1.000000
445644.15260132;5696587.86279877;470.97365000;136;126;120;32896.000000;1.000000;1.000000;1.000000;1.000000;0.032799;-0.032799;0.032799;1.000000
445644.05389984;5696587.99079903;470.99164989;158;150;137;38550.000000;1.000000;1.000000;1.000000;1.000000;-0.161140;0.161140;-0.161140;1.000000
445644.01720245;5696587.94979866;470.99414994;96;89;78;22873.000000;1.000000;1.000000;1.000000;1.000000;-0.128752;0.128752;-0.128752;1.000000
445644.05520065;5696587.95339973;470.98895003;122;115;105;29555.000000;1.000000;1.000000;1.000000;1.000000;-0.123740;0.123740;-0.123740;1.000000
445644.13030060;5696587.95570000;470.98764994;133;127;117;32639.000000;1.000000;1.000000;1.000000;1.000000;-0.121576;0.121576;-0.121576;1.000000
445643.94569977;5696587.90969856;470.99274995;141;135;124;34695.000000;1.000000;1.000000;1.000000;1.000000;-0.142955;0.142955;-0.142955;1.000000
445644.06190308;5696587.80309875;470.99444987;112;109;101;28013.000000;1.000000;1.000000;1.000000;1.000000;0.027015;-0.027015;0.027015;1.000000
445644.09959991;5696587.80439957;470.99144985;128;124;115;31868.000000;1.000000;1.000000;1.000000;1.000000;0.025600;-0.025600;0.025600;1.000000
445644.06690033;5696587.73029907;470.99374988;91;87;80;22359.000000;1.000000;1.000000;1.000000;1.000000;0.099701;-0.099701;0.099701;1.000000
445643.97039993;5696587.75309952;471.00364997;91;88;80;22616.000000;1.000000;1.000000;1.000000;1.000000;0.121430;-0.121430;0.121430;1.000000
445643.95180328;5696587.78049858;471.00545003;107;103;94;26471.000000;1.000000;1.000000;1.000000;1.000000;0.122976;-0.122976;0.122976;1.000000
445644.21030243;5696587.82720001;470.96884992;58;53;47;13621.000000;1.000000;1.000000;1.000000;1.000000;-0.002800;0.002800;-0.002800;1.000000
445644.19120224;5696587.80079849;470.97464993;109;105;97;26985.000000;1.000000;1.000000;1.000000;1.000000;0.029202;-0.029202;0.029202;1.000000
445644.22870071;5696587.80199821;470.97405006;88;84;76;21588.000000;1.000000;1.000000;1.000000;1.000000;0.028002;-0.028002;0.028002;1.000000
445644.25890167;5696587.99779900;470.97074987;151;141;130;36494.000000;1.000000;1.000000;1.000000;1.000000;0.007025;-0.007025;0.007025;1.000000
445644.22970016;5696587.81129845;470.97184994;67;63;55;16191.000000;1.000000;1.000000;1.000000;1.000000;0.018702;-0.018702;0.018702;1.000000
445644.24760254;5696587.80259903;470.97254993;73;70;61;17733.000000;1.000000;1.000000;1.000000;1.000000;-0.027401;0.027401;-0.027401;1.000000
445644.24090012;5696587.75429924;470.96694996;160;160;152;40863.000000;1.000000;1.000000;1.000000;1.000000;-0.075701;0.075701;-0.075701;1.000000
445644.23230179;5696587.76429947;470.97134997;131;130;122;33153.000000;1.000000;1.000000;1.000000;1.000000;-0.065701;0.065701;-0.065701;1.000000
445643.92390259;5696587.95599945;471.00164988;150;141;128;36494.000000;1.000000;1.000000;1.000000;1.000000;-0.188703;0.188703;-0.188703;1.000000
445643.88990219;5696587.91709908;471.00195004;186;178;167;46003.000000;1.000000;1.000000;1.000000;1.000000;-0.195007;0.195007;-0.195007;1.000000
445643.92970093;5696587.84329994;471.00294997;68;62;54;15934.000000;1.000000;1.000000;1.000000;1.000000;-0.135331;0.135331;-0.135331;1.000000
445644.26379974;5696587.89699944;470.96274998;216;212;202;54484.000000;1.000000;1.000000;1.000000;1.000000;0.011923;-0.011923;0.011923;1.000000
445643.97370346;5696587.88379868;470.99374988;109;101;92;26214.000000;1.000000;1.000000;1.000000;1.000000;-0.105432;0.105432;-0.105432;1.000000
445644.16880234;5696587.96619995;470.98484995;106;97;86;25186.000000;1.000000;1.000000;1.000000;1.000000;-0.083075;0.083075;-0.083075;1.000000
445644.18850143;5696587.89459999;470.96864988;178;169;159;43690.000000;1.000000;1.000000;1.000000;1.000000;-0.063375;0.063375;-0.063375;1.000000
445644.15530212;5696587.81810005;470.97784998;110;104;97;26985.000000;1.000000;1.000000;1.000000;1.000000;-0.011900;0.011900;-0.011900;1.000000
445644.22810181;5696587.81849869;470.96954991;50;46;39;11822.000000;1.000000;1.000000;1.000000;1.000000;0.011501;-0.011501;0.011501;1.000000
445643.90279968;5696587.83399971;471.01084997;120;113;104;29298.000000;1.000000;1.000000;1.000000;1.000000;-0.161627;0.161627;-0.161627;1.000000
445644.16110046;5696587.70549973;470.97674992;142;143;132;36237.000000;1.000000;1.000000;1.000000;1.000000;0.124500;-0.124500;0.124500;1.000000
445644.26820190;5696587.99919899;470.97344996;146;136;125;35209.000000;1.000000;1.000000;1.000000;1.000000;0.016325;-0.016325;0.016325;1.000000
445644.19560059;5696587.92189987;470.97164990;129;120;109;31097.000000;1.000000;1.000000;1.000000;1.000000;-0.056276;0.056276;-0.056276;1.000000
445644.20129974;5696587.80919846;470.97514989;71;66;59;16962.000000;1.000000;1.000000;1.000000;1.000000;-0.020802;0.020802;-0.020802;1.000000
445644.20260056;5696587.77179916;470.97245004;111;108;99;27499.000000;1.000000;1.000000;1.000000;1.000000;-0.058201;0.058201;-0.058201;1.000000
445644.20409973;5696587.73659904;470.96974995;161;161;153;41120.000000;1.000000;1.000000;1.000000;1.000000;-0.093401;0.093401;-0.093401;1.000000
445644.20510300;5696587.69679840;470.96934988;100;102;93;25700.000000;1.000000;1.000000;1.000000;1.000000;-0.133202;0.133202;-0.133202;1.000000
445644.20860107;5696587.66139992;470.97374990;199;205;197;51914.000000;1.000000;1.000000;1.000000;1.000000;-0.168600;0.168600;-0.168600;1.000000
445644.24620255;5696587.66259964;470.97085001;110;113;106;28527.000000;1.000000;1.000000;1.000000;1.000000;-0.167400;0.167400;-0.167400;1.000000
445644.01680191;5696587.99650009;470.99704983;92;82;71;21331.000000;1.000000;1.000000;1.000000;1.000000;-0.173164;0.173164;-0.173164;1.000000
445643.98060043;5696587.96009834;470.99724986;144;136;126;35209.000000;1.000000;1.000000;1.000000;1.000000;-0.154739;0.154739;-0.154739;1.000000
445643.94289978;5696587.95659836;470.99784996;144;137;126;35209.000000;1.000000;1.000000;1.000000;1.000000;-0.175453;0.175453;-0.175453;1.000000
445643.98390015;5696587.92009933;470.99694993;148;140;130;36237.000000;1.000000;1.000000;1.000000;1.000000;-0.120807;0.120807;-0.120807;1.000000
445643.98880203;5696587.77249916;470.99775006;131;128;120;32896.000000;1.000000;1.000000;1.000000;1.000000;0.094963;-0.094963;0.094963;1.000000
445644.28849991;5696587.71019943;470.96164991;80;75;70;19275.000000;1.000000;1.000000;1.000000;1.000000;0.119801;-0.119801;0.119801;1.000000
445643.96420105;5696587.88229950;470.99324991;85;77;68;20046.000000;1.000000;1.000000;1.000000;1.000000;-0.113006;0.113006;-0.113006;1.000000
445644.19480331;5696587.76309975;470.97204997;134;132;124;33667.000000;1.000000;1.000000;1.000000;1.000000;0.066900;-0.066900;0.066900;1.000000
445644.21230133;5696587.97639854;470.97304990;177;167;153;43176.000000;1.000000;1.000000;1.000000;1.000000;-0.039576;0.039576;-0.039576;1.000000
445644.01620300;5696588.01519974;470.99724986;72;64;51;16448.000000;1.000000;1.000000;1.000000;1.000000;-0.191363;0.191363;-0.191363;1.000000
445643.97980316;5696587.97659882;470.99744989;133;126;115;32382.000000;1.000000;1.000000;1.000000;1.000000;-0.169245;0.169245;-0.169245;1.000000
445643.90950211;5696587.89899834;470.99564983;125;118;108;30326.000000;1.000000;1.000000;1.000000;1.000000;-0.169549;0.169549;-0.169549;1.000000
445644.24310120;5696587.95259865;470.96714999;180;168;156;43690.000000;1.000000;1.000000;1.000000;1.000000;-0.008776;0.008776;-0.008776;1.000000
445643.91050156;5696587.86369904;471.00464990;83;75;68;19532.000000;1.000000;1.000000;1.000000;1.000000;-0.157522;0.157522;-0.157522;1.000000
445644.24410065;5696587.91279991;470.96665003;150;143;132;36751.000000;1.000000;1.000000;1.000000;1.000000;-0.007776;0.007776;-0.007776;1.000000
445644.20770081;5696587.87409981;470.96694996;75;65;56;17219.000000;1.000000;1.000000;1.000000;1.000000;0.044100;-0.044100;0.044100;1.000000
445644.24540146;5696587.87539871;470.96394994;141;135;124;34695.000000;1.000000;1.000000;1.000000;1.000000;-0.006475;0.006475;-0.006475;1.000000
445644.05980118;5696587.83129890;470.99694993;222;223;216;56797.000000;1.000000;1.000000;1.000000;1.000000;-0.004757;0.004757;-0.004757;1.000000
445643.95030029;5696587.78999908;471.00554993;138;132;124;33924.000000;1.000000;1.000000;1.000000;1.000000;0.120887;-0.120887;0.120887;1.000000
445643.98820313;5696587.79119881;470.99794986;139;134;126;34438.000000;1.000000;1.000000;1.000000;1.000000;0.085487;-0.085487;0.085487;1.000000
445644.20910080;5696587.83899887;470.96654989;95;89;83;23130.000000;1.000000;1.000000;1.000000;1.000000;0.008999;-0.008999;0.008999;1.000000
445644.28790100;5696587.72899826;470.96184995;92;88;82;22616.000000;1.000000;1.000000;1.000000;1.000000;0.101002;-0.101002;0.101002;1.000000
445644.12880142;5696587.96519859;470.98774983;113;105;94;27242.000000;1.000000;1.000000;1.000000;1.000000;-0.123075;0.123075;-0.123075;1.000000
445643.94770248;5696587.88149841;470.99484994;80;70;63;18504.000000;1.000000;1.000000;1.000000;1.000000;-0.127534;0.127534;-0.127534;1.000000
445643.97190292;5696587.93999870;470.99434998;143;135;125;34952.000000;1.000000;1.000000;1.000000;1.000000;-0.143705;0.143705;-0.143705;1.000000
445643.97670181;5696587.86479958;470.99134995;138;130;122;33667.000000;1.000000;1.000000;1.000000;1.000000;-0.094329;0.094329;-0.094329;1.000000
445643.99750336;5696588.01459892;470.99634983;119;111;99;28784.000000;1.000000;1.000000;1.000000;1.000000;-0.196339;0.196339;-0.196339;1.000000
445644.00200089;5696587.93939980;470.99804999;84;77;66;19789.000000;1.000000;1.000000;1.000000;1.000000;-0.125933;0.125933;-0.125933;1.000000
445643.89060028;5696587.89839943;470.99944999;159;151;142;39064.000000;1.000000;1.000000;1.000000;1.000000;-0.186753;0.186753;-0.186753;1.000000
445643.92930038;5696587.86209877;470.99845006;60;52;45;13621.000000;1.000000;1.000000;1.000000;1.000000;-0.138838;0.138838;-0.138838;1.000000
445644.20090302;5696587.63389977;470.98475005;78;83;72;20560.000000;1.000000;1.000000;1.000000;1.000000;-0.196100;0.196100;-0.196100;1.000000
445644.18570145;5696587.71499832;470.97105004;123;123;113;31097.000000;1.000000;1.000000;1.000000;1.000000;-0.115002;0.115002;-0.115002;1.000000
445644.21140106;5696587.79189880;470.97545006;131;127;118;32639.000000;1.000000;1.000000;1.000000;1.000000;-0.038101;0.038101;-0.038101;1.000000
445644.09119995;5696588.01079948;470.98424985;151;141;129;36494.000000;1.000000;1.000000;1.000000;1.000000;-0.160677;0.160677;-0.160677;1.000000
445644.01910217;5696587.92149933;470.99854996;93;87;77;22359.000000;1.000000;1.000000;1.000000;1.000000;-0.102088;0.102088;-0.102088;1.000000
445643.87230118;5696587.87899979;471.00304987;132;123;114;31868.000000;1.000000;1.000000;1.000000;1.000000;-0.198227;0.198227;-0.198227;1.000000
445643.90990265;5696587.88019951;471.00014998;60;52;44;13621.000000;1.000000;1.000000;1.000000;1.000000;-0.162426;0.162426;-0.162426;1.000000
445644.24350174;5696587.93159874;470.96685006;126;117;103;30326.000000;1.000000;1.000000;1.000000;1.000000;-0.008375;0.008375;-0.008375;1.000000
445644.20710190;5696587.89289864;470.96714999;119;110;100;28527.000000;1.000000;1.000000;1.000000;1.000000;-0.044775;0.044775;-0.044775;1.000000
445644.05920227;5696587.85009964;470.99714996;193;196;191;49858.000000;1.000000;1.000000;1.000000;1.000000;-0.020755;0.020755;-0.020755;1.000000
445644.20840271;5696587.85539825;470.96444990;68;60;52;15677.000000;1.000000;1.000000;1.000000;1.000000;0.025398;-0.025398;0.025398;1.000000
445643.99200256;5696587.73469933;471.00444986;117;115;108;29298.000000;1.000000;1.000000;1.000000;1.000000;0.119667;-0.119667;0.119667;1.000000
445644.25200089;5696587.74629982;470.96505000;151;149;143;38036.000000;1.000000;1.000000;1.000000;1.000000;0.083700;-0.083700;0.083700;1.000000
445644.21550186;5696587.70759972;470.96764996;161;160;154;40863.000000;1.000000;1.000000;1.000000;1.000000;-0.122400;0.122400;-0.122400;1.000000
445644.24890335;5696587.76519974;470.96984984;227;226;219;57825.000000;1.000000;1.000000;1.000000;1.000000;-0.064800;0.064800;-0.064800;1.000000
445644.32290085;5696587.98249825;470.97105004;136;126;113;32639.000000;1.000000;1.000000;1.000000;1.000000;0.071024;-0.071024;0.071024;1.000000
445644.22220047;5696587.75589951;470.97085001;88;87;79;22102.000000;1.000000;1.000000;1.000000;1.000000;0.074100;-0.074100;0.074100;1.000000
445644.28490265;5696587.82269867;470.96284987;130;127;116;32382.000000;1.000000;1.000000;1.000000;1.000000;0.007301;-0.007301;0.007301;1.000000
445644.09240158;5696587.99899872;470.98414995;140;130;118;33667.000000;1.000000;1.000000;1.000000;1.000000;-0.159475;0.159475;-0.159475;1.000000
445644.22540100;5696587.91219910;470.96584990;139;131;118;33667.000000;1.000000;1.000000;1.000000;1.000000;-0.026476;0.026476;-0.026476;1.000000
445643.91160019;5696587.85189827;471.00685002;123;115;108;29812.000000;1.000000;1.000000;1.000000;1.000000;-0.154338;0.154338;-0.154338;1.000000
445644.07380112;5696587.95159920;470.98744990;137;130;119;33410.000000;1.000000;1.000000;1.000000;1.000000;-0.121599;0.121599;-0.121599;1.000000
445644.17020233;5696587.90089996;470.97254993;158;148;138;38293.000000;1.000000;1.000000;1.000000;1.000000;0.070900;-0.070900;0.070900;1.000000
445643.98930176;5696587.97799881;470.99784996;154;147;136;37779.000000;1.000000;1.000000;1.000000;1.000000;-0.165952;0.165952;-0.165952;1.000000
445643.88230331;5696587.86169823;471.00335004;77;68;61;17733.000000;1.000000;1.000000;1.000000;1.000000;-0.184812;0.184812;-0.184812;1.000000
445644.03750046;5696587.71889885;470.99934985;177;174;167;44718.000000;1.000000;1.000000;1.000000;1.000000;0.114306;-0.114306;0.114306;1.000000
445644.07740219;5696587.64739998;471.00254991;67;71;63;17476.000000;1.000000;1.000000;1.000000;1.000000;-0.182600;0.182600;-0.182600;1.000000
445644.22660263;5696587.87479980;470.96544983;75;66;56;17219.000000;1.000000;1.000000;1.000000;1.000000;-0.025274;0.025274;-0.025274;1.000000
445643.96930130;5696587.79059990;471.00175001;102;97;89;24929.000000;1.000000;1.000000;1.000000;1.000000;0.102916;-0.102916;0.102916;1.000000
445644.00700195;5696587.79179962;470.99644997;113;111;102;28270.000000;1.000000;1.000000;1.000000;1.000000;0.068929;-0.068929;0.068929;1.000000
445644.25240143;5696587.95179947;470.96755006;180;169;156;43690.000000;1.000000;1.000000;1.000000;1.000000;0.000525;-0.000525;0.000525;1.000000
445644.25500305;5696587.87689980;470.96214988;144;139;128;35723.000000;1.000000;1.000000;1.000000;1.000000;0.003126;-0.003126;0.003126;1.000000
445644.25620087;5696587.84159859;470.96634986;116;113;103;28784.000000;1.000000;1.000000;1.000000;1.000000;0.004324;-0.004324;0.004324;1.000000
445644.29380234;5696587.84289940;470.96344997;136;132;121;33667.000000;1.000000;1.000000;1.000000;1.000000;-0.012899;0.012899;-0.012899;1.000000
445644.29620178;5696587.76789864;470.96264984;112;109;99;27756.000000;1.000000;1.000000;1.000000;1.000000;0.062101;-0.062101;0.062101;1.000000
445644.22430237;5696587.72549828;470.96595003;193;192;185;49087.000000;1.000000;1.000000;1.000000;1.000000;0.104502;-0.104502;0.104502;1.000000
445644.02050217;5696587.88410004;470.99354984;105;98;91;25443.000000;1.000000;1.000000;1.000000;1.000000;-0.069655;0.069655;-0.069655;1.000000
445644.00340088;5696587.87629898;470.99265005;88;81;74;21074.000000;1.000000;1.000000;1.000000;1.000000;-0.076562;0.076562;-0.076562;1.000000
445643.89140137;5696587.90759857;471.00195004;177;169;159;43690.000000;1.000000;1.000000;1.000000;1.000000;-0.189584;0.189584;-0.189584;1.000000
445643.98719986;5696588.00619896;470.99814989;124;114;101;29555.000000;1.000000;1.000000;1.000000;1.000000;-0.192360;0.192360;-0.192360;1.000000
445643.88039978;5696587.88989838;471.00125005;159;151;142;39064.000000;1.000000;1.000000;1.000000;1.000000;-0.193482;0.193482;-0.193482;1.000000
445643.91790207;5696587.88889893;470.99595000;68;60;50;15677.000000;1.000000;1.000000;1.000000;1.000000;-0.157873;0.157873;-0.157873;1.000000
445643.92120178;5696587.85339935;471.00494983;87;79;72;20560.000000;1.000000;1.000000;1.000000;1.000000;-0.145075;0.145075;-0.145075;1.000000
445644.21520050;5696587.90379913;470.96764996;119;111;100;28784.000000;1.000000;1.000000;1.000000;1.000000;-0.036676;0.036676;-0.036676;1.000000
445643.95790298;5696587.81740006;470.99924995;28;21;15;5654.000000;1.000000;1.000000;1.000000;1.000000;0.107217;-0.107217;0.107217;1.000000
445644.21880157;5696587.86609848;470.96494987;69;60;50;15677.000000;1.000000;1.000000;1.000000;1.000000;-0.033075;0.033075;-0.033075;1.000000
445644.00190170;5696587.91369827;471.00004985;175;167;157;43176.000000;1.000000;1.000000;1.000000;1.000000;-0.104444;0.104444;-0.104444;1.000000
445644.03320129;5696587.82209976;470.99804999;218;219;211;55769.000000;1.000000;1.000000;1.000000;1.000000;0.032161;-0.032161;0.032161;1.000000
445644.05820282;5696587.88760002;470.99294998;110;107;102;27499.000000;1.000000;1.000000;1.000000;1.000000;-0.057930;0.057930;-0.057930;1.000000
445643.96109970;5696587.77959831;471.00354983;110;104;96;26728.000000;1.000000;1.000000;1.000000;1.000000;0.114920;-0.114920;0.114920;1.000000
445643.99910172;5696587.78319939;470.99834992;145;142;134;36494.000000;1.000000;1.000000;1.000000;1.000000;0.080319;-0.080319;0.080319;1.000000
445644.25870331;5696587.96979912;470.96805002;160;148;136;38550.000000;1.000000;1.000000;1.000000;1.000000;0.006826;-0.006826;0.006826;1.000000
445643.96870239;5696587.80709847;470.99724986;33;28;20;7196.000000;1.000000;1.000000;1.000000;1.000000;0.098377;-0.098377;0.098377;1.000000
445644.04080017;5696587.87749870;470.99434998;106;104;100;26728.000000;1.000000;1.000000;1.000000;1.000000;-0.053028;0.053028;-0.053028;1.000000
445644.07850082;5696587.87869843;470.99144985;70;69;65;17476.000000;1.000000;1.000000;1.000000;1.000000;0.048698;-0.048698;0.048698;1.000000
445643.92790039;5696587.87159927;470.99845006;59;51;45;13364.000000;1.000000;1.000000;1.000000;1.000000;-0.142676;0.142676;-0.142676;1.000000
445644.00020035;5696587.74569901;471.00024988;132;130;123;33153.000000;1.000000;1.000000;1.000000;1.000000;0.105949;-0.105949;0.105949;1.000000
445643.96700104;5696587.83769997;470.99284985;70;65;56;16705.000000;1.000000;1.000000;1.000000;1.000000;-0.097680;0.097680;-0.097680;1.000000
445643.94910248;5696587.84629829;470.99444987;74;67;59;17476.000000;1.000000;1.000000;1.000000;1.000000;-0.116421;0.116421;-0.116421;1.000000
445644.02660187;5696587.77369888;470.99245002;101;99;91;25186.000000;1.000000;1.000000;1.000000;1.000000;0.067799;-0.067799;0.067799;1.000000
445644.06550034;5696587.73979958;470.99154999;110;107;100;27499.000000;1.000000;1.000000;1.000000;1.000000;0.090200;-0.090200;0.090200;1.000000
445644.16520126;5696588.00389870;470.98755004;151;143;130;36751.000000;1.000000;1.000000;1.000000;1.000000;-0.086676;0.086676;-0.086676;1.000000
445644.22510345;5696587.88419922;470.96544983;85;76;65;19789.000000;1.000000;1.000000;1.000000;1.000000;-0.026773;0.026773;-0.026773;1.000000
445644.26300247;5696587.88779839;470.96254994;192;188;178;48316.000000;1.000000;1.000000;1.000000;1.000000;0.011126;-0.011126;0.011126;1.000000
445644.18400009;5696587.79909904;470.97424986;121;117;109;30069.000000;1.000000;1.000000;1.000000;1.000000;-0.030901;0.030901;-0.030901;1.000000
445644.25840195;5696587.76669891;470.96794989;223;221;214;56540.000000;1.000000;1.000000;1.000000;1.000000;0.063301;-0.063301;0.063301;1.000000
445644.18930252;5696587.67949875;470.97304990;165;169;160;42662.000000;1.000000;1.000000;1.000000;1.000000;-0.150501;0.150501;-0.150501;1.000000
445644.12930115;5696587.94419868;470.98514988;126;119;108;30583.000000;1.000000;1.000000;1.000000;1.000000;-0.114199;0.114199;-0.114199;1.000000
445644.09550293;5696587.90759857;470.98554995;60;55;48;14135.000000;1.000000;1.000000;1.000000;1.000000;0.077599;-0.077599;0.077599;1.000000
445644.13310059;5696587.90879829;470.98254992;144;137;127;35466.000000;1.000000;1.000000;1.000000;1.000000;-0.078798;0.078798;-0.078798;1.000000
445644.00810059;5696587.75429924;470.99845006;145;142;135;36494.000000;1.000000;1.000000;1.000000;1.000000;0.094327;-0.094327;0.094327;1.000000
445644.08080109;5696587.80379875;470.99294998;107;103;95;26471.000000;1.000000;1.000000;1.000000;1.000000;-0.026201;0.026201;-0.026201;1.000000
445644.04670151;5696587.76489838;470.99324991;111;109;101;27756.000000;1.000000;1.000000;1.000000;1.000000;0.067458;-0.067458;0.067458;1.000000
445644.22130020;5696587.77229889;470.97334983;83;82;72;20817.000000;1.000000;1.000000;1.000000;1.000000;0.057701;-0.057701;0.057701;1.000000
445644.19100006;5696587.84529884;470.96814992;68;59;54;15677.000000;1.000000;1.000000;1.000000;1.000000;-0.015299;0.015299;-0.015299;1.000000
445644.08220108;5696587.76629837;470.98794987;202;201;191;51400.000000;1.000000;1.000000;1.000000;1.000000;-0.063702;0.063702;-0.063702;1.000000
445644.08360107;5696587.73119934;470.98755004;88;85;76;21588.000000;1.000000;1.000000;1.000000;1.000000;-0.098801;0.098801;-0.098801;1.000000
445644.14560135;5696587.86339958;470.97564985;129;121;113;31354.000000;1.000000;1.000000;1.000000;1.000000;0.033400;-0.033400;0.033400;1.000000
445644.18210037;5696587.82739838;470.97214987;129;122;117;31611.000000;1.000000;1.000000;1.000000;1.000000;-0.002602;0.002602;-0.002602;1.000000
445644.21970184;5696587.82860001;470.96924998;72;68;61;17476.000000;1.000000;1.000000;1.000000;1.000000;-0.001400;0.001400;-0.001400;1.000000
445644.22060211;5696587.79109962;470.97584989;105;101;93;25957.000000;1.000000;1.000000;1.000000;1.000000;-0.038900;0.038900;-0.038900;1.000000
445644.16080292;5696587.90169914;470.97674992;141;132;121;34181.000000;1.000000;1.000000;1.000000;1.000000;-0.071699;0.071699;-0.071699;1.000000
445644.16220291;5696587.86429985;470.97175004;135;126;119;32639.000000;1.000000;1.000000;1.000000;1.000000;-0.034300;0.034300;-0.034300;1.000000
445644.31580170;5696587.95519836;470.96814992;136;126;111;32639.000000;1.000000;1.000000;1.000000;1.000000;0.063925;-0.063925;0.063925;1.000000
445644.20190247;5696587.79049881;470.97494986;136;131;122;33667.000000;1.000000;1.000000;1.000000;1.000000;-0.039501;0.039501;-0.039501;1.000000
445644.08469971;5696587.69369896;470.98945000;116;115;107;29298.000000;1.000000;1.000000;1.000000;1.000000;-0.136301;0.136301;-0.136301;1.000000
445644.16909988;5696587.71409996;470.97254993;128;128;117;32382.000000;1.000000;1.000000;1.000000;1.000000;-0.115900;0.115900;-0.115900;1.000000
445644.29960068;5696587.90759857;470.96914985;181;175;163;44975.000000;1.000000;1.000000;1.000000;1.000000;0.047724;-0.047724;0.047724;1.000000
445644.18850143;5696587.64909943;470.97965004;92;99;90;24415.000000;1.000000;1.000000;1.000000;1.000000;-0.180901;0.180901;-0.180901;1.000000
445644.22640045;5696587.84899910;470.96744992;127;122;115;31354.000000;1.000000;1.000000;1.000000;1.000000;-0.018999;0.018999;-0.018999;1.000000
445644.26910217;5696587.72839935;470.96334984;94;92;84;23387.000000;1.000000;1.000000;1.000000;1.000000;-0.101601;0.101601;-0.101601;1.000000
445644.03840073;5696587.95019920;470.99274995;100;93;83;24158.000000;1.000000;1.000000;1.000000;1.000000;-0.122974;0.122974;-0.122974;1.000000
445644.24070175;5696587.97849854;470.96965005;174;163;152;42405.000000;1.000000;1.000000;1.000000;1.000000;-0.011175;0.011175;-0.011175;1.000000
445644.13810165;5696587.76120003;470.98105003;112;111;98;28013.000000;1.000000;1.000000;1.000000;1.000000;-0.068800;0.068800;-0.068800;1.000000
445644.19390305;5696587.75389870;470.97184994;160;159;151;40606.000000;1.000000;1.000000;1.000000;1.000000;0.076101;-0.076101;0.076101;1.000000
445644.21280106;5696587.75449951;470.97035005;104;103;94;26214.000000;1.000000;1.000000;1.000000;1.000000;-0.075500;0.075500;-0.075500;1.000000
445643.90800293;5696587.93639954;471.00304987;172;163;151;42148.000000;1.000000;1.000000;1.000000;1.000000;-0.189139;0.189139;-0.189139;1.000000
445643.90870102;5696587.91769989;471.00055005;169;161;150;41634.000000;1.000000;1.000000;1.000000;1.000000;-0.178679;0.178679;-0.178679;1.000000
445644.28370102;5696587.86019905;470.96324994;87;82;71;21074.000000;1.000000;1.000000;1.000000;1.000000;-0.030199;0.030199;-0.030199;1.000000
445644.26560028;5696587.79399879;470.96854999;61;57;48;14649.000000;1.000000;1.000000;1.000000;1.000000;-0.036001;0.036001;-0.036001;1.000000
445644.05680283;5696587.89709862;470.99294998;162;158;152;40606.000000;1.000000;1.000000;1.000000;1.000000;-0.067525;0.067525;-0.067525;1.000000
445644.02499969;5696587.78319939;470.99484994;123;121;112;30840.000000;1.000000;1.000000;1.000000;1.000000;0.061163;-0.061163;0.061163;1.000000
445644.10060318;5696587.78799828;470.98665001;148;146;135;37265.000000;1.000000;1.000000;1.000000;1.000000;0.042002;-0.042002;0.042002;1.000000
445644.06380280;5696587.74689873;470.99154999;116;114;106;29041.000000;1.000000;1.000000;1.000000;1.000000;0.083103;-0.083103;0.083103;1.000000
445644.06740005;5696587.71149834;470.99354984;86;83;74;21074.000000;1.000000;1.000000;1.000000;1.000000;0.118502;-0.118502;0.118502;1.000000
445644.09430130;5696587.94509895;470.98595001;156;150;140;38550.000000;1.000000;1.000000;1.000000;1.000000;0.115099;-0.115099;0.115099;1.000000
445644.10390289;5696587.72229965;470.98604991;88;86;75;21845.000000;1.000000;1.000000;1.000000;1.000000;0.107700;-0.107700;0.107700;1.000000
445644.14400299;5696587.65089996;470.98464992;41;47;42;11308.000000;1.000000;1.000000;1.000000;1.000000;-0.179100;0.179100;-0.179100;1.000000
445644.21310242;5696587.98559959;470.97545006;186;176;162;45489.000000;1.000000;1.000000;1.000000;1.000000;-0.038774;0.038774;-0.038774;1.000000
445644.00720032;5696587.96929939;470.99854996;128;120;110;31097.000000;1.000000;1.000000;1.000000;1.000000;-0.150577;0.150577;-0.150577;1.000000
445644.01210220;5696587.89649971;470.99794986;137;130;121;33667.000000;1.000000;1.000000;1.000000;1.000000;-0.084586;0.084586;-0.084586;1.000000
445644.05060013;5696587.85789879;470.99685003;116;117;114;29812.000000;1.000000;1.000000;1.000000;1.000000;-0.031115;0.031115;-0.031115;1.000000
445644.14330109;5696587.66729935;470.98254992;49;54;47;13107.000000;1.000000;1.000000;1.000000;1.000000;-0.162701;0.162701;-0.162701;1.000000
445644.00070007;5696587.94899948;470.99574997;94;85;74;22102.000000;1.000000;1.000000;1.000000;1.000000;-0.134965;0.134965;-0.134965;1.000000
445643.96560104;5696587.87279900;470.99324991;103;94;87;24415.000000;1.000000;1.000000;1.000000;1.000000;-0.107650;0.107650;-0.107650;1.000000
445644.07960327;5696587.84119995;470.99335005;223;224;219;57311.000000;1.000000;1.000000;1.000000;1.000000;0.011200;-0.011200;0.011200;1.000000
445643.94120224;5696587.81649979;471.00315001;83;75;67;19532.000000;1.000000;1.000000;1.000000;1.000000;0.123912;-0.123912;0.123912;1.000000
445644.01650055;5696587.74419983;470.99864985;155;153;146;39064.000000;1.000000;1.000000;1.000000;1.000000;0.098254;-0.098254;0.098254;1.000000
445644.05550201;5696587.71029861;470.99764993;104;101;94;25957.000000;1.000000;1.000000;1.000000;1.000000;0.120030;-0.120030;0.120030;1.000000
445643.99020203;5696587.98729904;470.99804999;169;161;150;41634.000000;1.000000;1.000000;1.000000;1.000000;-0.173911;0.173911;-0.173911;1.000000
445643.88190277;5696587.90619858;471.00144984;188;180;170;46517.000000;1.000000;1.000000;1.000000;1.000000;-0.197745;0.197745;-0.197745;1.000000
445643.88319977;5696587.87099846;471.00344994;74;63;55;16705.000000;1.000000;1.000000;1.000000;1.000000;-0.185758;0.185758;-0.185758;1.000000
445644.03600128;5696587.72839935;470.99934985;143;141;134;35980.000000;1.000000;1.000000;1.000000;1.000000;0.105489;-0.105489;0.105489;1.000000
445644.23719986;5696587.64239891;470.97484996;92;96;88;23901.000000;1.000000;1.000000;1.000000;1.000000;-0.187601;0.187601;-0.187601;1.000000
445644.20210083;5696587.99589928;470.98204996;201;192;179;49601.000000;1.000000;1.000000;1.000000;1.000000;-0.049776;0.049776;-0.049776;1.000000
445644.19569977;5696587.94989975;470.97654988;157;148;137;38293.000000;1.000000;1.000000;1.000000;1.000000;-0.056177;0.056177;-0.056177;1.000000
445644.23120316;5696587.95139893;470.96895005;161;150;138;38807.000000;1.000000;1.000000;1.000000;1.000000;-0.020674;0.020674;-0.020674;1.000000
445644.19720276;5696587.91249855;470.96924998;135;127;116;32896.000000;1.000000;1.000000;1.000000;1.000000;-0.054674;0.054674;-0.054674;1.000000
445644.20280273;5696587.79969986;470.97514989;101;97;89;24929.000000;1.000000;1.000000;1.000000;1.000000;-0.030300;0.030300;-0.030300;1.000000
445644.20400055;5696587.76229866;470.97245004;120;119;111;30326.000000;1.000000;1.000000;1.000000;1.000000;-0.067701;0.067701;-0.067701;1.000000
445644.27480133;5696587.64359863;470.97184994;128;132;124;33153.000000;1.000000;1.000000;1.000000;1.000000;-0.186401;0.186401;-0.186401;1.000000
445644.20650299;5696587.68739899;470.96934988;93;96;87;24158.000000;1.000000;1.000000;1.000000;1.000000;-0.142601;0.142601;-0.142601;1.000000
445644.20760162;5696587.65209969;470.97595002;154;161;152;40349.000000;1.000000;1.000000;1.000000;1.000000;-0.177900;0.177900;-0.177900;1.000000
445644.13420303;5696587.84339912;470.97954990;115;108;102;28013.000000;1.000000;1.000000;1.000000;1.000000;-0.013399;0.013399;-0.013399;1.000000
445644.18010147;5696587.65929993;470.97945001;79;86;79;21331.000000;1.000000;1.000000;1.000000;1.000000;-0.170700;0.170700;-0.170700;1.000000
445644.18630035;5696587.97639854;470.98114993;185;178;166;45746.000000;1.000000;1.000000;1.000000;1.000000;-0.065577;0.065577;-0.065577;1.000000
445644.14980133;5696587.93759926;470.98364999;159;151;140;39064.000000;1.000000;1.000000;1.000000;1.000000;-0.102076;0.102076;-0.102076;1.000000
445644.24500092;5696587.89639862;470.96424987;160;156;145;39835.000000;1.000000;1.000000;1.000000;1.000000;-0.006876;0.006876;-0.006876;1.000000
445643.97120102;5696587.76229866;471.00385000;86;83;75;21331.000000;1.000000;1.000000;1.000000;1.000000;0.115175;-0.115175;0.115175;1.000000
445644.12910278;5696587.99319847;470.98805000;159;151;140;39064.000000;1.000000;1.000000;1.000000;1.000000;-0.122774;0.122774;-0.122774;1.000000
445644.12070282;5696587.75119980;470.98245003;105;105;91;26471.000000;1.000000;1.000000;1.000000;1.000000;-0.078800;0.078800;-0.078800;1.000000
445644.23260315;5696587.93960007;470.96645000;135;124;113;32382.000000;1.000000;1.000000;1.000000;1.000000;-0.019274;0.019274;-0.019274;1.000000
445644.27029999;5696587.94310005;470.96595003;127;117;102;30326.000000;1.000000;1.000000;1.000000;1.000000;0.018423;-0.018423;0.018423;1.000000
445644.13900192;5696587.97589882;470.99064996;90;82;71;21331.000000;1.000000;1.000000;1.000000;1.000000;-0.112875;0.112875;-0.112875;1.000000
445644.27510269;5696587.86799820;470.96295001;103;98;87;25186.000000;1.000000;1.000000;1.000000;1.000000;0.023226;-0.023226;0.023226;1.000000
445644.00670059;5696587.76379974;470.99845006;134;131;124;33667.000000;1.000000;1.000000;1.000000;1.000000;0.087801;-0.087801;0.087801;1.000000
445644.27390106;5696587.83070000;470.96474983;128;125;116;31868.000000;1.000000;1.000000;1.000000;1.000000;0.000700;-0.000700;0.000700;1.000000
445643.98220261;5696587.90159996;470.99665000;166;160;150;41120.000000;1.000000;1.000000;1.000000;1.000000;-0.108992;0.108992;-0.108992;1.000000
445644.28560074;5696587.80399902;470.96024992;116;111;101;28527.000000;1.000000;1.000000;1.000000;1.000000;0.026001;-0.026001;0.026001;1.000000
445644.27880295;5696587.75779922;470.96404984;192;189;182;48573.000000;1.000000;1.000000;1.000000;1.000000;-0.072201;0.072201;-0.072201;1.000000
445644.20710190;5696587.71769913;470.96735003;177;176;168;44975.000000;1.000000;1.000000;1.000000;1.000000;-0.112301;0.112301;-0.112301;1.000000
445644.25460251;5696587.84879883;470.96404984;109;105;95;26985.000000;1.000000;1.000000;1.000000;1.000000;0.002726;-0.002726;0.002726;1.000000
445644.29480179;5696587.77739914;470.96035006;99;95;85;24415.000000;1.000000;1.000000;1.000000;1.000000;0.052601;-0.052601;0.052601;1.000000
445644.22270020;5696587.73489960;470.96825006;155;154;146;39321.000000;1.000000;1.000000;1.000000;1.000000;0.095100;-0.095100;0.095100;1.000000
445644.24250229;5696587.71909912;470.96435000;109;106;99;27242.000000;1.000000;1.000000;1.000000;1.000000;-0.110901;0.110901;-0.110901;1.000000
445644.24590118;5696587.68139847;470.96634986;62;64;57;15934.000000;1.000000;1.000000;1.000000;1.000000;-0.148602;0.148602;-0.148602;1.000000
445643.96440323;5696587.91029938;470.99364998;173;167;156;42919.000000;1.000000;1.000000;1.000000;1.000000;-0.128229;0.128229;-0.128229;1.000000
445644.28900345;5696587.94369896;470.96904995;88;78;62;20303.000000;1.000000;1.000000;1.000000;1.000000;0.037127;-0.037127;0.037127;1.000000
445644.11620148;5696587.80519875;470.98755004;161;157;149;40349.000000;1.000000;1.000000;1.000000;1.000000;-0.024801;0.024801;-0.024801;1.000000
445644.17730148;5696587.92819984;470.97554996;160;151;140;39064.000000;1.000000;1.000000;1.000000;1.000000;-0.074575;0.074575;-0.074575;1.000000
445644.14470108;5696587.85419853;470.97545006;140;132;124;34181.000000;1.000000;1.000000;1.000000;1.000000;0.024199;-0.024199;0.024199;1.000000
