//X;Y;Z;R;G;B;Intensity;Return Number;Number Of Returns;Scan Direction Flag;Point Source ID;C2M signed distances[-][<0.8];C2M signed distances[<0.4];C2M signed distances[-][<0.2];Stump117
445648.90040024;5696559.89529999;469.87014987;100;98;75;24672.000000;1.000000;1.000000;1.000000;1.000000;-0.065444;0.065444;-0.065444;1.000000
445648.86100204;5696559.71019943;469.84284999;124;121;97;30583.000000;1.000000;1.000000;1.000000;1.000000;0.109625;-0.109625;0.109625;1.000000
445648.45770081;5696559.61839874;469.88644983;69;72;65;17990.000000;1.000000;1.000000;1.000000;1.000000;-0.106676;0.106676;-0.106676;1.000000
445648.53280075;5696559.56499870;469.87294986;79;81;71;20303.000000;1.000000;1.000000;1.000000;1.000000;-0.031576;0.031576;-0.031576;1.000000
445648.40590103;5696559.91289909;469.88294985;167;166;142;41891.000000;1.000000;1.000000;1.000000;1.000000;-0.178849;0.178849;-0.178849;1.000000
445648.42320068;5696559.56049927;469.90984990;102;103;89;25957.000000;1.000000;1.000000;1.000000;1.000000;-0.141176;0.141176;-0.141176;1.000000
445648.67000015;5696559.84919937;469.85454990;103;98;81;24929.000000;1.000000;1.000000;1.000000;1.000000;-0.019787;0.019787;-0.019787;1.000000
445648.70530136;5696559.85289963;469.85854985;163;153;124;39064.000000;1.000000;1.000000;1.000000;1.000000;-0.022900;0.022900;-0.022900;1.000000
445648.90310104;5696559.63619812;469.84395005;142;144;131;36237.000000;1.000000;1.000000;1.000000;1.000000;0.067526;-0.067526;0.067526;1.000000
445648.86790283;5696559.55999954;469.84375002;152;155;148;39321.000000;1.000000;1.000000;1.000000;1.000000;0.102724;-0.102724;0.102724;1.000000
445648.86900146;5696559.52249916;469.84564998;216;218;214;55512.000000;1.000000;1.000000;1.000000;1.000000;0.101630;-0.101630;0.101630;1.000000
445648.87260254;5696559.48709877;469.84774997;170;172;168;43690.000000;1.000000;1.000000;1.000000;1.000000;0.104543;-0.104543;0.104543;1.000000
445648.81330307;5696559.96859940;469.88104989;147;145;103;35980.000000;1.000000;1.000000;1.000000;1.000000;-0.138652;0.138652;-0.138652;1.000000
445648.62800034;5696559.92319878;469.85115005;228;228;219;58339.000000;1.000000;1.000000;1.000000;1.000000;-0.093199;0.093199;-0.093199;1.000000
445648.59399994;5696559.88429840;469.85154988;94;90;83;23130.000000;1.000000;1.000000;1.000000;1.000000;-0.054323;0.054323;-0.054323;1.000000
445648.85200317;5696559.93229874;469.88004996;152;144;112;36494.000000;1.000000;1.000000;1.000000;1.000000;-0.102299;0.102299;-0.102299;1.000000
445648.60680206;5696559.54899796;469.85745003;135;135;111;33924.000000;1.000000;1.000000;1.000000;1.000000;0.042425;-0.042425;0.042425;1.000000
445648.78690155;5696559.74279984;469.84224989;130;127;103;32125.000000;1.000000;1.000000;1.000000;1.000000;0.087200;-0.087200;0.087200;1.000000
445648.49640091;5696559.58209808;469.88544991;92;96;88;23901.000000;1.000000;1.000000;1.000000;1.000000;-0.067976;0.067976;-0.067976;1.000000
445648.78930099;5696559.85429962;469.86465003;194;186;150;47288.000000;1.000000;1.000000;1.000000;1.000000;-0.024300;0.024300;-0.024300;1.000000
445648.68130310;5696559.77549942;469.86815001;129;124;98;31354.000000;1.000000;1.000000;1.000000;1.000000;0.055095;-0.055095;0.055095;1.000000
445648.89820297;5696559.71129807;469.84924986;138;135;112;34181.000000;1.000000;1.000000;1.000000;1.000000;0.072424;-0.072424;0.072424;1.000000
445648.49600037;5696559.54429825;469.91995003;109;113;106;28527.000000;1.000000;1.000000;1.000000;1.000000;-0.068377;0.068377;-0.068377;1.000000
445648.59270294;5696559.92179878;469.85424997;147;147;140;37522.000000;1.000000;1.000000;1.000000;1.000000;-0.091845;0.091845;-0.091845;1.000000
445648.42010315;5696559.61499985;469.88234999;137;137;127;34695.000000;1.000000;1.000000;1.000000;1.000000;-0.144274;0.144274;-0.144274;1.000000
445648.82069977;5696559.78159912;469.84655001;122;121;86;30069.000000;1.000000;1.000000;1.000000;1.000000;0.049713;-0.049713;0.049713;1.000000
445648.89750107;5696559.75799950;469.85675003;119;117;93;29298.000000;1.000000;1.000000;1.000000;1.000000;0.072015;-0.072015;0.072015;1.000000
445648.70990189;5696559.77769859;469.86014988;165;158;131;40349.000000;1.000000;1.000000;1.000000;1.000000;0.052319;-0.052319;0.052319;1.000000
445648.53280075;5696559.54609879;469.88434984;72;70;61;17733.000000;1.000000;1.000000;1.000000;1.000000;-0.031576;0.031576;-0.031576;1.000000
445648.55820282;5696559.85479935;469.85655000;61;60;53;15163.000000;1.000000;1.000000;1.000000;1.000000;-0.025556;0.025556;-0.025556;1.000000
445648.45960052;5696559.58259972;469.92575004;140;145;137;36494.000000;1.000000;1.000000;1.000000;1.000000;-0.104776;0.104776;-0.104776;1.000000
445648.45810135;5696559.54069908;469.92514994;171;175;164;44204.000000;1.000000;1.000000;1.000000;1.000000;-0.106276;0.106276;-0.106276;1.000000
445648.89350327;5696559.84009941;469.85754992;218;217;202;55255.000000;1.000000;1.000000;1.000000;1.000000;-0.010099;0.010099;-0.010099;1.000000
445648.89540298;5696559.78389938;469.85465004;105;103;84;25957.000000;1.000000;1.000000;1.000000;1.000000;0.046101;-0.046101;0.046101;1.000000
445648.91440018;5696559.97329910;469.87874987;126;123;114;31354.000000;1.000000;1.000000;1.000000;1.000000;-0.143299;0.143299;-0.143299;1.000000
445648.59679993;5696559.56629951;469.85484983;182;182;161;46003.000000;1.000000;1.000000;1.000000;1.000000;0.032423;-0.032423;0.032423;1.000000
445648.59200104;5696559.94049843;469.85675003;135;135;126;34438.000000;1.000000;1.000000;1.000000;1.000000;-0.110558;0.110558;-0.110558;1.000000
445648.81020172;5696559.81989868;469.84885003;182;174;139;44204.000000;1.000000;1.000000;1.000000;1.000000;0.010136;-0.010136;0.010136;1.000000
445648.89719971;5696559.52459915;469.84694983;98;97;90;24672.000000;1.000000;1.000000;1.000000;1.000000;0.073427;-0.073427;0.073427;1.000000
445648.41750153;5696559.63399895;469.87555005;71;71;63;17990.000000;1.000000;1.000000;1.000000;1.000000;-0.146875;0.146875;-0.146875;1.000000
445648.62730225;5696559.94190033;469.85375001;152;152;145;38807.000000;1.000000;1.000000;1.000000;1.000000;-0.111900;0.111900;-0.111900;1.000000
445648.54460342;5696559.93779953;469.86395003;140;139;129;35466.000000;1.000000;1.000000;1.000000;1.000000;-0.109598;0.109598;-0.109598;1.000000
445648.43040283;5696559.95039948;469.88214995;80;80;64;20046.000000;1.000000;1.000000;1.000000;1.000000;-0.180125;0.180125;-0.180125;1.000000
445648.66580017;5696559.90559967;469.85734989;141;137;120;34952.000000;1.000000;1.000000;1.000000;1.000000;-0.075602;0.075602;-0.075602;1.000000
445648.43420227;5696559.91499908;469.88194992;153;154;139;39064.000000;1.000000;1.000000;1.000000;1.000000;-0.155468;0.155468;-0.155468;1.000000
445648.59130295;5696559.95919998;469.85924985;115;115;106;29298.000000;1.000000;1.000000;1.000000;1.000000;-0.129272;0.129272;-0.129272;1.000000
445648.47520264;5696559.80369957;469.88244988;114;115;110;29298.000000;1.000000;1.000000;1.000000;1.000000;0.092972;-0.092972;0.092972;1.000000
445648.84770020;5696559.82110031;469.84824993;143;140;113;35209.000000;1.000000;1.000000;1.000000;1.000000;0.008900;-0.008900;0.008900;1.000000
445648.47630127;5696559.76619919;469.88434984;192;196;186;49601.000000;1.000000;1.000000;1.000000;1.000000;0.108756;-0.108756;0.108756;1.000000
445648.51400192;5696559.76750000;469.87914993;43;46;36;11308.000000;1.000000;1.000000;1.000000;1.000000;0.080274;-0.080274;0.080274;1.000000
445648.84900101;5696559.78369911;469.84554984;143;139;112;35209.000000;1.000000;1.000000;1.000000;1.000000;0.046301;-0.046301;0.046301;1.000000
445648.56690033;5696559.62279900;469.85885002;82;90;71;21845.000000;1.000000;1.000000;1.000000;1.000000;0.002523;-0.002523;0.002523;1.000000
445648.77370270;5696559.83479889;469.85905005;190;180;150;46003.000000;1.000000;1.000000;1.000000;1.000000;-0.004799;0.004799;-0.004799;1.000000
445648.85750015;5696559.59839828;469.84375002;117;118;108;29812.000000;1.000000;1.000000;1.000000;1.000000;0.113127;-0.113127;0.113127;1.000000
445648.85550125;5696559.85769852;469.85605003;148;144;111;36237.000000;1.000000;1.000000;1.000000;1.000000;-0.027699;0.027699;-0.027699;1.000000
445648.89290054;5696559.85879906;469.85774996;142;141;122;35723.000000;1.000000;1.000000;1.000000;1.000000;-0.028799;0.028799;-0.028799;1.000000
445648.71050079;5696559.75889977;469.85994985;71;64;36;16191.000000;1.000000;1.000000;1.000000;1.000000;0.071127;-0.071127;0.071127;1.000000
445648.74710281;5696559.72289856;469.85414984;127;124;104;31354.000000;1.000000;1.000000;1.000000;1.000000;0.107208;-0.107208;0.107208;1.000000
445648.78100021;5696559.83650024;469.85704996;187;176;144;44975.000000;1.000000;1.000000;1.000000;1.000000;-0.006500;0.006500;-0.006500;1.000000
445648.45700272;5696559.59709938;469.90944983;97;103;96;25700.000000;1.000000;1.000000;1.000000;1.000000;-0.107374;0.107374;-0.107374;1.000000
445648.85020264;5696559.74619873;469.84515001;144;141;117;35723.000000;1.000000;1.000000;1.000000;1.000000;0.083801;-0.083801;0.083801;1.000000
445648.85850342;5696559.55859955;469.84325006;123;126;120;31868.000000;1.000000;1.000000;1.000000;1.000000;0.112123;-0.112123;0.112123;1.000000
445648.89610107;5696559.56209953;469.84504988;109;110;101;27756.000000;1.000000;1.000000;1.000000;1.000000;0.074526;-0.074526;0.074526;1.000000
445648.80270203;5696560.00469978;469.87864997;184;183;155;46260.000000;1.000000;1.000000;1.000000;1.000000;-0.174700;0.174700;-0.174700;1.000000
445648.87650116;5696559.96979912;469.88164999;168;164;149;41891.000000;1.000000;1.000000;1.000000;1.000000;-0.139800;0.139800;-0.139800;1.000000
445648.62000092;5696559.88659866;469.84804990;92;89;80;22616.000000;1.000000;1.000000;1.000000;1.000000;-0.056838;0.056838;-0.056838;1.000000
445648.80520065;5696559.93199928;469.88025000;176;174;129;43433.000000;1.000000;1.000000;1.000000;1.000000;-0.101999;0.101999;-0.101999;1.000000
445648.84270294;5696559.93319901;469.88194992;150;142;110;35980.000000;1.000000;1.000000;1.000000;1.000000;-0.103240;0.103240;-0.103240;1.000000
445648.65229996;5696559.58899887;469.86465003;160;155;116;39064.000000;1.000000;1.000000;1.000000;1.000000;0.087923;-0.087923;0.087923;1.000000
445648.73840149;5696559.77749832;469.84975006;139;132;105;33667.000000;1.000000;1.000000;1.000000;1.000000;0.052502;-0.052502;0.052502;1.000000
445648.81120117;5696559.78019913;469.84614994;106;104;68;25700.000000;1.000000;1.000000;1.000000;1.000000;0.049835;-0.049835;0.049835;1.000000
445648.81280334;5696559.74499901;469.84344985;127;125;96;31354.000000;1.000000;1.000000;1.000000;1.000000;0.085072;-0.085072;0.085072;1.000000
445648.44840057;5696559.61929901;469.88605000;81;84;76;21074.000000;1.000000;1.000000;1.000000;1.000000;-0.115976;0.115976;-0.115976;1.000000
445648.41069992;5696559.54099854;469.88574984;87;88;71;21845.000000;1.000000;1.000000;1.000000;1.000000;-0.153677;0.153677;-0.153677;1.000000
445648.64680298;5696559.95170029;469.85704996;151;151;141;38293.000000;1.000000;1.000000;1.000000;1.000000;-0.121700;0.121700;-0.121700;1.000000
445648.80370148;5696559.96710022;469.88294985;130;126;79;31354.000000;1.000000;1.000000;1.000000;1.000000;-0.137100;0.137100;-0.137100;1.000000
445648.62080200;5696559.92149933;469.85084989;205;206;197;52428.000000;1.000000;1.000000;1.000000;1.000000;-0.091697;0.091697;-0.091697;1.000000
445648.51280029;5696559.80499847;469.87955000;82;83;78;21074.000000;1.000000;1.000000;1.000000;1.000000;0.057317;-0.057317;0.057317;1.000000
445648.77520187;5696559.74379929;469.84404995;113;110;90;27756.000000;1.000000;1.000000;1.000000;1.000000;0.086201;-0.086201;0.086201;1.000000
445648.88879974;5696559.70989807;469.84644987;136;133;108;33667.000000;1.000000;1.000000;1.000000;1.000000;0.081827;-0.081827;0.081827;1.000000
445648.91780289;5696559.93559845;469.88074996;182;180;165;45746.000000;1.000000;1.000000;1.000000;1.000000;-0.105598;0.105598;-0.105598;1.000000
445648.85970123;5696559.52339943;469.84754993;168;170;165;43176.000000;1.000000;1.000000;1.000000;1.000000;0.110926;-0.110926;0.110926;1.000000
445648.64930161;5696559.87679871;469.85395004;198;195;181;49858.000000;1.000000;1.000000;1.000000;1.000000;-0.046799;0.046799;-0.046799;1.000000
445648.80020340;5696559.84399994;469.86034991;196;187;153;47545.000000;1.000000;1.000000;1.000000;1.000000;-0.014000;0.014000;-0.014000;1.000000
445648.83820160;5696559.84759911;469.85515000;178;173;141;43690.000000;1.000000;1.000000;1.000000;1.000000;-0.019101;0.019101;-0.019101;1.000000
445648.43560226;5696559.61099823;469.89465000;126;127;119;32125.000000;1.000000;1.000000;1.000000;1.000000;-0.128775;0.128775;-0.128775;1.000000
445648.87500198;5696560.02609833;469.87524988;181;180;174;46003.000000;1.000000;1.000000;1.000000;1.000000;-0.196107;0.196107;-0.196107;1.000000
445648.91590317;5696559.98950012;469.87894990;123;121;116;31097.000000;1.000000;1.000000;1.000000;1.000000;-0.159500;0.159500;-0.159500;1.000000
445648.62870224;5696559.95809944;469.85624983;178;178;169;45489.000000;1.000000;1.000000;1.000000;1.000000;-0.128099;0.128099;-0.128099;1.000000
445648.55669983;5696559.63999947;469.86095001;122;129;116;32125.000000;1.000000;1.000000;1.000000;1.000000;-0.008310;0.008310;-0.008310;1.000000
445648.66640289;5696559.88690002;469.85714986;209;206;188;52428.000000;1.000000;1.000000;1.000000;1.000000;-0.056912;0.056912;-0.056912;1.000000
445648.63240250;5696559.84799965;469.85745003;32;28;19;7196.000000;1.000000;1.000000;1.000000;1.000000;-0.018000;0.018000;-0.018000;1.000000
445648.74419983;5696559.81659897;469.85284998;200;191;163;48830.000000;1.000000;1.000000;1.000000;1.000000;0.014107;-0.014107;0.014107;1.000000
445648.63200195;5696559.86679848;469.85305001;66;63;53;15934.000000;1.000000;1.000000;1.000000;1.000000;-0.036798;0.036798;-0.036798;1.000000
445648.58800323;5696560.00369843;469.86894991;172;173;163;43947.000000;1.000000;1.000000;1.000000;1.000000;-0.173755;0.173755;-0.173755;1.000000
445648.48890121;5696559.54489906;469.92424991;145;148;141;37522.000000;1.000000;1.000000;1.000000;1.000000;-0.075476;0.075476;-0.075476;1.000000
445648.40950211;5696559.57849892;469.88614990;153;154;138;38807.000000;1.000000;1.000000;1.000000;1.000000;-0.154875;0.154875;-0.154875;1.000000
445648.48960312;5696559.58510025;469.88745000;88;92;82;22873.000000;1.000000;1.000000;1.000000;1.000000;-0.074774;0.074774;-0.074774;1.000000
445648.54740341;5696559.86289795;469.85384991;94;91;86;23387.000000;1.000000;1.000000;1.000000;1.000000;-0.037019;0.037019;-0.037019;1.000000
445648.70440109;5696559.86929901;469.86095001;176;169;138;42919.000000;1.000000;1.000000;1.000000;1.000000;-0.039299;0.039299;-0.039299;1.000000
445648.74660309;5696559.74169930;469.85204985;59;55;34;13621.000000;1.000000;1.000000;1.000000;1.000000;0.088458;-0.088458;0.088458;1.000000
445648.60300262;5696559.65909966;469.85854985;125;132;121;32896.000000;1.000000;1.000000;1.000000;1.000000;0.044613;-0.044613;0.044613;1.000000
445648.39660080;5696559.91379936;469.88255002;146;143;116;35980.000000;1.000000;1.000000;1.000000;1.000000;-0.187540;0.187540;-0.187540;1.000000
445648.66460236;5696559.94309814;469.85774996;216;214;202;54741.000000;1.000000;1.000000;1.000000;1.000000;-0.113098;0.113098;-0.113098;1.000000
445648.84119995;5696559.96829803;469.88465001;172;168;143;42662.000000;1.000000;1.000000;1.000000;1.000000;-0.138369;0.138369;-0.138369;1.000000
445648.52600296;5696559.54899796;469.88634994;85;85;75;21331.000000;1.000000;1.000000;1.000000;1.000000;-0.038374;0.038374;-0.038374;1.000000
445648.44890030;5696559.54159935;469.92244985;129;132;120;33153.000000;1.000000;1.000000;1.000000;1.000000;-0.115477;0.115477;-0.115477;1.000000
445648.51770218;5696559.89829834;469.85984995;83;79;69;20303.000000;1.000000;1.000000;1.000000;1.000000;-0.082724;0.082724;-0.082724;1.000000
445648.66520126;5696559.92429932;469.85754992;131;127;113;32382.000000;1.000000;1.000000;1.000000;1.000000;-0.094299;0.094299;-0.094299;1.000000
445648.89420135;5696559.82139977;469.85504987;160;158;143;40092.000000;1.000000;1.000000;1.000000;1.000000;0.008600;-0.008600;0.008600;1.000000
445648.56570251;5696559.66020020;469.85924985;76;81;70;20046.000000;1.000000;1.000000;1.000000;1.000000;0.023448;-0.023448;0.023448;1.000000
445648.55560120;5696559.90180023;469.85695006;152;150;142;38293.000000;1.000000;1.000000;1.000000;1.000000;-0.072335;0.072335;-0.072335;1.000000
445648.56800278;5696559.58529861;469.85844995;125;129;112;32125.000000;1.000000;1.000000;1.000000;1.000000;0.003626;-0.003626;0.003626;1.000000
445648.49360092;5696559.58000000;469.89224984;97;100;93;25186.000000;1.000000;1.000000;1.000000;1.000000;-0.070776;0.070776;-0.070776;1.000000
445648.60560043;5696559.58650024;469.85784986;217;218;199;55255.000000;1.000000;1.000000;1.000000;1.000000;0.041224;-0.041224;0.041224;1.000000
445648.68169983;5696559.55129822;469.86084988;160;156;126;39321.000000;1.000000;1.000000;1.000000;1.000000;0.117323;-0.117323;0.117323;1.000000
445648.88630112;5696559.99919899;469.88004996;163;162;154;41377.000000;1.000000;1.000000;1.000000;1.000000;-0.169199;0.169199;-0.169199;1.000000
445648.92620285;5696559.92539795;469.88094999;163;161;147;41120.000000;1.000000;1.000000;1.000000;1.000000;-0.095398;0.095398;-0.095398;1.000000
445648.92500122;5696559.96290024;469.88135006;143;142;134;36237.000000;1.000000;1.000000;1.000000;1.000000;-0.132900;0.132900;-0.132900;1.000000
445648.57430084;5696559.87439926;469.85284998;69;65;59;16705.000000;1.000000;1.000000;1.000000;1.000000;-0.044399;0.044399;-0.044399;1.000000
445648.61180313;5696559.87559898;469.85224988;39;37;30;9252.000000;1.000000;1.000000;1.000000;1.000000;-0.045599;0.045599;-0.045599;1.000000
445648.87339981;5696559.84899910;469.85445001;141;139;116;35209.000000;1.000000;1.000000;1.000000;1.000000;-0.019315;0.019315;-0.019315;1.000000
445648.44289978;5696559.90719803;469.87994983;159;160;148;40606.000000;1.000000;1.000000;1.000000;1.000000;-0.143931;0.143931;-0.143931;1.000000
445648.58570297;5696559.64909943;469.85765006;152;159;146;39835.000000;1.000000;1.000000;1.000000;1.000000;0.024641;-0.024641;0.024641;1.000000
445648.48610123;5696559.79569824;469.88284995;60;63;57;15677.000000;1.000000;1.000000;1.000000;1.000000;0.085462;-0.085462;0.085462;1.000000
445648.48490341;5696559.75839813;469.88465001;195;199;188;50372.000000;1.000000;1.000000;1.000000;1.000000;0.106971;-0.106971;0.106971;1.000000
445648.85620316;5696559.81099899;469.84614994;175;173;152;43947.000000;1.000000;1.000000;1.000000;1.000000;0.019001;-0.019001;0.019001;1.000000
445648.86590012;5696559.58829887;469.84395005;145;147;138;37265.000000;1.000000;1.000000;1.000000;1.000000;0.104727;-0.104727;0.104727;1.000000
445648.90340240;5696559.58949860;469.84334995;84;86;78;21588.000000;1.000000;1.000000;1.000000;1.000000;0.067225;-0.067225;0.067225;1.000000
445648.84300049;5696559.87739952;469.86264994;156;151;116;38036.000000;1.000000;1.000000;1.000000;1.000000;-0.047472;0.047472;-0.047472;1.000000
445648.91340073;5696559.77749832;469.85765006;176;174;157;44204.000000;1.000000;1.000000;1.000000;1.000000;0.052502;-0.052502;0.052502;1.000000
445648.60810287;5696559.51379974;469.85934999;69;69;59;17219.000000;1.000000;1.000000;1.000000;1.000000;0.043726;-0.043726;0.043726;1.000000
445648.41960342;5696559.54009827;469.89544990;104;106;90;26471.000000;1.000000;1.000000;1.000000;1.000000;-0.144773;0.144773;-0.144773;1.000000
445648.41870316;5696559.57989891;469.89354994;128;129;114;32639.000000;1.000000;1.000000;1.000000;1.000000;-0.145674;0.145674;-0.145674;1.000000
445648.89669998;5696559.74869926;469.85664989;143;140;118;35466.000000;1.000000;1.000000;1.000000;1.000000;0.073927;-0.073927;0.073927;1.000000
445648.40380295;5696559.94119843;469.88325002;128;127;103;31868.000000;1.000000;1.000000;1.000000;1.000000;-0.195318;0.195318;-0.195318;1.000000
445648.81120117;5696559.99679955;469.88135006;207;206;179;52171.000000;1.000000;1.000000;1.000000;1.000000;-0.166808;0.166808;-0.166808;1.000000
445648.62960251;5696559.91379936;469.84885003;240;240;229;61166.000000;1.000000;1.000000;1.000000;1.000000;-0.083799;0.083799;-0.083799;1.000000
445648.84990128;5696559.96049889;469.88264992;152;148;121;37522.000000;1.000000;1.000000;1.000000;1.000000;-0.130499;0.130499;-0.130499;1.000000
445648.81590088;5696559.92169960;469.88065006;186;184;145;46260.000000;1.000000;1.000000;1.000000;1.000000;-0.091924;0.091924;-0.091924;1.000000
445648.55730255;5696559.84559830;469.85874989;36;35;28;8738.000000;1.000000;1.000000;1.000000;1.000000;-0.017128;0.017128;-0.017128;1.000000
445648.55630310;5696559.88309868;469.85445001;110;106;99;27242.000000;1.000000;1.000000;1.000000;1.000000;-0.053709;0.053709;-0.053709;1.000000
445648.51880081;5696559.88189896;469.85504987;96;93;84;23644.000000;1.000000;1.000000;1.000000;1.000000;-0.069070;0.069070;-0.069070;1.000000
445648.78339966;5696559.80839928;469.84754993;206;198;169;50629.000000;1.000000;1.000000;1.000000;1.000000;0.021601;-0.021601;0.021601;1.000000
445648.85970123;5696559.77329834;469.84594991;111;107;84;26985.000000;1.000000;1.000000;1.000000;1.000000;0.056702;-0.056702;0.056702;1.000000
445648.81990250;5696559.77229889;469.84644987;138;136;102;33924.000000;1.000000;1.000000;1.000000;1.000000;0.058658;-0.058658;0.058658;1.000000
445648.82370193;5696559.73699959;469.84384992;152;149;122;37522.000000;1.000000;1.000000;1.000000;1.000000;0.094103;-0.094103;0.094103;1.000000
445648.86079987;5696559.73579987;469.84784986;169;165;141;41891.000000;1.000000;1.000000;1.000000;1.000000;0.094200;-0.094200;0.094200;1.000000
445648.63420303;5696559.82189949;469.86654999;29;29;19;6939.000000;1.000000;1.000000;1.000000;1.000000;0.008101;-0.008101;0.008101;1.000000
445648.53240021;5696559.54369934;469.88894989;82;80;72;20303.000000;1.000000;1.000000;1.000000;1.000000;-0.031977;0.031977;-0.031977;1.000000
445648.49800308;5696559.57499893;469.88774993;101;104;94;26214.000000;1.000000;1.000000;1.000000;1.000000;-0.066374;0.066374;-0.066374;1.000000
445648.37310226;5696559.55869873;469.87494995;65;63;41;15677.000000;1.000000;1.000000;1.000000;1.000000;-0.191275;0.191275;-0.191275;1.000000
445648.90220078;5696559.62689980;469.84375002;170;171;158;43433.000000;1.000000;1.000000;1.000000;1.000000;0.068426;-0.068426;0.068426;1.000000
445648.86940201;5696559.55060013;469.84364988;211;214;208;54484.000000;1.000000;1.000000;1.000000;1.000000;0.101225;-0.101225;0.101225;1.000000
445648.87050064;5696559.51309975;469.84564998;205;206;201;52685.000000;1.000000;1.000000;1.000000;1.000000;0.100663;-0.100663;0.100663;1.000000
445648.69200333;5696559.96379860;469.86384990;90;87;69;21845.000000;1.000000;1.000000;1.000000;1.000000;-0.133799;0.133799;-0.133799;1.000000
445648.58960159;5696559.96639832;469.85924985;143;143;133;36237.000000;1.000000;1.000000;1.000000;1.000000;-0.136531;0.136531;-0.136531;1.000000
445648.66410263;5696559.71869858;469.87134983;140;138;116;34952.000000;1.000000;1.000000;1.000000;1.000000;0.111301;-0.111301;0.111301;1.000000
445648.44149979;5696559.94240006;469.88025000;104;105;89;26214.000000;1.000000;1.000000;1.000000;1.000000;-0.166531;0.166531;-0.166531;1.000000
445648.82100113;5696559.80959900;469.84694983;133;127;90;31868.000000;1.000000;1.000000;1.000000;1.000000;0.023492;-0.023492;0.023492;1.000000
445648.52260025;5696559.75969894;469.87944986;62;65;55;16191.000000;1.000000;1.000000;1.000000;1.000000;0.081777;-0.081777;0.081777;1.000000
445648.74710281;5696559.76969917;469.84774997;115;109;84;27756.000000;1.000000;1.000000;1.000000;1.000000;0.060490;-0.060490;0.060490;1.000000
445648.78590210;5696559.73349960;469.84445002;120;118;96;29812.000000;1.000000;1.000000;1.000000;1.000000;0.096500;-0.096500;0.096500;1.000000
445648.89980133;5696559.70189865;469.84684994;150;148;127;37522.000000;1.000000;1.000000;1.000000;1.000000;0.070826;-0.070826;0.070826;1.000000
445648.62580307;5696559.57759865;469.85864999;143;140;112;35209.000000;1.000000;1.000000;1.000000;1.000000;0.061426;-0.061426;0.061426;1.000000
445648.91470154;5696559.74009903;469.85494997;179;176;154;44718.000000;1.000000;1.000000;1.000000;1.000000;0.055925;-0.055925;0.055925;1.000000
445648.66530045;5696559.68120010;469.87095000;167;168;151;42405.000000;1.000000;1.000000;1.000000;1.000000;0.110167;-0.110167;0.110167;1.000000
445648.61790283;5696559.96839912;469.85824992;171;171;161;43433.000000;1.000000;1.000000;1.000000;1.000000;-0.138434;0.138434;-0.138434;1.000000
445648.45810135;5696559.54289825;469.92984988;204;209;200;52942.000000;1.000000;1.000000;1.000000;1.000000;-0.106276;0.106276;-0.106276;1.000000
445648.45670135;5696559.57810028;469.93015005;174;177;169;44975.000000;1.000000;1.000000;1.000000;1.000000;-0.107676;0.107676;-0.107676;1.000000
445648.58830078;5696559.57639893;469.85695006;166;168;149;42405.000000;1.000000;1.000000;1.000000;1.000000;0.023924;-0.023924;0.023924;1.000000
445648.54930313;5696559.61039932;469.86025002;52;59;46;14135.000000;1.000000;1.000000;1.000000;1.000000;-0.015074;0.015074;-0.015074;1.000000
445648.64450272;5696559.55249985;469.85684993;167;162;133;41120.000000;1.000000;1.000000;1.000000;1.000000;0.080126;-0.080126;0.080126;1.000000
445648.58480270;5696559.61409958;469.85724999;124;130;111;32382.000000;1.000000;1.000000;1.000000;1.000000;0.020426;-0.020426;0.020426;1.000000
445648.91220291;5696559.81499870;469.85804989;109;106;90;26985.000000;1.000000;1.000000;1.000000;1.000000;0.015001;-0.015001;0.015001;1.000000
445648.65030106;5696559.83930023;469.85585000;34;31;18;7710.000000;1.000000;1.000000;1.000000;1.000000;-0.009300;0.009300;-0.009300;1.000000
445648.45980270;5696559.53359802;469.92284991;154;158;147;39835.000000;1.000000;1.000000;1.000000;1.000000;-0.104574;0.104574;-0.104574;1.000000
445648.49740036;5696559.53479965;469.92214992;129;134;129;33667.000000;1.000000;1.000000;1.000000;1.000000;-0.066977;0.066977;-0.066977;1.000000
445648.53690155;5696559.54099854;469.88675000;67;64;57;16448.000000;1.000000;1.000000;1.000000;1.000000;-0.027475;0.027475;-0.027475;1.000000
445648.45490082;5696559.61629875;469.89094998;90;92;84;23130.000000;1.000000;1.000000;1.000000;1.000000;-0.109476;0.109476;-0.109476;1.000000
445648.81460007;5696559.95909889;469.88334991;132;129;85;32125.000000;1.000000;1.000000;1.000000;1.000000;-0.129200;0.129200;-0.129200;1.000000
445648.88739975;5696559.96169861;469.88205006;169;164;150;41891.000000;1.000000;1.000000;1.000000;1.000000;-0.131699;0.131699;-0.131699;1.000000
445648.64809998;5696559.91429909;469.85434987;151;149;136;38036.000000;1.000000;1.000000;1.000000;1.000000;-0.084299;0.084299;-0.084299;1.000000
445648.40509995;5696559.90369995;469.88045003;175;173;152;43947.000000;1.000000;1.000000;1.000000;1.000000;-0.175502;0.175502;-0.175502;1.000000
445648.41920288;5696559.60569962;469.88454988;158;158;146;40092.000000;1.000000;1.000000;1.000000;1.000000;-0.145174;0.145174;-0.145174;1.000000
445648.53650101;5696559.87089928;469.85344984;127;124;117;31868.000000;1.000000;1.000000;1.000000;1.000000;-0.049496;0.049496;-0.049496;1.000000
445648.43950089;5696559.57029922;469.93164994;217;220;211;56026.000000;1.000000;1.000000;1.000000;1.000000;-0.124876;0.124876;-0.124876;1.000000
445648.50450333;5696560.01149948;469.86994984;98;98;86;24672.000000;1.000000;1.000000;1.000000;1.000000;-0.191120;0.191120;-0.191120;1.000000
445648.46800049;5696559.97270020;469.87255003;81;82;69;20560.000000;1.000000;1.000000;1.000000;1.000000;-0.172197;0.172197;-0.172197;1.000000
445648.72540100;5696559.84399994;469.85934999;196;186;156;47545.000000;1.000000;1.000000;1.000000;1.000000;-0.014000;0.014000;-0.014000;1.000000
445648.58290298;5696559.67029961;469.86014988;129;133;123;33410.000000;1.000000;1.000000;1.000000;1.000000;0.038273;-0.038273;0.038273;1.000000
445648.65789993;5696559.89469917;469.85454990;161;158;142;40349.000000;1.000000;1.000000;1.000000;1.000000;-0.064699;0.064699;-0.064699;1.000000
445648.55700119;5696559.86439903;469.85194995;117;114;107;29298.000000;1.000000;1.000000;1.000000;1.000000;-0.035181;0.035181;-0.035181;1.000000
445648.55130203;5696559.78979881;469.87644984;148;149;141;37779.000000;1.000000;1.000000;1.000000;1.000000;0.042274;-0.042274;0.042274;1.000000
445648.58870132;5696559.79089935;469.87815001;152;153;143;38807.000000;1.000000;1.000000;1.000000;1.000000;0.039435;-0.039435;0.039435;1.000000
445648.57010086;5696559.55709847;469.85815002;109;108;94;27242.000000;1.000000;1.000000;1.000000;1.000000;0.005724;-0.005724;0.005724;1.000000
445648.87690170;5696559.99779900;469.87964990;178;178;168;45232.000000;1.000000;1.000000;1.000000;1.000000;-0.167799;0.167799;-0.167799;1.000000
445648.62170227;5696559.85829933;469.85714986;32;28;22;7196.000000;1.000000;1.000000;1.000000;1.000000;-0.028769;0.028769;-0.028769;1.000000
445648.91550262;5696559.96150024;469.88094999;151;149;139;38036.000000;1.000000;1.000000;1.000000;1.000000;-0.131500;0.131500;-0.131500;1.000000
445648.62750061;5696559.75469978;469.87714984;88;89;71;22102.000000;1.000000;1.000000;1.000000;1.000000;0.075300;-0.075300;0.075300;1.000000
445648.89620026;5696559.51529892;469.84914996;97;98;91;24672.000000;1.000000;1.000000;1.000000;1.000000;0.074868;-0.074868;0.074868;1.000000
445648.40360077;5696559.70779999;469.87104990;132;131;116;33153.000000;1.000000;1.000000;1.000000;1.000000;-0.175661;0.175661;-0.175661;1.000000
445648.43210037;5696559.94319923;469.88214995;105;105;88;26471.000000;1.000000;1.000000;1.000000;1.000000;-0.174101;0.174101;-0.174101;1.000000
445648.66290100;5696559.75609978;469.87174990;171;170;143;42919.000000;1.000000;1.000000;1.000000;1.000000;0.073900;-0.073900;0.073900;1.000000
445648.43330200;5696559.90569885;469.88174989;128;128;114;32382.000000;1.000000;1.000000;1.000000;1.000000;-0.151364;0.151364;-0.151364;1.000000
445648.47660263;5696559.79429825;469.88244988;69;71;65;17733.000000;1.000000;1.000000;1.000000;1.000000;0.094757;-0.094757;0.094757;1.000000
445648.51200302;5696559.79569824;469.87934997;50;50;44;12593.000000;1.000000;1.000000;1.000000;1.000000;0.062607;-0.062607;0.062607;1.000000
445648.47800262;5696559.75910004;469.88205006;186;191;179;48316.000000;1.000000;1.000000;1.000000;1.000000;0.111747;-0.111747;0.111747;1.000000
445648.69580276;5696559.85139854;469.85804989;143;136;108;34695.000000;1.000000;1.000000;1.000000;1.000000;-0.021399;0.021399;-0.021399;1.000000
445648.44360168;5696559.71109970;469.87294986;165;166;154;42148.000000;1.000000;1.000000;1.000000;1.000000;-0.141656;0.141656;-0.141656;1.000000
445648.63510330;5696559.55109985;469.85644986;138;133;104;33667.000000;1.000000;1.000000;1.000000;1.000000;0.070726;-0.070726;0.070726;1.000000
445648.47830017;5696559.53409966;469.92834999;236;239;233;60909.000000;1.000000;1.000000;1.000000;1.000000;-0.086077;0.086077;-0.086077;1.000000
445648.47030075;5696559.60549934;469.89154984;96;100;96;25186.000000;1.000000;1.000000;1.000000;1.000000;-0.094076;0.094076;-0.094076;1.000000
445648.47860153;5696559.71019943;469.87214996;84;88;80;21845.000000;1.000000;1.000000;1.000000;1.000000;-0.112726;0.112726;-0.112726;1.000000
445648.47240265;5696559.56970032;469.92614986;119;126;117;31354.000000;1.000000;1.000000;1.000000;1.000000;-0.091974;0.091974;-0.091974;1.000000
445648.88430222;5696559.81299980;469.84984996;176;174;159;44204.000000;1.000000;1.000000;1.000000;1.000000;0.017000;-0.017000;0.017000;1.000000
445648.59130295;5696559.71599968;469.87264993;103;105;93;26471.000000;1.000000;1.000000;1.000000;1.000000;0.083397;-0.083397;0.083397;1.000000
445648.44480331;5696559.67359932;469.87025001;114;114;105;29041.000000;1.000000;1.000000;1.000000;1.000000;-0.125046;0.125046;-0.125046;1.000000
445648.63030060;5696559.68209847;469.87174990;76;80;68;19789.000000;1.000000;1.000000;1.000000;1.000000;0.079849;-0.079849;0.079849;1.000000
445648.47530182;5696559.55299957;469.93074991;186;191;183;48316.000000;1.000000;1.000000;1.000000;1.000000;-0.089075;0.089075;-0.089075;1.000000
445648.44580276;5696559.63830002;469.87914993;43;43;37;10794.000000;1.000000;1.000000;1.000000;1.000000;-0.118579;0.118579;-0.118579;1.000000
445648.61940201;5696559.95899971;469.85585000;174;175;166;44461.000000;1.000000;1.000000;1.000000;1.000000;-0.129082;0.129082;-0.129082;1.000000
445648.80410202;5696559.99519928;469.88094999;155;155;121;38807.000000;1.000000;1.000000;1.000000;1.000000;-0.165199;0.165199;-0.165199;1.000000
445648.58310135;5696559.92029961;469.85614993;120;119;112;30326.000000;1.000000;1.000000;1.000000;1.000000;-0.090300;0.090300;-0.090300;1.000000
445648.62010010;5696559.91229828;469.84834983;232;232;221;59110.000000;1.000000;1.000000;1.000000;1.000000;-0.082470;0.082470;-0.082470;1.000000
445648.87820251;5696559.96259888;469.88164999;158;153;136;39064.000000;1.000000;1.000000;1.000000;1.000000;-0.132599;0.132599;-0.132599;1.000000
445648.51140030;5696559.88019951;469.85934999;74;70;62;17990.000000;1.000000;1.000000;1.000000;1.000000;-0.072983;0.072983;-0.072983;1.000000
445648.54710205;5696559.88399895;469.85404994;157;154;147;39578.000000;1.000000;1.000000;1.000000;1.000000;-0.056695;0.056695;-0.056695;1.000000
445648.84190186;5696559.92389877;469.87955000;162;156;125;39578.000000;1.000000;1.000000;1.000000;1.000000;-0.093973;0.093973;-0.093973;1.000000
445648.77400024;5696559.80699928;469.84704997;205;196;168;50115.000000;1.000000;1.000000;1.000000;1.000000;0.023001;-0.023001;0.023001;1.000000
445648.84930237;5696559.81169899;469.84585001;153;151;124;38036.000000;1.000000;1.000000;1.000000;1.000000;0.018301;-0.018301;0.018301;1.000000
445648.61480148;5696560.01529892;469.86794998;143;144;135;36494.000000;1.000000;1.000000;1.000000;1.000000;-0.185299;0.185299;-0.185299;1.000000
445648.51310165;5696559.75819977;469.88135006;74;77;66;19018.000000;1.000000;1.000000;1.000000;1.000000;0.088229;-0.088229;0.088229;1.000000
445648.81290253;5696559.77299889;469.84614994;110;108;73;26728.000000;1.000000;1.000000;1.000000;1.000000;0.057112;-0.057112;0.057112;1.000000
445648.85050018;5696559.77419861;469.84544994;120;117;92;29555.000000;1.000000;1.000000;1.000000;1.000000;0.055801;-0.055801;0.055801;1.000000
445648.81420334;5696559.73549850;469.84344985;140;137;108;34438.000000;1.000000;1.000000;1.000000;1.000000;0.094627;-0.094627;0.094627;1.000000
445648.85170181;5696559.73670013;469.84515001;159;156;133;39578.000000;1.000000;1.000000;1.000000;1.000000;0.093300;-0.093300;0.093300;1.000000
445648.68990143;5696560.01769836;469.86675002;119;114;103;29298.000000;1.000000;1.000000;1.000000;1.000000;-0.187698;0.187698;-0.187698;1.000000
445648.73690231;5696559.81489952;469.85714986;185;176;147;44975.000000;1.000000;1.000000;1.000000;1.000000;0.015100;-0.015100;0.015100;1.000000
445648.40990265;5696559.53179939;469.88555004;117;119;101;29812.000000;1.000000;1.000000;1.000000;1.000000;-0.154474;0.154474;-0.154474;1.000000
445648.65369995;5696559.97899826;469.86465003;187;187;177;47545.000000;1.000000;1.000000;1.000000;1.000000;-0.148998;0.148998;-0.148998;1.000000
445648.50710114;5696559.93659981;469.86454989;135;135;123;34181.000000;1.000000;1.000000;1.000000;1.000000;-0.121013;0.121013;-0.121013;1.000000
445648.73930176;5696559.73999985;469.85404994;54;49;28;12336.000000;1.000000;1.000000;1.000000;1.000000;0.090000;-0.090000;0.090000;1.000000
445648.76980026;5696559.87239845;469.86864998;148;141;104;35723.000000;1.000000;1.000000;1.000000;1.000000;-0.042398;0.042398;-0.042398;1.000000
445648.80730255;5696559.87359818;469.86804988;170;164;124;41377.000000;1.000000;1.000000;1.000000;1.000000;-0.043598;0.043598;-0.043598;1.000000
445648.39820297;5696559.90439804;469.88014986;168;165;139;41891.000000;1.000000;1.000000;1.000000;1.000000;-0.182068;0.182068;-0.182068;1.000000
445648.69970139;5696559.79489906;469.86224987;160;155;128;39321.000000;1.000000;1.000000;1.000000;1.000000;0.035101;-0.035101;0.035101;1.000000
445648.58839996;5696559.76289948;469.88014986;61;62;51;15420.000000;1.000000;1.000000;1.000000;1.000000;0.067274;-0.067274;0.067274;1.000000
445648.48260315;5696559.60689934;469.88045003;98;102;95;25700.000000;1.000000;1.000000;1.000000;1.000000;-0.081774;0.081774;-0.081774;1.000000
445648.85990341;5696559.54909904;469.84325006;159;162;156;41120.000000;1.000000;1.000000;1.000000;1.000000;0.110723;-0.110723;0.110723;1.000000
445648.89760025;5696559.55259903;469.84494998;105;104;96;26471.000000;1.000000;1.000000;1.000000;1.000000;0.073027;-0.073027;0.073027;1.000000
445648.51210220;5696559.55480011;469.89514997;95;96;87;24158.000000;1.000000;1.000000;1.000000;1.000000;-0.052275;0.052275;-0.052275;1.000000
445648.85350235;5696559.65259941;469.83725001;146;146;131;37008.000000;1.000000;1.000000;1.000000;1.000000;0.117125;-0.117125;0.117125;1.000000
445648.47380264;5696559.56019981;469.92844989;141;148;140;37265.000000;1.000000;1.000000;1.000000;1.000000;-0.090574;0.090574;-0.090574;1.000000
445648.51050003;5696559.55969818;469.89045002;98;99;91;24929.000000;1.000000;1.000000;1.000000;1.000000;-0.053877;0.053877;-0.053877;1.000000
445648.53540237;5696559.52929886;469.89584996;70;67;63;17219.000000;1.000000;1.000000;1.000000;1.000000;-0.028975;0.028975;-0.028975;1.000000
445648.59980209;5696559.54969986;469.85714986;154;154;134;38807.000000;1.000000;1.000000;1.000000;1.000000;0.035425;-0.035425;0.035425;1.000000
445648.43080338;5696559.97839935;469.88025000;88;89;74;22359.000000;1.000000;1.000000;1.000000;1.000000;-0.199660;0.199660;-0.199660;1.000000
445648.59290131;5696559.67869957;469.86305000;148;152;143;38293.000000;1.000000;1.000000;1.000000;1.000000;0.050630;-0.050630;0.050630;1.000000
445648.51910217;5696559.63879974;469.86154987;77;82;78;20560.000000;1.000000;1.000000;1.000000;1.000000;-0.045318;0.045318;-0.045318;1.000000
445648.81150253;5696559.80819901;469.84644987;147;141;103;35466.000000;1.000000;1.000000;1.000000;1.000000;0.021907;-0.021907;0.021907;1.000000
445648.73750122;5696559.76829918;469.84964993;95;88;63;22359.000000;1.000000;1.000000;1.000000;1.000000;0.061701;-0.061701;0.061701;1.000000
445648.77670105;5696559.73429878;469.84404995;124;122;101;30840.000000;1.000000;1.000000;1.000000;1.000000;0.095701;-0.095701;0.095701;1.000000
445648.67040070;5696559.60839851;469.86564996;182;180;143;45232.000000;1.000000;1.000000;1.000000;1.000000;0.106024;-0.106024;0.106024;1.000000
445648.89060028;5696559.70279892;469.84414985;159;155;132;39321.000000;1.000000;1.000000;1.000000;1.000000;0.080027;-0.080027;0.080027;1.000000
445648.91920288;5696559.92609985;469.88065006;179;177;162;44975.000000;1.000000;1.000000;1.000000;1.000000;-0.096100;0.096100;-0.096100;1.000000
445648.86110123;5696559.51389893;469.84754993;142;143;138;36494.000000;1.000000;1.000000;1.000000;1.000000;0.109941;-0.109941;0.109941;1.000000
445648.48960312;5696559.70220001;469.87025001;92;96;88;23901.000000;1.000000;1.000000;1.000000;1.000000;-0.099196;0.099196;-0.099196;1.000000
445648.85710342;5696559.61719902;469.83924987;104;106;94;26728.000000;1.000000;1.000000;1.000000;1.000000;0.113523;-0.113523;0.113523;1.000000
445648.60630234;5696559.56779869;469.85535004;159;158;135;39835.000000;1.000000;1.000000;1.000000;1.000000;0.041925;-0.041925;0.041925;1.000000
445648.69670303;5696559.88859947;469.86325004;143;135;104;34181.000000;1.000000;1.000000;1.000000;1.000000;-0.058599;0.058599;-0.058599;1.000000
445648.88220032;5696559.86919983;469.85734989;162;159;137;40349.000000;1.000000;1.000000;1.000000;1.000000;-0.039200;0.039200;-0.039200;1.000000
445648.67230042;5696559.80439957;469.86804988;62;62;40;15163.000000;1.000000;1.000000;1.000000;1.000000;0.026554;-0.026554;0.026554;1.000000
445648.70779999;5696559.80589874;469.86034991;142;137;107;34695.000000;1.000000;1.000000;1.000000;1.000000;0.024101;-0.024101;0.024101;1.000000
445648.49220093;5696559.62949951;469.86955001;112;117;114;29555.000000;1.000000;1.000000;1.000000;1.000000;-0.072176;0.072176;-0.072176;1.000000
445648.60519989;5696559.63319977;469.86064984;113;119;104;29555.000000;1.000000;1.000000;1.000000;1.000000;0.040823;-0.040823;0.040823;1.000000
445648.88500031;5696559.82229813;469.85224988;216;214;199;54484.000000;1.000000;1.000000;1.000000;1.000000;0.007702;-0.007702;0.007702;1.000000
445648.67460068;5696559.72939880;469.86724998;177;174;149;44204.000000;1.000000;1.000000;1.000000;1.000000;0.101035;-0.101035;0.101035;1.000000
445648.88610275;5696559.78479965;469.85424997;90;89;69;22359.000000;1.000000;1.000000;1.000000;1.000000;0.045200;-0.045200;0.045200;1.000000
445648.80830200;5696559.85719879;469.86325004;191;182;147;46260.000000;1.000000;1.000000;1.000000;1.000000;-0.027199;0.027199;-0.027199;1.000000
445648.67730148;5696559.87879951;469.85754992;155;151;130;38293.000000;1.000000;1.000000;1.000000;1.000000;-0.050271;0.050271;-0.050271;1.000000
445648.40870102;5696559.56929977;469.88594987;149;150;134;37779.000000;1.000000;1.000000;1.000000;1.000000;-0.155676;0.155676;-0.155676;1.000000
445648.84029968;5696559.95899971;469.88454988;197;192;162;48830.000000;1.000000;1.000000;1.000000;1.000000;-0.129110;0.129110;-0.129110;1.000000
445648.80550201;5696559.95999916;469.88065006;134;131;80;32382.000000;1.000000;1.000000;1.000000;1.000000;-0.129999;0.129999;-0.129999;1.000000
445648.83930023;5696559.99659927;469.88025000;91;90;73;22616.000000;1.000000;1.000000;1.000000;1.000000;-0.166719;0.166719;-0.166719;1.000000
445648.66130264;5696559.81239899;469.86765005;41;41;23;10023.000000;1.000000;1.000000;1.000000;1.000000;0.017601;-0.017601;0.017601;1.000000
445648.67860229;5696559.84139832;469.85484983;67;62;38;15420.000000;1.000000;1.000000;1.000000;1.000000;-0.015685;0.015685;-0.015685;1.000000
445648.41220291;5696559.60409935;469.87955000;153;154;141;39064.000000;1.000000;1.000000;1.000000;1.000000;-0.152174;0.152174;-0.152174;1.000000
445648.47980316;5696559.56919868;469.91715004;99;104;95;25957.000000;1.000000;1.000000;1.000000;1.000000;-0.084574;0.084574;-0.084574;1.000000
445648.45070084;5696559.53439911;469.92004992;118;123;111;30840.000000;1.000000;1.000000;1.000000;1.000000;-0.113676;0.113676;-0.113676;1.000000
445648.57950027;5696559.95799835;469.85874989;134;133;124;33924.000000;1.000000;1.000000;1.000000;1.000000;-0.127998;0.127998;-0.127998;1.000000
445648.86610229;5696560.00580032;469.87695004;150;149;138;38036.000000;1.000000;1.000000;1.000000;1.000000;-0.175805;0.175805;-0.175805;1.000000
445648.55730255;5696559.62129982;469.86074998;57;65;47;15420.000000;1.000000;1.000000;1.000000;1.000000;-0.007074;0.007074;-0.007074;1.000000
445648.94160278;5696560.01059921;469.87104990;144;143;141;36751.000000;1.000000;1.000000;1.000000;1.000000;-0.180599;0.180599;-0.180599;1.000000
445648.36660202;5696559.54059799;469.87905004;107;105;87;26471.000000;1.000000;1.000000;1.000000;1.000000;-0.197775;0.197775;-0.197775;1.000000
445648.71600159;5696559.84249886;469.85885002;158;149;118;38036.000000;1.000000;1.000000;1.000000;1.000000;-0.013327;0.013327;-0.013327;1.000000
445648.82650192;5696559.84859856;469.85695006;178;171;139;43433.000000;1.000000;1.000000;1.000000;1.000000;-0.025273;0.025273;-0.025273;1.000000
445648.65770157;5696559.70049866;469.87314989;139;138;120;34952.000000;1.000000;1.000000;1.000000;1.000000;0.112836;-0.112836;0.112836;1.000000
445648.84600266;5696559.85619934;469.85554983;172;168;134;42405.000000;1.000000;1.000000;1.000000;1.000000;-0.026199;0.026199;-0.026199;1.000000
445648.88120087;5696559.85759933;469.85484983;139;137;115;34695.000000;1.000000;1.000000;1.000000;1.000000;-0.027599;0.027599;-0.027599;1.000000
445648.45790298;5696559.98999985;469.87454988;66;68;54;16705.000000;1.000000;1.000000;1.000000;1.000000;-0.192189;0.192189;-0.192189;1.000000
445648.46130188;5696559.95229919;469.87664988;114;114;101;28784.000000;1.000000;1.000000;1.000000;1.000000;-0.159942;0.159942;-0.159942;1.000000
445648.75830276;5696559.92709930;469.87345006;102;103;51;24672.000000;1.000000;1.000000;1.000000;1.000000;-0.097099;0.097099;-0.097099;1.000000
445648.54110153;5696559.80699928;469.87844994;133;134;129;34181.000000;1.000000;1.000000;1.000000;1.000000;0.032723;-0.032723;0.032723;1.000000
445648.57660110;5696559.80849846;469.87314989;87;88;80;22102.000000;1.000000;1.000000;1.000000;1.000000;0.021502;-0.021502;0.021502;1.000000
445648.58010300;5696559.77309998;469.87754991;49;50;40;12336.000000;1.000000;1.000000;1.000000;1.000000;0.056900;-0.056900;0.056900;1.000000
445648.65260132;5696559.77339943;469.87614991;185;185;163;46774.000000;1.000000;1.000000;1.000000;1.000000;0.056601;-0.056601;0.056601;1.000000
445648.46860321;5696559.72970016;469.87424995;67;70;59;17219.000000;1.000000;1.000000;1.000000;1.000000;-0.133217;0.133217;-0.133217;1.000000
445648.54350098;5696559.73209961;469.87774994;159;162;148;40863.000000;1.000000;1.000000;1.000000;1.000000;-0.097194;0.097194;-0.097194;1.000000
445648.58110245;5696559.73329933;469.87704994;159;160;148;40606.000000;1.000000;1.000000;1.000000;1.000000;0.096701;-0.096701;0.096701;1.000000
445648.61850174;5696559.73439987;469.87874987;135;136;120;34181.000000;1.000000;1.000000;1.000000;1.000000;0.095671;-0.095671;0.095671;1.000000
445648.43470200;5696559.69089897;469.87235000;140;140;128;35466.000000;1.000000;1.000000;1.000000;1.000000;-0.140408;0.140408;-0.140408;1.000000
445648.80490311;5696559.70619972;469.83334996;170;168;147;42662.000000;1.000000;1.000000;1.000000;1.000000;0.123800;-0.123800;0.123800;1.000000
445648.84700211;5696559.63449867;469.83904984;144;145;133;36751.000000;1.000000;1.000000;1.000000;1.000000;0.123625;-0.123625;0.123625;1.000000
445648.88220032;5696559.63589867;469.84064986;188;190;177;48059.000000;1.000000;1.000000;1.000000;1.000000;0.088427;-0.088427;0.088427;1.000000
445648.71710022;5696559.80499847;469.86074998;165;158;130;40349.000000;1.000000;1.000000;1.000000;1.000000;0.025249;-0.025249;0.025249;1.000000
445648.84810074;5696559.59699829;469.84095003;127;128;118;32382.000000;1.000000;1.000000;1.000000;1.000000;0.122526;-0.122526;0.122526;1.000000
445648.88570221;5696559.59819992;469.84034993;129;131;120;33153.000000;1.000000;1.000000;1.000000;1.000000;0.084925;-0.084925;0.084925;1.000000
445648.61770065;5696559.54099854;469.85784986;111;112;86;27756.000000;1.000000;1.000000;1.000000;1.000000;0.053324;-0.053324;0.053324;1.000000
445648.59980209;5696559.94909866;469.85724999;114;114;105;29041.000000;1.000000;1.000000;1.000000;1.000000;-0.119099;0.119099;-0.119099;1.000000
445648.52820023;5696559.90899857;469.85815002;109;106;94;26985.000000;1.000000;1.000000;1.000000;1.000000;-0.086888;0.086888;-0.086888;1.000000
445648.56570251;5696559.91020020;469.85754992;185;184;175;47031.000000;1.000000;1.000000;1.000000;1.000000;-0.080200;0.080200;-0.080200;1.000000
445648.49550064;5696559.99119957;469.87165000;203;204;193;51914.000000;1.000000;1.000000;1.000000;1.000000;-0.175298;0.175298;-0.175298;1.000000
445648.79330261;5696560.00319870;469.87824990;115;113;77;28013.000000;1.000000;1.000000;1.000000;1.000000;-0.173199;0.173199;-0.173199;1.000000
445648.83100327;5696560.00669868;469.87765004;92;91;73;22873.000000;1.000000;1.000000;1.000000;1.000000;-0.177303;0.177303;-0.177303;1.000000
445648.79210098;5696559.96599968;469.87774994;144;141;90;34952.000000;1.000000;1.000000;1.000000;1.000000;-0.136000;0.136000;-0.136000;1.000000
445648.46010025;5696559.91499908;469.87614991;131;132;120;33410.000000;1.000000;1.000000;1.000000;1.000000;-0.134531;0.134531;-0.134531;1.000000
445648.38850220;5696559.87489899;469.87704994;154;152;137;38550.000000;1.000000;1.000000;1.000000;1.000000;-0.181515;0.181515;-0.181515;1.000000
445648.42740067;5696559.83869942;469.87374999;147;149;142;37779.000000;1.000000;1.000000;1.000000;1.000000;-0.137252;0.137252;-0.137252;1.000000
445648.79730042;5696559.89319809;469.87244989;142;140;94;34695.000000;1.000000;1.000000;1.000000;1.000000;-0.063198;0.063198;-0.063198;1.000000
445648.83480270;5696559.89439972;469.87185003;161;159;124;39835.000000;1.000000;1.000000;1.000000;1.000000;-0.065303;0.065303;-0.065303;1.000000
445648.71840103;5696559.76759918;469.85804989;109;101;75;25700.000000;1.000000;1.000000;1.000000;1.000000;0.062441;-0.062441;0.062441;1.000000
