//X;Y;Z;R;G;B;Intensity;Return Number;Number Of Returns;Scan Direction Flag;Point Source ID;C2M signed distances[-][<0.8];C2M signed distances[<0.4];C2M signed distances[-][<0.2];Stump77
445622.44220169;5696595.78799828;472.76545002;172;182;149;44975.000000;1.000000;1.000000;1.000000;1.000000;0.042002;-0.042002;0.042002;1.000000
445622.65210159;5696595.84369858;472.73595001;80;74;61;19018.000000;1.000000;1.000000;1.000000;1.000000;0.025225;-0.025225;0.025225;1.000000
445622.36810120;5696595.98129852;472.78765013;120;113;102;29041.000000;1.000000;1.000000;1.000000;1.000000;-0.151299;0.151299;-0.151299;1.000000
445622.51950081;5696595.95089920;472.78945019;91;77;65;20303.000000;1.000000;1.000000;1.000000;1.000000;-0.013626;0.013626;-0.013626;1.000000
445622.80280121;5696595.81390007;472.70044996;134;131;119;33410.000000;1.000000;1.000000;1.000000;1.000000;0.016100;-0.016100;0.016100;1.000000
445622.73180206;5696595.72719963;472.69624998;66;69;50;16962.000000;1.000000;1.000000;1.000000;1.000000;-0.102800;0.102800;-0.102800;1.000000
445622.39760216;5696595.97159966;472.78655006;118;109;94;28270.000000;1.000000;1.000000;1.000000;1.000000;-0.135525;0.135525;-0.135525;1.000000
445622.29730232;5696595.92259987;472.78375008;128;119;109;30840.000000;1.000000;1.000000;1.000000;1.000000;-0.094161;0.094161;-0.094161;1.000000
445622.47180183;5696595.93909843;472.78485014;123;109;95;28527.000000;1.000000;1.000000;1.000000;1.000000;-0.061325;0.061325;-0.061325;1.000000
445622.47260101;5696595.72489937;472.73805000;114;111;98;28270.000000;1.000000;1.000000;1.000000;1.000000;0.105101;-0.105101;0.105101;1.000000
445622.39050110;5696595.44299896;472.72865011;54;49;43;12593.000000;1.000000;1.000000;1.000000;1.000000;0.076124;-0.076124;0.076124;1.000000
445622.35270126;5696595.91509827;472.78385021;140;130;116;33667.000000;1.000000;1.000000;1.000000;1.000000;-0.085098;0.085098;-0.085098;1.000000
445622.24870117;5696595.54879959;472.77474977;77;81;69;20046.000000;1.000000;1.000000;1.000000;1.000000;-0.065676;0.065676;-0.065676;1.000000
445622.24190147;5696595.88319977;472.79015018;84;74;64;19275.000000;1.000000;1.000000;1.000000;1.000000;-0.089905;0.089905;-0.089905;1.000000
445622.33540161;5696595.69059952;472.75474979;43;40;34;10280.000000;1.000000;1.000000;1.000000;1.000000;0.021025;-0.021025;0.021025;1.000000
445622.70900162;5696595.39029892;472.71215012;205;207;191;52428.000000;1.000000;1.000000;1.000000;1.000000;0.060299;-0.060299;0.060299;1.000000
445622.42400177;5696595.53759964;472.75225021;141;133;92;33410.000000;1.000000;1.000000;1.000000;1.000000;0.109625;-0.109625;0.109625;1.000000
445622.46330078;5696595.92119987;472.78195002;131;118;104;30840.000000;1.000000;1.000000;1.000000;1.000000;-0.069826;0.069826;-0.069826;1.000000
445622.47340210;5696595.90399940;472.77985003;139;124;112;32639.000000;1.000000;1.000000;1.000000;1.000000;-0.059725;0.059725;-0.059725;1.000000
445622.50710114;5696595.80079849;472.75215008;126;122;104;31097.000000;1.000000;1.000000;1.000000;1.000000;0.029202;-0.029202;0.029202;1.000000
445622.51570137;5696595.79079826;472.74784996;112;108;91;27499.000000;1.000000;1.000000;1.000000;1.000000;0.039202;-0.039202;0.039202;1.000000
445622.29900177;5696595.65189941;472.75495007;71;67;55;16962.000000;1.000000;1.000000;1.000000;1.000000;-0.015375;0.015375;-0.015375;1.000000
445622.21570213;5696595.41649826;472.76704981;44;45;39;11308.000000;1.000000;1.000000;1.000000;1.000000;-0.093758;0.093758;-0.093758;1.000000
445622.74700172;5696595.84919937;472.71705009;110;105;94;26985.000000;1.000000;1.000000;1.000000;1.000000;0.019199;-0.019199;0.019199;1.000000
445622.36510094;5696595.86969955;472.77684977;145;134;120;34695.000000;1.000000;1.000000;1.000000;1.000000;-0.039700;0.039700;-0.039700;1.000000
445622.28110130;5696595.87500008;472.78475000;108;97;85;25186.000000;1.000000;1.000000;1.000000;1.000000;-0.055967;0.055967;-0.055967;1.000000
445622.21250160;5696595.51019867;472.77264978;92;92;82;23130.000000;1.000000;1.000000;1.000000;1.000000;-0.101875;0.101875;-0.101875;1.000000
445622.74350174;5696595.72609909;472.69444992;98;100;82;24929.000000;1.000000;1.000000;1.000000;1.000000;-0.103901;0.103901;-0.103901;1.000000
445622.70940216;5696595.42969902;472.73364975;138;150;101;36237.000000;1.000000;1.000000;1.000000;1.000000;0.099699;-0.099699;0.099699;1.000000
445622.30170067;5696595.79149826;472.77775003;105;96;81;24929.000000;1.000000;1.000000;1.000000;1.000000;0.040535;-0.040535;0.040535;1.000000
445622.52480133;5696595.38139923;472.73404982;108;108;100;27499.000000;1.000000;1.000000;1.000000;1.000000;0.051399;-0.051399;0.051399;1.000000
445622.77890213;5696595.72759827;472.68904974;148;147;132;37265.000000;1.000000;1.000000;1.000000;1.000000;-0.102402;0.102402;-0.102402;1.000000
445622.41690071;5696595.50799950;472.74464991;176;168;139;42919.000000;1.000000;1.000000;1.000000;1.000000;0.102524;-0.102524;0.102524;1.000000
445622.59770210;5696595.38629921;472.73504974;85;81;72;20817.000000;1.000000;1.000000;1.000000;1.000000;0.056337;-0.056337;0.056337;1.000000
445622.74490173;5696595.68869980;472.68935015;139;140;123;35209.000000;1.000000;1.000000;1.000000;1.000000;-0.141300;0.141300;-0.141300;1.000000
445622.78040131;5696595.69249924;472.68634989;109;107;90;26985.000000;1.000000;1.000000;1.000000;1.000000;-0.137501;0.137501;-0.137501;1.000000
445622.51260193;5696595.43899925;472.70855000;88;88;80;22359.000000;1.000000;1.000000;1.000000;1.000000;0.108999;-0.108999;0.108999;1.000000
445622.64560135;5696595.38690002;472.70924999;101;98;81;24929.000000;1.000000;1.000000;1.000000;1.000000;0.056900;-0.056900;0.056900;1.000000
445622.76710136;5696595.41069992;472.71035006;24;28;15;6425.000000;1.000000;1.000000;1.000000;1.000000;0.080700;-0.080700;0.080700;1.000000
445622.74380119;5696595.44749840;472.73304989;186;195;153;48059.000000;1.000000;1.000000;1.000000;1.000000;0.117498;-0.117498;0.117498;1.000000
445622.31300171;5696595.53129967;472.76585009;132;128;112;32639.000000;1.000000;1.000000;1.000000;1.000000;-0.001375;0.001375;-0.001375;1.000000
445622.75760086;5696595.38359840;472.70734980;92;95;84;23644.000000;1.000000;1.000000;1.000000;1.000000;0.053671;-0.053671;0.053671;1.000000
445622.77090080;5696595.45010002;472.70634987;54;57;38;13878.000000;1.000000;1.000000;1.000000;1.000000;0.120100;-0.120100;0.120100;1.000000
445622.77430161;5696595.41239937;472.70844986;24;26;16;6168.000000;1.000000;1.000000;1.000000;1.000000;0.082399;-0.082399;0.082399;1.000000
445622.28450211;5696595.78139885;472.77454998;99;91;78;23387.000000;1.000000;1.000000;1.000000;1.000000;0.057049;-0.057049;0.057049;1.000000
445622.25980194;5696595.66009911;472.76034977;29;26;21;6682.000000;1.000000;1.000000;1.000000;1.000000;-0.054575;0.054575;-0.054575;1.000000
445622.43440063;5696595.96359833;472.78345015;110;97;83;25443.000000;1.000000;1.000000;1.000000;1.000000;-0.098726;0.098726;-0.098726;1.000000
445622.43590172;5696595.92839821;472.78074982;127;116;101;30069.000000;1.000000;1.000000;1.000000;1.000000;-0.097225;0.097225;-0.097225;1.000000
445622.64360245;5696595.42419823;472.72825005;187;192;173;48316.000000;1.000000;1.000000;1.000000;1.000000;0.094198;-0.094198;0.094198;1.000000
445622.39840134;5696595.92719849;472.78134968;122;112;97;29041.000000;1.000000;1.000000;1.000000;1.000000;-0.097198;0.097198;-0.097198;1.000000
445622.33050163;5696595.54369934;472.76674988;136;126;98;32125.000000;1.000000;1.000000;1.000000;1.000000;0.016125;-0.016125;0.016125;1.000000
445622.71860130;5696595.42649849;472.72935011;122;127;81;30840.000000;1.000000;1.000000;1.000000;1.000000;0.096498;-0.096498;0.096498;1.000000
445622.33690079;5696595.40329941;472.74674990;19;20;21;4883.000000;1.000000;1.000000;1.000000;1.000000;0.022524;-0.022524;0.022524;1.000000
445622.43050201;5696595.44170006;472.72114994;64;61;49;15420.000000;1.000000;1.000000;1.000000;1.000000;0.111700;-0.111700;0.111700;1.000000
445622.30310066;5696595.55089958;472.76564981;74;65;49;16705.000000;1.000000;1.000000;1.000000;1.000000;-0.011276;0.011276;-0.011276;1.000000
445622.39830215;5696595.47949989;472.73644974;148;141;120;35980.000000;1.000000;1.000000;1.000000;1.000000;0.083925;-0.083925;0.083925;1.000000
445622.60740097;5696595.38550003;472.72615005;99;95;85;24415.000000;1.000000;1.000000;1.000000;1.000000;0.055500;-0.055500;0.055500;1.000000
445622.63900192;5696595.74029930;472.70855000;100;98;77;24672.000000;1.000000;1.000000;1.000000;1.000000;0.090516;-0.090516;0.090516;1.000000
445622.50860222;5696595.95899971;472.78905012;88;73;62;19532.000000;1.000000;1.000000;1.000000;1.000000;-0.024525;0.024525;-0.024525;1.000000
445622.65880211;5696595.75239952;472.70954992;93;90;73;22873.000000;1.000000;1.000000;1.000000;1.000000;0.083911;-0.083911;0.083911;1.000000
445622.82080086;5696595.89129837;472.72314980;103;98;84;24929.000000;1.000000;1.000000;1.000000;1.000000;-0.061298;0.061298;-0.061298;1.000000
445622.69980247;5696595.42819984;472.73554995;140;152;108;36751.000000;1.000000;1.000000;1.000000;1.000000;0.098200;-0.098200;0.098200;1.000000
445622.77650078;5696595.35629852;472.69854977;222;225;219;57311.000000;1.000000;1.000000;1.000000;1.000000;0.026299;-0.026299;0.026299;1.000000
445622.75660141;5696595.39989861;472.71215012;36;40;26;9509.000000;1.000000;1.000000;1.000000;1.000000;0.070001;-0.070001;0.070001;1.000000
445622.35130127;5696595.92459877;472.78385021;151;140;127;36237.000000;1.000000;1.000000;1.000000;1.000000;-0.094599;0.094599;-0.094599;1.000000
445622.57020195;5696595.85099991;472.75334980;104;96;85;24929.000000;1.000000;1.000000;1.000000;1.000000;-0.032976;0.032976;-0.032976;1.000000
445622.62180145;5696595.92799957;472.75425007;116;101;87;26471.000000;1.000000;1.000000;1.000000;1.000000;-0.005075;0.005075;-0.005075;1.000000
445622.30450066;5696595.94989975;472.78445007;91;82;72;21331.000000;1.000000;1.000000;1.000000;1.000000;-0.120306;0.120306;-0.120306;1.000000
445622.46400078;5696595.93049820;472.78434994;120;106;92;27756.000000;1.000000;1.000000;1.000000;1.000000;-0.069126;0.069126;-0.069126;1.000000
445622.33010109;5696595.58819969;472.76265003;134;124;94;31611.000000;1.000000;1.000000;1.000000;1.000000;0.015724;-0.015724;0.015724;1.000000
445622.68280228;5696595.38119896;472.70384981;210;210;196;53456.000000;1.000000;1.000000;1.000000;1.000000;0.051199;-0.051199;0.051199;1.000000
445622.23680122;5696595.79749878;472.77724983;97;92;81;23644.000000;1.000000;1.000000;1.000000;1.000000;0.084109;-0.084109;0.084109;1.000000
445622.32360085;5696595.49529846;472.76585009;73;68;58;17476.000000;1.000000;1.000000;1.000000;1.000000;0.009224;-0.009224;0.009224;1.000000
445622.32180222;5696595.95999916;472.78534986;111;102;91;26471.000000;1.000000;1.000000;1.000000;1.000000;-0.129999;0.129999;-0.129999;1.000000
445622.36080177;5696595.92609985;472.78205015;149;138;125;35723.000000;1.000000;1.000000;1.000000;1.000000;-0.096100;0.096100;-0.096100;1.000000
445622.26160248;5696595.67869957;472.75824978;40;37;31;9509.000000;1.000000;1.000000;1.000000;1.000000;-0.052774;0.052774;-0.052774;1.000000
445622.35340126;5696595.47879990;472.74604990;80;73;62;18761.000000;1.000000;1.000000;1.000000;1.000000;0.039024;-0.039024;0.039024;1.000000
445622.47340210;5696595.92959984;472.78244974;133;119;104;31097.000000;1.000000;1.000000;1.000000;1.000000;-0.059725;0.059725;-0.059725;1.000000
445622.28910072;5696595.88589867;472.78525021;114;101;91;26471.000000;1.000000;1.000000;1.000000;1.000000;-0.061348;0.061348;-0.061348;1.000000
445622.77270134;5696595.90509995;472.72814991;120;112;100;29041.000000;1.000000;1.000000;1.000000;1.000000;-0.064196;0.064196;-0.064196;1.000000
445622.36200150;5696595.88859947;472.78165009;126;116;102;30069.000000;1.000000;1.000000;1.000000;1.000000;-0.058599;0.058599;-0.058599;1.000000
445622.33110245;5696595.77489861;472.76485016;123;115;98;29555.000000;1.000000;1.000000;1.000000;1.000000;0.055101;-0.055101;0.055101;1.000000
445622.59230240;5696595.74899872;472.72515013;79;74;60;18761.000000;1.000000;1.000000;1.000000;1.000000;0.081069;-0.081069;0.081069;1.000000
445622.36880119;5696595.96259888;472.78515007;141;132;118;34181.000000;1.000000;1.000000;1.000000;1.000000;-0.132599;0.132599;-0.132599;1.000000
445622.44390114;5696595.96499832;472.78394987;130;118;103;30583.000000;1.000000;1.000000;1.000000;1.000000;-0.089226;0.089226;-0.089226;1.000000
445622.52030190;5696595.93219955;472.78464987;158;144;130;37522.000000;1.000000;1.000000;1.000000;1.000000;-0.012825;0.012825;-0.012825;1.000000
445622.82080086;5696595.83319862;472.70615007;135;131;121;33667.000000;1.000000;1.000000;1.000000;1.000000;-0.003199;0.003199;-0.003199;1.000000
445622.63910110;5696595.71459969;472.70354988;96;96;75;23901.000000;1.000000;1.000000;1.000000;1.000000;0.116046;-0.116046;0.116046;1.000000
445622.42490204;5696595.51889999;472.74515011;171;163;130;41377.000000;1.000000;1.000000;1.000000;1.000000;0.110525;-0.110525;0.110525;1.000000
445622.46630104;5696595.44559868;472.71114971;82;80;66;20303.000000;1.000000;1.000000;1.000000;1.000000;0.115599;-0.115599;0.115599;1.000000
445622.46770103;5696595.40809830;472.70615007;111;111;98;28013.000000;1.000000;1.000000;1.000000;1.000000;0.078098;-0.078098;0.078098;1.000000
445622.50280197;5696595.40949829;472.71005013;90;89;78;22616.000000;1.000000;1.000000;1.000000;1.000000;0.079504;-0.079504;0.079504;1.000000
445622.69570168;5696595.93989952;472.74604990;98;79;63;21074.000000;1.000000;1.000000;1.000000;1.000000;0.061723;-0.061723;0.061723;1.000000
445622.73930176;5696595.78249939;472.69724991;97;94;82;23901.000000;1.000000;1.000000;1.000000;1.000000;-0.047501;0.047501;-0.047501;1.000000
445622.78400238;5696595.41159828;472.69955017;22;23;19;5654.000000;1.000000;1.000000;1.000000;1.000000;0.081603;-0.081603;0.081603;1.000000
445622.28150185;5696595.64180000;472.75874998;37;33;22;8224.000000;1.000000;1.000000;1.000000;1.000000;-0.032875;0.032875;-0.032875;1.000000
445622.77910240;5696595.75560005;472.69175007;107;105;91;26728.000000;1.000000;1.000000;1.000000;1.000000;-0.074400;0.074400;-0.074400;1.000000
445622.26670082;5696595.76219948;472.76644995;98;92;80;23644.000000;1.000000;1.000000;1.000000;1.000000;-0.082441;0.082441;-0.082441;1.000000
445622.78850182;5696595.75700005;472.69215014;107;104;91;26471.000000;1.000000;1.000000;1.000000;1.000000;0.073000;-0.073000;0.073000;1.000000
445622.23480232;5696595.62259872;472.77035000;37;40;25;9509.000000;1.000000;1.000000;1.000000;1.000000;-0.079575;0.079575;-0.079575;1.000000
445622.77110107;5696595.94469841;472.74254992;118;104;93;27242.000000;1.000000;1.000000;1.000000;1.000000;-0.028357;0.028357;-0.028357;1.000000
445622.58770187;5696595.88909920;472.75455000;70;61;48;15934.000000;1.000000;1.000000;1.000000;1.000000;-0.039175;0.039175;-0.039175;1.000000
445622.77820213;5696595.34909828;472.69854977;210;212;207;53970.000000;1.000000;1.000000;1.000000;1.000000;0.019098;-0.019098;0.019098;1.000000
445622.73590096;5696595.85719879;472.71894981;95;89;78;22873.000000;1.000000;1.000000;1.000000;1.000000;0.027199;-0.027199;0.027199;1.000000
445622.47880180;5696595.77309998;472.75295021;114;114;94;28527.000000;1.000000;1.000000;1.000000;1.000000;0.056900;-0.056900;0.056900;1.000000
445622.47400101;5696595.91089828;472.78224995;134;120;108;31354.000000;1.000000;1.000000;1.000000;1.000000;-0.059126;0.059126;-0.059126;1.000000
445622.51660164;5696595.79999931;472.74795010;124;120;103;30583.000000;1.000000;1.000000;1.000000;1.000000;0.030001;-0.030001;0.030001;1.000000
445622.67490204;5696595.37029846;472.70104982;104;100;88;25443.000000;1.000000;1.000000;1.000000;1.000000;0.040298;-0.040298;0.040298;1.000000
445622.38690193;5696595.76750000;472.75565006;65;62;42;15420.000000;1.000000;1.000000;1.000000;1.000000;0.062500;-0.062500;0.062500;1.000000
445622.38820084;5696595.73009880;472.75295021;56;52;41;13107.000000;1.000000;1.000000;1.000000;1.000000;0.081887;-0.081887;0.081887;1.000000
445622.35620125;5696595.40399940;472.73595001;18;17;17;4369.000000;1.000000;1.000000;1.000000;1.000000;0.041824;-0.041824;0.041824;1.000000
445622.27970131;5696595.88449867;472.78485014;104;93;81;24158.000000;1.000000;1.000000;1.000000;1.000000;-0.064595;0.064595;-0.064595;1.000000
445622.36950119;5696595.72949989;472.75215008;67;64;54;16191.000000;1.000000;1.000000;1.000000;1.000000;0.065217;-0.065217;0.065217;1.000000
445622.71010216;5696595.37169846;472.70034983;222;222;211;56540.000000;1.000000;1.000000;1.000000;1.000000;0.041698;-0.041698;0.041698;1.000000
445622.51410110;5696595.42949875;472.70844986;107;106;98;26985.000000;1.000000;1.000000;1.000000;1.000000;0.099499;-0.099499;0.099499;1.000000
445622.66290100;5696595.39699944;472.71014978;205;206;191;52428.000000;1.000000;1.000000;1.000000;1.000000;0.067104;-0.067104;0.067104;1.000000
445622.77360161;5696595.40309914;472.70594980;21;22;14;5140.000000;1.000000;1.000000;1.000000;1.000000;0.073099;-0.073099;0.073099;1.000000
445622.62800224;5696595.77849968;472.72015001;111;107;90;27242.000000;1.000000;1.000000;1.000000;1.000000;0.051513;-0.051513;0.051513;1.000000
445622.78510101;5696595.37409981;472.70144989;68;73;68;17990.000000;1.000000;1.000000;1.000000;1.000000;0.044144;-0.044144;0.044144;1.000000
445622.58740242;5696595.85879906;472.74954988;83;76;65;19532.000000;1.000000;1.000000;1.000000;1.000000;-0.029950;0.029950;-0.029950;1.000000
445622.73840149;5696595.82909973;472.70944979;129;125;112;31868.000000;1.000000;1.000000;1.000000;1.000000;-0.000900;0.000900;-0.000900;1.000000
445622.40710075;5696595.73069962;472.75145008;80;77;62;19532.000000;1.000000;1.000000;1.000000;1.000000;0.099306;-0.099306;0.099306;1.000000
445622.35260208;5696595.88709839;472.78114988;138;127;114;32896.000000;1.000000;1.000000;1.000000;1.000000;-0.057098;0.057098;-0.057098;1.000000
445622.52200134;5696595.89489944;472.77264978;111;100;87;25957.000000;1.000000;1.000000;1.000000;1.000000;-0.011126;0.011126;-0.011126;1.000000
445622.21290215;5696595.46119888;472.76515009;37;38;38;9509.000000;1.000000;1.000000;1.000000;1.000000;-0.101475;0.101475;-0.101475;1.000000
445622.48120125;5696595.74499901;472.74335005;131;128;116;32639.000000;1.000000;1.000000;1.000000;1.000000;0.085001;-0.085001;0.085001;1.000000
445622.65630157;5696595.80619820;472.71945002;111;107;91;27242.000000;1.000000;1.000000;1.000000;1.000000;0.037846;-0.037846;0.037846;1.000000
445622.44920166;5696595.81749924;472.77535011;120;129;100;31611.000000;1.000000;1.000000;1.000000;1.000000;0.012501;-0.012501;0.012501;1.000000
445622.78710182;5696595.79439934;472.69724991;88;84;72;21331.000000;1.000000;1.000000;1.000000;1.000000;0.035601;-0.035601;0.035601;1.000000
445622.49210175;5696595.70679863;472.73404982;70;66;53;16705.000000;1.000000;1.000000;1.000000;1.000000;0.123201;-0.123201;0.123201;1.000000
445622.75090225;5696595.75579842;472.69514992;74;71;58;17990.000000;1.000000;1.000000;1.000000;1.000000;-0.074202;0.074202;-0.074202;1.000000
445622.42140205;5696595.59359940;472.77145006;132;124;87;31354.000000;1.000000;1.000000;1.000000;1.000000;0.107025;-0.107025;0.107025;1.000000
445622.33270081;5696595.73749931;472.75525000;72;66;54;16962.000000;1.000000;1.000000;1.000000;1.000000;0.046544;-0.046544;0.046544;1.000000
445622.62000092;5696595.76750000;472.71964981;130;126;111;32125.000000;1.000000;1.000000;1.000000;1.000000;0.062521;-0.062521;0.062521;1.000000
445622.41080101;5696595.62959869;472.77145006;99;94;59;23387.000000;1.000000;1.000000;1.000000;1.000000;0.096424;-0.096424;0.096424;1.000000
445622.26760109;5696595.54939850;472.77334978;37;37;27;8995.000000;1.000000;1.000000;1.000000;1.000000;-0.046776;0.046776;-0.046776;1.000000
445622.61720093;5696595.41499908;472.72464993;178;178;170;45489.000000;1.000000;1.000000;1.000000;1.000000;0.084999;-0.084999;0.084999;1.000000
445622.68980225;5696595.41759880;472.72795012;149;157;122;38550.000000;1.000000;1.000000;1.000000;1.000000;0.087600;-0.087600;0.087600;1.000000
445622.50560196;5696595.37389954;472.72844984;69;69;60;17476.000000;1.000000;1.000000;1.000000;1.000000;0.044057;-0.044057;0.044057;1.000000
445622.58350189;5696595.72879990;472.72214987;111;106;91;26985.000000;1.000000;1.000000;1.000000;1.000000;0.101924;-0.101924;0.101924;1.000000
445622.72730072;5696595.41879852;472.72734978;108;114;72;27499.000000;1.000000;1.000000;1.000000;1.000000;0.088817;-0.088817;0.088817;1.000000
445622.68610199;5696595.93849953;472.74795010;95;76;61;20560.000000;1.000000;1.000000;1.000000;1.000000;0.059225;-0.059225;0.059225;1.000000
445622.80890091;5696595.66659935;472.67574980;135;130;115;33153.000000;1.000000;1.000000;1.000000;1.000000;-0.163401;0.163401;-0.163401;1.000000
445622.41710098;5696595.48009880;472.73495008;111;105;85;26728.000000;1.000000;1.000000;1.000000;1.000000;0.102724;-0.102724;0.102724;1.000000
445622.41230209;5696595.42239960;472.72015001;68;64;56;16448.000000;1.000000;1.000000;1.000000;1.000000;0.092400;-0.092400;0.092400;1.000000
445622.44800194;5696595.42619904;472.71474983;107;106;97;26985.000000;1.000000;1.000000;1.000000;1.000000;0.096199;-0.096199;0.096199;1.000000
445622.61560066;5696595.45239838;472.73434975;82;89;76;21845.000000;1.000000;1.000000;1.000000;1.000000;0.122398;-0.122398;0.122398;1.000000
445622.65070160;5696595.45369919;472.73595001;70;79;51;18761.000000;1.000000;1.000000;1.000000;1.000000;0.123699;-0.123699;0.123699;1.000000
445622.37070091;5696595.69429977;472.75645020;46;45;39;11308.000000;1.000000;1.000000;1.000000;1.000000;0.056324;-0.056324;0.056324;1.000000
445622.50480087;5696595.85689934;472.76445009;86;77;66;20046.000000;1.000000;1.000000;1.000000;1.000000;-0.026899;0.026899;-0.026899;1.000000
445622.34520157;5696595.46789940;472.74795010;41;36;32;9509.000000;1.000000;1.000000;1.000000;1.000000;0.030825;-0.030825;0.030825;1.000000
445622.29020126;5696595.63399895;472.75675013;75;72;56;18247.000000;1.000000;1.000000;1.000000;1.000000;-0.024176;0.024176;-0.024176;1.000000
445622.26100166;5696595.44520004;472.75544979;34;36;36;8995.000000;1.000000;1.000000;1.000000;1.000000;-0.053375;0.053375;-0.053375;1.000000
445622.83840187;5696595.90829857;472.73115017;118;113;98;28784.000000;1.000000;1.000000;1.000000;1.000000;-0.078309;0.078309;-0.078309;1.000000
445622.42660149;5696595.95500000;472.78305008;81;69;54;17990.000000;1.000000;1.000000;1.000000;1.000000;-0.106525;0.106525;-0.106525;1.000000
445622.37980087;5696595.51589973;472.75465014;148;140;100;35466.000000;1.000000;1.000000;1.000000;1.000000;0.065424;-0.065424;0.065424;1.000000
445622.66680153;5696595.78899963;472.71035006;129;124;109;31611.000000;1.000000;1.000000;1.000000;1.000000;0.057228;-0.057228;0.057228;1.000000
445622.30580147;5696595.47599991;472.75785019;39;40;37;10023.000000;1.000000;1.000000;1.000000;1.000000;-0.008575;0.008575;-0.008575;1.000000
445622.52520187;5696595.40259941;472.71794989;96;94;83;23901.000000;1.000000;1.000000;1.000000;1.000000;0.072599;-0.072599;0.072599;1.000000
445622.41660126;5696595.76009949;472.75694992;134;135;111;33924.000000;1.000000;1.000000;1.000000;1.000000;0.069901;-0.069901;0.069901;1.000000
445622.33520134;5696595.64369972;472.76585009;113;108;87;27499.000000;1.000000;1.000000;1.000000;1.000000;0.020824;-0.020824;0.020824;1.000000
445622.49070175;5696595.96759995;472.78835012;103;90;78;23644.000000;1.000000;1.000000;1.000000;1.000000;-0.042425;0.042425;-0.042425;1.000000
445622.36650093;5696595.60799988;472.77384998;102;92;55;23130.000000;1.000000;1.000000;1.000000;1.000000;0.052124;-0.052124;0.052124;1.000000
445622.64130219;5696595.93779953;472.75525000;120;103;88;27242.000000;1.000000;1.000000;1.000000;1.000000;0.014425;-0.014425;0.014425;1.000000
445622.60510071;5696595.89919861;472.75315001;116;106;94;27499.000000;1.000000;1.000000;1.000000;1.000000;-0.021776;0.021776;-0.021776;1.000000
445622.39020164;5696595.70189865;472.75505020;58;58;50;14649.000000;1.000000;1.000000;1.000000;1.000000;0.076165;-0.076165;0.076165;1.000000
445622.35270126;5696595.70069893;472.75334980;32;30;23;7453.000000;1.000000;1.000000;1.000000;1.000000;0.038796;-0.038796;0.038796;1.000000
445622.48750122;5696595.39909943;472.71624996;85;85;78;21588.000000;1.000000;1.000000;1.000000;1.000000;0.069099;-0.069099;0.069099;1.000000
445622.46180161;5696595.95639999;472.78464987;135;122;109;31868.000000;1.000000;1.000000;1.000000;1.000000;-0.071325;0.071325;-0.071325;1.000000
445622.62590225;5696595.40489967;472.71794989;159;159;147;40349.000000;1.000000;1.000000;1.000000;1.000000;0.074900;-0.074900;0.074900;1.000000
445622.53930099;5696595.90499886;472.77355005;107;96;82;24929.000000;1.000000;1.000000;1.000000;1.000000;0.006174;-0.006174;0.006174;1.000000
445622.43020065;5696595.86369904;472.77274992;42;33;22;8738.000000;1.000000;1.000000;1.000000;1.000000;-0.033699;0.033699;-0.033699;1.000000
445622.39250191;5696595.86019905;472.77334978;113;104;91;26985.000000;1.000000;1.000000;1.000000;1.000000;-0.030199;0.030199;-0.030199;1.000000
445622.63550194;5696595.40639885;472.71604969;177;178;164;45232.000000;1.000000;1.000000;1.000000;1.000000;0.076399;-0.076399;0.076399;1.000000
445622.28950127;5696595.62479980;472.75425007;99;96;78;24158.000000;1.000000;1.000000;1.000000;1.000000;-0.024876;0.024876;-0.024876;1.000000
445622.49370201;5696595.89279945;472.77364971;144;130;118;33924.000000;1.000000;1.000000;1.000000;1.000000;-0.039425;0.039425;-0.039425;1.000000
445622.55830200;5696595.87769897;472.76244976;107;99;87;25700.000000;1.000000;1.000000;1.000000;1.000000;0.025175;-0.025175;0.025175;1.000000
445622.46560104;5696595.86509903;472.76975014;65;53;44;14135.000000;1.000000;1.000000;1.000000;1.000000;-0.035264;0.035264;-0.035264;1.000000
445622.71000107;5696595.40639885;472.72174980;125;130;100;32125.000000;1.000000;1.000000;1.000000;1.000000;0.076399;-0.076399;0.076399;1.000000
445622.69020088;5696595.87529953;472.73344995;102;95;83;24415.000000;1.000000;1.000000;1.000000;1.000000;-0.054569;0.054569;-0.054569;1.000000
445622.57980164;5696595.79439934;472.73444988;93;88;74;22359.000000;1.000000;1.000000;1.000000;1.000000;0.038960;-0.038960;0.038960;1.000000
445622.57510193;5696595.71099861;472.71694996;122;118;103;30069.000000;1.000000;1.000000;1.000000;1.000000;0.120758;-0.120758;0.120758;1.000000
445622.73130234;5696595.79949959;472.70174982;128;123;111;31611.000000;1.000000;1.000000;1.000000;1.000000;-0.030500;0.030500;-0.030500;1.000000
445622.69520195;5696595.76319893;472.70204975;58;55;42;13878.000000;1.000000;1.000000;1.000000;1.000000;0.071476;-0.071476;0.071476;1.000000
445622.30920227;5696595.58779915;472.75934984;129;121;96;30840.000000;1.000000;1.000000;1.000000;1.000000;-0.005175;0.005175;-0.005175;1.000000
445622.37030228;5696595.51449974;472.75654985;131;124;85;31097.000000;1.000000;1.000000;1.000000;1.000000;0.055925;-0.055925;0.055925;1.000000
445622.62450226;5696595.68329819;472.70254995;105;102;82;25700.000000;1.000000;1.000000;1.000000;1.000000;-0.146721;0.146721;-0.146721;1.000000
445622.34830101;5696595.81289871;472.77314999;123;116;101;29812.000000;1.000000;1.000000;1.000000;1.000000;0.017101;-0.017101;0.017101;1.000000
445622.64360245;5696595.45209892;472.73554995;75;83;61;20046.000000;1.000000;1.000000;1.000000;1.000000;0.122099;-0.122099;0.122099;1.000000
445622.56980141;5696595.41219910;472.73404982;85;84;77;21331.000000;1.000000;1.000000;1.000000;1.000000;0.082256;-0.082256;0.082256;1.000000
445622.68280228;5696595.42049988;472.73234989;188;200;165;49344.000000;1.000000;1.000000;1.000000;1.000000;0.090500;-0.090500;0.090500;1.000000
445622.79200180;5696595.42029961;472.69535019;26;26;20;6425.000000;1.000000;1.000000;1.000000;1.000000;0.090300;-0.090300;0.090300;1.000000
445622.79550179;5696595.38480003;472.69974997;15;18;16;4112.000000;1.000000;1.000000;1.000000;1.000000;0.054800;-0.054800;0.054800;1.000000
445622.61510094;5696595.87959869;472.74865009;120;112;98;28784.000000;1.000000;1.000000;1.000000;1.000000;-0.011776;0.011776;-0.011776;1.000000
445622.42090233;5696595.81549843;472.77644970;91;102;71;24415.000000;1.000000;1.000000;1.000000;1.000000;0.014502;-0.014502;0.014502;1.000000
445622.67270096;5696595.40529831;472.71775009;195;200;177;50115.000000;1.000000;1.000000;1.000000;1.000000;0.075298;-0.075298;0.075298;1.000000
445622.33880241;5696595.60599907;472.76324989;152;143;113;36494.000000;1.000000;1.000000;1.000000;1.000000;0.024426;-0.024426;0.024426;1.000000
445622.62170227;5696595.95589836;472.76154997;123;103;86;27499.000000;1.000000;1.000000;1.000000;1.000000;-0.005175;0.005175;-0.005175;1.000000
445622.47580154;5696595.87360008;472.76795008;119;106;96;27756.000000;1.000000;1.000000;1.000000;1.000000;-0.043600;0.043600;-0.043600;1.000000
445622.51100166;5696595.87500008;472.76725008;87;76;64;19789.000000;1.000000;1.000000;1.000000;1.000000;-0.022125;0.022125;-0.022125;1.000000
445622.73590096;5696595.88519867;472.72625019;86;77;68;20046.000000;1.000000;1.000000;1.000000;1.000000;0.055199;-0.055199;0.055199;1.000000
445622.69960220;5696595.84649857;472.72415020;95;89;76;22873.000000;1.000000;1.000000;1.000000;1.000000;-0.026725;0.026725;-0.026725;1.000000
445622.43220146;5696595.77959831;472.76254990;160;170;138;41891.000000;1.000000;1.000000;1.000000;1.000000;0.050418;-0.050418;0.050418;1.000000
445622.74560173;5696595.41019829;472.71875002;56;61;34;14392.000000;1.000000;1.000000;1.000000;1.000000;0.080198;-0.080198;0.080198;1.000000
445622.50470169;5696595.42809875;472.70575001;79;78;70;19789.000000;1.000000;1.000000;1.000000;1.000000;0.098139;-0.098139;0.098139;1.000000
445622.46810158;5696595.38929947;472.71054985;74;73;64;18504.000000;1.000000;1.000000;1.000000;1.000000;0.059299;-0.059299;0.059299;1.000000
445622.59170158;5696595.76769836;472.72534992;115;111;98;28270.000000;1.000000;1.000000;1.000000;1.000000;0.062425;-0.062425;0.062425;1.000000
445622.43230064;5696595.63009842;472.76074984;84;79;49;19789.000000;1.000000;1.000000;1.000000;1.000000;0.117924;-0.117924;0.117924;1.000000
445622.45850189;5696595.81670006;472.77344992;124;129;103;31868.000000;1.000000;1.000000;1.000000;1.000000;0.013300;-0.013300;0.013300;1.000000
445622.57940109;5696595.39479836;472.74364998;178;177;168;45232.000000;1.000000;1.000000;1.000000;1.000000;0.064798;-0.064798;0.064798;1.000000
445622.39350136;5696595.42399986;472.72625019;40;37;34;9509.000000;1.000000;1.000000;1.000000;1.000000;0.079124;-0.079124;0.079124;1.000000
445622.45470245;5696595.92899902;472.78165009;121;108;94;28270.000000;1.000000;1.000000;1.000000;1.000000;-0.078424;0.078424;-0.078424;1.000000
445622.70080193;5696595.40729912;472.72135021;154;159;131;39578.000000;1.000000;1.000000;1.000000;1.000000;0.077299;-0.077299;0.077299;1.000000
445622.69090088;5696595.39669998;472.71145012;226;227;213;57825.000000;1.000000;1.000000;1.000000;1.000000;0.066717;-0.066717;0.066717;1.000000
445622.34090240;5696595.53329857;472.77174999;172;164;134;41891.000000;1.000000;1.000000;1.000000;1.000000;0.026525;-0.026525;0.026525;1.000000
445622.76630219;5696595.40139969;472.70795013;27;29;20;6939.000000;1.000000;1.000000;1.000000;1.000000;0.071400;-0.071400;0.071400;1.000000
445622.37170227;5696595.68239983;472.76095011;83;82;72;20817.000000;1.000000;1.000000;1.000000;1.000000;0.057325;-0.057325;0.057325;1.000000
445622.48650177;5696595.38979919;472.71845009;90;90;80;22616.000000;1.000000;1.000000;1.000000;1.000000;0.059799;-0.059799;0.059799;1.000000
445622.70960243;5696595.39949997;472.71694996;149;154;130;38293.000000;1.000000;1.000000;1.000000;1.000000;0.069500;-0.069500;0.069500;1.000000
445622.81360062;5696595.77569969;472.69355013;135;131;120;33410.000000;1.000000;1.000000;1.000000;1.000000;-0.054300;0.054300;-0.054300;1.000000
445622.41270073;5696595.64819916;472.76704981;129;125;95;31354.000000;1.000000;1.000000;1.000000;1.000000;0.098324;-0.098324;0.098324;1.000000
445622.63200195;5696595.45319946;472.73504974;82;89;73;21845.000000;1.000000;1.000000;1.000000;1.000000;0.123245;-0.123245;0.123245;1.000000
445622.67240150;5696595.40069969;472.71534969;212;218;195;54741.000000;1.000000;1.000000;1.000000;1.000000;0.070700;-0.070700;0.070700;1.000000
445622.27240189;5696595.59589966;472.76244976;96;94;76;23644.000000;1.000000;1.000000;1.000000;1.000000;-0.041975;0.041975;-0.041975;1.000000
445622.64060219;5696595.92859848;472.75274994;120;105;91;27499.000000;1.000000;1.000000;1.000000;1.000000;0.013725;-0.013725;0.013725;1.000000
445622.74720200;5696595.40069969;472.71635010;59;64;41;15163.000000;1.000000;1.000000;1.000000;1.000000;0.070700;-0.070700;0.070700;1.000000
445622.33510216;5696595.45949944;472.74734976;34;31;29;7967.000000;1.000000;1.000000;1.000000;1.000000;0.020725;-0.020725;0.020725;1.000000
445622.40670212;5696595.52749832;472.75374987;181;172;132;43690.000000;1.000000;1.000000;1.000000;1.000000;0.092325;-0.092325;0.092325;1.000000
445622.25160225;5696595.91039856;472.78625013;77;69;59;17990.000000;1.000000;1.000000;1.000000;1.000000;-0.102003;0.102003;-0.102003;1.000000
445622.66380127;5696595.37829979;472.70305016;111;108;95;27499.000000;1.000000;1.000000;1.000000;1.000000;0.048384;-0.048384;0.048384;1.000000
445622.66350182;5696595.40609940;472.71724989;199;202;183;51143.000000;1.000000;1.000000;1.000000;1.000000;0.076164;-0.076164;0.076164;1.000000
445622.67830093;5696595.90189941;472.74244978;77;66;55;17476.000000;1.000000;1.000000;1.000000;1.000000;0.051424;-0.051424;0.051424;1.000000
445622.63760193;5696595.77989967;472.71824982;99;94;78;23901.000000;1.000000;1.000000;1.000000;1.000000;0.051235;-0.051235;0.051235;1.000000
445622.79720123;5696595.77489861;472.69275000;137;135;123;34438.000000;1.000000;1.000000;1.000000;1.000000;0.055101;-0.055101;0.055101;1.000000
445622.28560074;5696595.73489960;472.75775005;73;69;57;17476.000000;1.000000;1.000000;1.000000;1.000000;-0.049386;0.049386;-0.049386;1.000000
445622.32350166;5696595.73839958;472.75474979;56;49;38;12593.000000;1.000000;1.000000;1.000000;1.000000;0.044638;-0.044638;0.044638;1.000000
445622.56050117;5696595.84949883;472.75754978;110;102;90;26471.000000;1.000000;1.000000;1.000000;1.000000;0.027374;-0.027374;0.027374;1.000000
445622.60420235;5696595.88989838;472.75295021;124;115;102;29812.000000;1.000000;1.000000;1.000000;1.000000;-0.022675;0.022675;-0.022675;1.000000
445622.72470100;5696595.94899948;472.74515011;98;79;64;21331.000000;1.000000;1.000000;1.000000;1.000000;0.031790;-0.031790;0.031790;1.000000
445622.35850151;5696595.57139977;472.77304985;89;75;37;19275.000000;1.000000;1.000000;1.000000;1.000000;0.044125;-0.044125;0.044125;1.000000
445622.24550064;5696595.81759842;472.78244974;108;102;92;26214.000000;1.000000;1.000000;1.000000;1.000000;0.069984;-0.069984;0.069984;1.000000
445622.82610138;5696595.75819977;472.69154980;141;138;126;35209.000000;1.000000;1.000000;1.000000;1.000000;0.071800;-0.071800;0.071800;1.000000
445622.25710114;5696595.96829994;472.78485014;58;53;47;13621.000000;1.000000;1.000000;1.000000;1.000000;-0.149691;0.149691;-0.149691;1.000000
445622.37900169;5696595.73099907;472.75255014;62;59;48;14906.000000;1.000000;1.000000;1.000000;1.000000;0.074142;-0.074142;0.074142;1.000000
445622.40980156;5696595.89819916;472.77924969;159;149;135;38550.000000;1.000000;1.000000;1.000000;1.000000;-0.068199;0.068199;-0.068199;1.000000
445622.58680161;5696595.90549858;472.75705006;82;70;58;18504.000000;1.000000;1.000000;1.000000;1.000000;-0.040075;0.040075;-0.040075;1.000000
445622.48270233;5696595.90309914;472.78025009;137;122;110;32125.000000;1.000000;1.000000;1.000000;1.000000;-0.050425;0.050425;-0.050425;1.000000
445622.73610123;5696595.40869911;472.71824982;61;67;36;15677.000000;1.000000;1.000000;1.000000;1.000000;0.078699;-0.078699;0.078699;1.000000
445622.22190102;5696595.48139961;472.76345016;42;42;39;10537.000000;1.000000;1.000000;1.000000;1.000000;-0.092476;0.092476;-0.092476;1.000000
445622.30170067;5696595.81939896;472.78275015;38;30;21;7967.000000;1.000000;1.000000;1.000000;1.000000;0.016525;-0.016525;0.016525;1.000000
445622.42580231;5696595.94569977;472.78284981;85;73;58;19018.000000;1.000000;1.000000;1.000000;1.000000;-0.107325;0.107325;-0.107325;1.000000
445622.62250145;5696595.90929993;472.75175001;101;89;77;23387.000000;1.000000;1.000000;1.000000;1.000000;-0.004375;0.004375;-0.004375;1.000000
445622.51410110;5696595.82809837;472.75745012;158;153;138;39064.000000;1.000000;1.000000;1.000000;1.000000;0.001902;-0.001902;0.001902;1.000000
445622.52420242;5696595.83879860;472.76275017;142;135;122;34695.000000;1.000000;1.000000;1.000000;1.000000;-0.008799;0.008799;-0.008799;1.000000
445622.74550064;5696595.88659866;472.72434999;88;80;71;20817.000000;1.000000;1.000000;1.000000;1.000000;0.056599;-0.056599;0.056599;1.000000
445622.53850182;5696595.95159920;472.78335001;142;129;115;33667.000000;1.000000;1.000000;1.000000;1.000000;0.005375;-0.005375;0.005375;1.000000
445622.30210121;5696595.58619888;472.75664999;131;125;102;31868.000000;1.000000;1.000000;1.000000;1.000000;-0.012276;0.012276;-0.012276;1.000000
445622.38950165;5696595.90709885;472.78074982;121;112;98;29041.000000;1.000000;1.000000;1.000000;1.000000;-0.077099;0.077099;-0.077099;1.000000
445622.35410126;5696595.69119843;472.75565006;46;43;36;11051.000000;1.000000;1.000000;1.000000;1.000000;0.039724;-0.039724;0.039724;1.000000
445622.55200203;5696595.83169945;472.75455000;73;66;52;16962.000000;1.000000;1.000000;1.000000;1.000000;0.018875;-0.018875;0.018875;1.000000
445622.33980186;5696595.76489838;472.75815012;106;98;81;25186.000000;1.000000;1.000000;1.000000;1.000000;0.065155;-0.065155;0.065155;1.000000
445622.52360161;5696595.40979965;472.71565010;117;115;105;29298.000000;1.000000;1.000000;1.000000;1.000000;0.079800;-0.079800;0.079800;1.000000
445622.63370140;5696595.41359909;472.71834995;208;210;196;53199.000000;1.000000;1.000000;1.000000;1.000000;0.083616;-0.083616;0.083616;1.000000
445622.74650200;5696595.41939934;472.71884968;81;87;55;20817.000000;1.000000;1.000000;1.000000;1.000000;0.089399;-0.089399;0.089399;1.000000
445622.41170128;5696595.41539963;472.72004988;68;64;58;16448.000000;1.000000;1.000000;1.000000;1.000000;0.085400;-0.085400;0.085400;1.000000
445622.26850136;5696595.47489937;472.75385000;33;34;34;8481.000000;1.000000;1.000000;1.000000;1.000000;-0.045876;0.045876;-0.045876;1.000000
445622.81030090;5696595.87829979;472.72025015;107;102;89;26214.000000;1.000000;1.000000;1.000000;1.000000;0.048300;-0.048300;0.048300;1.000000
445622.40740211;5696595.53669937;472.75614979;162;152;107;38550.000000;1.000000;1.000000;1.000000;1.000000;0.093025;-0.093025;0.093025;1.000000
445622.76170166;5696595.94319923;472.74214985;119;104;92;27499.000000;1.000000;1.000000;1.000000;1.000000;-0.024417;0.024417;-0.024417;1.000000
445622.34360130;5696595.47729881;472.75255014;62;55;48;14392.000000;1.000000;1.000000;1.000000;1.000000;0.029224;-0.029224;0.029224;1.000000
445622.50230225;5696595.91289909;472.78125002;145;132;119;34438.000000;1.000000;1.000000;1.000000;1.000000;-0.030825;0.030825;-0.030825;1.000000
445622.65950211;5696595.73369987;472.70704987;74;75;56;18504.000000;1.000000;1.000000;1.000000;1.000000;0.101677;-0.101677;0.101677;1.000000
445622.31070145;5696595.40089996;472.75255014;12;13;16;3341.000000;1.000000;1.000000;1.000000;1.000000;-0.003675;0.003675;-0.003675;1.000000
445622.43800171;5696595.68579872;472.75005009;47;43;32;10794.000000;1.000000;1.000000;1.000000;1.000000;0.123625;-0.123625;0.123625;1.000000
445622.78240211;5696595.87859924;472.71894981;95;88;77;22616.000000;1.000000;1.000000;1.000000;1.000000;0.048599;-0.048599;0.048599;1.000000
445622.33170135;5696595.53189857;472.76664974;168;161;136;41120.000000;1.000000;1.000000;1.000000;1.000000;0.017324;-0.017324;0.017324;1.000000
445622.69480141;5696595.73519905;472.70394995;80;84;66;20560.000000;1.000000;1.000000;1.000000;1.000000;0.098256;-0.098256;0.098256;1.000000
445622.48000153;5696595.78919991;472.75785019;129;130;108;32639.000000;1.000000;1.000000;1.000000;1.000000;0.040800;-0.040800;0.040800;1.000000
445622.37590225;5696595.38589867;472.72734978;25;24;24;6168.000000;1.000000;1.000000;1.000000;1.000000;0.055899;-0.055899;0.055899;1.000000
445622.50940140;5696595.96819885;472.78924992;94;80;69;21074.000000;1.000000;1.000000;1.000000;1.000000;-0.023726;0.023726;-0.023726;1.000000
445622.36900146;5696595.77619942;472.75734999;92;87;67;22102.000000;1.000000;1.000000;1.000000;1.000000;0.053804;-0.053804;0.053804;1.000000
445622.78200157;5696595.68299873;472.68405010;125;122;104;30840.000000;1.000000;1.000000;1.000000;1.000000;-0.147001;0.147001;-0.147001;1.000000
445622.46790131;5696595.43610008;472.70884993;79;79;64;19789.000000;1.000000;1.000000;1.000000;1.000000;0.106100;-0.106100;0.106100;1.000000
445622.65420158;5696595.40479858;472.71224977;227;228;214;58082.000000;1.000000;1.000000;1.000000;1.000000;0.074799;-0.074799;0.074799;1.000000
445622.73670204;5696595.83849915;472.71414997;129;125;112;31868.000000;1.000000;1.000000;1.000000;1.000000;0.008499;-0.008499;0.008499;1.000000
445622.57760246;5696595.44199951;472.72545006;213;215;209;54741.000000;1.000000;1.000000;1.000000;1.000000;0.112000;-0.112000;0.112000;1.000000
445622.29740150;5696595.70819862;472.75094988;52;48;40;12336.000000;1.000000;1.000000;1.000000;1.000000;-0.021737;0.021737;-0.021737;1.000000
445622.22080238;5696595.52789886;472.78025009;97;99;84;24672.000000;1.000000;1.000000;1.000000;1.000000;-0.093575;0.093575;-0.093575;1.000000
445622.41920097;5696595.66629990;472.76294996;119;115;97;29298.000000;1.000000;1.000000;1.000000;1.000000;0.104824;-0.104824;0.104824;1.000000
445622.26240166;5696595.61539848;472.76454975;155;155;137;39321.000000;1.000000;1.000000;1.000000;1.000000;-0.051975;0.051975;-0.051975;1.000000
445622.67340096;5696595.84419830;472.72994997;97;91;76;23387.000000;1.000000;1.000000;1.000000;1.000000;0.046524;-0.046524;0.046524;1.000000
445622.77570160;5696595.37489899;472.70335009;96;100;94;25186.000000;1.000000;1.000000;1.000000;1.000000;0.044899;-0.044899;0.044899;1.000000
445622.26030167;5696595.68820007;472.75605013;65;62;56;15934.000000;1.000000;1.000000;1.000000;1.000000;-0.054075;0.054075;-0.054075;1.000000
445622.71140106;5696595.39239891;472.71464970;182;187;164;46774.000000;1.000000;1.000000;1.000000;1.000000;0.062399;-0.062399;0.062399;1.000000
445622.29400070;5696595.78289993;472.77495005;102;95;80;24415.000000;1.000000;1.000000;1.000000;1.000000;0.051319;-0.051319;0.051319;1.000000
445622.51190193;5696595.88649948;472.77204992;109;99;88;25700.000000;1.000000;1.000000;1.000000;1.000000;-0.021225;0.021225;-0.021225;1.000000
445622.65530212;5696595.82479866;472.72884991;118;113;99;28784.000000;1.000000;1.000000;1.000000;1.000000;0.028897;-0.028897;0.028897;1.000000
445622.57080086;5696595.83000000;472.74844982;97;89;75;22873.000000;1.000000;1.000000;1.000000;1.000000;-0.024826;0.024826;-0.024826;1.000000
445622.26180084;5696595.45449837;472.75565006;31;33;33;8224.000000;1.000000;1.000000;1.000000;1.000000;-0.052576;0.052576;-0.052576;1.000000
445622.25830086;5696595.49219902;472.75594999;44;46;43;11565.000000;1.000000;1.000000;1.000000;1.000000;-0.056076;0.056076;-0.056076;1.000000
445622.54040154;5696595.44089897;472.71915009;104;104;97;26471.000000;1.000000;1.000000;1.000000;1.000000;0.110906;-0.110906;0.110906;1.000000
445622.50390060;5696595.39989861;472.71694996;75;75;65;18761.000000;1.000000;1.000000;1.000000;1.000000;0.069928;-0.069928;0.069928;1.000000
445622.61890228;5696595.40559967;472.71994974;153;153;140;38807.000000;1.000000;1.000000;1.000000;1.000000;0.075600;-0.075600;0.075600;1.000000
445622.69130142;5696595.40579994;472.72085001;177;182;156;45489.000000;1.000000;1.000000;1.000000;1.000000;0.075824;-0.075824;0.075824;1.000000
445622.80020149;5696595.45010002;472.67974998;40;40;31;10023.000000;1.000000;1.000000;1.000000;1.000000;0.120100;-0.120100;0.120100;1.000000
445622.72910126;5696595.40939911;472.72025015;78;83;52;20046.000000;1.000000;1.000000;1.000000;1.000000;0.079399;-0.079399;0.079399;1.000000
445622.60820206;5696595.82440002;472.73605015;113;107;93;27499.000000;1.000000;1.000000;1.000000;1.000000;0.005600;-0.005600;0.005600;1.000000
445622.40910156;5696595.49939926;472.74414970;170;161;135;41120.000000;1.000000;1.000000;1.000000;1.000000;0.094725;-0.094725;0.094725;1.000000
445622.82650192;5696595.93499954;472.73794987;97;87;73;22616.000000;1.000000;1.000000;1.000000;1.000000;-0.080669;0.080669;-0.080669;1.000000
445622.49990089;5696595.74329956;472.73955013;74;70;56;17733.000000;1.000000;1.000000;1.000000;1.000000;0.086723;-0.086723;0.086723;1.000000
445622.45890244;5696595.84469994;472.77154972;48;44;34;11308.000000;1.000000;1.000000;1.000000;1.000000;-0.014700;0.014700;-0.014700;1.000000
445622.75400169;5696595.87649925;472.72235014;62;54;45;14135.000000;1.000000;1.000000;1.000000;1.000000;-0.046499;0.046499;-0.046499;1.000000
445622.42520149;5696595.75000008;472.75255014;110;109;87;27242.000000;1.000000;1.000000;1.000000;1.000000;0.080000;-0.080000;0.080000;1.000000
445622.25520142;5696595.56689842;472.77294971;30;30;21;7453.000000;1.000000;1.000000;1.000000;1.000000;-0.059175;0.059175;-0.059175;1.000000
445622.49820145;5696595.80859955;472.75885012;138;136;117;34438.000000;1.000000;1.000000;1.000000;1.000000;0.021714;-0.021714;0.021714;1.000000
445622.64690216;5696595.77909859;472.71635010;107;103;86;26214.000000;1.000000;1.000000;1.000000;1.000000;0.054699;-0.054699;0.054699;1.000000
445622.61070068;5696595.74049957;472.71425011;94;89;74;22616.000000;1.000000;1.000000;1.000000;1.000000;0.089500;-0.089500;0.089500;1.000000
445622.27910240;5696595.68879898;472.75455000;65;61;54;15677.000000;1.000000;1.000000;1.000000;1.000000;-0.035275;0.035275;-0.035275;1.000000
445622.28870209;5696595.46599968;472.75465014;44;45;45;11308.000000;1.000000;1.000000;1.000000;1.000000;-0.025675;0.025675;-0.025675;1.000000
445622.32560165;5696595.66339882;472.75864985;97;92;80;23644.000000;1.000000;1.000000;1.000000;1.000000;0.011225;-0.011225;0.011225;1.000000
445622.49390228;5696595.86489876;472.76405003;91;79;69;20817.000000;1.000000;1.000000;1.000000;1.000000;-0.034902;0.034902;-0.034902;1.000000
445622.42040070;5696595.43329819;472.72064974;48;46;36;11565.000000;1.000000;1.000000;1.000000;1.000000;0.103298;-0.103298;0.103298;1.000000
445622.43750198;5696595.61089905;472.76074984;109;103;68;25700.000000;1.000000;1.000000;1.000000;1.000000;0.123125;-0.123125;0.123125;1.000000
445622.53550156;5696595.74709900;472.73654987;116;111;98;28527.000000;1.000000;1.000000;1.000000;1.000000;0.082935;-0.082935;0.082935;1.000000
445622.68830116;5696595.71479996;472.70114996;164;170;147;42405.000000;1.000000;1.000000;1.000000;1.000000;0.119649;-0.119649;0.119649;1.000000
445622.25820168;5696595.52009972;472.76555016;37;39;33;9509.000000;1.000000;1.000000;1.000000;1.000000;-0.056175;0.056175;-0.056175;1.000000
445622.21750076;5696595.59359940;472.78324987;55;66;41;15163.000000;1.000000;1.000000;1.000000;1.000000;-0.096876;0.096876;-0.096876;1.000000
445622.69780167;5696595.71619995;472.70155003;165;171;148;42662.000000;1.000000;1.000000;1.000000;1.000000;0.116067;-0.116067;0.116067;1.000000
445622.29560097;5696595.52119835;472.76725008;53;51;41;12850.000000;1.000000;1.000000;1.000000;1.000000;-0.018776;0.018776;-0.018776;1.000000
445622.37460144;5696595.42339905;472.73005011;45;43;40;11051.000000;1.000000;1.000000;1.000000;1.000000;0.060225;-0.060225;0.060225;1.000000
445622.49540146;5696595.82979973;472.76135017;136;132;116;33667.000000;1.000000;1.000000;1.000000;1.000000;0.001983;-0.001983;0.001983;1.000000
445622.54320152;5696595.40079887;472.72814991;67;65;58;16448.000000;1.000000;1.000000;1.000000;1.000000;0.070799;-0.070799;0.070799;1.000000
445622.28810127;5696595.65989883;472.75455000;72;66;57;16962.000000;1.000000;1.000000;1.000000;1.000000;-0.026276;0.026276;-0.026276;1.000000
445622.54000099;5696595.91419991;472.77594997;105;93;78;24158.000000;1.000000;1.000000;1.000000;1.000000;0.006874;-0.006874;0.006874;1.000000
445622.40550240;5696595.57399948;472.77285006;160;147;109;37522.000000;1.000000;1.000000;1.000000;1.000000;0.091125;-0.091125;0.091125;1.000000
