//X;Y;Z;R;G;B;Intensity;Return Number;Number Of Returns;Scan Direction Flag;Point Source ID;C2M signed distances[-][<0.8];C2M signed distances[<0.4];C2M signed distances[-][<0.2];Stump44
445624.52550133;5696589.31259926;472.23745014;94;102;81;24929.000000;1.000000;1.000000;1.000000;1.000000;0.042593;-0.042593;0.042593;1.000000
445624.46860130;5696589.37419899;472.22634985;172;170;159;43433.000000;1.000000;1.000000;1.000000;1.000000;0.052987;-0.052987;0.052987;1.000000
445624.50740250;5696589.34009941;472.22994997;26;29;19;6939.000000;1.000000;1.000000;1.000000;1.000000;-0.057863;0.057863;-0.057863;1.000000
445624.14480217;5696589.50939949;472.22254993;160;153;143;39321.000000;1.000000;1.000000;1.000000;1.000000;-0.142925;0.142925;-0.142925;1.000000
445624.36100204;5696589.29769905;472.22514965;100;100;91;25443.000000;1.000000;1.000000;1.000000;1.000000;0.032301;-0.032301;0.032301;1.000000
445624.07560165;5696589.39659889;472.22744991;61;57;43;14392.000000;1.000000;1.000000;1.000000;1.000000;-0.066599;0.066599;-0.066599;1.000000
445624.39720161;5696589.26159866;472.22874977;126;125;112;31611.000000;1.000000;1.000000;1.000000;1.000000;0.068401;-0.068401;0.068401;1.000000
445624.36200150;5696589.25789841;472.22475006;125;123;112;31354.000000;1.000000;1.000000;1.000000;1.000000;0.072102;-0.072102;0.072102;1.000000
445624.61950119;5696589.28009995;472.26464989;129;142;117;34695.000000;1.000000;1.000000;1.000000;1.000000;-0.023874;0.023874;-0.023874;1.000000
445624.19070061;5696589.32529839;472.22244980;198;198;192;50629.000000;1.000000;1.000000;1.000000;1.000000;0.004702;-0.004702;0.004702;1.000000
445624.50870140;5696589.28379829;472.23864986;117;125;97;30583.000000;1.000000;1.000000;1.000000;1.000000;0.072349;-0.072349;0.072349;1.000000
445624.58800133;5696589.38159950;472.23875000;41;44;30;10537.000000;1.000000;1.000000;1.000000;1.000000;-0.051621;0.051621;-0.051621;1.000000
445624.55140121;5696589.34059914;472.23894979;113;117;98;29041.000000;1.000000;1.000000;1.000000;1.000000;-0.016755;0.016755;-0.016755;1.000000
445624.51870163;5696589.26649864;472.24125006;110;119;87;28784.000000;1.000000;1.000000;1.000000;1.000000;0.076926;-0.076926;0.076926;1.000000
445624.12600143;5696589.50879868;472.22174980;144;136;123;34952.000000;1.000000;1.000000;1.000000;1.000000;-0.124124;0.124124;-0.124124;1.000000
445624.09480103;5696589.84499939;472.26394989;99;99;73;24672.000000;1.000000;1.000000;1.000000;1.000000;-0.094126;-0.094126;0.094126;1.000000
445624.60870178;5696589.35389908;472.24174978;105;111;93;27499.000000;1.000000;1.000000;1.000000;1.000000;-0.027242;0.027242;-0.027242;1.000000
445624.17120178;5696589.28749855;472.21414997;190;187;178;47802.000000;1.000000;1.000000;1.000000;1.000000;-0.042501;0.042501;-0.042501;1.000000
445624.10570152;5696589.75999840;472.26104977;70;62;48;15934.000000;1.000000;1.000000;1.000000;1.000000;-0.103824;-0.103824;0.103824;1.000000
445624.34110077;5696589.25759895;472.22144987;150;148;138;37779.000000;1.000000;1.000000;1.000000;1.000000;-0.072401;0.072401;-0.072401;1.000000
445624.53610237;5696589.51750000;472.21945002;107;104;93;26471.000000;1.000000;1.000000;1.000000;1.000000;-0.189620;0.189620;-0.189620;1.000000
445624.13550194;5696589.53819855;472.22954990;147;136;123;35209.000000;1.000000;1.000000;1.000000;1.000000;-0.133625;0.133625;-0.133625;1.000000
445624.47350128;5696589.22649963;472.22704985;45;48;29;11565.000000;1.000000;1.000000;1.000000;1.000000;-0.100260;0.100260;-0.100260;1.000000
445624.56120117;5696589.36999901;472.23974993;150;151;132;38036.000000;1.000000;1.000000;1.000000;1.000000;-0.040125;0.040125;-0.040125;1.000000
445624.09550102;5696589.77729996;472.26314976;79;73;56;18504.000000;1.000000;1.000000;1.000000;1.000000;-0.093624;-0.093624;0.093624;1.000000
445624.46590240;5696589.43999870;472.21534969;49;43;35;11051.000000;1.000000;1.000000;1.000000;1.000000;0.113152;-0.113152;0.113152;1.000000
445624.61370094;5696589.44719894;472.21974995;102;102;97;25957.000000;1.000000;1.000000;1.000000;1.000000;-0.117937;0.117937;-0.117937;1.000000
445624.53370102;5696589.34929855;472.23595001;82;83;66;20560.000000;1.000000;1.000000;1.000000;1.000000;-0.036242;0.036242;-0.036242;1.000000
445624.46450241;5696589.40269859;472.22174980;75;69;59;17733.000000;1.000000;1.000000;1.000000;1.000000;0.076918;-0.076918;0.076918;1.000000
445624.61480148;5696589.40969856;472.22164967;53;55;50;13621.000000;1.000000;1.000000;1.000000;1.000000;-0.080608;0.080608;-0.080608;1.000000
445624.07700165;5696589.57129868;472.24825003;155;138;125;36237.000000;1.000000;1.000000;1.000000;1.000000;-0.075124;0.075124;-0.075124;1.000000
445624.11480148;5696589.57489975;472.24534990;164;149;137;39064.000000;1.000000;1.000000;1.000000;1.000000;-0.112924;0.112924;-0.112924;1.000000
445624.11140068;5696589.64729889;472.26464989;168;164;160;42148.000000;1.000000;1.000000;1.000000;1.000000;-0.109523;0.109523;-0.109523;1.000000
445624.08590134;5696589.59829910;472.26055004;123;112;101;29298.000000;1.000000;1.000000;1.000000;1.000000;-0.084024;0.084024;-0.084024;1.000000
445624.27400215;5696589.31069954;472.21204998;151;150;140;38293.000000;1.000000;1.000000;1.000000;1.000000;0.021349;-0.021349;0.021349;1.000000
445624.15940102;5696589.60559853;472.25464966;202;199;194;51143.000000;1.000000;1.000000;1.000000;1.000000;-0.157524;0.157524;-0.157524;1.000000
445624.16370209;5696589.51229866;472.22345020;107;101;93;25957.000000;1.000000;1.000000;1.000000;1.000000;-0.161825;0.161825;-0.161825;1.000000
445624.15670212;5696589.46379860;472.22725012;98;93;81;23901.000000;1.000000;1.000000;1.000000;1.000000;-0.133799;0.133799;-0.133799;1.000000
445624.12040146;5696589.42519959;472.22514965;43;36;25;9252.000000;1.000000;1.000000;1.000000;1.000000;0.095200;-0.095200;0.095200;1.000000
445624.12750061;5696589.47359856;472.22135021;156;147;134;38036.000000;1.000000;1.000000;1.000000;1.000000;-0.125646;0.125646;-0.125646;1.000000
445624.13700111;5696589.50079926;472.22214987;156;150;138;38550.000000;1.000000;1.000000;1.000000;1.000000;-0.135124;0.135124;-0.135124;1.000000
445624.09650238;5696589.58119972;472.24924995;134;118;106;31097.000000;1.000000;1.000000;1.000000;1.000000;-0.094625;0.094625;-0.094625;1.000000
445624.09690102;5696589.74209984;472.26284983;66;59;47;15163.000000;1.000000;1.000000;1.000000;1.000000;-0.095024;-0.095024;0.095024;1.000000
445624.15140160;5696589.59469994;472.25414993;154;146;140;37779.000000;1.000000;1.000000;1.000000;1.000000;-0.149524;0.149524;-0.149524;1.000000
445624.10320099;5696589.83489998;472.26415016;96;94;70;23387.000000;1.000000;1.000000;1.000000;1.000000;-0.101442;-0.101442;0.101442;1.000000
445624.24870117;5696589.24509819;472.22184994;138;134;122;34181.000000;1.000000;1.000000;1.000000;1.000000;-0.089423;0.089423;-0.089423;1.000000
445624.28620155;5696589.24629982;472.22125008;89;86;76;21845.000000;1.000000;1.000000;1.000000;1.000000;0.083700;-0.083700;0.083700;1.000000
445624.61020096;5696589.27869995;472.25955011;127;142;114;34438.000000;1.000000;1.000000;1.000000;1.000000;-0.014574;0.014574;-0.014574;1.000000
445624.58660133;5696589.38879974;472.23414995;40;42;31;10280.000000;1.000000;1.000000;1.000000;1.000000;-0.058800;0.058800;-0.058800;1.000000
445624.24240120;5696589.40219887;472.22104980;107;105;97;26728.000000;1.000000;1.000000;1.000000;1.000000;0.075411;-0.075411;0.075411;1.000000
445624.24310120;5696589.38349922;472.21855022;140;137;130;35209.000000;1.000000;1.000000;1.000000;1.000000;0.058028;-0.058028;0.058028;1.000000
445624.35570152;5696589.38939865;472.22135021;97;94;84;23901.000000;1.000000;1.000000;1.000000;1.000000;-0.059399;-0.059399;0.059399;1.000000
445624.35690125;5696589.35189827;472.22094967;188;188;181;48059.000000;1.000000;1.000000;1.000000;1.000000;-0.021898;0.021898;-0.021898;1.000000
445624.16550072;5696589.25070007;472.21114971;112;108;97;27499.000000;1.000000;1.000000;1.000000;1.000000;0.079300;-0.079300;0.079300;1.000000
445624.35920151;5696589.27689941;472.22254993;122;120;109;30583.000000;1.000000;1.000000;1.000000;1.000000;0.053101;-0.053101;0.053101;1.000000
445624.19240196;5696589.67979820;472.24545004;83;83;85;21331.000000;1.000000;1.000000;1.000000;1.000000;-0.190525;0.190525;-0.190525;1.000000
445624.42400177;5696589.29879959;472.23035004;88;87;76;22102.000000;1.000000;1.000000;1.000000;1.000000;0.031200;-0.031200;0.031200;1.000000
445624.33750160;5696589.36999901;472.22265007;164;163;155;41634.000000;1.000000;1.000000;1.000000;1.000000;0.039999;-0.039999;0.039999;1.000000
445624.62530144;5696589.35479935;472.23784973;73;78;64;19018.000000;1.000000;1.000000;1.000000;1.000000;-0.024849;0.024849;-0.024849;1.000000
445624.42430122;5696589.52319916;472.22144987;126;124;114;31611.000000;1.000000;1.000000;1.000000;1.000000;-0.193199;0.193199;-0.193199;1.000000
445624.51910217;5696589.21979912;472.23834993;107;117;85;28270.000000;1.000000;1.000000;1.000000;1.000000;-0.057487;0.057487;-0.057487;1.000000
445624.43630226;5696589.44739922;472.21404984;141;134;120;34438.000000;1.000000;1.000000;1.000000;1.000000;0.117399;-0.117399;0.117399;1.000000
445624.18540199;5696589.40029915;472.23714973;100;94;86;24158.000000;1.000000;1.000000;1.000000;1.000000;0.070299;-0.070299;0.070299;1.000000
445624.26380165;5696589.33019836;472.21884968;186;186;179;47545.000000;1.000000;1.000000;1.000000;1.000000;-0.019327;0.019327;-0.019327;1.000000
445624.33880241;5696589.33259972;472.21995022;140;141;133;35723.000000;1.000000;1.000000;1.000000;1.000000;0.002600;-0.002600;0.002600;1.000000
445624.33990105;5696589.29509933;472.22184994;127;126;115;32125.000000;1.000000;1.000000;1.000000;1.000000;-0.034901;0.034901;-0.034901;1.000000
445624.23070152;5696589.25379951;472.22345020;111;108;96;27499.000000;1.000000;1.000000;1.000000;1.000000;-0.076864;0.076864;-0.076864;1.000000
445624.61120232;5696589.49419983;472.21785023;99;100;91;25186.000000;1.000000;1.000000;1.000000;1.000000;-0.164937;0.164937;-0.164937;1.000000
445624.49840172;5696589.27309998;472.23805000;107;114;85;27756.000000;1.000000;1.000000;1.000000;1.000000;-0.081985;0.081985;-0.081985;1.000000
445624.26840218;5696589.25499924;472.22044994;60;56;46;14392.000000;1.000000;1.000000;1.000000;1.000000;0.076433;-0.076433;0.076433;1.000000
445624.09770210;5696589.53689964;472.23474981;135;122;108;31868.000000;1.000000;1.000000;1.000000;1.000000;-0.095825;0.095825;-0.095825;1.000000
445624.30590065;5696589.25619896;472.21985008;158;154;145;39578.000000;1.000000;1.000000;1.000000;1.000000;-0.073801;0.073801;-0.073801;1.000000
445624.32230194;5696589.25700005;472.22065022;198;195;187;50115.000000;1.000000;1.000000;1.000000;1.000000;0.073000;-0.073000;0.073000;1.000000
445624.61060150;5696589.30679901;472.25754978;44;53;36;12336.000000;1.000000;1.000000;1.000000;1.000000;-0.014974;0.014974;-0.014974;1.000000
445624.10320099;5696589.80699928;472.25915005;128;124;104;31611.000000;1.000000;1.000000;1.000000;1.000000;-0.101324;-0.101324;0.101324;1.000000
445624.16430099;5696589.51919945;472.22354986;150;144;135;37008.000000;1.000000;1.000000;1.000000;1.000000;-0.162424;0.162424;-0.162424;1.000000
445624.41750153;5696589.22479828;472.22225000;206;203;189;51914.000000;1.000000;1.000000;1.000000;1.000000;0.105202;-0.105202;0.105202;1.000000
445624.27740105;5696589.45039948;472.21855022;173;171;163;43690.000000;1.000000;1.000000;1.000000;1.000000;-0.120536;0.120536;-0.120536;1.000000
445624.45500191;5696589.22599991;472.22155001;94;95;77;23644.000000;1.000000;1.000000;1.000000;1.000000;-0.105167;0.105167;-0.105167;1.000000
445624.24100121;5696589.41179855;472.21875002;123;122;114;31097.000000;1.000000;1.000000;1.000000;1.000000;0.084298;-0.084298;0.084298;1.000000
445624.35720070;5696589.37990006;472.22135021;84;81;73;20817.000000;1.000000;1.000000;1.000000;1.000000;-0.049900;-0.049900;0.049900;1.000000
445624.26540192;5696589.52389915;472.22125008;131;126;116;32382.000000;1.000000;1.000000;1.000000;1.000000;-0.194708;0.194708;-0.194708;1.000000
445624.42870148;5696589.39209946;472.21534969;186;182;168;46517.000000;1.000000;1.000000;1.000000;1.000000;-0.062099;0.062099;-0.062099;1.000000
445624.07590111;5696589.37549980;472.22725012;76;71;59;18247.000000;1.000000;1.000000;1.000000;1.000000;-0.045500;0.045500;-0.045500;1.000000
445624.05090149;5696589.31229980;472.23694994;195;196;189;49858.000000;1.000000;1.000000;1.000000;1.000000;0.017700;-0.017700;0.017700;1.000000
445624.19030197;5696589.54939850;472.22975018;163;155;144;40092.000000;1.000000;1.000000;1.000000;1.000000;-0.188425;0.188425;-0.188425;1.000000
445624.43900116;5696589.40279968;472.21595003;188;183;169;46774.000000;1.000000;1.000000;1.000000;1.000000;0.072800;-0.072800;0.072800;1.000000
445624.54360207;5696589.33199890;472.23854973;61;66;47;15934.000000;1.000000;1.000000;1.000000;1.000000;-0.020871;0.020871;-0.020871;1.000000
445624.50730141;5696589.29329880;472.23875000;62;69;46;16448.000000;1.000000;1.000000;1.000000;1.000000;0.067858;-0.067858;0.067858;1.000000
445624.12820061;5696589.27749832;472.21215012;117;113;103;29041.000000;1.000000;1.000000;1.000000;1.000000;0.052502;-0.052502;0.052502;1.000000
445624.51210220;5696589.21819885;472.23574974;72;80;51;19018.000000;1.000000;1.000000;1.000000;1.000000;-0.062292;0.062292;-0.062292;1.000000
445624.29370125;5696589.52599915;472.22024967;147;140;131;36237.000000;1.000000;1.000000;1.000000;1.000000;-0.195999;0.195999;-0.195999;1.000000
445624.51750191;5696589.30169876;472.23694994;95;102;80;24929.000000;1.000000;1.000000;1.000000;1.000000;0.054756;-0.054756;0.054756;1.000000
445624.08740242;5696589.55409821;472.23915007;165;150;135;39064.000000;1.000000;1.000000;1.000000;1.000000;-0.085525;0.085525;-0.085525;1.000000
445624.18570145;5696589.66159828;472.25425007;136;140;141;35466.000000;1.000000;1.000000;1.000000;1.000000;-0.183824;0.183824;-0.183824;1.000000
445624.34940155;5696589.52079971;472.21805002;186;184;178;47031.000000;1.000000;1.000000;1.000000;1.000000;-0.190800;0.190800;-0.190800;1.000000
445624.30530174;5696589.27499969;472.22004988;142;139;130;35466.000000;1.000000;1.000000;1.000000;1.000000;-0.055000;0.055000;-0.055000;1.000000
445624.20140083;5696589.51349838;472.22055008;154;150;141;38550.000000;1.000000;1.000000;1.000000;1.000000;-0.183498;0.183498;-0.183498;1.000000
445624.55540092;5696589.49939926;472.22004988;60;58;49;14649.000000;1.000000;1.000000;1.000000;1.000000;-0.169637;0.169637;-0.169637;1.000000
445624.38660248;5696589.51969917;472.22205021;173;170;162;43690.000000;1.000000;1.000000;1.000000;1.000000;-0.189699;0.189699;-0.189699;1.000000
445624.05800064;5696589.33739861;472.23525002;99;97;89;24672.000000;1.000000;1.000000;1.000000;1.000000;0.007792;-0.007792;0.007792;1.000000
445624.19880112;5696589.77259834;472.24445011;70;68;61;17219.000000;1.000000;1.000000;1.000000;1.000000;-0.196924;0.196924;-0.196924;1.000000
445624.26690109;5696589.48879822;472.21855022;170;166;156;42662.000000;1.000000;1.000000;1.000000;1.000000;-0.159625;0.159625;-0.159625;1.000000
445624.57430084;5696589.50000008;472.21864988;65;63;55;15934.000000;1.000000;1.000000;1.000000;1.000000;-0.170000;0.170000;-0.170000;1.000000
445624.57550247;5696589.46479996;472.22284986;119;119;114;30326.000000;1.000000;1.000000;1.000000;1.000000;-0.134800;0.134800;-0.134800;1.000000
445624.57660110;5696589.42729958;472.22254993;49;50;46;12593.000000;1.000000;1.000000;1.000000;1.000000;-0.097300;0.097300;-0.097300;1.000000
445624.65000160;5696589.45799835;472.21455004;140;139;132;35466.000000;1.000000;1.000000;1.000000;1.000000;-0.128002;0.128002;-0.128002;1.000000
445624.57940109;5696589.34259995;472.24494984;137;141;121;35209.000000;1.000000;1.000000;1.000000;1.000000;-0.012600;0.012600;-0.012600;1.000000
445624.54540070;5696589.30369957;472.24524977;62;73;48;16962.000000;1.000000;1.000000;1.000000;1.000000;0.032432;-0.032432;0.032432;1.000000
445624.10660179;5696589.76929863;472.26125004;99;92;76;23644.000000;1.000000;1.000000;1.000000;1.000000;-0.104724;-0.104724;0.104724;1.000000
445624.32210167;5696589.52809914;472.21684982;157;154;147;39578.000000;1.000000;1.000000;1.000000;1.000000;-0.198099;0.198099;-0.198099;1.000000
445624.28000076;5696589.37780006;472.21785023;110;107;99;27499.000000;1.000000;1.000000;1.000000;1.000000;-0.047902;0.047902;-0.047902;1.000000
445624.05960091;5696589.33019836;472.23754980;113;113;105;28784.000000;1.000000;1.000000;1.000000;1.000000;0.000859;-0.000859;0.000859;1.000000
445624.53670128;5696589.49879845;472.21925022;113;110;100;28013.000000;1.000000;1.000000;1.000000;1.000000;-0.171052;0.171052;-0.171052;1.000000
445624.10140236;5696589.69249924;472.26935007;149;140;123;35980.000000;1.000000;1.000000;1.000000;1.000000;-0.099525;-0.099525;0.099525;1.000000
445624.06810196;5696589.32009895;472.23554995;190;191;184;48573.000000;1.000000;1.000000;1.000000;1.000000;0.009901;-0.009901;0.009901;1.000000
445624.58030136;5696589.35179909;472.24504997;100;104;84;25700.000000;1.000000;1.000000;1.000000;1.000000;-0.021799;0.021799;-0.021799;1.000000
445624.10070236;5696589.65759857;472.26424982;137;130;122;33667.000000;1.000000;1.000000;1.000000;1.000000;-0.098825;0.098825;-0.098825;1.000000
445624.10400208;5696589.61989983;472.26865007;220;220;215;56283.000000;1.000000;1.000000;1.000000;1.000000;-0.102125;0.102125;-0.102125;1.000000
445624.13800247;5696589.67769821;472.25455000;198;196;192;50372.000000;1.000000;1.000000;1.000000;1.000000;-0.136125;0.136125;-0.136125;1.000000
445624.16480072;5696589.73599823;472.24945023;152;150;142;38293.000000;1.000000;1.000000;1.000000;1.000000;-0.162923;0.162923;-0.162923;1.000000
445624.20010193;5696589.73749931;472.24644997;170;170;164;43433.000000;1.000000;1.000000;1.000000;1.000000;-0.198225;0.198225;-0.198225;1.000000
445624.58370216;5696589.50140007;472.21904995;72;70;62;17733.000000;1.000000;1.000000;1.000000;1.000000;-0.171400;0.171400;-0.171400;1.000000
445624.61910065;5696589.50289925;472.21604969;123;123;109;31097.000000;1.000000;1.000000;1.000000;1.000000;-0.173074;0.173074;-0.173074;1.000000
445624.41820152;5696589.42809875;472.21304991;113;108;92;27499.000000;1.000000;1.000000;1.000000;1.000000;-0.098099;0.098099;-0.098099;1.000000
445624.52320107;5696589.35969933;472.23094990;46;45;32;11051.000000;1.000000;1.000000;1.000000;1.000000;-0.050769;0.050769;-0.050769;1.000000
445624.65660103;5696589.50409897;472.21534969;124;125;107;31354.000000;1.000000;1.000000;1.000000;1.000000;-0.174106;0.174106;-0.174106;1.000000
445624.36190231;5696589.45430000;472.21775009;103;98;87;25186.000000;1.000000;1.000000;1.000000;1.000000;-0.124300;-0.124300;0.124300;1.000000
445624.15370186;5696589.74399956;472.25145008;125;120;112;30840.000000;1.000000;1.000000;1.000000;1.000000;-0.151824;0.151824;-0.151824;1.000000
445624.19140060;5696589.74519928;472.24844982;178;177;171;45232.000000;1.000000;1.000000;1.000000;1.000000;-0.189523;0.189523;-0.189523;1.000000
445624.39720161;5696589.45570000;472.21705009;156;151;139;38807.000000;1.000000;1.000000;1.000000;1.000000;-0.125700;0.125700;-0.125700;1.000000
445624.08480080;5696589.39569862;472.22784998;63;59;44;14906.000000;1.000000;1.000000;1.000000;1.000000;-0.065699;0.065699;-0.065699;1.000000
445623.76860245;5696590.01659973;472.33745005;176;172;165;44204.000000;1.000000;1.000000;1.000000;1.000000;-0.192132;0.192132;-0.192132;1.000000
445623.96180161;5696589.88719948;472.29565002;149;142;131;36494.000000;1.000000;1.000000;1.000000;1.000000;-0.057876;0.057876;-0.057876;1.000000
445623.92020233;5696590.02179916;472.30474998;183;181;175;46260.000000;1.000000;1.000000;1.000000;1.000000;-0.191799;0.191799;-0.191799;1.000000
445623.84540184;5696589.98169907;472.32415010;167;166;162;42405.000000;1.000000;1.000000;1.000000;1.000000;-0.151699;0.151699;-0.151699;1.000000
445623.73590096;5696589.94030006;472.33505013;231;231;225;59110.000000;1.000000;1.000000;1.000000;1.000000;-0.135369;0.135369;-0.135369;1.000000
445623.72870071;5696589.91069992;472.32964994;133;128;119;32896.000000;1.000000;1.000000;1.000000;1.000000;-0.117699;0.117699;-0.117699;1.000000
445623.91040237;5696590.02019890;472.31125023;189;187;183;48059.000000;1.000000;1.000000;1.000000;1.000000;-0.190199;0.190199;-0.190199;1.000000
445623.69940193;5696589.90159996;472.33754971;159;153;143;39321.000000;1.000000;1.000000;1.000000;1.000000;-0.135447;0.135447;-0.135447;1.000000
445623.77870186;5696589.99709900;472.33295013;180;177;172;45489.000000;1.000000;1.000000;1.000000;1.000000;-0.170865;0.170865;-0.170865;1.000000
445624.04080208;5696590.00829895;472.29834988;200;197;182;50372.000000;1.000000;1.000000;1.000000;1.000000;-0.182498;0.182498;-0.182498;1.000000
445623.74430092;5696589.95809944;472.34025003;217;217;212;55512.000000;1.000000;1.000000;1.000000;1.000000;-0.146014;0.146014;-0.146014;1.000000
445623.96650131;5696589.96389969;472.29684975;41;35;30;9252.000000;1.000000;1.000000;1.000000;1.000000;-0.133963;0.133963;-0.133963;1.000000
445623.89520081;5696589.92839821;472.30244972;177;176;167;44975.000000;1.000000;1.000000;1.000000;1.000000;-0.098531;0.098531;-0.098531;1.000000
445623.93040092;5696589.92979820;472.30174973;84;79;66;20303.000000;1.000000;1.000000;1.000000;1.000000;-0.099798;0.099798;-0.099798;1.000000
445623.96790131;5696589.93089874;472.30345013;149;145;133;37008.000000;1.000000;1.000000;1.000000;1.000000;-0.100936;0.100936;-0.100936;1.000000
445623.93390091;5696589.89209946;472.30144979;185;178;166;45746.000000;1.000000;1.000000;1.000000;1.000000;-0.062099;0.062099;-0.062099;1.000000
445623.88760193;5696589.87069901;472.29915001;116;113;106;29041.000000;1.000000;1.000000;1.000000;1.000000;-0.040699;0.040699;-0.040699;1.000000
445623.95990189;5696589.92229851;472.30534985;173;169;156;43176.000000;1.000000;1.000000;1.000000;1.000000;-0.092588;0.092588;-0.092588;1.000000
445623.89980133;5696589.98379906;472.31495001;81;77;74;19789.000000;1.000000;1.000000;1.000000;1.000000;-0.154024;0.154024;-0.154024;1.000000
445623.86600121;5696589.94719894;472.31535007;198;198;194;50629.000000;1.000000;1.000000;1.000000;1.000000;-0.117199;0.117199;-0.117199;1.000000
445623.85790070;5696589.90829857;472.30985023;128;127;119;32382.000000;1.000000;1.000000;1.000000;1.000000;-0.078299;0.078299;-0.078299;1.000000
445623.92870148;5696589.98599823;472.30004980;140;136;133;34952.000000;1.000000;1.000000;1.000000;1.000000;-0.155998;0.155998;-0.155998;1.000000
445623.70800217;5696589.94739922;472.34544994;219;218;211;55769.000000;1.000000;1.000000;1.000000;1.000000;-0.158424;0.158424;-0.158424;1.000000
445623.89260109;5696589.95419891;472.30964996;208;208;202;53199.000000;1.000000;1.000000;1.000000;1.000000;-0.124224;0.124224;-0.124224;1.000000
445623.85470207;5696589.95290001;472.31724979;142;143;139;36494.000000;1.000000;1.000000;1.000000;1.000000;-0.122900;0.122900;-0.122900;1.000000
445623.86000069;5696589.88009842;472.30964996;166;163;157;41891.000000;1.000000;1.000000;1.000000;1.000000;-0.050098;0.050098;-0.050098;1.000000
445623.67390068;5696589.90839966;472.34814980;152;147;136;37779.000000;1.000000;1.000000;1.000000;1.000000;-0.160873;0.160873;-0.160873;1.000000
445623.96450241;5696589.99209984;472.29705002;65;57;49;14906.000000;1.000000;1.000000;1.000000;1.000000;-0.162216;0.162216;-0.162216;1.000000
445623.80030067;5696589.92279823;472.32144978;175;171;166;43947.000000;1.000000;1.000000;1.000000;1.000000;-0.093860;0.093860;-0.093860;1.000000
445624.00950249;5696590.02519997;472.30184986;220;218;207;55769.000000;1.000000;1.000000;1.000000;1.000000;-0.195349;0.195349;-0.195349;1.000000
445623.94620140;5696589.99609955;472.29624989;72;66;61;17219.000000;1.000000;1.000000;1.000000;1.000000;-0.166100;0.166100;-0.166100;1.000000
445624.08680161;5696590.00169952;472.30034973;235;239;222;60395.000000;1.000000;1.000000;1.000000;1.000000;-0.191554;0.191554;-0.191554;1.000000
445623.97540100;5696589.95839890;472.29715015;38;33;29;8738.000000;1.000000;1.000000;1.000000;1.000000;-0.128399;0.128399;-0.128399;1.000000
445623.97890099;5696589.92289932;472.30154993;233;230;217;58853.000000;1.000000;1.000000;1.000000;1.000000;-0.092899;0.092899;-0.092899;1.000000
445623.97610100;5696589.89059837;472.29635002;116;109;98;28013.000000;1.000000;1.000000;1.000000;1.000000;-0.060598;0.060598;-0.060598;1.000000
445624.05150230;5696589.99569901;472.29404976;130;127;117;32382.000000;1.000000;1.000000;1.000000;1.000000;-0.172971;0.172971;-0.172971;1.000000
445623.75470169;5696589.94089897;472.33355000;203;202;197;51657.000000;1.000000;1.000000;1.000000;1.000000;-0.125936;0.125936;-0.125936;1.000000
445623.93920143;5696589.94769867;472.30004980;39;36;30;9252.000000;1.000000;1.000000;1.000000;1.000000;-0.117699;0.117699;-0.117699;1.000000
445623.85880096;5696589.91759880;472.31005003;172;171;165;43690.000000;1.000000;1.000000;1.000000;1.000000;-0.087599;0.087599;-0.087599;1.000000
445623.94210251;5696589.87739952;472.29705002;147;141;132;36237.000000;1.000000;1.000000;1.000000;1.000000;-0.047400;0.047400;-0.047400;1.000000
445623.74150093;5696590.00499924;472.34534981;119;116;109;29812.000000;1.000000;1.000000;1.000000;1.000000;-0.189567;0.189567;-0.189567;1.000000
445623.98380096;5696589.94819839;472.29745008;58;51;45;13364.000000;1.000000;1.000000;1.000000;1.000000;-0.118198;0.118198;-0.118198;1.000000
445623.90410240;5696589.87150009;472.29754974;78;76;71;19532.000000;1.000000;1.000000;1.000000;1.000000;-0.041695;0.041695;-0.041695;1.000000
445623.93180092;5696589.92029961;472.30404999;119;115;104;29298.000000;1.000000;1.000000;1.000000;1.000000;-0.090300;0.090300;-0.090300;1.000000
445623.99440201;5696590.01039894;472.29395010;126;120;113;31097.000000;1.000000;1.000000;1.000000;1.000000;-0.180406;0.180406;-0.180406;1.000000
445623.80630119;5696590.01559837;472.32975008;157;154;147;39578.000000;1.000000;1.000000;1.000000;1.000000;-0.185774;0.185774;-0.185774;1.000000
445623.96280106;5696590.02259834;472.29505016;118;116;108;29555.000000;1.000000;1.000000;1.000000;1.000000;-0.192757;0.192757;-0.192757;1.000000
445623.83760078;5696589.97309883;472.32375004;182;181;177;46260.000000;1.000000;1.000000;1.000000;1.000000;-0.143102;0.143102;-0.143102;1.000000
445623.84400185;5696590.01909836;472.32924988;153;151;147;38807.000000;1.000000;1.000000;1.000000;1.000000;-0.189105;0.189105;-0.189105;1.000000
445623.98480232;5696590.00889977;472.29584982;103;99;88;25186.000000;1.000000;1.000000;1.000000;1.000000;-0.178900;0.178900;-0.178900;1.000000
445623.81640060;5696589.99829872;472.32774975;146;143;138;36751.000000;1.000000;1.000000;1.000000;1.000000;-0.168299;0.168299;-0.168299;1.000000
445624.00850113;5696589.93659981;472.29605009;117;101;94;26985.000000;1.000000;1.000000;1.000000;1.000000;-0.106805;0.106805;-0.106805;1.000000
445623.69220169;5696589.89989861;472.33955004;164;158;147;40606.000000;1.000000;1.000000;1.000000;1.000000;-0.140758;0.140758;-0.140758;1.000000
445623.78470238;5696589.90559967;472.32054998;154;150;142;38550.000000;1.000000;1.000000;1.000000;1.000000;-0.081215;0.081215;-0.081215;1.000000
445623.68600090;5696589.96559914;472.35405018;182;180;172;46003.000000;1.000000;1.000000;1.000000;1.000000;-0.186729;0.186729;-0.186729;1.000000
445623.97550209;5696589.88369949;472.29395010;145;132;129;34695.000000;1.000000;1.000000;1.000000;1.000000;-0.053699;0.053699;-0.053699;1.000000
445623.98310097;5696589.96469887;472.29524996;46;41;32;10537.000000;1.000000;1.000000;1.000000;1.000000;-0.134699;0.134699;-0.134699;1.000000
445623.65180214;5696589.92669876;472.35664989;168;163;153;41891.000000;1.000000;1.000000;1.000000;1.000000;-0.189160;0.189160;-0.189160;1.000000
445623.81570061;5696590.01699837;472.33024981;158;155;149;39835.000000;1.000000;1.000000;1.000000;1.000000;-0.186998;0.186998;-0.186998;1.000000
445623.65340240;5696589.89159973;472.35164978;154;149;137;38293.000000;1.000000;1.000000;1.000000;1.000000;-0.172359;0.172359;-0.172359;1.000000
445623.84550102;5696590.00959976;472.32914974;160;158;154;40606.000000;1.000000;1.000000;1.000000;1.000000;-0.179600;0.179600;-0.179600;1.000000
445623.80930145;5696589.97099884;472.32474997;144;142;137;36494.000000;1.000000;1.000000;1.000000;1.000000;-0.141090;0.141090;-0.141090;1.000000
445623.81780251;5696589.96089943;472.32264997;138;137;131;34952.000000;1.000000;1.000000;1.000000;1.000000;-0.130899;0.130899;-0.130899;1.000000
445623.68110092;5696589.91009911;472.34614994;152;146;135;37522.000000;1.000000;1.000000;1.000000;1.000000;-0.155494;0.155494;-0.155494;1.000000
445623.88480194;5696589.94559868;472.30924990;231;231;226;59110.000000;1.000000;1.000000;1.000000;1.000000;-0.115599;0.115599;-0.115599;1.000000
445623.69640167;5696589.97639854;472.35234978;163;160;154;41120.000000;1.000000;1.000000;1.000000;1.000000;-0.188018;0.188018;-0.188018;1.000000
445623.91110237;5696589.94789894;472.30114986;163;161;155;41120.000000;1.000000;1.000000;1.000000;1.000000;-0.117899;0.117899;-0.117899;1.000000
445623.95910080;5696589.91299828;472.30515005;213;208;195;53456.000000;1.000000;1.000000;1.000000;1.000000;-0.083253;0.083253;-0.083253;1.000000
445624.02110107;5696590.02639969;472.30464985;231;230;218;58596.000000;1.000000;1.000000;1.000000;1.000000;-0.197338;0.197338;-0.197338;1.000000
445623.75330170;5696589.97829826;472.33855011;79;76;70;19532.000000;1.000000;1.000000;1.000000;1.000000;-0.160383;0.160383;-0.160383;1.000000
445623.73370178;5696589.99639900;472.34495022;84;81;75;20817.000000;1.000000;1.000000;1.000000;1.000000;-0.184925;0.184925;-0.184925;1.000000
445623.73500069;5696589.95889862;472.34215023;225;226;221;57825.000000;1.000000;1.000000;1.000000;1.000000;-0.151379;0.151379;-0.151379;1.000000
445623.88330086;5696589.92709930;472.30424978;202;202;196;51657.000000;1.000000;1.000000;1.000000;1.000000;-0.097099;0.097099;-0.097099;1.000000
445624.01120193;5696590.01809891;472.29944994;178;174;162;44461.000000;1.000000;1.000000;1.000000;1.000000;-0.188330;0.188330;-0.188330;1.000000
445623.90310104;5696589.93699844;472.30065014;192;190;182;48573.000000;1.000000;1.000000;1.000000;1.000000;-0.107116;0.107116;-0.107116;1.000000
445623.94070061;5696589.94049843;472.30235006;45;42;33;10537.000000;1.000000;1.000000;1.000000;1.000000;-0.110498;0.110498;-0.110498;1.000000
445623.94170197;5696589.90069969;472.30195000;213;206;193;52942.000000;1.000000;1.000000;1.000000;1.000000;-0.070700;0.070700;-0.070700;1.000000
445623.82520111;5696590.01849945;472.33064987;161;159;154;40863.000000;1.000000;1.000000;1.000000;1.000000;-0.188499;0.188499;-0.188499;1.000000
445623.72470100;5696589.97619827;472.34655001;113;111;105;28270.000000;1.000000;1.000000;1.000000;1.000000;-0.171510;0.171510;-0.171510;1.000000
445623.93250092;5696589.90159996;472.30154993;194;187;175;48059.000000;1.000000;1.000000;1.000000;1.000000;-0.071600;0.071600;-0.071600;1.000000
445623.92810066;5696590.00479897;472.30025007;166;162;157;41634.000000;1.000000;1.000000;1.000000;1.000000;-0.174799;0.174799;-0.174799;1.000000
445624.07560165;5696590.00739868;472.30224993;231;234;218;59367.000000;1.000000;1.000000;1.000000;1.000000;-0.192108;0.192108;-0.192108;1.000000
445623.92930229;5696589.96729858;472.29985001;60;56;54;14392.000000;1.000000;1.000000;1.000000;1.000000;-0.137299;0.137299;-0.137299;1.000000
445624.00330170;5696589.93239983;472.29815008;162;155;143;39835.000000;1.000000;1.000000;1.000000;1.000000;-0.102410;0.102410;-0.102410;1.000000
445623.96950157;5696589.89579971;472.29845001;152;147;133;37522.000000;1.000000;1.000000;1.000000;1.000000;-0.065809;0.065809;-0.065809;1.000000
445623.70520218;5696589.99429901;472.35055019;76;73;65;18761.000000;1.000000;1.000000;1.000000;1.000000;-0.197265;0.197265;-0.197265;1.000000
445623.89100082;5696589.96589859;472.31675007;180;179;175;45746.000000;1.000000;1.000000;1.000000;1.000000;-0.135901;0.135901;-0.135901;1.000000
445623.97960098;5696589.90419968;472.29904987;171;168;154;42919.000000;1.000000;1.000000;1.000000;1.000000;-0.074200;0.074200;-0.074200;1.000000
445623.67000206;5696589.91809853;472.35045006;171;166;156;42662.000000;1.000000;1.000000;1.000000;1.000000;-0.169132;0.169132;-0.169132;1.000000
445623.86420067;5696589.98229988;472.32504990;73;72;68;18247.000000;1.000000;1.000000;1.000000;1.000000;-0.152300;0.152300;-0.152300;1.000000
445623.79090126;5696589.92369850;472.32334997;126;123;118;31611.000000;1.000000;1.000000;1.000000;1.000000;-0.096595;0.096595;-0.096595;1.000000
445623.92250069;5696589.89320000;472.29864981;148;141;131;36494.000000;1.000000;1.000000;1.000000;1.000000;-0.063200;0.063200;-0.063200;1.000000
445623.88540085;5696589.89889915;472.30165007;140;136;127;34952.000000;1.000000;1.000000;1.000000;1.000000;-0.068899;0.068899;-0.068899;1.000000
445623.70430191;5696589.98499878;472.35045006;88;84;77;21588.000000;1.000000;1.000000;1.000000;1.000000;-0.190108;0.190108;-0.190108;1.000000
445623.89130219;5696589.99389847;472.31705000;76;74;71;19018.000000;1.000000;1.000000;1.000000;1.000000;-0.163903;0.163903;-0.163903;1.000000
445623.81940086;5696589.95139893;472.32025005;102;102;97;25957.000000;1.000000;1.000000;1.000000;1.000000;-0.121399;0.121399;-0.121399;1.000000
445623.96420105;5696590.01319893;472.29495003;84;81;73;20817.000000;1.000000;1.000000;1.000000;1.000000;-0.183312;0.183312;-0.183312;1.000000
445623.80250175;5696589.89459999;472.31885006;158;154;147;39578.000000;1.000000;1.000000;1.000000;1.000000;-0.065682;0.065682;-0.065682;1.000000
445623.84030159;5696589.89819916;472.31594994;193;191;184;48830.000000;1.000000;1.000000;1.000000;1.000000;-0.068298;0.068298;-0.068298;1.000000
445623.89370163;5696589.93779953;472.30254986;221;221;213;56540.000000;1.000000;1.000000;1.000000;1.000000;-0.107860;0.107860;-0.107860;1.000000
445623.89500244;5696589.90039833;472.29985001;136;131;122;33667.000000;1.000000;1.000000;1.000000;1.000000;-0.070570;0.070570;-0.070570;1.000000
445623.93200119;5696589.86899956;472.29645016;148;142;137;36751.000000;1.000000;1.000000;1.000000;1.000000;-0.039000;0.039000;-0.039000;1.000000
445623.69840248;5696589.94590004;472.34734966;188;185;178;47545.000000;1.000000;1.000000;1.000000;1.000000;-0.163960;0.163960;-0.163960;1.000000
445623.75270088;5696589.99699982;472.33874990;103;99;92;25443.000000;1.000000;1.000000;1.000000;1.000000;-0.178025;0.178025;-0.178025;1.000000
445623.90900238;5696590.00409897;472.30865004;147;144;141;37008.000000;1.000000;1.000000;1.000000;1.000000;-0.174099;0.174099;-0.174099;1.000000
445623.71830185;5696589.90219887;472.33374979;163;157;147;40349.000000;1.000000;1.000000;1.000000;1.000000;-0.120180;0.120180;-0.120180;1.000000
445623.66230209;5696589.93739899;472.35494997;171;167;158;42919.000000;1.000000;1.000000;1.000000;1.000000;-0.186176;0.186176;-0.186176;1.000000
445623.68750198;5696589.95619972;472.35164978;184;181;174;46517.000000;1.000000;1.000000;1.000000;1.000000;-0.178952;0.178952;-0.178952;1.000000
445623.65330132;5696589.91719826;472.35664989;143;139;129;35723.000000;1.000000;1.000000;1.000000;1.000000;-0.183164;0.183164;-0.183164;1.000000
445623.76640137;5696589.88399895;472.31944992;176;170;161;43690.000000;1.000000;1.000000;1.000000;1.000000;-0.072233;0.072233;-0.072233;1.000000
445623.80190094;5696589.88769920;472.31644966;149;145;137;37265.000000;1.000000;1.000000;1.000000;1.000000;-0.059033;0.059033;-0.059033;1.000000
445623.83950241;5696589.88889893;472.31584980;207;205;198;52428.000000;1.000000;1.000000;1.000000;1.000000;-0.058969;0.058969;-0.058969;1.000000
445624.04020126;5696590.00140007;472.29594995;160;155;143;39835.000000;1.000000;1.000000;1.000000;1.000000;-0.175632;0.175632;-0.175632;1.000000
445623.96590240;5696589.95689972;472.29675009;31;25;21;6682.000000;1.000000;1.000000;1.000000;1.000000;-0.126988;0.126988;-0.126988;1.000000
445623.89440163;5696589.91909988;472.30004980;154;151;143;38807.000000;1.000000;1.000000;1.000000;1.000000;-0.089205;0.089205;-0.089205;1.000000
445623.96930130;5696589.92149933;472.30345013;207;205;191;52428.000000;1.000000;1.000000;1.000000;1.000000;-0.091509;0.091509;-0.091509;1.000000
445623.93320091;5696589.88279922;472.29904987;148;141;131;36494.000000;1.000000;1.000000;1.000000;1.000000;-0.052799;0.052799;-0.052799;1.000000
445623.93130119;5696589.93899925;472.30195000;61;58;49;14649.000000;1.000000;1.000000;1.000000;1.000000;-0.108999;0.108999;-0.108999;1.000000
445623.84820183;5696589.90679939;472.31405022;139;138;132;35209.000000;1.000000;1.000000;1.000000;1.000000;-0.076799;0.076799;-0.076799;1.000000
445623.93810089;5696589.98519905;472.29815008;106;101;98;26214.000000;1.000000;1.000000;1.000000;1.000000;-0.155199;0.155199;-0.155199;1.000000
445623.90390213;5696589.94629868;472.30074980;214;214;207;54741.000000;1.000000;1.000000;1.000000;1.000000;-0.116375;0.116375;-0.116375;1.000000
445623.74220093;5696589.98629959;472.34285023;74;71;66;18247.000000;1.000000;1.000000;1.000000;1.000000;-0.172160;0.172160;-0.172160;1.000000
445623.85490234;5696589.98309906;472.32464983;120;119;116;30326.000000;1.000000;1.000000;1.000000;1.000000;-0.153099;0.153099;-0.153099;1.000000
445623.88700111;5696589.88949974;472.29934980;125;121;112;31097.000000;1.000000;1.000000;1.000000;1.000000;-0.059500;0.059500;-0.059500;1.000000
445623.90370186;5696589.91829880;472.30044987;146;142;133;36494.000000;1.000000;1.000000;1.000000;1.000000;-0.088410;0.088410;-0.088410;1.000000
445623.85040100;5696589.87859924;472.31154968;201;199;192;50886.000000;1.000000;1.000000;1.000000;1.000000;-0.048599;0.048599;-0.048599;1.000000
445623.68110092;5696589.93579872;472.34874966;135;131;122;33667.000000;1.000000;1.000000;1.000000;1.000000;-0.170165;0.170165;-0.170165;1.000000
445623.68040092;5696589.90089996;472.34364988;161;155;144;39835.000000;1.000000;1.000000;1.000000;1.000000;-0.151580;0.151580;-0.151580;1.000000
445624.01040085;5696590.00659950;472.29465010;121;112;106;29298.000000;1.000000;1.000000;1.000000;1.000000;-0.176805;0.176805;-0.176805;1.000000
445623.91760071;5696589.99399956;472.30424978;140;136;134;34952.000000;1.000000;1.000000;1.000000;1.000000;-0.164000;0.164000;-0.164000;1.000000
445623.98690231;5696590.00639923;472.29594995;71;66;53;16962.000000;1.000000;1.000000;1.000000;1.000000;-0.176399;0.176399;-0.176399;1.000000
445623.97200211;5696589.99609955;472.29514982;66;65;53;16191.000000;1.000000;1.000000;1.000000;1.000000;-0.166100;0.166100;-0.166100;1.000000
445623.73280151;5696589.98709877;472.34474995;72;69;63;17733.000000;1.000000;1.000000;1.000000;1.000000;-0.177016;0.177016;-0.177016;1.000000
445623.98040207;5696589.91349991;472.29915001;222;220;207;56283.000000;1.000000;1.000000;1.000000;1.000000;-0.083500;0.083500;-0.083500;1.000000
445623.82520111;5696589.99049957;472.32564976;146;144;139;37008.000000;1.000000;1.000000;1.000000;1.000000;-0.160500;0.160500;-0.160500;1.000000
445623.79110153;5696589.95159920;472.32604982;107;105;100;26985.000000;1.000000;1.000000;1.000000;1.000000;-0.123807;0.123807;-0.123807;1.000000
445623.75470169;5696589.91299828;472.32625010;173;168;160;43176.000000;1.000000;1.000000;1.000000;1.000000;-0.102225;0.102225;-0.102225;1.000000
445623.71660240;5696589.96519859;472.34845020;213;213;207;54484.000000;1.000000;1.000000;1.000000;1.000000;-0.166849;0.166849;-0.166849;1.000000
445623.87320145;5696590.00249870;472.32105019;147;144;141;37008.000000;1.000000;1.000000;1.000000;1.000000;-0.172499;0.172499;-0.172499;1.000000
445623.87430199;5696589.96269997;472.31825020;141;141;137;35980.000000;1.000000;1.000000;1.000000;1.000000;-0.132700;0.132700;-0.132700;1.000000
445623.83830078;5696589.92639931;472.31615021;205;204;199;52171.000000;1.000000;1.000000;1.000000;1.000000;-0.096414;0.096414;-0.096414;1.000000
445623.91250237;5696589.93839844;472.30104973;141;138;130;35466.000000;1.000000;1.000000;1.000000;1.000000;-0.108398;0.108398;-0.108398;1.000000
445623.95010193;5696589.93960007;472.30044987;45;42;32;10537.000000;1.000000;1.000000;1.000000;1.000000;-0.109600;0.109600;-0.109600;1.000000
445623.76210220;5696589.99619873;472.33684971;140;136;130;34952.000000;1.000000;1.000000;1.000000;1.000000;-0.174226;0.174226;-0.174226;1.000000
445623.87380226;5696589.98379906;472.32084991;58;55;51;14135.000000;1.000000;1.000000;1.000000;1.000000;-0.153799;0.153799;-0.153799;1.000000
445623.86860092;5696589.89799889;472.31024982;127;125;119;31868.000000;1.000000;1.000000;1.000000;1.000000;-0.067999;0.067999;-0.067999;1.000000
445623.90170105;5696590.00239952;472.31064989;136;133;129;34181.000000;1.000000;1.000000;1.000000;1.000000;-0.172519;0.172519;-0.172519;1.000000
445624.02230080;5696590.01009949;472.29754974;152;146;136;37522.000000;1.000000;1.000000;1.000000;1.000000;-0.181254;0.181254;-0.181254;1.000000
445623.76330193;5696589.95869835;472.33645012;194;193;188;49344.000000;1.000000;1.000000;1.000000;1.000000;-0.138463;0.138463;-0.138463;1.000000
445623.91170128;5696589.92919930;472.30095007;121;117;108;30069.000000;1.000000;1.000000;1.000000;1.000000;-0.099199;0.099199;-0.099199;1.000000
445623.91530235;5696589.89149864;472.29824974;115;108;99;28013.000000;1.000000;1.000000;1.000000;1.000000;-0.061499;0.061499;-0.061499;1.000000
445623.91370209;5696589.90099915;472.30065014;140;134;124;34438.000000;1.000000;1.000000;1.000000;1.000000;-0.070999;0.070999;-0.070999;1.000000
445623.98630150;5696589.89899834;472.29465010;119;115;103;29298.000000;1.000000;1.000000;1.000000;1.000000;-0.068998;0.068998;-0.068998;1.000000
445623.79850204;5696590.00700005;472.32935001;154;151;144;38807.000000;1.000000;1.000000;1.000000;1.000000;-0.177711;0.177711;-0.177711;1.000000
445623.87170227;5696590.01199921;472.32334997;187;185;183;47545.000000;1.000000;1.000000;1.000000;1.000000;-0.181999;0.181999;-0.181999;1.000000
445623.72930153;5696589.89189919;472.32945015;164;158;149;40606.000000;1.000000;1.000000;1.000000;1.000000;-0.105211;0.105211;-0.105211;1.000000
445623.95120247;5696589.90209969;472.30235006;213;207;194;53199.000000;1.000000;1.000000;1.000000;1.000000;-0.072100;0.072100;-0.072100;1.000000
445623.70650108;5696589.95679863;472.34784986;238;238;232;60909.000000;1.000000;1.000000;1.000000;1.000000;-0.166479;0.166479;-0.166479;1.000000
445623.90500076;5696589.88079842;472.29775002;73;70;66;17990.000000;1.000000;1.000000;1.000000;1.000000;-0.050895;0.050895;-0.050895;1.000000
445623.87680061;5696589.90899857;472.30604984;129;127;121;32382.000000;1.000000;1.000000;1.000000;1.000000;-0.078999;0.078999;-0.078999;1.000000
445623.96340187;5696590.00389870;472.29484989;80;74;68;19275.000000;1.000000;1.000000;1.000000;1.000000;-0.174049;0.174049;-0.174049;1.000000
445623.85840233;5696589.88959892;472.31204988;150;147;141;37779.000000;1.000000;1.000000;1.000000;1.000000;-0.059599;0.059599;-0.059599;1.000000
445623.98680122;5696589.90589912;472.29705002;160;156;142;39835.000000;1.000000;1.000000;1.000000;1.000000;-0.075899;0.075899;-0.075899;1.000000
445624.07010086;5696589.99629982;472.29724981;181;181;165;46003.000000;1.000000;1.000000;1.000000;1.000000;-0.179750;0.179750;-0.179750;1.000000
445623.88630112;5696589.90819939;472.30184986;143;140;131;35723.000000;1.000000;1.000000;1.000000;1.000000;-0.078199;0.078199;-0.078199;1.000000
445624.05010231;5696590.00980003;472.30114986;218;217;202;55255.000000;1.000000;1.000000;1.000000;1.000000;-0.186155;0.186155;-0.186155;1.000000
445623.71450241;5696589.99339874;472.34865000;80;74;66;19018.000000;1.000000;1.000000;1.000000;1.000000;-0.191505;0.191505;-0.191505;1.000000
445623.80190094;5696589.91339882;472.31904985;185;182;176;46774.000000;1.000000;1.000000;1.000000;1.000000;-0.084327;0.084327;-0.084327;1.000000
445623.97650154;5696589.89519890;472.29645016;137;132;118;33667.000000;1.000000;1.000000;1.000000;1.000000;-0.065199;0.065199;-0.065199;1.000000
445623.81730087;5696590.00759895;472.32784988;151;147;142;37779.000000;1.000000;1.000000;1.000000;1.000000;-0.177599;0.177599;-0.177599;1.000000
445623.81870087;5696589.97019966;472.32284977;153;152;148;38807.000000;1.000000;1.000000;1.000000;1.000000;-0.140200;0.140200;-0.140200;1.000000
445624.00380142;5696590.01179894;472.29675009;143;137;131;35466.000000;1.000000;1.000000;1.000000;1.000000;-0.181809;0.181809;-0.181809;1.000000
445623.77720078;5696590.00649841;472.33304979;182;178;172;45746.000000;1.000000;1.000000;1.000000;1.000000;-0.180371;0.180371;-0.180371;1.000000
445623.77870186;5696590.02499969;472.33794977;158;154;148;39578.000000;1.000000;1.000000;1.000000;1.000000;-0.198236;0.198236;-0.198236;1.000000
445623.86680229;5696589.92849930;472.31055023;225;225;220;57568.000000;1.000000;1.000000;1.000000;1.000000;-0.098499;0.098499;-0.098499;1.000000
445623.94210251;5696589.93099983;472.30464985;81;77;66;19532.000000;1.000000;1.000000;1.000000;1.000000;-0.101000;0.101000;-0.101000;1.000000
445623.81420143;5696590.02649887;472.33264973;156;154;149;39578.000000;1.000000;1.000000;1.000000;1.000000;-0.196499;0.196499;-0.196499;1.000000
445624.00440224;5696590.01879890;472.29684975;187;183;173;47031.000000;1.000000;1.000000;1.000000;1.000000;-0.188816;0.188816;-0.188816;1.000000
445623.89430244;5696589.89110001;472.29734995;112;107;99;27499.000000;1.000000;1.000000;1.000000;1.000000;-0.061246;0.061246;-0.061246;1.000000
445623.68910225;5696589.94669922;472.34924986;155;152;143;38807.000000;1.000000;1.000000;1.000000;1.000000;-0.171209;0.171209;-0.171209;1.000000
445623.72490128;5696589.95049866;472.34165003;240;240;235;61423.000000;1.000000;1.000000;1.000000;1.000000;-0.150086;0.150086;-0.150086;1.000000
445623.68830116;5696589.90949829;472.34184982;145;139;128;35723.000000;1.000000;1.000000;1.000000;1.000000;-0.149048;0.149048;-0.149048;1.000000
445624.07910164;5696589.99309929;472.29754974;202;204;187;51657.000000;1.000000;1.000000;1.000000;1.000000;-0.180458;0.180458;-0.180458;1.000000
445623.67900093;5696589.96629913;472.35374977;132;129;121;33153.000000;1.000000;1.000000;1.000000;1.000000;-0.192105;0.192105;-0.192105;1.000000
445624.07420166;5696589.98899849;472.29495003;220;221;204;56026.000000;1.000000;1.000000;1.000000;1.000000;-0.174675;0.174675;-0.174675;1.000000
445623.87660225;5696589.88099869;472.30574991;165;164;159;41891.000000;1.000000;1.000000;1.000000;1.000000;-0.050999;0.050999;-0.050999;1.000000
445623.86360176;5696589.97529991;472.32254984;77;76;73;19275.000000;1.000000;1.000000;1.000000;1.000000;-0.145300;0.145300;-0.145300;1.000000
445623.71770103;5696589.92089851;472.33395006;144;140;131;35980.000000;1.000000;1.000000;1.000000;1.000000;-0.132698;0.132698;-0.132698;1.000000
445623.76270111;5696589.97749908;472.33664991;88;85;79;21845.000000;1.000000;1.000000;1.000000;1.000000;-0.156290;0.156290;-0.156290;1.000000
445623.66860207;5696589.95549973;472.35545017;111;107;99;27499.000000;1.000000;1.000000;1.000000;1.000000;-0.192355;0.192355;-0.192355;1.000000
445623.63440140;5696589.91659935;472.35815002;100;95;85;24415.000000;1.000000;1.000000;1.000000;1.000000;-0.199727;0.199727;-0.199727;1.000000
445623.95040138;5696589.89289864;472.29995014;189;183;170;47031.000000;1.000000;1.000000;1.000000;1.000000;-0.062899;0.062899;-0.062899;1.000000
445623.89780243;5696590.01199921;472.31524994;178;177;173;45232.000000;1.000000;1.000000;1.000000;1.000000;-0.182161;0.182161;-0.182161;1.000000
445623.77990158;5696589.95959862;472.33255007;133;132;128;33667.000000;1.000000;1.000000;1.000000;1.000000;-0.134106;0.134106;-0.134106;1.000000
445623.78540237;5696589.88690002;472.31794979;174;168;160;43176.000000;1.000000;1.000000;1.000000;1.000000;-0.063853;0.063853;-0.063853;1.000000
445623.82060249;5696589.88830002;472.31724979;171;168;161;43176.000000;1.000000;1.000000;1.000000;1.000000;-0.058300;0.058300;-0.058300;1.000000
445623.79400070;5696589.90469940;472.32095005;154;150;143;38550.000000;1.000000;1.000000;1.000000;1.000000;-0.077429;0.077429;-0.077429;1.000000
445623.84620102;5696589.96299942;472.31934978;165;164;160;41891.000000;1.000000;1.000000;1.000000;1.000000;-0.132999;0.132999;-0.132999;1.000000
445623.79540070;5696590.02589996;472.33404972;161;158;152;40606.000000;1.000000;1.000000;1.000000;1.000000;-0.196817;0.196817;-0.196817;1.000000
