//X;Y;Z;R;G;B;Intensity;Return Number;Number Of Returns;Scan Direction Flag;Point Source ID;C2M signed distances[-][<0.8];C2M signed distances[<0.4];C2M signed distances[-][<0.2];Stump118
445648.88900192;5696564.29319962;470.11994984;124;124;94;30840.000000;1.000000;1.000000;1.000000;1.000000;0.019125;-0.019125;0.019125;1.000000
445648.89130219;5696564.46809967;470.11984994;163;163;150;41377.000000;1.000000;1.000000;1.000000;1.000000;-0.138100;0.138100;-0.138100;1.000000
445648.85620316;5696564.39199837;470.11964991;74;78;59;19018.000000;1.000000;1.000000;1.000000;1.000000;-0.061998;0.061998;-0.061998;1.000000
445648.80310257;5696564.33349998;470.13984992;169;170;155;43176.000000;1.000000;1.000000;1.000000;1.000000;-0.011805;0.011805;-0.011805;1.000000
445648.83160217;5696564.27979858;470.12185003;127;130;114;32639.000000;1.000000;1.000000;1.000000;1.000000;0.050201;-0.050201;0.050201;1.000000
445648.98430069;5696564.40829857;470.11165001;163;164;148;41377.000000;1.000000;1.000000;1.000000;1.000000;-0.109239;-0.109239;0.109239;1.000000
445648.88820084;5696564.48699959;470.12454988;141;140;128;35466.000000;1.000000;1.000000;1.000000;1.000000;-0.157000;0.157000;-0.157000;1.000000
445648.77400024;5696564.35239990;470.15034987;138;140;121;35209.000000;1.000000;1.000000;1.000000;1.000000;-0.023316;0.023316;-0.023316;1.000000
445648.85410126;5696564.44809921;470.12714984;148;150;139;38036.000000;1.000000;1.000000;1.000000;1.000000;-0.118099;0.118099;-0.118099;1.000000
445648.75730331;5696564.51769836;470.13524987;129;116;96;30069.000000;1.000000;1.000000;1.000000;1.000000;-0.187698;0.187698;-0.187698;1.000000
445648.87000092;5696564.52359970;470.13815000;206;206;196;52428.000000;1.000000;1.000000;1.000000;1.000000;-0.193660;0.193660;-0.193660;1.000000
445648.83740051;5696564.37249954;470.13255002;69;74;50;17733.000000;1.000000;1.000000;1.000000;1.000000;-0.042644;0.042644;-0.042644;1.000000
445648.80450256;5696564.29609879;470.13474991;104;103;90;25957.000000;1.000000;1.000000;1.000000;1.000000;0.035310;-0.035310;0.035310;1.000000
445648.90680130;5696564.28219994;470.11824991;123;123;92;30583.000000;1.000000;1.000000;1.000000;1.000000;0.001326;-0.001326;0.001326;1.000000
445648.76239975;5696564.42599876;470.14374997;82;85;65;20817.000000;1.000000;1.000000;1.000000;1.000000;-0.095999;0.095999;-0.095999;1.000000
445648.99070175;5696564.50109871;470.11074998;207;205;196;52428.000000;1.000000;1.000000;1.000000;1.000000;-0.189983;0.189983;-0.189983;1.000000
445648.91670044;5696564.48919876;470.11885001;178;175;162;44718.000000;1.000000;1.000000;1.000000;1.000000;-0.159429;0.159429;-0.159429;1.000000
445649.02940186;5696564.46479996;470.10964992;63;56;45;14392.000000;1.000000;1.000000;1.000000;1.000000;-0.181325;0.181325;-0.181325;1.000000
445648.95430191;5696564.49039848;470.11824991;61;60;49;15163.000000;1.000000;1.000000;1.000000;1.000000;-0.166913;0.166913;-0.166913;1.000000
445648.92020233;5696564.45150002;470.11854984;73;74;63;18504.000000;1.000000;1.000000;1.000000;1.000000;-0.122099;0.122099;-0.122099;1.000000
445648.98159988;5696564.45519836;470.11204984;186;186;174;47288.000000;1.000000;1.000000;1.000000;1.000000;-0.145165;0.145165;-0.145165;1.000000
445648.80970200;5696564.37959869;470.14065005;45;50;28;11822.000000;1.000000;1.000000;1.000000;1.000000;-0.049819;0.049819;-0.049819;1.000000
445648.77330215;5696564.37109955;470.15294983;129;134;113;33410.000000;1.000000;1.000000;1.000000;1.000000;-0.041501;0.041501;-0.041501;1.000000
445648.99559982;5696564.37920006;470.11185004;138;139;125;35209.000000;1.000000;1.000000;1.000000;1.000000;-0.100360;-0.100360;0.100360;1.000000
445648.92500122;5696564.30159958;470.11704995;151;153;126;38293.000000;1.000000;1.000000;1.000000;1.000000;-0.016874;0.016874;-0.016874;1.000000
445648.94330032;5696564.49839981;470.11784985;109;107;95;27242.000000;1.000000;1.000000;1.000000;1.000000;-0.172034;0.172034;-0.172034;1.000000
445648.92620285;5696564.26409920;470.11664989;152;151;121;38036.000000;1.000000;1.000000;1.000000;1.000000;-0.018076;0.018076;-0.018076;1.000000
445648.98120316;5696564.49969872;470.11025002;189;187;177;47802.000000;1.000000;1.000000;1.000000;1.000000;-0.184764;0.184764;-0.184764;1.000000
445648.99760254;5696564.35099991;470.11154987;166;167;152;42405.000000;1.000000;1.000000;1.000000;1.000000;-0.091907;-0.091907;0.091907;1.000000
445648.77700241;5696564.30559929;470.14065005;149;148;136;37522.000000;1.000000;1.000000;1.000000;1.000000;0.026193;-0.026193;0.026193;1.000000
445648.91740234;5696564.49609955;470.11894991;176;173;161;44204.000000;1.000000;1.000000;1.000000;1.000000;-0.166358;0.166358;-0.166358;1.000000
445648.95500000;5696564.49729927;470.11605002;79;78;67;19789.000000;1.000000;1.000000;1.000000;1.000000;-0.173742;0.173742;-0.173742;1.000000
445648.91880234;5696564.46099861;470.11864998;93;92;80;23130.000000;1.000000;1.000000;1.000000;1.000000;-0.131433;0.131433;-0.131433;1.000000
445648.90139969;5696564.45089920;470.12004997;137;138;127;34952.000000;1.000000;1.000000;1.000000;1.000000;-0.121003;0.121003;-0.121003;1.000000
445649.04950150;5696564.45589836;470.11284997;133;128;115;32896.000000;1.000000;1.000000;1.000000;1.000000;-0.189307;0.189307;-0.189307;1.000000
445648.81560333;5696564.49119957;470.13765003;155;153;137;38807.000000;1.000000;1.000000;1.000000;1.000000;-0.161200;0.161200;-0.161200;1.000000
445648.77830322;5696564.49239929;470.13594987;104;99;80;25186.000000;1.000000;1.000000;1.000000;1.000000;-0.162761;0.162761;-0.162761;1.000000
445648.85340317;5696564.49479874;470.13474991;120;122;110;30840.000000;1.000000;1.000000;1.000000;1.000000;-0.164799;0.164799;-0.164799;1.000000
445648.77940186;5696564.45489891;470.13784983;228;230;216;58339.000000;1.000000;1.000000;1.000000;1.000000;-0.125468;0.125468;-0.125468;1.000000
445648.87600143;5696564.40189941;470.11594989;173;177;164;44718.000000;1.000000;1.000000;1.000000;1.000000;-0.071905;0.071905;-0.071905;1.000000
445648.83230026;5696564.28899963;470.12434985;128;130;113;32639.000000;1.000000;1.000000;1.000000;1.000000;0.041000;-0.041000;0.041000;1.000000
445648.98820313;5696564.32389839;470.10844995;122;123;107;30840.000000;1.000000;1.000000;1.000000;1.000000;-0.080076;-0.080076;0.080076;1.000000
445649.02950104;5696564.28739937;470.10294988;163;162;152;41377.000000;1.000000;1.000000;1.000000;1.000000;-0.121374;-0.121374;0.121374;1.000000
445648.91730316;5696564.47039993;470.11864998;116;114;101;29041.000000;1.000000;1.000000;1.000000;1.000000;-0.140699;0.140699;-0.140699;1.000000
445648.81830032;5696564.41859825;470.13454988;129;132;119;33153.000000;1.000000;1.000000;1.000000;1.000000;-0.088598;0.088598;-0.088598;1.000000
445648.98530014;5696564.44319923;470.10975005;185;185;172;47031.000000;1.000000;1.000000;1.000000;1.000000;-0.137003;0.137003;-0.137003;1.000000
445648.82209976;5696564.30849846;470.13104989;108;109;94;27499.000000;1.000000;1.000000;1.000000;1.000000;0.021502;-0.021502;0.021502;1.000000
445649.00990112;5696564.27759941;470.10194995;189;188;175;47802.000000;1.000000;1.000000;1.000000;1.000000;-0.101774;-0.101774;0.101774;1.000000
445649.00280197;5696564.48129852;470.11104991;137;134;125;34181.000000;1.000000;1.000000;1.000000;1.000000;-0.178479;0.178479;-0.178479;1.000000
445648.77990158;5696564.43609818;470.14004995;139;143;127;35980.000000;1.000000;1.000000;1.000000;1.000000;-0.106823;0.106823;-0.106823;1.000000
445649.00210007;5696564.44639977;470.10594990;156;155;143;39321.000000;1.000000;1.000000;1.000000;1.000000;-0.149599;0.149599;-0.149599;1.000000
445649.03930099;5696564.44520004;470.10994985;115;111;96;28270.000000;1.000000;1.000000;1.000000;1.000000;-0.174579;0.174579;-0.174579;1.000000
445648.74320038;5696564.39739998;470.14724996;57;55;35;13621.000000;1.000000;1.000000;1.000000;1.000000;-0.067400;0.067400;-0.067400;1.000000
445649.00650223;5696564.37119873;470.11224987;155;156;143;39578.000000;1.000000;1.000000;1.000000;1.000000;-0.106654;-0.106654;0.106654;1.000000
445648.74930008;5696564.28479965;470.14144995;104;104;90;26214.000000;1.000000;1.000000;1.000000;1.000000;0.045200;-0.045200;0.045200;1.000000
445648.97160156;5696564.29509933;470.10734989;157;157;139;39835.000000;1.000000;1.000000;1.000000;1.000000;-0.063475;0.063475;-0.063475;1.000000
445649.00920303;5696564.29629906;470.10445001;166;165;153;41891.000000;1.000000;1.000000;1.000000;1.000000;-0.101076;-0.101076;0.101076;1.000000
445648.85980042;5696564.33539970;470.12844994;136;139;118;34695.000000;1.000000;1.000000;1.000000;1.000000;-0.005400;0.005400;-0.005400;1.000000
445648.83650024;5696564.41009911;470.12594988;102;107;92;26471.000000;1.000000;1.000000;1.000000;1.000000;-0.080142;0.080142;-0.080142;1.000000
445648.97720154;5696564.35979851;470.11774995;106;107;92;26985.000000;1.000000;1.000000;1.000000;1.000000;-0.075228;-0.075228;0.075228;1.000000
445648.88810165;5696564.51489838;470.13415005;131;129;118;32896.000000;1.000000;1.000000;1.000000;1.000000;-0.184898;0.184898;-0.184898;1.000000
445648.87660034;5696564.33629997;470.12224986;117;119;98;29812.000000;1.000000;1.000000;1.000000;1.000000;-0.006306;0.006306;-0.006306;1.000000
445648.99650009;5696564.38839920;470.11194994;162;164;148;41377.000000;1.000000;1.000000;1.000000;1.000000;-0.105926;-0.105926;0.105926;1.000000
445648.76710327;5696564.47239883;470.13524987;114;110;93;28013.000000;1.000000;1.000000;1.000000;1.000000;-0.142399;0.142399;-0.142399;1.000000
445648.74790009;5696564.32219894;470.14654996;159;159;145;40349.000000;1.000000;1.000000;1.000000;1.000000;0.007801;-0.007801;0.007801;1.000000
445648.78350266;5696564.32589920;470.14354994;184;184;170;46774.000000;1.000000;1.000000;1.000000;1.000000;0.016525;-0.016525;0.016525;1.000000
445648.99210175;5696564.49159821;470.11064984;208;204;195;52428.000000;1.000000;1.000000;1.000000;1.000000;-0.182115;0.182115;-0.182115;1.000000
445648.96120270;5696564.34019859;470.11914994;134;136;118;34181.000000;1.000000;1.000000;1.000000;1.000000;-0.054047;0.054047;-0.054047;1.000000
445648.96360214;5696564.48949821;470.11634995;64;64;55;16191.000000;1.000000;1.000000;1.000000;1.000000;-0.168870;0.168870;-0.168870;1.000000
445648.93070038;5696564.41309937;470.11854984;227;229;219;58339.000000;1.000000;1.000000;1.000000;1.000000;-0.086111;0.086111;-0.086111;1.000000
445648.92000015;5696564.42349823;470.11824991;168;170;161;43176.000000;1.000000;1.000000;1.000000;1.000000;-0.094249;0.094249;-0.094249;1.000000
445648.96610077;5696564.41689880;470.11794998;137;139;125;34952.000000;1.000000;1.000000;1.000000;1.000000;-0.104462;0.104462;-0.104462;1.000000
445648.86510284;5696564.41219910;470.11794998;211;215;203;54484.000000;1.000000;1.000000;1.000000;1.000000;-0.082199;0.082199;-0.082199;1.000000
445648.96949966;5696564.37909897;470.11994984;110;112;96;28013.000000;1.000000;1.000000;1.000000;1.000000;-0.078596;0.078596;-0.078596;1.000000
445648.90270050;5696564.41339882;470.11734988;193;197;187;49858.000000;1.000000;1.000000;1.000000;1.000000;0.083575;-0.083575;0.083575;1.000000
445648.88370331;5696564.38480003;470.11614992;95;98;83;24415.000000;1.000000;1.000000;1.000000;1.000000;-0.054800;0.054800;-0.054800;1.000000
445648.87640198;5696564.31059845;470.12424995;102;105;80;25957.000000;1.000000;1.000000;1.000000;1.000000;0.019407;-0.019407;0.019407;1.000000
445649.02020081;5696564.46569832;470.10924985;102;96;85;24672.000000;1.000000;1.000000;1.000000;1.000000;-0.175996;0.175996;-0.175996;1.000000
445648.86110123;5696564.50339897;470.13745000;176;177;164;44975.000000;1.000000;1.000000;1.000000;1.000000;-0.173399;0.173399;-0.173399;1.000000
445648.75420197;5696564.36819847;470.15435006;153;157;136;39321.000000;1.000000;1.000000;1.000000;1.000000;-0.038198;0.038198;-0.038198;1.000000
445648.86359985;5696564.44959839;470.12535002;147;149;138;37779.000000;1.000000;1.000000;1.000000;1.000000;-0.119598;0.119598;-0.119598;1.000000
445648.82710083;5696564.41089828;470.13014986;114;118;103;29555.000000;1.000000;1.000000;1.000000;1.000000;-0.080898;0.080898;-0.080898;1.000000
445648.87160309;5696564.48619850;470.12844994;117;118;104;29812.000000;1.000000;1.000000;1.000000;1.000000;-0.156288;0.156288;-0.156288;1.000000
445648.95180328;5696564.34099968;470.12334992;162;165;147;41634.000000;1.000000;1.000000;1.000000;1.000000;-0.045040;0.045040;-0.045040;1.000000
445649.00780304;5696564.33369835;470.10944988;164;164;150;41634.000000;1.000000;1.000000;1.000000;1.000000;-0.099745;-0.099745;0.099745;1.000000
445648.86710175;5696564.33709915;470.12644984;135;137;117;34438.000000;1.000000;1.000000;1.000000;1.000000;-0.007367;0.007367;-0.007367;1.000000
445648.86840256;5696564.29969986;470.12374999;115;118;93;29298.000000;1.000000;1.000000;1.000000;1.000000;0.030476;-0.030476;0.030476;1.000000
445648.86150177;5696564.30029877;470.12345006;133;136;114;33924.000000;1.000000;1.000000;1.000000;1.000000;0.029701;-0.029701;0.029701;1.000000
445648.94310196;5696564.32090004;470.11804988;122;124;103;31097.000000;1.000000;1.000000;1.000000;1.000000;-0.034975;0.034975;-0.034975;1.000000
445648.79500015;5696564.52119835;470.13704993;137;130;113;33410.000000;1.000000;1.000000;1.000000;1.000000;-0.192178;0.192178;-0.192178;1.000000
445648.95460327;5696564.26619919;470.11325004;154;155;131;39064.000000;1.000000;1.000000;1.000000;1.000000;-0.046476;0.046476;-0.046476;1.000000
445648.83240326;5696564.52239998;470.13874986;118;120;108;30326.000000;1.000000;1.000000;1.000000;1.000000;-0.192400;0.192400;-0.192400;1.000000
445648.75900085;5696564.51050003;470.13524987;156;145;123;37265.000000;1.000000;1.000000;1.000000;1.000000;-0.180500;0.180500;-0.180500;1.000000
445648.86910065;5696564.51429947;470.13794996;202;203;191;51657.000000;1.000000;1.000000;1.000000;1.000000;-0.184342;0.184342;-0.184342;1.000000
445648.86910065;5696564.28099831;470.12124993;161;162;138;40863.000000;1.000000;1.000000;1.000000;1.000000;0.039026;-0.039026;0.039026;1.000000
445648.75840195;5696564.48019989;470.13724997;115;108;88;27499.000000;1.000000;1.000000;1.000000;1.000000;-0.150200;0.150200;-0.150200;1.000000
445648.79620178;5696564.48369987;470.13664987;104;102;85;25700.000000;1.000000;1.000000;1.000000;1.000000;-0.154771;0.154771;-0.154771;1.000000
445648.83370026;5696564.48489960;470.13605000;101;100;83;25186.000000;1.000000;1.000000;1.000000;1.000000;-0.154900;0.154900;-0.154900;1.000000
445648.79730042;5696564.44619949;470.13855006;230;233;219;59110.000000;1.000000;1.000000;1.000000;1.000000;-0.117448;0.117448;-0.117448;1.000000
445648.83500107;5696564.44749840;470.13334991;131;132;119;33410.000000;1.000000;1.000000;1.000000;1.000000;-0.117504;0.117504;-0.117504;1.000000
445648.83850296;5696564.33499916;470.13444998;152;154;136;38807.000000;1.000000;1.000000;1.000000;1.000000;-0.006799;0.006799;-0.006799;1.000000
445648.89570053;5696564.33929832;470.11844995;135;136;117;34181.000000;1.000000;1.000000;1.000000;1.000000;-0.009298;0.009298;-0.009298;1.000000
445648.89690216;5696564.30179985;470.11804988;74;73;44;17990.000000;1.000000;1.000000;1.000000;1.000000;0.011225;-0.011225;0.011225;1.000000
445648.80020340;5696564.38039978;470.14494993;62;66;43;15934.000000;1.000000;1.000000;1.000000;1.000000;-0.052355;0.052355;-0.052355;1.000000
445648.95070084;5696564.37850006;470.12144997;78;80;65;19789.000000;1.000000;1.000000;1.000000;1.000000;-0.064535;0.064535;-0.064535;1.000000
445648.97500046;5696564.25729950;470.10944988;152;153;134;38550.000000;1.000000;1.000000;1.000000;1.000000;-0.066874;0.066874;-0.066874;1.000000
445648.85970123;5696564.51279839;470.13754990;217;218;205;55512.000000;1.000000;1.000000;1.000000;1.000000;-0.182798;0.182798;-0.182798;1.000000
445648.89760025;5696564.51639946;470.13234999;121;118;105;30069.000000;1.000000;1.000000;1.000000;1.000000;-0.186403;0.186403;-0.186403;1.000000
445648.82349976;5696564.29679878;470.12864997;106;106;91;26728.000000;1.000000;1.000000;1.000000;1.000000;0.033201;-0.033201;0.033201;1.000000
445648.90559967;5696564.31969841;470.11864998;121;120;97;30069.000000;1.000000;1.000000;1.000000;1.000000;0.002527;-0.002527;0.002527;1.000000
445648.76600082;5696564.50989922;470.13555004;133;123;103;31611.000000;1.000000;1.000000;1.000000;1.000000;-0.179899;0.179899;-0.179899;1.000000
445648.82300003;5696564.52089890;470.13835003;136;136;122;34438.000000;1.000000;1.000000;1.000000;1.000000;-0.190899;0.190899;-0.190899;1.000000
445648.92380341;5696564.51649864;470.12185003;139;135;123;34438.000000;1.000000;1.000000;1.000000;1.000000;-0.187156;0.187156;-0.187156;1.000000
445648.93330200;5696564.36839874;470.12284996;161;164;149;41377.000000;1.000000;1.000000;1.000000;1.000000;-0.045916;0.045916;-0.045916;1.000000
445648.86050232;5696564.52209862;470.13765003;226;227;217;57825.000000;1.000000;1.000000;1.000000;1.000000;-0.192099;0.192099;-0.192099;1.000000
445648.82270248;5696564.28749855;470.12614991;116;117;101;29298.000000;1.000000;1.000000;1.000000;1.000000;0.042501;-0.042501;0.042501;1.000000
445648.99930008;5696564.31589897;470.10655000;145;146;132;37008.000000;1.000000;1.000000;1.000000;1.000000;-0.091173;-0.091173;0.091173;1.000000
445648.87870224;5696564.51579865;470.13614990;155;155;142;39321.000000;1.000000;1.000000;1.000000;1.000000;-0.185799;0.185799;-0.185799;1.000000
445648.90590103;5696564.34769829;470.11664989;186;188;171;47545.000000;1.000000;1.000000;1.000000;1.000000;0.017838;-0.017838;0.017838;1.000000
445648.90699966;5696564.31019981;470.11864998;87;87;61;21588.000000;1.000000;1.000000;1.000000;1.000000;0.001127;-0.001127;0.001127;1.000000
445648.87070282;5696564.50479897;470.13564994;184;183;170;46517.000000;1.000000;1.000000;1.000000;1.000000;-0.174887;0.174887;-0.174887;1.000000
445648.80020340;5696564.42719849;470.13844993;132;136;120;34181.000000;1.000000;1.000000;1.000000;1.000000;-0.098226;0.098226;-0.098226;1.000000
445648.75520142;5696564.37749870;470.15214993;146;150;129;37522.000000;1.000000;1.000000;1.000000;1.000000;-0.047499;0.047499;-0.047499;1.000000
445648.83540161;5696564.27009972;470.11955001;151;154;139;38807.000000;1.000000;1.000000;1.000000;1.000000;0.059920;-0.059920;0.059920;1.000000
445648.89000137;5696564.47989853;470.12224986;144;144;133;36494.000000;1.000000;1.000000;1.000000;1.000000;-0.149899;0.149899;-0.149899;1.000000
445648.82550247;5696564.42029961;470.13255002;129;132;118;33153.000000;1.000000;1.000000;1.000000;1.000000;-0.090300;0.090300;-0.090300;1.000000
445648.94350250;5696564.27419861;470.11514999;164;165;141;41634.000000;1.000000;1.000000;1.000000;1.000000;-0.035376;0.035376;-0.035376;1.000000
445648.85320099;5696564.43890007;470.12704994;156;159;147;40092.000000;1.000000;1.000000;1.000000;1.000000;-0.108900;0.108900;-0.108900;1.000000
445648.83810242;5696564.35609825;470.13465001;125;128;106;31868.000000;1.000000;1.000000;1.000000;1.000000;-0.026435;0.026435;-0.026435;1.000000
445648.97210129;5696564.27629860;470.10955002;144;144;124;36237.000000;1.000000;1.000000;1.000000;1.000000;-0.063974;0.063974;-0.063974;1.000000
445648.75150116;5696564.48079880;470.13695004;118;109;89;28013.000000;1.000000;1.000000;1.000000;1.000000;-0.150799;0.150799;-0.150799;1.000000
445649.02600296;5696564.35309990;470.10824992;154;153;141;38807.000000;1.000000;1.000000;1.000000;1.000000;-0.120118;-0.120118;0.120118;1.000000
445648.78670319;5696564.48229988;470.13625004;94;90;73;22873.000000;1.000000;1.000000;1.000000;1.000000;-0.153511;0.153511;-0.153511;1.000000
445648.82420166;5696564.48339851;470.13794996;109;108;90;27242.000000;1.000000;1.000000;1.000000;1.000000;-0.153399;0.153399;-0.153399;1.000000
445648.95960052;5696564.34959991;470.12384989;163;165;149;41634.000000;1.000000;1.000000;1.000000;1.000000;-0.055079;0.055079;-0.055079;1.000000
445648.84250076;5696564.29969986;470.12724998;153;155;137;39064.000000;1.000000;1.000000;1.000000;1.000000;0.030461;-0.030461;0.030461;1.000000
445648.87800034;5696564.30119904;470.12185003;107;109;82;26985.000000;1.000000;1.000000;1.000000;1.000000;0.028801;-0.028801;0.028801;1.000000
445648.99460037;5696564.41669853;470.10754992;115;116;101;29298.000000;1.000000;1.000000;1.000000;1.000000;-0.122451;-0.122451;0.122451;1.000000
445648.88520248;5696564.37529953;470.11605002;104;106;90;26471.000000;1.000000;1.000000;1.000000;1.000000;-0.045300;0.045300;-0.045300;1.000000
445648.92250259;5696564.37649925;470.12014987;154;157;142;39578.000000;1.000000;1.000000;1.000000;1.000000;-0.048671;0.048671;-0.048671;1.000000
445648.86210068;5696564.48699959;470.13264992;115;116;104;29298.000000;1.000000;1.000000;1.000000;1.000000;-0.157000;0.157000;-0.157000;1.000000
445649.00950058;5696564.50169952;470.10924985;113;109;100;28013.000000;1.000000;1.000000;1.000000;1.000000;-0.199392;0.199392;-0.199392;1.000000
445649.01070221;5696564.46429832;470.10885002;136;132;121;33667.000000;1.000000;1.000000;1.000000;1.000000;-0.168990;0.168990;-0.168990;1.000000
445648.93600281;5696564.47099884;470.11955001;94;92;79;23387.000000;1.000000;1.000000;1.000000;1.000000;-0.143728;0.143728;-0.143728;1.000000
445648.93720062;5696564.43349846;470.11914994;77;78;67;19532.000000;1.000000;1.000000;1.000000;1.000000;-0.107504;0.107504;-0.107504;1.000000
445648.78960236;5696564.41649826;470.14255001;126;132;116;32896.000000;1.000000;1.000000;1.000000;1.000000;-0.089280;0.089280;-0.089280;1.000000
445648.97500046;5696564.43479927;470.11384990;121;122;108;30840.000000;1.000000;1.000000;1.000000;1.000000;-0.124318;0.124318;-0.124318;1.000000
445648.75370224;5696564.38699921;470.15224983;111;113;94;28270.000000;1.000000;1.000000;1.000000;1.000000;-0.056999;0.056999;-0.056999;1.000000
445648.75200089;5696564.41529854;470.14544990;72;71;53;17733.000000;1.000000;1.000000;1.000000;1.000000;-0.085299;0.085299;-0.085299;1.000000
445648.79290207;5696564.37869843;470.14684989;90;94;71;23130.000000;1.000000;1.000000;1.000000;1.000000;-0.053223;0.053223;-0.053223;1.000000
445649.01670273;5696564.35389908;470.11014988;169;168;157;42919.000000;1.000000;1.000000;1.000000;1.000000;-0.111175;-0.111175;0.111175;1.000000
445648.96050079;5696564.35889824;470.12165000;136;138;123;34695.000000;1.000000;1.000000;1.000000;1.000000;-0.059817;0.059817;-0.059817;1.000000
445648.75819977;5696564.30489929;470.14214994;147;146;134;37008.000000;1.000000;1.000000;1.000000;1.000000;0.025101;-0.025101;0.025101;1.000000
445648.98010071;5696564.31289871;470.11034991;143;144;126;36237.000000;1.000000;1.000000;1.000000;1.000000;-0.071974;-0.071974;0.071974;1.000000
445648.98390015;5696564.27759941;470.10774996;152;151;134;38293.000000;1.000000;1.000000;1.000000;1.000000;-0.075773;-0.075773;0.075773;1.000000
445648.79030045;5696564.44689949;470.13824989;229;232;218;58853.000000;1.000000;1.000000;1.000000;1.000000;-0.119108;0.119108;-0.119108;1.000000
445648.82540329;5696564.44599922;470.13754990;133;134;121;33924.000000;1.000000;1.000000;1.000000;1.000000;-0.115999;0.115999;-0.115999;1.000000
445648.94670303;5696564.46069916;470.11984994;194;195;183;49601.000000;1.000000;1.000000;1.000000;1.000000;-0.136273;0.136273;-0.136273;1.000000
445648.98220261;5696564.46209915;470.11454989;139;138;126;34952.000000;1.000000;1.000000;1.000000;1.000000;-0.151451;0.151451;-0.151451;1.000000
445648.94810303;5696564.42549904;470.11955001;151;153;141;38807.000000;1.000000;1.000000;1.000000;1.000000;-0.103529;0.103529;-0.103529;1.000000
445648.98690231;5696564.38699921;470.11384990;155;156;141;39578.000000;1.000000;1.000000;1.000000;1.000000;-0.097234;-0.097234;0.097234;1.000000
445648.85030182;5696564.30829819;470.12765004;157;158;138;39835.000000;1.000000;1.000000;1.000000;1.000000;0.021702;-0.021702;0.021702;1.000000
445648.90929993;5696564.45949944;470.11815001;135;135;123;34181.000000;1.000000;1.000000;1.000000;1.000000;-0.129505;0.129505;-0.129505;1.000000
445648.85120209;5696564.31759842;470.12784984;153;155;136;39064.000000;1.000000;1.000000;1.000000;1.000000;0.012402;-0.012402;0.012402;1.000000
445648.88330276;5696564.43149956;470.11905005;142;145;134;36494.000000;1.000000;1.000000;1.000000;1.000000;-0.101500;0.101500;-0.101500;1.000000
445648.95960052;5696564.39649971;470.11734988;117;119;105;29812.000000;1.000000;1.000000;1.000000;1.000000;-0.084094;0.084094;-0.084094;1.000000
445648.83150299;5696564.33559998;470.13644983;163;165;148;41634.000000;1.000000;1.000000;1.000000;1.000000;-0.005600;0.005600;-0.005600;1.000000
445648.94070251;5696564.39579971;470.11885001;96;99;85;24672.000000;1.000000;1.000000;1.000000;1.000000;-0.073422;0.073422;-0.073422;1.000000
445648.90450104;5696564.35719879;470.11675002;195;197;181;49858.000000;1.000000;1.000000;1.000000;1.000000;0.027439;-0.027439;0.027439;1.000000
445648.93750198;5696564.46149834;470.11944987;120;118;106;30069.000000;1.000000;1.000000;1.000000;1.000000;-0.134739;0.134739;-0.134739;1.000000
445648.76519974;5696564.30429848;470.14014985;156;154;142;39321.000000;1.000000;1.000000;1.000000;1.000000;0.025702;-0.025702;0.025702;1.000000
445649.02020081;5696564.49139984;470.10955002;115;110;101;28270.000000;1.000000;1.000000;1.000000;1.000000;-0.196495;0.196495;-0.196495;1.000000
445648.86860092;5696564.32769974;470.12644984;135;136;115;34181.000000;1.000000;1.000000;1.000000;1.000000;0.004160;-0.004160;0.004160;1.000000
445648.75660141;5696564.34229858;470.15185000;167;168;153;42662.000000;1.000000;1.000000;1.000000;1.000000;-0.012299;0.012299;-0.012299;1.000000
445648.98970230;5696564.31439980;470.10844995;144;145;130;36751.000000;1.000000;1.000000;1.000000;1.000000;-0.081575;-0.081575;0.081575;1.000000
445648.87000092;5696564.29019936;470.12134983;134;136;111;33924.000000;1.000000;1.000000;1.000000;1.000000;0.038126;-0.038126;0.038126;1.000000
445648.91820343;5696564.47969826;470.11885001;154;151;139;38550.000000;1.000000;1.000000;1.000000;1.000000;-0.150037;0.150037;-0.150037;1.000000
445648.99100311;5696564.27689941;470.10574986;159;159;143;40349.000000;1.000000;1.000000;1.000000;1.000000;-0.082876;-0.082876;0.082876;1.000000
445648.76190002;5696564.44479950;470.14164998;116;117;100;29298.000000;1.000000;1.000000;1.000000;1.000000;-0.114799;0.114799;-0.114799;1.000000
445648.91160019;5696564.38449867;470.11975004;160;163;149;41120.000000;1.000000;1.000000;1.000000;1.000000;-0.054609;0.054609;-0.054609;1.000000
445648.93640335;5696564.49899872;470.11754992;153;149;136;38036.000000;1.000000;1.000000;1.000000;1.000000;-0.171348;0.171348;-0.171348;1.000000
445649.02169998;5696564.45629890;470.10695006;111;106;94;27242.000000;1.000000;1.000000;1.000000;1.000000;-0.169854;0.169854;-0.169854;1.000000
445648.97410019;5696564.42549904;470.11375000;101;102;88;25700.000000;1.000000;1.000000;1.000000;1.000000;-0.116071;0.116071;-0.116071;1.000000
445648.97810181;5696564.34339912;470.11524989;108;110;95;27499.000000;1.000000;1.000000;1.000000;1.000000;-0.071246;-0.071246;0.071246;1.000000
445649.03090103;5696564.45539864;470.10964992;78;73;61;18761.000000;1.000000;1.000000;1.000000;1.000000;-0.175494;0.175494;-0.175494;1.000000
445648.97750290;5696564.38779839;470.11574986;144;145;130;36751.000000;1.000000;1.000000;1.000000;1.000000;-0.090298;-0.090298;0.090298;1.000000
445648.91130264;5696564.40559967;470.11765005;157;160;150;40606.000000;1.000000;1.000000;1.000000;1.000000;-0.075666;0.075666;-0.075666;1.000000
445648.79840286;5696564.40869911;470.14054992;139;143;127;35980.000000;1.000000;1.000000;1.000000;1.000000;-0.080304;0.080304;-0.080304;1.000000
445648.82040222;5696564.34359940;470.13844993;173;175;157;44204.000000;1.000000;1.000000;1.000000;1.000000;-0.013599;0.013599;-0.013599;1.000000
445648.94380005;5696564.30219849;470.11555006;134;136;112;33924.000000;1.000000;1.000000;1.000000;1.000000;-0.035673;0.035673;-0.035673;1.000000
445648.78640182;5696564.30469902;470.13874986;145;143;131;36494.000000;1.000000;1.000000;1.000000;1.000000;0.031599;-0.031599;0.031599;1.000000
445649.00590332;5696564.38989838;470.11244990;161;161;146;40863.000000;1.000000;1.000000;1.000000;1.000000;-0.114665;-0.114665;0.114665;1.000000
445648.94460114;5696564.28569992;470.11535003;156;158;135;39578.000000;1.000000;1.000000;1.000000;1.000000;-0.036474;0.036474;-0.036474;1.000000
445649.00720032;5696564.35239990;470.10964992;177;176;162;44718.000000;1.000000;1.000000;1.000000;1.000000;-0.101574;-0.101574;0.101574;1.000000
445648.91600235;5696564.50789841;470.12134983;151;148;137;37779.000000;1.000000;1.000000;1.000000;1.000000;-0.178073;0.178073;-0.178073;1.000000
445649.01530273;5696564.38909920;470.11045005;163;163;148;41377.000000;1.000000;1.000000;1.000000;1.000000;-0.122390;-0.122390;0.122390;1.000000
445648.79210098;5696564.34379967;470.14415004;158;158;142;40092.000000;1.000000;1.000000;1.000000;1.000000;-0.026204;0.026204;-0.026204;1.000000
445649.01799973;5696564.31639870;470.10745003;156;156;144;39578.000000;1.000000;1.000000;1.000000;1.000000;-0.109873;-0.109873;0.109873;1.000000
445648.97510345;5696564.46279915;470.11654999;168;168;156;42662.000000;1.000000;1.000000;1.000000;1.000000;-0.148733;0.148733;-0.148733;1.000000
445648.93980225;5696564.38659866;470.12104990;75;76;61;19018.000000;1.000000;1.000000;1.000000;1.000000;-0.064859;0.064859;-0.064859;1.000000
445648.83419998;5696564.43820007;470.13314988;136;138;126;34952.000000;1.000000;1.000000;1.000000;1.000000;-0.108201;0.108201;-0.108201;1.000000
445648.83889969;5696564.36299904;470.13244988;114;117;93;29041.000000;1.000000;1.000000;1.000000;1.000000;-0.033377;0.033377;-0.033377;1.000000
445648.77230270;5696564.40869911;470.14864995;106;110;92;27242.000000;1.000000;1.000000;1.000000;1.000000;-0.078844;0.078844;-0.078844;1.000000
445648.99330338;5696564.45419891;470.11025002;155;154;142;39064.000000;1.000000;1.000000;1.000000;1.000000;-0.150600;0.150600;-0.150600;1.000000
445648.80890091;5696564.37259872;470.14284994;66;71;47;16962.000000;1.000000;1.000000;1.000000;1.000000;-0.042949;0.042949;-0.042949;1.000000
445648.73850067;5696564.32069977;470.14605000;143;143;129;36237.000000;1.000000;1.000000;1.000000;1.000000;0.009300;-0.009300;0.009300;1.000000
445648.96430023;5696564.29339989;470.10934999;160;160;139;40349.000000;1.000000;1.000000;1.000000;1.000000;-0.056173;0.056173;-0.056173;1.000000
445648.94030197;5696564.36779984;470.12314989;146;148;133;37265.000000;1.000000;1.000000;1.000000;1.000000;-0.049639;0.049639;-0.049639;1.000000
445648.80340012;5696564.51109894;470.13724997;160;157;141;40092.000000;1.000000;1.000000;1.000000;1.000000;-0.181431;0.181431;-0.181431;1.000000
445648.84090240;5696564.51229866;470.13664987;125;127;114;31868.000000;1.000000;1.000000;1.000000;1.000000;-0.182360;0.182360;-0.182360;1.000000
445649.00160034;5696564.49309929;470.11115005;150;146;138;37522.000000;1.000000;1.000000;1.000000;1.000000;-0.187986;0.187986;-0.187986;1.000000
445648.91050156;5696564.42199905;470.11774995;172;175;166;44461.000000;1.000000;1.000000;1.000000;1.000000;-0.092030;0.092030;-0.092030;1.000000
445648.87450226;5696564.38569839;470.11574986;66;70;52;16962.000000;1.000000;1.000000;1.000000;1.000000;-0.055749;0.055749;-0.055749;1.000000
445648.80690201;5696564.47339828;470.13704993;89;88;72;22102.000000;1.000000;1.000000;1.000000;1.000000;-0.143593;0.143593;-0.143593;1.000000
445648.84220322;5696564.47479828;470.13395001;92;93;77;23130.000000;1.000000;1.000000;1.000000;1.000000;-0.144839;0.144839;-0.144839;1.000000
445648.98830231;5696564.35179909;470.11344983;134;135;120;34181.000000;1.000000;1.000000;1.000000;1.000000;-0.083086;-0.083086;0.083086;1.000000
445649.03790100;5696564.45699890;470.11235001;93;87;74;22359.000000;1.000000;1.000000;1.000000;1.000000;-0.181577;0.181577;-0.181577;1.000000
445648.74419983;5696564.40659912;470.14504983;63;61;42;15163.000000;1.000000;1.000000;1.000000;1.000000;-0.076599;0.076599;-0.076599;1.000000
445648.78160294;5696564.40779884;470.14674999;149;154;137;38550.000000;1.000000;1.000000;1.000000;1.000000;-0.079065;0.079065;-0.079065;1.000000
445648.76590164;5696564.34149940;470.14984991;157;159;143;40092.000000;1.000000;1.000000;1.000000;1.000000;-0.011499;0.011499;-0.011499;1.000000
445648.87770279;5696564.34789856;470.12004997;113;115;94;28784.000000;1.000000;1.000000;1.000000;1.000000;-0.017899;0.017899;-0.017899;1.000000
445648.91310318;5696564.34939964;470.11704995;135;137;120;34438.000000;1.000000;1.000000;1.000000;1.000000;-0.020028;0.020028;-0.020028;1.000000
445648.91650208;5696564.31169899;470.11905005;128;128;103;32125.000000;1.000000;1.000000;1.000000;1.000000;-0.008375;0.008375;-0.008375;1.000000
445648.84250076;5696564.26949890;470.11754992;159;162;145;40863.000000;1.000000;1.000000;1.000000;1.000000;0.060582;-0.060582;0.060582;1.000000
445648.95310028;5696564.27569969;470.11334993;154;156;133;39064.000000;1.000000;1.000000;1.000000;1.000000;-0.044973;0.044973;-0.044973;1.000000
445648.74860199;5696564.30349930;470.14404990;145;144;130;36494.000000;1.000000;1.000000;1.000000;1.000000;0.026501;-0.026501;0.026501;1.000000
445648.78490265;5696564.34209831;470.14605000;150;151;135;38036.000000;1.000000;1.000000;1.000000;1.000000;-0.021189;0.021189;-0.021189;1.000000
445648.93390091;5696564.34969910;470.12264993;131;133;116;33410.000000;1.000000;1.000000;1.000000;1.000000;-0.032440;0.032440;-0.032440;1.000000
445649.00510223;5696564.38060005;470.11224987;150;151;137;38293.000000;1.000000;1.000000;1.000000;1.000000;-0.109383;-0.109383;0.109383;1.000000
445648.80820282;5696564.43820007;470.13894989;183;185;173;47031.000000;1.000000;1.000000;1.000000;1.000000;-0.108376;0.108376;-0.108376;1.000000
445648.80170258;5696564.37089928;470.14485003;67;72;47;17219.000000;1.000000;1.000000;1.000000;1.000000;-0.042818;0.042818;-0.042818;1.000000
445648.73710068;5696564.33249863;470.14844992;167;166;153;42148.000000;1.000000;1.000000;1.000000;1.000000;-0.002499;0.002499;-0.002499;1.000000
445648.92800339;5696564.46009834;470.11905005;74;73;61;18247.000000;1.000000;1.000000;1.000000;1.000000;-0.131608;0.131608;-0.131608;1.000000
445648.95180328;5696564.31309898;470.11605002;125;127;107;31868.000000;1.000000;1.000000;1.000000;1.000000;-0.043676;0.043676;-0.043676;1.000000
445648.95260056;5696564.35029991;470.12345006;190;193;176;48830.000000;1.000000;1.000000;1.000000;1.000000;-0.048888;0.048888;-0.048888;1.000000
445648.77410324;5696564.38039978;470.15304996;143;148;128;37008.000000;1.000000;1.000000;1.000000;1.000000;-0.050825;0.050825;-0.050825;1.000000
445648.96560104;5696564.46129997;470.11844995;199;200;189;50886.000000;1.000000;1.000000;1.000000;1.000000;-0.143328;0.143328;-0.143328;1.000000
445648.97270020;5696564.50980003;470.11235001;114;114;103;28784.000000;1.000000;1.000000;1.000000;1.000000;-0.191044;0.191044;-0.191044;1.000000
445649.01160248;5696564.47349937;470.10894992;126;121;112;31097.000000;1.000000;1.000000;1.000000;1.000000;-0.176916;0.176916;-0.176916;1.000000
445648.79080017;5696564.42809875;470.14045002;120;125;109;31097.000000;1.000000;1.000000;1.000000;1.000000;-0.100833;0.100833;-0.100833;1.000000
445649.00850113;5696564.31499870;470.10695006;155;156;143;39578.000000;1.000000;1.000000;1.000000;1.000000;-0.100374;-0.100374;0.100374;1.000000
445648.79150208;5696564.38819893;470.14695003;132;136;116;33924.000000;1.000000;1.000000;1.000000;1.000000;-0.062533;0.062533;-0.062533;1.000000
445649.01500137;5696564.36109932;470.11014988;163;162;150;41120.000000;1.000000;1.000000;1.000000;1.000000;-0.111307;-0.111307;0.111307;1.000000
445648.75670059;5696564.31439980;470.14214994;173;172;161;43947.000000;1.000000;1.000000;1.000000;1.000000;0.015600;-0.015600;0.015600;1.000000
445649.01790054;5696564.28849991;470.10244991;178;176;164;44975.000000;1.000000;1.000000;1.000000;1.000000;-0.109774;-0.109774;0.109774;1.000000
445648.98250015;5696564.28699883;470.10774996;156;155;138;39321.000000;1.000000;1.000000;1.000000;1.000000;-0.074373;-0.074373;0.074373;1.000000
445648.87300308;5696564.44879921;470.12334992;145;147;137;37265.000000;1.000000;1.000000;1.000000;1.000000;-0.118862;0.118862;-0.118862;1.000000
445648.89180191;5696564.42139824;470.11695005;175;178;169;45232.000000;1.000000;1.000000;1.000000;1.000000;-0.091398;0.091398;-0.091398;1.000000
445648.92920120;5696564.42259987;470.11864998;165;167;157;42405.000000;1.000000;1.000000;1.000000;1.000000;-0.094968;0.094968;-0.094968;1.000000
445648.77480133;5696564.33369835;470.14555003;172;173;159;43947.000000;1.000000;1.000000;1.000000;1.000000;-0.008180;0.008180;-0.008180;1.000000
445648.81180008;5696564.32569893;470.13784983;169;170;156;43176.000000;1.000000;1.000000;1.000000;1.000000;0.005014;-0.005014;0.005014;1.000000
445648.99680145;5696564.34169968;470.11144998;157;158;144;40092.000000;1.000000;1.000000;1.000000;1.000000;-0.089443;-0.089443;0.089443;1.000000
445648.98100098;5696564.32219894;470.11045005;125;126;108;31611.000000;1.000000;1.000000;1.000000;1.000000;-0.072874;-0.072874;0.072874;1.000000
445648.75790222;5696564.27689941;470.14174988;128;128;116;32382.000000;1.000000;1.000000;1.000000;1.000000;0.053101;-0.053101;0.053101;1.000000
445649.01950272;5696564.27909859;470.10004999;188;186;175;47545.000000;1.000000;1.000000;1.000000;1.000000;-0.111376;-0.111376;0.111376;1.000000
445648.74640091;5696564.33159836;470.14884998;174;174;161;44204.000000;1.000000;1.000000;1.000000;1.000000;-0.001598;0.001598;-0.001598;1.000000
445648.90500076;5696564.33839996;470.11885001;174;175;156;44204.000000;1.000000;1.000000;1.000000;1.000000;0.008963;-0.008963;0.008963;1.000000
445648.76750000;5696564.33199890;470.14754989;181;182;168;46260.000000;1.000000;1.000000;1.000000;1.000000;-0.001999;0.001999;-0.001999;1.000000
445648.77470215;5696564.52779968;470.13384988;145;134;116;34695.000000;1.000000;1.000000;1.000000;1.000000;-0.197933;0.197933;-0.197933;1.000000
445648.97310074;5696564.31349953;470.11235001;140;141;122;35466.000000;1.000000;1.000000;1.000000;1.000000;-0.064974;0.064974;-0.064974;1.000000
445648.85900314;5696564.32619865;470.12824990;136;139;119;34695.000000;1.000000;1.000000;1.000000;1.000000;0.003801;-0.003801;0.003801;1.000000
445648.86070068;5696564.29109962;470.12095000;139;142;119;35466.000000;1.000000;1.000000;1.000000;1.000000;0.038900;-0.038900;0.038900;1.000000
445648.83090027;5696564.35439880;470.13664987;150;151;130;38036.000000;1.000000;1.000000;1.000000;1.000000;-0.024399;0.024399;-0.024399;1.000000
445648.90870102;5696564.47819908;470.11835005;179;177;164;45232.000000;1.000000;1.000000;1.000000;1.000000;-0.148200;0.148200;-0.148200;1.000000
445649.05809982;5696564.44809921;470.11314990;159;155;142;39578.000000;1.000000;1.000000;1.000000;1.000000;-0.190891;0.190891;-0.190891;1.000000
445648.97350128;5696564.26680000;470.10944988;144;145;126;36494.000000;1.000000;1.000000;1.000000;1.000000;-0.065374;0.065374;-0.065374;1.000000
445649.02520187;5696564.34379967;470.10804989;164;163;151;41377.000000;1.000000;1.000000;1.000000;1.000000;-0.117885;-0.117885;0.117885;1.000000
445648.75780304;5696564.49889954;470.13745000;178;168;148;43176.000000;1.000000;1.000000;1.000000;1.000000;-0.168900;0.168900;-0.168900;1.000000
445648.79549988;5696564.50019844;470.13444998;154;149;133;38036.000000;1.000000;1.000000;1.000000;1.000000;-0.171242;0.171242;-0.171242;1.000000
445648.83310135;5696564.50359924;470.13625004;139;139;124;35209.000000;1.000000;1.000000;1.000000;1.000000;-0.173599;0.173599;-0.173599;1.000000
445648.90730103;5696564.26349838;470.11804988;169;169;140;42405.000000;1.000000;1.000000;1.000000;1.000000;0.000826;-0.000826;0.000826;1.000000
445648.94530304;5696564.26699837;470.11284997;159;158;133;39835.000000;1.000000;1.000000;1.000000;1.000000;-0.037176;0.037176;-0.037176;1.000000
445648.95620163;5696564.46209915;470.12034990;213;214;203;54484.000000;1.000000;1.000000;1.000000;1.000000;-0.140575;0.140575;-0.140575;1.000000
445648.97229965;5696564.30429848;470.10984995;155;155;137;39321.000000;1.000000;1.000000;1.000000;1.000000;-0.064173;0.064173;-0.064173;1.000000
445649.01010330;5696564.30549820;470.10454990;152;152;140;38550.000000;1.000000;1.000000;1.000000;1.000000;-0.101976;-0.101976;0.101976;1.000000
445648.88710220;5696564.34709938;470.11815001;115;118;99;29555.000000;1.000000;1.000000;1.000000;1.000000;-0.017099;0.017099;-0.017099;1.000000
445648.92220123;5696564.34849937;470.11975004;98;100;84;24929.000000;1.000000;1.000000;1.000000;1.000000;-0.023245;0.023245;-0.023245;1.000000
445648.88820084;5696564.30959900;470.12014987;87;86;59;21331.000000;1.000000;1.000000;1.000000;1.000000;0.019926;-0.019926;0.019926;1.000000
445648.92580231;5696564.31079872;470.11714985;176;177;153;44718.000000;1.000000;1.000000;1.000000;1.000000;-0.017675;0.017675;-0.017675;1.000000
445648.96140106;5696564.31460007;470.11414983;133;135;115;33924.000000;1.000000;1.000000;1.000000;1.000000;-0.053274;0.053274;-0.053274;1.000000
445648.79269989;5696564.35069855;470.14654996;138;140;120;35209.000000;1.000000;1.000000;1.000000;1.000000;-0.029972;0.029972;-0.029972;1.000000
445649.01620300;5696564.32359894;470.10975005;167;166;154;42148.000000;1.000000;1.000000;1.000000;1.000000;-0.108076;-0.108076;0.108076;1.000000
445648.79510315;5696564.29689987;470.13675000;105;104;91;26214.000000;1.000000;1.000000;1.000000;1.000000;0.038303;-0.038303;0.038303;1.000000
445648.95750244;5696564.42469986;470.11765005;133;135;122;33924.000000;1.000000;1.000000;1.000000;1.000000;-0.106799;0.106799;-0.106799;1.000000
445648.98890121;5696564.30509956;470.10594990;166;166;150;42148.000000;1.000000;1.000000;1.000000;1.000000;-0.080774;-0.080774;0.080774;1.000000
445648.92560013;5696564.28279884;470.11684992;143;145;113;35980.000000;1.000000;1.000000;1.000000;1.000000;-0.017473;0.017473;-0.017473;1.000000
445648.99839981;5696564.30659874;470.10644986;156;156;144;39578.000000;1.000000;1.000000;1.000000;1.000000;-0.090273;-0.090273;0.090273;1.000000
445648.76160248;5696564.46359833;470.13714983;163;160;143;40863.000000;1.000000;1.000000;1.000000;1.000000;-0.133598;0.133598;-0.133598;1.000000
445648.88220032;5696564.41999825;470.11885001;184;188;178;47545.000000;1.000000;1.000000;1.000000;1.000000;-0.089998;0.089998;-0.089998;1.000000
445648.95860107;5696564.38719948;470.11955001;93;95;80;23644.000000;1.000000;1.000000;1.000000;1.000000;-0.076285;0.076285;-0.076285;1.000000
445648.79650314;5696564.46259888;470.13874986;136;137;122;34695.000000;1.000000;1.000000;1.000000;1.000000;-0.133798;0.133798;-0.133798;1.000000
445648.83430298;5696564.46619995;470.13584997;99;100;85;25186.000000;1.000000;1.000000;1.000000;1.000000;-0.136201;0.136201;-0.136201;1.000000
445648.80380066;5696564.31479843;470.13734986;164;164;150;41634.000000;1.000000;1.000000;1.000000;1.000000;0.018519;-0.018519;0.018519;1.000000
445648.83940323;5696564.31859978;470.13194992;159;162;144;40863.000000;1.000000;1.000000;1.000000;1.000000;0.012663;-0.012663;0.012663;1.000000
445648.76150330;5696564.41669853;470.14594986;71;73;55;17990.000000;1.000000;1.000000;1.000000;1.000000;-0.086699;0.086699;-0.086699;1.000000
445648.85480316;5696564.42939957;470.12465002;157;160;149;40349.000000;1.000000;1.000000;1.000000;1.000000;-0.099400;0.099400;-0.099400;1.000000
445648.86079987;5696564.31909950;470.12594988;135;137;116;34438.000000;1.000000;1.000000;1.000000;1.000000;0.010900;-0.010900;0.010900;1.000000
445648.83230026;5696564.34489830;470.13664987;158;160;141;40349.000000;1.000000;1.000000;1.000000;1.000000;-0.014898;0.014898;-0.014898;1.000000
445648.79600342;5696564.30619820;470.13684990;131;130;117;32896.000000;1.000000;1.000000;1.000000;1.000000;0.030068;-0.030068;0.030068;1.000000
445648.91030319;5696564.39629944;470.11984994;123;126;114;31611.000000;1.000000;1.000000;1.000000;1.000000;-0.066335;0.066335;-0.066335;1.000000
445648.91500290;5696564.32109840;470.11914994;172;172;150;43433.000000;1.000000;1.000000;1.000000;1.000000;-0.006876;0.006876;-0.006876;1.000000
445648.79330261;5696564.52839859;470.13704993;138;132;115;33667.000000;1.000000;1.000000;1.000000;1.000000;-0.199515;0.199515;-0.199515;1.000000
445648.75930222;5696564.48949821;470.13734986;154;145;126;37265.000000;1.000000;1.000000;1.000000;1.000000;-0.159498;0.159498;-0.159498;1.000000
445648.79470261;5696564.49319847;470.13664987;141;138;121;35209.000000;1.000000;1.000000;1.000000;1.000000;-0.164380;0.164380;-0.164380;1.000000
445648.83230026;5696564.49439819;470.13605000;128;128;111;32382.000000;1.000000;1.000000;1.000000;1.000000;-0.164398;0.164398;-0.164398;1.000000
445648.86990173;5696564.49559982;470.13314988;143;144;132;36494.000000;1.000000;1.000000;1.000000;1.000000;-0.165668;0.165668;-0.165668;1.000000
445648.76060303;5696564.45430000;470.13934996;160;159;143;40349.000000;1.000000;1.000000;1.000000;1.000000;-0.124300;0.124300;-0.124300;1.000000
445648.83580215;5696564.45669945;470.13574984;119;121;106;30326.000000;1.000000;1.000000;1.000000;1.000000;-0.126714;0.126714;-0.126714;1.000000
445648.79580124;5696564.45570000;470.13864996;206;209;194;52942.000000;1.000000;1.000000;1.000000;1.000000;-0.127065;0.127065;-0.127065;1.000000
445648.83940323;5696564.34429939;470.13465001;138;140;121;35209.000000;1.000000;1.000000;1.000000;1.000000;-0.015324;0.015324;-0.015324;1.000000
445648.92460068;5696564.52569969;470.12434985;121;118;106;30069.000000;1.000000;1.000000;1.000000;1.000000;-0.196392;0.196392;-0.196392;1.000000
445648.85870178;5696564.34729965;470.12625005;120;123;101;30583.000000;1.000000;1.000000;1.000000;1.000000;-0.017300;0.017300;-0.017300;1.000000
445648.87940033;5696564.46689995;470.12154986;136;136;123;34438.000000;1.000000;1.000000;1.000000;1.000000;-0.136900;0.136900;-0.136900;1.000000
445648.85990341;5696564.30979927;470.12584998;128;130;109;32639.000000;1.000000;1.000000;1.000000;1.000000;0.020201;-0.020201;0.020201;1.000000
445648.94360168;5696564.52639969;470.11815001;124;123;111;31097.000000;1.000000;1.000000;1.000000;1.000000;-0.199578;0.199578;-0.199578;1.000000
445648.98260315;5696564.49019821;470.11255004;196;194;183;49601.000000;1.000000;1.000000;1.000000;1.000000;-0.176664;0.176664;-0.176664;1.000000
445648.75730331;5696564.29569824;470.14194991;114;113;101;28527.000000;1.000000;1.000000;1.000000;1.000000;0.034302;-0.034302;0.034302;1.000000
445648.92840012;5696564.48809822;470.11704995;154;150;137;38293.000000;1.000000;1.000000;1.000000;1.000000;-0.159393;0.159393;-0.159393;1.000000
445648.93180283;5696564.37559898;470.12054994;125;127;113;31868.000000;1.000000;1.000000;1.000000;1.000000;-0.051379;0.051379;-0.051379;1.000000
445648.92200287;5696564.39529999;470.11794998;112;115;101;28784.000000;1.000000;1.000000;1.000000;1.000000;-0.066758;0.066758;-0.066758;1.000000
445648.92440231;5696564.32029922;470.11724998;186;186;164;47031.000000;1.000000;1.000000;1.000000;1.000000;-0.016275;0.016275;-0.016275;1.000000
445648.75310333;5696564.42459877;470.14094998;95;95;78;23901.000000;1.000000;1.000000;1.000000;1.000000;-0.094599;0.094599;-0.094599;1.000000
445648.82940109;5696564.36379822;470.13675000;122;125;101;31097.000000;1.000000;1.000000;1.000000;1.000000;-0.033798;0.033798;-0.033798;1.000000
445648.87310226;5696564.47669991;470.12835004;112;112;98;28270.000000;1.000000;1.000000;1.000000;1.000000;-0.146748;0.146748;-0.146748;1.000000
445648.82000168;5696564.36469849;470.13864996;120;123;99;30583.000000;1.000000;1.000000;1.000000;1.000000;-0.034698;0.034698;-0.034698;1.000000
445649.02650269;5696564.30629929;470.10535004;130;129;117;32639.000000;1.000000;1.000000;1.000000;1.000000;-0.118376;-0.118376;0.118376;1.000000
445648.73790176;5696564.34169968;470.15094997;172;172;157;43690.000000;1.000000;1.000000;1.000000;1.000000;-0.011700;0.011700;-0.011700;1.000000
445648.84080322;5696564.30679901;470.12955000;155;157;139;39578.000000;1.000000;1.000000;1.000000;1.000000;0.023697;-0.023697;0.023697;1.000000
445648.92700012;5696564.27329834;470.11675002;147;147;117;36751.000000;1.000000;1.000000;1.000000;1.000000;-0.018873;0.018873;-0.018873;1.000000
445648.99010284;5696564.26769836;470.10554983;159;159;143;40349.000000;1.000000;1.000000;1.000000;1.000000;-0.081976;-0.081976;0.081976;1.000000
445648.76740082;5696564.27609833;470.13754990;151;151;140;38293.000000;1.000000;1.000000;1.000000;1.000000;0.053902;-0.053902;0.053902;1.000000
