//X;Y;Z;R;G;B;Intensity;Return Number;Number Of Returns;Scan Direction Flag;Point Source ID;C2M signed distances[-][<0.8];C2M signed distances[<0.4];C2M signed distances[-][<0.2];Stump55
445631.59010132;5696569.81739910;471.28125002;90;88;78;22359.000000;1.000000;1.000000;1.000000;1.000000;-0.012601;0.012601;-0.012601;1.000000
445631.62790115;5696569.82089909;471.28064968;130;128;119;32639.000000;1.000000;1.000000;1.000000;1.000000;-0.009158;0.009158;-0.009158;1.000000
445631.34710129;5696569.87249954;471.28954985;152;146;139;37779.000000;1.000000;1.000000;1.000000;1.000000;0.042500;-0.042500;0.042500;1.000000
445631.31070145;5696569.83379944;471.28974964;116;110;100;28270.000000;1.000000;1.000000;1.000000;1.000000;-0.005286;0.005286;-0.005286;1.000000
445631.65229996;5696569.73669918;471.29005005;89;89;81;22616.000000;1.000000;1.000000;1.000000;1.000000;-0.093301;0.093301;-0.093301;1.000000
445631.72750290;5696569.66669853;471.29264977;37;30;21;7967.000000;1.000000;1.000000;1.000000;1.000000;-0.163337;0.163337;-0.163337;1.000000
445631.54920013;5696569.50809868;471.28735020;117;115;107;29298.000000;1.000000;1.000000;1.000000;1.000000;-0.047323;0.047323;-0.047323;1.000000
445631.56200226;5696569.44379910;471.28714993;113;114;105;28784.000000;1.000000;1.000000;1.000000;1.000000;-0.078744;0.078744;-0.078744;1.000000
445631.70630081;5696569.78559883;471.28375008;134;132;123;33667.000000;1.000000;1.000000;1.000000;1.000000;-0.044401;0.044401;-0.044401;1.000000
445631.27169998;5696569.67369850;471.30474998;66;64;57;16191.000000;1.000000;1.000000;1.000000;1.000000;-0.156301;0.156301;-0.156301;1.000000
445631.74170120;5696569.78699883;471.27845003;141;138;129;35209.000000;1.000000;1.000000;1.000000;1.000000;-0.043001;0.043001;-0.043001;1.000000
445631.82040222;5696569.67929848;471.28064968;111;106;94;27242.000000;1.000000;1.000000;1.000000;1.000000;-0.150762;0.150762;-0.150762;1.000000
445631.82209976;5696569.86389931;471.26205017;128;125;113;31868.000000;1.000000;1.000000;1.000000;1.000000;0.033999;-0.033999;0.033999;1.000000
445631.26880081;5696569.76519974;471.29874994;95;90;81;23130.000000;1.000000;1.000000;1.000000;1.000000;-0.064800;0.064800;-0.064800;1.000000
445631.44530304;5696569.99659927;471.28615000;224;225;221;57568.000000;1.000000;1.000000;1.000000;1.000000;0.166599;0.166599;-0.166599;1.000000
445631.40920074;5696569.95799931;471.28175022;170;169;162;43176.000000;1.000000;1.000000;1.000000;1.000000;-0.127999;0.127999;-0.127999;1.000000
445631.41040237;5696569.92049892;471.28134968;146;142;135;36494.000000;1.000000;1.000000;1.000000;1.000000;-0.090499;0.090499;-0.090499;1.000000
445631.48560150;5696569.92519959;471.28245022;126;124;114;31611.000000;1.000000;1.000000;1.000000;1.000000;0.095200;-0.095200;0.095200;1.000000
445631.52070053;5696569.92659958;471.28405001;117;114;101;29041.000000;1.000000;1.000000;1.000000;1.000000;0.096616;-0.096616;0.096616;1.000000
445631.48680313;5696569.88769920;471.28204967;102;101;91;25700.000000;1.000000;1.000000;1.000000;1.000000;0.057699;-0.057699;0.057699;1.000000
445631.56100281;5696569.85519894;471.28035023;150;146;135;37265.000000;1.000000;1.000000;1.000000;1.000000;0.025199;-0.025199;0.025199;1.000000
445631.59830292;5696569.85409935;471.27974989;124;120;109;30583.000000;1.000000;1.000000;1.000000;1.000000;0.024247;-0.024247;0.024247;1.000000
445631.27309998;5696569.83259972;471.29274990;159;151;140;39064.000000;1.000000;1.000000;1.000000;1.000000;0.002600;-0.002600;0.002600;1.000000
445631.30780228;5696569.73119934;471.29775002;132;128;118;32896.000000;1.000000;1.000000;1.000000;1.000000;0.098870;-0.098870;0.098870;1.000000
445631.52480133;5696569.87009914;471.28354980;109;106;96;26985.000000;1.000000;1.000000;1.000000;1.000000;0.040099;-0.040099;0.040099;1.000000
445631.56440170;5696569.81739910;471.28245022;106;104;96;26471.000000;1.000000;1.000000;1.000000;1.000000;-0.012601;0.012601;-0.012601;1.000000
445631.60190018;5696569.81859978;471.28175022;76;73;63;18504.000000;1.000000;1.000000;1.000000;1.000000;-0.012090;0.012090;-0.012090;1.000000
445631.63710220;5696569.82009895;471.28105022;158;155;145;39578.000000;1.000000;1.000000;1.000000;1.000000;-0.009901;0.009901;-0.009901;1.000000
445631.71350296;5696569.78729923;471.28184988;129;128;119;32639.000000;1.000000;1.000000;1.000000;1.000000;-0.042701;0.042701;-0.042701;1.000000
445631.75100143;5696569.78619965;471.27885010;134;131;120;33410.000000;1.000000;1.000000;1.000000;1.000000;-0.043800;0.043800;-0.043800;1.000000
445631.75220306;5696569.75099953;471.28315022;86;86;76;21588.000000;1.000000;1.000000;1.000000;1.000000;-0.079001;0.079001;-0.079001;1.000000
445631.26750000;5696569.95439919;471.30555012;135;132;121;33667.000000;1.000000;1.000000;1.000000;1.000000;0.124399;-0.124399;0.124399;1.000000
445631.27120026;5696569.69249924;471.30264999;116;113;105;29041.000000;1.000000;1.000000;1.000000;1.000000;-0.137501;0.137501;-0.137501;1.000000
445631.34830292;5696569.83499916;471.28914978;110;104;95;26728.000000;1.000000;1.000000;1.000000;1.000000;0.004999;-0.004999;0.004999;1.000000
445631.56600006;5696569.74229916;471.29785015;73;72;64;18247.000000;1.000000;1.000000;1.000000;1.000000;-0.064123;0.064123;-0.064123;1.000000
445631.45390137;5696569.98879917;471.28644993;218;219;214;56026.000000;1.000000;1.000000;1.000000;1.000000;0.158799;0.158799;-0.158799;1.000000
445631.30690201;5696569.94399937;471.29094984;183;177;165;45489.000000;1.000000;1.000000;1.000000;1.000000;-0.114034;0.114034;-0.114034;1.000000
445631.45689972;5696569.70099934;471.29944994;133;133;120;33667.000000;1.000000;1.000000;1.000000;1.000000;0.044977;-0.044977;0.044977;1.000000
445631.26990326;5696569.87939938;471.30474998;170;164;154;42148.000000;1.000000;1.000000;1.000000;1.000000;0.049399;-0.049399;0.049399;1.000000
445631.60460098;5696569.70599945;471.29925014;87;85;72;21588.000000;1.000000;1.000000;1.000000;1.000000;-0.102724;0.102724;-0.102724;1.000000
445631.79620178;5696570.01119907;471.26024963;120;118;107;30069.000000;1.000000;1.000000;1.000000;1.000000;0.049425;-0.049425;0.049425;1.000000
445631.25010117;5696569.76459892;471.29785015;111;106;97;27242.000000;1.000000;1.000000;1.000000;1.000000;-0.065401;0.065401;-0.065401;1.000000
445631.36070068;5696569.77069862;471.29594995;161;159;149;40606.000000;1.000000;1.000000;1.000000;1.000000;-0.059301;0.059301;-0.059301;1.000000
445631.25140198;5696569.72939880;471.29985001;131;127;120;32639.000000;1.000000;1.000000;1.000000;1.000000;-0.100601;0.100601;-0.100601;1.000000
445631.36160095;5696569.73319920;471.30014994;58;56;48;14135.000000;1.000000;1.000000;1.000000;1.000000;-0.096801;0.096801;-0.096801;1.000000
445631.39920242;5696569.73439892;471.29954960;112;111;103;28270.000000;1.000000;1.000000;1.000000;1.000000;-0.095601;0.095601;-0.095601;1.000000
445631.55320175;5696569.62909897;471.29594995;140;138;126;35209.000000;1.000000;1.000000;1.000000;1.000000;-0.051325;0.051325;-0.051325;1.000000
445631.66349991;5696569.63509949;471.29865028;76;72;59;18247.000000;1.000000;1.000000;1.000000;1.000000;-0.161623;0.161623;-0.161623;1.000000
445631.44780167;5696569.47759922;471.29635002;90;90;83;22873.000000;1.000000;1.000000;1.000000;1.000000;0.056646;-0.056646;0.056646;1.000000
445631.45790298;5696569.66349895;471.30135014;104;106;93;26471.000000;1.000000;1.000000;1.000000;1.000000;0.043974;-0.043974;0.043974;1.000000
445631.42180069;5696569.62489899;471.29694988;119;117;102;29555.000000;1.000000;1.000000;1.000000;1.000000;0.080076;-0.080076;0.080076;1.000000
445631.44320114;5696570.02479942;471.28875019;102;103;98;26214.000000;1.000000;1.000000;1.000000;1.000000;0.194799;0.194799;-0.194799;1.000000
445631.44470032;5696569.98969849;471.28604986;223;223;220;57054.000000;1.000000;1.000000;1.000000;1.000000;0.159698;0.159698;-0.159698;1.000000
445631.33530243;5696569.94609936;471.28754999;185;180;170;46260.000000;1.000000;1.000000;1.000000;1.000000;0.116099;-0.116099;0.116099;1.000000
445631.37540253;5696569.87459953;471.28854992;153;148;140;38036.000000;1.000000;1.000000;1.000000;1.000000;0.044600;-0.044600;0.044600;1.000000
445631.48579987;5696569.87839897;471.28424980;98;97;87;24672.000000;1.000000;1.000000;1.000000;1.000000;0.048399;-0.048399;0.048399;1.000000
445631.52430161;5696569.84209927;471.28784992;84;82;72;20817.000000;1.000000;1.000000;1.000000;1.000000;0.012099;-0.012099;0.012099;1.000000
445631.49030121;5696569.80319984;471.28824999;119;117;108;29812.000000;1.000000;1.000000;1.000000;1.000000;0.011576;-0.011576;0.011576;1.000000
445631.56330307;5696569.80809982;471.28694965;102;99;92;25443.000000;1.000000;1.000000;1.000000;1.000000;-0.021900;0.021900;-0.021900;1.000000
445631.60420044;5696569.77159889;471.28834965;73;71;64;17990.000000;1.000000;1.000000;1.000000;1.000000;-0.058426;0.058426;-0.058426;1.000000
445631.71920212;5696569.70249947;471.29264977;62;59;51;15163.000000;1.000000;1.000000;1.000000;1.000000;-0.127501;0.127501;-0.127501;1.000000
445631.57240112;5696569.58299931;471.29164984;75;70;61;17990.000000;1.000000;1.000000;1.000000;1.000000;-0.070524;0.070524;-0.070524;1.000000
445631.64890106;5696569.55019959;471.29005005;63;60;54;15420.000000;1.000000;1.000000;1.000000;1.000000;-0.147024;0.147024;-0.147024;1.000000
445631.57850082;5696569.47259911;471.29054977;144;143;136;36494.000000;1.000000;1.000000;1.000000;1.000000;-0.079716;0.079716;-0.079716;1.000000
445631.49690063;5696569.62729843;471.29575016;124;122;109;31097.000000;1.000000;1.000000;1.000000;1.000000;0.004976;-0.004976;0.004976;1.000000
445631.69980057;5696569.88679894;471.27304985;71;67;57;17219.000000;1.000000;1.000000;1.000000;1.000000;0.056799;-0.056799;0.056799;1.000000
445631.79380234;5696569.47139938;471.28405001;41;35;29;9252.000000;1.000000;1.000000;1.000000;1.000000;-0.141399;0.141399;-0.141399;1.000000
445631.72000320;5696569.43159874;471.28254988;87;84;72;21331.000000;1.000000;1.000000;1.000000;1.000000;-0.101601;0.101601;-0.101601;1.000000
445631.60960205;5696569.63319977;471.29624989;146;141;130;36237.000000;1.000000;1.000000;1.000000;1.000000;-0.107725;0.107725;-0.107725;1.000000
445631.52530106;5696569.85139854;471.28574993;87;84;74;21331.000000;1.000000;1.000000;1.000000;1.000000;0.021399;-0.021399;0.021399;1.000000
445631.68210037;5696569.89769943;471.27475025;108;102;90;26214.000000;1.000000;1.000000;1.000000;1.000000;0.067699;-0.067699;0.067699;1.000000
445631.71960266;5696569.89669903;471.26944973;106;102;90;25957.000000;1.000000;1.000000;1.000000;1.000000;0.066699;-0.066699;0.066699;1.000000
445631.33650024;5696569.90859898;471.28714993;160;151;141;39064.000000;1.000000;1.000000;1.000000;1.000000;0.078599;-0.078599;0.078599;1.000000
445631.33760269;5696569.87109955;471.28914978;159;153;145;39321.000000;1.000000;1.000000;1.000000;1.000000;0.041100;-0.041100;0.041100;1.000000
445631.79210098;5696569.70509918;471.28674986;52;51;41;12850.000000;1.000000;1.000000;1.000000;1.000000;-0.124908;0.124908;-0.124908;1.000000
445631.65490158;5696569.43979843;471.29134991;150;150;143;38293.000000;1.000000;1.000000;1.000000;1.000000;-0.109846;0.109846;-0.109846;1.000000
445631.48880203;5696569.81269844;471.28824999;171;169;161;43176.000000;1.000000;1.000000;1.000000;1.000000;0.013075;-0.013075;0.013075;1.000000
445631.42300232;5696569.58739861;471.29655029;126;121;108;31097.000000;1.000000;1.000000;1.000000;1.000000;0.078875;-0.078875;0.078875;1.000000
445631.75490005;5696569.89809902;471.26864960;105;101;88;25700.000000;1.000000;1.000000;1.000000;1.000000;0.068166;-0.068166;0.068166;1.000000
445631.42650040;5696569.54969891;471.29624989;159;155;146;39835.000000;1.000000;1.000000;1.000000;1.000000;0.075377;-0.075377;0.075377;1.000000
445631.72080048;5696569.86149891;471.27374985;58;54;45;13878.000000;1.000000;1.000000;1.000000;1.000000;0.031499;-0.031499;0.031499;1.000000
445631.28470047;5696569.83159931;471.29094984;156;148;138;38293.000000;1.000000;1.000000;1.000000;1.000000;-0.001599;0.001599;-0.001599;1.000000
445631.74520309;5696569.48049934;471.29124977;47;42;36;10794.000000;1.000000;1.000000;1.000000;1.000000;-0.150543;0.150543;-0.150543;1.000000
445631.55090149;5696569.70399864;471.29445030;123;118;103;30069.000000;1.000000;1.000000;1.000000;1.000000;-0.049025;0.049025;-0.049025;1.000000
445631.58930023;5696569.66769894;471.30034973;60;55;41;13878.000000;1.000000;1.000000;1.000000;1.000000;-0.087423;0.087423;-0.087423;1.000000
445631.59090240;5696569.63259895;471.29534962;67;61;50;15677.000000;1.000000;1.000000;1.000000;1.000000;-0.089025;0.089025;-0.089025;1.000000
445631.66950043;5696569.52249916;471.29524996;28;24;22;6168.000000;1.000000;1.000000;1.000000;1.000000;-0.167624;0.167624;-0.167624;1.000000
445631.70810135;5696569.48619850;471.29664995;85;84;77;21331.000000;1.000000;1.000000;1.000000;1.000000;-0.156199;0.156199;-0.156199;1.000000
445631.75630005;5696569.86289890;471.26835014;166;163;152;41634.000000;1.000000;1.000000;1.000000;1.000000;0.033195;-0.033195;0.033195;1.000000
445631.64840134;5696569.59689911;471.29524996;64;60;51;15420.000000;1.000000;1.000000;1.000000;1.000000;-0.146524;0.146524;-0.146524;1.000000
445631.50270279;5696569.51459892;471.29694988;135;133;125;33924.000000;1.000000;1.000000;1.000000;1.000000;-0.000826;0.000826;-0.000826;1.000000
445631.76350220;5696569.52779968;471.29495003;55;52;45;13364.000000;1.000000;1.000000;1.000000;1.000000;-0.197800;0.197800;-0.197800;1.000000
445631.68940170;5696569.48559959;471.29575016;179;179;172;45746.000000;1.000000;1.000000;1.000000;1.000000;-0.155600;0.155600;-0.155600;1.000000
445631.79390152;5696569.86419876;471.26534988;160;157;144;40092.000000;1.000000;1.000000;1.000000;1.000000;0.034199;-0.034199;0.034199;1.000000
445631.41660126;5696569.98769959;471.28245022;128;128;122;32639.000000;1.000000;1.000000;1.000000;1.000000;-0.157700;0.157700;-0.157700;1.000000
445631.41780289;5696569.95019920;471.28204967;147;145;138;37008.000000;1.000000;1.000000;1.000000;1.000000;-0.120199;0.120199;-0.120199;1.000000
445631.49290283;5696569.95259865;471.28074982;155;153;145;39064.000000;1.000000;1.000000;1.000000;1.000000;0.122599;-0.122599;0.122599;1.000000
445631.41900070;5696569.91269882;471.28165009;115;112;104;28784.000000;1.000000;1.000000;1.000000;1.000000;-0.082699;0.082699;-0.082699;1.000000
445631.45650299;5696569.91389854;471.28105022;109;107;98;27242.000000;1.000000;1.000000;1.000000;1.000000;0.083899;-0.083899;0.083899;1.000000
445631.35750015;5696569.83419903;471.28954985;92;87;78;22359.000000;1.000000;1.000000;1.000000;1.000000;0.004199;-0.004199;0.004199;1.000000
445631.59309967;5696569.52959927;471.29194977;48;42;34;10794.000000;1.000000;1.000000;1.000000;1.000000;-0.091223;0.091223;-0.091223;1.000000
445631.46310242;5696569.98789890;471.28914978;210;210;205;53713.000000;1.000000;1.000000;1.000000;1.000000;0.157899;0.157899;-0.157899;1.000000
445631.49400146;5696569.91509922;471.28274967;161;159;149;40606.000000;1.000000;1.000000;1.000000;1.000000;0.085099;-0.085099;0.085099;1.000000
445631.49770172;5696569.87969978;471.28245022;96;95;84;24158.000000;1.000000;1.000000;1.000000;1.000000;0.049700;-0.049700;0.049700;1.000000
445631.39910324;5696569.94959934;471.28114988;190;188;181;48059.000000;1.000000;1.000000;1.000000;1.000000;0.119599;-0.119599;0.119599;1.000000
445631.47410019;5696569.95199974;471.28224995;157;155;147;39578.000000;1.000000;1.000000;1.000000;1.000000;-0.122000;0.122000;-0.122000;1.000000
445631.51160248;5696569.95319946;471.28165009;141;139;129;35466.000000;1.000000;1.000000;1.000000;1.000000;0.123583;-0.123583;0.123583;1.000000
445631.47530182;5696569.91449936;471.28184988;156;154;144;39321.000000;1.000000;1.000000;1.000000;1.000000;-0.084499;0.084499;-0.084499;1.000000
445631.57060059;5696569.88229950;471.27885010;163;158;146;40606.000000;1.000000;1.000000;1.000000;1.000000;0.052458;-0.052458;0.052458;1.000000
445631.51290329;5696569.91799934;471.28364994;157;156;144;39578.000000;1.000000;1.000000;1.000000;1.000000;0.088518;-0.088518;0.088518;1.000000
445631.79840286;5696569.78889854;471.26934959;88;84;73;21331.000000;1.000000;1.000000;1.000000;1.000000;-0.041101;0.041101;-0.041101;1.000000
445631.57170303;5696569.84479912;471.28074982;114;110;98;28013.000000;1.000000;1.000000;1.000000;1.000000;0.015095;-0.015095;0.015095;1.000000
445631.60920151;5696569.84599884;471.28014996;146;142;131;36237.000000;1.000000;1.000000;1.000000;1.000000;0.015999;-0.015999;0.015999;1.000000
445631.51410110;5696569.88049896;471.28324987;130;129;117;32639.000000;1.000000;1.000000;1.000000;1.000000;0.051188;-0.051188;0.051188;1.000000
445631.39220245;5696569.68819912;471.30804970;84;85;79;21588.000000;1.000000;1.000000;1.000000;1.000000;0.109674;-0.109674;0.109674;1.000000
445631.59040268;5696569.84539898;471.28154995;130;126;115;32125.000000;1.000000;1.000000;1.000000;1.000000;0.015399;-0.015399;0.015399;1.000000
445631.55280121;5696569.84419926;471.28224995;115;111;101;28527.000000;1.000000;1.000000;1.000000;1.000000;0.014199;-0.014199;0.014199;1.000000
445631.62790115;5696569.84659966;471.28095009;144;141;130;35980.000000;1.000000;1.000000;1.000000;1.000000;0.016631;-0.016631;0.016631;1.000000
445631.61050232;5696569.81079872;471.28204967;69;67;58;16962.000000;1.000000;1.000000;1.000000;1.000000;-0.019201;0.019201;-0.019201;1.000000
445631.72420319;5696569.77689941;471.28214981;82;80;72;20303.000000;1.000000;1.000000;1.000000;1.000000;-0.053221;0.053221;-0.053221;1.000000
445631.75959976;5696569.77839859;471.27915003;111;108;97;27499.000000;1.000000;1.000000;1.000000;1.000000;-0.051666;0.051666;-0.051666;1.000000
445631.68029984;5696569.71079929;471.29104998;12;10;6;2570.000000;1.000000;1.000000;1.000000;1.000000;-0.119201;0.119201;-0.119201;1.000000
445631.59150131;5696569.80789955;471.28354980;77;75;66;19018.000000;1.000000;1.000000;1.000000;1.000000;-0.022100;0.022100;-0.022100;1.000000
445631.62899979;5696569.80909927;471.28294994;96;95;86;24158.000000;1.000000;1.000000;1.000000;1.000000;-0.021008;0.021008;-0.021008;1.000000
445631.71780212;5696569.71199902;471.29044964;33;31;24;7710.000000;1.000000;1.000000;1.000000;1.000000;-0.118001;0.118001;-0.118001;1.000000
445631.70540054;5696569.77629860;471.28364994;115;113;106;28784.000000;1.000000;1.000000;1.000000;1.000000;-0.053701;0.053701;-0.053701;1.000000
445631.74070175;5696569.77779968;471.28055002;115;112;102;28527.000000;1.000000;1.000000;1.000000;1.000000;-0.052200;0.052200;-0.052200;1.000000
445631.32400330;5696570.00079926;471.29005005;152;149;139;38036.000000;1.000000;1.000000;1.000000;1.000000;-0.170799;0.170799;-0.170799;1.000000
445631.53450211;5696569.62849911;471.29274990;134;132;119;33667.000000;1.000000;1.000000;1.000000;1.000000;-0.032625;0.032625;-0.032625;1.000000
445631.57340057;5696569.59449966;471.29414989;68;64;55;16448.000000;1.000000;1.000000;1.000000;1.000000;-0.071524;0.071524;-0.071524;1.000000
445631.57710083;5696569.48209961;471.29064991;116;116;109;29555.000000;1.000000;1.000000;1.000000;1.000000;-0.076253;0.076253;-0.076253;1.000000
445631.58070190;5696569.44439896;471.28805019;185;185;177;47288.000000;1.000000;1.000000;1.000000;1.000000;-0.093469;0.093469;-0.093469;1.000000
445631.77540024;5696569.89159973;471.26724960;61;56;42;14135.000000;1.000000;1.000000;1.000000;1.000000;0.061600;-0.061600;0.061600;1.000000
445631.54300125;5696569.44319923;471.29094984;90;90;82;22873.000000;1.000000;1.000000;1.000000;1.000000;-0.065805;0.065805;-0.065805;1.000000
445631.37230118;5696569.93809898;471.27985003;130;127;118;32382.000000;1.000000;1.000000;1.000000;1.000000;0.108099;-0.108099;0.108099;1.000000
445631.24279984;5696569.69039925;471.30594971;88;85;80;21845.000000;1.000000;1.000000;1.000000;1.000000;-0.139601;0.139601;-0.139601;1.000000
445631.24380310;5696569.65289886;471.31024982;37;34;31;8738.000000;1.000000;1.000000;1.000000;1.000000;-0.177101;0.177101;-0.177101;1.000000
445631.44740112;5696569.94269951;471.28324987;143;142;134;36237.000000;1.000000;1.000000;1.000000;1.000000;0.112700;-0.112700;0.112700;1.000000
445631.75399979;5696569.93569954;471.26214983;118;115;104;29298.000000;1.000000;1.000000;1.000000;1.000000;0.105721;-0.105721;0.105721;1.000000
445631.32670029;5696569.92819984;471.28694965;185;178;167;45746.000000;1.000000;1.000000;1.000000;1.000000;0.098200;-0.098200;0.098200;1.000000
445631.52020081;5696569.94529922;471.28195002;117;114;103;29041.000000;1.000000;1.000000;1.000000;1.000000;0.115322;-0.115322;0.115322;1.000000
445631.36530121;5696569.89189919;471.28824999;132;127;118;32639.000000;1.000000;1.000000;1.000000;1.000000;0.061899;-0.061899;0.061899;1.000000
445631.29360016;5696569.85179909;471.29155018;151;143;133;37008.000000;1.000000;1.000000;1.000000;1.000000;-0.021799;0.021799;-0.021799;1.000000
445631.40390213;5696569.85559853;471.28954985;97;93;83;23901.000000;1.000000;1.000000;1.000000;1.000000;0.025599;-0.025599;0.025599;1.000000
445631.33000000;5696569.81569870;471.29044964;128;123;113;31611.000000;1.000000;1.000000;1.000000;1.000000;-0.014301;0.014301;-0.014301;1.000000
445631.40500076;5696569.81809910;471.29155018;114;111;104;28527.000000;1.000000;1.000000;1.000000;1.000000;-0.011901;0.011901;-0.011901;1.000000
445631.48040207;5696569.82279976;471.28795006;196;194;184;49601.000000;1.000000;1.000000;1.000000;1.000000;0.007200;-0.007200;0.007200;1.000000
445631.51799973;5696569.82399948;471.28735020;103;101;94;25700.000000;1.000000;1.000000;1.000000;1.000000;-0.007476;0.007476;-0.007476;1.000000
445631.48150070;5696569.78529938;471.28994991;130;127;116;32382.000000;1.000000;1.000000;1.000000;1.000000;0.020376;-0.020376;0.020376;1.000000
445631.55650146;5696569.78769882;471.29104998;50;48;43;12336.000000;1.000000;1.000000;1.000000;1.000000;-0.042301;0.042301;-0.042301;1.000000
445631.29880341;5696569.90729912;471.29244997;180;172;161;44461.000000;1.000000;1.000000;1.000000;1.000000;-0.077299;0.077299;-0.077299;1.000000
445631.30230148;5696569.86959847;471.29215004;153;146;137;37779.000000;1.000000;1.000000;1.000000;1.000000;-0.039598;0.039598;-0.039598;1.000000
445631.41270264;5696569.87349899;471.28784992;72;67;59;17219.000000;1.000000;1.000000;1.000000;1.000000;-0.043499;0.043499;-0.043499;1.000000
445631.45060165;5696569.87699898;471.28494980;67;65;56;16448.000000;1.000000;1.000000;1.000000;1.000000;0.046999;-0.046999;0.046999;1.000000
445631.41400345;5696569.83829887;471.28984978;175;172;164;44204.000000;1.000000;1.000000;1.000000;1.000000;-0.008299;0.008299;-0.008299;1.000000
445631.45170029;5696569.83949860;471.28684999;145;144;132;36494.000000;1.000000;1.000000;1.000000;1.000000;0.009499;-0.009499;0.009499;1.000000
445631.48910339;5696569.84069927;471.28865005;151;150;138;38036.000000;1.000000;1.000000;1.000000;1.000000;0.010699;-0.010699;0.010699;1.000000
445631.30490311;5696569.79699905;471.29145004;178;175;166;44718.000000;1.000000;1.000000;1.000000;1.000000;0.033011;-0.033011;0.033011;1.000000
445631.34010132;5696569.79839905;471.29064991;155;151;141;38807.000000;1.000000;1.000000;1.000000;1.000000;-0.031601;0.031601;-0.031601;1.000000
445631.41510208;5696569.80079849;471.29174997;65;62;54;15934.000000;1.000000;1.000000;1.000000;1.000000;0.029202;-0.029202;0.029202;1.000000
445631.52790268;5696569.80669983;471.28994991;75;73;68;18761.000000;1.000000;1.000000;1.000000;1.000000;-0.023300;0.023300;-0.023300;1.000000
445631.49130066;5696569.76569946;471.29244997;112;109;96;27756.000000;1.000000;1.000000;1.000000;1.000000;0.010576;-0.010576;0.010576;1.000000
445631.45380219;5696569.76449974;471.29075005;100;97;82;24672.000000;1.000000;1.000000;1.000000;1.000000;0.048075;-0.048075;0.048075;1.000000
445631.67700012;5696569.77419861;471.28694965;95;94;87;23901.000000;1.000000;1.000000;1.000000;1.000000;-0.055801;0.055801;-0.055801;1.000000
445631.67820175;5696569.73669918;471.28655006;57;57;50;14392.000000;1.000000;1.000000;1.000000;1.000000;-0.093301;0.093301;-0.093301;1.000000
445631.53130157;5696569.69419868;471.29344990;114;109;91;27756.000000;1.000000;1.000000;1.000000;1.000000;-0.029425;0.029425;-0.029425;1.000000
445631.75450333;5696569.70389946;471.28964998;101;99;88;25186.000000;1.000000;1.000000;1.000000;1.000000;-0.126128;0.126128;-0.126128;1.000000
445631.75800140;5696569.66619881;471.28935005;33;28;20;7196.000000;1.000000;1.000000;1.000000;1.000000;-0.163854;0.163854;-0.163854;1.000000
445631.53600128;5696569.61899956;471.29274990;113;110;99;28013.000000;1.000000;1.000000;1.000000;1.000000;-0.034124;0.034124;-0.034124;1.000000
445631.49960144;5696569.58029945;471.29295017;97;95;84;24158.000000;1.000000;1.000000;1.000000;1.000000;0.002275;-0.002275;0.002275;1.000000
445631.53720291;5696569.58149918;471.29234983;100;98;87;24929.000000;1.000000;1.000000;1.000000;1.000000;-0.035326;0.035326;-0.035326;1.000000
445631.64760025;5696569.58759888;471.29274990;126;123;113;31354.000000;1.000000;1.000000;1.000000;1.000000;-0.145723;0.145723;-0.145723;1.000000
445631.68520172;5696569.58879860;471.29215004;32;28;20;7196.000000;1.000000;1.000000;1.000000;1.000000;-0.183325;0.183325;-0.183325;1.000000
445631.46330078;5696569.54169853;471.29314997;145;143;132;36494.000000;1.000000;1.000000;1.000000;1.000000;0.038576;-0.038576;0.038576;1.000000
445631.53840073;5696569.54409893;471.29194977;101;97;87;24929.000000;1.000000;1.000000;1.000000;1.000000;-0.036524;0.036524;-0.036524;1.000000
445631.39180191;5696569.50159843;471.29184963;145;142;132;36237.000000;1.000000;1.000000;1.000000;1.000000;0.110075;-0.110075;0.110075;1.000000
445631.57730301;5696569.51009949;471.29094984;135;133;124;33924.000000;1.000000;1.000000;1.000000;1.000000;-0.075426;0.075426;-0.075426;1.000000
445631.61490067;5696569.51129921;471.29034998;84;83;75;21074.000000;1.000000;1.000000;1.000000;1.000000;-0.113024;0.113024;-0.113024;1.000000
445631.68770035;5696569.51619919;471.29374983;26;21;21;5654.000000;1.000000;1.000000;1.000000;1.000000;-0.185823;0.185823;-0.185823;1.000000
445631.72530182;5696569.51739891;471.29075005;21;17;16;4626.000000;1.000000;1.000000;1.000000;1.000000;-0.187399;0.187399;-0.187399;1.000000
445631.54100235;5696569.47139938;471.29124977;181;181;174;46260.000000;1.000000;1.000000;1.000000;1.000000;-0.045472;0.045472;-0.045472;1.000000
445631.80040176;5696569.51979931;471.28954985;85;82;71;20817.000000;1.000000;1.000000;1.000000;1.000000;-0.189799;0.189799;-0.189799;1.000000
445631.76410110;5696569.48109921;471.28974964;39;33;28;8738.000000;1.000000;1.000000;1.000000;1.000000;-0.151099;0.151099;-0.151099;1.000000
445631.66690262;5696569.79149921;471.28674986;89;87;81;22102.000000;1.000000;1.000000;1.000000;1.000000;-0.038531;0.038531;-0.038531;1.000000
445631.48270233;5696569.74779900;471.28954985;73;69;51;17476.000000;1.000000;1.000000;1.000000;1.000000;0.019175;-0.019175;0.019175;1.000000
445631.48270233;5696569.94419868;471.28254988;131;129;120;32896.000000;1.000000;1.000000;1.000000;1.000000;0.114199;-0.114199;0.114199;1.000000
445631.83040054;5696569.90289886;471.26284983;170;165;153;42405.000000;1.000000;1.000000;1.000000;1.000000;0.072899;-0.072899;0.072899;1.000000
445631.61730011;5696569.43629845;471.28954985;130;129;123;32896.000000;1.000000;1.000000;1.000000;1.000000;-0.106301;0.106301;-0.106301;1.000000
445631.69270142;5696569.44109924;471.28604986;53;48;39;12336.000000;1.000000;1.000000;1.000000;1.000000;-0.111099;0.111099;-0.111099;1.000000
445631.76519974;5696569.44359978;471.28935005;161;154;148;39835.000000;1.000000;1.000000;1.000000;1.000000;-0.113600;0.113600;-0.113600;1.000000
445631.36490067;5696569.86379917;471.29024984;150;145;138;37265.000000;1.000000;1.000000;1.000000;1.000000;0.033799;-0.033799;0.033799;1.000000
445631.47770126;5696569.86749847;471.28604986;78;77;66;19532.000000;1.000000;1.000000;1.000000;1.000000;-0.037498;0.037498;-0.037498;1.000000
445631.51650055;5696569.83349903;471.28744986;104;102;94;25957.000000;1.000000;1.000000;1.000000;1.000000;0.006909;-0.006909;0.006909;1.000000
445631.33210190;5696569.78749855;471.29015018;160;158;149;40349.000000;1.000000;1.000000;1.000000;1.000000;-0.042501;0.042501;-0.042501;1.000000
445631.59280212;5696569.79839905;471.28574993;95;92;84;23644.000000;1.000000;1.000000;1.000000;1.000000;-0.031601;0.031601;-0.031601;1.000000
445631.62810333;5696569.79979904;471.28504993;55;52;46;13364.000000;1.000000;1.000000;1.000000;1.000000;-0.030226;0.030226;-0.030226;1.000000
445631.66820343;5696569.75629910;471.28875019;46;45;39;11308.000000;1.000000;1.000000;1.000000;1.000000;-0.073701;0.073701;-0.073701;1.000000
445631.70689972;5696569.71999939;471.29005005;22;20;15;5140.000000;1.000000;1.000000;1.000000;1.000000;-0.110001;0.110001;-0.110001;1.000000
445631.77980240;5696569.72269924;471.28634979;87;87;78;22102.000000;1.000000;1.000000;1.000000;1.000000;-0.107301;0.107301;-0.107301;1.000000
445631.49279984;5696569.73049934;471.28974964;129;125;108;31868.000000;1.000000;1.000000;1.000000;1.000000;0.009077;-0.009077;0.009077;1.000000
445631.71570023;5696569.73789890;471.28595020;46;45;38;11308.000000;1.000000;1.000000;1.000000;1.000000;-0.092101;0.092101;-0.092101;1.000000
445631.75330170;5696569.73909958;471.28534986;42;42;33;10537.000000;1.000000;1.000000;1.000000;1.000000;-0.090912;0.090912;-0.090912;1.000000
445631.53250320;5696569.65669926;471.29304983;130;126;112;32125.000000;1.000000;1.000000;1.000000;1.000000;-0.030626;0.030626;-0.030626;1.000000
445631.79330261;5696569.66769894;471.28634979;45;40;30;10280.000000;1.000000;1.000000;1.000000;1.000000;-0.162301;0.162301;-0.162301;1.000000
445631.46210297;5696569.57909973;471.29355003;148;146;134;37265.000000;1.000000;1.000000;1.000000;1.000000;0.039774;-0.039774;0.039774;1.000000
445631.76250275;5696569.51629932;471.29244997;49;46;39;11822.000000;1.000000;1.000000;1.000000;1.000000;-0.186299;0.186299;-0.186299;1.000000
445631.61610229;5696569.47379883;471.28994991;149;149;142;38036.000000;1.000000;1.000000;1.000000;1.000000;-0.116103;0.116103;-0.116103;1.000000
445631.27800186;5696569.73859985;471.29884960;149;144;135;37008.000000;1.000000;1.000000;1.000000;1.000000;-0.091400;0.091400;-0.091400;1.000000
445631.54129990;5696569.67689903;471.29594995;71;65;48;16448.000000;1.000000;1.000000;1.000000;1.000000;-0.039423;0.039423;-0.039423;1.000000
445631.74559982;5696569.68369873;471.28904964;99;95;84;24158.000000;1.000000;1.000000;1.000000;1.000000;-0.146301;0.146301;-0.146301;1.000000
445631.59380157;5696569.76089867;471.29005005;33;32;26;7967.000000;1.000000;1.000000;1.000000;1.000000;-0.069101;0.069101;-0.069101;1.000000
445631.65369995;5696569.68039902;471.29874994;39;34;22;8738.000000;1.000000;1.000000;1.000000;1.000000;-0.149601;0.149601;-0.149601;1.000000
445631.52470215;5696569.64809902;471.29254963;123;120;107;30583.000000;1.000000;1.000000;1.000000;1.000000;-0.022825;0.022825;-0.022825;1.000000
445631.81960114;5696569.69799908;471.28554966;142;140;129;35723.000000;1.000000;1.000000;1.000000;1.000000;-0.132098;0.132098;-0.132098;1.000000
445631.56460007;5696569.57429894;471.29114964;116;112;102;28784.000000;1.000000;1.000000;1.000000;1.000000;-0.062723;0.062723;-0.062723;1.000000
445631.39910324;5696569.55689915;471.29744961;97;92;81;23644.000000;1.000000;1.000000;1.000000;1.000000;0.102774;-0.102774;0.102774;1.000000
445631.64100082;5696569.54159935;471.29194977;40;37;31;9509.000000;1.000000;1.000000;1.000000;1.000000;-0.139124;0.139124;-0.139124;1.000000
445631.60480316;5696569.50289925;471.28984978;94;94;85;23901.000000;1.000000;1.000000;1.000000;1.000000;-0.102926;0.102926;-0.102926;1.000000
445631.61980255;5696569.56679924;471.29594995;51;48;40;12336.000000;1.000000;1.000000;1.000000;1.000000;-0.117926;0.117926;-0.117926;1.000000
445631.51080139;5696569.52559860;471.29515030;134;132;123;33667.000000;1.000000;1.000000;1.000000;1.000000;-0.008924;0.008924;-0.008924;1.000000
445631.56850250;5696569.46429928;471.28774979;188;188;181;48059.000000;1.000000;1.000000;1.000000;1.000000;-0.073208;0.073208;-0.073208;1.000000
445631.72450073;5696569.97329910;471.26825001;162;158;147;40349.000000;1.000000;1.000000;1.000000;1.000000;0.123060;-0.123060;0.123060;1.000000
445631.69140060;5696569.89689930;471.27274992;76;70;59;17990.000000;1.000000;1.000000;1.000000;1.000000;0.066930;-0.066930;0.066930;1.000000
445631.76889999;5696569.82439907;471.27075006;46;40;31;10280.000000;1.000000;1.000000;1.000000;1.000000;-0.005601;0.005601;-0.005601;1.000000
445631.23350342;5696569.69119843;471.30784990;92;90;84;22873.000000;1.000000;1.000000;1.000000;1.000000;-0.138802;0.138802;-0.138802;1.000000
445631.82560165;5696569.75369843;471.26784994;39;38;31;9509.000000;1.000000;1.000000;1.000000;1.000000;-0.076302;0.076302;-0.076302;1.000000
445631.53110321;5696569.93729980;471.28235008;114;110;98;28013.000000;1.000000;1.000000;1.000000;1.000000;0.107300;-0.107300;0.107300;1.000000
445631.56850250;5696569.93619926;471.28165009;132;129;117;32896.000000;1.000000;1.000000;1.000000;1.000000;0.106279;-0.106279;0.106279;1.000000
445631.36480148;5696569.69539936;471.30684998;176;175;167;44718.000000;1.000000;1.000000;1.000000;1.000000;-0.134601;0.134601;-0.134601;1.000000
445631.80900009;5696569.75289925;471.27174999;28;28;21;6939.000000;1.000000;1.000000;1.000000;1.000000;-0.077101;0.077101;-0.077101;1.000000
445631.54000290;5696569.73999985;471.29904987;146;144;134;36751.000000;1.000000;1.000000;1.000000;1.000000;-0.038126;0.038126;-0.038126;1.000000
445631.60519989;5696569.90249928;471.27825024;101;97;84;24672.000000;1.000000;1.000000;1.000000;1.000000;0.072503;-0.072503;0.072503;1.000000
445631.32520111;5696569.93769844;471.28704979;193;186;176;48059.000000;1.000000;1.000000;1.000000;1.000000;0.107698;-0.107698;0.107698;1.000000
445631.78170212;5696569.69439896;471.28844978;91;90;79;22873.000000;1.000000;1.000000;1.000000;1.000000;-0.135601;0.135601;-0.135601;1.000000
445631.67640121;5696569.54299934;471.28884985;57;54;50;13878.000000;1.000000;1.000000;1.000000;1.000000;-0.174524;0.174524;-0.174524;1.000000
445631.52729996;5696569.60109909;471.29215004;57;54;42;13621.000000;1.000000;1.000000;1.000000;1.000000;-0.025423;0.025423;-0.025423;1.000000
445631.45320328;5696569.55899914;471.29295017;137;134;122;34181.000000;1.000000;1.000000;1.000000;1.000000;0.048674;-0.048674;0.048674;1.000000
445631.56380280;5696569.56509979;471.29104998;116;113;101;28784.000000;1.000000;1.000000;1.000000;1.000000;-0.061926;0.061926;-0.061926;1.000000
445631.32310303;5696569.99149902;471.28984978;157;154;143;39321.000000;1.000000;1.000000;1.000000;1.000000;-0.161499;0.161499;-0.161499;1.000000
445631.32580002;5696569.91889961;471.28684999;172;164;153;42405.000000;1.000000;1.000000;1.000000;1.000000;0.088900;-0.088900;0.088900;1.000000
445631.47319992;5696569.94269951;471.28214981;159;157;149;40092.000000;1.000000;1.000000;1.000000;1.000000;-0.112700;0.112700;-0.112700;1.000000
445631.43800171;5696569.94129951;471.28284981;112;111;103;28270.000000;1.000000;1.000000;1.000000;1.000000;0.111300;-0.111300;0.111300;1.000000
445631.62350281;5696569.94979866;471.28195002;212;211;202;53970.000000;1.000000;1.000000;1.000000;1.000000;0.119799;-0.119799;0.119799;1.000000
445631.54940231;5696569.90759857;471.28284981;118;115;100;29298.000000;1.000000;1.000000;1.000000;1.000000;0.077599;-0.077599;0.077599;1.000000
445631.51190002;5696569.90639885;471.28114988;170;168;157;42919.000000;1.000000;1.000000;1.000000;1.000000;0.077054;-0.077054;0.077054;1.000000
445631.40210159;5696569.88379868;471.28515007;61;57;50;14649.000000;1.000000;1.000000;1.000000;1.000000;0.053799;-0.053799;0.053799;1.000000
445631.36440094;5696569.88259895;471.28814985;140;135;127;34695.000000;1.000000;1.000000;1.000000;1.000000;0.052599;-0.052599;0.052599;1.000000
445631.40530212;5696569.84609898;471.29184963;140;136;128;34952.000000;1.000000;1.000000;1.000000;1.000000;0.016099;-0.016099;0.016099;1.000000
445631.44070251;5696569.84749897;471.28644993;153;152;141;38807.000000;1.000000;1.000000;1.000000;1.000000;0.017499;-0.017499;0.017499;1.000000
445631.51590164;5696569.85219963;471.28764965;75;73;64;18504.000000;1.000000;1.000000;1.000000;1.000000;0.023147;-0.023147;0.023147;1.000000
445631.33150299;5696569.80619915;471.29034998;163;158;149;40606.000000;1.000000;1.000000;1.000000;1.000000;-0.023801;0.023801;-0.023801;1.000000
445631.51700027;5696569.81469925;471.28954985;86;84;78;21331.000000;1.000000;1.000000;1.000000;1.000000;-0.015123;0.015123;-0.015123;1.000000
445631.55320175;5696569.87219913;471.28025009;189;186;174;47545.000000;1.000000;1.000000;1.000000;1.000000;0.042199;-0.042199;0.042199;1.000000
445631.33279999;5696569.77099903;471.29234983;127;124;115;31611.000000;1.000000;1.000000;1.000000;1.000000;-0.059001;0.059001;-0.059001;1.000000
445631.48070343;5696569.77599915;471.28974964;127;126;112;31868.000000;1.000000;1.000000;1.000000;1.000000;0.021173;-0.021173;0.021173;1.000000
445631.23420151;5696569.69819935;471.30565025;69;67;61;16962.000000;1.000000;1.000000;1.000000;1.000000;-0.131801;0.131801;-0.131801;1.000000
445631.57540329;5696569.74149902;471.29594995;59;57;50;14392.000000;1.000000;1.000000;1.000000;1.000000;-0.073526;0.073526;-0.073526;1.000000
445631.65279968;5696569.67119892;471.29865028;49;43;30;11051.000000;1.000000;1.000000;1.000000;1.000000;-0.150923;0.150923;-0.150923;1.000000
445631.46880157;5696569.62749870;471.29674961;141;140;127;35466.000000;1.000000;1.000000;1.000000;1.000000;0.033075;-0.033075;0.033075;1.000000
445631.52850159;5696569.56369980;471.29174997;120;117;106;29812.000000;1.000000;1.000000;1.000000;1.000000;-0.026625;0.026625;-0.026625;1.000000
445631.58380325;5696569.55619915;471.29414989;90;86;77;22102.000000;1.000000;1.000000;1.000000;1.000000;-0.081926;0.081926;-0.081926;1.000000
445631.63280304;5696569.94889935;471.28245022;223;222;213;56797.000000;1.000000;1.000000;1.000000;1.000000;0.118980;-0.118980;0.118980;1.000000
445631.59530075;5696569.94769867;471.28074982;149;147;138;37522.000000;1.000000;1.000000;1.000000;1.000000;0.117699;-0.117699;0.117699;1.000000
445631.55580338;5696569.78069885;471.29324963;40;39;32;9766.000000;1.000000;1.000000;1.000000;1.000000;-0.049301;0.049301;-0.049301;1.000000
445631.66860016;5696569.78429897;471.28674986;94;93;86;23644.000000;1.000000;1.000000;1.000000;1.000000;-0.045701;0.045701;-0.045701;1.000000
445631.66970261;5696569.74679955;471.28865005;80;80;73;20303.000000;1.000000;1.000000;1.000000;1.000000;-0.083200;0.083200;-0.083200;1.000000
445631.30350311;5696569.83219917;471.29174997;137;131;121;33667.000000;1.000000;1.000000;1.000000;1.000000;-0.002199;0.002199;-0.002199;1.000000
445631.37650116;5696569.83709915;471.29044964;69;64;57;16448.000000;1.000000;1.000000;1.000000;1.000000;0.007099;-0.007099;0.007099;1.000000
445631.63960083;5696569.77299889;471.28525021;50;48;43;12336.000000;1.000000;1.000000;1.000000;1.000000;-0.057001;0.057001;-0.057001;1.000000
445631.64280136;5696569.73529919;471.29194977;59;59;50;14906.000000;1.000000;1.000000;1.000000;1.000000;-0.094701;0.094701;-0.094701;1.000000
445631.57600220;5696569.54759892;471.29374983;89;84;74;21588.000000;1.000000;1.000000;1.000000;1.000000;-0.074125;0.074125;-0.074125;1.000000
445631.53989990;5696569.50889977;471.28924992;126;124;117;31611.000000;1.000000;1.000000;1.000000;1.000000;-0.038023;0.038023;-0.038023;1.000000
445631.52270325;5696569.70199974;471.29314997;157;153;136;39064.000000;1.000000;1.000000;1.000000;1.000000;-0.020826;0.020826;-0.020826;1.000000
445631.33510025;5696569.91809853;471.28725006;163;155;145;40092.000000;1.000000;1.000000;1.000000;1.000000;0.088099;-0.088099;0.088099;1.000000
445631.30080231;5696569.87909897;471.29215004;165;157;146;40606.000000;1.000000;1.000000;1.000000;1.000000;-0.049099;0.049099;-0.049099;1.000000
445631.33850296;5696569.88029869;471.28924992;129;123;113;31611.000000;1.000000;1.000000;1.000000;1.000000;0.050299;-0.050299;0.050299;1.000000
445631.75760086;5696569.63819893;471.29134991;58;53;46;13621.000000;1.000000;1.000000;1.000000;1.000000;-0.191855;0.191855;-0.191855;1.000000
445631.47459991;5696569.51479919;471.29804995;127;127;119;32382.000000;1.000000;1.000000;1.000000;1.000000;0.027277;-0.027277;0.027277;1.000000
445631.65559967;5696569.44679935;471.29145004;144;144;137;36751.000000;1.000000;1.000000;1.000000;1.000000;-0.116827;0.116827;-0.116827;1.000000
445631.44660004;5696569.93349846;471.28315022;140;139;130;35466.000000;1.000000;1.000000;1.000000;1.000000;0.103498;-0.103498;0.103498;1.000000
445631.74730118;5696569.67659958;471.28904964;71;65;55;16705.000000;1.000000;1.000000;1.000000;1.000000;-0.153400;0.153400;-0.153400;1.000000
445631.41240128;5696569.89229973;471.28105022;85;81;73;20817.000000;1.000000;1.000000;1.000000;1.000000;-0.062300;0.062300;-0.062300;1.000000
445631.78260239;5696569.67799957;471.28595020;34;31;22;7710.000000;1.000000;1.000000;1.000000;1.000000;-0.152000;0.152000;-0.152000;1.000000
445631.44790085;5696569.89599903;471.28044989;77;75;65;19018.000000;1.000000;1.000000;1.000000;1.000000;0.065999;-0.065999;0.065999;1.000000
445631.52280243;5696569.89839943;471.28385021;140;138;125;35209.000000;1.000000;1.000000;1.000000;1.000000;0.068399;-0.068399;0.068399;1.000000
445631.63690002;5696569.86679848;471.27924969;161;157;145;40092.000000;1.000000;1.000000;1.000000;1.000000;0.036800;-0.036800;0.036800;1.000000
445631.67220123;5696569.86829956;471.27624990;110;105;94;26985.000000;1.000000;1.000000;1.000000;1.000000;0.038300;-0.038300;0.038300;1.000000
445631.67560013;5696569.83049973;471.27825024;117;112;103;28784.000000;1.000000;1.000000;1.000000;1.000000;0.000500;-0.000500;0.000500;1.000000
445631.52530106;5696569.62939938;471.29234983;159;157;143;40092.000000;1.000000;1.000000;1.000000;1.000000;-0.023424;0.023424;-0.023424;1.000000
445631.78860291;5696569.76169975;471.27554991;42;41;31;10280.000000;1.000000;1.000000;1.000000;1.000000;-0.068471;0.068471;-0.068471;1.000000
445631.35580261;5696569.89039906;471.28784992;135;130;120;33410.000000;1.000000;1.000000;1.000000;1.000000;0.060399;-0.060399;0.060399;1.000000
445631.45370300;5696569.58929928;471.29334976;108;105;93;26728.000000;1.000000;1.000000;1.000000;1.000000;0.048174;-0.048174;0.048174;1.000000
445631.52650269;5696569.59189899;471.29194977;72;69;58;17476.000000;1.000000;1.000000;1.000000;1.000000;-0.024626;0.024626;-0.024626;1.000000
445631.45470245;5696569.54949959;471.29285004;111;108;96;27499.000000;1.000000;1.000000;1.000000;1.000000;0.047174;-0.047174;0.047174;1.000000
445631.52970322;5696569.52619942;471.29134991;129;127;118;32382.000000;1.000000;1.000000;1.000000;1.000000;-0.027826;0.027826;-0.027826;1.000000
445631.33880051;5696569.83359917;471.28875019;106;101;92;25957.000000;1.000000;1.000000;1.000000;1.000000;0.003599;-0.003599;0.003599;1.000000
445631.45269974;5696569.80199917;471.28884985;97;95;84;24158.000000;1.000000;1.000000;1.000000;1.000000;-0.028001;0.028001;-0.028001;1.000000
445631.68890198;5696569.55119904;471.28714993;56;51;46;13107.000000;1.000000;1.000000;1.000000;1.000000;-0.187025;0.187025;-0.187025;1.000000
445631.39460190;5696569.85639961;471.29155018;107;103;94;26471.000000;1.000000;1.000000;1.000000;1.000000;0.026400;-0.026400;0.026400;1.000000
445631.43230255;5696569.85769852;471.28624966;130;128;117;32639.000000;1.000000;1.000000;1.000000;1.000000;0.027699;-0.027699;0.027699;1.000000
445631.39579971;5696569.81889923;471.29114964;88;84;77;21588.000000;1.000000;1.000000;1.000000;1.000000;-0.011101;0.011101;-0.011101;1.000000
445631.47580154;5696569.47739895;471.29764988;117;116;109;29555.000000;1.000000;1.000000;1.000000;1.000000;0.031152;-0.031152;0.031152;1.000000
445631.40880020;5696569.48369892;471.29234983;139;137;129;34952.000000;1.000000;1.000000;1.000000;1.000000;0.093707;-0.093707;0.093707;1.000000
445631.60239990;5696569.52879913;471.29234983;46;41;33;10537.000000;1.000000;1.000000;1.000000;1.000000;-0.100523;0.100523;-0.100523;1.000000
445631.47100266;5696569.82139977;471.28754999;166;165;154;42148.000000;1.000000;1.000000;1.000000;1.000000;0.008600;-0.008600;0.008600;1.000000
445631.52990158;5696569.55419930;471.29404976;106;103;92;26214.000000;1.000000;1.000000;1.000000;1.000000;-0.028025;0.028025;-0.028025;1.000000
445631.56520279;5696569.55559929;471.29094984;112;108;97;27499.000000;1.000000;1.000000;1.000000;1.000000;-0.063326;0.063326;-0.063326;1.000000
445631.60390289;5696569.51929863;471.29225018;85;82;74;21074.000000;1.000000;1.000000;1.000000;1.000000;-0.102026;0.102026;-0.102026;1.000000
445631.53429993;5696569.45099934;471.29295017;109;109;100;27756.000000;1.000000;1.000000;1.000000;1.000000;-0.054280;0.054280;-0.054280;1.000000
445631.56640060;5696569.51809891;471.29054977;143;140;130;35723.000000;1.000000;1.000000;1.000000;1.000000;-0.064524;0.064524;-0.064524;1.000000
445631.71669968;5696569.52519901;471.29044964;37;32;30;8481.000000;1.000000;1.000000;1.000000;1.000000;-0.195239;0.195239;-0.195239;1.000000
445631.53250320;5696569.47929962;471.28854992;145;144;137;36751.000000;1.000000;1.000000;1.000000;1.000000;-0.034247;0.034247;-0.034247;1.000000
445631.75530060;5696569.48889931;471.29174997;111;106;101;27242.000000;1.000000;1.000000;1.000000;1.000000;-0.158899;0.158899;-0.158899;1.000000
445631.75390060;5696569.49839981;471.29184963;124;120;115;30840.000000;1.000000;1.000000;1.000000;1.000000;-0.168400;0.168400;-0.168400;1.000000
445631.78950317;5696569.50219925;471.28655006;124;119;109;30583.000000;1.000000;1.000000;1.000000;1.000000;-0.172199;0.172199;-0.172199;1.000000
445631.45180328;5696570.01699932;471.28904964;136;138;132;34952.000000;1.000000;1.000000;1.000000;1.000000;0.186999;0.186999;-0.186999;1.000000
445631.34399994;5696569.93829926;471.28554966;167;161;151;41377.000000;1.000000;1.000000;1.000000;1.000000;0.108299;-0.108299;0.108299;1.000000
445631.45910080;5696569.86919983;471.28754999;67;66;55;16705.000000;1.000000;1.000000;1.000000;1.000000;0.039200;-0.039200;0.039200;1.000000
445631.49660309;5696569.87039955;471.28694965;87;86;76;21845.000000;1.000000;1.000000;1.000000;1.000000;0.040400;-0.040400;0.040400;1.000000
445631.27449997;5696569.82309921;471.29264977;137;130;120;33667.000000;1.000000;1.000000;1.000000;1.000000;-0.006901;0.006901;-0.006901;1.000000
445631.49770172;5696569.83289917;471.28884985;193;192;182;49087.000000;1.000000;1.000000;1.000000;1.000000;0.002899;-0.002899;0.002899;1.000000
445631.53540237;5696569.83409889;471.28595020;75;72;64;18504.000000;1.000000;1.000000;1.000000;1.000000;0.004099;-0.004099;0.004099;1.000000
445631.31330307;5696569.78689964;471.29164984;177;174;165;44461.000000;1.000000;1.000000;1.000000;1.000000;0.043114;-0.043114;0.043114;1.000000
445631.57400330;5696569.79779919;471.28725006;103;101;93;25700.000000;1.000000;1.000000;1.000000;1.000000;-0.032208;0.032208;-0.032208;1.000000
445631.61150177;5696569.79899891;471.28665020;88;85;77;21845.000000;1.000000;1.000000;1.000000;1.000000;-0.031001;0.031001;-0.031001;1.000000
445631.61260040;5696569.76149948;471.28854992;30;28;23;7196.000000;1.000000;1.000000;1.000000;1.000000;-0.068501;0.068501;-0.068501;1.000000
445631.72770126;5696569.69239910;471.29064991;70;66;56;16962.000000;1.000000;1.000000;1.000000;1.000000;-0.137638;0.137638;-0.137638;1.000000
445631.55200012;5696569.46339901;471.28924992;187;187;180;47802.000000;1.000000;1.000000;1.000000;1.000000;-0.059046;0.059046;-0.059046;1.000000
445631.58960159;5696569.46459969;471.28865005;174;174;167;44461.000000;1.000000;1.000000;1.000000;1.000000;-0.092719;0.092719;-0.092719;1.000000
445631.38039978;5696569.94899948;471.28035023;180;178;170;45489.000000;1.000000;1.000000;1.000000;1.000000;0.118999;-0.118999;0.118999;1.000000
445631.53030212;5696569.95369919;471.28245022;136;134;123;34181.000000;1.000000;1.000000;1.000000;1.000000;0.123699;-0.123699;0.123699;1.000000
445631.42240341;5696569.87499912;471.28364994;114;110;101;28270.000000;1.000000;1.000000;1.000000;1.000000;-0.044999;0.044999;-0.044999;1.000000
445631.60799988;5696569.88349922;471.28055002;109;105;93;26728.000000;1.000000;1.000000;1.000000;1.000000;0.053499;-0.053499;0.053499;1.000000
