//X;Y;Z;R;G;B;Intensity;Return Number;Number Of Returns;Scan Direction Flag;Point Source ID;C2M signed distances[-][<0.8];C2M signed distances[<0.4];C2M signed distances[-][<0.2];Stump25
445609.01720150;5696572.67279919;472.87365009;141;134;73;33153.000000;1.000000;1.000000;1.000000;1.000000;-0.140925;0.140925;-0.140925;1.000000
445609.21080120;5696572.45979889;472.80294992;116;116;56;28013.000000;1.000000;1.000000;1.000000;1.000000;0.052674;-0.052674;0.052674;1.000000
445609.08070190;5696572.29819878;472.70664980;147;143;83;35209.000000;1.000000;1.000000;1.000000;1.000000;-0.031801;0.031801;-0.031801;1.000000
445609.00850113;5696572.41109951;472.78154995;144;131;72;32896.000000;1.000000;1.000000;1.000000;1.000000;-0.098485;0.098485;-0.098485;1.000000
445609.10360153;5696572.43029888;472.78615000;198;182;127;46260.000000;1.000000;1.000000;1.000000;1.000000;-0.054525;0.054525;-0.054525;1.000000
445609.13710125;5696572.50599869;472.82345011;182;169;134;43433.000000;1.000000;1.000000;1.000000;1.000000;-0.021026;0.021026;-0.021026;1.000000
445609.12350185;5696572.41909893;472.78684999;222;213;172;54227.000000;1.000000;1.000000;1.000000;1.000000;-0.034625;0.034625;-0.034625;1.000000
445609.09780128;5696572.66679867;472.78165009;56;60;34;14135.000000;1.000000;1.000000;1.000000;1.000000;-0.060326;0.060326;-0.060326;1.000000
445609.21710117;5696572.50269897;472.85734989;226;216;164;54741.000000;1.000000;1.000000;1.000000;1.000000;0.058974;-0.058974;0.058974;1.000000
445608.98470123;5696572.57929905;472.77554991;148;130;77;33153.000000;1.000000;1.000000;1.000000;1.000000;-0.173426;0.173426;-0.173426;1.000000
445609.20020111;5696572.32149895;472.74954988;160;150;113;38036.000000;1.000000;1.000000;1.000000;1.000000;-0.008501;0.008501;-0.008501;1.000000
445608.98470123;5696572.50449951;472.77694990;180;167;114;42405.000000;1.000000;1.000000;1.000000;1.000000;-0.173426;0.173426;-0.173426;1.000000
445609.06320198;5696572.50839909;472.80614998;171;155;100;39321.000000;1.000000;1.000000;1.000000;1.000000;-0.094925;0.094925;-0.094925;1.000000
445608.95210178;5696572.47199924;472.81005003;148;143;85;35466.000000;1.000000;1.000000;1.000000;1.000000;-0.181023;0.181023;-0.181023;1.000000
445609.16940125;5696572.64649876;472.75904991;49;57;21;12850.000000;1.000000;1.000000;1.000000;1.000000;0.011274;-0.011274;0.011274;1.000000
445609.12660130;5696572.68249901;472.79944994;35;39;9;8738.000000;1.000000;1.000000;1.000000;1.000000;-0.031526;0.031526;-0.031526;1.000000
445609.10130127;5696572.48779877;472.85424997;184;171;123;43433.000000;1.000000;1.000000;1.000000;1.000000;-0.056826;0.056826;-0.056826;1.000000
445609.17160137;5696572.66209896;472.79425003;196;185;152;47288.000000;1.000000;1.000000;1.000000;1.000000;0.013474;-0.013474;0.013474;1.000000
445609.24730118;5696572.50069912;472.80504992;134;132;72;32125.000000;1.000000;1.000000;1.000000;1.000000;0.089174;-0.089174;0.089174;1.000000
445609.03610142;5696572.44769867;472.81584980;188;171;123;43690.000000;1.000000;1.000000;1.000000;1.000000;-0.121047;0.121047;-0.121047;1.000000
445609.06620129;5696572.42009933;472.76335003;180;167;101;41891.000000;1.000000;1.000000;1.000000;1.000000;-0.090099;0.090099;-0.090099;1.000000
445608.99770172;5696572.37629898;472.68755009;145;135;80;33667.000000;1.000000;1.000000;1.000000;1.000000;-0.081174;0.081174;-0.081174;1.000000
445608.99470146;5696572.44939907;472.80474998;186;171;117;43433.000000;1.000000;1.000000;1.000000;1.000000;-0.138242;0.138242;-0.138242;1.000000
445608.99330147;5696572.44909866;472.83494999;199;181;132;46517.000000;1.000000;1.000000;1.000000;1.000000;-0.138695;0.138695;-0.138695;1.000000
445609.23000153;5696572.48159893;472.78545000;147;145;84;35466.000000;1.000000;1.000000;1.000000;1.000000;0.071875;-0.071875;0.071875;1.000000
445609.22910126;5696572.52149876;472.78354980;153;159;73;37779.000000;1.000000;1.000000;1.000000;1.000000;0.070974;-0.070974;0.070974;1.000000
445609.26640137;5696572.59509953;472.78375008;28;36;9;7710.000000;1.000000;1.000000;1.000000;1.000000;0.108274;-0.108274;0.108274;1.000000
445609.14320190;5696572.15189941;472.72874977;161;155;108;38807.000000;1.000000;1.000000;1.000000;1.000000;-0.178101;0.178101;-0.178101;1.000000
445609.17950161;5696572.19049938;472.73075010;150;148;104;36751.000000;1.000000;1.000000;1.000000;1.000000;-0.139501;0.139501;-0.139501;1.000000
445609.20540150;5696572.49239929;472.83575012;217;209;160;52942.000000;1.000000;1.000000;1.000000;1.000000;0.047275;-0.047275;0.047275;1.000000
445609.14140137;5696572.62709911;472.82275011;92;92;48;22359.000000;1.000000;1.000000;1.000000;1.000000;-0.016726;0.016726;-0.016726;1.000000
445608.95330151;5696572.41929920;472.88404991;174;165;114;41634.000000;1.000000;1.000000;1.000000;1.000000;-0.142521;0.142521;-0.142521;1.000000
445609.02470119;5696572.41869934;472.80104973;157;142;81;35723.000000;1.000000;1.000000;1.000000;1.000000;-0.097169;0.097169;-0.097169;1.000000
445609.01010139;5696572.49909885;472.82464983;183;166;115;42405.000000;1.000000;1.000000;1.000000;1.000000;-0.148026;0.148026;-0.148026;1.000000
445609.07240112;5696572.27059944;472.72924997;156;151;92;37522.000000;1.000000;1.000000;1.000000;1.000000;0.059401;-0.059401;0.059401;1.000000
445609.21490200;5696572.19199951;472.72545006;135;135;94;33410.000000;1.000000;1.000000;1.000000;1.000000;-0.138000;0.138000;-0.138000;1.000000
445609.04230125;5696572.28999908;472.71184971;67;65;27;15677.000000;1.000000;1.000000;1.000000;1.000000;0.045688;-0.045688;0.045688;1.000000
445609.21870144;5696572.49719913;472.75484993;130;136;45;31868.000000;1.000000;1.000000;1.000000;1.000000;0.060575;-0.060575;0.060575;1.000000
445609.24290188;5696572.61149891;472.76664974;28;34;12;7453.000000;1.000000;1.000000;1.000000;1.000000;0.084775;-0.084775;0.084775;1.000000
445609.13420113;5696572.64739903;472.76445009;74;79;43;18761.000000;1.000000;1.000000;1.000000;1.000000;-0.023926;0.023926;-0.023926;1.000000
445609.03920181;5696572.26659878;472.73234989;87;82;24;19789.000000;1.000000;1.000000;1.000000;1.000000;0.068217;-0.068217;0.068217;1.000000
445609.22500141;5696572.52429874;472.77644970;156;161;77;38550.000000;1.000000;1.000000;1.000000;1.000000;0.066875;-0.066875;0.066875;1.000000
445609.21300133;5696572.52829941;472.73864986;138;147;62;34438.000000;1.000000;1.000000;1.000000;1.000000;0.054874;-0.054874;0.054874;1.000000
445609.09110172;5696572.63959892;472.76944973;104;105;61;25443.000000;1.000000;1.000000;1.000000;1.000000;-0.067025;0.067025;-0.067025;1.000000
445609.17180164;5696572.54429920;472.85815002;207;193;154;49344.000000;1.000000;1.000000;1.000000;1.000000;0.013675;-0.013675;0.013675;1.000000
445609.13750179;5696572.63219936;472.81565001;99;102;59;24672.000000;1.000000;1.000000;1.000000;1.000000;-0.020625;0.020625;-0.020625;1.000000
445609.06010159;5696572.48669918;472.72424986;171;158;103;39835.000000;1.000000;1.000000;1.000000;1.000000;-0.098025;0.098025;-0.098025;1.000000
445609.09020145;5696572.48609932;472.73024990;173;163;102;40863.000000;1.000000;1.000000;1.000000;1.000000;-0.067925;0.067925;-0.067925;1.000000
445609.18720158;5696572.63109882;472.74574997;95;98;65;23901.000000;1.000000;1.000000;1.000000;1.000000;0.029075;-0.029075;0.029075;1.000000
445609.07540138;5696572.58539875;472.74704983;175;162;114;41120.000000;1.000000;1.000000;1.000000;1.000000;-0.082726;0.082726;-0.082726;1.000000
445609.08730133;5696572.51189907;472.74445011;165;153;97;38550.000000;1.000000;1.000000;1.000000;1.000000;-0.070826;0.070826;-0.070826;1.000000
445609.14340122;5696572.63749893;472.74615004;53;55;13;12593.000000;1.000000;1.000000;1.000000;1.000000;-0.014726;0.014726;-0.014726;1.000000
445609.10180195;5696572.63369949;472.78144981;155;156;110;38550.000000;1.000000;1.000000;1.000000;1.000000;-0.056325;0.056325;-0.056325;1.000000
445608.97050198;5696572.40759953;472.78684999;83;75;30;18504.000000;1.000000;1.000000;1.000000;1.000000;-0.121796;0.121796;-0.121796;1.000000
445609.21950157;5696572.51609905;472.88324978;157;145;94;36494.000000;1.000000;1.000000;1.000000;1.000000;0.061375;-0.061375;0.061375;1.000000
445609.14200123;5696572.18939884;472.72905018;101;95;53;23644.000000;1.000000;1.000000;1.000000;1.000000;-0.140601;0.140601;-0.140601;1.000000
445609.03370197;5696572.23209961;472.73164989;131;119;72;30069.000000;1.000000;1.000000;1.000000;1.000000;0.102594;-0.102594;0.102594;1.000000
445608.97770126;5696572.62449940;472.76415016;74;71;16;16705.000000;1.000000;1.000000;1.000000;1.000000;-0.180426;0.180426;-0.180426;1.000000
445609.00620182;5696572.23169907;472.77005007;123;111;63;28013.000000;1.000000;1.000000;1.000000;1.000000;0.114225;-0.114225;0.114225;1.000000
445608.99840172;5696572.30539902;472.73334982;44;38;0;8995.000000;1.000000;1.000000;1.000000;1.000000;0.070413;-0.070413;0.070413;1.000000
445609.24330147;5696572.54139908;472.76814987;110;121;49;28013.000000;1.000000;1.000000;1.000000;1.000000;0.085175;-0.085175;0.085175;1.000000
445609.04980190;5696572.66919907;472.76324989;37;40;15;9252.000000;1.000000;1.000000;1.000000;1.000000;-0.108325;0.108325;-0.108325;1.000000
445609.12590130;5696572.60679920;472.86604979;145;140;95;34952.000000;1.000000;1.000000;1.000000;1.000000;-0.032226;0.032226;-0.032226;1.000000
445609.12830170;5696572.67169960;472.73654987;57;59;27;13878.000000;1.000000;1.000000;1.000000;1.000000;-0.029825;0.029825;-0.029825;1.000000
445609.13290127;5696572.63569935;472.76895000;108;104;52;25443.000000;1.000000;1.000000;1.000000;1.000000;-0.025226;0.025226;-0.025226;1.000000
445609.17490108;5696572.61369904;472.88234999;171;170;122;42405.000000;1.000000;1.000000;1.000000;1.000000;0.016774;-0.016774;0.016774;1.000000
445609.11950119;5696572.59089954;472.87265017;183;175;132;44204.000000;1.000000;1.000000;1.000000;1.000000;-0.038626;0.038626;-0.038626;1.000000
445608.99540146;5696572.37709911;472.79454996;54;45;12;11308.000000;1.000000;1.000000;1.000000;1.000000;-0.083522;0.083522;-0.083522;1.000000
445608.97580154;5696572.55459888;472.76555016;150;129;70;32896.000000;1.000000;1.000000;1.000000;1.000000;-0.182325;0.182325;-0.182325;1.000000
445609.21650131;5696572.53579910;472.83444979;194;191;145;47802.000000;1.000000;1.000000;1.000000;1.000000;0.058374;-0.058374;0.058374;1.000000
445609.05840118;5696572.56609924;472.87885000;157;145;81;36237.000000;1.000000;1.000000;1.000000;1.000000;-0.099726;0.099726;-0.099726;1.000000
445609.01510151;5696572.51539906;472.79944994;144;130;68;32639.000000;1.000000;1.000000;1.000000;1.000000;-0.143025;0.143025;-0.143025;1.000000
445608.97890194;5696572.47899921;472.79974987;155;146;96;36751.000000;1.000000;1.000000;1.000000;1.000000;-0.171775;0.171775;-0.171775;1.000000
445609.00090130;5696572.64409931;472.86324980;140;142;97;34952.000000;1.000000;1.000000;1.000000;1.000000;-0.157226;0.157226;-0.157226;1.000000
445609.26770123;5696572.50549896;472.82935001;160;162;109;39835.000000;1.000000;1.000000;1.000000;1.000000;0.109574;-0.109574;0.109574;1.000000
445609.22950180;5696572.49959953;472.83454992;150;149;93;36751.000000;1.000000;1.000000;1.000000;1.000000;0.071375;-0.071375;0.071375;1.000000
445609.12560184;5696572.62789925;472.86404993;92;79;40;20046.000000;1.000000;1.000000;1.000000;1.000000;-0.032525;0.032525;-0.032525;1.000000
445609.24290188;5696572.45209892;472.80195000;164;165;104;40349.000000;1.000000;1.000000;1.000000;1.000000;0.084775;-0.084775;0.084775;1.000000
445609.23380192;5696572.39719875;472.78464987;123;120;75;29555.000000;1.000000;1.000000;1.000000;1.000000;0.068478;-0.068478;0.068478;1.000000
445609.09620197;5696572.67849930;472.79104998;34;42;9;8995.000000;1.000000;1.000000;1.000000;1.000000;-0.061925;0.061925;-0.061925;1.000000
445608.99170120;5696572.45319946;472.87914993;176;151;101;39321.000000;1.000000;1.000000;1.000000;1.000000;-0.143038;0.143038;-0.143038;1.000000
445609.10900124;5696572.13179882;472.71994974;158;148;106;37522.000000;1.000000;1.000000;1.000000;1.000000;-0.198201;0.198201;-0.198201;1.000000
445609.07000168;5696572.59999950;472.74004986;148;138;85;34695.000000;1.000000;1.000000;1.000000;1.000000;-0.088125;0.088125;-0.088125;1.000000
445609.25110157;5696572.24949940;472.71614983;90;90;62;22102.000000;1.000000;1.000000;1.000000;1.000000;-0.081397;0.081397;-0.081397;1.000000
445608.97060116;5696572.25049885;472.82224991;51;50;3;11565.000000;1.000000;1.000000;1.000000;1.000000;0.122940;-0.122940;0.122940;1.000000
445609.05100163;5696572.55929955;472.76664974;153;134;83;34438.000000;1.000000;1.000000;1.000000;1.000000;-0.107125;0.107125;-0.107125;1.000000
445608.97120197;5696572.49609955;472.79955008;168;154;107;39321.000000;1.000000;1.000000;1.000000;1.000000;-0.186925;0.186925;-0.186925;1.000000
445609.09070118;5696572.44989880;472.80205013;200;179;129;46003.000000;1.000000;1.000000;1.000000;1.000000;-0.067426;0.067426;-0.067426;1.000000
445609.11290176;5696572.54199894;472.75754978;163;149;102;38036.000000;1.000000;1.000000;1.000000;1.000000;-0.045225;0.045225;-0.045225;1.000000
445609.02560146;5696572.21129902;472.76364996;121;116;63;28527.000000;1.000000;1.000000;1.000000;1.000000;0.124874;-0.124874;0.124874;1.000000
445608.98220165;5696572.43359955;472.84124996;186;171;119;43433.000000;1.000000;1.000000;1.000000;1.000000;-0.132233;0.132233;-0.132233;1.000000
445609.21020134;5696572.58199890;472.75785019;136;139;95;34181.000000;1.000000;1.000000;1.000000;1.000000;0.052074;-0.052074;0.052074;1.000000
445608.97040184;5696572.29209908;472.70394995;62;54;3;12850.000000;1.000000;1.000000;1.000000;1.000000;0.101330;-0.101330;0.101330;1.000000
445609.10570152;5696572.67009933;472.82165005;32;38;8;8224.000000;1.000000;1.000000;1.000000;1.000000;-0.052425;0.052425;-0.052425;1.000000
445609.27720173;5696572.49339874;472.79934980;127;123;68;30326.000000;1.000000;1.000000;1.000000;1.000000;0.119075;-0.119075;0.119075;1.000000
445609.18270119;5696572.58389957;472.80084993;137;132;74;32639.000000;1.000000;1.000000;1.000000;1.000000;0.024574;-0.024574;0.024574;1.000000
445609.13200195;5696572.22559937;472.71504976;141;131;87;33153.000000;1.000000;1.000000;1.000000;1.000000;0.104401;-0.104401;0.104401;1.000000
445609.24250134;5696572.23169907;472.71315004;61;59;37;14649.000000;1.000000;1.000000;1.000000;1.000000;-0.100450;0.100450;-0.100450;1.000000
445608.99720200;5696572.62979897;472.75804998;76;74;18;17476.000000;1.000000;1.000000;1.000000;1.000000;-0.160925;0.160925;-0.160925;1.000000
445609.03360184;5696572.66619881;472.75315001;22;23;1;5140.000000;1.000000;1.000000;1.000000;1.000000;-0.124525;0.124525;-0.124525;1.000000
445609.00160130;5696572.65719898;472.77024986;80;82;38;19532.000000;1.000000;1.000000;1.000000;1.000000;-0.156526;0.156526;-0.156526;1.000000
445609.03190144;5696572.52839954;472.76305010;114;98;35;24415.000000;1.000000;1.000000;1.000000;1.000000;-0.126225;0.126225;-0.126225;1.000000
445609.22190197;5696572.29629906;472.73395016;176;167;135;42662.000000;1.000000;1.000000;1.000000;1.000000;-0.033725;0.033725;-0.033725;1.000000
445609.23520191;5696572.41559895;472.79185011;131;129;75;31611.000000;1.000000;1.000000;1.000000;1.000000;0.077075;-0.077075;0.077075;1.000000
445609.10790165;5696572.56179913;472.86004974;167;150;101;38293.000000;1.000000;1.000000;1.000000;1.000000;-0.050225;0.050225;-0.050225;1.000000
445609.24800117;5696572.27069958;472.72555019;41;39;11;9252.000000;1.000000;1.000000;1.000000;1.000000;-0.061190;0.061190;-0.061190;1.000000
445609.23450191;5696572.67609890;472.72275021;48;51;28;12079.000000;1.000000;1.000000;1.000000;1.000000;0.076375;-0.076375;0.076375;1.000000
445609.04620178;5696572.47199924;472.84924986;211;192;145;49344.000000;1.000000;1.000000;1.000000;1.000000;-0.111925;0.111925;-0.111925;1.000000
445609.15150173;5696572.61509903;472.78114988;114;117;68;28270.000000;1.000000;1.000000;1.000000;1.000000;-0.006625;0.006625;-0.006625;1.000000
445609.00320156;5696572.37359913;472.82054998;35;25;0;6425.000000;1.000000;1.000000;1.000000;1.000000;-0.075122;0.075122;-0.075122;1.000000
445609.07820137;5696572.48239906;472.88805010;177;160;121;41120.000000;1.000000;1.000000;1.000000;1.000000;-0.079926;0.079926;-0.079926;1.000000
445609.01040180;5696572.26439960;472.74504997;133;130;81;32125.000000;1.000000;1.000000;1.000000;1.000000;0.084951;-0.084951;0.084951;1.000000
445609.22270115;5696572.56289871;472.85825016;158;153;99;38036.000000;1.000000;1.000000;1.000000;1.000000;0.064574;-0.064574;0.064574;1.000000
445609.07010181;5696572.53429897;472.75785019;158;140;84;35723.000000;1.000000;1.000000;1.000000;1.000000;-0.088025;0.088025;-0.088025;1.000000
445608.99540146;5696572.37709911;472.79454996;54;45;12;11308.000000;1.000000;1.000000;1.000000;1.000000;-0.083522;0.083522;-0.083522;1.000000
445609.00560196;5696572.29809959;472.71254971;107;97;51;24158.000000;1.000000;1.000000;1.000000;1.000000;0.066874;-0.066874;0.066874;1.000000
445609.06630142;5696572.25479897;472.72874977;147;144;90;35466.000000;1.000000;1.000000;1.000000;1.000000;0.075201;-0.075201;0.075201;1.000000
445608.99070175;5696572.47179897;472.88864996;205;178;136;46517.000000;1.000000;1.000000;1.000000;1.000000;-0.159797;0.159797;-0.159797;1.000000
445609.12800129;5696572.48349960;472.82275011;112;97;40;24415.000000;1.000000;1.000000;1.000000;1.000000;-0.030126;0.030126;-0.030126;1.000000
445609.03810127;5696572.55549915;472.78695013;130;108;59;28013.000000;1.000000;1.000000;1.000000;1.000000;-0.120026;0.120026;-0.120026;1.000000
445609.10860165;5696572.51599892;472.80135014;211;194;153;49858.000000;1.000000;1.000000;1.000000;1.000000;-0.049525;0.049525;-0.049525;1.000000
445609.11600121;5696572.48979958;472.78975012;222;199;157;51657.000000;1.000000;1.000000;1.000000;1.000000;-0.042126;0.042126;-0.042126;1.000000
445609.05890186;5696572.33319958;472.69215014;148;141;84;34952.000000;1.000000;1.000000;1.000000;1.000000;-0.006341;0.006341;-0.006341;1.000000
445609.09870155;5696572.37559898;472.72704985;109;109;38;25957.000000;1.000000;1.000000;1.000000;1.000000;-0.045599;0.045599;-0.045599;1.000000
445609.09330185;5696572.41059883;472.76445009;172;165;105;41120.000000;1.000000;1.000000;1.000000;1.000000;-0.064825;0.064825;-0.064825;1.000000
445609.01820190;5696572.39829929;472.79815008;192;176;119;44718.000000;1.000000;1.000000;1.000000;1.000000;-0.082443;0.082443;-0.082443;1.000000
445608.97040184;5696572.24819954;472.82214977;51;49;2;11308.000000;1.000000;1.000000;1.000000;1.000000;0.124590;-0.124590;0.124590;1.000000
445609.17470177;5696572.26339920;472.72914984;96;87;46;21845.000000;1.000000;1.000000;1.000000;1.000000;-0.066601;0.066601;-0.066601;1.000000
445609.13090141;5696572.41179951;472.76384975;204;197;151;49858.000000;1.000000;1.000000;1.000000;1.000000;-0.027225;0.027225;-0.027225;1.000000
445609.20200165;5696572.52479942;472.87554981;141;124;66;31354.000000;1.000000;1.000000;1.000000;1.000000;0.043875;-0.043875;0.043875;1.000000
445609.09190186;5696572.31359871;472.69805004;164;157;103;39321.000000;1.000000;1.000000;1.000000;1.000000;-0.016401;0.016401;-0.016401;1.000000
445609.01000126;5696572.38899906;472.69985010;148;141;88;35209.000000;1.000000;1.000000;1.000000;1.000000;-0.080235;0.080235;-0.080235;1.000000
445609.04870136;5696572.42209919;472.74165012;156;141;71;35209.000000;1.000000;1.000000;1.000000;1.000000;-0.093424;0.093424;-0.093424;1.000000
445609.20340164;5696572.41429909;472.76714994;118;115;62;28270.000000;1.000000;1.000000;1.000000;1.000000;0.045275;-0.045275;0.045275;1.000000
445609.12490185;5696572.52499874;472.87435009;145;126;74;32125.000000;1.000000;1.000000;1.000000;1.000000;-0.033225;0.033225;-0.033225;1.000000
445609.21230133;5696572.26689919;472.73084976;155;152;118;38293.000000;1.000000;1.000000;1.000000;1.000000;-0.063101;0.063101;-0.063101;1.000000
445609.10590179;5696572.59909924;472.87904980;192;182;139;46260.000000;1.000000;1.000000;1.000000;1.000000;-0.052225;0.052225;-0.052225;1.000000
445609.02460201;5696572.43359955;472.88744976;212;196;150;50115.000000;1.000000;1.000000;1.000000;1.000000;-0.110973;0.110973;-0.110973;1.000000
445609.24030121;5696572.66839893;472.73455002;26;31;10;6939.000000;1.000000;1.000000;1.000000;1.000000;0.082174;-0.082174;0.082174;1.000000
445609.13290127;5696572.37449940;472.74484970;147;143;79;35209.000000;1.000000;1.000000;1.000000;1.000000;-0.025226;0.025226;-0.025226;1.000000
445609.15550144;5696572.47179897;472.80994989;152;137;83;34695.000000;1.000000;1.000000;1.000000;1.000000;-0.002625;0.002625;-0.002625;1.000000
445609.13050182;5696572.45089920;472.80154993;197;185;143;47031.000000;1.000000;1.000000;1.000000;1.000000;-0.027625;0.027625;-0.027625;1.000000
445609.01070126;5696572.63659866;472.83794977;189;176;134;44975.000000;1.000000;1.000000;1.000000;1.000000;-0.147426;0.147426;-0.147426;1.000000
445608.99880131;5696572.23669918;472.79075005;77;76;27;17990.000000;1.000000;1.000000;1.000000;1.000000;0.114040;-0.114040;0.114040;1.000000
445608.99790199;5696572.29399879;472.71915009;86;74;27;18504.000000;1.000000;1.000000;1.000000;1.000000;0.075598;-0.075598;0.075598;1.000000
445609.10050114;5696572.47489937;472.79115011;176;153;106;39578.000000;1.000000;1.000000;1.000000;1.000000;-0.057626;0.057626;-0.057626;1.000000
445609.26860149;5696572.50799950;472.81314995;142;140;75;34181.000000;1.000000;1.000000;1.000000;1.000000;0.110475;-0.110475;0.110475;1.000000
445609.00950153;5696572.66649921;472.87554981;134;128;69;31611.000000;1.000000;1.000000;1.000000;1.000000;-0.148625;0.148625;-0.148625;1.000000
445609.18300159;5696572.55289944;472.83544971;224;212;170;53970.000000;1.000000;1.000000;1.000000;1.000000;0.024875;-0.024875;0.024875;1.000000
445609.19520195;5696572.43489941;472.83925011;205;195;159;49858.000000;1.000000;1.000000;1.000000;1.000000;0.037075;-0.037075;0.037075;1.000000
445609.10860165;5696572.63589867;472.89594986;133;127;91;31868.000000;1.000000;1.000000;1.000000;1.000000;-0.049525;0.049525;-0.049525;1.000000
445608.99760159;5696572.52409943;472.78945019;135;120;62;30326.000000;1.000000;1.000000;1.000000;1.000000;-0.160525;0.160525;-0.160525;1.000000
445609.07000168;5696572.49109943;472.82725002;235;220;177;56283.000000;1.000000;1.000000;1.000000;1.000000;-0.088125;0.088125;-0.088125;1.000000
445609.27160175;5696572.45429905;472.79164984;112;113;39;26728.000000;1.000000;1.000000;1.000000;1.000000;0.113475;-0.113475;0.113475;1.000000
445609.26330193;5696572.36179932;472.78324987;157;149;118;37779.000000;1.000000;1.000000;1.000000;1.000000;0.031799;-0.031799;0.031799;1.000000
445609.24630173;5696572.48919876;472.80254986;154;151;92;37265.000000;1.000000;1.000000;1.000000;1.000000;0.088175;-0.088175;0.088175;1.000000
445609.20690163;5696572.49059875;472.79845001;140;140;86;34438.000000;1.000000;1.000000;1.000000;1.000000;0.048775;-0.048775;0.048775;1.000000
445609.26930149;5696572.63959892;472.75885012;70;78;37;18247.000000;1.000000;1.000000;1.000000;1.000000;0.111175;-0.111175;0.111175;1.000000
445609.15700157;5696572.67389877;472.72625019;29;36;8;7710.000000;1.000000;1.000000;1.000000;1.000000;-0.001125;0.001125;-0.001125;1.000000
445609.09370144;5696572.47469910;472.83974983;213;196;151;50372.000000;1.000000;1.000000;1.000000;1.000000;-0.064425;0.064425;-0.064425;1.000000
445609.06230171;5696572.37699898;472.70674994;148;137;89;34695.000000;1.000000;1.000000;1.000000;1.000000;-0.047045;0.047045;-0.047045;1.000000
445609.09990128;5696572.26109894;472.72335007;106;95;36;23387.000000;1.000000;1.000000;1.000000;1.000000;0.068901;-0.068901;0.068901;1.000000
445609.00610168;5696572.32079895;472.75014975;42;39;7;9252.000000;1.000000;1.000000;1.000000;1.000000;0.058997;-0.058997;0.058997;1.000000
445609.06520184;5696572.53069885;472.86245014;148;132;85;33667.000000;1.000000;1.000000;1.000000;1.000000;-0.092925;0.092925;-0.092925;1.000000
445609.19350155;5696572.68469913;472.71635010;18;20;8;4626.000000;1.000000;1.000000;1.000000;1.000000;0.035375;-0.035375;0.035375;1.000000
445609.13590153;5696572.29969891;472.73014977;122;117;60;28784.000000;1.000000;1.000000;1.000000;1.000000;-0.030301;0.030301;-0.030301;1.000000
445609.12320145;5696572.67339905;472.80384972;43;44;9;10023.000000;1.000000;1.000000;1.000000;1.000000;-0.034925;0.034925;-0.034925;1.000000
445609.05110176;5696572.35469921;472.70134975;127;117;64;29298.000000;1.000000;1.000000;1.000000;1.000000;-0.028041;0.028041;-0.028041;1.000000
445609.02010162;5696572.36719902;472.68844988;135;125;66;31097.000000;1.000000;1.000000;1.000000;1.000000;-0.057828;0.057828;-0.057828;1.000000
445609.23200138;5696572.52729900;472.83734991;176;165;123;41891.000000;1.000000;1.000000;1.000000;1.000000;0.073874;-0.073874;0.073874;1.000000
445609.15200146;5696572.38189896;472.75274994;114;113;56;27499.000000;1.000000;1.000000;1.000000;1.000000;-0.006125;0.006125;-0.006125;1.000000
445609.06240185;5696572.24329956;472.74014999;181;172;128;43433.000000;1.000000;1.000000;1.000000;1.000000;0.086723;-0.086723;0.086723;1.000000
445608.98310192;5696572.44289883;472.84135010;203;185;133;47288.000000;1.000000;1.000000;1.000000;1.000000;-0.139111;0.139111;-0.139111;1.000000
445609.26370152;5696572.37089928;472.79264977;184;177;146;44975.000000;1.000000;1.000000;1.000000;1.000000;0.040899;-0.040899;0.040899;1.000000
445609.13320168;5696572.61529930;472.87815001;136;131;85;32639.000000;1.000000;1.000000;1.000000;1.000000;-0.024925;0.024925;-0.024925;1.000000
445609.09130199;5696572.60859879;472.80634977;138;123;79;31354.000000;1.000000;1.000000;1.000000;1.000000;-0.066825;0.066825;-0.066825;1.000000
445609.02220161;5696572.44229897;472.80125000;183;160;111;41377.000000;1.000000;1.000000;1.000000;1.000000;-0.119958;0.119958;-0.119958;1.000000
445609.11790188;5696572.67229946;472.76174976;40;50;18;11051.000000;1.000000;1.000000;1.000000;1.000000;-0.040225;0.040225;-0.040225;1.000000
445609.18900116;5696572.57179935;472.79164984;185;181;129;45232.000000;1.000000;1.000000;1.000000;1.000000;0.030874;-0.030874;0.030874;1.000000
445609.22310169;5696572.67719944;472.71994974;57;61;40;14649.000000;1.000000;1.000000;1.000000;1.000000;0.064975;-0.064975;0.064975;1.000000
445609.06560143;5696572.67969902;472.74545004;40;44;21;10280.000000;1.000000;1.000000;1.000000;1.000000;-0.092525;0.092525;-0.092525;1.000000
445609.06420143;5696572.25729950;472.72874977;155;151;97;37522.000000;1.000000;1.000000;1.000000;1.000000;0.072701;-0.072701;0.072701;1.000000
445609.09440144;5696572.48169907;472.83754971;215;199;153;50886.000000;1.000000;1.000000;1.000000;1.000000;-0.063725;0.063725;-0.063725;1.000000
445609.03420170;5696572.32359894;472.70254995;61;52;11;12850.000000;1.000000;1.000000;1.000000;1.000000;0.030847;-0.030847;0.030847;1.000000
445608.98100193;5696572.28179939;472.70664980;92;86;26;20817.000000;1.000000;1.000000;1.000000;1.000000;0.096305;-0.096305;0.096305;1.000000
445609.02410133;5696572.48419960;472.79484989;182;162;107;41377.000000;1.000000;1.000000;1.000000;1.000000;-0.134026;0.134026;-0.134026;1.000000
445609.12760170;5696572.47889908;472.82035019;119;105;48;26214.000000;1.000000;1.000000;1.000000;1.000000;-0.030525;0.030525;-0.030525;1.000000
445609.14050110;5696572.32939919;472.74235012;98;95;32;22616.000000;1.000000;1.000000;1.000000;1.000000;-0.000601;0.000601;-0.000601;1.000000
445609.14920147;5696572.29369934;472.73535015;119;111;57;27499.000000;1.000000;1.000000;1.000000;1.000000;-0.036301;0.036301;-0.036301;1.000000
445609.17680176;5696572.40729912;472.77285006;198;190;149;48059.000000;1.000000;1.000000;1.000000;1.000000;0.018675;-0.018675;0.018675;1.000000
445609.21090134;5696572.52389915;472.88294985;129;115;56;28784.000000;1.000000;1.000000;1.000000;1.000000;0.052774;-0.052774;0.052774;1.000000
445609.23750122;5696572.52799900;472.76534988;145;154;67;36237.000000;1.000000;1.000000;1.000000;1.000000;0.079374;-0.079374;0.079374;1.000000
445609.16840179;5696572.60169895;472.79344990;126;123;74;30326.000000;1.000000;1.000000;1.000000;1.000000;0.010275;-0.010275;0.010275;1.000000
445609.13460167;5696572.60579880;472.87815001;170;165;121;41377.000000;1.000000;1.000000;1.000000;1.000000;-0.023525;0.023525;-0.023525;1.000000
445609.10950191;5696572.59469898;472.84194996;185;169;124;43176.000000;1.000000;1.000000;1.000000;1.000000;-0.048625;0.048625;-0.048625;1.000000
445609.09960182;5696572.59619911;472.80424978;163;144;104;37265.000000;1.000000;1.000000;1.000000;1.000000;-0.058525;0.058525;-0.058525;1.000000
445609.10510166;5696572.61999901;472.88864996;143;129;84;32896.000000;1.000000;1.000000;1.000000;1.000000;-0.053025;0.053025;-0.053025;1.000000
445609.24030121;5696572.60719879;472.76415016;54;63;30;14392.000000;1.000000;1.000000;1.000000;1.000000;0.082174;-0.082174;0.082174;1.000000
445609.08070190;5696572.48219879;472.88584997;182;164;124;42405.000000;1.000000;1.000000;1.000000;1.000000;-0.077425;0.077425;-0.077425;1.000000
445609.16220196;5696572.59349926;472.75575020;97;111;53;25700.000000;1.000000;1.000000;1.000000;1.000000;0.004075;-0.004075;0.004075;1.000000
445608.97180183;5696572.42519959;472.84765007;170;157;101;39578.000000;1.000000;1.000000;1.000000;1.000000;-0.132790;0.132790;-0.132790;1.000000
445609.26400192;5696572.51659878;472.88294985;155;153;101;37779.000000;1.000000;1.000000;1.000000;1.000000;0.105875;-0.105875;0.105875;1.000000
445609.14310177;5696572.51719959;472.81685020;195;175;126;44975.000000;1.000000;1.000000;1.000000;1.000000;-0.015025;0.015025;-0.015025;1.000000
445609.05080135;5696572.67549904;472.80524971;54;66;7;14135.000000;1.000000;1.000000;1.000000;1.000000;-0.107326;0.107326;-0.107326;1.000000
445609.12700184;5696572.30059917;472.72275021;124;119;60;29298.000000;1.000000;1.000000;1.000000;1.000000;0.029401;-0.029401;0.029401;1.000000
445609.07420166;5696572.47389896;472.85514977;205;185;142;47802.000000;1.000000;1.000000;1.000000;1.000000;-0.083925;0.083925;-0.083925;1.000000
445609.10870178;5696572.50989922;472.89214994;205;189;145;48316.000000;1.000000;1.000000;1.000000;1.000000;-0.049425;0.049425;-0.049425;1.000000
445609.08730133;5696572.37219913;472.71484997;104;98;30;23644.000000;1.000000;1.000000;1.000000;1.000000;0.042199;-0.042199;0.042199;1.000000
445609.21950157;5696572.55379875;472.85804989;147;142;90;35209.000000;1.000000;1.000000;1.000000;1.000000;0.061375;-0.061375;0.061375;1.000000
445609.10710152;5696572.68999870;472.88485004;130;134;83;32639.000000;1.000000;1.000000;1.000000;1.000000;-0.051025;0.051025;-0.051025;1.000000
445609.11130150;5696572.69249924;472.84784986;37;52;10;10794.000000;1.000000;1.000000;1.000000;1.000000;-0.046825;0.046825;-0.046825;1.000000
445609.10950191;5696572.68919952;472.77544977;25;34;9;7196.000000;1.000000;1.000000;1.000000;1.000000;-0.048625;0.048625;-0.048625;1.000000
445609.02390202;5696572.36799915;472.76314976;80;60;13;15420.000000;1.000000;1.000000;1.000000;1.000000;-0.055517;0.055517;-0.055517;1.000000
445609.08690174;5696572.68699940;472.75344994;36;40;11;8995.000000;1.000000;1.000000;1.000000;1.000000;-0.071225;0.071225;-0.071225;1.000000
445609.09750183;5696572.53689869;472.72655012;167;159;99;39578.000000;1.000000;1.000000;1.000000;1.000000;-0.060625;0.060625;-0.060625;1.000000
445609.09010132;5696572.50499924;472.71884968;151;141;78;35209.000000;1.000000;1.000000;1.000000;1.000000;-0.068026;0.068026;-0.068026;1.000000
445609.13090141;5696572.61549957;472.87804987;136;132;85;32896.000000;1.000000;1.000000;1.000000;1.000000;-0.027225;0.027225;-0.027225;1.000000
445609.10040195;5696572.61819942;472.88604977;114;102;53;25700.000000;1.000000;1.000000;1.000000;1.000000;-0.057725;0.057725;-0.057725;1.000000
445609.09370144;5696572.61069878;472.80874969;131;116;71;29555.000000;1.000000;1.000000;1.000000;1.000000;-0.064425;0.064425;-0.064425;1.000000
445609.01760109;5696572.68669899;472.73404982;70;77;27;17733.000000;1.000000;1.000000;1.000000;1.000000;-0.140526;0.140526;-0.140526;1.000000
445609.11630161;5696572.62189873;472.85185005;138;124;71;31354.000000;1.000000;1.000000;1.000000;1.000000;-0.041825;0.041825;-0.041825;1.000000
445609.15310200;5696572.59049900;472.85085012;164;148;111;38036.000000;1.000000;1.000000;1.000000;1.000000;-0.005025;0.005025;-0.005025;1.000000
445609.18390186;5696572.59239872;472.84525015;155;146;112;37008.000000;1.000000;1.000000;1.000000;1.000000;0.025775;-0.025775;0.025775;1.000000
445609.15580185;5696572.51789959;472.84775021;176;160;116;40863.000000;1.000000;1.000000;1.000000;1.000000;-0.002325;0.002325;-0.002325;1.000000
445609.08090122;5696572.59869869;472.75684978;160;149;102;37779.000000;1.000000;1.000000;1.000000;1.000000;-0.077226;0.077226;-0.077226;1.000000
445609.05110176;5696572.56219872;472.87615015;158;149;79;37008.000000;1.000000;1.000000;1.000000;1.000000;-0.107025;0.107025;-0.107025;1.000000
445609.23320110;5696572.56689938;472.84014990;132;132;72;32125.000000;1.000000;1.000000;1.000000;1.000000;0.075074;-0.075074;0.075074;1.000000
445609.00300129;5696572.31709869;472.70564987;79;66;26;16705.000000;1.000000;1.000000;1.000000;1.000000;0.062717;-0.062717;0.062717;1.000000
445609.16020115;5696572.62399872;472.76074984;37;41;1;8995.000000;1.000000;1.000000;1.000000;1.000000;0.002074;-0.002074;0.002074;1.000000
445609.16220196;5696572.59349926;472.75575020;97;111;53;25700.000000;1.000000;1.000000;1.000000;1.000000;0.004075;-0.004075;0.004075;1.000000
445609.01300152;5696572.67269905;472.75694992;36;37;6;8481.000000;1.000000;1.000000;1.000000;1.000000;-0.145125;0.145125;-0.145125;1.000000
445609.05560120;5696572.66829880;472.78674986;68;70;34;16705.000000;1.000000;1.000000;1.000000;1.000000;-0.102526;0.102526;-0.102526;1.000000
445609.05920132;5696572.58599957;472.79764988;159;146;97;37008.000000;1.000000;1.000000;1.000000;1.000000;-0.098926;0.098926;-0.098926;1.000000
445608.98620136;5696572.33059891;472.69115021;58;46;11;11565.000000;1.000000;1.000000;1.000000;1.000000;-0.078178;0.078178;-0.078178;1.000000
445609.01810177;5696572.37259872;472.80025007;59;34;0;9509.000000;1.000000;1.000000;1.000000;1.000000;-0.062897;0.062897;-0.062897;1.000000
445609.05500134;5696572.44389923;472.80275013;173;158;109;40349.000000;1.000000;1.000000;1.000000;1.000000;-0.103126;0.103126;-0.103126;1.000000
445609.12100132;5696572.64349945;472.78945019;136;130;94;32639.000000;1.000000;1.000000;1.000000;1.000000;-0.037126;0.037126;-0.037126;1.000000
445609.02290161;5696572.41369923;472.83115007;170;154;91;38807.000000;1.000000;1.000000;1.000000;1.000000;-0.093412;0.093412;-0.093412;1.000000
445608.97940166;5696572.44499882;472.87615015;176;156;102;40092.000000;1.000000;1.000000;1.000000;1.000000;-0.142988;0.142988;-0.142988;1.000000
445609.26120193;5696572.64979942;472.75164988;44;50;21;11565.000000;1.000000;1.000000;1.000000;1.000000;0.103075;-0.103075;0.103075;1.000000
445609.00150116;5696572.60729893;472.82555010;122;111;57;27756.000000;1.000000;1.000000;1.000000;1.000000;-0.156626;0.156626;-0.156626;1.000000
445609.18580158;5696572.39509876;472.75444986;172;167;129;42148.000000;1.000000;1.000000;1.000000;1.000000;0.027675;-0.027675;0.027675;1.000000
445609.19200142;5696572.35959919;472.75204994;190;186;151;47031.000000;1.000000;1.000000;1.000000;1.000000;0.029715;-0.029715;0.029715;1.000000
445609.26480110;5696572.34329899;472.76205017;81;72;47;18247.000000;1.000000;1.000000;1.000000;1.000000;0.013299;-0.013299;0.013299;1.000000
445609.02850159;5696572.59399899;472.76835014;155;146;89;36494.000000;1.000000;1.000000;1.000000;1.000000;-0.129625;0.129625;-0.129625;1.000000
445608.99070175;5696572.47179897;472.88864996;205;177;136;46260.000000;1.000000;1.000000;1.000000;1.000000;-0.159797;0.159797;-0.159797;1.000000
445609.18410118;5696572.46939953;472.79255011;188;176;122;44461.000000;1.000000;1.000000;1.000000;1.000000;0.025974;-0.025974;0.025974;1.000000
445609.05680187;5696572.61949928;472.76294996;131;122;72;30583.000000;1.000000;1.000000;1.000000;1.000000;-0.101325;0.101325;-0.101325;1.000000
445609.21750172;5696572.44689949;472.83575012;157;140;90;35723.000000;1.000000;1.000000;1.000000;1.000000;0.059375;-0.059375;0.059375;1.000000
445609.19820126;5696572.37759884;472.75484993;164;156;122;39578.000000;1.000000;1.000000;1.000000;1.000000;0.040074;-0.040074;0.040074;1.000000
445609.19060143;5696572.52369888;472.86574986;143;125;67;31868.000000;1.000000;1.000000;1.000000;1.000000;0.032475;-0.032475;0.032475;1.000000
445609.15040119;5696572.39369877;472.75985004;150;147;92;36237.000000;1.000000;1.000000;1.000000;1.000000;-0.007726;0.007726;-0.007726;1.000000
445609.01210125;5696572.33429916;472.74825003;43;37;5;8995.000000;1.000000;1.000000;1.000000;1.000000;-0.052452;0.052452;-0.052452;1.000000
445609.02870186;5696572.69289883;472.86735012;141;135;80;33410.000000;1.000000;1.000000;1.000000;1.000000;-0.129425;0.129425;-0.129425;1.000000
445609.05930145;5696572.69719894;472.71274998;47;53;15;12079.000000;1.000000;1.000000;1.000000;1.000000;-0.098882;0.098882;-0.098882;1.000000
445608.99630173;5696572.64449890;472.86305000;133;134;86;32896.000000;1.000000;1.000000;1.000000;1.000000;-0.161825;0.161825;-0.161825;1.000000
445609.11530121;5696572.14989956;472.72044994;124;115;69;28784.000000;1.000000;1.000000;1.000000;1.000000;-0.180100;0.180100;-0.180100;1.000000
445609.19530113;5696572.62759884;472.76695015;148;149;107;37008.000000;1.000000;1.000000;1.000000;1.000000;0.037174;-0.037174;0.037174;1.000000
445609.09940155;5696572.29879959;472.70755007;154;149;91;37008.000000;1.000000;1.000000;1.000000;1.000000;0.031200;-0.031200;0.031200;1.000000
445609.09830196;5696572.33629902;472.70554974;126;121;59;29555.000000;1.000000;1.000000;1.000000;1.000000;-0.006299;0.006299;-0.006299;1.000000
445609.04750164;5696572.62039955;472.76485016;115;107;56;26471.000000;1.000000;1.000000;1.000000;1.000000;-0.110625;0.110625;-0.110625;1.000000
445609.10800179;5696572.47129925;472.82644989;184;166;118;42662.000000;1.000000;1.000000;1.000000;1.000000;-0.050125;0.050125;-0.050125;1.000000
445609.08880146;5696572.16639908;472.72174980;70;59;12;14649.000000;1.000000;1.000000;1.000000;1.000000;-0.163601;0.163601;-0.163601;1.000000
445609.17670162;5696572.53399952;472.88614990;196;182;143;46517.000000;1.000000;1.000000;1.000000;1.000000;0.018575;-0.018575;0.018575;1.000000
445609.10130127;5696572.48409946;472.79365017;213;191;146;49344.000000;1.000000;1.000000;1.000000;1.000000;-0.056826;0.056826;-0.056826;1.000000
445609.22880180;5696572.39069946;472.77964975;143;140;97;34952.000000;1.000000;1.000000;1.000000;1.000000;0.061247;-0.061247;0.061247;1.000000
445609.16970165;5696572.62829884;472.87295010;179;187;147;46260.000000;1.000000;1.000000;1.000000;1.000000;0.011575;-0.011575;0.011575;1.000000
445609.00460155;5696572.58469875;472.76014997;72;59;8;14649.000000;1.000000;1.000000;1.000000;1.000000;-0.153525;0.153525;-0.153525;1.000000
445609.25690182;5696572.32559879;472.74524977;113;100;73;25700.000000;1.000000;1.000000;1.000000;1.000000;-0.007495;0.007495;-0.007495;1.000000
445609.17760189;5696572.44229897;472.77565004;195;190;143;47802.000000;1.000000;1.000000;1.000000;1.000000;0.019475;-0.019475;0.019475;1.000000
445609.06540115;5696572.48029907;472.80364992;220;205;162;52428.000000;1.000000;1.000000;1.000000;1.000000;-0.092726;0.092726;-0.092726;1.000000
445609.05590160;5696572.65319927;472.85414984;107;98;54;24415.000000;1.000000;1.000000;1.000000;1.000000;-0.102225;0.102225;-0.102225;1.000000
445609.09820183;5696572.55069931;472.73845007;169;161;102;40092.000000;1.000000;1.000000;1.000000;1.000000;-0.059925;0.059925;-0.059925;1.000000
445609.05890186;5696572.64329918;472.87284996;170;158;121;40349.000000;1.000000;1.000000;1.000000;1.000000;-0.099225;0.099225;-0.099225;1.000000
445609.06570156;5696572.64789875;472.83355000;100;94;52;23387.000000;1.000000;1.000000;1.000000;1.000000;-0.092425;0.092425;-0.092425;1.000000
445609.21630199;5696572.62119873;472.75624992;52;58;29;13621.000000;1.000000;1.000000;1.000000;1.000000;0.058175;-0.058175;0.058175;1.000000
445609.00150116;5696572.60729893;472.82555010;122;111;58;27756.000000;1.000000;1.000000;1.000000;1.000000;-0.156626;0.156626;-0.156626;1.000000
445609.25100143;5696572.67919930;472.72814991;47;54;25;12336.000000;1.000000;1.000000;1.000000;1.000000;0.092875;-0.092875;0.092875;1.000000
445608.98890121;5696572.66789921;472.76284983;62;67;21;15420.000000;1.000000;1.000000;1.000000;1.000000;-0.169226;0.169226;-0.169226;1.000000
445609.11740120;5696572.32029922;472.71554996;102;89;36;22359.000000;1.000000;1.000000;1.000000;1.000000;-0.009701;0.009701;-0.009701;1.000000
445609.10290154;5696572.48739918;472.87064983;202;182;136;46774.000000;1.000000;1.000000;1.000000;1.000000;-0.055225;0.055225;-0.055225;1.000000
445609.21870144;5696572.49719913;472.75484993;130;136;45;31868.000000;1.000000;1.000000;1.000000;1.000000;0.060575;-0.060575;0.060575;1.000000
445609.28120144;5696572.61519917;472.75444986;31;38;13;8481.000000;1.000000;1.000000;1.000000;1.000000;0.123075;-0.123075;0.123075;1.000000
445609.00570114;5696572.61519917;472.74664976;115;105;49;25957.000000;1.000000;1.000000;1.000000;1.000000;-0.152426;0.152426;-0.152426;1.000000
445609.18050201;5696572.60219868;472.83824970;183;171;136;43690.000000;1.000000;1.000000;1.000000;1.000000;0.022375;-0.022375;0.022375;1.000000
445609.18130119;5696572.56229885;472.84014990;207;197;157;50115.000000;1.000000;1.000000;1.000000;1.000000;0.023174;-0.023174;0.023174;1.000000
445609.18990143;5696572.62019928;472.82254984;104;102;45;24672.000000;1.000000;1.000000;1.000000;1.000000;0.031775;-0.031775;0.031775;1.000000
445609.27070148;5696572.47069939;472.79414989;101;102;52;24672.000000;1.000000;1.000000;1.000000;1.000000;0.112575;-0.112575;0.112575;1.000000
445609.23060139;5696572.46519955;472.78994991;218;208;169;52942.000000;1.000000;1.000000;1.000000;1.000000;0.072474;-0.072474;0.072474;1.000000
445609.18750198;5696572.50649937;472.79314997;108;111;52;26471.000000;1.000000;1.000000;1.000000;1.000000;0.029375;-0.029375;0.029375;1.000000
445609.12070187;5696572.28029926;472.71525003;110;100;34;24415.000000;1.000000;1.000000;1.000000;1.000000;-0.049701;0.049701;-0.049701;1.000000
445609.12180145;5696572.24279888;472.71714975;158;151;104;37779.000000;1.000000;1.000000;1.000000;1.000000;-0.087201;0.087201;-0.087201;1.000000
445609.01260193;5696572.35239895;472.77644970;84;72;37;18247.000000;1.000000;1.000000;1.000000;1.000000;-0.056412;0.056412;-0.056412;1.000000
445609.10810192;5696572.69329937;472.81745007;38;46;8;10023.000000;1.000000;1.000000;1.000000;1.000000;-0.050025;0.050025;-0.050025;1.000000
445609.27110203;5696572.59469898;472.78165009;30;38;8;8224.000000;1.000000;1.000000;1.000000;1.000000;0.112975;-0.112975;0.112975;1.000000
445609.05930145;5696572.69939907;472.71744968;49;55;17;12593.000000;1.000000;1.000000;1.000000;1.000000;-0.098976;0.098976;-0.098976;1.000000
445609.06210144;5696572.69849880;472.75715019;34;41;14;8995.000000;1.000000;1.000000;1.000000;1.000000;-0.096099;0.096099;-0.096099;1.000000
445609.06300171;5696572.66469868;472.82434990;185;186;146;46517.000000;1.000000;1.000000;1.000000;1.000000;-0.095125;0.095125;-0.095125;1.000000
445609.08140190;5696572.56189926;472.71915009;182;168;117;42662.000000;1.000000;1.000000;1.000000;1.000000;-0.076725;0.076725;-0.076725;1.000000
445609.00980194;5696572.59259899;472.81874992;128;113;61;28527.000000;1.000000;1.000000;1.000000;1.000000;-0.148325;0.148325;-0.148325;1.000000
445609.07010181;5696572.53429897;472.75785019;165;146;92;37265.000000;1.000000;1.000000;1.000000;1.000000;-0.088025;0.088025;-0.088025;1.000000
445608.99420174;5696572.32629879;472.76594975;88;90;51;21845.000000;1.000000;1.000000;1.000000;1.000000;0.070273;-0.070273;0.070273;1.000000
445609.02390202;5696572.36799915;472.76314976;80;59;12;15420.000000;1.000000;1.000000;1.000000;1.000000;-0.055517;0.055517;-0.055517;1.000000
445609.06570156;5696572.64789875;472.83355000;103;97;55;24158.000000;1.000000;1.000000;1.000000;1.000000;-0.092425;0.092425;-0.092425;1.000000
445609.03030117;5696572.47129925;472.83914997;206;186;142;48059.000000;1.000000;1.000000;1.000000;1.000000;-0.127826;0.127826;-0.127826;1.000000
445609.06540115;5696572.48029907;472.80364992;220;204;161;52428.000000;1.000000;1.000000;1.000000;1.000000;-0.092726;0.092726;-0.092726;1.000000
445609.20770176;5696572.14349945;472.73385002;101;100;56;24415.000000;1.000000;1.000000;1.000000;1.000000;-0.186501;0.186501;-0.186501;1.000000
445609.16920193;5696572.18209942;472.73255016;193;188;149;47545.000000;1.000000;1.000000;1.000000;1.000000;-0.147901;0.147901;-0.147901;1.000000
445609.14220150;5696572.43849953;472.77635004;205;196;152;49601.000000;1.000000;1.000000;1.000000;1.000000;-0.015925;0.015925;-0.015925;1.000000
445609.26730164;5696572.43369873;472.79124977;114;115;57;27756.000000;1.000000;1.000000;1.000000;1.000000;0.103699;-0.103699;0.103699;1.000000
445609.23440178;5696572.47349937;472.82744982;99;91;34;22359.000000;1.000000;1.000000;1.000000;1.000000;0.076275;-0.076275;0.076275;1.000000
445609.23370178;5696572.19259937;472.72394993;138;138;101;34181.000000;1.000000;1.000000;1.000000;1.000000;-0.138021;0.138021;-0.138021;1.000000
445609.19610126;5696572.19139870;472.72695019;140;139;97;34438.000000;1.000000;1.000000;1.000000;1.000000;-0.138613;0.138613;-0.138613;1.000000
445609.22160156;5696572.49089916;472.83645012;172;168;110;41634.000000;1.000000;1.000000;1.000000;1.000000;0.063475;-0.063475;0.063475;1.000000
445609.15340145;5696572.61619957;472.84644987;137;124;79;31354.000000;1.000000;1.000000;1.000000;1.000000;-0.004725;0.004725;-0.004725;1.000000
445609.22950180;5696572.34179886;472.76515009;185;176;145;44975.000000;1.000000;1.000000;1.000000;1.000000;0.014764;-0.014764;0.014764;1.000000
445609.23120125;5696572.26759918;472.72704985;50;45;16;11051.000000;1.000000;1.000000;1.000000;1.000000;-0.063290;0.063290;-0.063290;1.000000
445609.27000149;5696572.44489868;472.80774977;161;159;104;39321.000000;1.000000;1.000000;1.000000;1.000000;0.111875;-0.111875;0.111875;1.000000
445609.23210152;5696572.44129951;472.81064989;181;177;126;44204.000000;1.000000;1.000000;1.000000;1.000000;0.073975;-0.073975;0.073975;1.000000
445609.19390114;5696572.48229893;472.80944969;202;195;140;49087.000000;1.000000;1.000000;1.000000;1.000000;0.035774;-0.035774;0.035774;1.000000
445609.04560192;5696572.58129890;472.88315012;198;175;143;45746.000000;1.000000;1.000000;1.000000;1.000000;-0.112525;0.112525;-0.112525;1.000000
445609.20020111;5696572.59929951;472.75525000;107;110;73;26985.000000;1.000000;1.000000;1.000000;1.000000;0.042074;-0.042074;0.042074;1.000000
445609.15160187;5696572.61509903;472.77885010;120;123;75;29812.000000;1.000000;1.000000;1.000000;1.000000;-0.006525;0.006525;-0.006525;1.000000
445609.12470158;5696572.15139874;472.72324993;118;111;61;27499.000000;1.000000;1.000000;1.000000;1.000000;-0.178601;0.178601;-0.178601;1.000000
445609.05910118;5696572.67059906;472.76604988;54;55;28;13107.000000;1.000000;1.000000;1.000000;1.000000;-0.099026;0.099026;-0.099026;1.000000
445609.10740192;5696572.51959904;472.72914984;151;142;75;35209.000000;1.000000;1.000000;1.000000;1.000000;-0.050725;0.050725;-0.050725;1.000000
445609.07380112;5696572.48309906;472.72485020;169;155;96;39064.000000;1.000000;1.000000;1.000000;1.000000;-0.084326;0.084326;-0.084326;1.000000
445609.10660179;5696572.48689945;472.73105003;194;186;125;46517.000000;1.000000;1.000000;1.000000;1.000000;-0.051525;0.051525;-0.051525;1.000000
445609.09210117;5696572.47429951;472.87465002;219;200;156;51400.000000;1.000000;1.000000;1.000000;1.000000;-0.066026;0.066026;-0.066026;1.000000
445609.03690155;5696572.41159924;472.88075020;169;144;100;37522.000000;1.000000;1.000000;1.000000;1.000000;-0.086101;0.086101;-0.086101;1.000000
445608.99230202;5696572.63019951;472.76485016;79;76;21;17990.000000;1.000000;1.000000;1.000000;1.000000;-0.165825;0.165825;-0.165825;1.000000
445609.16260155;5696572.53159912;472.82954981;201;184;148;47545.000000;1.000000;1.000000;1.000000;1.000000;0.004475;-0.004475;0.004475;1.000000
445609.18120201;5696572.52679928;472.87465002;191;176;131;44975.000000;1.000000;1.000000;1.000000;1.000000;0.023075;-0.023075;0.023075;1.000000
