//X;Y;Z;R;G;B;Intensity;Return Number;Number Of Returns;Scan Direction Flag;Point Source ID;C2M signed distances[-][<0.8];C2M signed distances[<0.4];C2M signed distances[-][<0.2];Stump102
445629.23270233;5696588.15519913;471.88674976;121;117;104;29812.000000;1.000000;1.000000;1.000000;1.000000;-0.174801;0.174801;-0.174801;1.000000
445629.18430145;5696588.17109879;471.90334990;153;149;133;38036.000000;1.000000;1.000000;1.000000;1.000000;-0.158901;0.158901;-0.158901;1.000000
445629.07260139;5696588.13900002;471.93055012;146;141;128;36237.000000;1.000000;1.000000;1.000000;1.000000;-0.191004;0.191004;-0.191004;1.000000
445629.05450066;5696588.17549904;471.94175007;170;165;151;42148.000000;1.000000;1.000000;1.000000;1.000000;-0.154501;0.154501;-0.154501;1.000000
445629.09050186;5696588.17719849;471.92245008;184;178;162;45746.000000;1.000000;1.000000;1.000000;1.000000;-0.152802;0.152802;-0.152802;1.000000
445629.08470161;5696588.14029892;471.92404987;126;123;109;31354.000000;1.000000;1.000000;1.000000;1.000000;-0.189701;0.189701;-0.189701;1.000000
445629.06550224;5696588.16529854;471.93514969;145;140;125;35723.000000;1.000000;1.000000;1.000000;1.000000;-0.164705;0.164705;-0.164705;1.000000
445629.15540131;5696588.18999870;471.91155006;127;123;106;31354.000000;1.000000;1.000000;1.000000;1.000000;-0.140001;0.140001;-0.140001;1.000000
445629.07370193;5696588.17619904;471.93104984;160;154;141;39578.000000;1.000000;1.000000;1.000000;1.000000;-0.153801;0.153801;-0.153801;1.000000
445629.21310242;5696588.17329987;471.89304974;133;128;112;32639.000000;1.000000;1.000000;1.000000;1.000000;-0.156700;0.156700;-0.156700;1.000000
445629.19390114;5696588.14459999;471.89645006;156;152;138;38807.000000;1.000000;1.000000;1.000000;1.000000;-0.185455;0.185455;-0.185455;1.000000
445629.28930099;5696588.13819893;471.89134981;114;111;99;28270.000000;1.000000;1.000000;1.000000;1.000000;-0.191801;0.191801;-0.191801;1.000000
445629.17480095;5696588.17189987;471.90994980;177;173;159;44204.000000;1.000000;1.000000;1.000000;1.000000;-0.158100;0.158100;-0.158100;1.000000
445629.27990158;5696588.13669975;471.89094975;128;125;114;31868.000000;1.000000;1.000000;1.000000;1.000000;-0.193300;0.193300;-0.193300;1.000000
445629.07990082;5696588.16639908;471.92884972;146;142;129;36237.000000;1.000000;1.000000;1.000000;1.000000;-0.163601;0.163601;-0.163601;1.000000
445629.10130127;5696588.14119919;471.92024996;125;122;109;31097.000000;1.000000;1.000000;1.000000;1.000000;-0.188840;0.188840;-0.188840;1.000000
445629.28270157;5696588.29749878;471.90234997;116;111;91;28270.000000;1.000000;1.000000;1.000000;1.000000;-0.032501;0.032501;-0.032501;1.000000
445629.09670074;5696588.25109871;471.93995001;153;148;134;37779.000000;1.000000;1.000000;1.000000;1.000000;-0.078909;0.078909;-0.078909;1.000000
445628.88720139;5696588.39180000;471.95074989;80;77;68;19532.000000;1.000000;1.000000;1.000000;1.000000;-0.158472;0.158472;-0.158472;1.000000
445629.27490242;5696588.23069962;471.88485004;156;146;128;37779.000000;1.000000;1.000000;1.000000;1.000000;-0.099300;0.099300;-0.099300;1.000000
445629.24090202;5696588.19179924;471.88514997;97;90;75;23130.000000;1.000000;1.000000;1.000000;1.000000;-0.138201;0.138201;-0.138201;1.000000
445629.00920113;5696588.34089859;471.93934967;80;77;67;19532.000000;1.000000;1.000000;1.000000;1.000000;-0.026291;0.026291;-0.026291;1.000000
445629.19640167;5696588.34979828;471.90364983;155;153;137;38807.000000;1.000000;1.000000;1.000000;1.000000;0.019955;-0.019955;0.019955;1.000000
445629.14660080;5696588.19779976;471.91365005;122;117;99;29812.000000;1.000000;1.000000;1.000000;1.000000;-0.132200;0.132200;-0.132200;1.000000
445629.31180199;5696588.22499855;471.88415005;164;152;131;39321.000000;1.000000;1.000000;1.000000;1.000000;-0.105001;0.105001;-0.105001;1.000000
445629.10130127;5696588.63429840;471.90514996;128;121;113;31354.000000;1.000000;1.000000;1.000000;1.000000;0.036924;-0.036924;0.036924;1.000000
445629.00680168;5696588.43479927;471.92875006;64;62;56;15677.000000;1.000000;1.000000;1.000000;1.000000;-0.057575;0.057575;-0.057575;1.000000
445629.00790222;5696588.39729889;471.93064978;120;116;105;29555.000000;1.000000;1.000000;1.000000;1.000000;-0.056475;0.056475;-0.056475;1.000000
445629.27260216;5696588.31479843;471.90205004;119;114;95;29041.000000;1.000000;1.000000;1.000000;1.000000;-0.015202;0.015202;-0.015202;1.000000
445629.08680161;5696588.27069862;471.93975021;101;96;83;24672.000000;1.000000;1.000000;1.000000;1.000000;-0.059301;0.059301;-0.059301;1.000000
445628.97350128;5696588.55239876;471.92635014;100;96;86;24672.000000;1.000000;1.000000;1.000000;1.000000;-0.090876;0.090876;-0.090876;1.000000
445629.14060219;5696588.77559860;471.89694979;180;176;166;45232.000000;1.000000;1.000000;1.000000;1.000000;0.054401;-0.054401;0.054401;1.000000
445629.21570213;5696588.77799995;471.89564993;222;220;214;56283.000000;1.000000;1.000000;1.000000;1.000000;0.052204;-0.052204;0.052204;1.000000
445629.29090126;5696588.70570000;471.89125015;125;121;110;30840.000000;1.000000;1.000000;1.000000;1.000000;0.124300;-0.124300;0.124300;1.000000
445628.88570221;5696588.61649902;471.93244984;150;148;143;38036.000000;1.000000;1.000000;1.000000;1.000000;-0.178675;0.178675;-0.178675;1.000000
445628.88910110;5696588.57869919;471.93444969;184;181;176;46517.000000;1.000000;1.000000;1.000000;1.000000;-0.175276;0.175276;-0.175276;1.000000
445629.07690247;5696588.50999840;471.93044998;115;111;100;28270.000000;1.000000;1.000000;1.000000;1.000000;0.012526;-0.012526;0.012526;1.000000
445629.11470230;5696588.51349838;471.92754986;140;136;124;34695.000000;1.000000;1.000000;1.000000;1.000000;0.050325;-0.050325;0.050325;1.000000
445629.08410080;5696588.36219986;471.93134977;145;141;130;35980.000000;1.000000;1.000000;1.000000;1.000000;0.019724;-0.019724;0.019724;1.000000
445628.97500237;5696588.51719864;471.92364981;74;70;62;17990.000000;1.000000;1.000000;1.000000;1.000000;-0.089375;0.089375;-0.089375;1.000000
445628.97120102;5696588.33729942;471.94694998;111;108;97;27499.000000;1.000000;1.000000;1.000000;1.000000;-0.062355;0.062355;-0.062355;1.000000
445629.28000076;5696588.76279839;471.88905003;85;82;70;20817.000000;1.000000;1.000000;1.000000;1.000000;0.067274;-0.067274;0.067274;1.000000
445629.31090172;5696588.24139984;471.88665010;172;160;138;41377.000000;1.000000;1.000000;1.000000;1.000000;-0.088600;0.088600;-0.088600;1.000000
445629.05940063;5696588.27789886;471.94084980;97;93;81;23644.000000;1.000000;1.000000;1.000000;1.000000;-0.052101;0.052101;-0.052101;1.000000
445628.95100220;5696588.63620003;471.92394974;90;87;81;22359.000000;1.000000;1.000000;1.000000;1.000000;-0.113375;0.113375;-0.113375;1.000000
445629.14140137;5696588.73799904;471.90584995;132;127;119;32639.000000;1.000000;1.000000;1.000000;1.000000;0.092001;-0.092001;0.092001;1.000000
445629.17910202;5696588.73929985;471.90054991;180;176;166;45232.000000;1.000000;1.000000;1.000000;1.000000;0.091124;-0.091124;0.091124;1.000000
445629.10490234;5696588.53089912;471.92264988;99;96;87;24415.000000;1.000000;1.000000;1.000000;1.000000;0.040525;-0.040525;0.040525;1.000000
445629.14500244;5696588.70029839;471.90325024;127;122;113;31354.000000;1.000000;1.000000;1.000000;1.000000;0.083741;-0.083741;0.083741;1.000000
445629.23870094;5696588.21999939;471.88775017;122;114;97;29298.000000;1.000000;1.000000;1.000000;1.000000;-0.110001;0.110001;-0.110001;1.000000
445629.14620216;5696588.66289909;471.90284969;150;146;137;37522.000000;1.000000;1.000000;1.000000;1.000000;0.081825;-0.081825;0.081825;1.000000
445629.17420204;5696588.63690002;471.90144970;113;109;102;28013.000000;1.000000;1.000000;1.000000;1.000000;0.109825;-0.109825;0.109825;1.000000
445629.07210167;5696588.62290009;471.90595009;111;104;96;26985.000000;1.000000;1.000000;1.000000;1.000000;0.007725;-0.007725;0.007725;1.000000
445629.14120110;5696588.56049927;471.90374996;122;120;109;30583.000000;1.000000;1.000000;1.000000;1.000000;0.076824;-0.076824;0.076824;1.000000
445629.06900223;5696588.48019989;471.93905022;133;129;120;33153.000000;1.000000;1.000000;1.000000;1.000000;0.004625;-0.004625;0.004625;1.000000
445628.92270096;5696588.44009979;471.93895008;140;138;129;35209.000000;1.000000;1.000000;1.000000;1.000000;-0.141676;0.141676;-0.141676;1.000000
445629.18760117;5696588.55399902;471.89874985;142;138;126;35209.000000;1.000000;1.000000;1.000000;1.000000;0.123224;-0.123224;0.123224;1.000000
445629.15440186;5696588.47749908;471.90564968;127;120;106;30840.000000;1.000000;1.000000;1.000000;1.000000;0.090025;-0.090025;0.090025;1.000000
445629.26740082;5696588.40869911;471.90294983;141;139;117;35209.000000;1.000000;1.000000;1.000000;1.000000;0.078778;-0.078778;0.078778;1.000000
445629.13000114;5696588.37439926;471.92194988;120;119;105;30069.000000;1.000000;1.000000;1.000000;1.000000;0.044509;-0.044509;0.044509;1.000000
445628.97340210;5696588.35829933;471.94024994;168;165;152;42148.000000;1.000000;1.000000;1.000000;1.000000;-0.066090;0.066090;-0.066090;1.000000
445629.23100098;5696588.36999901;471.90315010;148;147;132;37265.000000;1.000000;1.000000;1.000000;1.000000;0.039999;-0.039999;0.039999;1.000000
445629.19710167;5696588.33109863;471.90114977;173;168;149;42919.000000;1.000000;1.000000;1.000000;1.000000;0.002108;-0.002108;0.002108;1.000000
445629.27200134;5696588.33349998;471.90224983;155;150;134;38293.000000;1.000000;1.000000;1.000000;1.000000;0.003500;-0.003500;0.003500;1.000000
445629.04870232;5696588.28819855;471.94054987;147;145;134;37008.000000;1.000000;1.000000;1.000000;1.000000;-0.041801;0.041801;-0.041801;1.000000
445629.27320107;5696588.29599960;471.90185024;100;94;74;23901.000000;1.000000;1.000000;1.000000;1.000000;-0.034000;0.034000;-0.034000;1.000000
445629.30850227;5696588.29739960;471.90114977;78;73;52;18504.000000;1.000000;1.000000;1.000000;1.000000;-0.032600;0.032600;-0.032600;1.000000
445629.16400154;5696588.25469978;471.90574982;131;123;102;31611.000000;1.000000;1.000000;1.000000;1.000000;-0.075388;0.075388;-0.075388;1.000000
445629.08950241;5696588.25159843;471.94424965;152;148;133;37779.000000;1.000000;1.000000;1.000000;1.000000;-0.078402;0.078402;-0.078402;1.000000
445629.13240250;5696588.29939850;471.92114975;123;119;95;30069.000000;1.000000;1.000000;1.000000;1.000000;-0.030858;0.030858;-0.030858;1.000000
445629.03690155;5696588.37839897;471.92245008;147;141;130;36237.000000;1.000000;1.000000;1.000000;1.000000;-0.027475;0.027475;-0.027475;1.000000
445629.16830070;5696588.74959953;471.90255024;163;159;150;40863.000000;1.000000;1.000000;1.000000;1.000000;0.080400;-0.080400;0.080400;1.000000
445629.13370140;5696588.26199921;471.91844990;176;168;150;43176.000000;1.000000;1.000000;1.000000;1.000000;-0.068053;0.068053;-0.068053;1.000000
445629.13420113;5696588.71059998;471.90514996;106;101;92;25957.000000;1.000000;1.000000;1.000000;1.000000;0.077183;-0.077183;0.077183;1.000000
445629.17160233;5696588.70959862;471.90214970;153;148;139;38036.000000;1.000000;1.000000;1.000000;1.000000;0.111884;-0.111884;0.111884;1.000000
445629.20940216;5696588.71309860;471.90164997;115;111;102;28527.000000;1.000000;1.000000;1.000000;1.000000;0.116901;-0.116901;0.116901;1.000000
445629.14860161;5696588.34699829;471.92014982;105;102;80;25700.000000;1.000000;1.000000;1.000000;1.000000;0.016998;-0.016998;0.016998;1.000000
445629.13550194;5696588.67319878;471.90245010;202;198;188;50886.000000;1.000000;1.000000;1.000000;1.000000;0.071125;-0.071125;0.071125;1.000000
445629.06460197;5696588.59329994;471.90765001;158;153;145;39321.000000;1.000000;1.000000;1.000000;1.000000;0.000225;-0.000225;0.000225;1.000000
445629.17660149;5696588.56199844;471.90065004;152;149;138;38036.000000;1.000000;1.000000;1.000000;1.000000;0.112225;-0.112225;0.112225;1.000000
445629.18000229;5696588.52419861;471.90264990;95;87;72;22359.000000;1.000000;1.000000;1.000000;1.000000;0.115625;-0.115625;0.115625;1.000000
445629.14980133;5696588.30949982;471.91974976;155;151;127;38293.000000;1.000000;1.000000;1.000000;1.000000;-0.020500;0.020500;-0.020500;1.000000
445628.96140106;5696588.40379913;471.93794968;114;112;103;28527.000000;1.000000;1.000000;1.000000;1.000000;-0.102912;0.102912;-0.102912;1.000000
445629.25880249;5696588.41649826;471.90035011;142;139;116;35209.000000;1.000000;1.000000;1.000000;1.000000;0.086775;-0.086775;0.086775;1.000000
445628.96250160;5696588.36629875;471.93984987;151;147;135;37522.000000;1.000000;1.000000;1.000000;1.000000;-0.079407;0.079407;-0.079407;1.000000
445629.18470200;5696588.37659843;471.90584995;135;134;121;33924.000000;1.000000;1.000000;1.000000;1.000000;0.046598;-0.046598;0.046598;1.000000
445629.22230156;5696588.37780006;471.90514996;111;110;93;27756.000000;1.000000;1.000000;1.000000;1.000000;0.047829;-0.047829;0.047829;1.000000
445628.93050201;5696588.66389854;471.91874983;85;79;74;20560.000000;1.000000;1.000000;1.000000;1.000000;-0.133875;0.133875;-0.133875;1.000000
445629.00130089;5696588.33229836;471.94124987;91;88;78;22359.000000;1.000000;1.000000;1.000000;1.000000;-0.031909;0.031909;-0.031909;1.000000
445629.18820198;5696588.33889969;471.90555002;162;159;139;40349.000000;1.000000;1.000000;1.000000;1.000000;0.008900;-0.008900;0.008900;1.000000
445628.96610077;5696588.26509865;471.96215012;123;121;106;30583.000000;1.000000;1.000000;1.000000;1.000000;0.093299;-0.093299;0.093299;1.000000
445629.26490219;5696588.30619820;471.89925005;109;102;84;26214.000000;1.000000;1.000000;1.000000;1.000000;-0.024553;0.024553;-0.024553;1.000000
445629.29980095;5696588.30519875;471.90315010;115;111;91;28270.000000;1.000000;1.000000;1.000000;1.000000;-0.024801;0.024801;-0.024801;1.000000
445629.04420097;5696588.43589981;471.93044998;116;114;105;29041.000000;1.000000;1.000000;1.000000;1.000000;-0.020176;0.020176;-0.020176;1.000000
445629.08290108;5696588.39959915;471.93174984;157;155;144;39578.000000;1.000000;1.000000;1.000000;1.000000;0.018524;-0.018524;0.018524;1.000000
445629.00900085;5696588.35979851;471.93265011;128;123;111;31611.000000;1.000000;1.000000;1.000000;1.000000;-0.038341;0.038341;-0.038341;1.000000
445629.04760178;5696588.32339867;471.93394997;44;41;35;10537.000000;1.000000;1.000000;1.000000;1.000000;-0.006601;0.006601;-0.006601;1.000000
445629.08510216;5696588.32459839;471.93324997;141;139;127;35466.000000;1.000000;1.000000;1.000000;1.000000;-0.005402;0.005402;-0.005402;1.000000
445629.08620079;5696588.28709991;471.93524982;113;110;97;28013.000000;1.000000;1.000000;1.000000;1.000000;-0.042900;0.042900;-0.042900;1.000000
445628.94720085;5696588.52429970;471.93174984;152;148;138;38036.000000;1.000000;1.000000;1.000000;1.000000;-0.117176;0.117176;-0.117176;1.000000
445628.91080101;5696588.48559959;471.93435003;134;129;120;33153.000000;1.000000;1.000000;1.000000;1.000000;-0.153576;0.153576;-0.153576;1.000000
445628.94850166;5696588.48689850;471.92904999;125;120;112;30840.000000;1.000000;1.000000;1.000000;1.000000;-0.115875;0.115875;-0.115875;1.000000
445629.09890182;5696588.41919907;471.92805006;157;155;143;39578.000000;1.000000;1.000000;1.000000;1.000000;0.034525;-0.034525;0.034525;1.000000
445629.00780113;5696588.59129913;471.91904976;148;145;138;37265.000000;1.000000;1.000000;1.000000;1.000000;-0.056576;0.056576;-0.056576;1.000000
445629.00490196;5696588.22889908;471.95884993;134;131;117;33410.000000;1.000000;1.000000;1.000000;1.000000;0.104967;-0.104967;0.104967;1.000000
445629.11830147;5696588.19800003;471.91935017;153;147;131;37779.000000;1.000000;1.000000;1.000000;1.000000;-0.132000;0.132000;-0.132000;1.000000
445629.03480156;5696588.40659912;471.92264988;158;154;144;39578.000000;1.000000;1.000000;1.000000;1.000000;-0.029575;0.029575;-0.029575;1.000000
445628.88890083;5696588.36339958;471.95984985;140;136;125;34695.000000;1.000000;1.000000;1.000000;1.000000;-0.148043;0.148043;-0.148043;1.000000
445628.92870148;5696588.28969963;471.96075012;120;117;103;29812.000000;1.000000;1.000000;1.000000;1.000000;0.111932;-0.111932;0.111932;1.000000
445628.96660240;5696588.29319962;471.95785000;137;135;124;34438.000000;1.000000;1.000000;1.000000;1.000000;0.076025;-0.076025;0.076025;1.000000
445629.00300224;5696588.25709923;471.95674994;115;113;101;28784.000000;1.000000;1.000000;1.000000;1.000000;0.078880;-0.078880;0.078880;1.000000
445629.32700165;5696588.31689842;471.89284994;100;95;73;24158.000000;1.000000;1.000000;1.000000;1.000000;-0.013102;0.013102;-0.013102;1.000000
445629.21790131;5696588.27559860;471.89444973;152;142;120;36494.000000;1.000000;1.000000;1.000000;1.000000;-0.054401;0.054401;-0.054401;1.000000
445629.18370064;5696588.23669823;471.89715006;126;117;99;30069.000000;1.000000;1.000000;1.000000;1.000000;-0.093302;0.093302;-0.093302;1.000000
445629.12650116;5696588.40979965;471.91755011;119;116;103;29555.000000;1.000000;1.000000;1.000000;1.000000;0.062124;-0.062124;0.062124;1.000000
445628.89820107;5696588.54989822;471.93214991;141;136;127;34952.000000;1.000000;1.000000;1.000000;1.000000;-0.166176;0.166176;-0.166176;1.000000
445629.21680077;5696588.74049957;471.89764978;112;108;98;27756.000000;1.000000;1.000000;1.000000;1.000000;0.089582;-0.089582;0.089582;1.000000
445628.92300232;5696588.61529930;471.93174984;200;199;193;50886.000000;1.000000;1.000000;1.000000;1.000000;-0.141375;0.141375;-0.141375;1.000000
445629.04010208;5696588.29599960;471.94024994;120;118;109;30069.000000;1.000000;1.000000;1.000000;1.000000;0.034000;-0.034000;0.034000;1.000000
445629.27650078;5696588.22129829;471.88245012;134;124;106;32125.000000;1.000000;1.000000;1.000000;1.000000;-0.108702;0.108702;-0.108702;1.000000
445628.96440132;5696588.50649841;471.92764999;76;72;64;18504.000000;1.000000;1.000000;1.000000;1.000000;-0.099976;0.099976;-0.099976;1.000000
445629.18880089;5696588.51649864;471.89834978;126;118;102;30326.000000;1.000000;1.000000;1.000000;1.000000;0.124424;-0.124424;0.124424;1.000000
445628.93020065;5696588.46749886;471.93265011;153;149;141;38293.000000;1.000000;1.000000;1.000000;1.000000;-0.134176;0.134176;-0.134176;1.000000
445629.04290207;5696588.47109993;471.92845013;59;56;49;14392.000000;1.000000;1.000000;1.000000;1.000000;-0.021475;0.021475;-0.021475;1.000000
445629.34780128;5696588.26129921;471.88614990;71;59;31;15163.000000;1.000000;1.000000;1.000000;1.000000;-0.068735;0.068735;-0.068735;1.000000
445629.30270203;5696588.48259933;471.89374973;160;158;146;40349.000000;1.000000;1.000000;1.000000;1.000000;0.152599;0.152599;-0.152599;1.000000
445629.30410202;5696588.44749840;471.89344980;148;145;130;37008.000000;1.000000;1.000000;1.000000;1.000000;0.117498;0.117498;-0.117498;1.000000
445629.33940132;5696588.44889839;471.89265015;150;146;131;37265.000000;1.000000;1.000000;1.000000;1.000000;0.118898;-0.118898;0.118898;1.000000
445628.97020157;5696588.39599998;471.93365004;88;85;74;21588.000000;1.000000;1.000000;1.000000;1.000000;-0.091190;0.091190;-0.091190;1.000000
445629.12060173;5696588.32609947;471.92794992;106;104;84;26214.000000;1.000000;1.000000;1.000000;1.000000;-0.003901;0.003901;-0.003901;1.000000
445629.34520157;5696588.33619888;471.89164974;104;100;75;25186.000000;1.000000;1.000000;1.000000;1.000000;0.006199;-0.006199;0.006199;1.000000
445629.27480133;5696588.25869949;471.89214994;155;148;127;37779.000000;1.000000;1.000000;1.000000;1.000000;-0.071301;0.071301;-0.071301;1.000000
445629.02850159;5696588.77889832;471.90124990;130;122;112;31611.000000;1.000000;1.000000;1.000000;1.000000;0.062437;-0.062437;0.062437;1.000000
445629.10470207;5696588.74609955;471.90654995;72;66;59;17219.000000;1.000000;1.000000;1.000000;1.000000;0.079363;-0.079363;0.079363;1.000000
445629.14470108;5696588.67229851;471.90284969;175;171;162;43947.000000;1.000000;1.000000;1.000000;1.000000;0.080324;-0.080324;0.080324;1.000000
445629.18240173;5696588.67359932;471.89995005;184;180;173;46260.000000;1.000000;1.000000;1.000000;1.000000;0.118025;-0.118025;0.118025;1.000000
445628.94390114;5696588.80299957;471.90934994;148;140;131;36237.000000;1.000000;1.000000;1.000000;1.000000;0.123464;-0.123464;0.123464;1.000000
445629.07070168;5696588.63239868;471.90605022;141;132;123;34181.000000;1.000000;1.000000;1.000000;1.000000;0.006325;-0.006325;0.006325;1.000000
445628.89100082;5696588.47569855;471.93794968;144;140;132;35980.000000;1.000000;1.000000;1.000000;1.000000;-0.173376;0.173376;-0.173376;1.000000
445628.93300064;5696588.40169914;471.94135000;143;140;130;35723.000000;1.000000;1.000000;1.000000;1.000000;-0.123150;0.123150;-0.123150;1.000000
445629.24740227;5696588.23789986;471.88835003;169;159;141;41120.000000;1.000000;1.000000;1.000000;1.000000;-0.092100;0.092100;-0.092100;1.000000
445629.25100143;5696588.77939995;471.89265015;203;201;194;51400.000000;1.000000;1.000000;1.000000;1.000000;0.050608;-0.050608;0.050608;1.000000
445629.25220116;5696588.74189957;471.89225008;118;113;103;29041.000000;1.000000;1.000000;1.000000;1.000000;0.088100;-0.088100;0.088100;1.000000
445629.08160217;5696588.43709953;471.93444969;144;142;132;36237.000000;1.000000;1.000000;1.000000;1.000000;0.017225;-0.017225;0.017225;1.000000
445629.23600204;5696588.29489906;471.89554979;156;147;125;37779.000000;1.000000;1.000000;1.000000;1.000000;-0.035101;0.035101;-0.035101;1.000000
445629.20080193;5696588.21879967;471.89535000;139;131;114;33667.000000;1.000000;1.000000;1.000000;1.000000;-0.111200;0.111200;-0.111200;1.000000
445629.37450226;5696588.71909912;471.88114979;192;188;178;48316.000000;1.000000;1.000000;1.000000;1.000000;0.110926;-0.110926;0.110926;1.000000
445629.00970085;5696588.32219894;471.94154980;67;64;55;16191.000000;1.000000;1.000000;1.000000;1.000000;0.024691;-0.024691;0.024691;1.000000
445628.94380196;5696588.56209953;471.92974998;105;100;90;25700.000000;1.000000;1.000000;1.000000;1.000000;-0.120575;0.120575;-0.120575;1.000000
445628.90980156;5696588.52319916;471.93004992;150;145;136;37265.000000;1.000000;1.000000;1.000000;1.000000;-0.154575;0.154575;-0.154575;1.000000
445628.98820122;5696588.41309937;471.93234970;126;124;115;31611.000000;1.000000;1.000000;1.000000;1.000000;-0.076176;0.076176;-0.076176;1.000000
445629.28580101;5696588.42809875;471.89704992;93;91;73;22873.000000;1.000000;1.000000;1.000000;1.000000;0.098099;-0.098099;0.098099;1.000000
445629.32340248;5696588.42929848;471.89405014;154;150;136;38293.000000;1.000000;1.000000;1.000000;1.000000;0.099300;-0.099300;0.099300;1.000000
445629.36100204;5696588.43049820;471.89344980;108;105;88;26728.000000;1.000000;1.000000;1.000000;1.000000;0.100498;-0.100498;0.100498;1.000000
445629.10000237;5696588.38169868;471.92994978;98;95;83;24158.000000;1.000000;1.000000;1.000000;1.000000;0.035625;-0.035625;0.035625;1.000000
445629.32450111;5696588.39180000;471.89605000;96;93;76;23644.000000;1.000000;1.000000;1.000000;1.000000;0.061800;-0.061800;0.061800;1.000000
445628.99090202;5696588.77769859;471.90185024;154;147;138;38036.000000;1.000000;1.000000;1.000000;1.000000;0.090189;-0.090189;0.090189;1.000000
445629.06600197;5696588.78009995;471.90054991;176;167;159;43176.000000;1.000000;1.000000;1.000000;1.000000;0.049900;-0.049900;0.049900;1.000000
445629.10360153;5696588.78129967;471.89995005;99;91;82;23644.000000;1.000000;1.000000;1.000000;1.000000;0.048700;-0.048700;0.048700;1.000000
445629.17650230;5696588.78619965;471.90094997;77;73;66;18761.000000;1.000000;1.000000;1.000000;1.000000;0.044233;-0.044233;0.044233;1.000000
445628.95670135;5696588.73879822;471.90684988;173;167;161;43176.000000;1.000000;1.000000;1.000000;1.000000;-0.123778;0.123778;-0.123778;1.000000
445628.99190147;5696588.74019821;471.90605022;153;147;140;38036.000000;1.000000;1.000000;1.000000;1.000000;-0.095679;0.095679;-0.095679;1.000000
445629.02980240;5696588.74369820;471.90315010;156;150;140;38550.000000;1.000000;1.000000;1.000000;1.000000;-0.074527;0.074527;-0.074527;1.000000
445629.06720169;5696588.74489983;471.90485003;81;75;68;19532.000000;1.000000;1.000000;1.000000;1.000000;0.067249;-0.067249;0.067249;1.000000
445629.29920204;5696588.52029999;471.89405014;111;110;98;27756.000000;1.000000;1.000000;1.000000;1.000000;0.190300;0.190300;-0.190300;1.000000
445629.11360176;5696588.47629936;471.92705013;148;144;133;36751.000000;1.000000;1.000000;1.000000;1.000000;0.049225;-0.049225;0.049225;1.000000
445628.96890076;5696588.43119820;471.93164970;74;71;63;18247.000000;1.000000;1.000000;1.000000;1.000000;-0.095476;0.095476;-0.095476;1.000000
445629.22890099;5696588.44499977;471.89694979;95;92;70;23130.000000;1.000000;1.000000;1.000000;1.000000;0.115007;-0.115007;0.115007;1.000000
445629.26630219;5696588.44389923;471.89634993;101;99;78;24929.000000;1.000000;1.000000;1.000000;1.000000;0.113993;-0.113993;0.113993;1.000000
445628.85960205;5696588.35439880;471.96775009;168;164;153;41891.000000;1.000000;1.000000;1.000000;1.000000;-0.175232;0.175232;-0.175232;1.000000
445629.11940201;5696588.36359985;471.92834999;101;99;84;24929.000000;1.000000;1.000000;1.000000;1.000000;0.033600;-0.033600;0.033600;1.000000
445629.34400185;5696588.37369926;471.89435007;108;105;87;26471.000000;1.000000;1.000000;1.000000;1.000000;0.043699;-0.043699;0.043699;1.000000
445629.19850166;5696588.29369934;471.89615013;146;137;113;35209.000000;1.000000;1.000000;1.000000;1.000000;-0.036303;0.036303;-0.036303;1.000000
445629.31920250;5696588.75459869;471.88374998;123;118;110;30326.000000;1.000000;1.000000;1.000000;1.000000;0.075401;-0.075401;0.075401;1.000000
445628.94920166;5696588.66449936;471.91954996;97;93;88;23901.000000;1.000000;1.000000;1.000000;1.000000;-0.115175;0.115175;-0.115175;1.000000
445629.32020195;5696588.71699913;471.88805010;128;125;115;31868.000000;1.000000;1.000000;1.000000;1.000000;0.113001;-0.113001;0.113001;1.000000
445629.35800179;5696588.71829994;471.88275005;193;191;181;48830.000000;1.000000;1.000000;1.000000;1.000000;0.111700;-0.111700;0.111700;1.000000
445628.99390228;5696588.51789864;471.91984989;121;116;110;29812.000000;1.000000;1.000000;1.000000;1.000000;-0.070475;0.070475;-0.070475;1.000000
445629.06650169;5696588.52039917;471.92315008;88;84;75;21588.000000;1.000000;1.000000;1.000000;1.000000;0.002125;-0.002125;0.002125;1.000000
445629.18630226;5696588.58909996;471.89674999;163;161;151;41120.000000;1.000000;1.000000;1.000000;1.000000;0.121925;-0.121925;0.121925;1.000000
445628.89150246;5696588.50379951;471.93365004;115;111;102;28527.000000;1.000000;1.000000;1.000000;1.000000;-0.172874;0.172874;-0.172874;1.000000
445629.02160080;5696588.48959930;471.92075016;102;99;93;25443.000000;1.000000;1.000000;1.000000;1.000000;-0.042776;0.042776;-0.042776;1.000000
445628.99970062;5696588.79559906;471.90014984;129;122;113;31611.000000;1.000000;1.000000;1.000000;1.000000;0.073256;-0.073256;0.073256;1.000000
445628.96300133;5696588.75689896;471.90735008;183;176;167;45489.000000;1.000000;1.000000;1.000000;1.000000;0.124983;-0.124983;0.124983;1.000000
445629.00080116;5696588.75809868;471.90205004;166;159;150;41120.000000;1.000000;1.000000;1.000000;1.000000;0.095977;-0.095977;0.095977;1.000000
445629.11350067;5696588.76400002;471.90255024;62;55;48;14392.000000;1.000000;1.000000;1.000000;1.000000;0.066243;-0.066243;0.066243;1.000000
445628.99570091;5696588.22979935;471.95844986;140;137;122;34952.000000;1.000000;1.000000;1.000000;1.000000;0.106962;-0.106962;0.106962;1.000000
445629.07600220;5696588.76279839;471.90315010;87;79;72;20560.000000;1.000000;1.000000;1.000000;1.000000;0.067202;-0.067202;0.067202;1.000000
445629.15110214;5696588.76519974;471.90194990;203;199;192;51143.000000;1.000000;1.000000;1.000000;1.000000;0.064800;-0.064800;0.064800;1.000000
445629.18630226;5696588.76659973;471.90124990;215;213;205;54484.000000;1.000000;1.000000;1.000000;1.000000;0.063475;-0.063475;0.063475;1.000000
445629.04420097;5696588.64889915;471.90504982;162;156;144;40092.000000;1.000000;1.000000;1.000000;1.000000;-0.020176;0.020176;-0.020176;1.000000
445629.15480240;5696588.65499886;471.90315010;133;128;119;32896.000000;1.000000;1.000000;1.000000;1.000000;0.090425;-0.090425;0.090425;1.000000
445629.16720207;5696588.36639984;471.91184999;77;76;60;19018.000000;1.000000;1.000000;1.000000;1.000000;0.036402;-0.036402;0.036402;1.000000
445629.34280212;5696588.41119965;471.89475014;148;145;131;37008.000000;1.000000;1.000000;1.000000;1.000000;0.081200;-0.081200;0.081200;1.000000
445629.13530167;5696588.25249870;471.91604998;189;181;162;46517.000000;1.000000;1.000000;1.000000;1.000000;-0.077509;0.077509;-0.077509;1.000000
445629.08080109;5696588.61509903;471.90625002;86;79;71;20560.000000;1.000000;1.000000;1.000000;1.000000;0.016424;-0.016424;0.016424;1.000000
445629.15600212;5696588.61759956;471.90275003;124;120;113;30840.000000;1.000000;1.000000;1.000000;1.000000;0.091625;-0.091625;0.091625;1.000000
445629.08430107;5696588.57739838;471.90595009;137;133;124;34181.000000;1.000000;1.000000;1.000000;1.000000;0.019924;-0.019924;0.019924;1.000000
445629.11970146;5696588.57889946;471.90065004;206;204;196;52171.000000;1.000000;1.000000;1.000000;1.000000;0.055325;-0.055325;0.055325;1.000000
445629.02080162;5696588.31419952;471.93954994;50;48;40;12079.000000;1.000000;1.000000;1.000000;1.000000;0.020039;-0.020039;0.020039;1.000000
445629.23620232;5696588.72239883;471.89594986;142;139;129;35466.000000;1.000000;1.000000;1.000000;1.000000;0.107601;-0.107601;0.107601;1.000000
445628.87190063;5696588.51959999;471.93295004;168;165;157;42405.000000;1.000000;1.000000;1.000000;1.000000;-0.192476;0.192476;-0.192476;1.000000
445629.09090240;5696588.21199997;471.93454983;170;164;148;42148.000000;1.000000;1.000000;1.000000;1.000000;-0.118000;0.118000;-0.118000;1.000000
445629.04340179;5696588.39879997;471.92294981;167;162;152;41634.000000;1.000000;1.000000;1.000000;1.000000;-0.020975;0.020975;-0.020975;1.000000
445628.86490067;5696588.47339828;471.94144966;142;138;130;35466.000000;1.000000;1.000000;1.000000;1.000000;-0.199476;0.199476;-0.199476;1.000000
445628.94380196;5696588.36799820;471.94374992;140;135;122;34695.000000;1.000000;1.000000;1.000000;1.000000;-0.097071;0.097071;-0.097071;1.000000
445628.98800095;5696588.62829979;471.91624977;116;114;107;29041.000000;1.000000;1.000000;1.000000;1.000000;-0.076376;0.076376;-0.076376;1.000000
445628.89750107;5696588.35559853;471.96014978;154;150;137;38293.000000;1.000000;1.000000;1.000000;1.000000;-0.138020;0.138020;-0.138020;1.000000
445628.89040192;5696588.54129990;471.93174984;144;140;130;35980.000000;1.000000;1.000000;1.000000;1.000000;-0.173975;0.173975;-0.173975;1.000000
445628.92780121;5696588.54249962;471.93345024;141;136;126;34952.000000;1.000000;1.000000;1.000000;1.000000;-0.136576;0.136576;-0.136576;1.000000
445628.92450150;5696588.58019836;471.92904999;120;118;109;30069.000000;1.000000;1.000000;1.000000;1.000000;-0.139875;0.139875;-0.139875;1.000000
445628.92910202;5696588.50499924;471.93074991;112;108;100;27756.000000;1.000000;1.000000;1.000000;1.000000;-0.135275;0.135275;-0.135275;1.000000
445629.23740204;5696588.25749977;471.89045002;142;132;114;34181.000000;1.000000;1.000000;1.000000;1.000000;-0.072500;0.072500;-0.072500;1.000000
445629.19980247;5696588.25630005;471.89344980;134;124;102;31868.000000;1.000000;1.000000;1.000000;1.000000;-0.073700;0.073700;-0.073700;1.000000
445629.14720161;5696588.40329941;471.91144993;145;143;131;36494.000000;1.000000;1.000000;1.000000;1.000000;0.073299;-0.073299;0.073299;1.000000
445628.92590149;5696588.35549934;471.95204975;110;107;95;27242.000000;1.000000;1.000000;1.000000;1.000000;-0.110216;0.110216;-0.110216;1.000000
445629.30520065;5696588.40999992;471.89535000;130;128;111;32382.000000;1.000000;1.000000;1.000000;1.000000;0.080000;-0.080000;0.080000;1.000000
445629.02120216;5696588.75149925;471.90284969;154;148;139;38036.000000;1.000000;1.000000;1.000000;1.000000;-0.085525;0.085525;-0.085525;1.000000
445629.20800217;5696588.72259911;471.89934971;101;96;86;24672.000000;1.000000;1.000000;1.000000;1.000000;0.107401;-0.107401;0.107401;1.000000
445629.17160233;5696588.68389900;471.89954998;182;177;169;45489.000000;1.000000;1.000000;1.000000;1.000000;0.107411;-0.107411;0.107411;1.000000
445629.09980209;5696588.64379890;471.90514996;156;149;140;38550.000000;1.000000;1.000000;1.000000;1.000000;0.035425;-0.035425;0.035425;1.000000
445629.09700211;5696588.69069870;471.91025021;185;180;171;46260.000000;1.000000;1.000000;1.000000;1.000000;0.035080;-0.035080;0.035080;1.000000
445628.88240250;5696588.48349960;471.93765022;127;123;116;31611.000000;1.000000;1.000000;1.000000;1.000000;-0.181974;0.181974;-0.181974;1.000000
445629.17980202;5696588.49629982;471.90004971;149;141;127;36237.000000;1.000000;1.000000;1.000000;1.000000;0.115425;-0.115425;0.115425;1.000000
445628.92230232;5696588.41199883;471.94094994;141;139;128;35466.000000;1.000000;1.000000;1.000000;1.000000;-0.137862;0.137862;-0.137862;1.000000
445629.14390190;5696588.46669968;471.90964987;152;146;133;37522.000000;1.000000;1.000000;1.000000;1.000000;0.079525;-0.079525;0.079525;1.000000
445629.14520081;5696588.43149956;471.91165020;145;141;129;35980.000000;1.000000;1.000000;1.000000;1.000000;0.080824;-0.080824;0.080824;1.000000
445628.92400177;5696588.38369949;471.94764997;131;128;117;32639.000000;1.000000;1.000000;1.000000;1.000000;-0.121622;0.121622;-0.121622;1.000000
445629.31230171;5696588.25980003;471.89384987;118;108;81;27756.000000;1.000000;1.000000;1.000000;1.000000;-0.070200;0.070200;-0.070200;1.000000
445629.00160225;5696588.31349953;471.94805004;100;98;89;24929.000000;1.000000;1.000000;1.000000;1.000000;0.035582;-0.035582;0.035582;1.000000
445628.93620117;5696588.31939896;471.95914986;115;112;100;28527.000000;1.000000;1.000000;1.000000;1.000000;0.097504;-0.097504;0.097504;1.000000
445628.93740089;5696588.28189857;471.95874979;157;155;141;39578.000000;1.000000;1.000000;1.000000;1.000000;0.107132;-0.107132;0.107132;1.000000
445629.27040108;5696588.76129921;471.89094975;105;101;90;25700.000000;1.000000;1.000000;1.000000;1.000000;0.068701;-0.068701;0.068701;1.000000
445629.09990128;5696588.45649918;471.93085005;137;133;120;33924.000000;1.000000;1.000000;1.000000;1.000000;0.035524;-0.035524;0.035524;1.000000
445628.97860153;5696588.24769981;471.96014978;134;132;117;33410.000000;1.000000;1.000000;1.000000;1.000000;0.098724;-0.098724;0.098724;1.000000
445629.06370171;5696588.41779907;471.92875006;129;127;118;32382.000000;1.000000;1.000000;1.000000;1.000000;-0.000675;0.000675;-0.000675;1.000000
445629.17520149;5696588.19989975;471.90564968;144;138;121;35209.000000;1.000000;1.000000;1.000000;1.000000;-0.130100;0.130100;-0.130100;1.000000
445629.32570084;5696588.35429962;471.89564993;111;108;87;27242.000000;1.000000;1.000000;1.000000;1.000000;0.024300;-0.024300;0.024300;1.000000
445629.22040184;5696588.20069893;471.89134981;144;136;121;34952.000000;1.000000;1.000000;1.000000;1.000000;-0.129301;0.129301;-0.129301;1.000000
445629.36550148;5696588.74799927;471.88114979;126;121;111;31097.000000;1.000000;1.000000;1.000000;1.000000;0.082001;-0.082001;0.082001;1.000000
445629.02760132;5696588.76959999;471.90105011;160;152;144;39321.000000;1.000000;1.000000;1.000000;1.000000;0.070715;-0.070715;0.070715;1.000000
445629.18030174;5696588.70179947;471.90014984;129;124;117;31868.000000;1.000000;1.000000;1.000000;1.000000;0.118422;-0.118422;0.118422;1.000000
445629.18150146;5696588.66429909;471.89974977;184;180;172;46260.000000;1.000000;1.000000;1.000000;1.000000;0.117125;-0.117125;0.117125;1.000000
445628.89240082;5696588.46619995;471.93794968;145;142;134;36494.000000;1.000000;1.000000;1.000000;1.000000;-0.171976;0.171976;-0.171976;1.000000
445628.93110092;5696588.42989929;471.93925001;151;148;139;37779.000000;1.000000;1.000000;1.000000;1.000000;-0.133276;0.133276;-0.133276;1.000000
445628.93450172;5696588.39219864;471.94124987;141;138;126;35209.000000;1.000000;1.000000;1.000000;1.000000;-0.116600;0.116600;-0.116600;1.000000
445629.30610092;5696588.37239845;471.90194990;106;103;85;25957.000000;1.000000;1.000000;1.000000;1.000000;0.042398;-0.042398;0.042398;1.000000
445629.23460205;5696588.33229836;471.90054991;119;114;96;29041.000000;1.000000;1.000000;1.000000;1.000000;0.002298;-0.002298;0.002298;1.000000
445629.30740173;5696588.33489998;471.89925005;140;136;118;34695.000000;1.000000;1.000000;1.000000;1.000000;0.004900;-0.004900;0.004900;1.000000
445629.31860168;5696588.50219925;471.89234974;138;137;126;34952.000000;1.000000;1.000000;1.000000;1.000000;0.172251;0.172251;-0.172251;1.000000
445628.97620209;5696588.47969826;471.92324974;102;98;93;25186.000000;1.000000;1.000000;1.000000;1.000000;-0.088175;0.088175;-0.088175;1.000000
445628.96410187;5696588.76839836;471.90745022;170;162;153;41891.000000;1.000000;1.000000;1.000000;1.000000;0.117685;-0.117685;0.117685;1.000000
445629.00190170;5696588.76969917;471.90224983;170;164;155;42148.000000;1.000000;1.000000;1.000000;1.000000;0.086829;-0.086829;0.086829;1.000000
445629.11210068;5696588.77349861;471.90255024;69;62;54;16191.000000;1.000000;1.000000;1.000000;1.000000;0.056662;-0.056662;0.056662;1.000000
445628.99830063;5696588.39579971;471.93254997;125;122;111;31097.000000;1.000000;1.000000;1.000000;1.000000;-0.066076;0.066076;-0.066076;1.000000
445628.96650131;5696588.24639900;471.96665003;140;137;123;34952.000000;1.000000;1.000000;1.000000;1.000000;0.106902;-0.106902;0.106902;1.000000
445628.88450249;5696588.38959892;471.95524981;72;68;59;17476.000000;1.000000;1.000000;1.000000;1.000000;-0.160129;0.160129;-0.160129;1.000000
445629.32820137;5696588.27939995;471.89255001;47;37;16;9509.000000;1.000000;1.000000;1.000000;1.000000;-0.050600;0.050600;-0.050600;1.000000
445628.90380104;5696588.63349922;471.92875006;138;136;128;34695.000000;1.000000;1.000000;1.000000;1.000000;-0.160576;0.160576;-0.160576;1.000000
445628.94290169;5696588.59959991;471.92544987;211;211;204;53970.000000;1.000000;1.000000;1.000000;1.000000;-0.121475;0.121475;-0.121475;1.000000
445628.95340164;5696588.80449875;471.90745022;145;138;127;35466.000000;1.000000;1.000000;1.000000;1.000000;0.113868;-0.113868;0.113868;1.000000
445628.88790138;5696588.35419853;471.96204998;155;150;138;38550.000000;1.000000;1.000000;1.000000;1.000000;-0.147228;0.147228;-0.147228;1.000000
445629.03630074;5696588.39709862;471.92264988;171;165;155;42405.000000;1.000000;1.000000;1.000000;1.000000;-0.028076;0.028076;-0.028076;1.000000
445628.98160179;5696588.56329926;471.92444994;127;123;115;31611.000000;1.000000;1.000000;1.000000;1.000000;-0.082775;0.082775;-0.082775;1.000000
445628.90840157;5696588.56059845;471.93514969;159;153;143;39321.000000;1.000000;1.000000;1.000000;1.000000;-0.155975;0.155975;-0.155975;1.000000
445629.06520088;5696588.77079971;471.90044977;141;132;126;34438.000000;1.000000;1.000000;1.000000;1.000000;0.059200;-0.059200;0.059200;1.000000
445628.96570213;5696588.28389938;471.95764973;130;128;115;32639.000000;1.000000;1.000000;1.000000;1.000000;0.081678;-0.081678;0.081678;1.000000
445629.12400063;5696588.48479851;471.92065002;150;144;131;37008.000000;1.000000;1.000000;1.000000;1.000000;0.059624;-0.059624;0.059624;1.000000
445629.19210251;5696588.40399940;471.90185024;115;112;94;28270.000000;1.000000;1.000000;1.000000;1.000000;0.074050;-0.074050;0.074050;1.000000
445629.21930130;5696588.23819931;471.88945009;125;115;97;29812.000000;1.000000;1.000000;1.000000;1.000000;-0.091801;0.091801;-0.091801;1.000000
445629.13220222;5696588.49569901;471.91884996;148;142;129;36494.000000;1.000000;1.000000;1.000000;1.000000;0.067825;-0.067825;0.067825;1.000000
445628.98760231;5696588.45290001;471.92574980;47;45;39;11308.000000;1.000000;1.000000;1.000000;1.000000;-0.076775;0.076775;-0.076775;1.000000
445629.14960106;5696588.77469833;471.90194990;160;155;148;39835.000000;1.000000;1.000000;1.000000;1.000000;0.055302;-0.055302;0.055302;1.000000
445629.18490227;5696588.77609833;471.90124990;156;153;146;39321.000000;1.000000;1.000000;1.000000;1.000000;0.054087;-0.054087;0.054087;1.000000
445628.96530159;5696588.73089989;471.90704967;117;111;105;28784.000000;1.000000;1.000000;1.000000;1.000000;-0.112431;0.112431;-0.112431;1.000000
445629.24170120;5696588.78029831;471.89454987;219;218;210;55769.000000;1.000000;1.000000;1.000000;1.000000;0.049702;-0.049702;0.049702;1.000000
445628.90550240;5696588.36429985;471.95594980;123;119;108;30326.000000;1.000000;1.000000;1.000000;1.000000;-0.132153;0.132153;-0.132153;1.000000
445628.87620171;5696588.61499985;471.93195011;140;137;132;35209.000000;1.000000;1.000000;1.000000;1.000000;-0.188175;0.188175;-0.188175;1.000000
445629.28390129;5696588.70629890;471.89325001;120;118;107;30069.000000;1.000000;1.000000;1.000000;1.000000;0.123701;-0.123701;0.123701;1.000000
445629.04480179;5696588.20199974;471.95095016;100;96;82;24415.000000;1.000000;1.000000;1.000000;1.000000;-0.128000;0.128000;-0.128000;1.000000
445628.91060074;5696588.70080002;471.91825010;113;108;102;27756.000000;1.000000;1.000000;1.000000;1.000000;-0.155462;0.155462;-0.155462;1.000000
445628.95250137;5696588.62679871;471.92394974;74;72;66;18247.000000;1.000000;1.000000;1.000000;1.000000;-0.111876;0.111876;-0.111876;1.000000
445629.10420235;5696588.52389915;471.92254974;112;110;103;28013.000000;1.000000;1.000000;1.000000;1.000000;0.039825;-0.039825;0.039825;1.000000
445629.13250168;5696588.22469910;471.92024996;141;135;118;34438.000000;1.000000;1.000000;1.000000;1.000000;-0.105372;0.105372;-0.105372;1.000000
445629.06760223;5696588.51089867;471.93004992;89;86;78;22102.000000;1.000000;1.000000;1.000000;1.000000;0.003225;-0.003225;0.003225;1.000000
445629.10510071;5696588.51199921;471.93174984;137;132;122;33924.000000;1.000000;1.000000;1.000000;1.000000;0.040724;-0.040724;0.040724;1.000000
445629.07480247;5696588.36299904;471.93094971;140;136;127;34952.000000;1.000000;1.000000;1.000000;1.000000;0.010426;-0.010426;0.010426;1.000000
445628.85020073;5696588.39979942;471.95855000;91;87;82;22359.000000;1.000000;1.000000;1.000000;1.000000;-0.195791;0.195791;-0.195791;1.000000
445629.11000069;5696588.41129883;471.92385008;97;95;83;24158.000000;1.000000;1.000000;1.000000;1.000000;0.045624;-0.045624;0.045624;1.000000
445629.00280197;5696588.73209961;471.90644981;97;92;86;23644.000000;1.000000;1.000000;1.000000;1.000000;-0.082137;0.082137;-0.082137;1.000000
445629.04040154;5696588.73329933;471.90584995;155;149;140;38293.000000;1.000000;1.000000;1.000000;1.000000;-0.060523;0.060523;-0.060523;1.000000
445629.15000160;5696588.33749969;471.92245008;124;121;98;30583.000000;1.000000;1.000000;1.000000;1.000000;0.007500;-0.007500;0.007500;1.000000
445629.11920174;5696588.26089867;471.92705013;165;158;141;40606.000000;1.000000;1.000000;1.000000;1.000000;-0.069101;0.069101;-0.069101;1.000000
445629.00640114;5696588.21939857;471.95874979;127;124;109;31611.000000;1.000000;1.000000;1.000000;1.000000;0.113785;-0.113785;0.113785;1.000000
445629.16510208;5696588.21719940;471.90765001;123;115;99;29555.000000;1.000000;1.000000;1.000000;1.000000;-0.112829;0.112829;-0.112829;1.000000
445629.39280136;5696588.73849876;471.87754967;139;135;121;34438.000000;1.000000;1.000000;1.000000;1.000000;0.091501;-0.091501;0.091501;1.000000
445628.92090233;5696588.70929916;471.91414978;114;109;104;28013.000000;1.000000;1.000000;1.000000;1.000000;-0.146873;0.146873;-0.146873;1.000000
445629.14980133;5696588.55269821;471.90395023;123;120;107;30583.000000;1.000000;1.000000;1.000000;1.000000;0.085424;-0.085424;0.085424;1.000000
445629.10860069;5696588.44639977;471.92415001;132;128;116;32639.000000;1.000000;1.000000;1.000000;1.000000;0.044224;-0.044224;0.044224;1.000000
445629.03600128;5696588.36909874;471.92224981;105;98;89;25443.000000;1.000000;1.000000;1.000000;1.000000;-0.028376;0.028376;-0.028376;1.000000
445629.06980141;5696588.43579872;471.93394997;120;117;107;29812.000000;1.000000;1.000000;1.000000;1.000000;0.005424;-0.005424;0.005424;1.000000
445629.07340248;5696588.39819916;471.93134977;134;131;122;33410.000000;1.000000;1.000000;1.000000;1.000000;0.009026;-0.009026;0.009026;1.000000
445629.03830154;5696588.32429894;471.93354990;29;26;20;6682.000000;1.000000;1.000000;1.000000;1.000000;0.005701;-0.005701;0.005701;1.000000
445629.07590111;5696588.32549866;471.93284990;108;105;95;26728.000000;1.000000;1.000000;1.000000;1.000000;-0.004501;0.004501;-0.004501;1.000000
445628.94550140;5696588.33969887;471.95044996;139;137;123;34952.000000;1.000000;1.000000;1.000000;1.000000;-0.088161;0.088161;-0.088161;1.000000
445629.07110222;5696588.66049965;471.90404989;174;166;156;42919.000000;1.000000;1.000000;1.000000;1.000000;0.006725;-0.006725;0.006725;1.000000
445628.97580154;5696588.72059830;471.91214993;112;107;102;27499.000000;1.000000;1.000000;1.000000;1.000000;-0.098351;0.098351;-0.098351;1.000000
445629.02300079;5696588.26709946;471.94845011;86;84;72;21331.000000;1.000000;1.000000;1.000000;1.000000;0.063710;-0.063710;0.063710;1.000000
445629.22960098;5696588.40519913;471.90354969;137;136;114;34181.000000;1.000000;1.000000;1.000000;1.000000;0.075201;-0.075201;0.075201;1.000000
445629.19540222;5696588.36619957;471.90614988;203;203;188;51657.000000;1.000000;1.000000;1.000000;1.000000;0.036368;-0.036368;0.036368;1.000000
445629.26850136;5696588.37119873;471.90255024;145;142;124;35980.000000;1.000000;1.000000;1.000000;1.000000;0.041270;-0.041270;0.041270;1.000000
445629.04280098;5696588.65839966;471.90504982;176;169;158;43433.000000;1.000000;1.000000;1.000000;1.000000;-0.021576;0.021576;-0.021576;1.000000
445629.12370117;5696588.72559937;471.90955021;103;97;89;24929.000000;1.000000;1.000000;1.000000;1.000000;0.076185;-0.076185;0.076185;1.000000
445628.97690208;5696588.68299873;471.91405012;147;145;139;37008.000000;1.000000;1.000000;1.000000;1.000000;-0.087624;0.087624;-0.087624;1.000000
445629.01240166;5696588.68680008;471.91104986;108;105;99;26985.000000;1.000000;1.000000;1.000000;1.000000;-0.052745;0.052745;-0.052745;1.000000
445628.99350174;5696588.48979958;471.92184975;130;127;121;32639.000000;1.000000;1.000000;1.000000;1.000000;-0.070875;0.070875;-0.070875;1.000000
445628.91750153;5696588.74699982;471.91214993;176;170;163;43947.000000;1.000000;1.000000;1.000000;1.000000;-0.162336;0.162336;-0.162336;1.000000
445628.98490150;5696588.69399841;471.91454985;152;150;146;38550.000000;1.000000;1.000000;1.000000;1.000000;-0.081091;0.081091;-0.081091;1.000000
445628.94590195;5696588.74909981;471.90875008;195;189;181;48573.000000;1.000000;1.000000;1.000000;1.000000;-0.138281;0.138281;-0.138281;1.000000
445629.02250107;5696588.69520004;471.91155006;118;116;109;29555.000000;1.000000;1.000000;1.000000;1.000000;-0.045334;0.045334;-0.045334;1.000000
445629.10850151;5696588.66159828;471.90574982;178;173;163;44461.000000;1.000000;1.000000;1.000000;1.000000;0.044125;-0.044125;0.044125;1.000000
445629.14890106;5696588.59019859;471.89974977;190;188;180;48059.000000;1.000000;1.000000;1.000000;1.000000;0.084524;-0.084524;0.084524;1.000000
445629.19100197;5696588.44149979;471.90224983;123;119;101;30326.000000;1.000000;1.000000;1.000000;1.000000;0.111512;-0.111512;0.111512;1.000000
445629.03950127;5696588.52769859;471.91505005;103;100;94;25700.000000;1.000000;1.000000;1.000000;1.000000;-0.024876;0.024876;-0.024876;1.000000
445628.88260086;5696588.72679909;471.91725018;90;84;74;21588.000000;1.000000;1.000000;1.000000;1.000000;-0.188224;0.188224;-0.188224;1.000000
445628.91810234;5696588.72819908;471.91194965;145;139;132;35980.000000;1.000000;1.000000;1.000000;1.000000;-0.154698;0.154698;-0.154698;1.000000
445629.03440102;5696588.62169846;471.91124966;133;128;123;32896.000000;1.000000;1.000000;1.000000;1.000000;-0.029976;0.029976;-0.029976;1.000000
445629.24160202;5696588.20109947;471.88765003;105;97;81;24929.000000;1.000000;1.000000;1.000000;1.000000;-0.128901;0.128901;-0.128901;1.000000
445629.16090210;5696588.27359970;471.91045000;165;157;133;40092.000000;1.000000;1.000000;1.000000;1.000000;-0.056469;0.056469;-0.056469;1.000000
445629.15310104;5696588.44019897;471.90975000;131;127;114;32382.000000;1.000000;1.000000;1.000000;1.000000;0.088724;-0.088724;0.088724;1.000000
445628.92080124;5696588.46829994;471.93454983;163;158;150;40606.000000;1.000000;1.000000;1.000000;1.000000;-0.143576;0.143576;-0.143576;1.000000
445629.33220108;5696588.44719894;471.89234974;129;125;111;31868.000000;1.000000;1.000000;1.000000;1.000000;0.117199;-0.117199;0.117199;1.000000
