//X;Y;Z;R;G;B;Intensity;Return Number;Number Of Returns;Scan Direction Flag;Point Source ID;C2M signed distances[-][<0.8];C2M signed distances[<0.4];C2M signed distances[-][<0.2];Stump115
445641.92100342;5696593.42929848;471.34664967;169;163;153;41891.000000;1.000000;1.000000;1.000000;1.000000;-0.099298;0.099298;-0.099298;1.000000
445641.95890244;5696593.43289955;471.34375002;134;128;119;32896.000000;1.000000;1.000000;1.000000;1.000000;-0.102900;0.102900;-0.102900;1.000000
445642.05860336;5696593.50070007;471.34664967;148;142;134;36494.000000;1.000000;1.000000;1.000000;1.000000;-0.170758;0.170758;-0.170758;1.000000
445641.96020325;5696593.39539917;471.34095003;132;128;120;32896.000000;1.000000;1.000000;1.000000;1.000000;-0.065399;0.065399;-0.065399;1.000000
445642.09630020;5696593.50189980;471.34375002;128;125;116;31868.000000;1.000000;1.000000;1.000000;1.000000;-0.171900;0.171900;-0.171900;1.000000
445641.82850082;5696593.44479950;471.35654976;164;159;149;40863.000000;1.000000;1.000000;1.000000;1.000000;-0.116070;0.116070;-0.116070;1.000000
445641.86390121;5696593.44619949;471.35125019;153;148;140;38036.000000;1.000000;1.000000;1.000000;1.000000;-0.116199;0.116199;-0.116199;1.000000
445642.09190186;5696593.34389885;471.31834986;162;155;145;39835.000000;1.000000;1.000000;1.000000;1.000000;-0.014389;0.014389;-0.014389;1.000000
445641.84160049;5696593.10949905;471.35554983;124;133;96;32382.000000;1.000000;1.000000;1.000000;1.000000;-0.004026;0.004026;-0.004026;1.000000
445641.94950302;5696593.45939835;471.34824993;130;124;115;31868.000000;1.000000;1.000000;1.000000;1.000000;-0.129398;0.129398;-0.129398;1.000000
445642.28760345;5696593.16749962;471.27854969;126;122;114;31354.000000;1.000000;1.000000;1.000000;1.000000;0.058023;-0.058023;0.058023;1.000000
445641.98490341;5696593.46089943;471.34285023;191;186;177;47802.000000;1.000000;1.000000;1.000000;1.000000;-0.130899;0.130899;-0.130899;1.000000
445642.02230270;5696593.46199997;471.34464981;131;126;118;32382.000000;1.000000;1.000000;1.000000;1.000000;-0.132350;0.132350;-0.132350;1.000000
445642.13710220;5696593.37479980;471.31384995;182;173;163;44718.000000;1.000000;1.000000;1.000000;1.000000;-0.044800;0.044800;-0.044800;1.000000
445641.81690033;5696593.02599915;471.31615021;205;198;183;50886.000000;1.000000;1.000000;1.000000;1.000000;-0.028727;0.028727;-0.028727;1.000000
445641.89840134;5696593.49429901;471.36035015;142;135;125;34952.000000;1.000000;1.000000;1.000000;1.000000;-0.164300;0.164300;-0.164300;1.000000
445641.96479996;5696593.29229935;471.33535006;127;125;117;31868.000000;1.000000;1.000000;1.000000;1.000000;0.037957;-0.037957;0.037957;1.000000
445642.14949997;5696593.29919823;471.29715015;152;143;134;37008.000000;1.000000;1.000000;1.000000;1.000000;0.030846;-0.030846;0.030846;1.000000
445642.40620239;5696593.42239960;471.30324986;205;198;187;50886.000000;1.000000;1.000000;1.000000;1.000000;0.092400;-0.092400;0.092400;1.000000
445642.40760239;5696593.38499840;471.29824974;192;186;179;48059.000000;1.000000;1.000000;1.000000;1.000000;0.054998;-0.054998;0.054998;1.000000
445642.34850128;5696593.01029976;471.26074984;176;168;162;43433.000000;1.000000;1.000000;1.000000;1.000000;-0.002874;0.002874;-0.002874;1.000000
445642.31880005;5696593.49339874;471.31644966;161;156;145;40092.000000;1.000000;1.000000;1.000000;1.000000;-0.163399;0.163399;-0.163399;1.000000
445642.32000168;5696593.45589836;471.31605007;154;149;141;38293.000000;1.000000;1.000000;1.000000;1.000000;-0.125898;0.125898;-0.125898;1.000000
445642.17350204;5696593.41349991;471.31355001;151;139;127;36237.000000;1.000000;1.000000;1.000000;1.000000;-0.083500;0.083500;-0.083500;1.000000
445642.25980194;5696593.11869820;471.27675011;165;159;150;40863.000000;1.000000;1.000000;1.000000;1.000000;0.085825;-0.085825;0.085825;1.000000
445642.22560318;5696593.07979973;471.27934982;166;159;150;41120.000000;1.000000;1.000000;1.000000;1.000000;0.120024;-0.120024;0.120024;1.000000
445641.97480209;5696593.45249947;471.34235003;186;180;170;46260.000000;1.000000;1.000000;1.000000;1.000000;-0.122499;0.122499;-0.122499;1.000000
445642.25340088;5696593.07269867;471.27125027;164;157;147;40606.000000;1.000000;1.000000;1.000000;1.000000;0.092226;-0.092226;0.092226;1.000000
445642.09720047;5696593.46439941;471.34804966;153;150;139;38293.000000;1.000000;1.000000;1.000000;1.000000;-0.134399;0.134399;-0.134399;1.000000
445641.94840057;5696593.42209824;471.34544994;131;125;117;32125.000000;1.000000;1.000000;1.000000;1.000000;-0.092098;0.092098;-0.092098;1.000000
445641.88830002;5696593.35299881;471.34425022;114;109;102;28013.000000;1.000000;1.000000;1.000000;1.000000;-0.022999;0.022999;-0.022999;1.000000
445641.83920105;5696593.37859924;471.34464981;169;164;159;42148.000000;1.000000;1.000000;1.000000;1.000000;-0.049022;0.049022;-0.049022;1.000000
445641.83480270;5696593.28539856;471.35265018;40;40;36;10023.000000;1.000000;1.000000;1.000000;1.000000;0.045896;-0.045896;0.045896;1.000000
445642.09350021;5696593.33439835;471.31605007;149;141;131;36494.000000;1.000000;1.000000;1.000000;1.000000;-0.004886;0.004886;-0.004886;1.000000
445642.05830200;5696593.25829895;471.31584980;152;148;140;38036.000000;1.000000;1.000000;1.000000;1.000000;0.071823;-0.071823;0.071823;1.000000
445641.83630188;5696593.48129852;471.36205008;156;151;143;38807.000000;1.000000;1.000000;1.000000;1.000000;-0.151586;0.151586;-0.151586;1.000000
445641.81550034;5696593.10949905;471.36364986;116;128;90;30840.000000;1.000000;1.000000;1.000000;1.000000;-0.030127;0.030127;-0.030127;1.000000
445641.85080154;5696593.35179909;471.34254982;107;103;97;26471.000000;1.000000;1.000000;1.000000;1.000000;-0.021799;0.021799;-0.021799;1.000000
445641.92600067;5696593.35649879;471.34364988;133;129;123;33153.000000;1.000000;1.000000;1.000000;1.000000;-0.026499;0.026499;-0.026499;1.000000
445642.25530060;5696593.43629845;471.30824997;163;151;139;39321.000000;1.000000;1.000000;1.000000;1.000000;-0.106298;0.106298;-0.106298;1.000000
445642.27190216;5696593.49299820;471.31895020;118;113;101;29041.000000;1.000000;1.000000;1.000000;1.000000;-0.162998;0.162998;-0.162998;1.000000
445642.28660019;5696593.15589912;471.27834990;144;140;132;35980.000000;1.000000;1.000000;1.000000;1.000000;0.059027;-0.059027;0.059027;1.000000
445641.81780060;5696593.00739868;471.30894997;211;204;192;52428.000000;1.000000;1.000000;1.000000;1.000000;-0.027826;0.027826;-0.027826;1.000000
445641.89280136;5696593.00980003;471.31005003;187;177;155;45489.000000;1.000000;1.000000;1.000000;1.000000;0.047174;-0.047174;0.047174;1.000000
445642.32080276;5696593.43719872;471.31125023;161;156;144;40092.000000;1.000000;1.000000;1.000000;1.000000;-0.107199;0.107199;-0.107199;1.000000
445642.39400299;5696593.44219978;471.30524971;171;165;154;42405.000000;1.000000;1.000000;1.000000;1.000000;-0.112200;0.112200;-0.112200;1.000000
445642.32220276;5696593.39979942;471.30614998;132;127;118;32639.000000;1.000000;1.000000;1.000000;1.000000;-0.069799;0.069799;-0.069799;1.000000
445642.39560135;5696593.46069916;471.30784990;168;162;151;41634.000000;1.000000;1.000000;1.000000;1.000000;-0.130699;0.130699;-0.130699;1.000000
445642.35910233;5696593.42199905;471.31045010;187;182;171;46774.000000;1.000000;1.000000;1.000000;1.000000;-0.091999;0.091999;-0.091999;1.000000
445641.88350113;5696593.42809875;471.34725000;133;128;118;32896.000000;1.000000;1.000000;1.000000;1.000000;-0.098099;0.098099;-0.098099;1.000000
445642.03390320;5696593.43529900;471.34485008;195;191;183;49087.000000;1.000000;1.000000;1.000000;1.000000;-0.105299;0.105299;-0.105299;1.000000
445642.33440216;5696593.13989838;471.27335026;146;143;137;36751.000000;1.000000;1.000000;1.000000;1.000000;0.011225;-0.011225;0.011225;1.000000
445642.29810150;5696593.10129936;471.27125027;131;124;116;32125.000000;1.000000;1.000000;1.000000;1.000000;0.047525;-0.047525;0.047525;1.000000
445641.89310272;5696593.20539864;471.34504988;82;91;59;21588.000000;1.000000;1.000000;1.000000;1.000000;0.061371;-0.061371;0.061371;1.000000
445642.16620071;5696593.32799919;471.29824974;184;176;166;45489.000000;1.000000;1.000000;1.000000;1.000000;0.002001;-0.002001;0.002001;1.000000
445642.33240326;5696593.41049965;471.30905010;143;139;127;35466.000000;1.000000;1.000000;1.000000;1.000000;-0.080500;0.080500;-0.080500;1.000000
445642.33380325;5696593.37309845;471.30404999;165;159;151;40863.000000;1.000000;1.000000;1.000000;1.000000;-0.043098;0.043098;-0.043098;1.000000
445642.02950104;5696593.30509956;471.32675030;134;130;123;33410.000000;1.000000;1.000000;1.000000;1.000000;0.025163;-0.025163;0.025163;1.000000
445641.84720047;5696593.22329910;471.36415007;69;81;51;19018.000000;1.000000;1.000000;1.000000;1.000000;0.056427;-0.056427;0.056427;1.000000
445642.32690247;5696593.31789978;471.28914978;162;152;141;39321.000000;1.000000;1.000000;1.000000;1.000000;0.012100;-0.012100;0.012100;1.000000
445641.92780121;5696593.50569923;471.35484983;148;142;132;36494.000000;1.000000;1.000000;1.000000;1.000000;-0.175699;0.175699;-0.175699;1.000000
445641.89150055;5696593.46699913;471.35274984;124;117;107;30069.000000;1.000000;1.000000;1.000000;1.000000;-0.136999;0.136999;-0.136999;1.000000
445641.92900284;5696593.46819885;471.35444977;97;89;77;23130.000000;1.000000;1.000000;1.000000;1.000000;-0.138199;0.138199;-0.138199;1.000000
445642.12430008;5696593.44800003;471.33505013;170;163;151;41891.000000;1.000000;1.000000;1.000000;1.000000;-0.118028;0.118028;-0.118028;1.000000
445641.97739990;5696593.40319832;471.33725025;126;122;113;31354.000000;1.000000;1.000000;1.000000;1.000000;-0.073198;0.073198;-0.073198;1.000000
445642.01770218;5696593.33179863;471.33355000;122;118;110;30326.000000;1.000000;1.000000;1.000000;1.000000;-0.005353;0.005353;-0.005353;1.000000
445642.16850098;5696593.30209930;471.29575016;154;146;136;37779.000000;1.000000;1.000000;1.000000;1.000000;0.027901;-0.027901;0.027901;1.000000
445641.95950134;5696592.99439819;471.30125000;152;144;127;37008.000000;1.000000;1.000000;1.000000;1.000000;0.113874;-0.113874;0.113874;1.000000
445641.82800110;5696593.20150002;471.38164999;117;136;98;32382.000000;1.000000;1.000000;1.000000;1.000000;-0.038528;0.038528;-0.038528;1.000000
445642.05190094;5696593.21219833;471.31034996;130;125;112;32125.000000;1.000000;1.000000;1.000000;1.000000;0.117802;-0.117802;0.117802;1.000000
445642.08970078;5696593.21349915;471.30504992;129;123;112;31611.000000;1.000000;1.000000;1.000000;1.000000;0.116582;-0.116582;0.116582;1.000000
445642.33250244;5696592.96499832;471.26415016;56;50;49;13107.000000;1.000000;1.000000;1.000000;1.000000;0.032848;-0.032848;0.032848;1.000000
445642.31580170;5696593.37939842;471.30094959;130;123;112;31611.000000;1.000000;1.000000;1.000000;1.000000;-0.049398;0.049398;-0.049398;1.000000
445642.35490234;5696593.34549912;471.29764988;162;155;149;40092.000000;1.000000;1.000000;1.000000;1.000000;-0.015499;0.015499;-0.015499;1.000000
445642.07710083;5696593.47329910;471.34725000;58;56;49;14135.000000;1.000000;1.000000;1.000000;1.000000;-0.143299;0.143299;-0.143299;1.000000
445642.07820328;5696593.43579872;471.34684994;216;213;203;54484.000000;1.000000;1.000000;1.000000;1.000000;-0.105799;0.105799;-0.105799;1.000000
445642.22800262;5696593.44359978;471.30705025;122;109;95;28527.000000;1.000000;1.000000;1.000000;1.000000;-0.113600;0.113600;-0.113600;1.000000
445642.22920044;5696593.40609940;471.30664970;157;146;136;38036.000000;1.000000;1.000000;1.000000;1.000000;-0.076099;0.076099;-0.076099;1.000000
445642.12120255;5696593.32729919;471.31014969;157;149;138;38550.000000;1.000000;1.000000;1.000000;1.000000;0.005324;-0.005324;0.005324;1.000000
445642.12260254;5696593.28989990;471.30515005;156;149;142;38550.000000;1.000000;1.000000;1.000000;1.000000;0.040327;-0.040327;0.040327;1.000000
445642.08830078;5696593.25089844;471.31014969;137;132;122;33924.000000;1.000000;1.000000;1.000000;1.000000;0.079156;-0.079156;0.079156;1.000000
445641.93830307;5696593.46739967;471.35255005;104;97;86;24929.000000;1.000000;1.000000;1.000000;1.000000;-0.137404;0.137404;-0.137404;1.000000
445641.83400162;5696593.27619942;471.35255005;31;31;26;7710.000000;1.000000;1.000000;1.000000;1.000000;0.055042;-0.055042;0.055042;1.000000
445642.23590286;5696593.48239906;471.31724979;171;164;152;42148.000000;1.000000;1.000000;1.000000;1.000000;-0.152399;0.152399;-0.152399;1.000000
445642.27309998;5696593.48119934;471.31885006;136;130;117;33410.000000;1.000000;1.000000;1.000000;1.000000;-0.151200;0.151200;-0.151200;1.000000
445642.27470215;5696593.44609840;471.31384995;141;134;123;34438.000000;1.000000;1.000000;1.000000;1.000000;-0.116113;0.116113;-0.116113;1.000000
445642.12899979;5696593.36379822;471.31565001;183;175;165;45232.000000;1.000000;1.000000;1.000000;1.000000;-0.033798;0.033798;-0.033798;1.000000
445641.90830048;5696593.52379997;471.35885002;168;162;153;41634.000000;1.000000;1.000000;1.000000;1.000000;-0.193800;0.193800;-0.193800;1.000000
445641.99160202;5696593.30159958;471.32964994;145;143;133;36494.000000;1.000000;1.000000;1.000000;1.000000;0.028400;-0.028400;0.028400;1.000000
445641.96150024;5696593.15259941;471.32655003;143;143;126;36237.000000;1.000000;1.000000;1.000000;1.000000;0.115873;-0.115873;0.115873;1.000000
445642.05050095;5696593.24959953;471.31535007;96;92;83;23644.000000;1.000000;1.000000;1.000000;1.000000;0.080400;-0.080400;0.080400;1.000000
445641.94720276;5696593.48749931;471.35314991;104;98;88;25186.000000;1.000000;1.000000;1.000000;1.000000;-0.157499;0.157499;-0.157499;1.000000
445642.28590210;5696593.14899834;471.27825024;165;161;153;41377.000000;1.000000;1.000000;1.000000;1.000000;0.059725;-0.059725;0.059725;1.000000
445642.25200089;5696593.11009987;471.27624990;132;126;118;32382.000000;1.000000;1.000000;1.000000;1.000000;0.093626;-0.093626;0.093626;1.000000
445642.34240158;5696593.41879852;471.31195023;180;176;164;44975.000000;1.000000;1.000000;1.000000;1.000000;-0.088857;0.088857;-0.088857;1.000000
445642.37800034;5696593.42259987;471.30664970;159;154;143;39578.000000;1.000000;1.000000;1.000000;1.000000;-0.092600;0.092600;-0.092600;1.000000
445642.29180344;5696593.24169930;471.28894999;107;103;97;26471.000000;1.000000;1.000000;1.000000;1.000000;0.053823;-0.053823;0.053823;1.000000
445642.17280014;5696593.46009834;471.32105019;135;123;107;31868.000000;1.000000;1.000000;1.000000;1.000000;-0.130098;0.130098;-0.130098;1.000000
445642.20840271;5696593.46159943;471.31344988;148;136;123;35466.000000;1.000000;1.000000;1.000000;1.000000;-0.131599;0.131599;-0.131599;1.000000
445641.97410019;5696593.52479942;471.35244991;156;150;141;38550.000000;1.000000;1.000000;1.000000;1.000000;-0.194799;0.194799;-0.194799;1.000000
445642.03230103;5696593.23029907;471.31664993;128;125;113;31868.000000;1.000000;1.000000;1.000000;1.000000;0.099704;-0.099704;0.099704;1.000000
445642.38060196;5696593.37570007;471.30854990;174;170;163;43690.000000;1.000000;1.000000;1.000000;1.000000;-0.045700;0.045700;-0.045700;1.000000
445641.88750275;5696593.14969833;471.35574963;114;121;91;29555.000000;1.000000;1.000000;1.000000;1.000000;0.041876;-0.041876;0.041876;1.000000
445641.89140137;5696593.07510002;471.32014992;165;160;140;40863.000000;1.000000;1.000000;1.000000;1.000000;0.045774;-0.045774;0.045774;1.000000
445641.81740005;5696593.03299912;471.31854965;201;193;178;49601.000000;1.000000;1.000000;1.000000;1.000000;-0.028227;0.028227;-0.028227;1.000000
445641.85519989;5696593.03649910;471.31804993;189;181;165;46517.000000;1.000000;1.000000;1.000000;1.000000;0.009573;-0.009573;0.009573;1.000000
445641.89060028;5696593.03789909;471.31265022;167;159;138;40863.000000;1.000000;1.000000;1.000000;1.000000;0.044973;-0.044973;0.044973;1.000000
445642.31940277;5696593.47459991;471.31624987;159;154;143;39578.000000;1.000000;1.000000;1.000000;1.000000;-0.144600;0.144600;-0.144600;1.000000
445642.12830170;5696593.38249977;471.31815006;184;175;163;45232.000000;1.000000;1.000000;1.000000;1.000000;-0.052500;0.052500;-0.052500;1.000000
445641.87350281;5696593.22339828;471.35134985;63;71;45;16705.000000;1.000000;1.000000;1.000000;1.000000;0.063236;-0.063236;0.063236;1.000000
445642.05920227;5696593.26750000;471.31605007;150;147;140;37779.000000;1.000000;1.000000;1.000000;1.000000;0.062706;-0.062706;0.062706;1.000000
445641.80780228;5696593.03149994;471.32044985;197;190;174;48830.000000;1.000000;1.000000;1.000000;1.000000;-0.037825;0.037825;-0.037825;1.000000
445642.17270096;5696593.43219955;471.31844999;155;142;127;37008.000000;1.000000;1.000000;1.000000;1.000000;-0.102200;0.102200;-0.102200;1.000000
445642.23570068;5696593.50799950;471.32214977;161;154;143;39578.000000;1.000000;1.000000;1.000000;1.000000;-0.177999;0.177999;-0.177999;1.000000
445642.31960114;5696593.28819855;471.28604986;141;133;124;34438.000000;1.000000;1.000000;1.000000;1.000000;0.026026;-0.026026;0.026026;1.000000
445642.23500259;5696593.49879845;471.31974985;174;166;154;42919.000000;1.000000;1.000000;1.000000;1.000000;-0.168798;0.168798;-0.168798;1.000000
445642.32360275;5696593.20379837;471.28294994;146;142;135;36494.000000;1.000000;1.000000;1.000000;1.000000;0.022024;-0.022024;0.022024;1.000000
445642.24979980;5696593.16399963;471.28144981;126;121;112;31097.000000;1.000000;1.000000;1.000000;1.000000;0.095827;-0.095827;0.095827;1.000000
445642.20170029;5696593.41319855;471.31014969;168;156;143;40606.000000;1.000000;1.000000;1.000000;1.000000;-0.083199;0.083199;-0.083199;1.000000
445641.90190323;5696593.25119980;471.34824993;145;146;127;36751.000000;1.000000;1.000000;1.000000;1.000000;0.078901;-0.078901;0.078901;1.000000
445641.82670029;5696593.21099861;471.37935020;104;122;86;28784.000000;1.000000;1.000000;1.000000;1.000000;-0.047717;0.047717;-0.047717;1.000000
445641.90110214;5696593.21399887;471.34084990;129;135;106;33410.000000;1.000000;1.000000;1.000000;1.000000;0.073080;-0.073080;0.073080;1.000000
445641.90450104;5696593.17859848;471.34754993;42;49;22;11051.000000;1.000000;1.000000;1.000000;1.000000;0.060094;-0.060094;0.060094;1.000000
445642.15950211;5696593.52419861;471.33524992;187;181;170;46517.000000;1.000000;1.000000;1.000000;1.000000;-0.194199;0.194199;-0.194199;1.000000
445641.90590103;5696593.14119919;471.34254982;118;122;94;30069.000000;1.000000;1.000000;1.000000;1.000000;0.060274;-0.060274;0.060274;1.000000
445641.86960037;5696593.10249908;471.34275009;118;125;95;30583.000000;1.000000;1.000000;1.000000;1.000000;0.023973;-0.023973;0.023973;1.000000
445641.94730194;5696593.06779869;471.30854990;183;177;162;45489.000000;1.000000;1.000000;1.000000;1.000000;0.101675;-0.101675;0.101675;1.000000
445641.94849976;5696593.03029831;471.30814983;157;149;126;38036.000000;1.000000;1.000000;1.000000;1.000000;0.102873;-0.102873;0.102873;1.000000
445641.94590195;5696593.29169853;471.33914997;173;173;163;43947.000000;1.000000;1.000000;1.000000;1.000000;0.038301;-0.038301;0.038301;1.000000
445642.28630264;5696593.41709908;471.30705025;157;149;139;38550.000000;1.000000;1.000000;1.000000;1.000000;-0.087099;0.087099;-0.087099;1.000000
445642.38390167;5696593.30999954;471.30555012;183;179;172;46003.000000;1.000000;1.000000;1.000000;1.000000;0.020000;-0.020000;0.020000;1.000000
445642.38510330;5696593.27249916;471.30515005;182;182;175;46517.000000;1.000000;1.000000;1.000000;1.000000;-0.039476;0.039476;-0.039476;1.000000
445642.36730011;5696593.01089867;471.26164963;168;161;156;41634.000000;1.000000;1.000000;1.000000;1.000000;-0.021673;0.021673;-0.021673;1.000000
445642.31630142;5696593.12059982;471.27224972;152;148;140;38036.000000;1.000000;1.000000;1.000000;1.000000;0.029325;-0.029325;0.029325;1.000000
445642.25810059;5696593.20290001;471.28224995;139;134;125;34438.000000;1.000000;1.000000;1.000000;1.000000;0.087526;-0.087526;0.087526;1.000000
445642.22170074;5696593.16419991;471.28254988;184;178;169;45746.000000;1.000000;1.000000;1.000000;1.000000;0.123926;-0.123926;0.123926;1.000000
445642.25920303;5696593.16539963;471.28195002;114;108;99;27756.000000;1.000000;1.000000;1.000000;1.000000;0.086424;-0.086424;0.086424;1.000000
445642.33440216;5696593.16789825;471.27834990;153;152;145;38807.000000;1.000000;1.000000;1.000000;1.000000;0.011225;-0.011225;0.011225;1.000000
445642.26060303;5696593.12799843;471.27685024;180;174;165;44718.000000;1.000000;1.000000;1.000000;1.000000;0.085024;-0.085024;0.085024;1.000000
445642.22550018;5696593.05179985;471.27664997;156;150;142;38550.000000;1.000000;1.000000;1.000000;1.000000;0.120127;-0.120127;0.120127;1.000000
445642.22900208;5696593.01419838;471.27644970;154;149;142;38293.000000;1.000000;1.000000;1.000000;1.000000;0.116625;-0.116625;0.116625;1.000000
445641.90970047;5696593.51429947;471.35874989;173;166;156;42919.000000;1.000000;1.000000;1.000000;1.000000;-0.184299;0.184299;-0.184299;1.000000
445642.23030289;5696592.97899826;471.27834990;175;171;165;43947.000000;1.000000;1.000000;1.000000;1.000000;0.116406;-0.116406;0.116406;1.000000
445641.83720215;5696593.43699844;471.35454990;159;154;145;39578.000000;1.000000;1.000000;1.000000;1.000000;-0.107330;0.107330;-0.107330;1.000000
445642.02440079;5696593.40589912;471.33704998;158;153;144;39321.000000;1.000000;1.000000;1.000000;1.000000;-0.076399;0.076399;-0.076399;1.000000
445642.02580078;5696593.36849983;471.33194973;133;128;120;32896.000000;1.000000;1.000000;1.000000;1.000000;-0.039191;0.039191;-0.039191;1.000000
445641.84580048;5696593.21169861;471.37095024;90;104;72;24672.000000;1.000000;1.000000;1.000000;1.000000;0.044671;-0.044671;0.044671;1.000000
445642.14960297;5696593.35509880;471.30714991;203;195;184;50372.000000;1.000000;1.000000;1.000000;1.000000;-0.025159;0.025159;-0.025159;1.000000
445642.25030334;5696593.37850006;471.30034973;170;159;149;41377.000000;1.000000;1.000000;1.000000;1.000000;-0.048526;0.048526;-0.048526;1.000000
445642.36190231;5696593.34709938;471.30034973;172;166;158;42662.000000;1.000000;1.000000;1.000000;1.000000;-0.017099;0.017099;-0.017099;1.000000
445642.14240082;5696593.29979904;471.29915001;145;136;127;35209.000000;1.000000;1.000000;1.000000;1.000000;0.030201;-0.030201;0.030201;1.000000
445642.40410049;5696593.27309998;471.30135014;230;230;223;58853.000000;1.000000;1.000000;1.000000;1.000000;-0.056900;0.056900;-0.056900;1.000000
445642.03470047;5696593.38869865;471.33264973;156;151;144;38807.000000;1.000000;1.000000;1.000000;1.000000;-0.058699;0.058699;-0.058699;1.000000
445642.40550049;5696593.23569878;471.29635002;125;125;118;31868.000000;1.000000;1.000000;1.000000;1.000000;-0.059874;0.059874;-0.059874;1.000000
445642.30280121;5696593.04719933;471.26384975;143;135;124;34952.000000;1.000000;1.000000;1.000000;1.000000;0.042826;-0.042826;0.042826;1.000000
445642.33930023;5696593.01120003;471.26034977;178;170;164;43947.000000;1.000000;1.000000;1.000000;1.000000;0.006327;-0.006327;0.006327;1.000000
445641.95210083;5696593.38449867;471.34285023;151;147;140;37779.000000;1.000000;1.000000;1.000000;1.000000;-0.054499;0.054499;-0.054499;1.000000
445641.85190018;5696593.31429871;471.34445002;61;61;57;15420.000000;1.000000;1.000000;1.000000;1.000000;0.015701;-0.015701;0.015701;1.000000
445641.84070023;5696593.34339912;471.34194996;97;95;91;24415.000000;1.000000;1.000000;1.000000;1.000000;-0.014276;0.014276;-0.014276;1.000000
445641.87810333;5696593.34459885;471.34364988;118;114;106;29298.000000;1.000000;1.000000;1.000000;1.000000;-0.014599;0.014599;-0.014599;1.000000
445642.36100204;5696593.15139969;471.27705004;159;158;152;40349.000000;1.000000;1.000000;1.000000;1.000000;-0.015375;0.015375;-0.015375;1.000000
445642.10840042;5696593.42849930;471.33645012;164;157;147;40606.000000;1.000000;1.000000;1.000000;1.000000;-0.098499;0.098499;-0.098499;1.000000
445642.18500336;5696593.35649879;471.30174973;198;190;180;49087.000000;1.000000;1.000000;1.000000;1.000000;-0.026857;0.026857;-0.026857;1.000000
445642.25830276;5696593.36149986;471.29585030;187;176;168;45746.000000;1.000000;1.000000;1.000000;1.000000;-0.031500;0.031500;-0.031500;1.000000
445642.15130051;5696593.31999977;471.29985001;158;149;138;38550.000000;1.000000;1.000000;1.000000;1.000000;0.010578;-0.010578;0.010578;1.000000
445642.41310318;5696593.29339989;471.29734995;156;153;147;39321.000000;1.000000;1.000000;1.000000;1.000000;0.036600;-0.036600;0.036600;1.000000
445642.37690170;5696593.25469978;471.29524996;124;122;115;31097.000000;1.000000;1.000000;1.000000;1.000000;-0.031275;0.031275;-0.031275;1.000000
445642.34780319;5696593.02899940;471.26335003;200;194;186;49858.000000;1.000000;1.000000;1.000000;1.000000;-0.002176;0.002176;-0.002176;1.000000
445642.31030090;5696593.02779968;471.26394989;196;188;177;48573.000000;1.000000;1.000000;1.000000;1.000000;0.035326;-0.035326;0.035326;1.000000
445642.38670166;5696592.99499901;471.26464989;88;86;87;22102.000000;1.000000;1.000000;1.000000;1.000000;-0.041075;0.041075;-0.041075;1.000000
445642.03320129;5696593.23959930;471.31685020;114;111;100;28270.000000;1.000000;1.000000;1.000000;1.000000;0.090401;-0.090401;0.090401;1.000000
445641.88470276;5696593.19429977;471.35384991;53;63;31;14392.000000;1.000000;1.000000;1.000000;1.000000;0.047850;-0.047850;0.047850;1.000000
445641.91570099;5696593.34579857;471.34305002;129;126;119;32382.000000;1.000000;1.000000;1.000000;1.000000;-0.015799;0.015799;-0.015799;1.000000
445641.85170181;5696593.11789902;471.35605003;136;146;106;35466.000000;1.000000;1.000000;1.000000;1.000000;0.006075;-0.006075;0.006075;1.000000
445641.81380280;5696593.08419998;471.34934999;156;163;134;40349.000000;1.000000;1.000000;1.000000;1.000000;-0.031824;0.031824;-0.031824;1.000000
445641.89140137;5696593.04719933;471.31514980;180;172;151;44204.000000;1.000000;1.000000;1.000000;1.000000;0.045774;-0.045774;0.045774;1.000000
445641.87930115;5696593.30709847;471.34324982;97;95;88;24158.000000;1.000000;1.000000;1.000000;1.000000;0.022902;-0.022902;0.022902;1.000000
445641.91680344;5696593.30829819;471.34495022;105;104;95;26471.000000;1.000000;1.000000;1.000000;1.000000;0.021702;-0.021702;0.021702;1.000000
445642.27010162;5696593.10149963;471.27234985;174;166;157;42919.000000;1.000000;1.000000;1.000000;1.000000;0.075525;-0.075525;0.075525;1.000000
445641.95590027;5696593.47979935;471.35115005;107;101;92;25957.000000;1.000000;1.000000;1.000000;1.000000;-0.149799;0.149799;-0.149799;1.000000
445642.33540161;5696593.52219971;471.31755020;163;158;145;40606.000000;1.000000;1.000000;1.000000;1.000000;-0.192200;0.192200;-0.192200;1.000000
445641.92600067;5696593.51279839;471.35714962;152;146;137;37522.000000;1.000000;1.000000;1.000000;1.000000;-0.182798;0.182798;-0.182798;1.000000
445641.85450180;5696593.47269829;471.35574963;166;160;151;41120.000000;1.000000;1.000000;1.000000;1.000000;-0.142698;0.142698;-0.142698;1.000000
445641.89210327;5696593.47389992;471.35514977;130;122;112;31611.000000;1.000000;1.000000;1.000000;1.000000;-0.143900;0.143900;-0.143900;1.000000
445641.92749985;5696593.47769936;471.35444977;83;76;64;19532.000000;1.000000;1.000000;1.000000;1.000000;-0.147699;0.147699;-0.147699;1.000000
445642.38850220;5696593.38429840;471.30664970;153;149;141;38293.000000;1.000000;1.000000;1.000000;1.000000;-0.054298;0.054298;-0.054298;1.000000
445642.41050156;5696593.52459915;471.31635000;143;138;125;35466.000000;1.000000;1.000000;1.000000;1.000000;-0.194599;0.194599;-0.194599;1.000000
445642.05030258;5696593.22159966;471.31504967;97;92;81;23644.000000;1.000000;1.000000;1.000000;1.000000;0.108400;-0.108400;0.108400;1.000000
445641.81600006;5696593.28479965;471.35414984;22;25;23;5911.000000;1.000000;1.000000;1.000000;1.000000;0.054045;-0.054045;0.054045;1.000000
445642.08419998;5696593.33529861;471.31794979;154;147;137;37779.000000;1.000000;1.000000;1.000000;1.000000;-0.005299;0.005299;-0.005299;1.000000
445642.08540161;5696593.29779823;471.31524994;154;149;141;38293.000000;1.000000;1.000000;1.000000;1.000000;0.032202;-0.032202;0.032202;1.000000
445642.27600296;5696593.19429977;471.28064968;171;167;158;42919.000000;1.000000;1.000000;1.000000;1.000000;0.069624;-0.069624;0.069624;1.000000
445641.96150024;5696593.38369949;471.33855011;145;141;132;36237.000000;1.000000;1.000000;1.000000;1.000000;-0.053711;0.053711;-0.053711;1.000000
445641.96290024;5696593.34849937;471.33824970;132;128;120;32896.000000;1.000000;1.000000;1.000000;1.000000;-0.018668;0.018668;-0.018668;1.000000
445641.99839981;5696593.34999855;471.33285000;157;153;146;39321.000000;1.000000;1.000000;1.000000;1.000000;-0.019999;0.019999;-0.019999;1.000000
445641.96420105;5696593.31110008;471.33554985;150;149;139;38036.000000;1.000000;1.000000;1.000000;1.000000;0.019279;-0.019279;0.019279;1.000000
445642.14140137;5696593.50490006;471.33414986;162;156;146;40092.000000;1.000000;1.000000;1.000000;1.000000;-0.174900;0.174900;-0.174900;1.000000
445642.25890167;5696593.39639862;471.30094959;161;149;137;38807.000000;1.000000;1.000000;1.000000;1.000000;-0.066399;0.066399;-0.066399;1.000000
445642.29440125;5696593.40009888;471.30024960;180;170;160;43947.000000;1.000000;1.000000;1.000000;1.000000;-0.070099;0.070099;-0.070099;1.000000
445642.22270020;5696593.35769852;471.29884960;156;148;139;38293.000000;1.000000;1.000000;1.000000;1.000000;-0.027699;0.027699;-0.027699;1.000000
445641.93130310;5696593.23469933;471.33774998;143;146;125;36494.000000;1.000000;1.000000;1.000000;1.000000;0.095325;-0.095325;0.095325;1.000000
445642.15010269;5696593.28039940;471.29694988;115;107;98;27756.000000;1.000000;1.000000;1.000000;1.000000;0.049652;-0.049652;0.049652;1.000000
445641.85590179;5696593.19439896;471.37115004;98;115;78;26985.000000;1.000000;1.000000;1.000000;1.000000;0.029236;-0.029236;0.029236;1.000000
445641.93260010;5696593.19719894;471.33505013;117;123;94;30326.000000;1.000000;1.000000;1.000000;1.000000;0.092296;-0.092296;0.092296;1.000000
445641.85950287;5696593.15899857;471.37325003;130;146;108;35209.000000;1.000000;1.000000;1.000000;1.000000;0.013876;-0.013876;0.013876;1.000000
445641.93370255;5696593.15969856;471.33465006;125;130;104;32125.000000;1.000000;1.000000;1.000000;1.000000;0.088076;-0.088076;0.088076;1.000000
445641.89730270;5696593.12099846;471.33725025;127;130;101;32125.000000;1.000000;1.000000;1.000000;1.000000;0.051676;-0.051676;0.051676;1.000000
445641.86100204;5696593.08239944;471.33515026;134;134;111;33667.000000;1.000000;1.000000;1.000000;1.000000;0.015375;-0.015375;0.015375;1.000000
445641.82850082;5696593.38889893;471.34425022;157;152;146;39064.000000;1.000000;1.000000;1.000000;1.000000;-0.061338;0.061338;-0.061338;1.000000
445641.88179977;5696593.01779945;471.30964996;189;179;159;46003.000000;1.000000;1.000000;1.000000;1.000000;0.036173;-0.036173;0.036173;1.000000
445642.40820129;5696593.36619957;471.29804995;150;146;138;37522.000000;1.000000;1.000000;1.000000;1.000000;-0.036200;0.036200;-0.036200;1.000000
445642.30910309;5696593.06530006;471.26434996;142;133;122;34438.000000;1.000000;1.000000;1.000000;1.000000;0.036524;-0.036524;0.036524;1.000000
445642.31380280;5696592.99009903;471.26364996;179;172;166;44461.000000;1.000000;1.000000;1.000000;1.000000;0.032219;-0.032219;0.032219;1.000000
445642.34900101;5696592.99159821;471.26294996;119;113;109;29298.000000;1.000000;1.000000;1.000000;1.000000;-0.004892;0.004892;-0.004892;1.000000
445642.15600021;5696593.40329941;471.31734993;168;157;147;40863.000000;1.000000;1.000000;1.000000;1.000000;-0.073330;0.073330;-0.073330;1.000000
445642.11960037;5696593.36469849;471.31755020;178;170;160;43947.000000;1.000000;1.000000;1.000000;1.000000;-0.034826;0.034826;-0.034826;1.000000
445642.08329971;5696593.32599838;471.31775000;146;139;130;35980.000000;1.000000;1.000000;1.000000;1.000000;0.004002;-0.004002;0.004002;1.000000
445641.95600327;5696593.50539978;471.35144999;135;129;119;33153.000000;1.000000;1.000000;1.000000;1.000000;-0.175400;0.175400;-0.175400;1.000000
445642.27750214;5696593.18479927;471.28064968;143;138;129;35466.000000;1.000000;1.000000;1.000000;1.000000;0.068125;-0.068125;0.068125;1.000000
445641.84670074;5696593.46409996;471.35535004;172;166;157;42662.000000;1.000000;1.000000;1.000000;1.000000;-0.134100;0.134100;-0.134100;1.000000
445641.95280273;5696593.36579903;471.34034969;107;104;95;26471.000000;1.000000;1.000000;1.000000;1.000000;-0.035799;0.035799;-0.035799;1.000000
445641.99040039;5696593.36699875;471.33734991;148;145;137;37265.000000;1.000000;1.000000;1.000000;1.000000;-0.036999;0.036999;-0.036999;1.000000
445641.95400055;5696593.32829865;471.33754971;87;84;76;21588.000000;1.000000;1.000000;1.000000;1.000000;0.001701;-0.001701;0.001701;1.000000
445641.99180038;5696593.32959946;471.33235027;154;151;143;38807.000000;1.000000;1.000000;1.000000;1.000000;0.000401;-0.000401;0.000401;1.000000
445641.80930145;5696593.24769981;471.37435009;25;35;19;7710.000000;1.000000;1.000000;1.000000;1.000000;-0.088405;0.088405;-0.088405;1.000000
445642.13240250;5696593.48469933;471.33585026;169;164;152;42148.000000;1.000000;1.000000;1.000000;1.000000;-0.154699;0.154699;-0.154699;1.000000
445642.28560074;5696593.37999924;471.29725029;152;142;132;36751.000000;1.000000;1.000000;1.000000;1.000000;-0.049999;0.049999;-0.049999;1.000000
445641.89999969;5696593.48479851;471.35794975;139;130;120;33667.000000;1.000000;1.000000;1.000000;1.000000;-0.154812;0.154812;-0.154812;1.000000
445641.95350082;5696593.11379822;471.31874992;134;131;114;33410.000000;1.000000;1.000000;1.000000;1.000000;0.107874;-0.107874;0.107874;1.000000
445641.92010315;5696593.21469887;471.33704998;122;127;99;31354.000000;1.000000;1.000000;1.000000;1.000000;0.088793;-0.088793;0.088793;1.000000
445642.36240204;5696593.38200005;471.31014969;202;198;189;50886.000000;1.000000;1.000000;1.000000;1.000000;-0.052000;0.052000;-0.052000;1.000000
445641.92280014;5696593.14209946;471.33395006;137;140;115;34952.000000;1.000000;1.000000;1.000000;1.000000;0.077173;-0.077173;0.077173;1.000000
445641.88870056;5696593.10319908;471.33424999;135;138;110;34438.000000;1.000000;1.000000;1.000000;1.000000;0.043074;-0.043074;0.043074;1.000000
445642.26250275;5696593.04389961;471.26895000;154;147;138;38036.000000;1.000000;1.000000;1.000000;1.000000;0.083124;-0.083124;0.083124;1.000000
445641.81680115;5696593.06069954;471.33754971;146;144;122;36494.000000;1.000000;1.000000;1.000000;1.000000;-0.028826;0.028826;-0.028826;1.000000
445642.05800064;5696593.51939972;471.34684994;169;164;155;42148.000000;1.000000;1.000000;1.000000;1.000000;-0.189439;0.189439;-0.189439;1.000000
445641.98420151;5696593.47959908;471.34544994;186;181;172;46517.000000;1.000000;1.000000;1.000000;1.000000;-0.149599;0.149599;-0.149599;1.000000
445642.02180298;5696593.48079880;471.34474995;142;137;130;35209.000000;1.000000;1.000000;1.000000;1.000000;-0.151074;0.151074;-0.151074;1.000000
445642.09670074;5696593.48309906;471.34585001;89;86;77;21845.000000;1.000000;1.000000;1.000000;1.000000;-0.153099;0.153099;-0.153099;1.000000
445641.91230209;5696593.43709953;471.34865000;125;118;106;30326.000000;1.000000;1.000000;1.000000;1.000000;-0.107100;0.107100;-0.107100;1.000000
445641.88210114;5696593.46559914;471.35224964;138;131;121;33924.000000;1.000000;1.000000;1.000000;1.000000;-0.135599;0.135599;-0.135599;1.000000
445642.35750015;5696593.27289970;471.29694988;137;134;127;34438.000000;1.000000;1.000000;1.000000;1.000000;-0.011873;0.011873;-0.011873;1.000000
445641.94780167;5696593.44089897;471.34565022;149;143;133;36751.000000;1.000000;1.000000;1.000000;1.000000;-0.110899;0.110899;-0.110899;1.000000
445642.02290161;5696593.44329842;471.34445002;125;120;112;30840.000000;1.000000;1.000000;1.000000;1.000000;-0.113758;0.113758;-0.113758;1.000000
445642.21400269;5696593.33989914;471.29824974;185;177;169;45746.000000;1.000000;1.000000;1.000000;1.000000;-0.010552;0.010552;-0.010552;1.000000
445641.96540268;5696593.27359970;471.33515026;126;126;116;31868.000000;1.000000;1.000000;1.000000;1.000000;0.056622;-0.056622;0.056622;1.000000
445642.32460220;5696593.34599884;471.29635002;176;168;160;43433.000000;1.000000;1.000000;1.000000;1.000000;-0.015999;0.015999;-0.015999;1.000000
445642.40300186;5696593.31069954;471.29944994;173;168;161;43176.000000;1.000000;1.000000;1.000000;1.000000;-0.019300;0.019300;-0.019300;1.000000
445642.15490158;5696593.20749863;471.29865028;160;156;148;40092.000000;1.000000;1.000000;1.000000;1.000000;0.122544;-0.122544;0.122544;1.000000
445642.17900284;5696593.26369865;471.29575016;131;123;115;31868.000000;1.000000;1.000000;1.000000;1.000000;0.066301;-0.066301;0.066301;1.000000
445642.18020065;5696593.22629936;471.29534962;127;121;114;31354.000000;1.000000;1.000000;1.000000;1.000000;0.103707;-0.103707;0.103707;1.000000
445642.38410004;5696593.06769951;471.26545002;186;181;175;46517.000000;1.000000;1.000000;1.000000;1.000000;-0.038473;0.038473;-0.038473;1.000000
445642.25310333;5696593.49239929;471.31815006;148;141;128;36237.000000;1.000000;1.000000;1.000000;1.000000;-0.162399;0.162399;-0.162399;1.000000
445642.39170273;5696593.12529953;471.26874973;144;141;135;36237.000000;1.000000;1.000000;1.000000;1.000000;-0.046076;0.046076;-0.046076;1.000000
445642.31760223;5696593.08309944;471.26954987;129;122;113;31611.000000;1.000000;1.000000;1.000000;1.000000;0.028025;-0.028025;0.028025;1.000000
445642.24710281;5696593.00549896;471.27244999;115;110;102;28270.000000;1.000000;1.000000;1.000000;1.000000;0.098524;-0.098524;0.098524;1.000000
445642.24839981;5696592.97029884;471.27444984;170;165;158;42405.000000;1.000000;1.000000;1.000000;1.000000;0.100293;-0.100293;0.100293;1.000000
445642.28610046;5696592.97159966;471.26915028;112;107;101;27499.000000;1.000000;1.000000;1.000000;1.000000;0.063965;-0.063965;0.063965;1.000000
445642.35890015;5696592.97419937;471.26784994;75;70;71;18247.000000;1.000000;1.000000;1.000000;1.000000;-0.024708;0.024708;-0.024708;1.000000
445642.18140228;5696593.45010002;471.31675007;121;108;91;28270.000000;1.000000;1.000000;1.000000;1.000000;-0.120122;0.120122;-0.120122;1.000000
445642.14730270;5696593.41109856;471.31934978;185;174;163;45232.000000;1.000000;1.000000;1.000000;1.000000;-0.081099;0.081099;-0.081099;1.000000
445642.30510147;5696592.97229965;471.26304962;106;99;94;25700.000000;1.000000;1.000000;1.000000;1.000000;0.046516;-0.046516;0.046516;1.000000
445642.28940018;5696593.28879936;471.28245022;150;141;130;36494.000000;1.000000;1.000000;1.000000;1.000000;0.041201;-0.041201;0.041201;1.000000
445641.82860001;5696593.41689880;471.34695007;167;162;153;41634.000000;1.000000;1.000000;1.000000;1.000000;-0.088551;0.088551;-0.088551;1.000000
445642.25640305;5696593.21009834;471.28235008;122;116;108;29812.000000;1.000000;1.000000;1.000000;1.000000;0.089224;-0.089224;0.089224;1.000000
445642.25780304;5696593.17489822;471.28195002;137;132;123;33924.000000;1.000000;1.000000;1.000000;1.000000;0.087824;-0.087824;0.087824;1.000000
445641.99710281;5696593.38739975;471.33554985;158;154;147;39578.000000;1.000000;1.000000;1.000000;1.000000;-0.057400;0.057400;-0.057400;1.000000
445642.33300217;5696593.17729958;471.27834990;126;124;117;31611.000000;1.000000;1.000000;1.000000;1.000000;0.012625;-0.012625;0.012625;1.000000
445642.15360077;5696593.24499901;471.30135014;109;103;94;26471.000000;1.000000;1.000000;1.000000;1.000000;0.085121;-0.085121;0.085121;1.000000
445642.37990005;5696592.97459991;471.26874973;48;47;50;12079.000000;1.000000;1.000000;1.000000;1.000000;-0.039896;0.039896;-0.039896;1.000000
445642.25910004;5696593.13749893;471.27924969;169;165;156;42405.000000;1.000000;1.000000;1.000000;1.000000;0.086527;-0.086527;0.086527;1.000000
445642.22630127;5696593.06110008;471.27685024;171;165;157;42405.000000;1.000000;1.000000;1.000000;1.000000;0.119326;-0.119326;0.119326;1.000000
445642.22750290;5696593.02359970;471.27644970;128;123;116;31611.000000;1.000000;1.000000;1.000000;1.000000;0.118124;-0.118124;0.118124;1.000000
445642.40699966;5696593.40369995;471.29845001;198;193;185;49601.000000;1.000000;1.000000;1.000000;1.000000;0.073700;-0.073700;0.073700;1.000000
445642.33530243;5696593.36359985;471.30164959;181;175;165;44975.000000;1.000000;1.000000;1.000000;1.000000;-0.033600;0.033600;-0.033600;1.000000
445642.40950211;5696593.33109863;471.29995014;142;136;128;34952.000000;1.000000;1.000000;1.000000;1.000000;-0.001099;0.001099;-0.001099;1.000000
445642.22860153;5696592.98609932;471.27834990;169;165;159;42405.000000;1.000000;1.000000;1.000000;1.000000;0.117351;-0.117351;0.117351;1.000000
445642.09790237;5696593.44569977;471.34544994;205;201;191;51657.000000;1.000000;1.000000;1.000000;1.000000;-0.115700;0.115700;-0.115700;1.000000
445642.38530167;5696593.44999893;471.30725004;167;161;150;41377.000000;1.000000;1.000000;1.000000;1.000000;-0.119999;0.119999;-0.119999;1.000000
445642.31369980;5696593.40989883;471.30824997;149;145;136;37265.000000;1.000000;1.000000;1.000000;1.000000;-0.079902;0.079902;-0.079902;1.000000
445642.09029968;5696593.40919884;471.33535006;180;172;163;44461.000000;1.000000;1.000000;1.000000;1.000000;-0.079350;0.079350;-0.079350;1.000000
445642.38650330;5696593.41249855;471.30454971;185;180;169;46260.000000;1.000000;1.000000;1.000000;1.000000;-0.082499;0.082499;-0.082499;1.000000
445641.94910248;5696593.40339859;471.34294989;128;124;116;31868.000000;1.000000;1.000000;1.000000;1.000000;-0.073399;0.073399;-0.073399;1.000000
445642.19740112;5696593.49759872;471.32035019;146;137;123;35466.000000;1.000000;1.000000;1.000000;1.000000;-0.167599;0.167599;-0.167599;1.000000
445642.31030090;5696593.50350006;471.31854965;145;141;131;36237.000000;1.000000;1.000000;1.000000;1.000000;-0.173548;0.173548;-0.173548;1.000000
445642.39150055;5696593.33969887;471.30394985;181;177;171;45489.000000;1.000000;1.000000;1.000000;1.000000;-0.009699;0.009699;-0.009699;1.000000
445641.87759979;5696593.36329849;471.34384968;97;92;85;23644.000000;1.000000;1.000000;1.000000;1.000000;-0.033298;0.033298;-0.033298;1.000000
445641.91510208;5696593.36449821;471.34324982;145;142;134;36494.000000;1.000000;1.000000;1.000000;1.000000;-0.034498;0.034498;-0.034498;1.000000
445641.84119995;5696593.32469948;471.34404995;64;63;60;15934.000000;1.000000;1.000000;1.000000;1.000000;0.006906;-0.006906;0.006906;1.000000
445641.87870224;5696593.32589920;471.34345009;117;115;108;29298.000000;1.000000;1.000000;1.000000;1.000000;0.004101;-0.004101;0.004101;1.000000
445641.91629990;5696593.32709892;471.34285023;122;119;111;30583.000000;1.000000;1.000000;1.000000;1.000000;0.002901;-0.002901;0.002901;1.000000
445641.88000305;5696593.29069908;471.34544994;72;71;64;17990.000000;1.000000;1.000000;1.000000;1.000000;0.039301;-0.039301;0.039301;1.000000
445641.91740234;5696593.28959854;471.34474995;105;105;95;26471.000000;1.000000;1.000000;1.000000;1.000000;0.040401;-0.040401;0.040401;1.000000
445641.84589966;5696593.45489891;471.35514977;178;173;164;44461.000000;1.000000;1.000000;1.000000;1.000000;-0.124899;0.124899;-0.124899;1.000000
445641.85430344;5696593.26959999;471.35335018;82;83;72;20817.000000;1.000000;1.000000;1.000000;1.000000;0.060400;-0.060400;0.060400;1.000000
445641.85900314;5696593.11959847;471.35414984;135;145;106;35209.000000;1.000000;1.000000;1.000000;1.000000;0.013376;-0.013376;0.013376;1.000000
445641.93720062;5696593.08729942;471.31535007;123;120;102;30326.000000;1.000000;1.000000;1.000000;1.000000;0.091574;-0.091574;0.091574;1.000000
445641.98280151;5696593.51699837;471.35045006;142;137;128;35209.000000;1.000000;1.000000;1.000000;1.000000;-0.186998;0.186998;-0.186998;1.000000
445641.84760101;5696593.24909981;471.35745003;61;67;50;16191.000000;1.000000;1.000000;1.000000;1.000000;0.080900;-0.080900;0.080900;1.000000
445642.21870239;5696593.47229965;471.31405022;177;166;152;42919.000000;1.000000;1.000000;1.000000;1.000000;-0.142313;0.142313;-0.142313;1.000000
445641.95670135;5696593.25569923;471.33454992;122;123;111;31097.000000;1.000000;1.000000;1.000000;1.000000;0.074301;-0.074301;0.074301;1.000000
445641.81310089;5696593.13760002;471.37325003;75;97;47;21588.000000;1.000000;1.000000;1.000000;1.000000;-0.032526;0.032526;-0.032526;1.000000
445642.03000076;5696593.51969917;471.34565022;167;161;152;41377.000000;1.000000;1.000000;1.000000;1.000000;-0.189725;0.189725;-0.189725;1.000000
445642.17660339;5696593.33869942;471.29655029;187;179;169;46260.000000;1.000000;1.000000;1.000000;1.000000;-0.008699;0.008699;-0.008699;1.000000
445642.14350327;5696593.26229866;471.30114986;135;129;120;33153.000000;1.000000;1.000000;1.000000;1.000000;0.067701;-0.067701;0.067701;1.000000
445642.14470108;5696593.22479828;471.30075027;143;138;129;35466.000000;1.000000;1.000000;1.000000;1.000000;0.105202;-0.105202;0.105202;1.000000
445641.99559982;5696593.42259987;471.33824970;149;145;135;37265.000000;1.000000;1.000000;1.000000;1.000000;-0.092600;0.092600;-0.092600;1.000000
445641.82160004;5696593.15539940;471.37614967;124;144;95;33924.000000;1.000000;1.000000;1.000000;1.000000;-0.024027;0.024027;-0.024027;1.000000
445642.29580124;5696593.36269959;471.29524996;156;147;138;38036.000000;1.000000;1.000000;1.000000;1.000000;-0.032700;0.032700;-0.032700;1.000000
445642.34670074;5696593.06649979;471.26374962;94;87;77;22616.000000;1.000000;1.000000;1.000000;1.000000;-0.001074;0.001074;-0.001074;1.000000
445642.33780106;5696593.04629906;471.26304962;145;137;128;35466.000000;1.000000;1.000000;1.000000;1.000000;0.007826;-0.007826;0.007826;1.000000
445642.37550171;5696593.04979904;471.26244976;190;184;176;47288.000000;1.000000;1.000000;1.000000;1.000000;-0.029875;0.029875;-0.029875;1.000000
445642.30160339;5696593.00999840;471.26335003;203;196;188;50629.000000;1.000000;1.000000;1.000000;1.000000;0.044024;-0.044024;0.044024;1.000000
445642.34029968;5696592.97369965;471.26464989;68;62;62;16191.000000;1.000000;1.000000;1.000000;1.000000;0.022056;-0.022056;0.022056;1.000000
445642.26239975;5696593.49159821;471.31854965;128;122;109;31354.000000;1.000000;1.000000;1.000000;1.000000;-0.161598;0.161598;-0.161598;1.000000
445641.82930191;5696593.42609985;471.35174992;161;156;149;40092.000000;1.000000;1.000000;1.000000;1.000000;-0.097477;0.097477;-0.097477;1.000000
445641.88430222;5696593.43739899;471.34734966;151;144;134;37265.000000;1.000000;1.000000;1.000000;1.000000;-0.107399;0.107399;-0.107399;1.000000
445641.98140152;5696593.52649887;471.35055019;158;153;143;39321.000000;1.000000;1.000000;1.000000;1.000000;-0.196499;0.196499;-0.196499;1.000000
445641.89400299;5696593.21459969;471.34515001;105;113;84;27499.000000;1.000000;1.000000;1.000000;1.000000;0.068210;-0.068210;0.068210;1.000000
445641.90950211;5696593.48629959;471.35605003;125;117;107;30326.000000;1.000000;1.000000;1.000000;1.000000;-0.156300;0.156300;-0.156300;1.000000
445641.83780106;5696593.44389923;471.35465004;170;165;156;42405.000000;1.000000;1.000000;1.000000;1.000000;-0.114168;0.114168;-0.114168;1.000000
445642.02050217;5696593.51820000;471.34754993;153;148;138;38036.000000;1.000000;1.000000;1.000000;1.000000;-0.188362;0.188362;-0.188362;1.000000
445641.93560226;5696593.09679993;471.31775000;105;102;83;25700.000000;1.000000;1.000000;1.000000;1.000000;0.089975;-0.089975;0.089975;1.000000
445642.06870087;5696593.26899918;471.31644966;156;153;145;39321.000000;1.000000;1.000000;1.000000;1.000000;0.061001;-0.061001;0.061001;1.000000
445642.29350098;5696593.41879852;471.30744984;169;162;153;41891.000000;1.000000;1.000000;1.000000;1.000000;-0.088799;0.088799;-0.088799;1.000000
445642.33070190;5696593.41759880;471.30905010;141;137;125;34952.000000;1.000000;1.000000;1.000000;1.000000;-0.087599;0.087599;-0.087599;1.000000
445642.33450134;5696593.38229950;471.30655005;156;150;141;38550.000000;1.000000;1.000000;1.000000;1.000000;-0.052299;0.052299;-0.052299;1.000000
445642.30680283;5696593.11909874;471.27185013;157;153;144;39321.000000;1.000000;1.000000;1.000000;1.000000;0.038824;-0.038824;0.038824;1.000000
445641.85120209;5696593.11099823;471.35364964;117;127;91;30840.000000;1.000000;1.000000;1.000000;1.000000;0.005575;-0.005575;0.005575;1.000000
445641.96310242;5696593.11519821;471.31685020;146;143;128;36494.000000;1.000000;1.000000;1.000000;1.000000;0.117476;-0.117476;0.117476;1.000000
445642.24440201;5696593.50019844;471.32014992;164;155;143;40092.000000;1.000000;1.000000;1.000000;1.000000;-0.170221;0.170221;-0.170221;1.000000
