//X;Y;Z;R;G;B;Intensity;Return Number;Number Of Returns;Scan Direction Flag;Point Source ID;C2M signed distances[-][<0.8];C2M signed distances[<0.4];C2M signed distances[-][<0.2];Stump43
445641.74060257;5696563.03609856;470.55754997;96;94;80;23901.000000;1.000000;1.000000;1.000000;1.000000;-0.136274;0.136274;-0.136274;1.000000
445641.74419983;5696562.99839981;470.55495002;46;39;25;10023.000000;1.000000;1.000000;1.000000;1.000000;-0.132677;0.132677;-0.132677;1.000000
445641.74890335;5696562.92329987;470.55425002;103;99;81;25186.000000;1.000000;1.000000;1.000000;1.000000;0.093300;-0.093300;0.093300;1.000000
445641.82660110;5696562.85299881;470.55224993;152;149;134;38036.000000;1.000000;1.000000;1.000000;1.000000;0.022999;-0.022999;0.022999;1.000000
445641.97700317;5696562.82089813;470.51915004;154;148;124;37779.000000;1.000000;1.000000;1.000000;1.000000;-0.010325;0.010325;-0.010325;1.000000
445641.87300308;5696562.63209923;470.51685001;184;180;170;46260.000000;1.000000;1.000000;1.000000;1.000000;-0.191374;0.191374;-0.191374;1.000000
445641.83699997;5696563.02909859;470.58274986;146;147;124;37008.000000;1.000000;1.000000;1.000000;1.000000;-0.039877;0.039877;-0.039877;1.000000
445641.73019989;5696562.92269905;470.55344989;140;139;125;35209.000000;1.000000;1.000000;1.000000;1.000000;-0.092699;0.092699;-0.092699;1.000000
445641.86730011;5696562.97729881;470.58124997;164;164;142;41377.000000;1.000000;1.000000;1.000000;1.000000;-0.009577;0.009577;-0.009577;1.000000
445641.95070084;5696563.00729950;470.55734994;162;161;143;40863.000000;1.000000;1.000000;1.000000;1.000000;0.073824;-0.073824;0.073824;1.000000
445641.87430008;5696562.59459885;470.51405003;118;114;102;29041.000000;1.000000;1.000000;1.000000;1.000000;-0.190077;0.190077;-0.190077;1.000000
445641.93040283;5696562.59639938;470.51664998;92;86;66;21845.000000;1.000000;1.000000;1.000000;1.000000;-0.133974;0.133974;-0.133974;1.000000
445641.96800049;5696562.59759911;470.51604988;136;134;117;33924.000000;1.000000;1.000000;1.000000;1.000000;-0.096376;0.096376;-0.096376;1.000000
445641.91160019;5696562.59569939;470.51814987;100;92;73;23644.000000;1.000000;1.000000;1.000000;1.000000;-0.152777;0.152777;-0.152777;1.000000
445641.94910248;5696562.59689911;470.51755001;85;82;61;20560.000000;1.000000;1.000000;1.000000;1.000000;-0.115274;0.115274;-0.115274;1.000000
445641.87540253;5696562.55709847;470.51374986;107;107;90;26985.000000;1.000000;1.000000;1.000000;1.000000;-0.188974;0.188974;-0.188974;1.000000
445641.91290100;5696562.55829819;470.51545002;169;163;144;41634.000000;1.000000;1.000000;1.000000;1.000000;-0.151476;0.151476;-0.151476;1.000000
445641.95040329;5696562.55949982;470.51475002;120;112;91;28784.000000;1.000000;1.000000;1.000000;1.000000;-0.113974;0.113974;-0.113974;1.000000
445641.97820099;5696562.94419868;470.54154994;127;127;111;32125.000000;1.000000;1.000000;1.000000;1.000000;0.101324;-0.101324;0.101324;1.000000
445641.94410141;5696562.90529831;470.54425003;111;111;92;27756.000000;1.000000;1.000000;1.000000;1.000000;0.067225;-0.067225;0.067225;1.000000
445641.94520004;5696562.86779984;470.54384996;160;159;136;40092.000000;1.000000;1.000000;1.000000;1.000000;0.038183;-0.038183;0.038183;1.000000
445641.58450134;5696562.83359917;470.54114987;148;149;136;37779.000000;1.000000;1.000000;1.000000;1.000000;-0.136173;0.136173;-0.136173;1.000000
445641.87460144;5696562.78799828;470.54434993;137;131;115;33667.000000;1.000000;1.000000;1.000000;1.000000;-0.042002;0.042002;-0.042002;1.000000
445641.98780258;5696562.75699814;470.50954988;152;151;140;38550.000000;1.000000;1.000000;1.000000;1.000000;-0.073002;0.073002;-0.073002;1.000000
445641.86310013;5696563.08729942;470.59165003;73;72;49;17733.000000;1.000000;1.000000;1.000000;1.000000;-0.013777;0.013777;-0.013777;1.000000
445641.79390152;5696562.93529900;470.56574990;107;102;75;25700.000000;1.000000;1.000000;1.000000;1.000000;-0.082975;0.082975;-0.082975;1.000000
445641.72170074;5696563.10799988;470.55524995;155;156;140;39321.000000;1.000000;1.000000;1.000000;1.000000;-0.155176;0.155176;-0.155176;1.000000
445641.72300156;5696563.07049950;470.55254986;98;95;77;23901.000000;1.000000;1.000000;1.000000;1.000000;-0.153875;0.153875;-0.153875;1.000000
445641.91680344;5696562.89369972;470.55454995;79;77;57;19275.000000;1.000000;1.000000;1.000000;1.000000;0.039927;-0.039927;0.039927;1.000000
445641.84539993;5696562.85359962;470.55084993;169;166;151;42405.000000;1.000000;1.000000;1.000000;1.000000;0.023600;-0.023600;0.023600;1.000000
445641.98370178;5696563.08369835;470.55285003;157;158;132;39578.000000;1.000000;1.000000;1.000000;1.000000;0.106825;-0.106825;0.106825;1.000000
445641.97500046;5696563.09149940;470.55484988;154;156;130;39064.000000;1.000000;1.000000;1.000000;1.000000;0.098124;-0.098124;0.098124;1.000000
445641.79790314;5696563.08419998;470.57935001;23;24;13;5654.000000;1.000000;1.000000;1.000000;1.000000;-0.078974;0.078974;-0.078974;1.000000
445641.72810181;5696562.96979912;470.54224994;69;61;46;15677.000000;1.000000;1.000000;1.000000;1.000000;-0.139799;0.139799;-0.139799;1.000000
445641.87510117;5696563.01149948;470.58434989;115;115;89;28784.000000;1.000000;1.000000;1.000000;1.000000;-0.001776;0.001776;-0.001776;1.000000
445641.87670334;5696562.97639854;470.57935001;151;151;131;38036.000000;1.000000;1.000000;1.000000;1.000000;-0.000174;0.000174;-0.000174;1.000000
445641.95360001;5696562.90679939;470.54234983;130;129;112;32639.000000;1.000000;1.000000;1.000000;1.000000;0.076723;-0.076723;0.076723;1.000000
445641.80790146;5696562.82449921;470.54414989;177;173;158;44204.000000;1.000000;1.000000;1.000000;1.000000;-0.005501;0.005501;-0.005501;1.000000
445641.92040070;5696562.82809837;470.54694988;136;133;111;33667.000000;1.000000;1.000000;1.000000;1.000000;-0.001902;0.001902;-0.001902;1.000000
445641.68690308;5696563.06209953;470.55775001;132;127;111;32382.000000;1.000000;1.000000;1.000000;1.000000;-0.189974;0.189974;-0.189974;1.000000
445641.79549988;5696562.89789970;470.55604984;119;117;95;29555.000000;1.000000;1.000000;1.000000;1.000000;0.067900;-0.067900;0.067900;1.000000
445641.83460052;5696562.86389931;470.55274989;176;173;158;44204.000000;1.000000;1.000000;1.000000;1.000000;0.033899;-0.033899;0.033899;1.000000
445641.72470291;5696563.06339844;470.55254986;76;73;56;18504.000000;1.000000;1.000000;1.000000;1.000000;-0.152174;0.152174;-0.152174;1.000000
445641.87170227;5696562.86279877;470.55674984;153;150;133;38293.000000;1.000000;1.000000;1.000000;1.000000;-0.005175;0.005175;-0.005175;1.000000
445641.98510178;5696562.83189972;470.51724984;146;141;118;35723.000000;1.000000;1.000000;1.000000;1.000000;0.001900;-0.001900;0.001900;1.000000
445641.73299988;5696562.63569839;470.51755001;162;165;157;41891.000000;1.000000;1.000000;1.000000;1.000000;-0.194302;0.194302;-0.194302;1.000000
445641.87330063;5696563.06999977;470.58955004;108;107;83;26728.000000;1.000000;1.000000;1.000000;1.000000;-0.003576;0.003576;-0.003576;1.000000
445641.80770309;5696562.63569839;470.52084996;130;131;120;33153.000000;1.000000;1.000000;1.000000;1.000000;-0.194302;0.194302;-0.194302;1.000000
445641.87450226;5696563.03249939;470.58914997;120;119;92;29812.000000;1.000000;1.000000;1.000000;1.000000;-0.002375;0.002375;-0.002375;1.000000
445641.95129974;5696562.96059998;470.54985001;146;146;131;37008.000000;1.000000;1.000000;1.000000;1.000000;0.074423;-0.074423;0.074423;1.000000
445641.76830109;5696562.87949951;470.55224993;134;132;114;33410.000000;1.000000;1.000000;1.000000;1.000000;-0.049500;0.049500;-0.049500;1.000000
445641.88430222;5696562.60299881;470.51694991;130;125;113;32125.000000;1.000000;1.000000;1.000000;1.000000;-0.180075;0.180075;-0.180075;1.000000
445641.88560303;5696562.56549843;470.51425006;143;141;125;35723.000000;1.000000;1.000000;1.000000;1.000000;-0.178774;0.178774;-0.178774;1.000000
445641.92300232;5696562.56669815;470.51594998;160;153;131;39064.000000;1.000000;1.000000;1.000000;1.000000;-0.141375;0.141375;-0.141375;1.000000
445641.63950165;5696562.89180000;470.53034999;83;80;66;20303.000000;1.000000;1.000000;1.000000;1.000000;-0.101983;0.101983;-0.101983;1.000000
445641.95890244;5696562.77589996;470.51545002;90;88;72;22102.000000;1.000000;1.000000;1.000000;1.000000;-0.054100;0.054100;-0.054100;1.000000
445641.86030014;5696562.94769867;470.57124998;103;103;74;25443.000000;1.000000;1.000000;1.000000;1.000000;-0.016577;0.016577;-0.016577;1.000000
445641.96570023;5696562.62570007;470.52094986;145;146;130;36751.000000;1.000000;1.000000;1.000000;1.000000;-0.098677;0.098677;-0.098677;1.000000
445641.96960266;5696562.97999962;470.54624989;163;164;147;41377.000000;1.000000;1.000000;1.000000;1.000000;0.092726;-0.092726;0.092726;1.000000
445641.71590240;5696563.01529892;470.54224994;164;159;142;40606.000000;1.000000;1.000000;1.000000;1.000000;-0.160975;0.160975;-0.160975;1.000000
445641.76190002;5696562.83119972;470.54215004;163;162;145;41120.000000;1.000000;1.000000;1.000000;1.000000;-0.001200;0.001200;-0.001200;1.000000
445641.65170105;5696563.00479897;470.54614999;194;190;169;48316.000000;1.000000;1.000000;1.000000;1.000000;-0.187897;0.187897;-0.187897;1.000000
445641.80160339;5696562.97399910;470.58054997;105;104;79;25957.000000;1.000000;1.000000;1.000000;1.000000;-0.075274;0.075274;-0.075274;1.000000
445641.88280304;5696562.82689865;470.54754998;131;127;109;32382.000000;1.000000;1.000000;1.000000;1.000000;-0.006132;0.006132;-0.006132;1.000000
445641.98370178;5696563.05579956;470.54784991;164;163;137;41120.000000;1.000000;1.000000;1.000000;1.000000;0.106825;-0.106825;0.106825;1.000000
445641.81760223;5696563.04719933;470.58445003;104;105;84;26214.000000;1.000000;1.000000;1.000000;1.000000;-0.059275;0.059275;-0.059275;1.000000
445641.82660110;5696562.82510002;470.54495003;123;121;108;30840.000000;1.000000;1.000000;1.000000;1.000000;-0.004900;0.004900;-0.004900;1.000000
445641.89439972;5696562.58569916;470.51484992;123;118;102;30069.000000;1.000000;1.000000;1.000000;1.000000;-0.169977;0.169977;-0.169977;1.000000
445641.89570053;5696562.54829987;470.51214983;151;147;131;37522.000000;1.000000;1.000000;1.000000;1.000000;-0.168676;0.168676;-0.168676;1.000000
445641.79820068;5696563.11219986;470.57974984;18;16;7;3855.000000;1.000000;1.000000;1.000000;1.000000;-0.078676;0.078676;-0.078676;1.000000
445641.79800232;5696563.03739937;470.58344986;76;77;59;19018.000000;1.000000;1.000000;1.000000;1.000000;-0.078875;0.078875;-0.078875;1.000000
445641.98640259;5696563.00879868;470.54504992;145;144;125;36494.000000;1.000000;1.000000;1.000000;1.000000;0.109526;-0.109526;0.109526;1.000000
445641.72459991;5696562.83000000;470.53574993;102;101;82;25443.000000;1.000000;1.000000;1.000000;1.000000;0.000000;0.000000;0.000000;1.000000
445641.77410324;5696562.75779922;470.53244998;111;111;95;28013.000000;1.000000;1.000000;1.000000;1.000000;-0.072201;0.072201;-0.072201;1.000000
445641.65290268;5696562.76199921;470.53405001;133;134;123;33924.000000;1.000000;1.000000;1.000000;1.000000;0.095972;-0.095972;0.095972;1.000000
445641.80330093;5696562.76909836;470.53154995;160;157;141;40092.000000;1.000000;1.000000;1.000000;1.000000;-0.060902;0.060902;-0.060902;1.000000
445641.91330154;5696562.77279861;470.53664996;106;103;85;25957.000000;1.000000;1.000000;1.000000;1.000000;-0.057435;0.057435;-0.057435;1.000000
445641.65430267;5696562.75249870;470.53394987;119;121;111;30583.000000;1.000000;1.000000;1.000000;1.000000;0.102007;-0.102007;0.102007;1.000000
445641.97790344;5696562.77659996;470.51164987;84;81;66;20560.000000;1.000000;1.000000;1.000000;1.000000;-0.053548;0.053548;-0.053548;1.000000
445641.69040115;5696562.96849831;470.54515006;150;147;136;37522.000000;1.000000;1.000000;1.000000;1.000000;-0.141758;0.141758;-0.141758;1.000000
445641.58130081;5696562.92729958;470.54674985;139;139;127;35209.000000;1.000000;1.000000;1.000000;1.000000;-0.169938;0.169938;-0.169938;1.000000
445641.58260162;5696562.88979919;470.54405000;203;205;195;52171.000000;1.000000;1.000000;1.000000;1.000000;-0.150422;0.150422;-0.150422;1.000000
445641.79890259;5696563.04659851;470.58364989;64;66;49;16191.000000;1.000000;1.000000;1.000000;1.000000;-0.077974;0.077974;-0.077974;1.000000
445641.76910217;5696562.86079987;470.54744985;141;140;117;35209.000000;1.000000;1.000000;1.000000;1.000000;-0.030800;0.030800;-0.030800;1.000000
445641.88410004;5696562.78939827;470.54484989;115;110;95;28013.000000;1.000000;1.000000;1.000000;1.000000;-0.040798;0.040798;-0.040798;1.000000
445641.67250259;5696562.91909988;470.52744987;106;101;85;25700.000000;1.000000;1.000000;1.000000;1.000000;-0.101266;0.101266;-0.101266;1.000000
445641.93309982;5696562.54939850;470.51624991;181;173;154;44461.000000;1.000000;1.000000;1.000000;1.000000;-0.131277;0.131277;-0.131277;1.000000
445641.67469986;5696562.89320000;470.52954986;108;105;86;26471.000000;1.000000;1.000000;1.000000;1.000000;-0.078125;0.078125;-0.078125;1.000000
445641.86390121;5696562.88209923;470.56364991;158;156;140;39578.000000;1.000000;1.000000;1.000000;1.000000;-0.012976;0.012976;-0.012976;1.000000
445641.68000229;5696562.79929932;470.52874996;74;73;62;18504.000000;1.000000;1.000000;1.000000;1.000000;0.050920;-0.050920;0.050920;1.000000
445641.64070328;5696562.85429962;470.52994992;126;128;110;32125.000000;1.000000;1.000000;1.000000;1.000000;-0.083536;0.083536;-0.083536;1.000000
445641.89980133;5696562.86479958;470.56034996;104;101;80;25443.000000;1.000000;1.000000;1.000000;1.000000;0.022924;-0.022924;0.022924;1.000000
445641.77690323;5696562.95549973;470.56984999;102;95;65;23901.000000;1.000000;1.000000;1.000000;1.000000;-0.099974;0.099974;-0.099974;1.000000
445641.58390244;5696562.85239990;470.54134991;154;155;143;39321.000000;1.000000;1.000000;1.000000;1.000000;-0.138547;0.138547;-0.138547;1.000000
445641.84660156;5696562.78819855;470.54544999;154;149;134;38036.000000;1.000000;1.000000;1.000000;1.000000;0.041801;-0.041801;0.041801;1.000000
445641.71960266;5696562.93079956;470.54604985;122;118;104;30069.000000;1.000000;1.000000;1.000000;1.000000;-0.100805;0.100805;-0.100805;1.000000
445641.68270309;5696562.72659882;470.52565004;145;147;137;37265.000000;1.000000;1.000000;1.000000;1.000000;0.110136;-0.110136;0.110136;1.000000
445641.78970154;5696563.04749878;470.58084991;60;63;46;15420.000000;1.000000;1.000000;1.000000;1.000000;-0.087175;0.087175;-0.087175;1.000000
445641.67730148;5696563.06059845;470.55964996;135;131;115;33410.000000;1.000000;1.000000;1.000000;1.000000;-0.199575;0.199575;-0.199575;1.000000
445641.75970276;5696562.85929878;470.54464986;126;125;101;31354.000000;1.000000;1.000000;1.000000;1.000000;-0.029299;0.029299;-0.029299;1.000000
445641.56500061;5696562.85169991;470.54274990;148;150;136;37779.000000;1.000000;1.000000;1.000000;1.000000;-0.157132;0.157132;-0.157132;1.000000
445641.80300339;5696562.96229942;470.57585003;55;53;25;12850.000000;1.000000;1.000000;1.000000;1.000000;-0.073874;0.073874;-0.073874;1.000000
445641.94550140;5696562.66249855;470.52744987;147;144;126;36494.000000;1.000000;1.000000;1.000000;1.000000;-0.119515;0.119515;-0.119515;1.000000
445641.98500259;5696563.01829918;470.54515006;166;165;144;41634.000000;1.000000;1.000000;1.000000;1.000000;0.108126;-0.108126;0.108126;1.000000
445641.83049973;5696562.95509918;470.57464983;58;58;26;13878.000000;1.000000;1.000000;1.000000;1.000000;-0.046377;0.046377;-0.046377;1.000000
445641.98910339;5696562.93400009;470.53725006;107;107;91;26985.000000;1.000000;1.000000;1.000000;1.000000;0.104000;-0.104000;0.104000;1.000000
445641.72200211;5696562.87699898;470.53615000;66;60;32;14906.000000;1.000000;1.000000;1.000000;1.000000;-0.046999;0.046999;-0.046999;1.000000
445641.86960037;5696562.92119987;470.56904985;130;129;111;32639.000000;1.000000;1.000000;1.000000;1.000000;-0.007277;0.007277;-0.007277;1.000000
445641.68060120;5696563.01379974;470.54524996;142;137;120;34952.000000;1.000000;1.000000;1.000000;1.000000;-0.188107;0.188107;-0.188107;1.000000
445641.71600159;5696563.04549988;470.55195000;123;118;102;30069.000000;1.000000;1.000000;1.000000;1.000000;-0.160875;0.160875;-0.160875;1.000000
445641.90710266;5696562.67999847;470.53285005;173;167;152;42919.000000;1.000000;1.000000;1.000000;1.000000;-0.150002;0.150002;-0.150002;1.000000
445641.86430176;5696563.04979904;470.59124996;149;149;126;37522.000000;1.000000;1.000000;1.000000;1.000000;-0.012575;0.012575;-0.012575;1.000000
445641.77150162;5696563.07269867;470.57104995;81;81;67;20303.000000;1.000000;1.000000;1.000000;1.000000;-0.105375;0.105375;-0.105375;1.000000
445641.91940125;5696563.08000000;470.57314994;99;102;73;24929.000000;1.000000;1.000000;1.000000;1.000000;0.042524;-0.042524;0.042524;1.000000
445641.77130325;5696562.99790009;470.57474997;83;82;66;20560.000000;1.000000;1.000000;1.000000;1.000000;-0.105574;0.105574;-0.105574;1.000000
445641.62550171;5696562.91869934;470.53234984;144;140;125;35723.000000;1.000000;1.000000;1.000000;1.000000;-0.130063;0.130063;-0.130063;1.000000
445641.77520187;5696562.96259888;470.57224991;93;86;59;21845.000000;1.000000;1.000000;1.000000;1.000000;-0.101675;0.101675;-0.101675;1.000000
445641.81250198;5696562.96369942;470.57624986;59;59;28;14135.000000;1.000000;1.000000;1.000000;1.000000;-0.064375;0.064375;-0.064375;1.000000
445641.70420273;5696562.88569839;470.53314998;129;126;105;31868.000000;1.000000;1.000000;1.000000;1.000000;-0.058069;0.058069;-0.058069;1.000000
445642.00000198;5696562.89799889;470.53274991;142;142;126;35980.000000;1.000000;1.000000;1.000000;1.000000;0.067999;-0.067999;0.067999;1.000000
445641.74400146;5696562.81189926;470.53644993;152;150;129;38036.000000;1.000000;1.000000;1.000000;1.000000;-0.018101;0.018101;-0.018101;1.000000
445641.78289993;5696562.77569969;470.53075006;127;125;108;31611.000000;1.000000;1.000000;1.000000;1.000000;-0.054300;0.054300;-0.054300;1.000000
445641.82030304;5696562.77909859;470.53714993;178;175;160;44718.000000;1.000000;1.000000;1.000000;1.000000;0.050901;-0.050901;0.050901;1.000000
445641.78540237;5696562.70299919;470.53234984;182;181;171;46260.000000;1.000000;1.000000;1.000000;1.000000;-0.127001;0.127001;-0.127001;1.000000
445641.86030014;5696562.70529945;470.53574993;237;235;223;60138.000000;1.000000;1.000000;1.000000;1.000000;-0.124701;0.124701;-0.124701;1.000000
445641.89770325;5696562.70649918;470.53744986;158;153;138;39064.000000;1.000000;1.000000;1.000000;1.000000;-0.123501;0.123501;-0.123501;1.000000
445641.96339996;5696562.70069893;470.51934983;155;155;135;39064.000000;1.000000;1.000000;1.000000;1.000000;-0.112991;0.112991;-0.112991;1.000000
445641.94090088;5696562.97779854;470.55664994;151;151;135;38293.000000;1.000000;1.000000;1.000000;1.000000;0.064024;-0.064024;0.064024;1.000000
445641.79720123;5696562.86279877;470.55104997;104;104;89;26214.000000;1.000000;1.000000;1.000000;1.000000;0.032799;-0.032799;0.032799;1.000000
445641.90950211;5696562.86629875;470.55614998;81;78;56;19532.000000;1.000000;1.000000;1.000000;1.000000;0.032625;-0.032625;0.032625;1.000000
445641.91090210;5696562.82889946;470.55114986;164;160;139;40606.000000;1.000000;1.000000;1.000000;1.000000;-0.002985;0.002985;-0.002985;1.000000
445641.90509995;5696563.00419815;470.57624986;156;155;134;39064.000000;1.000000;1.000000;1.000000;1.000000;0.028223;-0.028223;0.028223;1.000000
445641.95360001;5696562.72029884;470.51915004;102;102;82;25443.000000;1.000000;1.000000;1.000000;1.000000;-0.109701;0.109701;-0.109701;1.000000
445641.88070114;5696562.64059837;470.51954987;139;132;121;33924.000000;1.000000;1.000000;1.000000;1.000000;-0.183676;0.183676;-0.183676;1.000000
445641.94700058;5696563.04489906;470.56235005;143;144;117;35980.000000;1.000000;1.000000;1.000000;1.000000;0.070124;-0.070124;0.070124;1.000000
445641.83770187;5696563.01260002;470.58494999;112;111;88;27756.000000;1.000000;1.000000;1.000000;1.000000;-0.039175;0.039175;-0.039175;1.000000
445641.64220245;5696563.00339897;470.54574992;186;181;160;46260.000000;1.000000;1.000000;1.000000;1.000000;-0.190309;0.190309;-0.190309;1.000000
445641.69860275;5696563.03309830;470.54865005;137;133;118;33924.000000;1.000000;1.000000;1.000000;1.000000;-0.178274;0.178274;-0.178274;1.000000
445641.55730255;5696562.84319885;470.53994991;159;160;145;40606.000000;1.000000;1.000000;1.000000;1.000000;-0.163857;0.163857;-0.163857;1.000000
445641.82830246;5696563.01120003;470.58454992;126;124;102;31354.000000;1.000000;1.000000;1.000000;1.000000;-0.048574;0.048574;-0.048574;1.000000
445641.86570175;5696563.01239975;470.58624985;85;85;59;21074.000000;1.000000;1.000000;1.000000;1.000000;-0.011175;0.011175;-0.011175;1.000000
445641.90130051;5696563.01389893;470.57854988;136;137;114;34438.000000;1.000000;1.000000;1.000000;1.000000;0.024424;-0.024424;0.024424;1.000000
445641.87750061;5696562.95769890;470.57445004;122;122;99;30583.000000;1.000000;1.000000;1.000000;1.000000;0.000624;-0.000624;0.000624;1.000000
445641.87530334;5696563.04179962;470.58935000;125;124;99;31097.000000;1.000000;1.000000;1.000000;1.000000;-0.001574;0.001574;-0.001574;1.000000
445641.99580200;5696563.00799950;470.54314997;139;138;119;34952.000000;1.000000;1.000000;1.000000;1.000000;0.118925;-0.118925;0.118925;1.000000
445641.98940094;5696562.96199997;470.53764989;174;175;160;44461.000000;1.000000;1.000000;1.000000;1.000000;0.112524;-0.112524;0.112524;1.000000
445641.99060257;5696562.92449959;470.53725006;116;116;101;29298.000000;1.000000;1.000000;1.000000;1.000000;0.094500;-0.094500;0.094500;1.000000
445641.75660141;5696562.76649864;470.52475001;95;96;81;24158.000000;1.000000;1.000000;1.000000;1.000000;0.063501;-0.063501;0.063501;1.000000
445641.62230118;5696562.83489998;470.53355004;196;198;186;50372.000000;1.000000;1.000000;1.000000;1.000000;-0.098448;0.098448;-0.098448;1.000000
445641.95639999;5696562.88559921;470.53994991;145;144;125;36494.000000;1.000000;1.000000;1.000000;1.000000;0.055599;-0.055599;0.055599;1.000000
445641.62350281;5696562.79739960;470.53314998;193;193;182;49087.000000;1.000000;1.000000;1.000000;1.000000;0.102449;-0.102449;0.102449;1.000000
445641.68510254;5696563.06919868;470.56014993;118;116;97;29298.000000;1.000000;1.000000;1.000000;1.000000;-0.191774;0.191774;-0.191774;1.000000
445641.85110291;5696562.73189934;470.53565003;144;142;129;36237.000000;1.000000;1.000000;1.000000;1.000000;0.098101;-0.098101;0.098101;1.000000
445641.89230164;5696563.07069977;470.58344986;72;74;47;17990.000000;1.000000;1.000000;1.000000;1.000000;0.015425;-0.015425;0.015425;1.000000
445641.91620071;5696562.96829994;470.56705000;160;160;144;40606.000000;1.000000;1.000000;1.000000;1.000000;0.039324;-0.039324;0.039324;1.000000
445641.84150131;5696562.89119919;470.56034996;152;152;135;38550.000000;1.000000;1.000000;1.000000;1.000000;-0.035376;0.035376;-0.035376;1.000000
445641.88110168;5696562.89209946;470.56454994;125;123;105;31097.000000;1.000000;1.000000;1.000000;1.000000;0.004225;-0.004225;0.004225;1.000000
445641.69620331;5696562.84679993;470.52764990;178;176;160;44718.000000;1.000000;1.000000;1.000000;1.000000;-0.029644;0.029644;-0.029644;1.000000
445641.99200256;5696562.85909851;470.52484991;181;180;162;45746.000000;1.000000;1.000000;1.000000;1.000000;0.029099;-0.029099;0.029099;1.000000
445641.95790298;5696562.82020004;470.52755000;125;121;98;30583.000000;1.000000;1.000000;1.000000;1.000000;-0.009800;0.009800;-0.009800;1.000000
445641.66450317;5696562.73299988;470.52724983;115;118;108;29555.000000;1.000000;1.000000;1.000000;1.000000;0.112066;-0.112066;0.112066;1.000000
445641.92500122;5696562.74379929;470.52744987;91;89;71;22359.000000;1.000000;1.000000;1.000000;1.000000;-0.086201;0.086201;-0.086201;1.000000
445641.92749985;5696562.67119987;470.52904989;138;132;114;33667.000000;1.000000;1.000000;1.000000;1.000000;-0.138481;0.138481;-0.138481;1.000000
445641.68940170;5696563.00609978;470.54094984;139;135;120;34438.000000;1.000000;1.000000;1.000000;1.000000;-0.178847;0.178847;-0.178847;1.000000
445641.54860123;5696562.85089882;470.54204990;131;131;114;33153.000000;1.000000;1.000000;1.000000;1.000000;-0.173290;0.173290;-0.173290;1.000000
445641.86400040;5696562.85419853;470.55394985;155;150;134;38293.000000;1.000000;1.000000;1.000000;1.000000;-0.012877;0.012877;-0.012877;1.000000
445641.97860153;5696562.78579910;470.51405003;112;108;94;27499.000000;1.000000;1.000000;1.000000;1.000000;-0.044323;0.044323;-0.044323;1.000000
445641.89050110;5696562.62099846;470.51985003;134;127;113;32639.000000;1.000000;1.000000;1.000000;1.000000;-0.173876;0.173876;-0.173876;1.000000
445641.71430023;5696563.05259903;470.55195000;104;99;82;25186.000000;1.000000;1.000000;1.000000;1.000000;-0.162577;0.162577;-0.162577;1.000000
445641.86290176;5696563.05929955;470.59134986;159;158;136;39835.000000;1.000000;1.000000;1.000000;1.000000;-0.013975;0.013975;-0.013975;1.000000
445641.89850052;5696563.10759933;470.57484986;26;27;10;6168.000000;1.000000;1.000000;1.000000;1.000000;0.021624;-0.021624;0.021624;1.000000
445641.97570236;5696563.07279976;470.55235006;172;174;147;43690.000000;1.000000;1.000000;1.000000;1.000000;0.098825;-0.098825;0.098825;1.000000
445641.94310196;5696562.94959839;470.55404999;158;159;143;40092.000000;1.000000;1.000000;1.000000;1.000000;0.066225;-0.066225;0.066225;1.000000
445641.95450027;5696563.10029991;470.56104996;136;140;112;34695.000000;1.000000;1.000000;1.000000;1.000000;0.077623;-0.077623;0.077623;1.000000
445641.75910004;5696562.90599831;470.55215003;131;128;109;32382.000000;1.000000;1.000000;1.000000;1.000000;-0.075998;0.075998;-0.075998;1.000000
445641.79770096;5696562.86969955;470.55355002;136;135;118;34181.000000;1.000000;1.000000;1.000000;1.000000;0.039700;-0.039700;0.039700;1.000000
445641.91160019;5696562.83809860;470.55364992;158;154;132;39064.000000;1.000000;1.000000;1.000000;1.000000;0.008812;-0.008812;0.008812;1.000000
445641.69130142;5696562.71659859;470.52125003;153;155;147;39321.000000;1.000000;1.000000;1.000000;1.000000;0.117132;-0.117132;0.117132;1.000000
445641.65240295;5696562.98609932;470.54364993;177;172;154;43947.000000;1.000000;1.000000;1.000000;1.000000;-0.170357;0.170357;-0.170357;1.000000
445641.72850235;5696562.95099838;470.54434993;35;26;12;6939.000000;1.000000;1.000000;1.000000;1.000000;-0.120998;0.120998;-0.120998;1.000000
445641.79730042;5696563.10289963;470.57955005;15;13;5;3084.000000;1.000000;1.000000;1.000000;1.000000;-0.079576;0.079576;-0.079576;1.000000
445641.91660126;5696563.09899910;470.57095005;71;75;51;18247.000000;1.000000;1.000000;1.000000;1.000000;0.039724;-0.039724;0.039724;1.000000
445641.92000015;5696563.06129845;470.57294991;153;156;127;38807.000000;1.000000;1.000000;1.000000;1.000000;0.043123;-0.043123;0.043123;1.000000
445641.77100189;5696563.01899918;470.57504990;130;130;115;32896.000000;1.000000;1.000000;1.000000;1.000000;-0.105875;0.105875;-0.105875;1.000000
445641.62479980;5696562.93739899;470.53484990;172;167;153;42662.000000;1.000000;1.000000;1.000000;1.000000;-0.143935;0.143935;-0.143935;1.000000
445641.62830170;5696562.89969833;470.53454997;92;89;74;22616.000000;1.000000;1.000000;1.000000;1.000000;-0.115680;0.115680;-0.115680;1.000000
445641.81330307;5696562.94499977;470.57145001;66;65;34;15677.000000;1.000000;1.000000;1.000000;1.000000;-0.063574;0.063574;-0.063574;1.000000
445641.70330246;5696562.90209969;470.53565003;81;79;60;19789.000000;1.000000;1.000000;1.000000;1.000000;-0.074152;0.074152;-0.074152;1.000000
445641.70470245;5696562.86689957;470.53524997;125;122;102;30840.000000;1.000000;1.000000;1.000000;1.000000;-0.040189;0.040189;-0.040189;1.000000
445641.99930008;5696562.91669853;470.53524997;101;102;86;25443.000000;1.000000;1.000000;1.000000;1.000000;0.086699;-0.086699;0.086699;1.000000
445641.82120331;5696562.76039894;470.53224995;174;172;157;43690.000000;1.000000;1.000000;1.000000;1.000000;0.069601;-0.069601;0.069601;1.000000
445641.89710052;5696562.72519882;470.53764989;118;115;98;29298.000000;1.000000;1.000000;1.000000;1.000000;-0.104801;0.104801;-0.104801;1.000000
445641.86110123;5696562.68669899;470.53084995;226;223;212;57054.000000;1.000000;1.000000;1.000000;1.000000;-0.143301;0.143301;-0.143301;1.000000
445641.89840134;5696562.68779953;470.53495004;172;166;151;42662.000000;1.000000;1.000000;1.000000;1.000000;-0.142200;0.142200;-0.142200;1.000000
445641.57150085;5696562.92569931;470.55324986;157;156;143;39578.000000;1.000000;1.000000;1.000000;1.000000;-0.177192;0.177192;-0.177192;1.000000
445641.75819977;5696562.89669998;470.55204989;122;119;101;30069.000000;1.000000;1.000000;1.000000;1.000000;-0.066700;0.066700;-0.066700;1.000000
445641.82700165;5696563.04859932;470.58725001;129;132;111;32896.000000;1.000000;1.000000;1.000000;1.000000;-0.049875;0.049875;-0.049875;1.000000
445641.79510315;5696563.10309990;470.57714989;12;11;4;2570.000000;1.000000;1.000000;1.000000;1.000000;-0.081774;0.081774;-0.081774;1.000000
445641.92189987;5696562.60649879;470.51874997;124;117;100;30069.000000;1.000000;1.000000;1.000000;1.000000;-0.142477;0.142477;-0.142477;1.000000
445641.95720108;5696562.60789879;470.51794984;119;116;98;29298.000000;1.000000;1.000000;1.000000;1.000000;-0.107176;0.107176;-0.107176;1.000000
445641.95860107;5696562.57039841;470.51294996;99;93;69;23644.000000;1.000000;1.000000;1.000000;1.000000;-0.105776;0.105776;-0.105776;1.000000
445641.92530258;5696562.69929894;470.53394987;171;169;153;42919.000000;1.000000;1.000000;1.000000;1.000000;-0.130701;0.130701;-0.130701;1.000000
445641.80780228;5696563.06679924;470.58424999;56;58;41;14135.000000;1.000000;1.000000;1.000000;1.000000;-0.069075;0.069075;-0.069075;1.000000
445641.62420090;5696562.98409851;470.54234983;163;158;141;40349.000000;1.000000;1.000000;1.000000;1.000000;-0.181781;0.181781;-0.181781;1.000000
445641.89560135;5696562.94909866;470.57054998;157;157;138;39578.000000;1.000000;1.000000;1.000000;1.000000;0.018724;-0.018724;0.018724;1.000000
445641.93150146;5696562.97859962;470.56084992;147;147;130;37265.000000;1.000000;1.000000;1.000000;1.000000;0.054625;-0.054625;0.054625;1.000000
445641.89710052;5696562.93969925;470.56815006;120;120;102;30326.000000;1.000000;1.000000;1.000000;1.000000;0.020224;-0.020224;0.020224;1.000000
445641.67600067;5696562.85569962;470.52685000;175;175;160;44461.000000;1.000000;1.000000;1.000000;1.000000;-0.051497;0.051497;-0.051497;1.000000
445641.97319992;5696562.91439827;470.53865005;155;155;140;39321.000000;1.000000;1.000000;1.000000;1.000000;0.084437;-0.084437;0.084437;1.000000
445641.97229965;5696562.87719925;470.53355004;180;179;159;45489.000000;1.000000;1.000000;1.000000;1.000000;0.047229;-0.047229;0.047229;1.000000
445641.60600098;5696562.78729828;470.53684999;78;79;66;19789.000000;1.000000;1.000000;1.000000;1.000000;0.122321;-0.122321;0.122321;1.000000
445641.64140137;5696562.78869827;470.53384997;173;173;162;43947.000000;1.000000;1.000000;1.000000;1.000000;0.089345;-0.089345;0.089345;1.000000
445641.79170044;5696562.79579933;470.53374984;172;168;152;42919.000000;1.000000;1.000000;1.000000;1.000000;-0.034201;0.034201;-0.034201;1.000000
445641.93970306;5696562.80309875;470.53355004;177;173;154;44204.000000;1.000000;1.000000;1.000000;1.000000;-0.026903;0.026903;-0.026903;1.000000
445641.90520294;5696562.76190002;470.53845002;105;103;84;25957.000000;1.000000;1.000000;1.000000;1.000000;-0.068100;0.068100;-0.068100;1.000000
445641.92080124;5696563.04479988;470.57274987;148;149;123;37265.000000;1.000000;1.000000;1.000000;1.000000;0.043924;-0.043924;0.043924;1.000000
445641.79370316;5696563.11269959;470.57484986;15;13;5;3084.000000;1.000000;1.000000;1.000000;1.000000;-0.083174;0.083174;-0.083174;1.000000
445641.98790176;5696562.97139938;470.53764989;186;186;172;47288.000000;1.000000;1.000000;1.000000;1.000000;0.111025;-0.111025;0.111025;1.000000
445641.98340042;5696562.86919983;470.52924993;176;175;157;44461.000000;1.000000;1.000000;1.000000;1.000000;0.039200;-0.039200;0.039200;1.000000
445641.78059967;5696562.80379875;470.53565003;174;170;151;43433.000000;1.000000;1.000000;1.000000;1.000000;-0.026201;0.026201;-0.026201;1.000000
445641.91000183;5696563.08079918;470.57504990;77;79;52;19275.000000;1.000000;1.000000;1.000000;1.000000;0.033125;-0.033125;0.033125;1.000000
445641.76340302;5696563.03609856;470.57025005;102;102;88;25700.000000;1.000000;1.000000;1.000000;1.000000;-0.113474;0.113474;-0.113474;1.000000
445641.76450165;5696562.99859818;470.57215001;73;71;55;17733.000000;1.000000;1.000000;1.000000;1.000000;-0.112375;0.112375;-0.112375;1.000000
445641.76810272;5696562.96089943;470.56955006;93;86;60;21845.000000;1.000000;1.000000;1.000000;1.000000;-0.108774;0.108774;-0.108774;1.000000
445641.61840256;5696562.91929825;470.53664996;138;134;120;34181.000000;1.000000;1.000000;1.000000;1.000000;-0.135735;0.135735;-0.135735;1.000000
445641.87970169;5696562.92959984;470.56955006;130;129;111;32639.000000;1.000000;1.000000;1.000000;1.000000;0.002825;-0.002825;0.002825;1.000000
445641.69480331;5696562.88429840;470.53274991;119;118;100;29812.000000;1.000000;1.000000;1.000000;1.000000;-0.060126;0.060126;-0.060126;1.000000
445641.99040039;5696562.89649971;470.53454997;158;158;143;40092.000000;1.000000;1.000000;1.000000;1.000000;0.066500;-0.066500;0.066500;1.000000
445641.95630081;5696562.85759933;470.53725006;155;155;132;39064.000000;1.000000;1.000000;1.000000;1.000000;0.027599;-0.027599;0.027599;1.000000
445641.73480042;5696562.81279953;470.53364994;121;120;98;30069.000000;1.000000;1.000000;1.000000;1.000000;-0.017200;0.017200;-0.017200;1.000000
445641.71450241;5696563.08059891;470.55454995;121;119;98;30069.000000;1.000000;1.000000;1.000000;1.000000;-0.162374;0.162374;-0.162374;1.000000
445641.92110260;5696563.02379997;470.57254984;115;115;91;28784.000000;1.000000;1.000000;1.000000;1.000000;0.044226;-0.044226;0.044226;1.000000
445641.81100281;5696562.77769859;470.53434994;176;172;157;43947.000000;1.000000;1.000000;1.000000;1.000000;-0.052301;0.052301;-0.052301;1.000000
445641.85099991;5696562.70619972;470.53534986;231;229;217;58596.000000;1.000000;1.000000;1.000000;1.000000;0.123800;-0.123800;0.123800;1.000000
445641.85110291;5696562.94859894;470.57084991;87;87;56;21331.000000;1.000000;1.000000;1.000000;1.000000;-0.025774;0.025774;-0.025774;1.000000
445641.88630112;5696562.94999893;470.57014992;139;139;118;34952.000000;1.000000;1.000000;1.000000;1.000000;0.009424;-0.009424;0.009424;1.000000
445641.99810226;5696562.95419891;470.53565003;141;142;127;35980.000000;1.000000;1.000000;1.000000;1.000000;0.121225;-0.121225;0.121225;1.000000
445641.63070114;5696562.82479866;470.53374984;176;176;162;44718.000000;1.000000;1.000000;1.000000;1.000000;0.090076;-0.090076;0.090076;1.000000
445641.96520050;5696562.87779816;470.53554990;180;179;159;45489.000000;1.000000;1.000000;1.000000;1.000000;0.047798;-0.047798;0.047798;1.000000
445641.63210114;5696562.78959854;470.53344991;198;198;187;50372.000000;1.000000;1.000000;1.000000;1.000000;0.097309;-0.097309;0.097309;1.000000
445641.93010147;5696562.80159958;470.53534986;168;164;145;41891.000000;1.000000;1.000000;1.000000;1.000000;-0.028400;0.028400;-0.028400;1.000000
445641.85970123;5696562.72409828;470.53594996;216;214;203;54741.000000;1.000000;1.000000;1.000000;1.000000;-0.105902;0.105902;-0.105902;1.000000
445641.93610199;5696562.68899925;470.53195002;144;143;128;36237.000000;1.000000;1.000000;1.000000;1.000000;-0.134001;0.134001;-0.134001;1.000000
445641.95230301;5696562.75549896;470.51724984;203;203;188;51657.000000;1.000000;1.000000;1.000000;1.000000;-0.074501;0.074501;-0.074501;1.000000
445641.86890228;5696562.72319992;470.53635003;226;224;213;57311.000000;1.000000;1.000000;1.000000;1.000000;-0.106800;0.106800;-0.106800;1.000000
445641.79620178;5696562.87919815;470.55355002;152;151;133;38293.000000;1.000000;1.000000;1.000000;1.000000;0.049198;-0.049198;0.049198;1.000000
445641.67720230;5696562.81819923;470.52644994;113;112;98;28270.000000;1.000000;1.000000;1.000000;1.000000;0.044999;-0.044999;0.044999;1.000000
445641.94110306;5696562.79139908;470.52874996;189;186;168;47288.000000;1.000000;1.000000;1.000000;1.000000;-0.038639;0.038639;-0.038639;1.000000
445641.95060165;5696562.73699959;470.51694991;153;154;138;38807.000000;1.000000;1.000000;1.000000;1.000000;-0.093000;0.093000;-0.093000;1.000000
445641.94390305;5696562.71879967;470.52335002;118;118;100;29812.000000;1.000000;1.000000;1.000000;1.000000;-0.111292;0.111292;-0.111292;1.000000
445641.94490250;5696562.68129929;470.52764990;157;156;140;39578.000000;1.000000;1.000000;1.000000;1.000000;-0.123466;0.123466;-0.123466;1.000000
445641.73190125;5696563.09069832;470.55314996;137;138;120;34695.000000;1.000000;1.000000;1.000000;1.000000;-0.144976;0.144976;-0.144976;1.000000
445641.84290131;5696563.09619911;470.59084990;138;136;117;34438.000000;1.000000;1.000000;1.000000;1.000000;-0.033976;0.033976;-0.033976;1.000000
445641.73660095;5696563.01549919;470.55244996;117;114;98;29041.000000;1.000000;1.000000;1.000000;1.000000;-0.140276;0.140276;-0.140276;1.000000
445641.74010284;5696562.97779854;470.55215003;67;60;46;15420.000000;1.000000;1.000000;1.000000;1.000000;-0.136774;0.136774;-0.136774;1.000000
445641.55120285;5696562.93459900;470.55474998;149;149;134;37779.000000;1.000000;1.000000;1.000000;1.000000;-0.199112;0.199112;-0.199112;1.000000
445641.74030121;5696562.90539940;470.55134990;176;174;158;44204.000000;1.000000;1.000000;1.000000;1.000000;0.075399;-0.075399;0.075399;1.000000
445641.77770050;5696562.90659912;470.55534985;125;121;98;30583.000000;1.000000;1.000000;1.000000;1.000000;0.076599;-0.076599;0.076599;1.000000
445641.81640060;5696562.87029846;470.55434992;168;167;151;42405.000000;1.000000;1.000000;1.000000;1.000000;-0.040298;0.040298;-0.040298;1.000000
445641.85390289;5696562.87150009;470.55604984;164;162;147;41120.000000;1.000000;1.000000;1.000000;1.000000;-0.022974;0.022974;-0.022974;1.000000
445641.92700012;5696562.87639816;470.55244996;69;67;46;16705.000000;1.000000;1.000000;1.000000;1.000000;0.046398;-0.046398;0.046398;1.000000
445641.89280136;5696562.83749969;470.55504992;153;148;129;37779.000000;1.000000;1.000000;1.000000;1.000000;0.007500;-0.007500;0.007500;1.000000
445641.96840103;5696562.80299957;470.51845004;196;192;173;49087.000000;1.000000;1.000000;1.000000;1.000000;-0.027000;0.027000;-0.027000;1.000000
445641.75030334;5696562.64569862;470.51845004;192;194;185;49344.000000;1.000000;1.000000;1.000000;1.000000;-0.184301;0.184301;-0.184301;1.000000
445641.97300156;5696562.65309914;470.51924994;141;141;122;35466.000000;1.000000;1.000000;1.000000;1.000000;-0.091428;0.091428;-0.091428;1.000000
445641.68080338;5696562.98589905;470.53565003;187;177;160;45746.000000;1.000000;1.000000;1.000000;1.000000;-0.160905;0.160905;-0.160905;1.000000
445641.86560257;5696562.57669838;470.51344993;92;90;78;22873.000000;1.000000;1.000000;1.000000;1.000000;-0.198774;0.198774;-0.198774;1.000000
445641.94050034;5696562.57909973;470.51694991;112;106;81;26985.000000;1.000000;1.000000;1.000000;1.000000;-0.123877;0.123877;-0.123877;1.000000
445641.94180115;5696562.54159935;470.51414992;170;161;144;41377.000000;1.000000;1.000000;1.000000;1.000000;-0.122576;0.122576;-0.122576;1.000000
445641.71750076;5696563.03369911;470.54714992;141;137;121;34952.000000;1.000000;1.000000;1.000000;1.000000;-0.159376;0.159376;-0.159376;1.000000
445641.57580002;5696562.84139832;470.54084994;151;152;138;38550.000000;1.000000;1.000000;1.000000;1.000000;-0.145275;0.145275;-0.145275;1.000000
445641.96710022;5696562.58829887;470.51584985;129;126;107;31868.000000;1.000000;1.000000;1.000000;1.000000;-0.097277;0.097277;-0.097277;1.000000
445641.81490143;5696562.90769966;470.56174995;104;104;82;25957.000000;1.000000;1.000000;1.000000;1.000000;-0.061975;0.061975;-0.061975;1.000000
445641.85239990;5696562.88319977;470.56075003;157;156;140;39578.000000;1.000000;1.000000;1.000000;1.000000;-0.024477;0.024477;-0.024477;1.000000
445641.88990219;5696562.88439949;470.56254985;101;98;78;24672.000000;1.000000;1.000000;1.000000;1.000000;0.013025;-0.013025;0.013025;1.000000
445641.55490311;5696562.86899956;470.54484989;145;147;134;37008.000000;1.000000;1.000000;1.000000;1.000000;-0.170251;0.170251;-0.170251;1.000000
445641.88760193;5696562.96609886;470.57504990;140;141;121;35466.000000;1.000000;1.000000;1.000000;1.000000;0.010725;-0.010725;0.010725;1.000000
445641.67320068;5696562.72519882;470.52514984;130;133;122;33410.000000;1.000000;1.000000;1.000000;1.000000;0.115033;-0.115033;0.115033;1.000000
445641.93370255;5696562.73609932;470.52545001;111;110;91;27756.000000;1.000000;1.000000;1.000000;1.000000;-0.093901;0.093901;-0.093901;1.000000
445641.84990128;5696562.90899857;470.56565001;142;142;124;35980.000000;1.000000;1.000000;1.000000;1.000000;-0.026976;0.026976;-0.026976;1.000000
445641.88980301;5696562.90999992;470.56515004;117;115;97;29041.000000;1.000000;1.000000;1.000000;1.000000;0.012926;-0.012926;0.012926;1.000000
445641.66880234;5696562.82839973;470.52624990;131;132;116;33153.000000;1.000000;1.000000;1.000000;1.000000;0.051849;-0.051849;0.051849;1.000000
445641.91460236;5696562.73539932;470.53384997;104;101;82;25443.000000;1.000000;1.000000;1.000000;1.000000;-0.094720;0.094720;-0.094720;1.000000
445641.63360031;5696562.98549850;470.54285004;146;141;124;35980.000000;1.000000;1.000000;1.000000;1.000000;-0.178195;0.178195;-0.178195;1.000000
445641.96100052;5696562.74769981;470.51514985;233;234;223;59624.000000;1.000000;1.000000;1.000000;1.000000;-0.082300;0.082300;-0.082300;1.000000
445641.98670013;5696563.03679855;470.54534986;152;152;128;38293.000000;1.000000;1.000000;1.000000;1.000000;0.109823;-0.109823;0.109823;1.000000
445641.85180099;5696562.92980011;470.56834986;155;154;133;38807.000000;1.000000;1.000000;1.000000;1.000000;-0.025076;0.025076;-0.025076;1.000000
445641.96430023;5696562.89419945;470.53804996;156;156;139;39578.000000;1.000000;1.000000;1.000000;1.000000;0.064199;-0.064199;0.064199;1.000000
445641.96360214;5696562.85929878;470.53294994;168;166;144;42148.000000;1.000000;1.000000;1.000000;1.000000;0.029299;-0.029299;0.029299;1.000000
445641.63160141;5696562.80839928;470.53125002;207;207;196;52685.000000;1.000000;1.000000;1.000000;1.000000;0.091609;-0.091609;0.091609;1.000000
445641.89350327;5696563.03319939;470.58305003;139;139;112;34952.000000;1.000000;1.000000;1.000000;1.000000;0.016626;-0.016626;0.016626;1.000000
445641.69770248;5696563.05179985;470.55585005;143;139;124;35466.000000;1.000000;1.000000;1.000000;1.000000;-0.179174;0.179174;-0.179174;1.000000
445641.73310287;5696563.05319984;470.55274989;55;51;39;12850.000000;1.000000;1.000000;1.000000;1.000000;-0.143774;0.143774;-0.143774;1.000000
445641.88179977;5696563.05989845;470.58754994;86;86;61;21331.000000;1.000000;1.000000;1.000000;1.000000;0.004923;-0.004923;0.004923;1.000000
445641.84640320;5696563.05849846;470.59054996;178;179;158;45232.000000;1.000000;1.000000;1.000000;1.000000;-0.030474;0.030474;-0.030474;1.000000
445641.77900131;5696562.86909874;470.55264999;136;135;117;34181.000000;1.000000;1.000000;1.000000;1.000000;0.039099;-0.039099;0.039099;1.000000
445641.67260178;5696562.71599968;470.52035000;144;147;138;37265.000000;1.000000;1.000000;1.000000;1.000000;0.123703;-0.123703;0.123703;1.000000
445641.86660202;5696562.53689964;470.51304986;171;171;157;43433.000000;1.000000;1.000000;1.000000;1.000000;-0.197775;0.197775;-0.197775;1.000000
445641.84320267;5696562.69529922;470.53014996;199;198;185;50372.000000;1.000000;1.000000;1.000000;1.000000;-0.134701;0.134701;-0.134701;1.000000
445641.87820251;5696562.69669922;470.53414990;144;139;125;35466.000000;1.000000;1.000000;1.000000;1.000000;-0.133307;0.133307;-0.133307;1.000000
445641.71960266;5696562.74659927;470.52524998;113;115;102;28784.000000;1.000000;1.000000;1.000000;1.000000;0.083407;-0.083407;0.083407;1.000000
445641.70600327;5696562.82720001;470.52784993;177;176;164;44718.000000;1.000000;1.000000;1.000000;1.000000;0.014889;-0.014889;0.014889;1.000000
445641.70750244;5696562.79209908;470.52524998;91;93;82;23387.000000;1.000000;1.000000;1.000000;1.000000;0.040109;-0.040109;0.040109;1.000000
445641.97800262;5696563.01899918;470.54474999;166;165;144;41634.000000;1.000000;1.000000;1.000000;1.000000;0.101126;-0.101126;0.101126;1.000000
445641.83730133;5696562.78909882;470.54504992;172;168;154;42919.000000;1.000000;1.000000;1.000000;1.000000;-0.040901;0.040901;-0.040901;1.000000
445641.61779984;5696562.96369942;470.53714993;186;184;171;47031.000000;1.000000;1.000000;1.000000;1.000000;-0.168668;0.168668;-0.168668;1.000000
445641.69200333;5696562.93120010;470.53545000;121;118;103;30069.000000;1.000000;1.000000;1.000000;1.000000;-0.105170;0.105170;-0.105170;1.000000
445641.79780014;5696562.65529831;470.52064993;161;162;151;41120.000000;1.000000;1.000000;1.000000;1.000000;-0.174702;0.174702;-0.174702;1.000000
445641.73740204;5696562.73789986;470.52825000;127;130;116;32639.000000;1.000000;1.000000;1.000000;1.000000;-0.092100;0.092100;-0.092100;1.000000
445641.76810272;5696563.08479889;470.56635000;45;43;32;10794.000000;1.000000;1.000000;1.000000;1.000000;-0.108774;0.108774;-0.108774;1.000000
445641.77520187;5696562.93469818;470.56495001;106;99;73;25186.000000;1.000000;1.000000;1.000000;1.000000;-0.101675;0.101675;-0.101675;1.000000
445641.82580002;5696563.08609970;470.58764984;117;118;99;29555.000000;1.000000;1.000000;1.000000;1.000000;-0.051077;0.051077;-0.051077;1.000000
445641.96680267;5696562.84039886;470.52814986;138;135;111;34181.000000;1.000000;1.000000;1.000000;1.000000;0.010399;-0.010399;0.010399;1.000000
445641.64030273;5696562.82619865;470.53184988;154;153;139;38807.000000;1.000000;1.000000;1.000000;1.000000;0.080414;-0.080414;0.080414;1.000000
445641.62630280;5696562.77839859;470.53534986;110;109;97;27499.000000;1.000000;1.000000;1.000000;1.000000;0.107516;-0.107516;0.107516;1.000000
445641.64490326;5696562.75099953;470.53355004;117;119;107;30069.000000;1.000000;1.000000;1.000000;1.000000;0.109431;-0.109431;0.109431;1.000000
445641.79290207;5696562.75829895;470.53335001;119;118;103;29812.000000;1.000000;1.000000;1.000000;1.000000;-0.071701;0.071701;-0.071701;1.000000
445641.53540237;5696562.85919960;470.54154994;109;107;90;26985.000000;1.000000;1.000000;1.000000;1.000000;-0.187512;0.187512;-0.187512;1.000000
445641.60540207;5696562.98349960;470.54384996;195;193;177;49087.000000;1.000000;1.000000;1.000000;1.000000;-0.191935;0.191935;-0.191935;1.000000
445641.68160065;5696562.94839867;470.54224994;142;140;127;35723.000000;1.000000;1.000000;1.000000;1.000000;-0.124665;0.124665;-0.124665;1.000000
445641.93520172;5696562.67980011;470.53184988;144;143;128;36237.000000;1.000000;1.000000;1.000000;1.000000;-0.132514;0.132514;-0.132514;1.000000
445641.76889999;5696563.09179886;470.56414988;40;38;28;9509.000000;1.000000;1.000000;1.000000;1.000000;-0.107977;0.107977;-0.107977;1.000000
445641.74710281;5696562.76509865;470.52434995;101;103;88;25700.000000;1.000000;1.000000;1.000000;1.000000;-0.064901;0.064901;-0.064901;1.000000
445641.56369980;5696562.91709908;470.55285003;158;159;147;40349.000000;1.000000;1.000000;1.000000;1.000000;-0.179478;0.179478;-0.179478;1.000000
445641.98800095;5696562.99939926;470.54265000;134;133;114;33667.000000;1.000000;1.000000;1.000000;1.000000;0.111124;-0.111124;0.111124;1.000000
445641.74500092;5696562.79329880;470.52694990;128;129;110;32382.000000;1.000000;1.000000;1.000000;1.000000;-0.036701;0.036701;-0.036701;1.000000
445641.87600143;5696562.99510010;470.58184983;137;136;115;34181.000000;1.000000;1.000000;1.000000;1.000000;-0.000875;0.000875;-0.000875;1.000000
445641.85640152;5696563.03889854;470.58844997;121;121;96;30326.000000;1.000000;1.000000;1.000000;1.000000;-0.020475;0.020475;-0.020475;1.000000
445641.93440063;5696562.93179901;470.55344989;126;126;110;31868.000000;1.000000;1.000000;1.000000;1.000000;0.057524;-0.057524;0.057524;1.000000
445641.78790100;5696562.88929947;470.55324986;134;133;112;33410.000000;1.000000;1.000000;1.000000;1.000000;0.059299;-0.059299;0.059299;1.000000
445641.67889984;5696562.99529846;470.54495003;153;150;137;38293.000000;1.000000;1.000000;1.000000;1.000000;-0.170484;0.170484;-0.170484;1.000000
445641.92920120;5696562.84819992;470.54754998;102;100;76;24929.000000;1.000000;1.000000;1.000000;1.000000;0.018200;-0.018200;0.018200;1.000000
