//X;Y;Z;R;G;B;Intensity;Return Number;Number Of Returns;Scan Direction Flag;Point Source ID;C2M signed distances[-][<0.8];C2M signed distances[<0.4];C2M signed distances[-][<0.2];Stump51
445616.56920250;5696584.41799934;472.57665016;160;158;136;40092.000000;1.000000;1.000000;1.000000;1.000000;0.088084;-0.088084;0.088084;1.000000
445616.38740166;5696584.10309990;472.58564999;122;116;109;30069.000000;1.000000;1.000000;1.000000;1.000000;0.041775;-0.041775;0.041775;1.000000
445616.84430130;5696584.47689827;472.55954983;166;159;141;40863.000000;1.000000;1.000000;1.000000;1.000000;-0.061174;0.061174;-0.061174;1.000000
445616.96980103;5696584.21089943;472.54334976;108;105;99;26985.000000;1.000000;1.000000;1.000000;1.000000;-0.119101;0.119101;-0.119101;1.000000
445616.91930206;5696584.47929962;472.56064989;144;138;123;35466.000000;1.000000;1.000000;1.000000;1.000000;-0.136175;0.136175;-0.136175;1.000000
445616.52510078;5696584.25819977;472.60074999;99;101;90;25443.000000;1.000000;1.000000;1.000000;1.000000;0.039276;-0.039276;0.039276;1.000000
445616.42260178;5696584.10669907;472.58964970;84;80;67;20303.000000;1.000000;1.000000;1.000000;1.000000;0.076975;-0.076975;0.076975;1.000000
445616.53220184;5696584.18509872;472.60484983;171;172;157;43690.000000;1.000000;1.000000;1.000000;1.000000;0.032175;-0.032175;0.032175;1.000000
445616.46020134;5696584.10789879;472.58904984;114;111;93;28013.000000;1.000000;1.000000;1.000000;1.000000;0.104176;-0.104176;0.104176;1.000000
445616.49780090;5696584.10919960;472.58605005;120;120;98;30069.000000;1.000000;1.000000;1.000000;1.000000;0.066576;-0.066576;0.066576;1.000000
445616.47150238;5696584.31219872;472.60594990;209;212;207;53970.000000;1.000000;1.000000;1.000000;1.000000;0.092875;-0.092875;0.092875;1.000000
445616.65640076;5696584.32129868;472.56785013;206;206;196;52428.000000;1.000000;1.000000;1.000000;1.000000;-0.008701;0.008701;-0.008701;1.000000
445616.86900146;5696584.16169937;472.55224993;38;37;26;9252.000000;1.000000;1.000000;1.000000;1.000000;-0.168301;0.168301;-0.168301;1.000000
445616.87270172;5696584.50459869;472.55884983;174;168;152;43176.000000;1.000000;1.000000;1.000000;1.000000;-0.089575;0.089575;-0.089575;1.000000
445616.67620094;5696584.08799942;472.57994987;131;133;119;33410.000000;1.000000;1.000000;1.000000;1.000000;-0.111824;0.111824;-0.111824;1.000000
445616.98310097;5696584.51069839;472.55924990;169;167;157;42662.000000;1.000000;1.000000;1.000000;1.000000;-0.180698;0.180698;-0.180698;1.000000
445616.67020233;5696584.23619850;472.55114986;170;169;160;43176.000000;1.000000;1.000000;1.000000;1.000000;-0.093801;0.093801;-0.093801;1.000000
445616.61390121;5696584.00029953;472.58535006;65;66;50;16191.000000;1.000000;1.000000;1.000000;1.000000;-0.049524;0.049524;-0.049524;1.000000
445616.68910225;5696584.00499924;472.58645012;111;115;95;28527.000000;1.000000;1.000000;1.000000;1.000000;-0.124725;0.124725;-0.124725;1.000000
445616.49120148;5696584.04189880;472.59424974;179;178;158;45232.000000;1.000000;1.000000;1.000000;1.000000;0.073175;-0.073175;0.073175;1.000000
445616.44750221;5696584.20010002;472.59424974;150;145;127;37008.000000;1.000000;1.000000;1.000000;1.000000;0.102239;-0.102239;0.102239;1.000000
445616.55770119;5696584.20389946;472.59455015;149;151;136;38036.000000;1.000000;1.000000;1.000000;1.000000;0.006676;-0.006676;0.006676;1.000000
445616.63440140;5696584.20669945;472.55844976;107;106;89;26728.000000;1.000000;1.000000;1.000000;1.000000;-0.070024;0.070024;-0.070024;1.000000
445616.75090225;5696584.05339821;472.56194975;115;114;104;29041.000000;1.000000;1.000000;1.000000;1.000000;-0.186525;0.186525;-0.186525;1.000000
445616.84050186;5696584.36499985;472.56734993;154;152;145;38807.000000;1.000000;1.000000;1.000000;1.000000;0.035000;-0.035000;0.035000;1.000000
445616.87420090;5696584.46949966;472.55614998;163;157;136;40092.000000;1.000000;1.000000;1.000000;1.000000;-0.091074;0.091074;-0.091074;1.000000
445616.87710197;5696584.40369995;472.56244995;124;120;110;30840.000000;1.000000;1.000000;1.000000;1.000000;-0.073700;0.073700;-0.073700;1.000000
445616.69970139;5696584.20979889;472.56844999;130;129;122;32896.000000;1.000000;1.000000;1.000000;1.000000;-0.120201;0.120201;-0.120201;1.000000
445616.44000061;5696584.34789856;472.60024979;205;207;203;52685.000000;1.000000;1.000000;1.000000;1.000000;0.096056;-0.096056;0.096056;1.000000
445616.84780128;5696584.43919952;472.55924990;184;183;169;46517.000000;1.000000;1.000000;1.000000;1.000000;-0.071298;0.071298;-0.071298;1.000000
445616.92050179;5696584.44179924;472.56024982;204;201;189;51400.000000;1.000000;1.000000;1.000000;1.000000;-0.111799;0.111799;-0.111799;1.000000
445616.73640068;5696584.39809998;472.56064989;183;185;177;47031.000000;1.000000;1.000000;1.000000;1.000000;0.068119;-0.068119;0.068119;1.000000
445616.53850182;5696584.04459961;472.58715012;72;70;52;17476.000000;1.000000;1.000000;1.000000;1.000000;0.025875;-0.025875;0.025875;1.000000
445616.58830078;5696584.16879852;472.56995012;171;170;145;42919.000000;1.000000;1.000000;1.000000;1.000000;-0.023924;0.023924;-0.023924;1.000000
445616.74340065;5696584.02599915;472.56594994;110;110;98;27756.000000;1.000000;1.000000;1.000000;1.000000;-0.179024;0.179024;-0.179024;1.000000
445616.56170090;5696584.19429977;472.58995010;110;112;93;28013.000000;1.000000;1.000000;1.000000;1.000000;0.002676;-0.002676;0.002676;1.000000
445616.83650215;5696584.46829994;472.55905010;150;144;128;37008.000000;1.000000;1.000000;1.000000;1.000000;-0.053383;0.053383;-0.053383;1.000000
445616.43560226;5696584.27359970;472.59684994;170;168;156;42919.000000;1.000000;1.000000;1.000000;1.000000;-0.106191;0.106191;-0.106191;1.000000
445616.54070099;5696583.96959885;472.59104969;134;131;121;33410.000000;1.000000;1.000000;1.000000;1.000000;0.023676;-0.023676;0.023676;1.000000
445616.56380089;5696584.33449944;472.57544996;53;53;44;13364.000000;1.000000;1.000000;1.000000;1.000000;0.004536;-0.004536;0.004536;1.000000
445616.85900124;5696584.38439949;472.56145002;99;95;87;24415.000000;1.000000;1.000000;1.000000;1.000000;-0.054399;0.054399;-0.054399;1.000000
445616.56490143;5696584.29699905;472.57735016;122;121;110;30840.000000;1.000000;1.000000;1.000000;1.000000;-0.000525;0.000525;-0.000525;1.000000
445616.46860130;5696584.37789925;472.59954979;56;57;49;14135.000000;1.000000;1.000000;1.000000;1.000000;0.107085;-0.107085;0.107085;1.000000
445616.68960197;5696584.42349823;472.56124975;175;175;159;44461.000000;1.000000;1.000000;1.000000;1.000000;0.093498;-0.093498;0.093498;1.000000
445616.82900246;5696584.39180000;472.56715014;104;100;93;25700.000000;1.000000;1.000000;1.000000;1.000000;-0.061800;0.061800;-0.061800;1.000000
445616.52580078;5696584.33319862;472.58535006;60;60;55;15163.000000;1.000000;1.000000;1.000000;1.000000;0.038709;-0.038709;0.038709;1.000000
445616.72000130;5696584.35049828;472.56635000;133;133;130;33924.000000;1.000000;1.000000;1.000000;1.000000;0.020498;-0.020498;0.020498;1.000000
445616.61070068;5696584.30919846;472.57025005;206;205;194;52428.000000;1.000000;1.000000;1.000000;1.000000;-0.020802;0.020802;-0.020802;1.000000
445616.56700142;5696584.04679878;472.58145000;58;56;39;13878.000000;1.000000;1.000000;1.000000;1.000000;-0.002625;0.002625;-0.002625;1.000000
445616.83760078;5696584.43079956;472.56104996;196;195;183;49601.000000;1.000000;1.000000;1.000000;1.000000;-0.066632;0.066632;-0.066632;1.000000
445616.60230072;5696584.04589851;472.57375004;112;112;96;28270.000000;1.000000;1.000000;1.000000;1.000000;-0.037924;0.037924;-0.037924;1.000000
445616.58070190;5696584.11109932;472.56654980;109;111;94;27756.000000;1.000000;1.000000;1.000000;1.000000;-0.016325;0.016325;-0.016325;1.000000
445616.87530144;5696584.43199928;472.55804970;104;101;88;25700.000000;1.000000;1.000000;1.000000;1.000000;-0.099410;0.099410;-0.099410;1.000000
445616.82710083;5696584.23349960;472.53954985;178;171;153;43947.000000;1.000000;1.000000;1.000000;1.000000;0.096500;-0.096500;0.096500;1.000000
445616.74390228;5696584.25709923;472.56864979;107;103;94;26471.000000;1.000000;1.000000;1.000000;1.000000;-0.072901;0.072901;-0.072901;1.000000
445616.53420074;5696584.14559944;472.58115007;161;157;135;39835.000000;1.000000;1.000000;1.000000;1.000000;0.030176;-0.030176;0.030176;1.000000
445616.66190155;5696583.99329956;472.59674980;158;161;143;40606.000000;1.000000;1.000000;1.000000;1.000000;-0.097525;0.097525;-0.097525;1.000000
445616.78940208;5696584.21339996;472.55625011;69;65;54;16448.000000;1.000000;1.000000;1.000000;1.000000;0.116600;-0.116600;0.116600;1.000000
445616.60740097;5696584.16949852;472.56145002;108;106;80;26471.000000;1.000000;1.000000;1.000000;1.000000;-0.043024;0.043024;-0.043024;1.000000
445616.68260201;5696584.17189987;472.55795004;142;140;127;35723.000000;1.000000;1.000000;1.000000;1.000000;-0.118225;0.118225;-0.118225;1.000000
445616.64510162;5696584.17069824;472.55854990;157;153;135;39064.000000;1.000000;1.000000;1.000000;1.000000;-0.080725;0.080725;-0.080725;1.000000
445616.37550171;5696584.15089996;472.58575012;175;167;154;42919.000000;1.000000;1.000000;1.000000;1.000000;0.029875;-0.029875;0.029875;1.000000
445616.83750160;5696584.24419983;472.54015018;137;129;111;33153.000000;1.000000;1.000000;1.000000;1.000000;-0.085800;0.085800;-0.085800;1.000000
445616.45040138;5696584.15319832;472.58914997;120;115;99;29298.000000;1.000000;1.000000;1.000000;1.000000;0.104774;-0.104774;0.104774;1.000000
445616.54700096;5696584.08139999;472.57865002;205;206;190;52171.000000;1.000000;1.000000;1.000000;1.000000;0.017376;-0.017376;0.017376;1.000000
445616.68360146;5696584.11549957;472.57595016;165;164;154;41891.000000;1.000000;1.000000;1.000000;1.000000;-0.119225;0.119225;-0.119225;1.000000
445616.50380142;5696584.42389877;472.58774998;85;82;65;20817.000000;1.000000;1.000000;1.000000;1.000000;0.111742;-0.111742;0.111742;1.000000
445616.69400223;5696584.05139931;472.57564976;154;158;142;39835.000000;1.000000;1.000000;1.000000;1.000000;-0.129625;0.129625;-0.129625;1.000000
445616.91740234;5696584.33009918;472.55174973;159;155;145;39835.000000;1.000000;1.000000;1.000000;1.000000;-0.000099;0.000099;-0.000099;1.000000
445616.62400063;5696584.24279984;472.55375006;112;110;95;27756.000000;1.000000;1.000000;1.000000;1.000000;-0.059624;0.059624;-0.059624;1.000000
445616.88130196;5696584.29149826;472.54734995;99;94;86;24158.000000;1.000000;1.000000;1.000000;1.000000;0.038502;-0.038502;0.038502;1.000000
445616.82420166;5696584.30839928;472.55195000;109;102;93;26471.000000;1.000000;1.000000;1.000000;1.000000;0.021601;-0.021601;0.021601;1.000000
445616.69680222;5696584.45309837;472.56654980;173;171;153;43433.000000;1.000000;1.000000;1.000000;1.000000;0.087789;-0.087789;0.087789;1.000000
445616.48140152;5696584.29259880;472.60615017;212;215;207;54741.000000;1.000000;1.000000;1.000000;1.000000;0.082975;-0.082975;0.082975;1.000000
445616.70010193;5696583.96899994;472.57954981;139;137;125;34952.000000;1.000000;1.000000;1.000000;1.000000;-0.135725;0.135725;-0.135725;1.000000
445616.62740143;5696584.33799942;472.57135012;88;86;76;21845.000000;1.000000;1.000000;1.000000;1.000000;0.008017;-0.008017;0.008017;1.000000
445616.91910179;5696584.29499825;472.54675009;108;104;99;26728.000000;1.000000;1.000000;1.000000;1.000000;0.035002;-0.035002;0.035002;1.000000
445616.70340164;5696584.52709969;472.57474997;153;150;135;38293.000000;1.000000;1.000000;1.000000;1.000000;0.079725;-0.079725;0.079725;1.000000
445616.63370140;5696584.43079956;472.57275011;174;172;156;43690.000000;1.000000;1.000000;1.000000;1.000000;0.100817;-0.100817;0.100817;1.000000
445616.66910179;5696584.43229874;472.56734993;205;204;189;51914.000000;1.000000;1.000000;1.000000;1.000000;0.102299;-0.102299;0.102299;1.000000
445616.38240250;5696584.17589958;472.58864977;157;146;129;37779.000000;1.000000;1.000000;1.000000;1.000000;0.036776;-0.036776;0.036776;1.000000
445616.87910088;5696584.31959923;472.54995014;134;129;119;33153.000000;1.000000;1.000000;1.000000;1.000000;0.010401;-0.010401;0.010401;1.000000
445616.63500221;5696584.39339836;472.57004978;192;191;177;48573.000000;1.000000;1.000000;1.000000;1.000000;0.063401;-0.063401;0.063401;1.000000
445616.63620193;5696584.35589989;472.56965019;79;78;67;19789.000000;1.000000;1.000000;1.000000;1.000000;0.025900;-0.025900;0.025900;1.000000
445616.67370232;5696584.35709961;472.56904985;120;119;115;30326.000000;1.000000;1.000000;1.000000;1.000000;0.027100;-0.027100;0.027100;1.000000
445616.49020203;5696584.31279953;472.60675003;123;126;123;31868.000000;1.000000;1.000000;1.000000;1.000000;0.074175;-0.074175;0.074175;1.000000
445616.86340149;5696584.27439888;472.54635002;128;124;114;31868.000000;1.000000;1.000000;1.000000;1.000000;0.055601;-0.055601;0.055601;1.000000
445616.49130066;5696584.27529915;472.60874989;211;212;202;53970.000000;1.000000;1.000000;1.000000;1.000000;0.073076;-0.073076;0.073076;1.000000
445616.93820198;5696584.27449997;472.54734995;129;127;122;32639.000000;1.000000;1.000000;1.000000;1.000000;-0.055500;0.055500;-0.055500;1.000000
445616.64940079;5696584.26379974;472.55284979;176;171;160;43947.000000;1.000000;1.000000;1.000000;1.000000;-0.066200;0.066200;-0.066200;1.000000
445616.95340164;5696584.36859901;472.56084969;216;215;206;54998.000000;1.000000;1.000000;1.000000;1.000000;-0.038599;0.038599;-0.038599;1.000000
445616.95430191;5696584.29639824;472.54605009;119;116;110;29812.000000;1.000000;1.000000;1.000000;1.000000;0.033602;-0.033602;0.033602;1.000000
445616.37670143;5696584.11339958;472.58535006;134;129;121;33153.000000;1.000000;1.000000;1.000000;1.000000;0.031075;-0.031075;0.031075;1.000000
445616.41410072;5696584.11459930;472.58704998;117;112;100;28784.000000;1.000000;1.000000;1.000000;1.000000;0.068474;-0.068474;0.068474;1.000000
445616.45160110;5696584.11569984;472.58874990;118;114;98;29041.000000;1.000000;1.000000;1.000000;1.000000;0.105974;-0.105974;0.105974;1.000000
445616.37770088;5696584.07589920;472.58955004;44;40;33;10280.000000;1.000000;1.000000;1.000000;1.000000;0.032074;-0.032074;0.032074;1.000000
445616.64130219;5696584.25289925;472.55235006;164;160;149;40863.000000;1.000000;1.000000;1.000000;1.000000;-0.076925;0.076925;-0.076925;1.000000
445616.90340240;5696584.22859962;472.54995014;153;151;140;38550.000000;1.000000;1.000000;1.000000;1.000000;-0.101400;0.101400;-0.101400;1.000000
445616.53810127;5696584.06339844;472.58264973;67;67;47;16448.000000;1.000000;1.000000;1.000000;1.000000;0.026276;-0.026276;0.026276;1.000000
445616.39930161;5696584.23499878;472.59474995;112;109;84;27499.000000;1.000000;1.000000;1.000000;1.000000;0.069085;-0.069085;0.069085;1.000000
445616.80870064;5696584.21639832;472.55014994;86;80;67;20560.000000;1.000000;1.000000;1.000000;1.000000;-0.113602;0.113602;-0.113602;1.000000
445616.65810211;5696584.28399857;472.55585005;147;142;131;36494.000000;1.000000;1.000000;1.000000;1.000000;-0.046001;0.046001;-0.046001;1.000000
445616.64060219;5696584.01179894;472.58904984;112;115;97;28784.000000;1.000000;1.000000;1.000000;1.000000;-0.076225;0.076225;-0.076225;1.000000
445616.95890244;5696584.22119911;472.54764988;83;81;75;20560.000000;1.000000;1.000000;1.000000;1.000000;0.108801;-0.108801;0.108801;1.000000
445616.40550240;5696584.12239845;472.58675005;167;161;152;41377.000000;1.000000;1.000000;1.000000;1.000000;0.059875;-0.059875;0.059875;1.000000
445616.57040222;5696584.18649872;472.58794977;123;123;103;30840.000000;1.000000;1.000000;1.000000;1.000000;-0.006025;0.006025;-0.006025;1.000000
445616.52120216;5696584.43400009;472.58634998;170;168;152;42662.000000;1.000000;1.000000;1.000000;1.000000;0.112606;-0.112606;0.112606;1.000000
445616.67680176;5696584.25659950;472.55165007;113;110;101;28013.000000;1.000000;1.000000;1.000000;1.000000;-0.073400;0.073400;-0.073400;1.000000
445616.38530167;5696584.13130005;472.58594992;173;167;157;42919.000000;1.000000;1.000000;1.000000;1.000000;0.039675;-0.039675;0.039675;1.000000
445616.46020134;5696584.13359840;472.58934977;150;146;130;37265.000000;1.000000;1.000000;1.000000;1.000000;0.104176;-0.104176;0.104176;1.000000
445616.49800117;5696584.13709839;472.58874990;143;140;121;35466.000000;1.000000;1.000000;1.000000;1.000000;0.066376;-0.066376;0.066376;1.000000
445616.46130188;5696584.09609993;472.59124996;140;138;118;34952.000000;1.000000;1.000000;1.000000;1.000000;0.103075;-0.103075;0.103075;1.000000
445616.38640221;5696584.09379967;472.58785011;68;62;56;16191.000000;1.000000;1.000000;1.000000;1.000000;0.040775;-0.040775;0.040775;1.000000
445616.49700172;5696584.09989937;472.58594992;86;86;61;21331.000000;1.000000;1.000000;1.000000;1.000000;0.067375;-0.067375;0.067375;1.000000
445616.61560066;5696583.99309929;472.58535006;64;65;49;15934.000000;1.000000;1.000000;1.000000;1.000000;-0.051224;0.051224;-0.051224;1.000000
445616.71850212;5696584.40679939;472.55994989;198;199;187;50629.000000;1.000000;1.000000;1.000000;1.000000;0.076799;-0.076799;0.076799;1.000000
445616.84090240;5696584.39299973;472.56535007;83;80;73;20560.000000;1.000000;1.000000;1.000000;1.000000;0.063000;-0.063000;0.063000;1.000000
445616.90190132;5696584.23809822;472.54995014;160;157;147;40092.000000;1.000000;1.000000;1.000000;1.000000;-0.091902;0.091902;-0.091902;1.000000
445616.52720078;5696584.32370003;472.58764984;44;45;41;11308.000000;1.000000;1.000000;1.000000;1.000000;0.037176;-0.037176;0.037176;1.000000
445616.82570084;5696584.29889877;472.55195000;94;89;78;22873.000000;1.000000;1.000000;1.000000;1.000000;0.031101;-0.031101;0.031101;1.000000
445616.42150124;5696584.16989906;472.59034969;206;198;183;50886.000000;1.000000;1.000000;1.000000;1.000000;0.075874;-0.075874;0.075874;1.000000
445616.45670135;5696584.17129906;472.58964970;144;137;120;35209.000000;1.000000;1.000000;1.000000;1.000000;0.107676;-0.107676;0.107676;1.000000
445616.90210159;5696584.26379974;472.54794981;135;134;127;34181.000000;1.000000;1.000000;1.000000;1.000000;-0.066200;0.066200;-0.066200;1.000000
445616.93750198;5696584.26759918;472.54724981;129;127;121;32382.000000;1.000000;1.000000;1.000000;1.000000;-0.062401;0.062401;-0.062401;1.000000
445616.94080170;5696584.22979935;472.55165007;169;166;157;42405.000000;1.000000;1.000000;1.000000;1.000000;0.100201;-0.100201;0.100201;1.000000
445616.42280205;5696584.13239868;472.58764984;128;121;108;31097.000000;1.000000;1.000000;1.000000;1.000000;0.077175;-0.077175;0.077175;1.000000
445616.50030144;5696584.06219872;472.59025003;71;70;44;17219.000000;1.000000;1.000000;1.000000;1.000000;0.064075;-0.064075;0.064075;1.000000
445616.53900154;5696584.02589996;472.58925011;96;91;73;23130.000000;1.000000;1.000000;1.000000;1.000000;0.025375;-0.025375;0.025375;1.000000
445616.64930161;5696584.02969940;472.58734991;112;115;95;28527.000000;1.000000;1.000000;1.000000;1.000000;-0.084925;0.084925;-0.084925;1.000000
445616.42130096;5696584.14189919;472.58764984;146;138;125;35466.000000;1.000000;1.000000;1.000000;1.000000;0.075674;-0.075674;0.075674;1.000000
445616.60680206;5696584.41929825;472.57375004;194;191;171;48573.000000;1.000000;1.000000;1.000000;1.000000;0.089298;-0.089298;0.089298;1.000000
445616.56710251;5696584.24309929;472.57214977;206;208;192;52685.000000;1.000000;1.000000;1.000000;1.000000;-0.002726;0.002726;-0.002726;1.000000
445616.71960075;5696584.17299850;472.56895020;131;130;120;33153.000000;1.000000;1.000000;1.000000;1.000000;-0.155224;0.155224;-0.155224;1.000000
445616.74920090;5696584.53929909;472.56995012;184;179;165;45746.000000;1.000000;1.000000;1.000000;1.000000;0.033926;-0.033926;0.033926;1.000000
445616.75060089;5696584.50179871;472.56495001;185;181;165;46260.000000;1.000000;1.000000;1.000000;1.000000;0.032526;-0.032526;0.032526;1.000000
445616.67840202;5696584.45939835;472.57275011;179;176;156;44718.000000;1.000000;1.000000;1.000000;1.000000;0.105159;-0.105159;0.105159;1.000000
445616.60860069;5696584.13200005;472.56104996;140;137;122;34952.000000;1.000000;1.000000;1.000000;1.000000;-0.044224;0.044224;-0.044224;1.000000
445616.79740150;5696584.27119835;472.55034973;199;195;184;49858.000000;1.000000;1.000000;1.000000;1.000000;0.058802;-0.058802;0.058802;1.000000
445616.60980232;5696584.09449966;472.56064989;121;120;104;30326.000000;1.000000;1.000000;1.000000;1.000000;-0.045425;0.045425;-0.045425;1.000000
445616.75110062;5696584.48079880;472.56005003;163;157;139;40092.000000;1.000000;1.000000;1.000000;1.000000;0.032026;-0.032026;0.032026;1.000000
445616.76920135;5696584.52809914;472.56834986;195;191;178;48830.000000;1.000000;1.000000;1.000000;1.000000;0.013926;-0.013926;0.013926;1.000000
445616.86400230;5696584.48679932;472.55824997;174;168;149;42919.000000;1.000000;1.000000;1.000000;1.000000;-0.080875;0.080875;-0.080875;1.000000
445616.53770073;5696584.03539856;472.58694984;77;73;54;18504.000000;1.000000;1.000000;1.000000;1.000000;0.026676;-0.026676;0.026676;1.000000
445616.66550072;5696584.55369957;472.58964970;186;183;170;46774.000000;1.000000;1.000000;1.000000;1.000000;0.117626;-0.117626;0.117626;1.000000
445616.65020187;5696584.03889854;472.58745005;108;112;92;27756.000000;1.000000;1.000000;1.000000;1.000000;-0.085825;0.085825;-0.085825;1.000000
445616.57640083;5696583.99909981;472.58594992;138;137;124;34695.000000;1.000000;1.000000;1.000000;1.000000;-0.012024;0.012024;-0.012024;1.000000
445616.93470200;5696584.34009941;472.55264999;131;128;117;32639.000000;1.000000;1.000000;1.000000;1.000000;0.010099;-0.010099;0.010099;1.000000
445616.93630226;5696584.30499847;472.54764988;97;93;88;23901.000000;1.000000;1.000000;1.000000;1.000000;-0.025002;0.025002;-0.025002;1.000000
445616.89860161;5696584.30149849;472.54824974;110;106;99;27242.000000;1.000000;1.000000;1.000000;1.000000;0.028502;-0.028502;0.028502;1.000000
445616.79160126;5696584.25999840;472.55224993;108;101;88;25957.000000;1.000000;1.000000;1.000000;1.000000;0.070002;-0.070002;0.070002;1.000000
445616.87620171;5696584.39449890;472.56234982;152;148;139;38036.000000;1.000000;1.000000;1.000000;1.000000;0.064499;-0.064499;0.064499;1.000000
445616.49450119;5696583.97849854;472.59604980;127;127;115;32125.000000;1.000000;1.000000;1.000000;1.000000;0.069876;-0.069876;0.069876;1.000000
445616.90460213;5696584.19119843;472.54955008;157;157;147;39835.000000;1.000000;1.000000;1.000000;1.000000;-0.138802;0.138802;-0.138802;1.000000
445616.86820229;5696584.15249832;472.54974987;34;32;21;7967.000000;1.000000;1.000000;1.000000;1.000000;-0.177502;0.177502;-0.177502;1.000000
445616.68530090;5696584.53569992;472.57865002;173;169;153;43176.000000;1.000000;1.000000;1.000000;1.000000;0.097826;-0.097826;0.097826;1.000000
445616.40940102;5696584.24339874;472.59534981;131;129;109;32639.000000;1.000000;1.000000;1.000000;1.000000;0.082212;-0.082212;0.082212;1.000000
445616.81480225;5696584.33709915;472.56115009;152;148;139;38036.000000;1.000000;1.000000;1.000000;1.000000;-0.007099;0.007099;-0.007099;1.000000
445616.90140160;5696584.48789986;472.55994989;161;156;137;39835.000000;1.000000;1.000000;1.000000;1.000000;-0.118275;0.118275;-0.118275;1.000000
445616.85960205;5696584.33999832;472.55854990;155;152;141;38807.000000;1.000000;1.000000;1.000000;1.000000;-0.009998;0.009998;-0.009998;1.000000
445616.91120155;5696584.23719986;472.55034973;139;137;127;34952.000000;1.000000;1.000000;1.000000;1.000000;0.092800;-0.092800;0.092800;1.000000
445616.48390205;5696584.41399963;472.59375002;101;98;81;24929.000000;1.000000;1.000000;1.000000;1.000000;0.116328;-0.116328;0.116328;1.000000
445616.64390190;5696584.41349991;472.57065012;194;193;177;49087.000000;1.000000;1.000000;1.000000;1.000000;0.083500;-0.083500;0.083500;1.000000
445616.38480194;5696584.35539825;472.59555008;151;150;142;38293.000000;1.000000;1.000000;1.000000;1.000000;0.046688;-0.046688;0.046688;1.000000
445616.67730148;5696584.23789986;472.55375006;141;140;132;35723.000000;1.000000;1.000000;1.000000;1.000000;-0.092100;0.092100;-0.092100;1.000000
445616.45800217;5696584.36719902;472.60365011;104;107;103;26985.000000;1.000000;1.000000;1.000000;1.000000;0.112691;-0.112691;0.112691;1.000000
445616.97420128;5696584.49049957;472.55854990;171;168;159;42919.000000;1.000000;1.000000;1.000000;1.000000;-0.160500;0.160500;-0.160500;1.000000
445616.77380188;5696584.39929970;472.56244995;154;155;147;39321.000000;1.000000;1.000000;1.000000;1.000000;0.069300;-0.069300;0.069300;1.000000
445616.90580185;5696584.38699921;472.56584980;124;120;110;30840.000000;1.000000;1.000000;1.000000;1.000000;0.056999;-0.056999;0.056999;1.000000
445616.71340187;5696584.27649887;472.55824997;130;128;120;32639.000000;1.000000;1.000000;1.000000;1.000000;-0.053501;0.053501;-0.053501;1.000000
445616.73630150;5696584.20179947;472.57004978;135;134;123;34181.000000;1.000000;1.000000;1.000000;1.000000;-0.128212;0.128212;-0.128212;1.000000
445616.79110153;5696584.40939911;472.56334974;99;98;91;24929.000000;1.000000;1.000000;1.000000;1.000000;-0.060252;0.060252;-0.060252;1.000000
445616.50720222;5696584.36049850;472.58715012;46;43;35;11051.000000;1.000000;1.000000;1.000000;1.000000;0.064800;-0.064800;0.064800;1.000000
445616.84230240;5696584.29969986;472.54804995;89;84;75;21588.000000;1.000000;1.000000;1.000000;1.000000;-0.030300;0.030300;-0.030300;1.000000
445616.38470085;5696584.14999969;472.58614971;157;149;136;38293.000000;1.000000;1.000000;1.000000;1.000000;0.039074;-0.039074;0.039074;1.000000
445616.62890060;5696584.27259834;472.55905010;161;157;142;40092.000000;1.000000;1.000000;1.000000;1.000000;-0.057437;0.057437;-0.057437;1.000000
445616.72360237;5696584.06289871;472.56314995;168;168;159;42919.000000;1.000000;1.000000;1.000000;1.000000;-0.159225;0.159225;-0.159225;1.000000
445616.87390144;5696584.23609932;472.54404976;158;154;137;39321.000000;1.000000;1.000000;1.000000;1.000000;-0.093901;0.093901;-0.093901;1.000000
445616.54900177;5696584.21169861;472.59655001;142;145;129;36494.000000;1.000000;1.000000;1.000000;1.000000;0.015375;-0.015375;0.015375;1.000000
445616.95380219;5696584.34309967;472.55125000;138;135;123;34438.000000;1.000000;1.000000;1.000000;1.000000;-0.013100;0.013100;-0.013100;1.000000
445616.55100067;5696584.37079819;472.57065012;189;186;171;47545.000000;1.000000;1.000000;1.000000;1.000000;0.042935;-0.042935;0.042935;1.000000
445616.50010117;5696584.29319962;472.60704996;151;153;147;38807.000000;1.000000;1.000000;1.000000;1.000000;0.064276;-0.064276;0.064276;1.000000
445616.74260147;5696584.26889999;472.56874992;93;89;79;22873.000000;1.000000;1.000000;1.000000;1.000000;-0.061100;0.061100;-0.061100;1.000000
445616.44720085;5696584.24689873;472.59474995;123;122;101;30583.000000;1.000000;1.000000;1.000000;1.000000;0.115696;-0.115696;0.115696;1.000000
445616.75680168;5696583.97089966;472.57054998;78;76;62;19275.000000;1.000000;1.000000;1.000000;1.000000;-0.192425;0.192425;-0.192425;1.000000
445616.38570221;5696584.36469849;472.59564974;138;137;127;34952.000000;1.000000;1.000000;1.000000;1.000000;0.053010;-0.053010;0.053010;1.000000
445616.58310135;5696584.31629951;472.57604982;209;210;200;53456.000000;1.000000;1.000000;1.000000;1.000000;-0.013700;0.013700;-0.013700;1.000000
445616.95790108;5696584.25869949;472.54344990;175;172;166;44204.000000;1.000000;1.000000;1.000000;1.000000;0.071301;-0.071301;0.071301;1.000000
445616.84660156;5696584.21769913;472.54255011;125;122;104;30840.000000;1.000000;1.000000;1.000000;1.000000;0.112301;-0.112301;0.112301;1.000000
445616.88410194;5696584.21889885;472.54194977;120;119;104;30069.000000;1.000000;1.000000;1.000000;1.000000;0.111101;-0.111101;0.111101;1.000000
445616.74030121;5696584.51909836;472.56934978;199;194;180;49601.000000;1.000000;1.000000;1.000000;1.000000;0.042826;-0.042826;0.042826;1.000000
445616.97260101;5696584.34369858;472.54974987;138;136;126;34695.000000;1.000000;1.000000;1.000000;1.000000;-0.013699;0.013699;-0.013699;1.000000
445616.43350227;5696584.30179985;472.59714987;155;156;148;39578.000000;1.000000;1.000000;1.000000;1.000000;-0.092289;0.092289;-0.092289;1.000000
445616.38400085;5696584.16869934;472.58864977;155;143;127;37008.000000;1.000000;1.000000;1.000000;1.000000;0.038374;-0.038374;0.038374;1.000000
445616.68950089;5696583.95819862;472.58594992;124;123;112;31354.000000;1.000000;1.000000;1.000000;1.000000;-0.125562;0.125562;-0.125562;1.000000
445616.51090248;5696584.30629929;472.60064985;72;74;70;18504.000000;1.000000;1.000000;1.000000;1.000000;0.053474;-0.053474;0.053474;1.000000
445616.79610069;5696584.53959854;472.56745007;163;160;150;40863.000000;1.000000;1.000000;1.000000;1.000000;-0.012974;0.012974;-0.012974;1.000000
445616.43140228;5696584.35569962;472.59994986;171;173;168;43947.000000;1.000000;1.000000;1.000000;1.000000;0.089543;-0.089543;0.089543;1.000000
445616.57590111;5696584.26099976;472.56815006;127;127;110;32125.000000;1.000000;1.000000;1.000000;1.000000;-0.011524;0.011524;-0.011524;1.000000
445616.54140099;5696584.18419846;472.60524990;205;206;193;52428.000000;1.000000;1.000000;1.000000;1.000000;0.022976;-0.022976;0.022976;1.000000
445616.84390076;5696584.52359970;472.56234982;208;204;193;52171.000000;1.000000;1.000000;1.000000;1.000000;-0.060774;0.060774;-0.060774;1.000000
445616.69830139;5696584.44129951;472.56185009;196;193;176;49344.000000;1.000000;1.000000;1.000000;1.000000;0.089283;-0.089283;0.089283;1.000000
445616.61010178;5696584.12249954;472.56104996;160;158;144;40349.000000;1.000000;1.000000;1.000000;1.000000;-0.045725;0.045725;-0.045725;1.000000
445616.65590103;5696584.11579903;472.56764986;105;104;91;26214.000000;1.000000;1.000000;1.000000;1.000000;-0.091524;0.091524;-0.091524;1.000000
445616.58420189;5696584.07569893;472.57095005;129;130;113;32639.000000;1.000000;1.000000;1.000000;1.000000;-0.019825;0.019825;-0.019825;1.000000
445616.63140114;5696584.05719955;472.57515003;147;149;134;37522.000000;1.000000;1.000000;1.000000;1.000000;-0.067024;0.067024;-0.067024;1.000000
445616.57780083;5696583.98959930;472.58594992;159;157;145;40092.000000;1.000000;1.000000;1.000000;1.000000;-0.013424;0.013424;-0.013424;1.000000
445616.45960243;5696584.15239914;472.58955004;129;124;106;31611.000000;1.000000;1.000000;1.000000;1.000000;0.104774;-0.104774;0.104774;1.000000
445616.65800102;5696584.31189926;472.56545021;175;174;164;44461.000000;1.000000;1.000000;1.000000;1.000000;-0.018101;0.018101;-0.018101;1.000000
445616.35370071;5696583.99860008;472.59684994;182;180;172;46003.000000;1.000000;1.000000;1.000000;1.000000;0.008074;-0.008074;0.008074;1.000000
445616.47540100;5696584.19979866;472.59775021;131;128;107;32382.000000;1.000000;1.000000;1.000000;1.000000;0.088976;-0.088976;0.088976;1.000000
445616.72510155;5696584.05339821;472.56304981;173;172;162;43947.000000;1.000000;1.000000;1.000000;1.000000;-0.160725;0.160725;-0.160725;1.000000
445616.64770134;5696584.07919891;472.56925013;67;68;53;16962.000000;1.000000;1.000000;1.000000;1.000000;-0.083324;0.083324;-0.083324;1.000000
445616.95740135;5696584.23069962;472.54775002;98;96;90;24415.000000;1.000000;1.000000;1.000000;1.000000;0.099300;-0.099300;0.099300;1.000000
445616.98830231;5696584.41679962;472.56064989;85;81;73;20817.000000;1.000000;1.000000;1.000000;1.000000;-0.086800;0.086800;-0.086800;1.000000
445616.69020088;5696584.40469940;472.56104996;112;114;100;28527.000000;1.000000;1.000000;1.000000;1.000000;0.074704;-0.074704;0.074704;1.000000
445616.87480171;5696584.45080002;472.55594971;137;134;119;34181.000000;1.000000;1.000000;1.000000;1.000000;-0.093518;0.093518;-0.093518;1.000000
445616.58610161;5696584.24149902;472.56134989;194;195;178;49344.000000;1.000000;1.000000;1.000000;1.000000;-0.021725;0.021725;-0.021725;1.000000
445616.77280243;5696584.21249969;472.56014969;161;157;145;40092.000000;1.000000;1.000000;1.000000;1.000000;-0.117500;0.117500;-0.117500;1.000000
445616.66390236;5696584.17129906;472.55704977;133;130;115;33153.000000;1.000000;1.000000;1.000000;1.000000;-0.099525;0.099525;-0.099525;1.000000
445616.62730225;5696584.13259895;472.56194975;92;90;75;22616.000000;1.000000;1.000000;1.000000;1.000000;-0.062925;0.062925;-0.062925;1.000000
445616.62850197;5696584.09509857;472.56154968;121;120;106;30326.000000;1.000000;1.000000;1.000000;1.000000;-0.064125;0.064125;-0.064125;1.000000
445616.37330063;5696584.00840004;472.59784986;182;179;170;45746.000000;1.000000;1.000000;1.000000;1.000000;0.027674;-0.027674;0.027674;1.000000
445616.80300148;5696584.36379822;472.56794979;156;154;147;39321.000000;1.000000;1.000000;1.000000;1.000000;-0.033798;0.033798;-0.033798;1.000000
445616.51710136;5696584.34089859;472.58734991;63;62;58;15677.000000;1.000000;1.000000;1.000000;1.000000;0.048516;-0.048516;0.048516;1.000000
445616.74250229;5696584.06349953;472.56164982;150;149;139;38036.000000;1.000000;1.000000;1.000000;1.000000;-0.178125;0.178125;-0.178125;1.000000
445616.55030067;5696584.26789864;472.58104994;73;73;59;18247.000000;1.000000;1.000000;1.000000;1.000000;0.014076;-0.014076;0.014076;1.000000
445616.55160149;5696584.15569885;472.57975008;179;176;156;44718.000000;1.000000;1.000000;1.000000;1.000000;0.012775;-0.012775;0.012775;1.000000
445616.67030151;5696584.39479836;472.56694986;90;90;79;22616.000000;1.000000;1.000000;1.000000;1.000000;0.064798;-0.064798;0.064798;1.000000
445616.67300232;5696583.95739944;472.58754971;141;139;127;35466.000000;1.000000;1.000000;1.000000;1.000000;-0.109206;0.109206;-0.109206;1.000000
445616.86340149;5696584.30009850;472.54664995;144;138;129;35466.000000;1.000000;1.000000;1.000000;1.000000;0.029902;-0.029902;0.029902;1.000000
445616.55910118;5696584.40959938;472.57614996;155;154;133;38807.000000;1.000000;1.000000;1.000000;1.000000;0.079774;-0.079774;0.079774;1.000000
445616.91390236;5696584.39569862;472.55935003;98;93;83;23901.000000;1.000000;1.000000;1.000000;1.000000;-0.065699;0.065699;-0.065699;1.000000
445616.52920158;5696584.29769905;472.59205009;63;64;57;15934.000000;1.000000;1.000000;1.000000;1.000000;0.035175;-0.035175;0.035175;1.000000
445616.93710144;5696584.31429871;472.55014994;125;121;116;31097.000000;1.000000;1.000000;1.000000;1.000000;-0.015701;0.015701;-0.015701;1.000000
445616.67870148;5696584.22839935;472.55375006;145;144;135;36751.000000;1.000000;1.000000;1.000000;1.000000;-0.101601;0.101601;-0.101601;1.000000
445616.82580193;5696584.50429924;472.56134989;204;199;187;51143.000000;1.000000;1.000000;1.000000;1.000000;-0.042675;0.042675;-0.042675;1.000000
445616.79130180;5696584.23199852;472.55424978;121;115;101;29555.000000;1.000000;1.000000;1.000000;1.000000;0.098001;-0.098001;0.098001;1.000000
445616.75210197;5696584.46449860;472.55754997;160;155;139;39578.000000;1.000000;1.000000;1.000000;1.000000;0.031386;-0.031386;0.031386;1.000000
445616.78950127;5696584.46559914;472.55924990;181;176;160;44975.000000;1.000000;1.000000;1.000000;1.000000;-0.007328;0.007328;-0.007328;1.000000
445616.93600090;5696584.50809868;472.56174995;191;186;173;47802.000000;1.000000;1.000000;1.000000;1.000000;-0.152874;0.152874;-0.152874;1.000000
445616.71600159;5696584.03319939;472.56705000;112;114;100;28527.000000;1.000000;1.000000;1.000000;1.000000;-0.151625;0.151625;-0.151625;1.000000
445616.90310104;5696584.20059975;472.54955008;154;153;144;39064.000000;1.000000;1.000000;1.000000;1.000000;-0.129400;0.129400;-0.129400;1.000000
445616.96380241;5696584.32349976;472.54675009;141;138;129;35209.000000;1.000000;1.000000;1.000000;1.000000;-0.006500;0.006500;-0.006500;1.000000
445616.85250099;5696584.28249939;472.54594995;126;121;112;31097.000000;1.000000;1.000000;1.000000;1.000000;0.047501;-0.047501;0.047501;1.000000
445616.37400063;5696584.18599899;472.58834984;186;175;157;45232.000000;1.000000;1.000000;1.000000;1.000000;0.028374;-0.028374;0.028374;1.000000
445616.90210159;5696584.46919830;472.55734970;145;140;122;35723.000000;1.000000;1.000000;1.000000;1.000000;-0.118975;0.118975;-0.118975;1.000000
445616.92750175;5696584.28479965;472.54705002;126;122;118;31354.000000;1.000000;1.000000;1.000000;1.000000;0.045200;-0.045200;0.045200;1.000000
445616.41290100;5696584.15209969;472.58745005;173;165;152;42405.000000;1.000000;1.000000;1.000000;1.000000;0.067274;-0.067274;0.067274;1.000000
445616.65020187;5696584.27309998;472.55294992;169;164;151;42148.000000;1.000000;1.000000;1.000000;1.000000;-0.056900;0.056900;-0.056900;1.000000
445616.79830177;5696584.28039940;472.55044987;226;223;213;57054.000000;1.000000;1.000000;1.000000;1.000000;0.049601;-0.049601;0.049601;1.000000
445616.89340218;5696584.24589928;472.54734995;175;172;162;43947.000000;1.000000;1.000000;1.000000;1.000000;0.084101;-0.084101;0.084101;1.000000
445616.80060204;5696584.20539864;472.55195000;60;55;41;13878.000000;1.000000;1.000000;1.000000;1.000000;0.124601;-0.124601;0.124601;1.000000
445616.91320236;5696584.20899971;472.55014994;169;167;157;42662.000000;1.000000;1.000000;1.000000;1.000000;0.121000;-0.121000;0.121000;1.000000
445616.47030075;5696584.11629875;472.58955004;171;168;151;42919.000000;1.000000;1.000000;1.000000;1.000000;0.094076;-0.094076;0.094076;1.000000
445616.54580124;5696584.04629906;472.58514978;52;50;32;12336.000000;1.000000;1.000000;1.000000;1.000000;0.018576;-0.018576;0.018576;1.000000
445616.55030067;5696583.97109993;472.58914997;143;140;131;35723.000000;1.000000;1.000000;1.000000;1.000000;0.014076;-0.014076;0.014076;1.000000
445616.62520226;5696583.97349937;472.59025003;78;77;64;19275.000000;1.000000;1.000000;1.000000;1.000000;-0.060825;0.060825;-0.060825;1.000000
445616.78680237;5696584.54049881;472.56705000;179;176;166;44975.000000;1.000000;1.000000;1.000000;1.000000;-0.003675;0.003675;-0.003675;1.000000
445616.71260078;5696584.49829872;472.57014992;187;183;168;46774.000000;1.000000;1.000000;1.000000;1.000000;0.070526;-0.070526;0.070526;1.000000
445616.47170074;5696584.10689934;472.58955004;155;153;133;38807.000000;1.000000;1.000000;1.000000;1.000000;0.092676;-0.092676;0.092676;1.000000
445616.54090126;5696583.99759872;472.59135010;145;140;125;35723.000000;1.000000;1.000000;1.000000;1.000000;0.023476;-0.023476;0.023476;1.000000
445616.92610176;5696584.35019882;472.55704977;163;162;151;41377.000000;1.000000;1.000000;1.000000;1.000000;-0.020199;0.020199;-0.020199;1.000000
445616.51180084;5696584.40689857;472.58325006;109;105;88;26728.000000;1.000000;1.000000;1.000000;1.000000;0.093154;-0.093154;0.093154;1.000000
445616.40470131;5696584.31849869;472.59604980;157;158;152;40349.000000;1.000000;1.000000;1.000000;1.000000;-0.060184;0.060184;-0.060184;1.000000
445616.86900146;5696584.33919914;472.55664970;142;140;129;35723.000000;1.000000;1.000000;1.000000;1.000000;0.009199;-0.009199;0.009199;1.000000
445616.85940178;5696584.36559875;472.56584980;159;158;150;40349.000000;1.000000;1.000000;1.000000;1.000000;-0.035599;0.035599;-0.035599;1.000000
445616.83740242;5696584.19739922;472.54885008;51;47;33;11822.000000;1.000000;1.000000;1.000000;1.000000;-0.132601;0.132601;-0.132601;1.000000
445616.51290138;5696584.36939819;472.58285000;68;65;51;16448.000000;1.000000;1.000000;1.000000;1.000000;0.064822;-0.064822;0.064822;1.000000
445616.59510239;5696584.26169975;472.55964996;153;152;136;38550.000000;1.000000;1.000000;1.000000;1.000000;-0.030725;0.030725;-0.030725;1.000000
445616.90400131;5696584.20989998;472.54974987;153;151;140;38550.000000;1.000000;1.000000;1.000000;1.000000;-0.120100;0.120100;-0.120100;1.000000
445616.51630219;5696584.33399971;472.58955004;58;59;54;14906.000000;1.000000;1.000000;1.000000;1.000000;0.048241;-0.048241;0.048241;1.000000
445616.43830116;5696584.22669991;472.59415009;115;113;91;28527.000000;1.000000;1.000000;1.000000;1.000000;0.099138;-0.099138;0.099138;1.000000
445616.96300133;5696584.31429871;472.54664995;119;115;108;29555.000000;1.000000;1.000000;1.000000;1.000000;-0.015701;0.015701;-0.015701;1.000000
445616.40210159;5696584.18799980;472.59205009;155;147;130;37779.000000;1.000000;1.000000;1.000000;1.000000;0.056475;-0.056475;0.056475;1.000000
445616.43950089;5696584.18919952;472.59375002;146;140;124;35980.000000;1.000000;1.000000;1.000000;1.000000;0.093874;-0.093874;0.093874;1.000000
445616.54140099;5696583.97889908;472.59345009;172;170;161;43433.000000;1.000000;1.000000;1.000000;1.000000;0.022976;-0.022976;0.022976;1.000000
445616.70380219;5696584.12769897;472.56764986;187;188;177;47802.000000;1.000000;1.000000;1.000000;1.000000;-0.139425;0.139425;-0.139425;1.000000
445616.91210182;5696584.45189865;472.55994989;186;182;169;46517.000000;1.000000;1.000000;1.000000;1.000000;-0.121899;0.121899;-0.121899;1.000000
445616.38590248;5696584.11249931;472.58575012;167;160;153;41377.000000;1.000000;1.000000;1.000000;1.000000;0.040276;-0.040276;0.040276;1.000000
445616.49870117;5696584.11839874;472.58624985;142;141;122;35723.000000;1.000000;1.000000;1.000000;1.000000;0.065676;-0.065676;0.065676;1.000000
445616.89140137;5696584.27419861;472.54754974;111;109;101;27756.000000;1.000000;1.000000;1.000000;1.000000;0.055801;-0.055801;0.055801;1.000000
445616.82750137;5696584.44809921;472.56075003;147;146;133;37008.000000;1.000000;1.000000;1.000000;1.000000;-0.049128;0.049128;-0.049128;1.000000
445616.38690193;5696584.07499893;472.58995010;46;42;35;10794.000000;1.000000;1.000000;1.000000;1.000000;0.041275;-0.041275;0.041275;1.000000
445616.71640213;5696584.46069916;472.56285002;169;163;146;41634.000000;1.000000;1.000000;1.000000;1.000000;0.067257;-0.067257;0.067257;1.000000
445616.76070221;5696584.51019867;472.56545021;179;175;160;44718.000000;1.000000;1.000000;1.000000;1.000000;0.022425;-0.022425;0.022425;1.000000
445616.72210129;5696584.09799965;472.56575014;201;201;191;51143.000000;1.000000;1.000000;1.000000;1.000000;-0.157724;0.157724;-0.157724;1.000000
445616.65000160;5696584.01319893;472.58944990;157;160;140;40092.000000;1.000000;1.000000;1.000000;1.000000;-0.085625;0.085625;-0.085625;1.000000
445616.72460182;5696584.02539833;472.56734993;96;96;82;24158.000000;1.000000;1.000000;1.000000;1.000000;-0.160225;0.160225;-0.160225;1.000000
445616.87510117;5696584.19859894;472.54365017;176;176;163;44718.000000;1.000000;1.000000;1.000000;1.000000;-0.131401;0.131401;-0.131401;1.000000
445616.76220139;5696584.02659996;472.56675007;149;148;135;37522.000000;1.000000;1.000000;1.000000;1.000000;-0.197824;0.197824;-0.197824;1.000000
445616.47690208;5696584.16239937;472.59044983;174;167;147;42662.000000;1.000000;1.000000;1.000000;1.000000;0.087475;-0.087475;0.087475;1.000000
445616.56960114;5696584.17719849;472.58774998;144;143;124;36237.000000;1.000000;1.000000;1.000000;1.000000;-0.005224;0.005224;-0.005224;1.000000
445616.68760117;5696584.01219948;472.58414986;104;108;88;26728.000000;1.000000;1.000000;1.000000;1.000000;-0.123224;0.123224;-0.123224;1.000000
445616.67240150;5696583.97619827;472.58774998;161;159;145;40606.000000;1.000000;1.000000;1.000000;1.000000;-0.108025;0.108025;-0.108025;1.000000
445616.60870178;5696584.33739861;472.57054998;70;70;60;17476.000000;1.000000;1.000000;1.000000;1.000000;0.007399;-0.007399;0.007399;1.000000
445616.47840126;5696584.12729843;472.58774998;171;168;151;42919.000000;1.000000;1.000000;1.000000;1.000000;0.085976;-0.085976;0.085976;1.000000
445616.64600189;5696584.33629997;472.56984999;114;113;104;28784.000000;1.000000;1.000000;1.000000;1.000000;0.006300;-0.006300;0.006300;1.000000
445616.51610191;5696584.12850006;472.58484985;146;146;126;36751.000000;1.000000;1.000000;1.000000;1.000000;0.048275;-0.048275;0.048275;1.000000
445616.42810066;5696584.42139824;472.60295012;124;128;122;32382.000000;1.000000;1.000000;1.000000;1.000000;0.123108;-0.123108;0.123108;1.000000
445616.41590126;5696584.08629997;472.59375002;74;68;58;17476.000000;1.000000;1.000000;1.000000;1.000000;0.070274;-0.070274;0.070274;1.000000
445616.61950119;5696584.07709892;472.56794979;178;179;165;45489.000000;1.000000;1.000000;1.000000;1.000000;-0.055124;0.055124;-0.055124;1.000000
445616.80840118;5696584.26089867;472.54605009;140;132;120;34181.000000;1.000000;1.000000;1.000000;1.000000;-0.069101;0.069101;-0.069101;1.000000
445616.45330246;5696584.08739861;472.59544994;170;168;151;42662.000000;1.000000;1.000000;1.000000;1.000000;0.107676;-0.107676;0.107676;1.000000
445616.43160065;5696584.38369949;472.60265018;214;217;212;55255.000000;1.000000;1.000000;1.000000;1.000000;0.101366;-0.101366;0.101366;1.000000
445616.92200096;5696584.22919853;472.55305006;158;155;145;39578.000000;1.000000;1.000000;1.000000;1.000000;0.100801;-0.100801;0.100801;1.000000
445616.52410133;5696584.34029968;472.58535006;70;70;63;17733.000000;1.000000;1.000000;1.000000;1.000000;0.041572;-0.041572;0.041572;1.000000
445616.59630211;5696584.00899895;472.58005001;87;86;71;21588.000000;1.000000;1.000000;1.000000;1.000000;-0.031925;0.031925;-0.031925;1.000000
445616.79530151;5696584.35519989;472.56514980;193;191;185;48830.000000;1.000000;1.000000;1.000000;1.000000;-0.025200;0.025200;-0.025200;1.000000
445616.57850082;5696584.38929947;472.56974985;186;183;163;46517.000000;1.000000;1.000000;1.000000;1.000000;0.059299;-0.059299;0.059299;1.000000
445616.81030090;5696584.18579872;472.55454971;103;97;83;24929.000000;1.000000;1.000000;1.000000;1.000000;-0.144201;0.144201;-0.144201;1.000000
445616.71790131;5696584.42549904;472.56014969;101;100;86;25186.000000;1.000000;1.000000;1.000000;1.000000;0.078506;-0.078506;0.078506;1.000000
445616.61620148;5696584.39269836;472.57154991;162;160;143;40606.000000;1.000000;1.000000;1.000000;1.000000;0.062698;-0.062698;0.062698;1.000000
445616.58220108;5696584.30709847;472.57595016;206;206;194;52428.000000;1.000000;1.000000;1.000000;1.000000;-0.017824;0.017824;-0.017824;1.000000
445616.68150146;5696584.38679894;472.56274988;124;125;115;31611.000000;1.000000;1.000000;1.000000;1.000000;0.056799;-0.056799;0.056799;1.000000
445616.92890175;5696584.27539833;472.54694988;135;133;128;34181.000000;1.000000;1.000000;1.000000;1.000000;0.054602;-0.054602;0.054602;1.000000
445616.71550186;5696584.22939880;472.56934978;128;125;118;32125.000000;1.000000;1.000000;1.000000;1.000000;-0.100601;0.100601;-0.100601;1.000000
445616.71370132;5696584.30449875;472.55854990;85;82;75;21074.000000;1.000000;1.000000;1.000000;1.000000;-0.025501;0.025501;-0.025501;1.000000
445616.85370071;5696584.47599991;472.55765011;176;170;150;43433.000000;1.000000;1.000000;1.000000;1.000000;-0.070574;0.070574;-0.070574;1.000000
445616.64060219;5696584.29949959;472.56215002;159;155;142;39578.000000;1.000000;1.000000;1.000000;1.000000;-0.030500;0.030500;-0.030500;1.000000
445616.82510193;5696584.31759842;472.55214979;125;119;108;30583.000000;1.000000;1.000000;1.000000;1.000000;0.012402;-0.012402;0.012402;1.000000
445616.89260109;5696584.23669823;472.54724981;177;174;162;44461.000000;1.000000;1.000000;1.000000;1.000000;0.093302;-0.093302;0.093302;1.000000
445616.73330124;5696584.51969917;472.56895020;193;188;173;48059.000000;1.000000;1.000000;1.000000;1.000000;0.049826;-0.049826;0.049826;1.000000
445616.97330101;5696584.32499893;472.54724981;129;126;117;32125.000000;1.000000;1.000000;1.000000;1.000000;0.005001;-0.005001;0.005001;1.000000
445616.41210182;5696584.14279945;472.58724977;164;156;144;40349.000000;1.000000;1.000000;1.000000;1.000000;0.066475;-0.066475;0.066475;1.000000
445616.62460144;5696583.96649940;472.59014990;89;88;75;22102.000000;1.000000;1.000000;1.000000;1.000000;-0.060261;0.060261;-0.060261;1.000000
445616.44160088;5696584.36639984;472.60295012;208;211;206;53713.000000;1.000000;1.000000;1.000000;1.000000;0.102645;-0.102645;0.102645;1.000000
445616.71250160;5696584.07090004;472.56734993;136;137;127;34695.000000;1.000000;1.000000;1.000000;1.000000;-0.148125;0.148125;-0.148125;1.000000
445616.39350136;5696584.37329872;472.59614994;114;114;106;29041.000000;1.000000;1.000000;1.000000;1.000000;0.064550;-0.064550;0.064550;1.000000
445616.72720154;5696584.42469986;472.56054976;98;97;84;24415.000000;1.000000;1.000000;1.000000;1.000000;0.071457;-0.071457;0.071457;1.000000
445616.97610100;5696584.43659981;472.56034996;138;133;125;34181.000000;1.000000;1.000000;1.000000;1.000000;-0.106600;0.106600;-0.106600;1.000000
445616.73560150;5696584.19249924;472.56755020;140;139;129;35466.000000;1.000000;1.000000;1.000000;1.000000;-0.137522;0.137522;-0.137522;1.000000
445616.59680183;5696584.43879898;472.57814981;158;156;136;39578.000000;1.000000;1.000000;1.000000;1.000000;0.108805;-0.108805;0.108805;1.000000
