//X;Y;Z;R;G;B;Intensity;Return Number;Number Of Returns;Scan Direction Flag;Point Source ID;C2M signed distances[-][<0.8];C2M signed distances[<0.4];C2M signed distances[-][<0.2];Stump73
445619.91640099;5696558.27269943;471.84154989;139;126;110;32896.000000;1.000000;1.000000;1.000000;1.000000;0.057301;-0.057301;0.057301;1.000000
445619.80970200;5696558.15649994;471.83995010;188;179;165;46260.000000;1.000000;1.000000;1.000000;1.000000;-0.173500;0.173500;-0.173500;1.000000
445619.70300110;5696558.04029854;471.83844997;170;157;144;40863.000000;1.000000;1.000000;1.000000;1.000000;-0.169874;0.169874;-0.169874;1.000000
445619.94800194;5696558.38429840;471.83734991;34;26;17;6939.000000;1.000000;1.000000;1.000000;1.000000;0.054979;-0.054979;0.054979;1.000000
445619.87530144;5696558.38399895;471.84104969;32;28;28;7453.000000;1.000000;1.000000;1.000000;1.000000;0.053999;-0.053999;0.053999;1.000000
445619.76510246;5696558.30539902;471.84205009;96;83;71;21845.000000;1.000000;1.000000;1.000000;1.000000;-0.024601;0.024601;-0.024601;1.000000
445619.83440216;5696558.41829880;471.83494999;200;199;196;50886.000000;1.000000;1.000000;1.000000;1.000000;0.077974;-0.077974;0.077974;1.000000
445619.72970207;5696558.30169876;471.84044983;61;48;39;12850.000000;1.000000;1.000000;1.000000;1.000000;0.028301;-0.028301;0.028301;1.000000
445619.79670151;5696558.41699799;471.83785011;73;69;63;17733.000000;1.000000;1.000000;1.000000;1.000000;0.044824;-0.044824;0.044824;1.000000
445619.76140221;5696558.41559799;471.84084990;47;39;32;10280.000000;1.000000;1.000000;1.000000;1.000000;0.009525;-0.009525;0.009525;1.000000
445619.79570206;5696558.45450027;471.83594992;148;140;129;36237.000000;1.000000;1.000000;1.000000;1.000000;0.043825;-0.043825;0.043825;1.000000
445619.79450233;5696558.49199875;471.83634998;164;154;139;39835.000000;1.000000;1.000000;1.000000;1.000000;0.042625;-0.042625;0.042625;1.000000
445619.42770203;5696558.36419876;471.87645008;163;159;149;40863.000000;1.000000;1.000000;1.000000;1.000000;-0.034199;0.034199;-0.034199;1.000000
445619.42300232;5696558.43709953;471.87244989;43;41;36;10537.000000;1.000000;1.000000;1.000000;1.000000;-0.047625;0.047625;-0.047625;1.000000
445619.75530251;5696558.52589996;471.84194996;120;113;99;29041.000000;1.000000;1.000000;1.000000;1.000000;0.003425;-0.003425;0.003425;1.000000
445619.58220108;5696558.02569969;471.84445002;54;44;31;11565.000000;1.000000;1.000000;1.000000;1.000000;-0.049074;0.049074;-0.049074;1.000000
445619.54450233;5696558.02449997;471.84734966;118;110;99;28527.000000;1.000000;1.000000;1.000000;1.000000;-0.011375;0.011375;-0.011375;1.000000
445619.61830147;5696558.06429871;471.84884979;158;145;128;37779.000000;1.000000;1.000000;1.000000;1.000000;-0.085174;0.085174;-0.085174;1.000000
445619.38560112;5696558.24189957;471.88245012;69;65;59;16705.000000;1.000000;1.000000;1.000000;1.000000;0.075999;-0.075999;0.075999;1.000000
445619.38440140;5696558.27939804;471.88275005;180;170;160;43947.000000;1.000000;1.000000;1.000000;1.000000;0.050840;-0.050840;0.050840;1.000000
445619.64030083;5696558.40099915;471.85155012;148;137;124;35466.000000;1.000000;1.000000;1.000000;1.000000;0.070999;-0.070999;0.070999;1.000000
445619.58080109;5696558.06309898;471.84944965;158;146;129;37779.000000;1.000000;1.000000;1.000000;1.000000;-0.047674;0.047674;-0.047674;1.000000
445619.65370186;5696558.06579979;471.84585001;182;168;152;43690.000000;1.000000;1.000000;1.000000;1.000000;-0.120574;0.120574;-0.120574;1.000000
445619.69020088;5696558.10679825;471.84565022;162;150;134;38807.000000;1.000000;1.000000;1.000000;1.000000;-0.157073;0.157073;-0.157073;1.000000
445619.65460213;5696558.10299881;471.85094978;132;120;102;31097.000000;1.000000;1.000000;1.000000;1.000000;-0.121475;0.121475;-0.121475;1.000000
445619.76380165;5696558.14429863;471.84705021;191;181;167;46774.000000;1.000000;1.000000;1.000000;1.000000;-0.185701;0.185701;-0.185701;1.000000
445619.38670166;5696558.20439919;471.88434984;157;153;142;39064.000000;1.000000;1.000000;1.000000;1.000000;0.049213;-0.049213;0.049213;1.000000
445619.87040146;5696558.26050003;471.85094978;178;162;144;42148.000000;1.000000;1.000000;1.000000;1.000000;-0.069500;0.069500;-0.069500;1.000000
445619.94230087;5696558.30289848;471.84775021;85;75;56;19275.000000;1.000000;1.000000;1.000000;1.000000;-0.027259;0.027259;-0.027259;1.000000
445619.79430206;5696558.29559906;471.84795000;135;122;108;31868.000000;1.000000;1.000000;1.000000;1.000000;-0.034401;0.034401;-0.034401;1.000000
445619.75580223;5696558.33199890;471.84425022;207;196;182;50629.000000;1.000000;1.000000;1.000000;1.000000;0.003925;-0.003925;0.003925;1.000000
445619.71810158;5696558.33069809;471.84725000;189;178;164;46003.000000;1.000000;1.000000;1.000000;1.000000;-0.000698;0.000698;-0.000698;1.000000
445619.64150246;5696558.36349876;471.85115005;54;43;33;11565.000000;1.000000;1.000000;1.000000;1.000000;0.033499;-0.033499;0.033499;1.000000
445619.82720192;5696558.37199982;471.84795000;94;90;84;23130.000000;1.000000;1.000000;1.000000;1.000000;0.042000;-0.042000;0.042000;1.000000
445619.78960236;5696558.37079819;471.84865000;161;156;144;40092.000000;1.000000;1.000000;1.000000;1.000000;0.037725;-0.037725;0.037725;1.000000
445619.75110062;5696558.40709885;471.84495022;60;53;44;13878.000000;1.000000;1.000000;1.000000;1.000000;-0.000777;0.000777;-0.000777;1.000000
445619.71420105;5696558.44079979;471.85074999;160;153;145;39578.000000;1.000000;1.000000;1.000000;1.000000;-0.037676;0.037676;-0.037676;1.000000
445619.71090134;5696558.47859962;471.84635021;146;141;130;36237.000000;1.000000;1.000000;1.000000;1.000000;-0.040976;0.040976;-0.040976;1.000000
445619.70980080;5696558.51610001;471.84445002;146;141;131;36237.000000;1.000000;1.000000;1.000000;1.000000;-0.042077;0.042077;-0.042077;1.000000
445619.63310249;5696558.54879959;471.85064985;124;119;106;30583.000000;1.000000;1.000000;1.000000;1.000000;-0.118775;0.118775;-0.118775;1.000000
445619.74620064;5696558.55480011;471.84415009;131;124;110;31868.000000;1.000000;1.000000;1.000000;1.000000;-0.005677;0.005677;-0.005677;1.000000
445619.70870216;5696558.55359848;471.84485008;138;133;122;34181.000000;1.000000;1.000000;1.000000;1.000000;-0.043175;0.043175;-0.043175;1.000000
445619.41000183;5696558.57829865;471.88285019;185;178;163;45746.000000;1.000000;1.000000;1.000000;1.000000;-0.060626;0.060626;-0.060626;1.000000
445619.94850166;5696558.15339859;471.81364967;158;155;150;39835.000000;1.000000;1.000000;1.000000;1.000000;-0.176837;0.176837;-0.176837;1.000000
445619.83530243;5696558.18439873;471.84845020;199;189;171;48830.000000;1.000000;1.000000;1.000000;1.000000;-0.145601;0.145601;-0.145601;1.000000
445619.58330162;5696557.98819931;471.84635021;212;208;197;53199.000000;1.000000;1.000000;1.000000;1.000000;-0.050174;0.050174;-0.050174;1.000000
445619.86480148;5696558.37319954;471.84504988;17;14;13;3598.000000;1.000000;1.000000;1.000000;1.000000;0.043200;-0.043200;0.043200;1.000000
445619.71910103;5696558.29099854;471.84684994;41;29;21;7967.000000;1.000000;1.000000;1.000000;1.000000;0.039001;-0.039001;0.039001;1.000000
445619.53950127;5696558.13649948;471.88114979;129;122;106;31354.000000;1.000000;1.000000;1.000000;1.000000;-0.006374;0.006374;-0.006374;1.000000
445619.71680077;5696558.36819847;471.84994986;125;116;103;30069.000000;1.000000;1.000000;1.000000;1.000000;-0.035077;0.035077;-0.035077;1.000000
445619.71560104;5696558.40569885;471.85034992;150;143;133;37008.000000;1.000000;1.000000;1.000000;1.000000;-0.036276;0.036276;-0.036276;1.000000
445619.67920120;5696558.36469849;471.84824993;83;72;59;18761.000000;1.000000;1.000000;1.000000;1.000000;-0.034698;0.034698;-0.034698;1.000000
445619.78490074;5696558.51849945;471.84314968;113;104;86;26728.000000;1.000000;1.000000;1.000000;1.000000;0.033023;-0.033023;0.033023;1.000000
445619.67800148;5696558.40219887;471.84865000;168;159;148;41120.000000;1.000000;1.000000;1.000000;1.000000;-0.072199;0.072199;-0.072199;1.000000
445619.67220123;5696558.51489838;471.84734966;102;96;85;24672.000000;1.000000;1.000000;1.000000;1.000000;-0.079676;0.079676;-0.079676;1.000000
445619.67110069;5696558.55239876;471.84544994;166;162;153;41634.000000;1.000000;1.000000;1.000000;1.000000;-0.080777;0.080777;-0.080777;1.000000
445619.75450142;5696558.36939819;471.84705021;154;145;134;37522.000000;1.000000;1.000000;1.000000;1.000000;0.002624;-0.002624;0.002624;1.000000
445619.93980225;5696558.37559898;471.84614994;28;21;11;5654.000000;1.000000;1.000000;1.000000;1.000000;0.045601;-0.045601;0.045601;1.000000
445619.79280098;5696558.33079918;471.85064985;185;175;161;45232.000000;1.000000;1.000000;1.000000;1.000000;0.000799;-0.000799;0.000799;1.000000
445619.75670250;5696558.29220016;471.84384968;37;25;19;6939.000000;1.000000;1.000000;1.000000;1.000000;-0.038100;0.038100;-0.038100;1.000000
445619.42440231;5696558.20559891;471.88135006;85;80;70;20560.000000;1.000000;1.000000;1.000000;1.000000;0.083727;-0.083727;0.083727;1.000000
445619.72410210;5696557.98479851;471.82704975;150;138;124;35980.000000;1.000000;1.000000;1.000000;1.000000;-0.190975;0.190975;-0.190975;1.000000
445619.68640144;5696557.98359879;471.83005001;130;119;105;30840.000000;1.000000;1.000000;1.000000;1.000000;-0.153274;0.153274;-0.153274;1.000000
445619.93220146;5696558.32929810;471.86625006;173;166;144;42405.000000;1.000000;1.000000;1.000000;1.000000;-0.000702;0.000702;-0.000702;1.000000
445619.64880188;5696557.98239906;471.83295013;89;78;69;20560.000000;1.000000;1.000000;1.000000;1.000000;-0.115682;0.115682;-0.115682;1.000000
445619.96680077;5696558.40609940;471.82905008;74;65;56;16962.000000;1.000000;1.000000;1.000000;1.000000;0.080890;-0.080890;0.080890;1.000000
445619.78810127;5696558.21189888;471.86294987;177;170;155;43690.000000;1.000000;1.000000;1.000000;1.000000;-0.118191;0.118191;-0.118191;1.000000
445619.85700233;5696558.32679947;471.86975004;95;88;75;22616.000000;1.000000;1.000000;1.000000;1.000000;-0.008385;0.008385;-0.008385;1.000000
445619.96330078;5696558.44380005;471.82935001;48;40;34;10537.000000;1.000000;1.000000;1.000000;1.000000;-0.095233;0.095233;-0.095233;1.000000
445619.96200188;5696558.47899826;471.82744982;143;134;126;34695.000000;1.000000;1.000000;1.000000;1.000000;-0.085263;0.085263;-0.085263;1.000000
445619.71320160;5696558.20949944;471.86184980;191;182;170;47031.000000;1.000000;1.000000;1.000000;1.000000;0.120501;-0.120501;0.120501;1.000000
445619.56890114;5696558.09210022;471.86324980;167;154;135;39835.000000;1.000000;1.000000;1.000000;1.000000;-0.035774;0.035774;-0.035774;1.000000
445619.85270126;5696558.43759926;471.83134987;95;92;90;23644.000000;1.000000;1.000000;1.000000;1.000000;0.052112;-0.052112;0.052112;1.000000
445619.60130127;5696558.24079903;471.86654999;181;178;170;45746.000000;1.000000;1.000000;1.000000;1.000000;-0.068174;0.068174;-0.068174;1.000000
445619.58950241;5696558.46389969;471.86394979;158;151;136;38807.000000;1.000000;1.000000;1.000000;1.000000;-0.089708;0.089708;-0.089708;1.000000
445619.51690109;5696558.46129807;471.86294987;159;153;141;39321.000000;1.000000;1.000000;1.000000;1.000000;-0.026507;0.026507;-0.026507;1.000000
445619.54830177;5696558.57279976;471.86345007;129;124;112;31868.000000;1.000000;1.000000;1.000000;1.000000;-0.046424;0.046424;-0.046424;1.000000
445619.47800072;5696558.49749954;471.86634972;99;93;80;23901.000000;1.000000;1.000000;1.000000;1.000000;0.007373;-0.007373;0.007373;1.000000
445619.57390221;5696557.98899849;471.84835007;212;209;200;53456.000000;1.000000;1.000000;1.000000;1.000000;-0.040775;0.040775;-0.040775;1.000000
445619.57270248;5696558.02429970;471.84404995;58;48;36;12593.000000;1.000000;1.000000;1.000000;1.000000;-0.039575;0.039575;-0.039575;1.000000
445619.53510101;5696558.02299889;471.84695007;140;134;122;34438.000000;1.000000;1.000000;1.000000;1.000000;-0.001974;0.001974;-0.001974;1.000000
445619.60890205;5696558.06289871;471.84845020;156;143;127;37265.000000;1.000000;1.000000;1.000000;1.000000;-0.075775;0.075775;-0.075775;1.000000
445619.37620171;5696558.24039848;471.88194992;138;134;126;34438.000000;1.000000;1.000000;1.000000;1.000000;0.070159;-0.070159;0.070159;1.000000
445619.63110168;5696558.40180023;471.85115005;177;166;152;42919.000000;1.000000;1.000000;1.000000;1.000000;-0.071800;0.071800;-0.071800;1.000000
445619.66850098;5696558.40069969;471.84814980;160;150;139;38807.000000;1.000000;1.000000;1.000000;1.000000;-0.070700;0.070700;-0.070700;1.000000
445619.66150101;5696558.55089958;471.84734966;150;145;134;37265.000000;1.000000;1.000000;1.000000;1.000000;-0.090376;0.090376;-0.090376;1.000000
445619.96070107;5696558.51639946;471.83015015;129;119;105;30840.000000;1.000000;1.000000;1.000000;1.000000;-0.083824;0.083824;-0.083824;1.000000
445619.93610199;5696558.25469978;471.83285000;114;106;93;27242.000000;1.000000;1.000000;1.000000;1.000000;-0.075300;0.075300;-0.075300;1.000000
445619.67670067;5696558.17079933;471.86445000;187;181;166;46517.000000;1.000000;1.000000;1.000000;1.000000;-0.143573;0.143573;-0.143573;1.000000
445619.86470230;5696558.13989838;471.83064987;141;129;114;33410.000000;1.000000;1.000000;1.000000;1.000000;-0.190102;0.190102;-0.190102;1.000000
445619.64430244;5696558.06659897;471.84775021;176;162;145;42148.000000;1.000000;1.000000;1.000000;1.000000;-0.111175;0.111175;-0.111175;1.000000
445619.57130249;5696558.06169899;471.84905006;168;154;138;40092.000000;1.000000;1.000000;1.000000;1.000000;-0.038175;0.038175;-0.038175;1.000000
445619.68080147;5696558.10529907;471.84515001;152;141;125;36494.000000;1.000000;1.000000;1.000000;1.000000;-0.147674;0.147674;-0.147674;1.000000
445619.64520081;5696558.10379990;471.85284998;136;124;105;32125.000000;1.000000;1.000000;1.000000;1.000000;-0.112073;0.112073;-0.112073;1.000000
445619.52880104;5696558.17259796;471.88104965;121;119;108;30326.000000;1.000000;1.000000;1.000000;1.000000;0.004326;-0.004326;0.004326;1.000000
445619.93900116;5696558.15199860;471.81314995;132;128;121;32896.000000;1.000000;1.000000;1.000000;1.000000;-0.178001;0.178001;-0.178001;1.000000
445619.37970169;5696558.20269974;471.88164999;138;133;124;34181.000000;1.000000;1.000000;1.000000;1.000000;0.042537;-0.042537;0.042537;1.000000
445619.86020096;5696558.22419937;471.84544994;114;94;76;25186.000000;1.000000;1.000000;1.000000;1.000000;-0.105901;0.105901;-0.105901;1.000000
445619.89670189;5696558.26289948;471.84285023;190;176;159;45746.000000;1.000000;1.000000;1.000000;1.000000;0.067101;-0.067101;0.067101;1.000000
445619.93500145;5696558.30119904;471.84975006;94;83;63;21588.000000;1.000000;1.000000;1.000000;1.000000;-0.028801;0.028801;-0.028801;1.000000
445619.74630173;5696558.33049973;471.84384968;210;200;186;51657.000000;1.000000;1.000000;1.000000;1.000000;0.000500;-0.000500;0.000500;1.000000
445619.70850189;5696558.32929810;471.84915020;193;182;169;47031.000000;1.000000;1.000000;1.000000;1.000000;0.000702;-0.000702;0.000702;1.000000
445619.66980179;5696558.36549957;471.85014965;66;56;44;14649.000000;1.000000;1.000000;1.000000;1.000000;-0.035500;0.035500;-0.035500;1.000000
445619.63460167;5696558.36409958;471.85085012;72;61;50;16191.000000;1.000000;1.000000;1.000000;1.000000;-0.034100;0.034100;-0.034100;1.000000
445619.81770142;5696558.37059982;471.84754993;130;125;118;32125.000000;1.000000;1.000000;1.000000;1.000000;-0.040600;0.040600;-0.040600;1.000000
445619.74500092;5696558.36799820;471.84655001;169;160;148;41377.000000;1.000000;1.000000;1.000000;1.000000;-0.006876;0.006876;-0.006876;1.000000
445619.74160202;5696558.40569885;471.84454967;117;109;99;28270.000000;1.000000;1.000000;1.000000;1.000000;-0.010275;0.010275;-0.010275;1.000000
445619.70270164;5696558.44190033;471.85014965;162;156;147;40092.000000;1.000000;1.000000;1.000000;1.000000;-0.049176;0.049176;-0.049176;1.000000
445619.70160110;5696558.47939880;471.84824993;151;146;135;37522.000000;1.000000;1.000000;1.000000;1.000000;-0.050276;0.050276;-0.050276;1.000000
445619.70030220;5696558.51459892;471.84625008;155;151;141;38807.000000;1.000000;1.000000;1.000000;1.000000;-0.051575;0.051575;-0.051575;1.000000
445619.62620171;5696558.54949959;471.85034992;88;83;71;21331.000000;1.000000;1.000000;1.000000;1.000000;-0.124324;0.124324;-0.124324;1.000000
445619.73670204;5696558.55329903;471.84375002;119;113;100;29041.000000;1.000000;1.000000;1.000000;1.000000;-0.015175;0.015175;-0.015175;1.000000
445619.69910248;5696558.55209930;471.84664967;175;172;161;43947.000000;1.000000;1.000000;1.000000;1.000000;-0.052775;0.052775;-0.052775;1.000000
445619.92810066;5696558.44240006;471.82774975;40;36;33;9252.000000;1.000000;1.000000;1.000000;1.000000;-0.065885;0.065885;-0.065885;1.000000
445619.67780121;5696558.20809944;471.86494972;186;179;167;46003.000000;1.000000;1.000000;1.000000;1.000000;0.121901;-0.121901;0.121901;1.000000
445619.37490089;5696558.27789886;471.88464977;203;193;182;49858.000000;1.000000;1.000000;1.000000;1.000000;0.052101;-0.052101;0.052101;1.000000
445619.88920219;5696558.47639854;471.82875015;105;101;96;25957.000000;1.000000;1.000000;1.000000;1.000000;-0.014389;0.014389;-0.014389;1.000000
445619.86390121;5696558.18879898;471.84515001;115;103;84;26728.000000;1.000000;1.000000;1.000000;1.000000;-0.141204;0.141204;-0.141204;1.000000
445619.96910103;5696558.34009941;471.84934999;180;176;160;44975.000000;1.000000;1.000000;1.000000;1.000000;0.031393;-0.031393;0.031393;1.000000
445619.82600220;5696558.18519981;471.85034992;187;177;161;45746.000000;1.000000;1.000000;1.000000;1.000000;-0.144800;0.144800;-0.144800;1.000000
445619.96790131;5696558.37539871;471.84504988;55;49;38;12593.000000;1.000000;1.000000;1.000000;1.000000;0.053616;-0.053616;0.053616;1.000000
445619.93040092;5696558.37419899;471.84334995;30;24;12;6168.000000;1.000000;1.000000;1.000000;1.000000;0.044199;-0.044199;0.044199;1.000000
445619.71690186;5696558.14389999;471.84964993;182;172;158;44461.000000;1.000000;1.000000;1.000000;1.000000;-0.183774;0.183774;-0.183774;1.000000
445619.78130157;5696558.33189972;471.84775021;185;176;162;45489.000000;1.000000;1.000000;1.000000;1.000000;0.001900;-0.001900;0.001900;1.000000
445619.78010185;5696558.36939819;471.84814980;157;152;140;39064.000000;1.000000;1.000000;1.000000;1.000000;0.028224;-0.028224;0.028224;1.000000
445619.70980080;5696558.29179962;471.84644987;56;45;36;12079.000000;1.000000;1.000000;1.000000;1.000000;0.038200;-0.038200;0.038200;1.000000
445619.53020103;5696558.13739975;471.88075020;143;137;121;35209.000000;1.000000;1.000000;1.000000;1.000000;0.002926;-0.002926;0.002926;1.000000
445619.70730217;5696558.36669930;471.85185005;150;140;127;36237.000000;1.000000;1.000000;1.000000;1.000000;-0.036699;0.036699;-0.036699;1.000000
445619.81080063;5696558.52069862;471.84434988;141;131;111;33667.000000;1.000000;1.000000;1.000000;1.000000;0.058923;-0.058923;0.058923;1.000000
445619.74020203;5696558.44089897;471.84485008;72;65;56;16962.000000;1.000000;1.000000;1.000000;1.000000;-0.011675;0.011675;-0.011675;1.000000
445619.70620163;5696558.40419968;471.84994986;124;117;106;30069.000000;1.000000;1.000000;1.000000;1.000000;-0.045676;0.045676;-0.045676;1.000000
445619.77570160;5696558.51939972;471.84275009;117;108;92;27756.000000;1.000000;1.000000;1.000000;1.000000;0.023824;-0.023824;0.023824;1.000000
445619.41480072;5696558.20409973;471.88324978;113;109;97;27756.000000;1.000000;1.000000;1.000000;1.000000;0.074194;-0.074194;0.074194;1.000000
445619.66260155;5696558.51339920;471.84924986;78;73;60;18761.000000;1.000000;1.000000;1.000000;1.000000;-0.089276;0.089276;-0.089276;1.000000
445619.40050133;5696558.57679947;471.88474991;185;178;163;45746.000000;1.000000;1.000000;1.000000;1.000000;-0.070126;0.070126;-0.070126;1.000000
445619.85530098;5696558.37179955;471.84464981;19;17;15;4369.000000;1.000000;1.000000;1.000000;1.000000;0.042869;-0.042869;0.042869;1.000000
445619.78500183;5696558.29649933;471.84754993;82;68;56;17990.000000;1.000000;1.000000;1.000000;1.000000;-0.033553;0.033553;-0.033553;1.000000
445619.58130081;5696558.01649864;471.84434988;57;49;37;12850.000000;1.000000;1.000000;1.000000;1.000000;-0.048173;0.048173;-0.048173;1.000000
445619.54370125;5696558.01519974;471.84725000;154;150;139;38293.000000;1.000000;1.000000;1.000000;1.000000;-0.010574;0.010574;-0.010574;1.000000
445619.61760147;5696558.05509956;471.84644987;151;138;120;35723.000000;1.000000;1.000000;1.000000;1.000000;-0.084474;0.084474;-0.084474;1.000000
445619.54450233;5696558.05009850;471.85004999;181;170;155;43947.000000;1.000000;1.000000;1.000000;1.000000;-0.011375;0.011375;-0.011375;1.000000
445619.38700111;5696558.23239906;471.88464977;92;88;81;22616.000000;1.000000;1.000000;1.000000;1.000000;0.068900;-0.068900;0.068900;1.000000
445619.38340195;5696558.26779945;471.88264992;140;132;123;34181.000000;1.000000;1.000000;1.000000;1.000000;0.062324;-0.062324;0.062324;1.000000
445619.64180191;5696558.39149864;471.85155012;118;107;94;27756.000000;1.000000;1.000000;1.000000;1.000000;0.061499;-0.061499;0.061499;1.000000
445619.63340195;5696558.57679947;471.85094978;143;140;129;35723.000000;1.000000;1.000000;1.000000;1.000000;-0.118475;0.118475;-0.118475;1.000000
445619.50830086;5696558.01379974;471.85024979;191;186;177;47802.000000;1.000000;1.000000;1.000000;1.000000;0.024827;-0.024827;0.024827;1.000000
445619.58000191;5696558.05389984;471.84705021;146;133;117;34695.000000;1.000000;1.000000;1.000000;1.000000;-0.046875;0.046875;-0.046875;1.000000
445619.68950089;5696558.09749802;471.84314968;162;149;132;38807.000000;1.000000;1.000000;1.000000;1.000000;-0.156374;0.156374;-0.156374;1.000000
445619.65370186;5696558.09369858;471.85085012;139;126;107;32639.000000;1.000000;1.000000;1.000000;1.000000;-0.120574;0.120574;-0.120574;1.000000
445619.69010170;5696558.13239868;471.85064985;202;194;180;49858.000000;1.000000;1.000000;1.000000;1.000000;-0.156974;0.156974;-0.156974;1.000000
445619.76330193;5696558.13739975;471.84464981;192;181;166;46774.000000;1.000000;1.000000;1.000000;1.000000;-0.192600;0.192600;-0.192600;1.000000
445619.53740128;5696558.16479881;471.88135006;108;106;94;26985.000000;1.000000;1.000000;1.000000;1.000000;-0.004274;0.004274;-0.004274;1.000000
445619.38830193;5696558.19489868;471.88194992;112;107;96;27499.000000;1.000000;1.000000;1.000000;1.000000;0.046183;-0.046183;0.046183;1.000000
445619.86980064;5696558.25359924;471.84854986;169;152;136;39835.000000;1.000000;1.000000;1.000000;1.000000;-0.076401;0.076401;-0.076401;1.000000
445619.79220207;5696558.32390030;471.84814980;188;177;163;45746.000000;1.000000;1.000000;1.000000;1.000000;-0.006121;0.006121;-0.006121;1.000000
445619.71730240;5696558.32149895;471.84705021;192;180;167;46774.000000;1.000000;1.000000;1.000000;1.000000;0.008501;-0.008501;0.008501;1.000000
445619.67820175;5696558.35539825;471.85034992;88;77;65;20046.000000;1.000000;1.000000;1.000000;1.000000;-0.025398;0.025398;-0.025398;1.000000
445619.64300163;5696558.35399826;471.85115005;44;33;24;8995.000000;1.000000;1.000000;1.000000;1.000000;0.023998;-0.023998;0.023998;1.000000
445619.75360115;5696558.36019905;471.84684994;176;166;153;42919.000000;1.000000;1.000000;1.000000;1.000000;0.001724;-0.001724;0.001724;1.000000
445619.82860191;5696558.36249931;471.84795000;147;142;134;36494.000000;1.000000;1.000000;1.000000;1.000000;0.032499;-0.032499;0.032499;1.000000
445619.67710121;5696558.39289864;471.84845020;170;160;149;41377.000000;1.000000;1.000000;1.000000;1.000000;-0.062899;0.062899;-0.062899;1.000000
445619.71340187;5696558.43159874;471.85055019;166;160;151;41120.000000;1.000000;1.000000;1.000000;1.000000;-0.038476;0.038476;-0.038476;1.000000
445619.71230133;5696558.46909912;471.84865000;152;147;137;37779.000000;1.000000;1.000000;1.000000;1.000000;-0.039576;0.039576;-0.039576;1.000000
445619.71120079;5696558.50659950;471.84664967;104;98;86;25186.000000;1.000000;1.000000;1.000000;1.000000;-0.040677;0.040677;-0.040677;1.000000
445619.78240211;5696558.54429825;471.85034992;116;109;93;28013.000000;1.000000;1.000000;1.000000;1.000000;0.030525;-0.030525;0.030525;1.000000
445619.70780190;5696558.54429825;471.84464981;122;117;105;30069.000000;1.000000;1.000000;1.000000;1.000000;-0.044075;0.044075;-0.044075;1.000000
445619.63460167;5696558.53929909;471.85064985;99;93;82;23901.000000;1.000000;1.000000;1.000000;1.000000;-0.117276;0.117276;-0.117276;1.000000
445619.74770172;5696558.54529961;471.84415009;149;141;126;36237.000000;1.000000;1.000000;1.000000;1.000000;-0.004176;0.004176;-0.004176;1.000000
445619.42210205;5696558.23149879;471.88154985;64;58;49;14906.000000;1.000000;1.000000;1.000000;1.000000;0.093767;-0.093767;0.093767;1.000000
445619.95010193;5696558.14399918;471.81125023;106;103;100;26471.000000;1.000000;1.000000;1.000000;1.000000;-0.186310;0.186310;-0.186310;1.000000
445619.83480080;5696558.17749985;471.84604980;186;176;159;45489.000000;1.000000;1.000000;1.000000;1.000000;-0.152500;0.152500;-0.152500;1.000000
445619.79920204;5696558.17369850;471.84905006;205;198;184;50886.000000;1.000000;1.000000;1.000000;1.000000;-0.156301;0.156301;-0.156301;1.000000
445619.93920143;5696558.37089928;471.85074999;25;21;9;5140.000000;1.000000;1.000000;1.000000;1.000000;0.040899;-0.040899;0.040899;1.000000
445619.72540100;5696558.13379868;471.84754993;189;179;165;46260.000000;1.000000;1.000000;1.000000;1.000000;-0.192274;0.192274;-0.192274;1.000000
445619.65540131;5696558.05859955;471.84355022;161;148;133;38550.000000;1.000000;1.000000;1.000000;1.000000;-0.122274;0.122274;-0.122274;1.000000
445619.90370186;5696558.36489876;471.84674980;87;81;68;20817.000000;1.000000;1.000000;1.000000;1.000000;0.034899;-0.034899;0.034899;1.000000
445619.79330070;5696558.28629883;471.85014965;153;139;126;36237.000000;1.000000;1.000000;1.000000;1.000000;-0.043701;0.043701;-0.043701;1.000000
445619.71830185;5696558.28399857;471.84905006;29;20;13;5397.000000;1.000000;1.000000;1.000000;1.000000;0.046001;-0.046001;0.046001;1.000000
445619.54090126;5696558.12710007;471.88104965;136;128;111;32896.000000;1.000000;1.000000;1.000000;1.000000;-0.007774;0.007774;-0.007774;1.000000
445619.75230225;5696558.39539917;471.84485008;72;64;55;16705.000000;1.000000;1.000000;1.000000;1.000000;0.000425;-0.000425;0.000425;1.000000
445619.71580132;5696558.35659988;471.84975006;112;102;87;26471.000000;1.000000;1.000000;1.000000;1.000000;-0.026600;0.026600;-0.026600;1.000000
445619.75120171;5696558.43289955;471.84294989;51;44;35;11565.000000;1.000000;1.000000;1.000000;1.000000;-0.000676;0.000676;-0.000676;1.000000
445619.71460159;5696558.39409836;471.85014965;149;141;130;36494.000000;1.000000;1.000000;1.000000;1.000000;-0.037276;0.037276;-0.037276;1.000000
445619.74650200;5696558.50799950;471.84364988;153;145;132;37265.000000;1.000000;1.000000;1.000000;1.000000;-0.005375;0.005375;-0.005375;1.000000
445619.67580231;5696558.43039902;471.85115005;156;150;140;38550.000000;1.000000;1.000000;1.000000;1.000000;-0.076075;0.076075;-0.076075;1.000000
445619.42580231;5696558.19610031;471.88135006;75;71;60;17990.000000;1.000000;1.000000;1.000000;1.000000;0.082366;-0.082366;0.082366;1.000000
445619.67350204;5696558.50539978;471.84964993;83;77;64;19789.000000;1.000000;1.000000;1.000000;1.000000;-0.078375;0.078375;-0.078375;1.000000
445619.67000206;5696558.54080017;471.84524967;162;157;146;40349.000000;1.000000;1.000000;1.000000;1.000000;-0.081875;0.081875;-0.081875;1.000000
445619.79110153;5696558.36129959;471.84854986;150;144;131;37008.000000;1.000000;1.000000;1.000000;1.000000;0.031341;-0.031341;0.031341;1.000000
445619.75830086;5696558.28499802;471.84614994;37;26;19;7196.000000;1.000000;1.000000;1.000000;1.000000;-0.045113;0.045113;-0.045113;1.000000
445619.59700211;5696558.53809937;471.85125019;38;33;24;8481.000000;1.000000;1.000000;1.000000;1.000000;-0.095125;0.095125;-0.095125;1.000000
445619.86380203;5696558.36389931;471.84725000;14;11;8;2827.000000;1.000000;1.000000;1.000000;1.000000;0.033914;-0.033914;0.033914;1.000000
445619.57430084;5696558.01709946;471.84635021;57;50;38;12850.000000;1.000000;1.000000;1.000000;1.000000;-0.041173;0.041173;-0.041173;1.000000
445619.53650101;5696558.01359947;471.84695007;167;163;153;41891.000000;1.000000;1.000000;1.000000;1.000000;-0.003374;0.003374;-0.003374;1.000000
445619.53510101;5696558.05099876;471.85195019;174;164;150;42405.000000;1.000000;1.000000;1.000000;1.000000;-0.001974;0.001974;-0.001974;1.000000
445619.60830124;5696558.05599983;471.84594967;156;142;124;37008.000000;1.000000;1.000000;1.000000;1.000000;-0.075174;0.075174;-0.075174;1.000000
445619.37760170;5696558.23099907;471.88194992;142;138;130;35466.000000;1.000000;1.000000;1.000000;1.000000;0.062541;-0.062541;0.062541;1.000000
445619.63250168;5696558.39229973;471.85104992;146;134;121;34952.000000;1.000000;1.000000;1.000000;1.000000;-0.062300;0.062300;-0.062300;1.000000
445619.66790207;5696558.39379890;471.84804966;165;155;144;40092.000000;1.000000;1.000000;1.000000;1.000000;-0.063799;0.063799;-0.063799;1.000000
445619.57080086;5696558.05480011;471.84664967;165;152;136;39578.000000;1.000000;1.000000;1.000000;1.000000;-0.037673;0.037673;-0.037673;1.000000
445619.64590080;5696558.05719955;471.84534981;153;139;123;36237.000000;1.000000;1.000000;1.000000;1.000000;-0.112773;0.112773;-0.112773;1.000000
445619.64450081;5696558.09459885;471.85045006;137;124;105;32125.000000;1.000000;1.000000;1.000000;1.000000;-0.111373;0.111373;-0.111373;1.000000
445619.67990120;5696558.09609802;471.84504988;161;149;132;38550.000000;1.000000;1.000000;1.000000;1.000000;-0.146774;0.146774;-0.146774;1.000000
445619.71620186;5696558.13469894;471.84714987;185;175;161;45232.000000;1.000000;1.000000;1.000000;1.000000;-0.183074;0.183074;-0.183074;1.000000
445619.68050201;5696558.13089951;471.85244991;202;193;178;49858.000000;1.000000;1.000000;1.000000;1.000000;-0.147375;0.147375;-0.147375;1.000000
445619.52800186;5696558.16329964;471.88094999;75;72;59;18247.000000;1.000000;1.000000;1.000000;1.000000;0.005126;-0.005126;0.005126;1.000000
445619.94050224;5696558.14250000;471.81314995;99;94;90;24415.000000;1.000000;1.000000;1.000000;1.000000;-0.187503;0.187503;-0.187503;1.000000
445619.37900169;5696558.19579895;471.88154985;122;117;107;30069.000000;1.000000;1.000000;1.000000;1.000000;0.038190;-0.038190;0.038190;1.000000
445619.86170204;5696558.21469887;471.84534981;84;67;47;17733.000000;1.000000;1.000000;1.000000;1.000000;-0.115343;0.115343;-0.115343;1.000000
445619.41510208;5696558.23209961;471.88364985;51;45;38;11822.000000;1.000000;1.000000;1.000000;1.000000;0.088496;-0.088496;0.088496;1.000000
445619.86030205;5696558.25210007;471.85034992;172;153;135;40092.000000;1.000000;1.000000;1.000000;1.000000;-0.078030;0.078030;-0.078030;1.000000
445619.93200119;5696558.29220016;471.84714987;86;75;57;19532.000000;1.000000;1.000000;1.000000;1.000000;-0.037800;0.037800;-0.037800;1.000000
445619.37280090;5696558.30379875;471.88025000;96;83;69;21845.000000;1.000000;1.000000;1.000000;1.000000;0.026201;-0.026201;0.026201;1.000000
445619.74570091;5696558.32359894;471.84375002;216;206;192;53199.000000;1.000000;1.000000;1.000000;1.000000;-0.006401;0.006401;-0.006401;1.000000
445619.71000107;5696558.31979950;471.84905006;187;175;162;45489.000000;1.000000;1.000000;1.000000;1.000000;0.010201;-0.010201;0.010201;1.000000
445619.66900070;5696558.35629852;471.84994986;66;54;44;14392.000000;1.000000;1.000000;1.000000;1.000000;-0.026299;0.026299;-0.026299;1.000000
445619.74410065;5696558.35869797;471.84644987;191;181;167;46774.000000;1.000000;1.000000;1.000000;1.000000;-0.007777;0.007777;-0.007777;1.000000
445619.70870216;5696558.35719879;471.85174992;124;113;97;29298.000000;1.000000;1.000000;1.000000;1.000000;-0.027199;0.027199;-0.027199;1.000000
445619.74310120;5696558.39620026;471.84445002;125;117;108;30326.000000;1.000000;1.000000;1.000000;1.000000;-0.008776;0.008776;-0.008776;1.000000
445619.70390137;5696558.43009956;471.85014965;156;150;141;38550.000000;1.000000;1.000000;1.000000;1.000000;-0.047976;0.047976;-0.047976;1.000000
445619.70280083;5696558.46759995;471.84814980;173;169;159;43433.000000;1.000000;1.000000;1.000000;1.000000;-0.049077;0.049077;-0.049077;1.000000
445619.69940193;5696558.50539978;471.84614994;108;103;92;26471.000000;1.000000;1.000000;1.000000;1.000000;-0.052475;0.052475;-0.052475;1.000000
445619.77310188;5696558.54519852;471.84994986;137;129;113;33153.000000;1.000000;1.000000;1.000000;1.000000;0.021224;-0.021224;0.021224;1.000000
445619.73590096;5696558.54409988;471.84355022;154;147;134;37779.000000;1.000000;1.000000;1.000000;1.000000;-0.015976;0.015976;-0.015976;1.000000
445619.69830139;5696558.54289825;471.84425022;135;131;120;33410.000000;1.000000;1.000000;1.000000;1.000000;-0.053576;0.053576;-0.053576;1.000000
445619.62530144;5696558.54019936;471.85014965;67;61;51;15677.000000;1.000000;1.000000;1.000000;1.000000;-0.123424;0.123424;-0.123424;1.000000
445619.37640198;5696558.26840027;471.88234999;178;170;160;43947.000000;1.000000;1.000000;1.000000;1.000000;0.061600;-0.061600;0.061600;1.000000
445619.39970215;5696558.56759842;471.88224985;186;178;162;45746.000000;1.000000;1.000000;1.000000;1.000000;-0.070925;0.070925;-0.070925;1.000000
445619.96840103;5696558.33090027;471.84454967;155;149;133;38293.000000;1.000000;1.000000;1.000000;1.000000;0.029038;-0.029038;0.029038;1.000000
445619.82760246;5696558.17579849;471.84565022;195;185;169;47802.000000;1.000000;1.000000;1.000000;1.000000;-0.154202;0.154202;-0.154202;1.000000
445619.96930130;5696558.36809929;471.84975006;109;106;94;26985.000000;1.000000;1.000000;1.000000;1.000000;0.048446;-0.048446;0.048446;1.000000
445619.79000099;5696558.17459877;471.84865000;212;205;192;52685.000000;1.000000;1.000000;1.000000;1.000000;-0.155425;0.155425;-0.155425;1.000000
445619.92970093;5696558.36949928;471.85024979;29;24;11;6168.000000;1.000000;1.000000;1.000000;1.000000;-0.039499;0.039499;-0.039499;1.000000
445619.89420135;5696558.36349876;471.84625008;68;62;53;15934.000000;1.000000;1.000000;1.000000;1.000000;-0.033499;0.033499;-0.033499;1.000000
445619.81920250;5696558.36339958;471.84985020;178;172;163;44204.000000;1.000000;1.000000;1.000000;1.000000;-0.033400;0.033400;-0.033400;1.000000
445619.78280075;5696558.32239922;471.84775021;196;185;171;47802.000000;1.000000;1.000000;1.000000;1.000000;-0.007601;0.007601;-0.007601;1.000000
445619.74880226;5696558.28349884;471.84574987;27;19;14;5140.000000;1.000000;1.000000;1.000000;1.000000;-0.046501;0.046501;-0.046501;1.000000
445619.71140106;5696558.28459938;471.84874966;34;24;17;6682.000000;1.000000;1.000000;1.000000;1.000000;0.045401;-0.045401;0.045401;1.000000
445619.78160103;5696558.35989960;471.84814980;144;137;123;35209.000000;1.000000;1.000000;1.000000;1.000000;0.029724;-0.029724;0.029724;1.000000
445619.74190147;5696558.43369873;471.84485008;75;68;60;17733.000000;1.000000;1.000000;1.000000;1.000000;-0.009976;0.009976;-0.009976;1.000000
445619.70530136;5696558.39499863;471.84975006;132;124;114;32125.000000;1.000000;1.000000;1.000000;1.000000;-0.046576;0.046576;-0.046576;1.000000
445619.73940094;5696558.50639923;471.84334995;151;143;130;36751.000000;1.000000;1.000000;1.000000;1.000000;-0.012476;0.012476;-0.012476;1.000000
445619.66400154;5696558.50389870;471.85155012;81;76;62;19275.000000;1.000000;1.000000;1.000000;1.000000;-0.087876;0.087876;-0.087876;1.000000
445619.66300209;5696558.54139908;471.84725000;140;135;123;34695.000000;1.000000;1.000000;1.000000;1.000000;-0.088875;0.088875;-0.088875;1.000000
445619.62420090;5696558.57769974;471.85055019;200;198;188;50629.000000;1.000000;1.000000;1.000000;1.000000;-0.122324;0.122324;-0.122324;1.000000
445619.78410156;5696558.28719910;471.84975006;86;73;61;19275.000000;1.000000;1.000000;1.000000;1.000000;-0.042812;0.042812;-0.042812;1.000000
445619.41650208;5696558.19699867;471.88324978;96;91;79;23387.000000;1.000000;1.000000;1.000000;1.000000;0.073570;-0.073570;0.073570;1.000000
445619.85680206;5696558.36459930;471.84924986;19;16;13;4112.000000;1.000000;1.000000;1.000000;1.000000;0.035513;-0.035513;0.035513;1.000000
445619.61990173;5696558.02699860;471.83914997;116;103;88;26985.000000;1.000000;1.000000;1.000000;1.000000;-0.086774;0.086774;-0.086774;1.000000
445619.35680206;5696558.05319984;471.87185003;155;148;136;38036.000000;1.000000;1.000000;1.000000;1.000000;0.011175;-0.011175;0.011175;1.000000
445619.39300163;5696558.09179886;471.87395002;185;178;164;45746.000000;1.000000;1.000000;1.000000;1.000000;0.047374;-0.047374;0.047374;1.000000
445619.54130180;5696558.10149963;471.87144997;148;136;118;35209.000000;1.000000;1.000000;1.000000;1.000000;-0.008174;0.008174;-0.008174;1.000000
445619.43060120;5696558.09299858;471.87334969;143;135;119;34695.000000;1.000000;1.000000;1.000000;1.000000;0.084974;-0.084974;0.084974;1.000000
445619.35410126;5696558.12809952;471.87964966;105;99;86;25443.000000;1.000000;1.000000;1.000000;1.000000;0.008474;-0.008474;0.008474;1.000000
445619.57720192;5696558.13780029;471.87585022;113;104;86;26728.000000;1.000000;1.000000;1.000000;1.000000;-0.044075;0.044075;-0.044075;1.000000
445619.39180191;5696558.12929924;471.87435009;95;88;73;22616.000000;1.000000;1.000000;1.000000;1.000000;0.046175;-0.046175;0.046175;1.000000
445619.46320160;5696558.16939934;471.87804987;97;93;77;23644.000000;1.000000;1.000000;1.000000;1.000000;0.069926;-0.069926;0.069926;1.000000
445619.42570122;5696558.16819962;471.87865021;164;160;146;40863.000000;1.000000;1.000000;1.000000;1.000000;0.080074;-0.080074;0.080074;1.000000
445619.61150177;5696558.17669876;471.87085011;219;218;207;55769.000000;1.000000;1.000000;1.000000;1.000000;-0.078374;0.078374;-0.078374;1.000000
445619.57610138;5696558.17529877;471.87624981;204;203;193;51914.000000;1.000000;1.000000;1.000000;1.000000;-0.042974;0.042974;-0.042974;1.000000
445619.53720100;5696558.20929916;471.87484982;42;41;35;10280.000000;1.000000;1.000000;1.000000;1.000000;-0.004074;0.004074;-0.004074;1.000000
445619.46210106;5696558.20689972;471.87614967;105;100;89;25700.000000;1.000000;1.000000;1.000000;1.000000;0.071026;-0.071026;0.071026;1.000000
445619.46110161;5696558.24439819;471.87185003;72;66;56;16962.000000;1.000000;1.000000;1.000000;1.000000;0.072026;-0.072026;0.072026;1.000000
445619.42240150;5696558.28069885;471.87284996;117;106;95;27756.000000;1.000000;1.000000;1.000000;1.000000;0.049301;-0.049301;0.049301;1.000000
445619.38230141;5696558.35209854;471.87424995;156;149;139;38293.000000;1.000000;1.000000;1.000000;1.000000;-0.022281;0.022281;-0.022281;1.000000
445619.38090141;5696558.38949974;471.87925007;76;75;67;19018.000000;1.000000;1.000000;1.000000;1.000000;-0.059517;0.059517;-0.059517;1.000000
445619.45370110;5696558.39219864;471.87564995;193;194;188;49601.000000;1.000000;1.000000;1.000000;1.000000;-0.016926;0.016926;-0.016926;1.000000
445619.41600235;5696558.39089973;471.88084986;142;143;136;36237.000000;1.000000;1.000000;1.000000;1.000000;-0.054625;0.054625;-0.054625;1.000000
445619.41510208;5696558.42849930;471.87435009;54;53;50;13364.000000;1.000000;1.000000;1.000000;1.000000;-0.055525;0.055525;-0.055525;1.000000
445619.40930183;5696558.54119881;471.87305023;194;182;168;47288.000000;1.000000;1.000000;1.000000;1.000000;-0.061326;0.061326;-0.061326;1.000000
445619.44560249;5696558.57979973;471.87515022;211;202;187;52171.000000;1.000000;1.000000;1.000000;1.000000;-0.025025;0.025025;-0.025025;1.000000
445619.46910103;5696558.02199944;471.85564997;165;159;148;40863.000000;1.000000;1.000000;1.000000;1.000000;0.064026;-0.064026;0.064026;1.000000
445619.54300125;5696558.06189926;471.85475018;162;150;133;38807.000000;1.000000;1.000000;1.000000;1.000000;-0.009874;0.009874;-0.009874;1.000000
445619.64600189;5696558.29049881;471.85984995;155;148;136;38036.000000;1.000000;1.000000;1.000000;1.000000;-0.039501;0.039501;-0.039501;1.000000
445619.60710152;5696558.32449921;471.86074974;99;91;76;23387.000000;1.000000;1.000000;1.000000;1.000000;0.005501;-0.005501;0.005501;1.000000
445619.64240082;5696558.32589920;471.85774996;59;51;37;13107.000000;1.000000;1.000000;1.000000;1.000000;-0.004101;0.004101;-0.004101;1.000000
445619.53090103;5696558.35959824;471.86004974;124;111;99;29041.000000;1.000000;1.000000;1.000000;1.000000;0.029598;-0.029598;0.029598;1.000000
445619.60260208;5696558.39969833;471.85685017;187;177;163;45746.000000;1.000000;1.000000;1.000000;1.000000;-0.069698;0.069698;-0.069698;1.000000
445619.56720169;5696558.39829834;471.85984995;178;170;159;43947.000000;1.000000;1.000000;1.000000;1.000000;-0.068298;0.068298;-0.068298;1.000000
445619.60130127;5696558.43719872;471.85955002;149;142;127;36494.000000;1.000000;1.000000;1.000000;1.000000;-0.107199;0.107199;-0.107199;1.000000
445619.67430122;5696558.43979843;471.85354998;173;166;157;42919.000000;1.000000;1.000000;1.000000;1.000000;-0.077576;0.077576;-0.077576;1.000000
445619.63740166;5696558.47349937;471.85925009;178;175;159;44718.000000;1.000000;1.000000;1.000000;1.000000;-0.114476;0.114476;-0.114476;1.000000
445619.50680168;5696558.02319916;471.85265018;187;181;171;46517.000000;1.000000;1.000000;1.000000;1.000000;0.026326;-0.026326;0.026326;1.000000
445619.50760086;5696558.06040009;471.86014988;172;163;149;42148.000000;1.000000;1.000000;1.000000;1.000000;0.025527;-0.025527;0.025527;1.000000
445619.61670120;5696558.10169800;471.85855009;136;123;102;31868.000000;1.000000;1.000000;1.000000;1.000000;-0.083574;0.083574;-0.083574;1.000000
445619.68850143;5696558.14189919;471.85295012;216;208;193;53456.000000;1.000000;1.000000;1.000000;1.000000;-0.155374;0.155374;-0.155374;1.000000
445619.65080078;5696558.14060028;471.85825016;200;191;174;49087.000000;1.000000;1.000000;1.000000;1.000000;-0.117673;0.117673;-0.117673;1.000000
445619.76010139;5696558.18419846;471.85675003;191;184;172;47288.000000;1.000000;1.000000;1.000000;1.000000;-0.145808;0.145808;-0.145808;1.000000
445619.94710167;5696558.19079979;471.81864979;121;116;106;29812.000000;1.000000;1.000000;1.000000;1.000000;-0.139414;0.139414;-0.139414;1.000000
445619.79520233;5696558.25809868;471.85454990;99;85;69;22359.000000;1.000000;1.000000;1.000000;1.000000;-0.071901;0.071901;-0.071901;1.000000
445619.75760086;5696558.25689896;471.85514977;84;77;67;20046.000000;1.000000;1.000000;1.000000;1.000000;-0.073203;0.073203;-0.073203;1.000000
445619.72240074;5696558.25549896;471.85584976;158;152;143;39064.000000;1.000000;1.000000;1.000000;1.000000;0.074501;-0.074501;0.074501;1.000000
445619.68120201;5696558.28969963;471.85444977;68;56;46;14906.000000;1.000000;1.000000;1.000000;1.000000;-0.040300;0.040300;-0.040300;1.000000
445619.68010147;5696558.32720001;471.85244991;192;183;168;47288.000000;1.000000;1.000000;1.000000;1.000000;-0.002800;0.002800;-0.002800;1.000000
445619.56840141;5696558.36079987;471.85944988;159;147;133;38293.000000;1.000000;1.000000;1.000000;1.000000;-0.030800;0.030800;-0.030800;1.000000
445619.52970131;5696558.39709862;471.86044981;187;179;169;46260.000000;1.000000;1.000000;1.000000;1.000000;0.059074;-0.059074;0.059074;1.000000
445619.63890083;5696558.43839844;471.85654976;181;175;162;44975.000000;1.000000;1.000000;1.000000;1.000000;-0.108398;0.108398;-0.108398;1.000000
445619.67320068;5696558.47729881;471.85164978;149;146;134;37265.000000;1.000000;1.000000;1.000000;1.000000;-0.078677;0.078677;-0.078677;1.000000
445619.59900101;5696558.51209839;471.85794975;82;79;66;20046.000000;1.000000;1.000000;1.000000;1.000000;-0.097124;0.097124;-0.097124;1.000000
445619.56000145;5696558.54609879;471.85895016;116;113;104;28784.000000;1.000000;1.000000;1.000000;1.000000;-0.058124;0.058124;-0.058124;1.000000
445619.78320129;5696558.55579956;471.85514977;119;111;96;28527.000000;1.000000;1.000000;1.000000;1.000000;0.031324;-0.031324;0.031324;1.000000
445619.62120064;5696557.98950012;471.83645012;186;177;165;45746.000000;1.000000;1.000000;1.000000;1.000000;-0.088073;0.088073;-0.088073;1.000000
445619.65520103;5696558.02839859;471.83844997;189;175;161;45489.000000;1.000000;1.000000;1.000000;1.000000;-0.122074;0.122074;-0.122074;1.000000
445619.69140060;5696558.06699951;471.84054996;147;133;119;34695.000000;1.000000;1.000000;1.000000;1.000000;-0.158273;0.158273;-0.158273;1.000000
445619.42940147;5696558.13049896;471.87375023;146;142;126;36237.000000;1.000000;1.000000;1.000000;1.000000;0.083774;-0.083774;0.083774;1.000000
445619.46470078;5696558.13419922;471.87535002;168;166;151;42148.000000;1.000000;1.000000;1.000000;1.000000;0.068427;-0.068427;0.068427;1.000000
445619.39050110;5696558.16679962;471.87704994;66;60;49;15420.000000;1.000000;1.000000;1.000000;1.000000;0.044874;-0.044874;0.044874;1.000000
445619.53840073;5696558.17399796;471.87914993;184;184;172;46774.000000;1.000000;1.000000;1.000000;1.000000;-0.005273;0.005273;-0.005273;1.000000
445619.50100143;5696558.17289932;471.87745001;99;96;84;24415.000000;1.000000;1.000000;1.000000;1.000000;0.032126;-0.032126;0.032126;1.000000
445619.42340096;5696558.24309929;471.87715008;72;64;57;16705.000000;1.000000;1.000000;1.000000;1.000000;0.086901;-0.086901;0.086901;1.000000
445619.90620239;5696558.26429947;471.84095003;164;153;137;39578.000000;1.000000;1.000000;1.000000;1.000000;-0.065701;0.065701;-0.065701;1.000000
445619.41890152;5696558.31839951;471.87314989;163;153;144;39835.000000;1.000000;1.000000;1.000000;1.000000;0.011600;-0.011600;0.011600;1.000000
445619.38360222;5696558.31690033;471.87624981;65;54;45;14392.000000;1.000000;1.000000;1.000000;1.000000;0.013738;-0.013738;0.013738;1.000000
445619.41740234;5696558.35349854;471.87585022;128;121;111;31354.000000;1.000000;1.000000;1.000000;1.000000;-0.023499;0.023499;-0.023499;1.000000
445619.78750237;5696558.44359978;471.83774998;172;165;155;42662.000000;1.000000;1.000000;1.000000;1.000000;0.035625;-0.035625;0.035625;1.000000
445619.74870117;5696558.47979935;471.84104969;175;167;154;42919.000000;1.000000;1.000000;1.000000;1.000000;-0.003176;0.003176;-0.003176;1.000000
445619.85830124;5696558.52349861;471.83494999;211;203;187;52171.000000;1.000000;1.000000;1.000000;1.000000;0.018576;-0.018576;0.018576;1.000000
445619.83390244;5696558.22179993;471.85354998;113;96;77;25443.000000;1.000000;1.000000;1.000000;1.000000;-0.108200;0.108200;-0.108200;1.000000
445619.79780205;5696558.18540009;471.85374977;211;204;190;52428.000000;1.000000;1.000000;1.000000;1.000000;-0.144600;0.144600;-0.144600;1.000000
445619.83280190;5696558.26159866;471.85624983;164;146;127;38293.000000;1.000000;1.000000;1.000000;1.000000;-0.068401;0.068401;-0.068401;1.000000
445619.93730171;5696558.41359909;471.82315018;109;101;94;26214.000000;1.000000;1.000000;1.000000;1.000000;0.083599;-0.083599;0.083599;1.000000
445619.82800110;5696558.33669861;471.85925009;79;71;57;18247.000000;1.000000;1.000000;1.000000;1.000000;0.006699;-0.006699;0.006699;1.000000
445619.72340210;5696558.21789940;471.86014988;195;188;176;48316.000000;1.000000;1.000000;1.000000;1.000000;0.112101;-0.112101;0.112101;1.000000
445619.60380180;5696558.36219986;471.85645010;147;136;122;35209.000000;1.000000;1.000000;1.000000;1.000000;-0.032200;0.032200;-0.032200;1.000000
445619.63410194;5696558.51129921;471.85494997;90;86;71;21845.000000;1.000000;1.000000;1.000000;1.000000;-0.117775;0.117775;-0.117775;1.000000
445619.56350143;5696558.43359955;471.86014988;173;167;155;42919.000000;1.000000;1.000000;1.000000;1.000000;-0.079098;0.079098;-0.079098;1.000000
445619.56250198;5696558.47339828;471.86054995;150;143;129;36751.000000;1.000000;1.000000;1.000000;1.000000;-0.061410;0.061410;-0.061410;1.000000
445619.52830132;5696558.43219955;471.86084988;156;148;136;38293.000000;1.000000;1.000000;1.000000;1.000000;-0.057415;0.057415;-0.057415;1.000000
445619.56110199;5696558.50860031;471.86084988;91;88;76;22359.000000;1.000000;1.000000;1.000000;1.000000;-0.059225;0.059225;-0.059225;1.000000
445619.82070168;5696558.55699928;471.85685017;135;127;110;32639.000000;1.000000;1.000000;1.000000;1.000000;0.056176;-0.056176;0.056176;1.000000
445619.90630157;5696558.29909904;471.86004974;126;116;97;29812.000000;1.000000;1.000000;1.000000;1.000000;-0.030901;0.030901;-0.030901;1.000000
445619.76090248;5696558.21909912;471.85944988;134;127;115;32639.000000;1.000000;1.000000;1.000000;1.000000;-0.110902;0.110902;-0.110902;1.000000
