//X;Y;Z;R;G;B;Intensity;Return Number;Number Of Returns;Scan Direction Flag;Point Source ID;C2M signed distances[-][<0.8];C2M signed distances[<0.4];C2M signed distances[-][<0.2];Stump50
445646.82530029;5696553.96789940;470.00864985;212;205;191;52685.000000;1.000000;1.000000;1.000000;1.000000;-0.137899;0.137899;-0.137899;1.000000
445646.67749985;5696553.92729958;470.04104998;239;238;230;60909.000000;1.000000;1.000000;1.000000;1.000000;-0.097300;0.097300;-0.097300;1.000000
445646.83490189;5696553.71800049;469.95024993;83;77;72;20046.000000;1.000000;1.000000;1.000000;1.000000;0.112006;-0.112006;0.112006;1.000000
445646.78920181;5696553.92919930;470.00424983;187;179;164;46003.000000;1.000000;1.000000;1.000000;1.000000;-0.099199;0.099199;-0.099199;1.000000
445646.71759995;5696553.88909920;470.00514986;228;226;217;57825.000000;1.000000;1.000000;1.000000;1.000000;-0.059177;0.059177;-0.059177;1.000000
445646.64570053;5696553.84979828;469.96184995;184;179;168;46003.000000;1.000000;1.000000;1.000000;1.000000;-0.019798;0.019798;-0.019798;1.000000
445646.68270309;5696553.84860046;469.96814992;229;227;217;58082.000000;1.000000;1.000000;1.000000;1.000000;-0.019332;0.019332;-0.019332;1.000000
445646.86590012;5696553.85729797;469.96724989;166;162;152;41634.000000;1.000000;1.000000;1.000000;1.000000;-0.027315;0.027315;-0.027315;1.000000
445646.75740250;5696553.82069977;469.96424987;251;250;245;63993.000000;1.000000;1.000000;1.000000;1.000000;0.009300;-0.009300;0.009300;1.000000
445646.79450043;5696553.81949814;469.96825006;213;207;198;53199.000000;1.000000;1.000000;1.000000;1.000000;0.010502;-0.010502;0.010502;1.000000
445647.01519974;5696553.85589798;469.91804983;126;129;126;32639.000000;1.000000;1.000000;1.000000;1.000000;-0.025898;0.025898;-0.025898;1.000000
445647.09180267;5696553.85869797;469.88434984;184;185;177;47031.000000;1.000000;1.000000;1.000000;1.000000;-0.028952;0.028952;-0.028952;1.000000
445647.09080322;5696553.82149895;469.88144996;45;47;41;11565.000000;1.000000;1.000000;1.000000;1.000000;0.009774;-0.009774;0.009774;1.000000
445646.64980133;5696553.71179779;469.94645001;128;127;114;32125.000000;1.000000;1.000000;1.000000;1.000000;0.091110;-0.091110;0.091110;1.000000
445647.09449966;5696553.78610046;469.88124992;171;173;169;43947.000000;1.000000;1.000000;1.000000;1.000000;0.043914;-0.043914;0.043914;1.000000
445646.94590195;5696553.78459938;469.96064999;79;92;80;22102.000000;1.000000;1.000000;1.000000;1.000000;0.045401;-0.045401;0.045401;1.000000
445647.17650040;5696554.00449951;469.91544988;212;216;209;54998.000000;1.000000;1.000000;1.000000;1.000000;-0.174500;0.174500;-0.174500;1.000000
445646.89240082;5696553.72830017;469.99484994;190;193;188;49087.000000;1.000000;1.000000;1.000000;1.000000;0.101700;-0.101700;0.101700;1.000000
445646.94510086;5696553.97389801;469.95595004;106;102;88;25957.000000;1.000000;1.000000;1.000000;1.000000;-0.143898;0.143898;-0.143898;1.000000
445646.85180099;5696553.72789963;469.96044995;84;79;72;20303.000000;1.000000;1.000000;1.000000;1.000000;0.102100;-0.102100;0.102100;1.000000
445647.05190094;5696553.83880051;469.89855005;45;50;44;12079.000000;1.000000;1.000000;1.000000;1.000000;-0.008801;0.008801;-0.008801;1.000000
445646.87050064;5696553.97089966;469.99674990;182;174;162;44975.000000;1.000000;1.000000;1.000000;1.000000;-0.141008;0.141008;-0.141008;1.000000
445647.09430130;5696553.97929962;469.92314984;130;128;118;32639.000000;1.000000;1.000000;1.000000;1.000000;-0.149306;0.149306;-0.149306;1.000000
445647.13000305;5696553.98309906;469.91785004;179;178;170;45489.000000;1.000000;1.000000;1.000000;1.000000;-0.153099;0.153099;-0.153099;1.000000
445647.05520065;5696553.80109985;469.90294983;204;209;204;52942.000000;1.000000;1.000000;1.000000;1.000000;0.029040;-0.029040;0.029040;1.000000
445647.12940033;5696553.80409821;469.86905005;121;124;116;31354.000000;1.000000;1.000000;1.000000;1.000000;0.025902;-0.025902;0.025902;1.000000
445646.97870071;5696553.80060013;469.93904998;118;124;120;31097.000000;1.000000;1.000000;1.000000;1.000000;0.029400;-0.029400;0.029400;1.000000
445646.66320236;5696554.02589996;470.09754993;187;186;174;47288.000000;1.000000;1.000000;1.000000;1.000000;-0.195900;0.195900;-0.195900;1.000000
445646.70370300;5696553.99230011;470.06165006;201;195;182;50115.000000;1.000000;1.000000;1.000000;1.000000;-0.162300;0.162300;-0.162300;1.000000
445646.81340225;5696553.99679955;470.02244999;169;163;150;41891.000000;1.000000;1.000000;1.000000;1.000000;-0.166802;0.166802;-0.166802;1.000000
445646.63250168;5696553.95459946;470.05804994;224;224;215;57311.000000;1.000000;1.000000;1.000000;1.000000;-0.124599;0.124599;-0.124599;1.000000
445646.66720016;5696553.95129974;470.05954983;231;230;221;58853.000000;1.000000;1.000000;1.000000;1.000000;-0.121300;0.121300;-0.121300;1.000000
445646.63310059;5696553.91779907;470.02035000;234;232;223;59367.000000;1.000000;1.000000;1.000000;1.000000;-0.087799;0.087799;-0.087799;1.000000
445646.70760162;5696553.91779907;470.02604987;206;202;192;51914.000000;1.000000;1.000000;1.000000;1.000000;-0.087799;0.087799;-0.087799;1.000000
445646.85480316;5696553.92339905;469.98854997;184;175;166;45232.000000;1.000000;1.000000;1.000000;1.000000;-0.093399;0.093399;-0.093399;1.000000
445646.63360031;5696553.88089951;469.98265006;166;160;147;41120.000000;1.000000;1.000000;1.000000;1.000000;-0.050900;0.050900;-0.050900;1.000000
445646.81880005;5696553.88709839;469.98414995;153;148;136;38036.000000;1.000000;1.000000;1.000000;1.000000;-0.057098;0.057098;-0.057098;1.000000
445646.74750336;5696553.84709938;469.98044993;243;242;234;61937.000000;1.000000;1.000000;1.000000;1.000000;-0.017650;0.017650;-0.017650;1.000000
445646.74710281;5696553.80549820;469.95424988;248;246;239;62965.000000;1.000000;1.000000;1.000000;1.000000;0.024963;-0.024963;0.024963;1.000000
445646.63820084;5696553.76429947;469.94884994;179;175;164;44718.000000;1.000000;1.000000;1.000000;1.000000;0.065701;-0.065701;0.065701;1.000000
445646.89770325;5696553.81489952;469.95184996;106;102;94;26214.000000;1.000000;1.000000;1.000000;1.000000;0.015100;-0.015100;0.015100;1.000000
445646.56390198;5696553.76119812;469.98504998;98;97;87;24672.000000;1.000000;1.000000;1.000000;1.000000;-0.068802;0.068802;-0.068802;1.000000
445646.78590210;5696553.76919945;469.95094993;193;187;177;48059.000000;1.000000;1.000000;1.000000;1.000000;0.060801;-0.060801;0.060801;1.000000
445646.86130341;5696553.77619942;469.95214989;147;138;130;35723.000000;1.000000;1.000000;1.000000;1.000000;0.053801;-0.053801;0.053801;1.000000
445646.82510193;5696553.73530014;469.94534995;133;121;114;31611.000000;1.000000;1.000000;1.000000;1.000000;0.094700;-0.094700;0.094700;1.000000
445647.00100143;5696553.99449928;469.95175006;161;160;150;40863.000000;1.000000;1.000000;1.000000;1.000000;-0.164502;0.164502;-0.164502;1.000000
445646.89600189;5696553.73969849;469.99055006;105;115;107;28527.000000;1.000000;1.000000;1.000000;1.000000;0.090302;-0.090302;0.090302;1.000000
445646.81350143;5696554.02469833;470.02514984;150;145;134;37265.000000;1.000000;1.000000;1.000000;1.000000;-0.194700;0.194700;-0.194700;1.000000
445646.74290283;5696553.94489868;470.02565004;183;172;157;44461.000000;1.000000;1.000000;1.000000;1.000000;-0.114935;0.114935;-0.114935;1.000000
445647.13210114;5696553.73149879;469.86594989;167;167;162;42662.000000;1.000000;1.000000;1.000000;1.000000;0.098501;-0.098501;0.098501;1.000000
445646.81850250;5696553.91039856;469.98904993;199;191;178;49087.000000;1.000000;1.000000;1.000000;1.000000;-0.080399;0.080399;-0.080399;1.000000
445646.93110092;5696553.84459885;469.94674994;118;118;111;30069.000000;1.000000;1.000000;1.000000;1.000000;-0.016781;0.016781;-0.016781;1.000000
445647.02840240;5696553.71710022;469.90774991;140;136;125;34695.000000;1.000000;1.000000;1.000000;1.000000;0.112999;-0.112999;0.112999;1.000000
445646.66940125;5696553.90740021;470.02184989;239;239;231;61166.000000;1.000000;1.000000;1.000000;1.000000;-0.077400;0.077400;-0.077400;1.000000
445646.67230042;5696553.87029846;469.98424985;228;226;216;57825.000000;1.000000;1.000000;1.000000;1.000000;-0.040298;0.040298;-0.040298;1.000000
445646.63490112;5696553.82989891;469.95184996;198;192;180;49344.000000;1.000000;1.000000;1.000000;1.000000;0.000101;-0.000101;0.000101;1.000000
445646.63620193;5696553.79249771;469.94914987;92;85;72;21845.000000;1.000000;1.000000;1.000000;1.000000;0.037502;-0.037502;0.037502;1.000000
445646.82510193;5696553.76330002;469.95034983;219;209;202;54227.000000;1.000000;1.000000;1.000000;1.000000;0.066700;-0.066700;0.066700;1.000000
445646.64090164;5696553.71729858;469.94844987;140;138;126;35209.000000;1.000000;1.000000;1.000000;1.000000;0.090806;-0.090806;0.090806;1.000000
445646.98140152;5696553.72259911;469.97784998;175;174;168;44461.000000;1.000000;1.000000;1.000000;1.000000;0.107401;-0.107401;0.107401;1.000000
445646.75770004;5696553.82530029;469.96665003;250;249;243;63736.000000;1.000000;1.000000;1.000000;1.000000;0.004700;-0.004700;0.004700;1.000000
445647.03720291;5696554.00519951;469.94884994;130;130;123;33153.000000;1.000000;1.000000;1.000000;1.000000;-0.175200;0.175200;-0.175200;1.000000
445646.96590240;5696553.96749886;469.94744994;200;198;185;50629.000000;1.000000;1.000000;1.000000;1.000000;-0.137580;0.137580;-0.137580;1.000000
445646.89120300;5696553.96209915;469.98595001;173;166;153;42662.000000;1.000000;1.000000;1.000000;1.000000;-0.132099;0.132099;-0.132099;1.000000
445647.11490067;5696553.97049912;469.91464998;137;134;123;34181.000000;1.000000;1.000000;1.000000;1.000000;-0.140499;0.140499;-0.140499;1.000000
445647.04100235;5696553.93070038;469.91544988;170;169;157;42919.000000;1.000000;1.000000;1.000000;1.000000;-0.100700;0.100700;-0.100700;1.000000
445646.93150146;5696553.92619904;469.95004990;82;75;63;19275.000000;1.000000;1.000000;1.000000;1.000000;-0.096521;0.096521;-0.096521;1.000000
445647.04030045;5696553.89579971;469.91034986;133;132;122;33667.000000;1.000000;1.000000;1.000000;1.000000;-0.065800;0.065800;-0.065800;1.000000
445647.15410049;5696553.89739807;469.87824990;107;107;94;26985.000000;1.000000;1.000000;1.000000;1.000000;-0.067518;0.067518;-0.067518;1.000000
445646.93040283;5696553.88899811;469.94954993;52;47;39;12079.000000;1.000000;1.000000;1.000000;1.000000;-0.059677;0.059677;-0.059677;1.000000
445647.11820038;5696553.86109932;469.87384989;177;178;168;45232.000000;1.000000;1.000000;1.000000;1.000000;-0.031283;0.031283;-0.031283;1.000000
445647.04510315;5696553.82059868;469.90734984;187;193;190;48830.000000;1.000000;1.000000;1.000000;1.000000;0.009401;-0.009401;0.009401;1.000000
445647.12290009;5696553.78589828;469.87325003;75;77;72;19275.000000;1.000000;1.000000;1.000000;1.000000;0.044281;-0.044281;0.044281;1.000000
445646.97500046;5696553.70680054;469.98434999;133;131;126;33667.000000;1.000000;1.000000;1.000000;1.000000;0.123199;-0.123199;0.123199;1.000000
445646.91600235;5696554.02749832;469.98784997;126;123;111;31354.000000;1.000000;1.000000;1.000000;1.000000;-0.197499;0.197499;-0.197499;1.000000
445647.10490234;5696553.96219833;469.91174986;154;151;140;38550.000000;1.000000;1.000000;1.000000;1.000000;-0.132198;0.132198;-0.132198;1.000000
445646.88340195;5696553.95349892;469.98545005;168;161;149;41377.000000;1.000000;1.000000;1.000000;1.000000;-0.123499;0.123499;-0.123499;1.000000
445647.08380325;5696554.02669914;469.94414999;87;95;90;23644.000000;1.000000;1.000000;1.000000;1.000000;-0.196699;0.196699;-0.196699;1.000000
445646.95560272;5696553.95680054;469.94684984;161;158;145;40349.000000;1.000000;1.000000;1.000000;1.000000;-0.126801;0.126801;-0.126801;1.000000
445646.74810226;5696554.01169785;470.04994990;200;193;181;49601.000000;1.000000;1.000000;1.000000;1.000000;-0.181737;0.181737;-0.181737;1.000000
445647.13060196;5696553.84129913;469.86955001;140;141;130;35723.000000;1.000000;1.000000;1.000000;1.000000;-0.011299;0.011299;-0.011299;1.000000
445646.60150345;5696553.92999847;470.01904990;172;167;153;42662.000000;1.000000;1.000000;1.000000;1.000000;-0.099998;0.099998;-0.099998;1.000000
445647.14410217;5696553.88899811;469.87535002;133;133;120;33667.000000;1.000000;1.000000;1.000000;1.000000;-0.058998;0.058998;-0.058998;1.000000
445646.79350098;5696553.86379822;469.98035004;191;184;173;47288.000000;1.000000;1.000000;1.000000;1.000000;-0.033798;0.033798;-0.033798;1.000000
445647.04080017;5696553.87469872;469.90785005;86;87;79;21845.000000;1.000000;1.000000;1.000000;1.000000;-0.044699;0.044699;-0.044699;1.000000
445646.66670044;5696554.00929840;470.08815004;170;168;156;42919.000000;1.000000;1.000000;1.000000;1.000000;-0.179298;0.179298;-0.179298;1.000000
445646.73870285;5696554.01259811;470.05184986;215;209;196;53713.000000;1.000000;1.000000;1.000000;1.000000;-0.182598;0.182598;-0.182598;1.000000
445646.96380051;5696554.00239952;469.96404984;146;143;131;36494.000000;1.000000;1.000000;1.000000;1.000000;-0.172475;0.172475;-0.172475;1.000000
445646.92740067;5696553.96380051;469.96435000;113;106;92;27242.000000;1.000000;1.000000;1.000000;1.000000;-0.134330;0.134330;-0.134330;1.000000
445646.85060318;5696554.01679810;470.01504995;141;136;124;34952.000000;1.000000;1.000000;1.000000;1.000000;-0.186798;0.186798;-0.186798;1.000000
445646.89320190;5696553.92479904;469.96924998;156;147;137;38036.000000;1.000000;1.000000;1.000000;1.000000;-0.094799;0.094799;-0.094799;1.000000
445646.96870239;5696553.89039810;469.93275001;148;147;138;37522.000000;1.000000;1.000000;1.000000;1.000000;-0.060429;0.060429;-0.060429;1.000000
445647.08060272;5696553.89459808;469.89584996;106;106;94;26728.000000;1.000000;1.000000;1.000000;1.000000;-0.064598;0.064598;-0.064598;1.000000
445646.81430252;5696553.97809799;470.01524999;206;198;184;50886.000000;1.000000;1.000000;1.000000;1.000000;-0.148098;0.148098;-0.148098;1.000000
445646.59470184;5696553.93070038;470.01644995;152;147;132;37522.000000;1.000000;1.000000;1.000000;1.000000;0.100700;-0.100700;0.100700;1.000000
445646.71199997;5696554.00779922;470.06454994;201;195;183;50115.000000;1.000000;1.000000;1.000000;1.000000;-0.177828;0.177828;-0.177828;1.000000
445646.64000137;5696554.00459869;470.10084989;241;239;229;61166.000000;1.000000;1.000000;1.000000;1.000000;-0.174599;0.174599;-0.174599;1.000000
445646.60360153;5696553.97130020;470.05924990;237;235;226;60138.000000;1.000000;1.000000;1.000000;1.000000;-0.141300;0.141300;-0.141300;1.000000
445646.67800339;5696553.96889885;470.06495001;219;214;203;54998.000000;1.000000;1.000000;1.000000;1.000000;-0.138900;0.138900;-0.138900;1.000000
445646.63920029;5696553.74790009;469.94634988;141;136;123;34952.000000;1.000000;1.000000;1.000000;1.000000;0.082100;-0.082100;0.082100;1.000000
445646.70470245;5696553.97369965;470.05215003;180;172;159;44204.000000;1.000000;1.000000;1.000000;1.000000;-0.143700;0.143700;-0.143700;1.000000
445646.78820236;5696553.97809799;470.02344992;214;205;191;52942.000000;1.000000;1.000000;1.000000;1.000000;-0.148098;0.148098;-0.148098;1.000000
445646.74960144;5696553.93960007;470.02125003;187;176;161;45489.000000;1.000000;1.000000;1.000000;1.000000;-0.109624;0.109624;-0.109624;1.000000
445646.66870316;5696553.93729980;470.05014994;241;240;232;61423.000000;1.000000;1.000000;1.000000;1.000000;-0.107300;0.107300;-0.107300;1.000000
445646.86570175;5696553.94109924;469.98924996;170;160;149;41377.000000;1.000000;1.000000;1.000000;1.000000;-0.111102;0.111102;-0.111102;1.000000
445646.68080338;5696553.90169914;470.01764991;245;244;235;62451.000000;1.000000;1.000000;1.000000;1.000000;-0.071775;0.071775;-0.071775;1.000000
445646.77810104;5696553.93949898;470.01084997;179;170;155;43947.000000;1.000000;1.000000;1.000000;1.000000;-0.109614;0.109614;-0.109614;1.000000
445646.68120010;5696553.86479958;469.98224999;238;236;228;60395.000000;1.000000;1.000000;1.000000;1.000000;-0.035001;0.035001;-0.035001;1.000000
445646.67130096;5696553.89799889;470.01254990;240;239;230;61166.000000;1.000000;1.000000;1.000000;1.000000;-0.067999;0.067999;-0.067999;1.000000
445646.75560196;5696553.86249931;469.98794987;217;213;203;54741.000000;1.000000;1.000000;1.000000;1.000000;-0.032499;0.032499;-0.032499;1.000000
445646.70639999;5696553.89939888;470.01414992;231;228;220;58596.000000;1.000000;1.000000;1.000000;1.000000;-0.069399;0.069399;-0.069399;1.000000
445646.67189987;5696553.86120041;469.97484996;221;219;209;56026.000000;1.000000;1.000000;1.000000;1.000000;-0.031200;0.031200;-0.031200;1.000000
445646.68110092;5696553.82329948;469.95155003;193;187;176;48059.000000;1.000000;1.000000;1.000000;1.000000;0.007647;-0.007647;0.007647;1.000000
445646.81940277;5696553.86609848;469.97924997;175;169;157;43433.000000;1.000000;1.000000;1.000000;1.000000;-0.036098;0.036098;-0.036098;1.000000
445646.85720261;5696553.86739929;469.97394993;189;184;174;47288.000000;1.000000;1.000000;1.000000;1.000000;-0.037399;0.037399;-0.037399;1.000000
445646.74970062;5696553.75169952;469.93974998;169;163;151;41891.000000;1.000000;1.000000;1.000000;1.000000;0.078331;-0.078331;0.078331;1.000000
445646.64500244;5696553.78470047;469.94474985;77;71;59;18247.000000;1.000000;1.000000;1.000000;1.000000;0.045300;-0.045300;0.045300;1.000000
445646.67600067;5696553.71189888;469.93595006;132;130;120;33153.000000;1.000000;1.000000;1.000000;1.000000;0.108958;-0.108958;0.108958;1.000000
445646.75740250;5696553.79049881;469.95225002;187;184;176;47288.000000;1.000000;1.000000;1.000000;1.000000;0.039501;-0.039501;0.039501;1.000000
445646.86440094;5696553.71949966;469.97484996;89;89;81;22616.000000;1.000000;1.000000;1.000000;1.000000;0.110500;-0.110500;0.110500;1.000000
445647.00130280;5696553.80809982;469.92155005;106;112;104;28013.000000;1.000000;1.000000;1.000000;1.000000;0.021908;-0.021908;0.021908;1.000000
445647.15760239;5696553.82499893;469.85894992;148;149;140;37779.000000;1.000000;1.000000;1.000000;1.000000;0.005028;-0.005028;0.005028;1.000000
445646.79640015;5696553.75429924;469.94654991;224;214;204;55255.000000;1.000000;1.000000;1.000000;1.000000;0.075701;-0.075701;0.075701;1.000000
445646.83380325;5696553.75549896;469.94824984;173;161;154;41891.000000;1.000000;1.000000;1.000000;1.000000;0.074501;-0.074501;0.074501;1.000000
445646.94200333;5696553.83429916;469.94244983;125;125;119;31868.000000;1.000000;1.000000;1.000000;1.000000;-0.004299;0.004299;-0.004299;1.000000
445646.57190140;5696553.81899841;469.97914984;39;35;27;8995.000000;1.000000;1.000000;1.000000;1.000000;0.011002;-0.011002;0.011002;1.000000
445646.98750122;5696553.75949867;469.97155001;124;124;120;31611.000000;1.000000;1.000000;1.000000;1.000000;0.070501;-0.070501;0.070501;1.000000
445647.01860245;5696553.72679909;469.93995001;195;196;191;50115.000000;1.000000;1.000000;1.000000;1.000000;0.103201;-0.103201;0.103201;1.000000
445647.11010178;5696553.85009964;469.87574985;173;175;166;44461.000000;1.000000;1.000000;1.000000;1.000000;-0.020100;0.020100;-0.020100;1.000000
445646.57300003;5696553.77919968;469.97634985;74;71;59;17990.000000;1.000000;1.000000;1.000000;1.000000;0.050800;-0.050800;0.050800;1.000000
445647.07570084;5696553.73639877;469.88444998;160;159;153;40606.000000;1.000000;1.000000;1.000000;1.000000;0.093601;-0.093601;0.093601;1.000000
445646.91520126;5696553.82499893;469.94814994;123;123;116;31354.000000;1.000000;1.000000;1.000000;1.000000;0.005001;-0.005001;0.005001;1.000000
445646.71700104;5696553.88220032;470.00274994;231;229;220;58596.000000;1.000000;1.000000;1.000000;1.000000;-0.052326;0.052326;-0.052326;1.000000
445646.91209991;5696553.95339783;469.97044994;173;166;152;42662.000000;1.000000;1.000000;1.000000;1.000000;-0.123398;0.123398;-0.123398;1.000000
445647.03350266;5696553.84739883;469.90944983;79;82;79;20560.000000;1.000000;1.000000;1.000000;1.000000;-0.017399;0.017399;-0.017399;1.000000
445646.96660049;5696553.76599892;469.98234989;231;234;231;59624.000000;1.000000;1.000000;1.000000;1.000000;0.064128;-0.064128;0.064128;1.000000
445646.84060104;5696553.83859833;469.97054984;191;185;174;47545.000000;1.000000;1.000000;1.000000;1.000000;-0.009959;0.009959;-0.009959;1.000000
445646.69480331;5696553.75929840;469.92805006;195;187;174;48059.000000;1.000000;1.000000;1.000000;1.000000;0.070702;-0.070702;0.070702;1.000000
445646.61860092;5696553.99959953;470.09754993;206;205;195;52428.000000;1.000000;1.000000;1.000000;1.000000;-0.169636;0.169636;-0.169636;1.000000
445646.65430267;5696554.00339897;470.09214999;198;196;185;50115.000000;1.000000;1.000000;1.000000;1.000000;-0.173441;0.173441;-0.173441;1.000000
445646.80460175;5696554.00449951;470.02674987;155;149;137;38293.000000;1.000000;1.000000;1.000000;1.000000;-0.174512;0.174512;-0.174512;1.000000
445646.62130173;5696553.96029861;470.05994989;230;229;219;58596.000000;1.000000;1.000000;1.000000;1.000000;-0.130418;0.130418;-0.130418;1.000000
445646.76840027;5696553.96589859;470.02234985;225;216;201;55769.000000;1.000000;1.000000;1.000000;1.000000;-0.135899;0.135899;-0.135899;1.000000
445646.84780319;5696553.89609917;469.98324992;192;186;177;47802.000000;1.000000;1.000000;1.000000;1.000000;-0.066099;0.066099;-0.066099;1.000000
445646.73630341;5696553.85499771;469.98464992;239;238;230;60909.000000;1.000000;1.000000;1.000000;1.000000;-0.024998;0.024998;-0.024998;1.000000
445646.77400024;5696553.85629852;469.98175003;198;193;182;49601.000000;1.000000;1.000000;1.000000;1.000000;-0.026447;0.026447;-0.026447;1.000000
445646.73610123;5696553.81349953;469.95385005;252;251;244;64250.000000;1.000000;1.000000;1.000000;1.000000;0.016500;-0.016500;0.016500;1.000000
445646.85160263;5696553.74679955;469.95134999;80;73;68;19018.000000;1.000000;1.000000;1.000000;1.000000;0.083200;-0.083200;0.083200;1.000000
445646.89220245;5696553.74709900;469.98574998;84;88;80;21845.000000;1.000000;1.000000;1.000000;1.000000;0.082901;-0.082901;0.082901;1.000000
445646.92720230;5696554.01959808;469.98124983;164;162;150;41377.000000;1.000000;1.000000;1.000000;1.000000;-0.189957;0.189957;-0.189957;1.000000
445646.81610306;5696553.94079788;470.00094988;214;207;193;53199.000000;1.000000;1.000000;1.000000;1.000000;-0.110798;0.110798;-0.110798;1.000000
445647.10980042;5696554.02669914;469.93834998;91;97;92;24158.000000;1.000000;1.000000;1.000000;1.000000;-0.196699;0.196699;-0.196699;1.000000
445646.88930328;5696553.75699814;469.96714999;109;108;100;27499.000000;1.000000;1.000000;1.000000;1.000000;0.073002;-0.073002;0.073002;1.000000
445646.70549973;5696553.74899872;469.92844989;182;173;162;44718.000000;1.000000;1.000000;1.000000;1.000000;0.081001;-0.081001;0.081001;1.000000
445647.03709991;5696553.81199844;469.91155006;190;195;190;49344.000000;1.000000;1.000000;1.000000;1.000000;0.018002;-0.018002;0.018002;1.000000
445647.11140259;5696553.81270035;469.87304999;81;83;77;20817.000000;1.000000;1.000000;1.000000;1.000000;0.017300;-0.017300;0.017300;1.000000
445647.11270340;5696553.77749832;469.87494995;160;162;157;41120.000000;1.000000;1.000000;1.000000;1.000000;0.052502;-0.052502;0.052502;1.000000
445646.90130051;5696553.93579872;469.96744992;148;140;127;35980.000000;1.000000;1.000000;1.000000;1.000000;-0.105799;0.105799;-0.105799;1.000000
445646.96590240;5696553.74460037;470.00534989;133;130;118;33153.000000;1.000000;1.000000;1.000000;1.000000;0.085530;-0.085530;0.085530;1.000000
445646.91700180;5696554.01119812;469.98304989;120;116;102;29555.000000;1.000000;1.000000;1.000000;1.000000;-0.181204;0.181204;-0.181204;1.000000
445647.06400116;5696554.01679810;469.94785001;136;140;133;35466.000000;1.000000;1.000000;1.000000;1.000000;-0.186798;0.186798;-0.186798;1.000000
445646.99250229;5696553.97669800;469.94645001;153;151;139;38550.000000;1.000000;1.000000;1.000000;1.000000;-0.146721;0.146721;-0.146721;1.000000
445646.95689972;5696553.97289856;469.95175006;139;136;122;34695.000000;1.000000;1.000000;1.000000;1.000000;-0.142899;0.142899;-0.142899;1.000000
445647.14180191;5696553.98209961;469.91365005;189;188;180;48059.000000;1.000000;1.000000;1.000000;1.000000;-0.152100;0.152100;-0.152100;1.000000
445647.03380020;5696553.90329941;469.91485002;129;128;116;32382.000000;1.000000;1.000000;1.000000;1.000000;-0.073299;0.073299;-0.073299;1.000000
445647.03289993;5696553.86609848;469.90964987;65;67;62;16705.000000;1.000000;1.000000;1.000000;1.000000;-0.036099;0.036099;-0.036099;1.000000
445647.10939987;5696553.86889847;469.87824990;186;186;175;47288.000000;1.000000;1.000000;1.000000;1.000000;-0.038898;0.038898;-0.038898;1.000000
445647.03400238;5696553.82860001;469.91164996;181;187;185;47288.000000;1.000000;1.000000;1.000000;1.000000;0.001400;-0.001400;0.001400;1.000000
445647.11079987;5696553.83139999;469.87325003;137;138;131;34952.000000;1.000000;1.000000;1.000000;1.000000;-0.001400;0.001400;-0.001400;1.000000
445647.03780182;5696553.79319962;469.90905001;184;188;181;47802.000000;1.000000;1.000000;1.000000;1.000000;0.036800;-0.036800;0.036800;1.000000
445647.11190231;5696553.79389961;469.87514998;50;52;47;12850.000000;1.000000;1.000000;1.000000;1.000000;0.036100;-0.036100;0.036100;1.000000
445646.92570313;5696553.78899963;469.95054986;69;71;63;17733.000000;1.000000;1.000000;1.000000;1.000000;0.042262;-0.042262;0.042262;1.000000
445647.11330231;5696553.75879868;469.87474992;190;191;186;48830.000000;1.000000;1.000000;1.000000;1.000000;0.071201;-0.071201;0.071201;1.000000
445646.92420013;5696553.98259933;469.97134997;126;120;104;30840.000000;1.000000;1.000000;1.000000;1.000000;-0.152847;0.152847;-0.152847;1.000000
445646.89230164;5696553.94349869;469.97644999;152;143;132;37008.000000;1.000000;1.000000;1.000000;1.000000;-0.113499;0.113499;-0.113499;1.000000
445646.96660049;5696553.94649895;469.94024994;193;190;177;48573.000000;1.000000;1.000000;1.000000;1.000000;-0.116569;0.116569;-0.116569;1.000000
445646.92660339;5696553.76499947;469.98525002;191;202;196;50886.000000;1.000000;1.000000;1.000000;1.000000;0.065935;-0.065935;0.065935;1.000000
445647.11390121;5696553.73779877;469.86984994;118;119;113;30326.000000;1.000000;1.000000;1.000000;1.000000;0.092201;-0.092201;0.092201;1.000000
445647.11620148;5696553.95419891;469.90514996;162;158;148;40606.000000;1.000000;1.000000;1.000000;1.000000;-0.124206;0.124206;-0.124206;1.000000
445646.97410019;5696553.98299988;469.95264985;145;142;129;36237.000000;1.000000;1.000000;1.000000;1.000000;-0.153000;0.153000;-0.153000;1.000000
445647.15910156;5696553.99219902;469.91225006;212;213;205;54227.000000;1.000000;1.000000;1.000000;1.000000;-0.162199;0.162199;-0.162199;1.000000
445647.04320343;5696553.87459953;469.90564992;92;93;85;23387.000000;1.000000;1.000000;1.000000;1.000000;-0.044600;0.044600;-0.044600;1.000000
445647.08530243;5696553.95229919;469.91074993;192;191;181;48830.000000;1.000000;1.000000;1.000000;1.000000;-0.122311;0.122311;-0.122311;1.000000
445647.00390060;5696553.73769959;469.92544987;187;184;178;47288.000000;1.000000;1.000000;1.000000;1.000000;0.092300;-0.092300;0.092300;1.000000
445647.15690048;5696553.84369858;469.86144998;180;182;172;46260.000000;1.000000;1.000000;1.000000;1.000000;-0.013753;0.013753;-0.013753;1.000000
445646.79890259;5696553.72619827;469.93704988;166;156;147;40606.000000;1.000000;1.000000;1.000000;1.000000;0.103802;-0.103802;0.103802;1.000000
445647.04900177;5696553.91359909;469.91094996;146;145;134;37008.000000;1.000000;1.000000;1.000000;1.000000;-0.083599;0.083599;-0.083599;1.000000
445646.93720062;5696553.90939911;469.94544985;47;40;30;10280.000000;1.000000;1.000000;1.000000;1.000000;-0.079429;0.079429;-0.079429;1.000000
445647.12680252;5696553.87899979;469.87444999;208;208;196;52942.000000;1.000000;1.000000;1.000000;1.000000;-0.049000;0.049000;-0.049000;1.000000
445647.16470154;5696553.88249786;469.87154986;124;126;114;31868.000000;1.000000;1.000000;1.000000;1.000000;-0.052498;0.052498;-0.052498;1.000000
445646.90630157;5696553.83279999;469.95245006;98;97;87;24672.000000;1.000000;1.000000;1.000000;1.000000;-0.002800;0.002800;-0.002800;1.000000
445647.01960190;5696553.80179794;469.91534998;149;152;145;38550.000000;1.000000;1.000000;1.000000;1.000000;0.028202;-0.028202;0.028202;1.000000
445646.94289978;5696553.79669960;469.94904997;112;112;105;28527.000000;1.000000;1.000000;1.000000;1.000000;0.033300;-0.033300;0.033300;1.000000
445647.09500320;5696553.76510056;469.87864997;178;179;175;45746.000000;1.000000;1.000000;1.000000;1.000000;0.064902;-0.064902;0.064902;1.000000
445647.13070114;5696553.76889999;469.87104990;132;133;128;33924.000000;1.000000;1.000000;1.000000;1.000000;0.061100;-0.061100;0.061100;1.000000
445646.94550140;5696553.76029785;470.02324988;241;243;237;61937.000000;1.000000;1.000000;1.000000;1.000000;0.069702;-0.069702;0.069702;1.000000
445646.97890289;5696553.72500046;469.98704984;132;128;123;32896.000000;1.000000;1.000000;1.000000;1.000000;0.105000;-0.105000;0.105000;1.000000
445647.04470261;5696553.83939941;469.90294983;62;66;62;16448.000000;1.000000;1.000000;1.000000;1.000000;-0.009399;0.009399;-0.009399;1.000000
445646.62790115;5696553.99880035;470.09795000;227;226;216;57825.000000;1.000000;1.000000;1.000000;1.000000;-0.168800;0.168800;-0.168800;1.000000
445646.70420273;5696553.99919899;470.06414988;204;199;186;51143.000000;1.000000;1.000000;1.000000;1.000000;-0.169199;0.169199;-0.169199;1.000000
445647.05050095;5696553.80150040;469.90505006;209;213;208;54227.000000;1.000000;1.000000;1.000000;1.000000;0.028500;-0.028500;0.028500;1.000000
445646.62810333;5696553.95960052;470.06254985;217;217;207;55255.000000;1.000000;1.000000;1.000000;1.000000;-0.129601;0.129601;-0.129601;1.000000
445646.66790207;5696553.96049889;470.06434991;232;229;220;58596.000000;1.000000;1.000000;1.000000;1.000000;-0.130499;0.130499;-0.130499;1.000000
445646.77800186;5696553.96739777;470.02044990;216;207;191;53199.000000;1.000000;1.000000;1.000000;1.000000;-0.137493;0.137493;-0.137493;1.000000
445646.70590027;5696553.92489822;470.02834990;205;201;191;51657.000000;1.000000;1.000000;1.000000;1.000000;-0.094898;0.094898;-0.094898;1.000000
445646.63380249;5696553.88550003;469.98735001;169;166;149;42405.000000;1.000000;1.000000;1.000000;1.000000;-0.055500;0.055500;-0.055500;1.000000
445646.74559982;5696553.85420044;469.98504998;231;229;221;58596.000000;1.000000;1.000000;1.000000;1.000000;-0.024849;0.024849;-0.024849;1.000000
445646.67350204;5696553.81479843;469.94645001;175;166;156;42919.000000;1.000000;1.000000;1.000000;1.000000;0.015202;-0.015202;0.015202;1.000000
445646.89600189;5696553.82209976;469.95184996;105;101;92;25957.000000;1.000000;1.000000;1.000000;1.000000;0.007900;-0.007900;0.007900;1.000000
445647.15800293;5696553.80620010;469.86104991;126;128;120;32382.000000;1.000000;1.000000;1.000000;1.000000;0.023800;-0.023800;0.023800;1.000000
445646.63700302;5696553.77609833;469.94894983;130;126;114;32125.000000;1.000000;1.000000;1.000000;1.000000;0.053902;-0.053902;0.053902;1.000000
445647.02010162;5696553.78079803;469.91275002;147;147;141;37522.000000;1.000000;1.000000;1.000000;1.000000;0.049202;-0.049202;0.049202;1.000000
445646.82380112;5696553.74709900;469.94544985;185;173;165;44975.000000;1.000000;1.000000;1.000000;1.000000;0.082901;-0.082901;0.082901;1.000000
445647.32180222;5696553.89879807;469.84395005;122;119;110;30326.000000;1.000000;1.000000;1.000000;1.000000;-0.068798;0.068798;-0.068798;1.000000
445647.19810303;5696553.75369843;469.84824993;119;119;113;30326.000000;1.000000;1.000000;1.000000;1.000000;0.076302;-0.076302;0.076302;1.000000
445647.24979980;5696553.85629852;469.84714987;181;181;171;46003.000000;1.000000;1.000000;1.000000;1.000000;-0.026380;0.026380;-0.026380;1.000000
445647.19960220;5696553.93070038;469.87144997;206;203;193;51914.000000;1.000000;1.000000;1.000000;1.000000;-0.100700;0.100700;-0.100700;1.000000
445647.21249969;5696553.78039940;469.84454991;159;158;153;40349.000000;1.000000;1.000000;1.000000;1.000000;0.049759;-0.049759;0.049759;1.000000
445647.31130035;5696553.91589935;469.85294988;134;131;121;33410.000000;1.000000;1.000000;1.000000;1.000000;-0.085954;0.085954;-0.085954;1.000000
445647.69130142;5696553.76299866;469.76584985;127;128;117;32382.000000;1.000000;1.000000;1.000000;1.000000;-0.095675;0.095675;-0.095675;1.000000
445647.44650085;5696554.00409897;469.83684995;147;141;125;36237.000000;1.000000;1.000000;1.000000;1.000000;-0.174099;0.174099;-0.174099;1.000000
445647.63380249;5696554.01309784;469.79655005;141;140;128;35466.000000;1.000000;1.000000;1.000000;1.000000;-0.187035;0.187035;-0.187035;1.000000
445647.19940002;5696553.71619995;469.84554984;143;144;137;36494.000000;1.000000;1.000000;1.000000;1.000000;0.113800;-0.113800;0.113800;1.000000
445647.26300247;5696553.95979889;469.87465002;179;175;164;44718.000000;1.000000;1.000000;1.000000;1.000000;-0.129799;0.129799;-0.129799;1.000000
445647.30070313;5696553.96329887;469.87404992;185;181;171;46517.000000;1.000000;1.000000;1.000000;1.000000;-0.133299;0.133299;-0.133299;1.000000
445647.37110336;5696553.96380051;469.87025001;150;147;138;37522.000000;1.000000;1.000000;1.000000;1.000000;-0.133925;0.133925;-0.133925;1.000000
445647.70000275;5696553.75519951;469.76384999;104;104;91;26214.000000;1.000000;1.000000;1.000000;1.000000;-0.104376;0.104376;-0.104376;1.000000
445647.41600235;5696553.92980011;469.83924987;145;138;129;35723.000000;1.000000;1.000000;1.000000;1.000000;-0.099800;0.099800;-0.099800;1.000000
445647.59850128;5696553.93689926;469.79865005;185;183;170;46774.000000;1.000000;1.000000;1.000000;1.000000;-0.106938;0.106938;-0.106938;1.000000
445647.23120316;5696553.83009918;469.84364988;202;202;194;51657.000000;1.000000;1.000000;1.000000;1.000000;-0.000099;0.000099;-0.000099;1.000000
445647.24210175;5696553.81979950;469.83944990;224;223;214;57054.000000;1.000000;1.000000;1.000000;1.000000;0.010462;-0.010462;0.010462;1.000000
445647.33970078;5696553.88789948;469.83764984;182;181;172;46260.000000;1.000000;1.000000;1.000000;1.000000;-0.058202;0.058202;-0.058202;1.000000
445647.41720016;5696553.89229782;469.83885004;116;110;106;28527.000000;1.000000;1.000000;1.000000;1.000000;-0.062298;0.062298;-0.062298;1.000000
445647.41820343;5696553.85479935;469.84314992;145;145;143;37008.000000;1.000000;1.000000;1.000000;1.000000;-0.024799;0.024799;-0.024799;1.000000
445647.38879974;5696553.87129791;469.85594990;244;245;241;62708.000000;1.000000;1.000000;1.000000;1.000000;-0.041298;0.041298;-0.041298;1.000000
445647.56690033;5696553.82300003;469.79824998;88;92;80;22873.000000;1.000000;1.000000;1.000000;1.000000;0.007000;-0.007000;0.007000;1.000000
445647.59399994;5696553.89049919;469.80254986;41;39;29;9766.000000;1.000000;1.000000;1.000000;1.000000;0.060521;-0.060521;0.060521;1.000000
445647.23310287;5696553.77389915;469.84075000;108;108;102;27499.000000;1.000000;1.000000;1.000000;1.000000;0.056101;-0.056101;0.056101;1.000000
445647.56830032;5696553.78789909;469.79784991;186;188;180;47802.000000;1.000000;1.000000;1.000000;1.000000;0.027327;-0.027327;0.027327;1.000000
445647.41850098;5696553.78009995;469.83754994;250;252;249;64507.000000;1.000000;1.000000;1.000000;1.000000;0.049900;-0.049900;0.049900;1.000000
445647.53059967;5696553.78660019;469.80084993;171;173;167;43947.000000;1.000000;1.000000;1.000000;1.000000;0.054995;-0.054995;0.054995;1.000000
445647.23650177;5696553.73390015;469.83815004;149;151;145;38293.000000;1.000000;1.000000;1.000000;1.000000;0.096100;-0.096100;0.096100;1.000000
445647.66950043;5696553.78129776;469.76744987;125;124;114;31611.000000;1.000000;1.000000;1.000000;1.000000;-0.073874;0.073874;-0.073874;1.000000
445647.67469986;5696553.71749886;469.78084995;114;122;107;30069.000000;1.000000;1.000000;1.000000;1.000000;-0.079073;0.079073;-0.079073;1.000000
445647.53210266;5696553.67449959;469.79484989;53;53;48;13364.000000;1.000000;1.000000;1.000000;1.000000;-0.050618;0.050618;-0.050618;1.000000
445647.20810135;5696553.70619782;469.83885004;135;136;129;34438.000000;1.000000;1.000000;1.000000;1.000000;0.123802;-0.123802;0.123802;1.000000
445647.21280106;5696553.80839928;469.84264996;197;196;188;50115.000000;1.000000;1.000000;1.000000;1.000000;0.022019;-0.022019;0.022019;1.000000
445647.47540100;5696553.98739822;469.83564999;239;238;225;60652.000000;1.000000;1.000000;1.000000;1.000000;-0.157471;0.157471;-0.157471;1.000000
445647.32670029;5696554.02599915;469.89454987;214;212;208;54484.000000;1.000000;1.000000;1.000000;1.000000;-0.195999;0.195999;-0.195999;1.000000
445647.38920029;5696553.92729958;469.85894992;158;153;147;39321.000000;1.000000;1.000000;1.000000;1.000000;-0.097300;0.097300;-0.097300;1.000000
445647.33790024;5696553.96209915;469.87804987;252;252;247;64507.000000;1.000000;1.000000;1.000000;1.000000;-0.132170;0.132170;-0.132170;1.000000
445647.27029999;5696553.84749802;469.84104993;166;164;152;41891.000000;1.000000;1.000000;1.000000;1.000000;-0.017498;0.017498;-0.017498;1.000000
445647.32040222;5696553.91279800;469.85104992;128;126;117;32125.000000;1.000000;1.000000;1.000000;1.000000;-0.082798;0.082798;-0.082798;1.000000
445647.38830002;5696553.66659935;469.80454995;86;80;65;20560.000000;1.000000;1.000000;1.000000;1.000000;0.082327;-0.082327;0.082327;1.000000
445647.42060287;5696553.90139969;469.83445003;99;91;85;23644.000000;1.000000;1.000000;1.000000;1.000000;-0.071400;0.071400;-0.071400;1.000000
445647.40070160;5696554.01980026;469.84894993;146;140;123;35723.000000;1.000000;1.000000;1.000000;1.000000;-0.189858;0.189858;-0.189858;1.000000
445647.42270096;5696553.97589882;469.84014990;136;129;111;33153.000000;1.000000;1.000000;1.000000;1.000000;-0.145899;0.145899;-0.145899;1.000000
445647.68130310;5696553.94109924;469.78615000;157;159;151;40349.000000;1.000000;1.000000;1.000000;1.000000;-0.140298;0.140298;-0.140298;1.000000
445647.34750183;5696553.68429955;469.81224992;89;84;77;21588.000000;1.000000;1.000000;1.000000;1.000000;0.123125;-0.123125;0.123125;1.000000
445647.60190018;5696553.81759842;469.78804996;185;186;176;47288.000000;1.000000;1.000000;1.000000;1.000000;-0.006273;0.006273;-0.006273;1.000000
445647.67460068;5696553.89499863;469.78764989;128;132;124;33153.000000;1.000000;1.000000;1.000000;1.000000;-0.102282;0.102282;-0.102282;1.000000
445647.37050064;5696554.02939804;469.86404993;117;111;100;28527.000000;1.000000;1.000000;1.000000;1.000000;-0.199479;0.199479;-0.199479;1.000000
445647.38750275;5696553.68529900;469.80944993;124;120;108;30583.000000;1.000000;1.000000;1.000000;1.000000;0.083124;-0.083124;0.083124;1.000000
445647.45660217;5696553.98679932;469.83474996;182;179;165;45746.000000;1.000000;1.000000;1.000000;1.000000;-0.156799;0.156799;-0.156799;1.000000
445647.19060333;5696553.72399910;469.84994986;130;130;124;33153.000000;1.000000;1.000000;1.000000;1.000000;0.106001;-0.106001;0.106001;1.000000
445647.64859970;5696553.65939911;469.77204992;139;136;125;34695.000000;1.000000;1.000000;1.000000;1.000000;-0.052973;0.052973;-0.052973;1.000000
445647.65630157;5696553.90130051;469.79154994;156;159;150;40349.000000;1.000000;1.000000;1.000000;1.000000;-0.093623;0.093623;-0.093623;1.000000
445647.43990143;5696553.70579918;469.83064987;223;225;221;57311.000000;1.000000;1.000000;1.000000;1.000000;0.030725;-0.030725;0.030725;1.000000
445647.51990326;5696553.67309959;469.80364992;39;39;34;9766.000000;1.000000;1.000000;1.000000;1.000000;-0.049276;0.049276;-0.049276;1.000000
445647.50180252;5696553.66289909;469.82134988;63;64;64;16191.000000;1.000000;1.000000;1.000000;1.000000;-0.031176;0.031176;-0.031176;1.000000
445647.54140289;5696553.98169907;469.81064989;183;181;167;46260.000000;1.000000;1.000000;1.000000;1.000000;-0.153429;0.153429;-0.153429;1.000000
445647.57280167;5696553.89010056;469.80624988;29;25;15;6425.000000;1.000000;1.000000;1.000000;1.000000;-0.060101;0.060101;-0.060101;1.000000
445647.69280060;5696553.91429909;469.78635003;131;134;126;33924.000000;1.000000;1.000000;1.000000;1.000000;-0.128643;0.128643;-0.128643;1.000000
445647.57470139;5696553.85959824;469.80364992;151;151;138;38293.000000;1.000000;1.000000;1.000000;1.000000;-0.029598;0.029598;-0.029598;1.000000
445647.65730103;5696553.91059883;469.78935005;171;174;165;44204.000000;1.000000;1.000000;1.000000;1.000000;-0.101488;0.101488;-0.101488;1.000000
445647.21130188;5696553.81789978;469.84494998;199;199;190;50886.000000;1.000000;1.000000;1.000000;1.000000;0.012413;-0.012413;0.012413;1.000000
445647.39760025;5696553.93829926;469.85244991;132;126;118;32382.000000;1.000000;1.000000;1.000000;1.000000;-0.108310;0.108310;-0.108310;1.000000
445647.56890305;5696554.00020035;469.80974986;141;136;122;34695.000000;1.000000;1.000000;1.000000;1.000000;-0.170200;0.170200;-0.170200;1.000000
445647.18869980;5696553.97109802;469.88774993;198;194;184;49858.000000;1.000000;1.000000;1.000000;1.000000;-0.141100;0.141100;-0.141100;1.000000
445647.54490097;5696553.94399841;469.81034996;172;170;159;43433.000000;1.000000;1.000000;1.000000;1.000000;-0.115650;0.115650;-0.115650;1.000000
445647.33720215;5696553.77630051;469.81754996;163;163;157;41634.000000;1.000000;1.000000;1.000000;1.000000;0.053827;-0.053827;0.053827;1.000000
445647.50570114;5696553.92429932;469.80834987;217;215;208;54998.000000;1.000000;1.000000;1.000000;1.000000;-0.100611;0.100611;-0.100611;1.000000
445647.49850281;5696553.92259796;469.81025006;234;232;224;59367.000000;1.000000;1.000000;1.000000;1.000000;-0.096703;0.096703;-0.096703;1.000000
445647.54560287;5696553.66409882;469.78374984;110;110;104;28013.000000;1.000000;1.000000;1.000000;1.000000;-0.034394;0.034394;-0.034394;1.000000
445647.39400299;5696553.70569809;469.81235005;157;155;145;39578.000000;1.000000;1.000000;1.000000;1.000000;0.076624;-0.076624;0.076624;1.000000
445647.21840103;5696553.92899902;469.86524989;175;172;162;43947.000000;1.000000;1.000000;1.000000;1.000000;-0.099024;0.099024;-0.099024;1.000000
445647.26880081;5696553.82900055;469.83605005;179;177;166;45232.000000;1.000000;1.000000;1.000000;1.000000;0.000999;-0.000999;0.000999;1.000000
445647.47400101;5696553.99689873;469.83334996;208;206;193;52685.000000;1.000000;1.000000;1.000000;1.000000;-0.166933;0.166933;-0.166933;1.000000
445647.40110214;5696553.90059860;469.85224988;165;161;156;41377.000000;1.000000;1.000000;1.000000;1.000000;-0.070780;0.070780;-0.070780;1.000000
445647.47210129;5696553.86659821;469.81305005;91;89;84;22873.000000;1.000000;1.000000;1.000000;1.000000;-0.036628;0.036628;-0.036628;1.000000
445647.50880249;5696553.83059891;469.80504992;141;141;134;35980.000000;1.000000;1.000000;1.000000;1.000000;-0.038180;0.038180;-0.038180;1.000000
445647.63610275;5696553.91020020;469.79075005;123;123;115;31354.000000;1.000000;1.000000;1.000000;1.000000;-0.089835;0.089835;-0.089835;1.000000
445647.66150101;5696553.79829987;469.77425005;123;123;115;31354.000000;1.000000;1.000000;1.000000;1.000000;-0.065874;0.065874;-0.065874;1.000000
445647.69709976;5696553.80209930;469.76895000;138;138;125;34952.000000;1.000000;1.000000;1.000000;1.000000;-0.101473;0.101473;-0.101473;1.000000
445647.21619995;5696553.74499901;469.84434988;113;114;110;29041.000000;1.000000;1.000000;1.000000;1.000000;0.085116;-0.085116;0.085116;1.000000
445647.66300018;5696553.76319893;469.77154996;120;118;107;30069.000000;1.000000;1.000000;1.000000;1.000000;-0.067373;0.067373;-0.067373;1.000000
445647.38850220;5696553.91810043;469.85655000;178;173;168;44461.000000;1.000000;1.000000;1.000000;1.000000;-0.088100;0.088100;-0.088100;1.000000
445647.20170029;5696553.87229927;469.85914995;130;132;122;33410.000000;1.000000;1.000000;1.000000;1.000000;-0.042299;0.042299;-0.042299;1.000000
445647.70160110;5696553.72690018;469.77285006;96;100;87;24929.000000;1.000000;1.000000;1.000000;1.000000;-0.105974;0.105974;-0.105974;1.000000
445647.52910049;5696553.69339951;469.79725005;76;73;65;18761.000000;1.000000;1.000000;1.000000;1.000000;-0.058474;0.058474;-0.058474;1.000000
445647.66510208;5696553.68809898;469.77545001;222;224;212;57054.000000;1.000000;1.000000;1.000000;1.000000;-0.069475;0.069475;-0.069475;1.000000
445647.37640198;5696553.69330032;469.81364991;114;111;100;28270.000000;1.000000;1.000000;1.000000;1.000000;0.094225;-0.094225;0.094225;1.000000
445647.32100113;5696553.95439919;469.87255003;189;187;180;47802.000000;1.000000;1.000000;1.000000;1.000000;-0.124399;0.124399;-0.124399;1.000000
445647.59370239;5696553.64809998;469.77405002;213;212;206;54227.000000;1.000000;1.000000;1.000000;1.000000;0.001925;-0.001925;0.001925;1.000000
445647.38960083;5696553.85259827;469.85115005;251;252;248;64507.000000;1.000000;1.000000;1.000000;1.000000;-0.022598;0.022598;-0.022598;1.000000
445647.22710236;5696553.70680054;469.83504989;125;127;120;32125.000000;1.000000;1.000000;1.000000;1.000000;0.123199;-0.123199;0.123199;1.000000
445647.27340134;5696553.91239937;469.85585000;175;172;162;43947.000000;1.000000;1.000000;1.000000;1.000000;-0.082433;0.082433;-0.082433;1.000000
445647.59610184;5696553.80639847;469.79005005;180;183;172;46260.000000;1.000000;1.000000;1.000000;1.000000;-0.000475;0.000475;-0.000475;1.000000
445647.35550125;5696553.74880035;469.82034995;141;141;135;35980.000000;1.000000;1.000000;1.000000;1.000000;0.081200;-0.081200;0.081200;1.000000
445647.61100204;5696553.65819939;469.77265002;145;143;135;36494.000000;1.000000;1.000000;1.000000;1.000000;-0.015375;0.015375;-0.015375;1.000000
445647.44240005;5696553.85519989;469.82554986;129;127;123;32639.000000;1.000000;1.000000;1.000000;1.000000;-0.025200;0.025200;-0.025200;1.000000
445647.35440262;5696553.78629883;469.82075002;152;151;145;38550.000000;1.000000;1.000000;1.000000;1.000000;0.043701;-0.043701;0.043701;1.000000
445647.68610199;5696553.66059883;469.77134993;162;162;150;41120.000000;1.000000;1.000000;1.000000;1.000000;-0.090475;0.090475;-0.090475;1.000000
445647.18200119;5696553.89029892;469.86784985;147;147;136;37265.000000;1.000000;1.000000;1.000000;1.000000;-0.060481;0.060481;-0.060481;1.000000
445647.18680008;5696553.97819908;469.89234998;197;194;185;49601.000000;1.000000;1.000000;1.000000;1.000000;-0.148221;0.148221;-0.148221;1.000000
445647.62960251;5696553.86409958;469.78754999;131;133;121;33667.000000;1.000000;1.000000;1.000000;1.000000;-0.048137;0.048137;-0.048137;1.000000
445647.25130280;5696554.02350052;469.90284993;122;125;117;31611.000000;1.000000;1.000000;1.000000;1.000000;-0.193501;0.193501;-0.193501;1.000000
445647.39120300;5696554.02059944;469.85314991;140;136;121;34695.000000;1.000000;1.000000;1.000000;1.000000;-0.190599;0.190599;-0.190599;1.000000
445647.34980209;5696553.90299805;469.85224988;232;232;227;59367.000000;1.000000;1.000000;1.000000;1.000000;-0.072998;0.072998;-0.072998;1.000000
445647.26570328;5696553.90379913;469.85314991;163;161;152;41120.000000;1.000000;1.000000;1.000000;1.000000;-0.073799;0.073799;-0.073799;1.000000
445647.21560104;5696553.98950012;469.89844992;173;173;165;44204.000000;1.000000;1.000000;1.000000;1.000000;-0.159579;0.159579;-0.159579;1.000000
445647.27520187;5696553.90529831;469.85354998;158;155;146;39578.000000;1.000000;1.000000;1.000000;1.000000;-0.075413;0.075413;-0.075413;1.000000
445647.66120346;5696554.00359924;469.79064991;225;225;217;57568.000000;1.000000;1.000000;1.000000;1.000000;-0.185572;0.185572;-0.185572;1.000000
445647.35150345;5696553.89129837;469.84284999;224;223;217;57054.000000;1.000000;1.000000;1.000000;1.000000;-0.061298;0.061298;-0.061298;1.000000
445647.46070297;5696553.89340027;469.81054999;122;115;107;29812.000000;1.000000;1.000000;1.000000;1.000000;-0.063439;0.063439;-0.063439;1.000000
445647.23740204;5696553.87609871;469.85384991;159;159;149;40349.000000;1.000000;1.000000;1.000000;1.000000;-0.046099;0.046099;-0.046099;1.000000
445647.49670227;5696553.92980011;469.81264998;245;245;237;62708.000000;1.000000;1.000000;1.000000;1.000000;-0.103150;0.103150;-0.103150;1.000000
445647.62050064;5696553.65959938;469.77304985;149;146;138;37522.000000;1.000000;1.000000;1.000000;1.000000;-0.024874;0.024874;-0.024874;1.000000
445647.52620132;5696553.71010025;469.79274990;55;51;45;13107.000000;1.000000;1.000000;1.000000;1.000000;-0.055574;0.055574;-0.055574;1.000000
445647.68160065;5696553.96909912;469.78655006;134;133;124;33924.000000;1.000000;1.000000;1.000000;1.000000;-0.163524;0.163524;-0.163524;1.000000
445647.29060181;5696553.95260056;469.86874988;173;168;157;43176.000000;1.000000;1.000000;1.000000;1.000000;-0.122601;0.122601;-0.122601;1.000000
