//X;Y;Z;R;G;B;Intensity;Return Number;Number Of Returns;Scan Direction Flag;Point Source ID;C2M signed distances[-][<0.8];C2M signed distances[<0.4];C2M signed distances[-][<0.2];Stump95
445615.25700195;5696577.23839958;472.53674986;121;113;99;29041.000000;1.000000;1.000000;1.000000;1.000000;-0.091671;0.091671;-0.091671;1.000000
445615.33120163;5696577.20359905;472.52804996;117;107;94;27756.000000;1.000000;1.000000;1.000000;1.000000;-0.126403;0.126403;-0.126403;1.000000
445615.29690178;5696577.16459950;472.53534986;143;134;118;34438.000000;1.000000;1.000000;1.000000;1.000000;-0.165401;0.165401;-0.165401;1.000000
445615.40880211;5696577.13329895;472.52834990;198;197;171;49858.000000;1.000000;1.000000;1.000000;1.000000;-0.196702;0.196702;-0.196702;1.000000
445615.33600243;5696577.13069923;472.52974989;93;92;72;23130.000000;1.000000;1.000000;1.000000;1.000000;-0.199301;0.199301;-0.199301;1.000000
445615.49800117;5696577.27719887;472.50855019;186;175;160;45232.000000;1.000000;1.000000;1.000000;1.000000;-0.052801;0.052801;-0.052801;1.000000
445615.54920204;5696577.37069901;472.50024988;155;147;129;37779.000000;1.000000;1.000000;1.000000;1.000000;0.040699;-0.040699;0.040699;1.000000
445615.61090096;5696577.21519955;472.51984980;236;236;229;60395.000000;1.000000;1.000000;1.000000;1.000000;-0.114800;0.114800;-0.114800;1.000000
445615.13790138;5696577.39189919;472.54015018;89;90;62;22102.000000;1.000000;1.000000;1.000000;1.000000;0.061899;-0.061899;0.061899;1.000000
445615.25160225;5696577.35799892;472.54024984;80;68;53;17733.000000;1.000000;1.000000;1.000000;1.000000;0.027999;-0.027999;0.027999;1.000000
445615.55020149;5696577.33319958;472.50225021;147;137;124;35466.000000;1.000000;1.000000;1.000000;1.000000;0.003200;-0.003200;0.003200;1.000000
445615.13890083;5696577.35429867;472.54444983;61;57;37;14135.000000;1.000000;1.000000;1.000000;1.000000;0.024299;-0.024299;0.024299;1.000000
445615.21500214;5696577.31919868;472.54514982;68;53;37;14135.000000;1.000000;1.000000;1.000000;1.000000;-0.010801;0.010801;-0.010801;1.000000
445615.55150230;5696577.29799946;472.50414993;165;156;143;40349.000000;1.000000;1.000000;1.000000;1.000000;-0.032001;0.032001;-0.032001;1.000000
445615.58920105;5696577.29929932;472.50124981;149;143;132;36751.000000;1.000000;1.000000;1.000000;1.000000;-0.030701;0.030701;-0.030701;1.000000
445615.56700142;5696577.19589909;472.51994993;198;200;196;50886.000000;1.000000;1.000000;1.000000;1.000000;-0.134127;0.134127;-0.134127;1.000000
445615.45430191;5696577.18999870;472.51944973;113;104;90;26985.000000;1.000000;1.000000;1.000000;1.000000;-0.140001;0.140001;-0.140001;1.000000
445615.34900101;5696577.24169930;472.52465012;126;110;93;28784.000000;1.000000;1.000000;1.000000;1.000000;-0.088301;0.088301;-0.088301;1.000000
445615.51370247;5696577.29449947;472.50705006;188;177;162;45746.000000;1.000000;1.000000;1.000000;1.000000;-0.035501;0.035501;-0.035501;1.000000
445615.28870209;5696577.34999950;472.53025009;120;110;98;28527.000000;1.000000;1.000000;1.000000;1.000000;0.020248;-0.020248;0.020248;1.000000
445615.29470070;5696577.23969944;472.53144981;107;99;83;25443.000000;1.000000;1.000000;1.000000;1.000000;-0.090301;0.090301;-0.090301;1.000000
445615.25810249;5696577.20089920;472.53634979;103;94;79;24415.000000;1.000000;1.000000;1.000000;1.000000;-0.129125;0.129125;-0.129125;1.000000
445615.33470161;5696577.16589935;472.52775003;104;96;67;24415.000000;1.000000;1.000000;1.000000;1.000000;-0.164101;0.164101;-0.164101;1.000000
445615.39960106;5696577.15989883;472.52824976;101;96;62;23901.000000;1.000000;1.000000;1.000000;1.000000;-0.170101;0.170101;-0.170101;1.000000
445615.45550163;5696577.15249928;472.51905014;140;136;124;34695.000000;1.000000;1.000000;1.000000;1.000000;-0.177501;0.177501;-0.177501;1.000000
445615.57460220;5696577.41969879;472.50435020;226;225;208;57311.000000;1.000000;1.000000;1.000000;1.000000;0.072756;-0.072756;0.072756;1.000000
445615.53690155;5696577.41849907;472.50724985;161;155;134;39578.000000;1.000000;1.000000;1.000000;1.000000;0.088580;-0.088580;0.088580;1.000000
445615.23970230;5696577.40579899;472.54024984;128;120;107;30840.000000;1.000000;1.000000;1.000000;1.000000;0.075799;-0.075799;0.075799;1.000000
445615.53830154;5696577.38099869;472.50225021;131;121;99;31097.000000;1.000000;1.000000;1.000000;1.000000;0.051125;-0.051125;0.051125;1.000000
445615.16460236;5696577.40339954;472.54155018;27;25;13;6168.000000;1.000000;1.000000;1.000000;1.000000;0.073685;-0.073685;0.073685;1.000000
445615.24080093;5696577.36829956;472.54225018;49;39;25;10280.000000;1.000000;1.000000;1.000000;1.000000;0.038300;-0.038300;0.038300;1.000000
445615.57820137;5696577.30729874;472.50315001;161;154;143;39578.000000;1.000000;1.000000;1.000000;1.000000;-0.022701;0.022701;-0.022701;1.000000
445615.36830147;5696577.44559868;472.51865007;117;107;95;27756.000000;1.000000;1.000000;1.000000;1.000000;0.115599;-0.115599;0.115599;1.000000
445615.20780190;5696577.29189880;472.54444983;113;101;86;26214.000000;1.000000;1.000000;1.000000;1.000000;-0.038101;0.038101;-0.038101;1.000000
445615.25430115;5696577.28539951;472.53714993;122;109;94;28527.000000;1.000000;1.000000;1.000000;1.000000;-0.044666;0.044666;-0.044666;1.000000
445615.14110191;5696577.27939899;472.54594995;57;51;37;13107.000000;1.000000;1.000000;1.000000;1.000000;-0.050601;0.050601;-0.050601;1.000000
445615.51750191;5696577.25909908;472.50455000;126;116;104;30069.000000;1.000000;1.000000;1.000000;1.000000;-0.070901;0.070901;-0.070901;1.000000
445615.22230156;5696577.17139919;472.54374983;129;116;98;30069.000000;1.000000;1.000000;1.000000;1.000000;-0.158601;0.158601;-0.158601;1.000000
445615.70790108;5696577.36089905;472.48404982;157;154;143;39321.000000;1.000000;1.000000;1.000000;1.000000;0.086716;-0.086716;0.086716;1.000000
445615.24560173;5696577.29309948;472.53924992;161;147;132;38293.000000;1.000000;1.000000;1.000000;1.000000;-0.036901;0.036901;-0.036901;1.000000
445615.26120193;5696577.13519867;472.54034998;112;106;93;27242.000000;1.000000;1.000000;1.000000;1.000000;-0.194801;0.194801;-0.194801;1.000000
445615.54410179;5696577.26839931;472.50355007;179;171;160;44204.000000;1.000000;1.000000;1.000000;1.000000;-0.061601;0.061601;-0.061601;1.000000
445615.13290222;5696577.28949936;472.54344990;84;78;62;20046.000000;1.000000;1.000000;1.000000;1.000000;-0.040590;0.040590;-0.040590;1.000000
445615.50650223;5696577.26709946;472.50645020;148;138;124;35723.000000;1.000000;1.000000;1.000000;1.000000;-0.063037;0.063037;-0.063037;1.000000
445615.28910072;5696577.15599926;472.53485014;109;101;83;25957.000000;1.000000;1.000000;1.000000;1.000000;-0.174023;0.174023;-0.174023;1.000000
445615.24680145;5696577.25569923;472.53884985;124;113;97;29298.000000;1.000000;1.000000;1.000000;1.000000;-0.074301;0.074301;-0.074301;1.000000
445615.70270164;5696577.25629910;472.48724987;170;164;155;42148.000000;1.000000;1.000000;1.000000;1.000000;-0.105741;0.105741;-0.105741;1.000000
445615.34160240;5696577.43629940;472.52194979;142;134;121;34438.000000;1.000000;1.000000;1.000000;1.000000;0.106299;-0.106299;0.106299;1.000000
445615.37690170;5696577.43779953;472.51895000;110;99;85;25700.000000;1.000000;1.000000;1.000000;1.000000;0.107800;-0.107800;0.107800;1.000000
445615.38050087;5696577.40239914;472.52094986;142;130;111;33667.000000;1.000000;1.000000;1.000000;1.000000;0.072490;-0.072490;0.072490;1.000000
445615.24820145;5696577.22049912;472.53844978;93;83;68;21588.000000;1.000000;1.000000;1.000000;1.000000;-0.109501;0.109501;-0.109501;1.000000
445615.30510147;5696577.39759930;472.52454998;176;169;155;43433.000000;1.000000;1.000000;1.000000;1.000000;0.067599;-0.067599;0.067599;1.000000
445615.34410103;5696577.36369904;472.52355005;152;144;130;37008.000000;1.000000;1.000000;1.000000;1.000000;0.033699;-0.033699;0.033699;1.000000
445615.38530167;5696577.25249870;472.51944973;95;82;67;21588.000000;1.000000;1.000000;1.000000;1.000000;-0.077502;0.077502;-0.077502;1.000000
445615.12880142;5696577.20549877;472.56314995;88;80;60;20560.000000;1.000000;1.000000;1.000000;1.000000;-0.124516;0.124516;-0.124516;1.000000
445615.21050079;5696577.44129951;472.53475000;46;41;37;10794.000000;1.000000;1.000000;1.000000;1.000000;0.111300;-0.111300;0.111300;1.000000
445615.50850113;5696577.41639908;472.51065018;193;183;164;47031.000000;1.000000;1.000000;1.000000;1.000000;0.086426;-0.086426;0.086426;1.000000
445615.43570145;5696577.41369923;472.51434996;116;102;80;26471.000000;1.000000;1.000000;1.000000;1.000000;0.083699;0.083699;-0.083699;1.000000
445615.47320183;5696577.41489895;472.51364996;204;193;175;49858.000000;1.000000;1.000000;1.000000;1.000000;0.084938;-0.084938;0.084938;1.000000
445615.21110161;5696577.40359886;472.54824974;102;97;87;24929.000000;1.000000;1.000000;1.000000;1.000000;0.073599;-0.073599;0.073599;1.000000
445615.43680199;5696577.37629898;472.51394989;164;150;131;39064.000000;1.000000;1.000000;1.000000;1.000000;0.046299;0.046299;-0.046299;1.000000
445615.17690094;5696577.36469944;472.55324986;154;151;136;38550.000000;1.000000;1.000000;1.000000;1.000000;0.035470;-0.035470;0.035470;1.000000
445615.21450241;5696577.36589916;472.55034973;191;187;171;47802.000000;1.000000;1.000000;1.000000;1.000000;0.035899;-0.035899;0.035899;1.000000
445615.47570236;5696577.33999928;472.51055004;156;141;124;36751.000000;1.000000;1.000000;1.000000;1.000000;0.010657;-0.010657;0.010657;1.000000
445615.17810066;5696577.32719906;472.55055000;161;154;137;39578.000000;1.000000;1.000000;1.000000;1.000000;-0.006768;0.006768;-0.006768;1.000000
445615.21360214;5696577.32869919;472.54514982;79;65;48;17219.000000;1.000000;1.000000;1.000000;1.000000;-0.001301;0.001301;-0.001301;1.000000
445615.47680099;5696577.30249889;472.51254990;143;130;111;33667.000000;1.000000;1.000000;1.000000;1.000000;-0.027622;0.027622;-0.027622;1.000000
445615.43910225;5696577.30129917;472.51545002;168;156;140;40349.000000;1.000000;1.000000;1.000000;1.000000;-0.028701;0.028701;-0.028701;1.000000
445615.17980202;5696577.29209908;472.54554989;148;140;125;35980.000000;1.000000;1.000000;1.000000;1.000000;-0.038165;0.038165;-0.038165;1.000000
445615.44280251;5696577.26589878;472.51524975;117;109;95;28013.000000;1.000000;1.000000;1.000000;1.000000;-0.064193;0.064193;-0.064193;1.000000
445615.47800072;5696577.26499947;472.51214983;119;108;93;28013.000000;1.000000;1.000000;1.000000;1.000000;-0.065015;0.065015;-0.065015;1.000000
445615.48160179;5696577.22959908;472.51415016;116;107;95;27756.000000;1.000000;1.000000;1.000000;1.000000;-0.100401;0.100401;-0.100401;1.000000
445615.51670082;5696577.22869881;472.51114990;75;65;58;17219.000000;1.000000;1.000000;1.000000;1.000000;-0.101301;0.101301;-0.101301;1.000000
445615.70030220;5696577.33119877;472.48805000;144;139;129;35723.000000;1.000000;1.000000;1.000000;1.000000;0.073435;-0.073435;0.073435;1.000000
445615.18060120;5696577.25229939;472.54745008;170;163;148;41891.000000;1.000000;1.000000;1.000000;1.000000;-0.077787;0.077787;-0.077787;1.000000
445615.14660080;5696577.21569927;472.55244972;67;59;41;15163.000000;1.000000;1.000000;1.000000;1.000000;-0.114301;0.114301;-0.114301;1.000000
445615.18190201;5696577.21709927;472.54944994;130;118;100;30583.000000;1.000000;1.000000;1.000000;1.000000;-0.112925;0.112925;-0.112925;1.000000
445615.48270233;5696577.19209869;472.51615002;167;160;145;41120.000000;1.000000;1.000000;1.000000;1.000000;-0.137901;0.137901;-0.137901;1.000000
445615.51780136;5696577.19349869;472.51774981;110;108;98;27499.000000;1.000000;1.000000;1.000000;1.000000;-0.136501;0.136501;-0.136501;1.000000
445615.18530090;5696577.17939957;472.55144979;126;110;89;28784.000000;1.000000;1.000000;1.000000;1.000000;-0.150600;0.150600;-0.150600;1.000000
445615.52140244;5696577.15579899;472.51515009;212;212;205;54227.000000;1.000000;1.000000;1.000000;1.000000;-0.174201;0.174201;-0.174201;1.000000
445615.48390205;5696577.15459927;472.51574995;199;197;188;50372.000000;1.000000;1.000000;1.000000;1.000000;-0.175401;0.175401;-0.175401;1.000000
445615.18650063;5696577.14189919;472.55104973;123;112;96;29041.000000;1.000000;1.000000;1.000000;1.000000;-0.188101;0.188101;-0.188101;1.000000
445615.38530167;5696577.28039940;472.52444984;151;140;127;36237.000000;1.000000;1.000000;1.000000;1.000000;-0.049602;0.049602;-0.049602;1.000000
445615.15800102;5696577.13979919;472.55674984;117;109;94;28013.000000;1.000000;1.000000;1.000000;1.000000;-0.190201;0.190201;-0.190201;1.000000
445615.12020119;5696577.13849934;472.56435015;213;205;189;52685.000000;1.000000;1.000000;1.000000;1.000000;-0.191501;0.191501;-0.191501;1.000000
445615.69720085;5696577.17269905;472.48834993;83;81;69;20560.000000;1.000000;1.000000;1.000000;1.000000;-0.172305;0.172305;-0.172305;1.000000
445615.29580124;5696577.20209892;472.53345015;143;137;125;35209.000000;1.000000;1.000000;1.000000;1.000000;-0.127901;0.127901;-0.127901;1.000000
445615.66630180;5696577.21979912;472.49214985;173;166;157;42919.000000;1.000000;1.000000;1.000000;1.000000;-0.117041;0.117041;-0.117041;1.000000
445615.66470154;5696577.25489910;472.49714996;177;172;164;44204.000000;1.000000;1.000000;1.000000;1.000000;-0.084088;0.084088;-0.084088;1.000000
445615.69910248;5696577.29389961;472.48985006;172;166;158;42662.000000;1.000000;1.000000;1.000000;1.000000;-0.080745;0.080745;-0.080745;1.000000
445615.57190140;5696577.46659954;472.50474979;93;88;68;22359.000000;1.000000;1.000000;1.000000;1.000000;0.055100;-0.055100;0.055100;1.000000
445615.16540154;5696577.41039951;472.53935005;38;35;23;8738.000000;1.000000;1.000000;1.000000;1.000000;0.080728;-0.080728;0.080728;1.000000
445615.57800110;5696577.35409935;472.49904968;151;144;132;37008.000000;1.000000;1.000000;1.000000;1.000000;0.024099;-0.024099;0.024099;1.000000
445615.29880150;5696577.33269890;472.53044989;163;152;139;39321.000000;1.000000;1.000000;1.000000;1.000000;0.002699;-0.002699;0.002699;1.000000
445615.26690109;5696577.21879871;472.53464987;176;171;158;43947.000000;1.000000;1.000000;1.000000;1.000000;-0.111201;0.111201;-0.111201;1.000000
445615.24280174;5696577.34009941;472.54194977;81;65;49;17476.000000;1.000000;1.000000;1.000000;1.000000;0.010099;-0.010099;0.010099;1.000000
445615.26820190;5696577.18359955;472.53665020;150;140;125;36237.000000;1.000000;1.000000;1.000000;1.000000;-0.146400;0.146400;-0.146400;1.000000
445615.11890228;5696577.17599876;472.56705000;83;73;52;18761.000000;1.000000;1.000000;1.000000;1.000000;-0.154001;0.154001;-0.154001;1.000000
445615.62830170;5696577.24419888;472.50465014;160;156;148;40092.000000;1.000000;1.000000;1.000000;1.000000;-0.085813;0.085813;-0.085813;1.000000
445615.38210114;5696577.14979942;472.53205015;90;88;47;21588.000000;1.000000;1.000000;1.000000;1.000000;-0.180235;0.180235;-0.180235;1.000000
445615.61660202;5696577.31769951;472.50274994;117;112;104;28784.000000;1.000000;1.000000;1.000000;1.000000;-0.012300;0.012300;-0.012300;1.000000
445615.50380142;5696577.31409939;472.50684978;159;147;131;38036.000000;1.000000;1.000000;1.000000;1.000000;-0.016017;0.016017;-0.016017;1.000000
445615.54150208;5696577.31529911;472.50395014;120;109;94;28270.000000;1.000000;1.000000;1.000000;1.000000;-0.014706;0.014706;-0.014706;1.000000
445615.61800201;5696577.28259953;472.50234987;73;67;56;17219.000000;1.000000;1.000000;1.000000;1.000000;-0.047400;0.047400;-0.047400;1.000000
445615.47910126;5696577.27659901;472.50995018;159;148;132;38293.000000;1.000000;1.000000;1.000000;1.000000;-0.053402;0.053402;-0.053402;1.000000
445615.20990189;5696577.26369961;472.54425003;79;67;52;17476.000000;1.000000;1.000000;1.000000;1.000000;-0.066300;0.066300;-0.066300;1.000000
445615.14390190;5696577.26039894;472.54824974;36;29;20;7710.000000;1.000000;1.000000;1.000000;1.000000;-0.069601;0.069601;-0.069601;1.000000
445615.59670074;5696577.13259895;472.50894978;75;71;67;18247.000000;1.000000;1.000000;1.000000;1.000000;-0.197404;0.197404;-0.197404;1.000000
445615.67870148;5696577.15319927;472.49424984;71;68;59;17219.000000;1.000000;1.000000;1.000000;1.000000;-0.184240;0.184240;-0.184240;1.000000
445615.33330162;5696577.17539890;472.52784969;123;114;90;29298.000000;1.000000;1.000000;1.000000;1.000000;-0.154601;0.154601;-0.154601;1.000000
445615.22200211;5696577.21819885;472.54425003;86;73;55;19018.000000;1.000000;1.000000;1.000000;1.000000;-0.111801;0.111801;-0.111801;1.000000
445615.57700165;5696577.17629917;472.51784994;157;159;154;40349.000000;1.000000;1.000000;1.000000;1.000000;-0.153701;0.153701;-0.153701;1.000000
445615.49260147;5696577.39679916;472.51205017;166;153;133;39578.000000;1.000000;1.000000;1.000000;1.000000;0.066799;-0.066799;0.066799;1.000000
445615.38300140;5696577.35309895;472.52054979;129;115;98;30069.000000;1.000000;1.000000;1.000000;1.000000;0.023248;-0.023248;0.023248;1.000000
445615.69480141;5696577.24759872;472.48915007;183;177;170;45746.000000;1.000000;1.000000;1.000000;1.000000;-0.106788;0.106788;-0.106788;1.000000
445615.71340187;5696577.44449909;472.48525002;225;221;215;56797.000000;1.000000;1.000000;1.000000;1.000000;-0.090402;0.090402;-0.090402;1.000000
445615.50840195;5696577.46319874;472.50654985;144;133;121;34438.000000;1.000000;1.000000;1.000000;1.000000;0.118686;-0.118686;0.118686;1.000000
445615.58140190;5696577.24379929;472.50724985;55;52;48;13364.000000;1.000000;1.000000;1.000000;1.000000;-0.086201;0.086201;-0.086201;1.000000
445615.24790199;5696577.19249924;472.53814985;120;108;93;28013.000000;1.000000;1.000000;1.000000;1.000000;-0.137501;0.137501;-0.137501;1.000000
445615.17480095;5696577.41179951;472.53975012;42;39;29;9766.000000;1.000000;1.000000;1.000000;1.000000;0.082350;-0.082350;0.082350;1.000000
445615.58750160;5696577.35549934;472.49954988;127;120;109;30840.000000;1.000000;1.000000;1.000000;1.000000;0.025499;-0.025499;0.025499;1.000000
445615.51190193;5696577.35069950;472.50764992;125;112;96;29298.000000;1.000000;1.000000;1.000000;1.000000;0.020700;-0.020700;0.020700;1.000000
445615.51310165;5696577.31319912;472.50724985;178;166;151;42919.000000;1.000000;1.000000;1.000000;1.000000;-0.016801;0.016801;-0.016801;1.000000
445615.62720116;5696577.28169926;472.50274994;81;75;65;19275.000000;1.000000;1.000000;1.000000;1.000000;-0.048302;0.048302;-0.048302;1.000000
445615.21920212;5696577.26279934;472.54234983;105;93;78;24158.000000;1.000000;1.000000;1.000000;1.000000;-0.067201;0.067201;-0.067201;1.000000
445615.59090240;5696577.24529942;472.50764992;54;53;47;13364.000000;1.000000;1.000000;1.000000;1.000000;-0.084701;0.084701;-0.084701;1.000000
445615.22160156;5696577.19009884;472.54624989;114;99;78;25957.000000;1.000000;1.000000;1.000000;1.000000;-0.139901;0.139901;-0.139901;1.000000
445615.22290237;5696577.15269955;472.54355003;134;124;109;32125.000000;1.000000;1.000000;1.000000;1.000000;-0.177300;0.177300;-0.177300;1.000000
445615.67770203;5696577.19079884;472.48994972;79;72;63;18761.000000;1.000000;1.000000;1.000000;1.000000;-0.148190;0.148190;-0.148190;1.000000
445615.29790123;5696577.32349880;472.53034975;147;136;123;35209.000000;1.000000;1.000000;1.000000;1.000000;-0.006501;0.006501;-0.006501;1.000000
445615.66800125;5696577.41349895;472.49454977;177;175;167;44718.000000;1.000000;1.000000;1.000000;1.000000;-0.070286;0.070286;-0.070286;1.000000
445615.62930115;5696577.44979961;472.49324991;96;89;80;23130.000000;1.000000;1.000000;1.000000;1.000000;-0.020873;0.020873;-0.020873;1.000000
445615.72620209;5696577.37799938;472.47804977;109;106;98;27242.000000;1.000000;1.000000;1.000000;1.000000;0.110315;-0.110315;0.110315;1.000000
445615.61910065;5696577.19819935;472.51074984;147;144;134;36751.000000;1.000000;1.000000;1.000000;1.000000;-0.131801;0.131801;-0.131801;1.000000
445615.47450073;5696577.37749870;472.51095011;150;136;118;35466.000000;1.000000;1.000000;1.000000;1.000000;0.047656;-0.047656;0.047656;1.000000
445615.43800171;5696577.33879955;472.51354982;133;119;100;31097.000000;1.000000;1.000000;1.000000;1.000000;0.008800;-0.008800;0.008800;1.000000
445615.14080246;5696577.32609947;472.54654982;154;148;130;37779.000000;1.000000;1.000000;1.000000;1.000000;-0.003901;0.003901;-0.003901;1.000000
445615.59190186;5696577.23339947;472.51224997;83;83;78;21074.000000;1.000000;1.000000;1.000000;1.000000;-0.096601;0.096601;-0.096601;1.000000
445615.14310081;5696577.25109871;472.54804995;37;31;21;7967.000000;1.000000;1.000000;1.000000;1.000000;-0.078901;0.078901;-0.078901;1.000000
445615.55450066;5696577.23229893;472.51055004;48;44;41;11308.000000;1.000000;1.000000;1.000000;1.000000;-0.097701;0.097701;-0.097701;1.000000
445615.17350204;5696577.42129906;472.53744986;56;51;40;13107.000000;1.000000;1.000000;1.000000;1.000000;0.091937;-0.091937;0.091937;1.000000
445615.51410110;5696577.32479961;472.50745012;166;155;139;40092.000000;1.000000;1.000000;1.000000;1.000000;-0.005200;0.005200;-0.005200;1.000000
445615.62570198;5696577.29109867;472.50514986;62;56;47;14392.000000;1.000000;1.000000;1.000000;1.000000;-0.038901;0.038901;-0.038901;1.000000
445615.21800240;5696577.27459915;472.54244997;83;71;56;18504.000000;1.000000;1.000000;1.000000;1.000000;-0.055401;0.055401;-0.055401;1.000000
445615.25350197;5696577.27609928;472.53704979;99;87;71;22616.000000;1.000000;1.000000;1.000000;1.000000;-0.053925;0.053925;-0.053925;1.000000
445615.33210190;5696577.40919884;472.52124979;131;122;107;31611.000000;1.000000;1.000000;1.000000;1.000000;0.079199;-0.079199;0.079199;1.000000
445615.36960228;5696577.41039951;472.52064993;136;125;108;32382.000000;1.000000;1.000000;1.000000;1.000000;0.080400;-0.080400;0.080400;1.000000
445615.59170158;5696577.25229939;472.50315001;75;72;65;18504.000000;1.000000;1.000000;1.000000;1.000000;-0.077701;0.077701;-0.077701;1.000000
445615.66130074;5696577.36739929;472.49604990;126;124;115;31611.000000;1.000000;1.000000;1.000000;1.000000;0.050830;-0.050830;0.050830;1.000000
445615.20130165;5696577.44219883;472.53434994;41;36;33;9509.000000;1.000000;1.000000;1.000000;1.000000;0.112199;-0.112199;0.112199;1.000000
445615.27410133;5696577.44249924;472.52834990;81;71;60;18504.000000;1.000000;1.000000;1.000000;1.000000;0.112499;-0.112499;0.112499;1.000000
445615.28530128;5696577.38769920;472.52815010;168;158;145;40863.000000;1.000000;1.000000;1.000000;1.000000;0.057740;-0.057740;0.057740;1.000000
445615.31990250;5696577.45469959;472.52124979;118;110;98;28527.000000;1.000000;1.000000;1.000000;1.000000;0.124822;-0.124822;0.124822;1.000000
445615.32330139;5696577.41699894;472.52325012;126;116;102;30069.000000;1.000000;1.000000;1.000000;1.000000;0.087420;-0.087420;0.087420;1.000000
445615.39880188;5696577.42169960;472.51975014;159;145;127;37779.000000;1.000000;1.000000;1.000000;1.000000;0.091700;-0.091700;0.091700;1.000000
445615.39990242;5696577.38429935;472.51935007;110;97;76;25186.000000;1.000000;1.000000;1.000000;1.000000;0.054299;-0.054299;0.054299;1.000000
445615.32580193;5696577.34429939;472.52484991;105;97;82;24929.000000;1.000000;1.000000;1.000000;1.000000;0.015532;-0.015532;0.015532;1.000000
445615.36340149;5696577.34549912;472.52425005;127;115;98;29812.000000;1.000000;1.000000;1.000000;1.000000;0.015499;-0.015499;0.015499;1.000000
445615.40360077;5696577.27409943;472.52054979;185;176;162;45489.000000;1.000000;1.000000;1.000000;1.000000;-0.055901;0.055901;-0.055901;1.000000
445615.33040245;5696577.26909931;472.52644970;127;115;100;29812.000000;1.000000;1.000000;1.000000;1.000000;-0.060918;0.060918;-0.060918;1.000000
445615.36580093;5696577.27059944;472.52344992;153;142;126;36751.000000;1.000000;1.000000;1.000000;1.000000;-0.059401;0.059401;-0.059401;1.000000
445615.55620201;5696577.20399960;472.51725008;74;73;68;18504.000000;1.000000;1.000000;1.000000;1.000000;-0.126000;0.126000;-0.126000;1.000000
445615.44340141;5696577.20029934;472.52145006;163;157;144;40349.000000;1.000000;1.000000;1.000000;1.000000;-0.129763;0.129763;-0.129763;1.000000
445615.44460114;5696577.16279896;472.52105000;134;127;112;32639.000000;1.000000;1.000000;1.000000;1.000000;-0.167238;0.167238;-0.167238;1.000000
445615.59120186;5696577.27099903;472.50105001;116;111;101;28527.000000;1.000000;1.000000;1.000000;1.000000;-0.059001;0.059001;-0.059001;1.000000
445615.40920074;5696577.16139896;472.52644970;104;96;67;24415.000000;1.000000;1.000000;1.000000;1.000000;-0.168604;0.168604;-0.168604;1.000000
445615.14940079;5696577.14989956;472.56115009;131;123;107;31611.000000;1.000000;1.000000;1.000000;1.000000;-0.180100;0.180100;-0.180100;1.000000
445615.52430161;5696577.48269947;472.50514986;157;148;131;38036.000000;1.000000;1.000000;1.000000;1.000000;0.102575;-0.102575;0.102575;1.000000
445615.56530197;5696577.44619949;472.50654985;66;58;39;14906.000000;1.000000;1.000000;1.000000;1.000000;0.066110;-0.066110;0.066110;1.000000
445615.60210236;5696577.41249950;472.50084974;226;225;213;57311.000000;1.000000;1.000000;1.000000;1.000000;0.062952;-0.062952;0.062952;1.000000
445615.21860130;5696577.25589951;472.54225018;124;114;98;29555.000000;1.000000;1.000000;1.000000;1.000000;-0.074100;0.074100;-0.074100;1.000000
445615.60680206;5696577.33729942;472.50014975;160;155;146;39835.000000;1.000000;1.000000;1.000000;1.000000;0.007299;-0.007299;0.007299;1.000000
445615.53140076;5696577.33259876;472.50365021;127;116;101;30069.000000;1.000000;1.000000;1.000000;1.000000;0.002599;-0.002599;0.002599;1.000000
445615.60790070;5696577.29979904;472.50215008;94;88;79;22616.000000;1.000000;1.000000;1.000000;1.000000;-0.030201;0.030201;-0.030201;1.000000
445615.49720200;5696577.29369934;472.50864985;174;163;146;42148.000000;1.000000;1.000000;1.000000;1.000000;-0.036301;0.036301;-0.036301;1.000000
445615.19750221;5696577.28119953;472.54384996;67;56;42;14649.000000;1.000000;1.000000;1.000000;1.000000;-0.048800;0.048800;-0.048800;1.000000
445615.23780067;5696577.20979889;472.54024984;83;71;55;18504.000000;1.000000;1.000000;1.000000;1.000000;-0.120201;0.120201;-0.120201;1.000000
445615.58770187;5696577.30869873;472.50124981;146;140;129;35980.000000;1.000000;1.000000;1.000000;1.000000;-0.021301;0.021301;-0.021301;1.000000
445615.68660172;5696577.16189869;472.49235012;60;57;47;14392.000000;1.000000;1.000000;1.000000;1.000000;-0.178396;0.178396;-0.178396;1.000000
445615.65150078;5696577.16279896;472.49545004;128;122;115;31611.000000;1.000000;1.000000;1.000000;1.000000;-0.169005;0.169005;-0.169005;1.000000
445615.28820236;5696577.36879929;472.52804996;66;56;43;14649.000000;1.000000;1.000000;1.000000;1.000000;0.038972;-0.038972;0.038972;1.000000
445615.24130066;5696577.17209919;472.53994991;128;117;102;30326.000000;1.000000;1.000000;1.000000;1.000000;-0.157901;0.157901;-0.157901;1.000000
445615.25150116;5696577.33229931;472.54225018;64;47;31;12850.000000;1.000000;1.000000;1.000000;1.000000;0.002299;-0.002299;0.002299;1.000000
445615.51210220;5696577.37869938;472.50804998;130;117;96;30326.000000;1.000000;1.000000;1.000000;1.000000;0.048699;-0.048699;0.048699;1.000000
445615.28940208;5696577.33359917;472.53235008;148;137;123;35466.000000;1.000000;1.000000;1.000000;1.000000;0.004359;-0.004359;0.004359;1.000000
445615.32830246;5696577.29729946;472.52904989;158;149;134;38550.000000;1.000000;1.000000;1.000000;1.000000;-0.032893;0.032893;-0.032893;1.000000
445615.29410179;5696577.25839909;472.53165009;175;166;152;42919.000000;1.000000;1.000000;1.000000;1.000000;-0.071601;0.071601;-0.071601;1.000000
445615.34470184;5696577.14859875;472.53034975;171;170;141;42919.000000;1.000000;1.000000;1.000000;1.000000;-0.181401;0.181401;-0.181401;1.000000
445615.37070091;5696577.37289913;472.52255013;116;103;86;26985.000000;1.000000;1.000000;1.000000;1.000000;0.042899;-0.042899;0.042899;1.000000
445615.40950211;5696577.33669956;472.51914980;131;116;99;30326.000000;1.000000;1.000000;1.000000;1.000000;0.006839;-0.006839;0.006839;1.000000
445615.65770157;5696577.40509899;472.49624969;221;220;212;56283.000000;1.000000;1.000000;1.000000;1.000000;-0.072267;0.072267;-0.072267;1.000000
445615.68890198;5696577.36029919;472.49014999;153;149;139;38293.000000;1.000000;1.000000;1.000000;1.000000;0.069030;-0.069030;0.069030;1.000000
445615.64970215;5696577.39419945;472.49574997;167;166;158;42405.000000;1.000000;1.000000;1.000000;1.000000;0.068136;-0.068136;0.068136;1.000000
445615.16360100;5696577.43869884;472.53254988;129;127;116;32382.000000;1.000000;1.000000;1.000000;1.000000;0.108837;-0.108837;0.108837;1.000000
445615.27890213;5696577.36959942;472.52994968;58;47;34;12336.000000;1.000000;1.000000;1.000000;1.000000;0.039599;-0.039599;0.039599;1.000000
445615.28510101;5696577.23819931;472.53335001;104;97;82;24929.000000;1.000000;1.000000;1.000000;1.000000;-0.091822;0.091822;-0.091822;1.000000
445615.32080086;5696577.24199875;472.52804996;105;94;77;24415.000000;1.000000;1.000000;1.000000;1.000000;-0.088235;0.088235;-0.088235;1.000000
445615.32540138;5696577.16679867;472.52964975;117;108;83;27499.000000;1.000000;1.000000;1.000000;1.000000;-0.163329;0.163329;-0.163329;1.000000
445615.59430130;5696577.15849884;472.51144983;109;107;102;27499.000000;1.000000;1.000000;1.000000;1.000000;-0.171501;0.171501;-0.171501;1.000000
445615.55650146;5696577.15719898;472.51674988;156;157;151;40092.000000;1.000000;1.000000;1.000000;1.000000;-0.172801;0.172801;-0.172801;1.000000
445615.64200218;5696577.33869942;472.50175001;67;62;57;15934.000000;1.000000;1.000000;1.000000;1.000000;0.017449;-0.017449;0.017449;1.000000
445615.43210228;5696577.47929867;472.52194979;210;204;194;52428.000000;1.000000;1.000000;1.000000;1.000000;0.149299;0.149299;-0.149299;1.000000
445615.34380157;5696577.13929947;472.53014996;157;157;132;39578.000000;1.000000;1.000000;1.000000;1.000000;-0.190701;0.190701;-0.190701;1.000000
445615.39570244;5696577.44069870;472.52215006;120;108;92;28013.000000;1.000000;1.000000;1.000000;1.000000;0.110699;-0.110699;0.110699;1.000000
445615.28230103;5696577.33189877;472.53205015;124;111;97;29041.000000;1.000000;1.000000;1.000000;1.000000;0.001899;-0.001899;0.001899;1.000000
445615.73430069;5696577.38899906;472.47625019;166;164;156;41891.000000;1.000000;1.000000;1.000000;1.000000;0.122559;-0.122559;0.122559;1.000000
445615.42610176;5696577.19019897;472.52285006;219;213;201;54741.000000;1.000000;1.000000;1.000000;1.000000;-0.139801;0.139801;-0.139801;1.000000
445615.34960182;5696577.22299870;472.52444984;99;85;70;22359.000000;1.000000;1.000000;1.000000;1.000000;-0.107001;0.107001;-0.107001;1.000000
445615.42490204;5696577.22769936;472.52325012;208;203;193;52171.000000;1.000000;1.000000;1.000000;1.000000;-0.102301;0.102301;-0.102301;1.000000
445615.42020233;5696577.30059917;472.51924994;178;168;153;43433.000000;1.000000;1.000000;1.000000;1.000000;-0.029401;0.029401;-0.029401;1.000000
445615.38460167;5696577.29909904;472.52694990;98;88;72;22873.000000;1.000000;1.000000;1.000000;1.000000;-0.030918;0.030918;-0.030918;1.000000
445615.66750153;5696577.18239887;472.49174978;82;76;67;19532.000000;1.000000;1.000000;1.000000;1.000000;-0.153090;0.153090;-0.153090;1.000000
445615.71520241;5696577.38829906;472.48234989;125;123;114;31354.000000;1.000000;1.000000;1.000000;1.000000;0.105831;-0.105831;0.105831;1.000000
445615.71280106;5696577.46319874;472.48544981;205;201;193;51657.000000;1.000000;1.000000;1.000000;1.000000;-0.086250;0.086250;-0.086250;1.000000
445615.67520149;5696577.46199902;472.48614981;161;155;146;39835.000000;1.000000;1.000000;1.000000;1.000000;-0.049097;0.049097;-0.049097;1.000000
445615.63990219;5696577.46059902;472.48915007;147;141;131;36237.000000;1.000000;1.000000;1.000000;1.000000;-0.016431;0.016431;-0.016431;1.000000
445615.30480202;5696577.44439896;472.52504971;122;112;100;29041.000000;1.000000;1.000000;1.000000;1.000000;0.114399;-0.114399;0.114399;1.000000
445615.32450111;5696577.15749939;472.52955009;126;120;96;30583.000000;1.000000;1.000000;1.000000;1.000000;-0.172657;0.172657;-0.172657;1.000000
445615.63440140;5696577.13379868;472.50365021;67;64;53;16191.000000;1.000000;1.000000;1.000000;1.000000;-0.196346;0.196346;-0.196346;1.000000
445615.26670082;5696577.41509922;472.53235008;80;71;57;18504.000000;1.000000;1.000000;1.000000;1.000000;0.085099;-0.085099;0.085099;1.000000
445615.27500160;5696577.22979935;472.53284981;154;150;137;38293.000000;1.000000;1.000000;1.000000;1.000000;-0.100201;0.100201;-0.100201;1.000000
445615.59600075;5696577.15129955;472.51144983;107;104;100;26728.000000;1.000000;1.000000;1.000000;1.000000;-0.178701;0.178701;-0.178701;1.000000
445615.62860115;5696577.22539909;472.51144983;175;173;164;44204.000000;1.000000;1.000000;1.000000;1.000000;-0.104615;0.104615;-0.104615;1.000000
445615.51810081;5696577.41789921;472.50874998;185;176;157;45232.000000;1.000000;1.000000;1.000000;1.000000;0.087899;-0.087899;0.087899;1.000000
445615.44490250;5696577.41289909;472.51475002;141;128;107;33153.000000;1.000000;1.000000;1.000000;1.000000;0.082962;-0.082962;0.082962;1.000000
445615.22040184;5696577.40279873;472.54874994;108;103;92;26471.000000;1.000000;1.000000;1.000000;1.000000;0.072799;-0.072799;0.072799;1.000000
445615.40840157;5696577.37419899;472.51725008;94;80;60;20817.000000;1.000000;1.000000;1.000000;1.000000;0.044200;-0.044200;0.044200;1.000000
445615.44640167;5696577.37769897;472.51205017;169;155;136;40349.000000;1.000000;1.000000;1.000000;1.000000;0.047731;-0.047731;0.047731;1.000000
445615.22180183;5696577.36759956;472.54834988;153;148;132;37779.000000;1.000000;1.000000;1.000000;1.000000;0.037600;-0.037600;0.037600;1.000000
445615.48520096;5696577.34149940;472.51104977;164;150;133;39064.000000;1.000000;1.000000;1.000000;1.000000;0.011499;-0.011499;0.011499;1.000000
445615.44730194;5696577.33789928;472.51394989;141;127;108;33153.000000;1.000000;1.000000;1.000000;1.000000;0.007943;-0.007943;0.007943;1.000000
445615.15020187;5696577.32749947;472.54925014;187;182;164;46517.000000;1.000000;1.000000;1.000000;1.000000;-0.002501;0.002501;-0.002501;1.000000
445615.18770226;5696577.32869919;472.54864981;95;86;69;22102.000000;1.000000;1.000000;1.000000;1.000000;-0.001301;0.001301;-0.001301;1.000000
445615.48630150;5696577.30399902;472.51065018;142;129;111;33410.000000;1.000000;1.000000;1.000000;1.000000;-0.026001;0.026001;-0.026001;1.000000
445615.44860085;5696577.30269917;472.51594975;133;121;104;31354.000000;1.000000;1.000000;1.000000;1.000000;-0.027301;0.027301;-0.027301;1.000000
445615.15150078;5696577.29009922;472.54654982;73;67;49;16962.000000;1.000000;1.000000;1.000000;1.000000;-0.039901;0.039901;-0.039901;1.000000
445615.44980247;5696577.26519878;472.51555016;171;162;147;41891.000000;1.000000;1.000000;1.000000;1.000000;-0.064801;0.064801;-0.064801;1.000000
445615.41450127;5696577.26379879;472.51625015;144;136;123;34952.000000;1.000000;1.000000;1.000000;1.000000;-0.066244;0.066244;-0.066244;1.000000
445615.48750122;5696577.26649960;472.51025011;127;116;101;30069.000000;1.000000;1.000000;1.000000;1.000000;-0.063500;0.063500;-0.063500;1.000000
445615.48850067;5696577.22899921;472.51445009;102;93;82;24158.000000;1.000000;1.000000;1.000000;1.000000;-0.101001;0.101001;-0.101001;1.000000
445615.19010170;5696577.25379951;472.54785015;148;140;126;35980.000000;1.000000;1.000000;1.000000;1.000000;-0.076200;0.076200;-0.076200;1.000000
445615.15580185;5696577.21479900;472.55284979;76;67;48;17219.000000;1.000000;1.000000;1.000000;1.000000;-0.115201;0.115201;-0.115201;1.000000
445615.49190147;5696577.19119938;472.51655008;174;168;155;43176.000000;1.000000;1.000000;1.000000;1.000000;-0.138801;0.138801;-0.138801;1.000000
445615.19470222;5696577.17859943;472.54955008;128;112;92;29298.000000;1.000000;1.000000;1.000000;1.000000;-0.151401;0.151401;-0.151401;1.000000
445615.49320229;5696577.15379913;472.51384975;206;205;196;52428.000000;1.000000;1.000000;1.000000;1.000000;-0.176201;0.176201;-0.176201;1.000000
445615.52860077;5696577.15749939;472.51545002;194;193;186;49344.000000;1.000000;1.000000;1.000000;1.000000;-0.172501;0.172501;-0.172501;1.000000
445615.19580086;5696577.14109905;472.55144979;102;93;76;23901.000000;1.000000;1.000000;1.000000;1.000000;-0.188901;0.188901;-0.188901;1.000000
445615.69130142;5696577.31329926;472.49434998;154;148;140;38036.000000;1.000000;1.000000;1.000000;1.000000;-0.066554;0.066554;-0.066554;1.000000
445615.68780144;5696577.34869869;472.48994972;137;132;121;33924.000000;1.000000;1.000000;1.000000;1.000000;0.063729;-0.063729;0.063729;1.000000
445615.62160118;5696577.42009933;472.49944975;98;96;86;24415.000000;1.000000;1.000000;1.000000;1.000000;0.050578;-0.050578;0.050578;1.000000
445615.13850220;5696577.39879902;472.54034998;115;116;87;28784.000000;1.000000;1.000000;1.000000;1.000000;0.068799;-0.068799;0.068799;1.000000
445615.65100105;5696577.20719917;472.49594976;132;126;114;32382.000000;1.000000;1.000000;1.000000;1.000000;-0.125148;0.125148;-0.125148;1.000000
445615.59280212;5696577.19589909;472.51884987;223;225;220;57311.000000;1.000000;1.000000;1.000000;1.000000;-0.134101;0.134101;-0.134101;1.000000
445615.70470245;5696577.20229919;472.48665001;69;65;55;16705.000000;1.000000;1.000000;1.000000;1.000000;-0.149547;0.149547;-0.149547;1.000000
445615.40600212;5696577.22479923;472.52234985;93;85;73;22102.000000;1.000000;1.000000;1.000000;1.000000;-0.105201;0.105201;-0.105201;1.000000
445615.36840065;5696577.22359951;472.52294971;71;58;43;15420.000000;1.000000;1.000000;1.000000;1.000000;-0.106400;0.106400;-0.106400;1.000000
445615.70210083;5696577.27499874;472.48745014;172;164;155;42405.000000;1.000000;1.000000;1.000000;1.000000;-0.093187;0.093187;-0.093187;1.000000
445615.32380112;5696577.37249954;472.52504971;143;136;121;34952.000000;1.000000;1.000000;1.000000;1.000000;0.043258;-0.043258;0.043258;1.000000
445615.69630249;5696577.38769920;472.48614981;113;110;100;28013.000000;1.000000;1.000000;1.000000;1.000000;0.090272;-0.090272;0.090272;1.000000
445615.43430145;5696577.45119961;472.51935007;108;98;85;25443.000000;1.000000;1.000000;1.000000;1.000000;0.121200;0.121200;-0.121200;1.000000
445615.73290070;5696577.42639931;472.48134996;193;190;183;48830.000000;1.000000;1.000000;1.000000;1.000000;-0.114932;0.114932;-0.114932;1.000000
445615.65620239;5696577.45909889;472.48754980;138;132;123;33924.000000;1.000000;1.000000;1.000000;1.000000;-0.031517;0.031517;-0.031517;1.000000
445615.45220192;5696577.21819885;472.51975014;129;121;109;31354.000000;1.000000;1.000000;1.000000;1.000000;-0.111801;0.111801;-0.111801;1.000000
445615.48250206;5696577.41409882;472.51405003;191;179;162;46260.000000;1.000000;1.000000;1.000000;1.000000;0.084099;-0.084099;0.084099;1.000000
445615.48400124;5696577.37889870;472.51144983;137;123;104;32125.000000;1.000000;1.000000;1.000000;1.000000;0.048899;-0.048899;0.048899;1.000000
445615.60130127;5696577.23479946;472.51504995;118;117;111;29812.000000;1.000000;1.000000;1.000000;1.000000;-0.095250;0.095250;-0.095250;1.000000
445615.15260132;5696577.25259884;472.54855015;53;46;36;11822.000000;1.000000;1.000000;1.000000;1.000000;-0.077401;0.077401;-0.077401;1.000000
445615.52630241;5696577.23019894;472.50925018;101;94;87;24415.000000;1.000000;1.000000;1.000000;1.000000;-0.099801;0.099801;-0.099801;1.000000
445615.56370171;5696577.23139961;472.51095011;52;49;46;12593.000000;1.000000;1.000000;1.000000;1.000000;-0.098600;0.098600;-0.098600;1.000000
445615.19120224;5696577.21629913;472.54985001;97;84;66;21845.000000;1.000000;1.000000;1.000000;1.000000;-0.113701;0.113701;-0.113701;1.000000
445615.32500084;5696577.36079891;472.52495005;162;155;141;39835.000000;1.000000;1.000000;1.000000;1.000000;0.031554;-0.031554;0.031554;1.000000
445615.57340248;5696577.45719917;472.50474979;60;52;35;13364.000000;1.000000;1.000000;1.000000;1.000000;0.055056;-0.055056;0.055056;1.000000
445615.61220177;5696577.42089947;472.50145008;135;133;122;33924.000000;1.000000;1.000000;1.000000;1.000000;0.051593;-0.051593;0.051593;1.000000
445615.57720192;5696577.34479912;472.49895002;134;127;116;32639.000000;1.000000;1.000000;1.000000;1.000000;0.014799;-0.014799;0.014799;1.000000
445615.53950127;5696577.34359940;472.50185015;117;106;91;27499.000000;1.000000;1.000000;1.000000;1.000000;0.013809;-0.013809;0.013809;1.000000
445615.61570175;5696577.30849941;472.50255014;100;95;87;24415.000000;1.000000;1.000000;1.000000;1.000000;-0.021501;0.021501;-0.021501;1.000000
445615.13170250;5696577.32699879;472.54374983;101;95;76;24158.000000;1.000000;1.000000;1.000000;1.000000;-0.004917;0.004917;-0.004917;1.000000
445615.50530251;5696577.30459888;472.50684978;173;162;146;41891.000000;1.000000;1.000000;1.000000;1.000000;-0.025631;0.025631;-0.025631;1.000000
445615.54290207;5696577.30579956;472.50385000;125;114;99;29555.000000;1.000000;1.000000;1.000000;1.000000;-0.024200;0.024200;-0.024200;1.000000
445615.36290176;5696577.36429890;472.52204992;135;125;109;32382.000000;1.000000;1.000000;1.000000;1.000000;0.034299;-0.034299;0.034299;1.000000
445615.61690147;5696577.27099903;472.50215008;129;125;114;31868.000000;1.000000;1.000000;1.000000;1.000000;-0.059001;0.059001;-0.059001;1.000000
445615.24920090;5696577.18069942;472.53805019;125;114;99;29555.000000;1.000000;1.000000;1.000000;1.000000;-0.149301;0.149301;-0.149301;1.000000
445615.36390121;5696577.32679947;472.52635004;120;108;94;28270.000000;1.000000;1.000000;1.000000;1.000000;-0.003201;0.003201;-0.003201;1.000000
445615.36640175;5696577.25179871;472.52325012;131;116;98;30326.000000;1.000000;1.000000;1.000000;1.000000;-0.078201;0.078201;-0.078201;1.000000
445615.40430077;5696577.25539883;472.51795008;156;147;133;38036.000000;1.000000;1.000000;1.000000;1.000000;-0.074601;0.074601;-0.074601;1.000000
445615.67670067;5696577.22829922;472.48805000;166;159;150;41120.000000;1.000000;1.000000;1.000000;1.000000;-0.113250;0.113250;-0.113250;1.000000
445615.29360207;5696577.42669876;472.52904989;120;110;95;28527.000000;1.000000;1.000000;1.000000;1.000000;0.096699;-0.096699;0.096699;1.000000
445615.25930222;5696577.38769920;472.53394987;81;73;59;18761.000000;1.000000;1.000000;1.000000;1.000000;0.057714;-0.057714;0.057714;1.000000
445615.33700188;5696577.31519897;472.52734997;119;108;95;28013.000000;1.000000;1.000000;1.000000;1.000000;-0.014801;0.014801;-0.014801;1.000000
445615.26510246;5696577.27499874;472.53525021;99;88;72;22873.000000;1.000000;1.000000;1.000000;1.000000;-0.055001;0.055001;-0.055001;1.000000
445615.30060204;5696577.27649887;472.52985003;125;115;101;29812.000000;1.000000;1.000000;1.000000;1.000000;-0.053501;0.053501;-0.053501;1.000000
445615.26630219;5696577.23759945;472.53485014;106;100;85;25700.000000;1.000000;1.000000;1.000000;1.000000;-0.092401;0.092401;-0.092401;1.000000
445615.30540092;5696577.20359905;472.53154995;149;143;132;36751.000000;1.000000;1.000000;1.000000;1.000000;-0.126401;0.126401;-0.126401;1.000000
445615.11830147;5696577.19469936;472.56724979;123;114;93;29298.000000;1.000000;1.000000;1.000000;1.000000;-0.135301;0.135301;-0.135301;1.000000
445615.30650146;5696577.16609867;472.53345015;146;137;119;35209.000000;1.000000;1.000000;1.000000;1.000000;-0.163901;0.163901;-0.163901;1.000000
445615.11960228;5696577.15729912;472.56454994;116;106;88;27499.000000;1.000000;1.000000;1.000000;1.000000;-0.172701;0.172701;-0.172701;1.000000
445615.58860214;5696577.31799896;472.50145008;149;142;132;36751.000000;1.000000;1.000000;1.000000;1.000000;-0.012001;0.012001;-0.012001;1.000000
445615.62500198;5696577.35669907;472.50124981;128;124;117;31868.000000;1.000000;1.000000;1.000000;1.000000;0.026699;-0.026699;0.026699;1.000000
445615.51070221;5696577.38819893;472.50804998;153;140;120;36237.000000;1.000000;1.000000;1.000000;1.000000;0.058199;-0.058199;0.058199;1.000000
445615.54350098;5696577.46459873;472.50815012;117;110;91;28270.000000;1.000000;1.000000;1.000000;1.000000;0.083566;-0.083566;0.083566;1.000000
445615.58130081;5696577.46579941;472.50285007;95;88;69;22616.000000;1.000000;1.000000;1.000000;1.000000;0.045802;-0.045802;0.045802;1.000000
445615.30170067;5696577.23899944;472.53174974;107;97;82;25186.000000;1.000000;1.000000;1.000000;1.000000;-0.091001;0.091001;-0.091001;1.000000
445615.45310219;5696577.22749908;472.51984980;136;128;117;33153.000000;1.000000;1.000000;1.000000;1.000000;-0.102501;0.102501;-0.102501;1.000000
445615.39000137;5696577.17959888;472.52344992;95;89;66;22616.000000;1.000000;1.000000;1.000000;1.000000;-0.150401;0.150401;-0.150401;1.000000
445615.38170250;5696577.36489876;472.52064993;143;129;111;33667.000000;1.000000;1.000000;1.000000;1.000000;0.035119;-0.035119;0.035119;1.000000
445615.56840141;5696577.15849884;472.51494982;164;164;160;41891.000000;1.000000;1.000000;1.000000;1.000000;-0.171548;0.171548;-0.171548;1.000000
445615.60390099;5696577.15989883;472.50955011;86;83;77;21331.000000;1.000000;1.000000;1.000000;1.000000;-0.170102;0.170102;-0.170102;1.000000
445615.60210236;5696577.19499882;472.51685001;186;187;180;47545.000000;1.000000;1.000000;1.000000;1.000000;-0.135020;0.135020;-0.135020;1.000000
445615.48120125;5696577.45149906;472.51685001;106;96;83;24929.000000;1.000000;1.000000;1.000000;1.000000;0.121499;-0.121499;0.121499;1.000000
445615.31880196;5696577.29589947;472.52854969;153;144;129;37265.000000;1.000000;1.000000;1.000000;1.000000;-0.034386;0.034386;-0.034386;1.000000
445615.41240128;5696577.29199894;472.51874973;189;180;167;46517.000000;1.000000;1.000000;1.000000;1.000000;-0.038241;0.038241;-0.038241;1.000000
445615.32960136;5696577.25989922;472.52635004;127;114;100;29812.000000;1.000000;1.000000;1.000000;1.000000;-0.070137;0.070137;-0.070137;1.000000
445615.41660126;5696577.18879898;472.52244999;188;182;170;46774.000000;1.000000;1.000000;1.000000;1.000000;-0.141201;0.141201;-0.141201;1.000000
445615.34370239;5696577.18609913;472.52605011;123;113;94;29041.000000;1.000000;1.000000;1.000000;1.000000;-0.143901;0.143901;-0.143901;1.000000
445615.59280212;5696577.16789921;472.51144983;132;131;127;33410.000000;1.000000;1.000000;1.000000;1.000000;-0.162101;0.162101;-0.162101;1.000000
445615.44140060;5696577.47849949;472.52234985;224;218;209;56026.000000;1.000000;1.000000;1.000000;1.000000;0.148513;0.148513;-0.148513;1.000000
445615.40500076;5696577.43979939;472.52255013;131;119;103;30840.000000;1.000000;1.000000;1.000000;1.000000;0.109799;-0.109799;0.109799;1.000000
445615.40870102;5696577.40219887;472.51765015;134;120;97;31097.000000;1.000000;1.000000;1.000000;1.000000;0.072201;-0.072201;0.072201;1.000000
445615.18770226;5696577.35659893;472.55594971;211;206;191;52685.000000;1.000000;1.000000;1.000000;1.000000;0.026599;-0.026599;0.026599;1.000000
445615.37320145;5696577.32589920;472.52444984;109;97;83;25443.000000;1.000000;1.000000;1.000000;1.000000;-0.004101;0.004101;-0.004101;1.000000
445615.37590225;5696577.25329884;472.52134993;114;99;83;25957.000000;1.000000;1.000000;1.000000;1.000000;-0.076701;0.076701;-0.076701;1.000000
445615.41360100;5696577.25449951;472.51844980;120;112;99;28784.000000;1.000000;1.000000;1.000000;1.000000;-0.075572;0.075572;-0.075572;1.000000
445615.71080215;5696577.26719959;472.48544981;165;158;148;40863.000000;1.000000;1.000000;1.000000;1.000000;-0.104821;0.104821;-0.104821;1.000000
445615.34060104;5696577.25189884;472.52434971;93;79;63;20817.000000;1.000000;1.000000;1.000000;1.000000;-0.078101;0.078101;-0.078101;1.000000
445615.37710197;5696577.21579941;472.52094986;71;62;49;16191.000000;1.000000;1.000000;1.000000;1.000000;-0.114201;0.114201;-0.114201;1.000000
445615.56620224;5696577.18659885;472.51984980;214;216;211;54998.000000;1.000000;1.000000;1.000000;1.000000;-0.143413;0.143413;-0.143413;1.000000
445615.14530190;5696577.20409878;472.55695011;105;96;75;24672.000000;1.000000;1.000000;1.000000;1.000000;-0.125901;0.125901;-0.125901;1.000000
445615.44410141;5696577.18159874;472.51895000;137;130;117;33410.000000;1.000000;1.000000;1.000000;1.000000;-0.148456;0.148456;-0.148456;1.000000
445615.55740173;5696577.16649921;472.51685001;162;163;158;41634.000000;1.000000;1.000000;1.000000;1.000000;-0.163501;0.163501;-0.163501;1.000000
445615.44000061;5696577.31049927;472.51564981;178;165;148;42919.000000;1.000000;1.000000;1.000000;1.000000;-0.019511;0.019511;-0.019511;1.000000
445615.45340164;5696577.18079956;472.51935007;126;119;105;30583.000000;1.000000;1.000000;1.000000;1.000000;-0.149200;0.149200;-0.149200;1.000000
