//X;Y;Z;R;G;B;Intensity;Return Number;Number Of Returns;Scan Direction Flag;Point Source ID;C2M signed distances[-][<0.8];C2M signed distances[<0.4];C2M signed distances[-][<0.2];Stump103
445620.19890221;5696592.96379860;472.63744976;93;86;78;22359.000000;1.000000;1.000000;1.000000;1.000000;-0.133799;0.133799;-0.133799;1.000000
445620.23450096;5696592.96749886;472.63444998;99;84;68;22102.000000;1.000000;1.000000;1.000000;1.000000;-0.137499;0.137499;-0.137499;1.000000
445620.34690102;5696592.97109993;472.63724997;50;39;18;10023.000000;1.000000;1.000000;1.000000;1.000000;-0.141100;0.141100;-0.141100;1.000000
445620.20030220;5696592.92859848;472.63705017;112;108;99;27756.000000;1.000000;1.000000;1.000000;1.000000;-0.098598;0.098598;-0.098598;1.000000
445620.23570068;5696592.93009956;472.63164999;57;44;28;11822.000000;1.000000;1.000000;1.000000;1.000000;-0.100100;0.100100;-0.100100;1.000000
445620.20170219;5696592.89119919;472.63205006;91;83;75;21588.000000;1.000000;1.000000;1.000000;1.000000;-0.061199;0.061199;-0.061199;1.000000
445620.34830101;5696592.93369873;472.63215019;81;73;55;18761.000000;1.000000;1.000000;1.000000;1.000000;-0.103699;0.103699;-0.103699;1.000000
445620.20520218;5696592.77869995;472.63315012;94;80;61;21074.000000;1.000000;1.000000;1.000000;1.000000;0.051300;-0.051300;0.051300;1.000000
445620.20640190;5696592.74129875;472.63275005;127;117;103;30326.000000;1.000000;1.000000;1.000000;1.000000;-0.079525;0.079525;-0.079525;1.000000
445620.17220123;5696592.70229919;472.63544991;94;85;76;22102.000000;1.000000;1.000000;1.000000;1.000000;-0.045324;0.045324;-0.045324;1.000000
445620.17350204;5696592.66489990;472.63275005;107;97;86;25186.000000;1.000000;1.000000;1.000000;1.000000;-0.046625;0.046625;-0.046625;1.000000
445620.55470093;5696592.87759979;472.60354998;161;151;134;39064.000000;1.000000;1.000000;1.000000;1.000000;-0.047600;0.047600;-0.047600;1.000000
445620.59950073;5696592.93409927;472.60855009;94;81;57;21074.000000;1.000000;1.000000;1.000000;1.000000;0.104171;-0.104171;0.104171;1.000000
445620.20700081;5696592.97469910;472.63555004;49;38;30;10280.000000;1.000000;1.000000;1.000000;1.000000;-0.144699;0.144699;-0.144699;1.000000
445620.62860115;5696592.94539841;472.61004974;148;134;112;34695.000000;1.000000;1.000000;1.000000;1.000000;0.120017;-0.120017;0.120017;1.000000
445620.24460228;5696592.97589882;472.63495018;64;47;29;12850.000000;1.000000;1.000000;1.000000;1.000000;-0.145899;0.145899;-0.145899;1.000000
445620.44810112;5696592.78929909;472.60704996;143;129;117;33667.000000;1.000000;1.000000;1.000000;1.000000;0.040701;-0.040701;0.040701;1.000000
445620.41190155;5696592.75070007;472.60494997;38;30;23;7967.000000;1.000000;1.000000;1.000000;1.000000;0.079300;0.079300;-0.079300;1.000000
445620.45060165;5696592.71439941;472.60395004;231;231;222;59110.000000;1.000000;1.000000;1.000000;1.000000;-0.115601;0.115601;-0.115601;1.000000
445620.39270218;5696592.98329933;472.63245012;109;100;68;25443.000000;1.000000;1.000000;1.000000;1.000000;-0.153299;0.153299;-0.153299;1.000000
445620.20820244;5696592.93729980;472.63514997;61;54;42;13878.000000;1.000000;1.000000;1.000000;1.000000;-0.107300;0.107300;-0.107300;1.000000
445620.24590118;5696592.93849953;472.63224985;90;77;60;20303.000000;1.000000;1.000000;1.000000;1.000000;-0.108500;0.108500;-0.108500;1.000000
445620.17910202;5696592.95389946;472.64104988;147;146;142;37265.000000;1.000000;1.000000;1.000000;1.000000;-0.123899;0.123899;-0.123899;1.000000
445620.32710083;5696592.96119888;472.64085009;59;51;35;13107.000000;1.000000;1.000000;1.000000;1.000000;-0.131199;0.131199;-0.131199;1.000000
445620.18030174;5696592.91639908;472.64064981;225;225;220;57568.000000;1.000000;1.000000;1.000000;1.000000;-0.086399;0.086399;-0.086399;1.000000
445620.41200073;5696592.77859886;472.60755016;123;112;98;29041.000000;1.000000;1.000000;1.000000;1.000000;0.051401;-0.051401;0.051401;1.000000
445620.15440186;5696592.69209869;472.64615013;91;85;79;22102.000000;1.000000;1.000000;1.000000;1.000000;-0.027524;0.027524;-0.027524;1.000000
445620.37570198;5696592.73999985;472.60785009;68;57;43;14906.000000;1.000000;1.000000;1.000000;1.000000;0.090000;-0.090000;0.090000;1.000000
445620.44850166;5696592.74259956;472.60645010;59;55;47;14135.000000;1.000000;1.000000;1.000000;1.000000;0.087400;0.087400;-0.087400;1.000000
445620.15580185;5696592.65469940;472.64115002;172;165;158;42662.000000;1.000000;1.000000;1.000000;1.000000;-0.028924;0.028924;-0.028924;1.000000
445620.21820076;5696592.91769989;472.63304998;88;80;67;20560.000000;1.000000;1.000000;1.000000;1.000000;0.087700;-0.087700;0.087700;1.000000
445620.28330238;5696592.93969925;472.63394978;141;132;116;33924.000000;1.000000;1.000000;1.000000;1.000000;-0.109699;0.109699;-0.109699;1.000000
445620.41440208;5696592.70369919;472.60675003;180;174;161;44718.000000;1.000000;1.000000;1.000000;1.000000;0.126301;0.126301;-0.126301;1.000000
445620.61030205;5696592.87019928;472.59894993;46;31;14;8481.000000;1.000000;1.000000;1.000000;1.000000;0.042794;-0.042794;0.042794;1.000000
445620.26770218;5696592.66119965;472.60895016;123;108;93;28270.000000;1.000000;1.000000;1.000000;1.000000;-0.140825;0.140825;-0.140825;1.000000
445620.40980156;5696592.83469971;472.61744978;99;89;75;23130.000000;1.000000;1.000000;1.000000;1.000000;-0.004700;0.004700;-0.004700;1.000000
445620.26290138;5696592.78989990;472.61964991;109;97;77;25186.000000;1.000000;1.000000;1.000000;1.000000;0.040100;-0.040100;0.040100;1.000000
445620.29830177;5696592.79139908;472.61654999;112;103;88;26728.000000;1.000000;1.000000;1.000000;1.000000;0.038601;-0.038601;0.038601;1.000000
445620.29950150;5696592.75389870;472.61614992;116;104;92;27242.000000;1.000000;1.000000;1.000000;1.000000;0.076101;-0.076101;0.076101;1.000000
445620.23060234;5696592.64119919;472.61404993;86;73;62;19275.000000;1.000000;1.000000;1.000000;1.000000;-0.103725;0.103725;-0.103725;1.000000
445620.19400223;5696592.60019882;472.61424973;178;171;164;44204.000000;1.000000;1.000000;1.000000;1.000000;-0.067125;0.067125;-0.067125;1.000000
445620.53880127;5696592.83009918;472.59994986;103;90;68;23387.000000;1.000000;1.000000;1.000000;1.000000;-0.000099;0.000099;-0.000099;1.000000
445620.57630165;5696592.83129890;472.59934999;78;64;40;16705.000000;1.000000;1.000000;1.000000;1.000000;-0.001299;0.001299;-0.001299;1.000000
445620.61420067;5696592.83479889;472.59644987;124;112;87;28784.000000;1.000000;1.000000;1.000000;1.000000;0.019183;-0.019183;0.019183;1.000000
445620.50250061;5696592.79139908;472.59784986;131;117;99;30583.000000;1.000000;1.000000;1.000000;1.000000;0.038601;-0.038601;0.038601;1.000000
445620.54020126;5696592.79269989;472.59494974;112;99;79;25700.000000;1.000000;1.000000;1.000000;1.000000;0.037300;-0.037300;0.037300;1.000000
445620.54160126;5696592.75749977;472.59455015;71;58;45;15420.000000;1.000000;1.000000;1.000000;1.000000;0.072500;-0.072500;0.072500;1.000000
445620.67320068;5696592.73379906;472.58155014;126;118;100;30326.000000;1.000000;1.000000;1.000000;1.000000;-0.123581;0.123581;-0.123581;1.000000
445620.60280235;5696592.65619858;472.58215000;145;138;129;35723.000000;1.000000;1.000000;1.000000;1.000000;-0.173949;0.173949;-0.173949;1.000000
445620.67560204;5696592.65889938;472.58075001;68;62;50;15934.000000;1.000000;1.000000;1.000000;1.000000;-0.188869;0.188869;-0.188869;1.000000
445620.54470070;5696592.71749886;472.59655001;106;96;82;24929.000000;1.000000;1.000000;1.000000;1.000000;0.112501;-0.112501;0.112501;1.000000
445620.67400177;5696592.74309929;472.58174994;158;150;131;38550.000000;1.000000;1.000000;1.000000;1.000000;-0.117023;0.117023;-0.117023;1.000000
445620.17410095;5696592.89829834;472.63784983;184;180;172;46260.000000;1.000000;1.000000;1.000000;1.000000;-0.068298;0.068298;-0.068298;1.000000
445620.17540176;5696592.86089905;472.63514997;133;121;108;31611.000000;1.000000;1.000000;1.000000;1.000000;-0.030899;0.030899;-0.030899;1.000000
445620.21410187;5696592.82459839;472.63415005;73;61;42;15934.000000;1.000000;1.000000;1.000000;1.000000;-0.005402;0.005402;-0.005402;1.000000
445620.21540077;5696592.78719910;472.63145020;112;99;78;25700.000000;1.000000;1.000000;1.000000;1.000000;-0.042801;0.042801;-0.042801;1.000000
445620.21670158;5696592.75199898;472.63334991;141;131;117;33924.000000;1.000000;1.000000;1.000000;1.000000;-0.078001;0.078001;-0.078001;1.000000
445620.18160065;5696592.67579849;472.63084986;105;93;81;24415.000000;1.000000;1.000000;1.000000;1.000000;-0.054723;0.054723;-0.054723;1.000000
445620.44490250;5696592.64959915;472.59585001;157;145;131;37779.000000;1.000000;1.000000;1.000000;1.000000;0.180401;0.180401;-0.180401;1.000000
445620.56360062;5696592.89779861;472.60424997;126;114;93;29555.000000;1.000000;1.000000;1.000000;1.000000;0.067799;-0.067799;0.067799;1.000000
445620.62080200;5696592.88089951;472.59725000;76;59;41;15934.000000;1.000000;1.000000;1.000000;1.000000;0.056785;-0.056785;0.056785;1.000000
445620.51130112;5696592.83729942;472.60115005;100;85;66;22359.000000;1.000000;1.000000;1.000000;1.000000;-0.007299;0.007299;-0.007299;1.000000
445620.54890068;5696592.83849915;472.60055019;91;77;55;20046.000000;1.000000;1.000000;1.000000;1.000000;-0.008499;0.008499;-0.008499;1.000000
445620.58430107;5696592.84219940;472.59985020;86;73;49;19018.000000;1.000000;1.000000;1.000000;1.000000;-0.012199;0.012199;-0.012199;1.000000
445620.51280220;5696592.80209930;472.59845020;136;122;103;31868.000000;1.000000;1.000000;1.000000;1.000000;0.027901;-0.027901;0.027901;1.000000
445620.55050095;5696592.80339821;472.59544994;111;99;77;25700.000000;1.000000;1.000000;1.000000;1.000000;0.026602;-0.026602;0.026602;1.000000
445620.58560188;5696592.80479820;472.59714987;119;107;85;27756.000000;1.000000;1.000000;1.000000;1.000000;0.025202;-0.025202;0.025202;1.000000
445620.51520164;5696592.72719963;472.59765007;57;48;37;12593.000000;1.000000;1.000000;1.000000;1.000000;0.102800;-0.102800;0.102800;1.000000
445620.55290230;5696592.72839935;472.59474995;74;62;48;16448.000000;1.000000;1.000000;1.000000;1.000000;0.101601;-0.101601;0.101601;1.000000
445620.32760246;5696592.98919876;472.63654997;57;46;28;12079.000000;1.000000;1.000000;1.000000;1.000000;-0.159199;0.159199;-0.159199;1.000000
445620.36650093;5696592.95299919;472.63084986;54;44;25;11308.000000;1.000000;1.000000;1.000000;1.000000;-0.122999;0.122999;-0.122999;1.000000
445620.22280128;5696592.81679924;472.63205006;114;101;81;26214.000000;1.000000;1.000000;1.000000;1.000000;0.013201;-0.013201;0.013201;1.000000
445620.67520149;5696592.70559891;472.58134987;60;52;35;13364.000000;1.000000;1.000000;1.000000;1.000000;-0.147674;0.147674;-0.147674;1.000000
445620.30140121;5696592.96119888;472.63964989;100;91;74;23387.000000;1.000000;1.000000;1.000000;1.000000;-0.131199;0.131199;-0.131199;1.000000
445620.41910179;5696592.77799995;472.60554983;131;119;105;31097.000000;1.000000;1.000000;1.000000;1.000000;0.052000;-0.052000;0.052000;1.000000
445620.16180237;5696592.69380005;472.64185001;81;75;67;19275.000000;1.000000;1.000000;1.000000;1.000000;-0.034925;0.034925;-0.034925;1.000000
445620.45770081;5696592.74169930;472.60685017;67;63;56;16191.000000;1.000000;1.000000;1.000000;1.000000;-0.088301;0.088301;-0.088301;1.000000
445620.30660065;5696592.62489899;472.60564997;65;50;36;13364.000000;1.000000;1.000000;1.000000;1.000000;-0.179723;0.179723;-0.179723;1.000000
445620.67640121;5696592.66809853;472.58094980;105;98;87;25186.000000;1.000000;1.000000;1.000000;1.000000;-0.180932;0.180932;-0.180932;1.000000
445620.71410187;5696592.66929825;472.57805016;103;96;87;24929.000000;1.000000;1.000000;1.000000;1.000000;-0.199653;0.199653;-0.199653;1.000000
445620.48610123;5696592.74379929;472.60354998;47;41;33;10537.000000;1.000000;1.000000;1.000000;1.000000;-0.086220;0.086220;-0.086220;1.000000
445620.22440155;5696593.01279839;472.63915016;99;80;59;21331.000000;1.000000;1.000000;1.000000;1.000000;-0.182798;0.182798;-0.182798;1.000000
445620.25950249;5696593.01409920;472.64304974;71;53;29;14135.000000;1.000000;1.000000;1.000000;1.000000;-0.184099;0.184099;-0.184099;1.000000
445620.33470161;5696593.01659973;472.63954975;72;56;35;14906.000000;1.000000;1.000000;1.000000;1.000000;-0.186600;0.186600;-0.186600;1.000000
445620.30060204;5696592.97769936;472.63985016;56;48;34;12336.000000;1.000000;1.000000;1.000000;1.000000;-0.147699;0.147699;-0.147699;1.000000
445620.29150208;5696592.71729858;472.61305000;128;113;100;29812.000000;1.000000;1.000000;1.000000;1.000000;0.112701;-0.112701;0.112701;1.000000
445620.38440140;5696592.75789841;472.60605003;67;57;44;14906.000000;1.000000;1.000000;1.000000;1.000000;0.072102;-0.072102;0.072102;1.000000
445620.33710106;5696592.75509842;472.61324980;84;73;64;19275.000000;1.000000;1.000000;1.000000;1.000000;0.074902;-0.074902;0.074902;1.000000
445620.26320084;5696592.71529968;472.61404993;110;96;80;25186.000000;1.000000;1.000000;1.000000;1.000000;0.114700;-0.114700;0.114700;1.000000
445620.22920235;5696592.67639931;472.61445000;123;108;92;28270.000000;1.000000;1.000000;1.000000;1.000000;-0.102325;0.102325;-0.102325;1.000000
445620.47870071;5696592.94749840;472.61954977;120;110;78;28013.000000;1.000000;1.000000;1.000000;1.000000;0.117775;-0.117775;0.117775;1.000000
445620.58940132;5696592.95360001;472.61534979;96;85;62;21845.000000;1.000000;1.000000;1.000000;1.000000;0.123600;-0.123600;0.123600;1.000000
445620.48000153;5696592.90999992;472.61684992;56;44;21;11565.000000;1.000000;1.000000;1.000000;1.000000;0.080387;-0.080387;0.080387;1.000000
445620.67200096;5696592.77129944;472.58194973;54;43;24;11308.000000;1.000000;1.000000;1.000000;1.000000;-0.096326;0.096326;-0.096326;1.000000
445620.70950134;5696592.77249916;472.58134987;55;45;24;11565.000000;1.000000;1.000000;1.000000;1.000000;-0.127568;0.127568;-0.127568;1.000000
445620.71070107;5696592.73499878;472.58094980;114;110;95;28013.000000;1.000000;1.000000;1.000000;1.000000;-0.149222;0.149222;-0.149222;1.000000
445620.21090134;5696592.65699966;472.61564972;110;94;80;24929.000000;1.000000;1.000000;1.000000;1.000000;-0.084024;0.084024;-0.084024;1.000000
445620.38500221;5696592.73909958;472.60584976;62;51;39;13364.000000;1.000000;1.000000;1.000000;1.000000;0.090900;-0.090900;0.090900;1.000000
445620.21980103;5696592.67719849;472.61634972;140;124;108;32639.000000;1.000000;1.000000;1.000000;1.000000;-0.092924;0.092924;-0.092924;1.000000
445620.34740074;5696592.73789986;472.60885002;134;121;107;31611.000000;1.000000;1.000000;1.000000;1.000000;0.092100;-0.092100;0.092100;1.000000
445620.20140083;5696592.86319931;472.63164999;90;81;69;21074.000000;1.000000;1.000000;1.000000;1.000000;-0.033199;0.033199;-0.033199;1.000000
445620.16960152;5696592.74930008;472.63584997;50;40;32;10794.000000;1.000000;1.000000;1.000000;1.000000;-0.042724;0.042724;-0.042724;1.000000
445620.54750069;5696592.82230003;472.59795000;138;124;103;32125.000000;1.000000;1.000000;1.000000;1.000000;0.007700;-0.007700;0.007700;1.000000
445620.58730133;5696592.82329948;472.59735014;70;56;32;14649.000000;1.000000;1.000000;1.000000;1.000000;-0.006701;0.006701;-0.006701;1.000000
445620.62270172;5696592.82469948;472.59434988;131;119;95;30583.000000;1.000000;1.000000;1.000000;1.000000;-0.027588;0.027588;-0.027588;1.000000
445620.42040070;5696592.74279984;472.60755016;30;25;19;6425.000000;1.000000;1.000000;1.000000;1.000000;0.087200;0.087200;-0.087200;1.000000
445620.31110199;5696592.69919975;472.60675003;187;173;156;44975.000000;1.000000;1.000000;1.000000;1.000000;-0.130800;0.130800;-0.130800;1.000000
445620.64890106;5696592.88069923;472.59625008;96;82;60;21331.000000;1.000000;1.000000;1.000000;1.000000;0.073542;-0.073542;0.073542;1.000000
445620.50560196;5696592.72569855;472.59954979;55;48;37;12336.000000;1.000000;1.000000;1.000000;1.000000;0.104301;-0.104301;0.104301;1.000000
445620.25750168;5696592.67839821;472.61334993;111;98;83;25700.000000;1.000000;1.000000;1.000000;1.000000;-0.130624;0.130624;-0.130624;1.000000
445620.21120079;5696592.84359940;472.63425018;92;82;67;21331.000000;1.000000;1.000000;1.000000;1.000000;-0.013599;0.013599;-0.013599;1.000000
445620.17270096;5696592.65559967;472.63254978;101;90;78;23387.000000;1.000000;1.000000;1.000000;1.000000;-0.045824;0.045824;-0.045824;1.000000
445620.47230156;5696592.66809853;472.59735014;137;127;113;32896.000000;1.000000;1.000000;1.000000;1.000000;-0.161910;0.161910;-0.161910;1.000000
445620.32020195;5696592.96179970;472.64055016;53;45;29;11565.000000;1.000000;1.000000;1.000000;1.000000;-0.131800;0.131800;-0.131800;1.000000
445620.43660172;5696592.81609924;472.60685017;62;47;34;12850.000000;1.000000;1.000000;1.000000;1.000000;0.013901;-0.013901;0.013901;1.000000
445620.40030106;5696592.77739914;472.60704996;131;119;106;31097.000000;1.000000;1.000000;1.000000;1.000000;0.052601;-0.052601;0.052601;1.000000
445620.36620148;5696592.73849876;472.60734989;97;86;72;22359.000000;1.000000;1.000000;1.000000;1.000000;0.091501;-0.091501;0.091501;1.000000
445620.44130142;5696592.74089821;472.60615017;45;40;34;10280.000000;1.000000;1.000000;1.000000;1.000000;0.089102;0.089102;-0.089102;1.000000
445620.40490158;5696592.70220001;472.60634996;151;142;127;36751.000000;1.000000;1.000000;1.000000;1.000000;0.127800;0.127800;-0.127800;1.000000
445620.29700096;5696592.62349899;472.60755016;69;53;40;14392.000000;1.000000;1.000000;1.000000;1.000000;-0.170124;0.170124;-0.170124;1.000000
445620.37740143;5696592.91699989;472.62624981;135;128;112;32896.000000;1.000000;1.000000;1.000000;1.000000;-0.087000;0.087000;-0.087000;1.000000
445620.26810081;5696592.87349899;472.62545015;104;91;74;23901.000000;1.000000;1.000000;1.000000;1.000000;0.043511;-0.043511;0.043511;1.000000
445620.34080132;5696592.87599953;472.62645008;47;34;20;9252.000000;1.000000;1.000000;1.000000;1.000000;-0.046000;0.046000;-0.046000;1.000000
445620.37860115;5696592.87959869;472.62594988;39;30;20;7967.000000;1.000000;1.000000;1.000000;1.000000;-0.049599;0.049599;-0.049599;1.000000
445620.30370148;5696592.87719925;472.62244989;129;116;98;30069.000000;1.000000;1.000000;1.000000;1.000000;-0.047199;0.047199;-0.047199;1.000000
445620.34230240;5696592.84089859;472.62384989;142;131;117;33924.000000;1.000000;1.000000;1.000000;1.000000;-0.010899;0.010899;-0.010899;1.000000
445620.37990196;5696592.84209831;472.62314989;127;118;105;30583.000000;1.000000;1.000000;1.000000;1.000000;-0.012098;0.012098;-0.012098;1.000000
445620.23290070;5696592.79729851;472.62764980;116;105;83;26985.000000;1.000000;1.000000;1.000000;1.000000;0.032701;-0.032701;0.032701;1.000000
445620.29700096;5696592.82879837;472.61924984;149;139;123;35980.000000;1.000000;1.000000;1.000000;1.000000;0.001202;-0.001202;0.001202;1.000000
445620.23430069;5696592.76209839;472.62734987;161;151;136;39064.000000;1.000000;1.000000;1.000000;1.000000;0.067902;-0.067902;0.067902;1.000000
445620.23570068;5696592.72469910;472.62225010;112;99;81;25700.000000;1.000000;1.000000;1.000000;1.000000;0.105301;-0.105301;0.105301;1.000000
445620.47680099;5696592.74459847;472.60545017;65;59;52;15420.000000;1.000000;1.000000;1.000000;1.000000;-0.085624;0.085624;-0.085624;1.000000
445620.19930084;5696592.68599899;472.62244989;104;90;75;23644.000000;1.000000;1.000000;1.000000;1.000000;-0.072423;0.072423;-0.072423;1.000000
445620.51410110;5696592.94889839;472.61654999;100;91;62;23130.000000;1.000000;1.000000;1.000000;1.000000;-0.118898;0.118898;-0.118898;1.000000
445620.64030083;5696592.65739830;472.58155014;151;145;132;37265.000000;1.000000;1.000000;1.000000;1.000000;-0.178289;0.178289;-0.178289;1.000000
445620.42390068;5696592.70509918;472.60724976;190;185;174;47545.000000;1.000000;1.000000;1.000000;1.000000;0.124901;0.124901;-0.124901;1.000000
445620.27700241;5696592.66029938;472.60934975;128;113;99;29555.000000;1.000000;1.000000;1.000000;1.000000;-0.150125;0.150125;-0.150125;1.000000
445620.42320068;5696592.92699821;472.61684992;123;114;88;29041.000000;1.000000;1.000000;1.000000;1.000000;-0.096998;0.096998;-0.096998;1.000000
445620.71590240;5696592.81849869;472.58684971;110;101;82;25957.000000;1.000000;1.000000;1.000000;1.000000;-0.120824;0.120824;-0.120824;1.000000
445620.22340210;5696592.79809959;472.63184978;125;112;90;29041.000000;1.000000;1.000000;1.000000;1.000000;0.031900;-0.031900;0.031900;1.000000
445620.18930061;5696592.75919922;472.63455011;62;50;38;13364.000000;1.000000;1.000000;1.000000;1.000000;-0.062423;0.062423;-0.062423;1.000000
445620.64430244;5696592.77839859;472.58774998;50;39;24;10280.000000;1.000000;1.000000;1.000000;1.000000;-0.070936;0.070936;-0.070936;1.000000
445620.57030113;5696592.73849876;472.59095003;110;96;81;25186.000000;1.000000;1.000000;1.000000;1.000000;0.091501;-0.091501;0.091501;1.000000
445620.31240089;5696592.66179855;472.60405018;114;99;84;25957.000000;1.000000;1.000000;1.000000;1.000000;-0.168201;0.168201;-0.168201;1.000000
445620.42530067;5696592.66769989;472.60225012;100;86;68;22616.000000;1.000000;1.000000;1.000000;1.000000;0.162300;0.162300;-0.162300;1.000000
445620.26390083;5696592.98569878;472.64064981;63;51;33;13364.000000;1.000000;1.000000;1.000000;1.000000;-0.155699;0.155699;-0.155699;1.000000
445620.66480072;5696592.92819984;472.59985020;124;112;93;29041.000000;1.000000;1.000000;1.000000;1.000000;0.120117;-0.120117;0.120117;1.000000
445620.59320076;5696592.88809975;472.60074999;94;79;59;20817.000000;1.000000;1.000000;1.000000;1.000000;0.058100;-0.058100;0.058100;1.000000
445620.45860107;5696592.72529991;472.60435011;232;232;225;59367.000000;1.000000;1.000000;1.000000;1.000000;-0.104700;0.104700;-0.104700;1.000000
445620.48660095;5696592.77189835;472.59924986;65;53;39;14135.000000;1.000000;1.000000;1.000000;1.000000;-0.058117;0.058117;-0.058117;1.000000
445620.52190216;5696592.77329834;472.59614994;100;86;70;22616.000000;1.000000;1.000000;1.000000;1.000000;0.056702;-0.056702;0.056702;1.000000
445620.40980156;5696593.02119835;472.64295008;120;109;77;27756.000000;1.000000;1.000000;1.000000;1.000000;-0.191198;0.191198;-0.191198;1.000000
445620.55180176;5696592.95239838;472.61595013;82;71;44;18247.000000;1.000000;1.000000;1.000000;1.000000;-0.122398;0.122398;-0.122398;1.000000
445620.71200188;5696592.69759949;472.57824995;139;132;121;33924.000000;1.000000;1.000000;1.000000;1.000000;-0.176275;0.176275;-0.176275;1.000000
445620.30480202;5696592.83739861;472.61975004;127;116;99;30069.000000;1.000000;1.000000;1.000000;1.000000;-0.007399;0.007399;-0.007399;1.000000
445620.27100189;5696592.80089958;472.61774971;145;135;116;34695.000000;1.000000;1.000000;1.000000;1.000000;-0.029100;0.029100;-0.029100;1.000000
445620.30640228;5696592.80229958;472.61474993;147;138;126;35723.000000;1.000000;1.000000;1.000000;1.000000;-0.027700;0.027700;-0.027700;1.000000
445620.35410126;5696592.99839981;472.63784983;117;106;78;27242.000000;1.000000;1.000000;1.000000;1.000000;-0.168400;0.168400;-0.168400;1.000000
445620.67440231;5696592.69629868;472.58115007;48;38;23;10023.000000;1.000000;1.000000;1.000000;1.000000;-0.155182;0.155182;-0.155182;1.000000
445620.35540207;5696592.96099861;472.63514997;69;58;37;14906.000000;1.000000;1.000000;1.000000;1.000000;-0.130999;0.130999;-0.130999;1.000000
445620.20880135;5696592.91849907;472.63495018;102;96;86;24672.000000;1.000000;1.000000;1.000000;1.000000;-0.088499;0.088499;-0.088499;1.000000
445620.28420074;5696592.92329987;472.63145020;90;80;64;20817.000000;1.000000;1.000000;1.000000;1.000000;-0.093300;0.093300;-0.093300;1.000000
445620.22580154;5696592.97529991;472.63415005;59;44;30;11822.000000;1.000000;1.000000;1.000000;1.000000;-0.145300;0.145300;-0.145300;1.000000
445620.26320084;5696592.97649963;472.63814976;46;31;15;8481.000000;1.000000;1.000000;1.000000;1.000000;-0.146500;0.146500;-0.146500;1.000000
445620.33600243;5696592.97909935;472.63684990;47;37;18;9509.000000;1.000000;1.000000;1.000000;1.000000;-0.149099;0.149099;-0.149099;1.000000
445620.41150101;5696592.98389824;472.63094999;95;88;50;21845.000000;1.000000;1.000000;1.000000;1.000000;-0.153898;0.153898;-0.153898;1.000000
445620.22700127;5696592.93789871;472.63374998;63;52;37;13621.000000;1.000000;1.000000;1.000000;1.000000;-0.107899;0.107899;-0.107899;1.000000
445620.19060143;5696592.89919861;472.63625004;184;180;173;46260.000000;1.000000;1.000000;1.000000;1.000000;-0.069199;0.069199;-0.069199;1.000000
445620.19190224;5696592.86169823;472.63355019;102;92;80;23901.000000;1.000000;1.000000;1.000000;1.000000;-0.031698;0.031698;-0.031698;1.000000
445620.23090179;5696592.82779892;472.63025000;79;67;49;17476.000000;1.000000;1.000000;1.000000;1.000000;0.002201;-0.002201;0.002201;1.000000
445620.19760139;5696592.74899872;472.63485004;93;82;69;21331.000000;1.000000;1.000000;1.000000;1.000000;-0.070724;0.070724;-0.070724;1.000000
445620.16490181;5696592.67489822;472.63714983;122;115;103;29555.000000;1.000000;1.000000;1.000000;1.000000;-0.038024;0.038024;-0.038024;1.000000
445620.46130188;5696592.65039833;472.59665014;155;144;130;37265.000000;1.000000;1.000000;1.000000;1.000000;-0.179602;0.179602;-0.179602;1.000000
445620.60200127;5696592.88029869;472.59875013;50;35;19;9509.000000;1.000000;1.000000;1.000000;1.000000;0.050701;-0.050701;0.050701;1.000000
445620.63960083;5696592.88149841;472.59574987;116;101;80;26471.000000;1.000000;1.000000;1.000000;1.000000;0.067718;-0.067718;0.067718;1.000000
445620.53010185;5696592.83789833;472.59964993;76;61;39;16191.000000;1.000000;1.000000;1.000000;1.000000;0.007898;-0.007898;0.007898;1.000000
445620.56560143;5696592.84159859;472.59894993;82;68;46;17733.000000;1.000000;1.000000;1.000000;1.000000;-0.011599;0.011599;-0.011599;1.000000
445620.53170212;5696592.80279930;472.59695007;133;120;99;31097.000000;1.000000;1.000000;1.000000;1.000000;-0.027201;0.027201;-0.027201;1.000000
445620.49410065;5696592.80159958;472.59754993;128;113;97;29555.000000;1.000000;1.000000;1.000000;1.000000;-0.028400;0.028400;-0.028400;1.000000
445620.56680115;5696592.80409821;472.59854986;127;115;91;29555.000000;1.000000;1.000000;1.000000;1.000000;0.025902;-0.025902;0.025902;1.000000
445620.53300102;5696592.76529892;472.59424974;89;77;62;20046.000000;1.000000;1.000000;1.000000;1.000000;-0.064701;0.064701;-0.064701;1.000000
445620.53400238;5696592.72779854;472.59614994;64;52;40;13878.000000;1.000000;1.000000;1.000000;1.000000;0.102201;-0.102201;0.102201;1.000000
445620.49890144;5696592.65159996;472.59604980;155;146;133;37779.000000;1.000000;1.000000;1.000000;1.000000;-0.178400;0.178400;-0.178400;1.000000
445620.21020134;5696592.88109978;472.62995007;52;43;33;11308.000000;1.000000;1.000000;1.000000;1.000000;-0.051100;0.051100;-0.051100;1.000000
445620.17600067;5696592.84209831;472.63495018;113;100;85;26214.000000;1.000000;1.000000;1.000000;1.000000;-0.012098;0.012098;-0.012098;1.000000
445620.18100174;5696592.69459923;472.63105013;82;70;60;18504.000000;1.000000;1.000000;1.000000;1.000000;-0.054124;0.054124;-0.054124;1.000000
445620.63060196;5696592.83339890;472.59244968;112;101;74;25957.000000;1.000000;1.000000;1.000000;1.000000;0.035139;-0.035139;0.035139;1.000000
445620.30990227;5696592.76459892;472.61445000;125;114;105;29812.000000;1.000000;1.000000;1.000000;1.000000;-0.065401;0.065401;-0.065401;1.000000
445620.30990227;5696592.95109947;472.63765003;110;102;84;26214.000000;1.000000;1.000000;1.000000;1.000000;0.121099;-0.121099;0.121099;1.000000
445620.20340164;5696592.83489998;472.63374998;59;46;29;12336.000000;1.000000;1.000000;1.000000;1.000000;-0.004900;0.004900;-0.004900;1.000000
445620.19550140;5696593.00149925;472.63534977;46;31;16;8481.000000;1.000000;1.000000;1.000000;1.000000;-0.171499;0.171499;-0.171499;1.000000
445620.23290070;5696593.00269897;472.63705017;106;88;67;23387.000000;1.000000;1.000000;1.000000;1.000000;-0.172699;0.172699;-0.172699;1.000000
445620.44550140;5696592.86199959;472.60774996;82;67;51;17733.000000;1.000000;1.000000;1.000000;1.000000;-0.032000;0.032000;-0.032000;1.000000
445620.43450172;5696592.63889893;472.59765007;143;130;116;33924.000000;1.000000;1.000000;1.000000;1.000000;0.191101;0.191101;-0.191101;1.000000
445620.39950188;5696593.01050003;472.64004995;110;99;67;25186.000000;1.000000;1.000000;1.000000;1.000000;-0.180500;0.180500;-0.180500;1.000000
445620.27360161;5696592.72599991;472.61235001;151;137;122;35723.000000;1.000000;1.000000;1.000000;1.000000;-0.104000;0.104000;-0.104000;1.000000
445620.30360229;5696592.90509995;472.62984993;97;90;75;23130.000000;1.000000;1.000000;1.000000;1.000000;-0.075100;0.075100;-0.075100;1.000000
445620.22950180;5696592.86289986;472.63065006;53;42;30;11051.000000;1.000000;1.000000;1.000000;1.000000;-0.032900;0.032900;-0.032900;1.000000
445620.19660194;5696592.78649910;472.63285019;105;89;67;23387.000000;1.000000;1.000000;1.000000;1.000000;0.043501;-0.043501;0.043501;1.000000
445620.42600067;5696592.64899834;472.59964993;125;112;96;29298.000000;1.000000;1.000000;1.000000;1.000000;0.181002;0.181002;-0.181002;1.000000
445620.37600143;5696592.95220001;472.62664988;71;60;36;15420.000000;1.000000;1.000000;1.000000;1.000000;-0.122200;0.122200;-0.122200;1.000000
445620.23050125;5696592.87220009;472.62844994;48;36;23;9766.000000;1.000000;1.000000;1.000000;1.000000;-0.042200;0.042200;-0.042200;1.000000
445620.50650223;5696592.73499878;472.59964993;48;39;28;10280.000000;1.000000;1.000000;1.000000;1.000000;0.095001;-0.095001;0.095001;1.000000
445620.67590149;5696592.92019852;472.59784986;126;116;99;30069.000000;1.000000;1.000000;1.000000;1.000000;0.120746;-0.120746;0.120746;1.000000
445620.67730148;5696592.88270004;472.59284975;62;52;30;13364.000000;1.000000;1.000000;1.000000;1.000000;0.097201;-0.097201;0.097201;1.000000
445620.49270065;5696592.83669861;472.59795000;130;114;95;29812.000000;1.000000;1.000000;1.000000;1.000000;0.006699;-0.006699;0.006699;1.000000
445620.64090164;5696592.84409912;472.59305002;97;87;58;22102.000000;1.000000;1.000000;1.000000;1.000000;0.047419;-0.047419;0.047419;1.000000
445620.60450180;5696592.80539902;472.59334995;83;70;49;18247.000000;1.000000;1.000000;1.000000;1.000000;-0.026153;0.026153;-0.026153;1.000000
445620.49520119;5696592.76400002;472.59954979;61;48;36;12850.000000;1.000000;1.000000;1.000000;1.000000;-0.066000;0.066000;-0.066000;1.000000
445620.46230133;5696592.68769844;472.59945013;112;104;89;26728.000000;1.000000;1.000000;1.000000;1.000000;-0.142302;0.142302;-0.142302;1.000000
445620.20560081;5696593.00989922;472.63595011;81;65;46;17219.000000;1.000000;1.000000;1.000000;1.000000;-0.179899;0.179899;-0.179899;1.000000
445620.35480125;5696592.97969826;472.63534977;68;58;33;14906.000000;1.000000;1.000000;1.000000;1.000000;-0.149698;0.149698;-0.149698;1.000000
445620.35610207;5696592.94229897;472.63264992;66;56;38;14649.000000;1.000000;1.000000;1.000000;1.000000;-0.112299;0.112299;-0.112299;1.000000
445620.20950134;5696592.89979942;472.63245012;138;132;122;33924.000000;1.000000;1.000000;1.000000;1.000000;-0.069799;0.069799;-0.069799;1.000000
445620.28460129;5696592.90219887;472.63124992;125;117;103;30069.000000;1.000000;1.000000;1.000000;1.000000;-0.072199;0.072199;-0.072199;1.000000
445620.21070107;5696592.86229904;472.63205006;85;75;63;19532.000000;1.000000;1.000000;1.000000;1.000000;-0.032299;0.032299;-0.032299;1.000000
445620.17770203;5696592.78589828;472.63434984;89;74;56;19532.000000;1.000000;1.000000;1.000000;1.000000;0.044102;-0.044102;0.044102;1.000000
445620.18030174;5696592.71329887;472.63355019;145;135;126;35209.000000;1.000000;1.000000;1.000000;1.000000;-0.053424;0.053424;-0.053424;1.000000
445620.40690239;5696592.64609917;472.60115005;150;137;119;35466.000000;1.000000;1.000000;1.000000;1.000000;0.183901;0.183901;-0.183901;1.000000
445620.41570099;5696592.66619881;472.60405018;101;88;69;22873.000000;1.000000;1.000000;1.000000;1.000000;0.163801;0.163801;-0.163801;1.000000
445620.41150101;5696592.95599945;472.62365009;85;77;44;19275.000000;1.000000;1.000000;1.000000;1.000000;-0.125999;0.125999;-0.125999;1.000000
445620.44900139;5696592.95709999;472.62535002;87;79;43;19789.000000;1.000000;1.000000;1.000000;1.000000;-0.127100;0.127100;-0.127100;1.000000
445620.40640076;5696592.66709908;472.60594990;95;80;63;21074.000000;1.000000;1.000000;1.000000;1.000000;0.162901;0.162901;-0.162901;1.000000
445620.67710121;5696592.85479935;472.59014990;89;79;46;20046.000000;1.000000;1.000000;1.000000;1.000000;0.085165;-0.085165;0.085165;1.000000
445620.71470078;5696592.85599907;472.58724977;121;111;90;28527.000000;1.000000;1.000000;1.000000;1.000000;0.121879;-0.121879;0.121879;1.000000
445620.65620239;5696592.93820007;472.60424997;134;122;102;31611.000000;1.000000;1.000000;1.000000;1.000000;0.124002;-0.124002;0.124002;1.000000
445620.61840065;5696592.93470009;472.60715010;132;118;96;30583.000000;1.000000;1.000000;1.000000;1.000000;0.107148;-0.107148;0.107148;1.000000
445620.58240135;5696592.89839943;472.60274984;110;96;75;24929.000000;1.000000;1.000000;1.000000;1.000000;-0.068399;0.068399;-0.068399;1.000000
445620.47330101;5696592.85709961;472.60424997;98;81;63;21588.000000;1.000000;1.000000;1.000000;1.000000;0.027231;-0.027231;0.027231;1.000000
445620.48030098;5696592.70689972;472.60514977;144;140;130;35980.000000;1.000000;1.000000;1.000000;1.000000;-0.123335;0.123335;-0.123335;1.000000
445620.41710098;5696592.86209877;472.61574986;77;65;52;17219.000000;1.000000;1.000000;1.000000;1.000000;-0.032099;0.032099;-0.032099;1.000000
445620.41830070;5696592.82459839;472.61544992;76;64;52;16962.000000;1.000000;1.000000;1.000000;1.000000;0.005402;-0.005402;0.005402;1.000000
445620.38210114;5696592.78599937;472.61334993;135;126;113;32639.000000;1.000000;1.000000;1.000000;1.000000;0.044001;-0.044001;0.044001;1.000000
445620.27290161;5696592.74469955;472.61485006;149;136;121;35466.000000;1.000000;1.000000;1.000000;1.000000;-0.085300;0.085300;-0.085300;1.000000
445620.23650177;5696592.70599945;472.61744978;144;132;113;34181.000000;1.000000;1.000000;1.000000;1.000000;-0.109624;0.109624;-0.109624;1.000000
445620.31180199;5696592.70849998;472.61154987;176;163;149;42405.000000;1.000000;1.000000;1.000000;1.000000;-0.121500;0.121500;-0.121500;1.000000
445620.20240219;5696592.66709908;472.61774971;124;108;94;28527.000000;1.000000;1.000000;1.000000;1.000000;-0.075525;0.075525;-0.075525;1.000000
445620.20370110;5696592.62969978;472.61504986;58;45;38;12336.000000;1.000000;1.000000;1.000000;1.000000;-0.076824;0.076824;-0.076824;1.000000
445620.67850121;5696592.81740006;472.58514978;135;124;103;31868.000000;1.000000;1.000000;1.000000;1.000000;-0.083826;0.083826;-0.083826;1.000000
445620.75360115;5696592.81979950;472.58395006;61;53;41;13878.000000;1.000000;1.000000;1.000000;1.000000;-0.158303;0.158303;-0.158303;1.000000
445620.64700134;5696592.70579918;472.58474972;119;110;94;28270.000000;1.000000;1.000000;1.000000;1.000000;-0.134407;0.134407;-0.134407;1.000000
445620.60920151;5696592.70229919;472.58764984;145;138;123;35466.000000;1.000000;1.000000;1.000000;1.000000;-0.128420;0.128420;-0.128420;1.000000
445620.54240234;5696592.95099838;472.61555006;87;76;49;19532.000000;1.000000;1.000000;1.000000;1.000000;-0.120998;0.120998;-0.120998;1.000000
445620.45120247;5696592.90099915;472.61544992;133;119;98;30840.000000;1.000000;1.000000;1.000000;1.000000;0.070999;-0.070999;0.070999;1.000000
445620.75700195;5696592.72839935;472.57835009;113;107;96;27499.000000;1.000000;1.000000;1.000000;1.000000;-0.190695;0.190695;-0.190695;1.000000
445620.57990082;5696592.95220001;472.61494972;90;80;55;20560.000000;1.000000;1.000000;1.000000;1.000000;-0.122200;0.122200;-0.122200;1.000000
445620.50610168;5696592.91229828;472.61345007;62;48;22;12593.000000;1.000000;1.000000;1.000000;1.000000;-0.082298;0.082298;-0.082298;1.000000
445620.48810204;5696592.92099960;472.61504986;64;52;26;13364.000000;1.000000;1.000000;1.000000;1.000000;0.091000;-0.091000;0.091000;1.000000
445620.45190247;5696592.88229950;472.61294987;127;111;95;29298.000000;1.000000;1.000000;1.000000;1.000000;0.052299;-0.052299;0.052299;1.000000
445620.56270226;5696592.91419991;472.60664989;135;124;102;31868.000000;1.000000;1.000000;1.000000;1.000000;0.084200;-0.084200;0.084200;1.000000
445620.25060089;5696592.80970009;472.62395002;98;86;65;22359.000000;1.000000;1.000000;1.000000;1.000000;0.020300;-0.020300;0.020300;1.000000
445620.54130180;5696593.02549942;472.63735010;144;138;114;35209.000000;1.000000;1.000000;1.000000;1.000000;-0.195499;0.195499;-0.195499;1.000000
445620.62780197;5696592.93619926;472.60755016;147;132;111;34438.000000;1.000000;1.000000;1.000000;1.000000;0.110966;-0.110966;0.110966;1.000000
445620.59170158;5696592.89749916;472.60314991;115;100;79;26214.000000;1.000000;1.000000;1.000000;1.000000;0.067499;-0.067499;0.067499;1.000000
445620.48260124;5696592.85629852;472.60234978;110;94;75;24672.000000;1.000000;1.000000;1.000000;1.000000;0.026831;-0.026831;0.026831;1.000000
445620.52020081;5696592.85749825;472.60174992;87;71;53;18761.000000;1.000000;1.000000;1.000000;1.000000;-0.027498;0.027498;-0.027498;1.000000
445620.44620140;5696592.81759842;472.60494997;64;50;38;13364.000000;1.000000;1.000000;1.000000;1.000000;0.012402;-0.012402;0.012402;1.000000
445620.44980247;5696592.70509918;472.60374977;162;159;149;40606.000000;1.000000;1.000000;1.000000;1.000000;0.124901;0.124901;-0.124901;1.000000
445620.57680138;5696593.02689941;472.63194992;72;65;37;16448.000000;1.000000;1.000000;1.000000;1.000000;-0.196899;0.196899;-0.196899;1.000000
445620.65700157;5696592.91959961;472.59934999;116;102;82;26471.000000;1.000000;1.000000;1.000000;1.000000;0.108604;-0.108604;0.108604;1.000000
445620.47390182;5696592.83609970;472.59945013;114;100;83;26214.000000;1.000000;1.000000;1.000000;1.000000;0.006923;-0.006923;0.006923;1.000000
445620.65840157;5696592.88209923;472.59434988;79;66;44;17219.000000;1.000000;1.000000;1.000000;1.000000;0.081578;-0.081578;0.081578;1.000000
445620.62200172;5696592.84339912;472.59684994;115;103;76;26471.000000;1.000000;1.000000;1.000000;1.000000;0.029583;-0.029583;0.029583;1.000000
445620.47530182;5696592.80089958;472.59905006;74;60;44;15934.000000;1.000000;1.000000;1.000000;1.000000;-0.029473;0.029473;-0.029473;1.000000
445620.48110207;5696592.68829926;472.60034992;147;139;124;35723.000000;1.000000;1.000000;1.000000;1.000000;-0.141865;0.141865;-0.141865;1.000000
445620.30570229;5696592.82109840;472.61724998;144;134;119;34695.000000;1.000000;1.000000;1.000000;1.000000;0.008902;-0.008902;0.008902;1.000000
445620.27020081;5696592.81729897;472.61794998;145;135;117;34952.000000;1.000000;1.000000;1.000000;1.000000;-0.012701;0.012701;-0.012701;1.000000
445620.27160080;5696592.78219994;472.61754992;95;83;66;21588.000000;1.000000;1.000000;1.000000;1.000000;-0.047800;0.047800;-0.047800;1.000000
445620.30700119;5696592.78359993;472.61455013;130;121;109;31354.000000;1.000000;1.000000;1.000000;1.000000;-0.046400;0.046400;-0.046400;1.000000
445620.34450157;5696592.78479965;472.61394979;144;135;124;34952.000000;1.000000;1.000000;1.000000;1.000000;0.045200;-0.045200;0.045200;1.000000
445620.31040199;5696592.74589928;472.61654999;107;95;83;24929.000000;1.000000;1.000000;1.000000;1.000000;-0.084101;0.084101;-0.084101;1.000000
445620.27420242;5696592.70729836;472.61214973;105;90;74;23644.000000;1.000000;1.000000;1.000000;1.000000;-0.122702;0.122702;-0.122702;1.000000
445620.23910149;5696592.63109978;472.61194994;115;104;93;27242.000000;1.000000;1.000000;1.000000;1.000000;-0.112224;0.112224;-0.112224;1.000000
445620.48740204;5696592.93969925;472.61754992;100;90;64;23130.000000;1.000000;1.000000;1.000000;1.000000;0.109700;-0.109700;0.109700;1.000000
445620.41580208;5696592.89959915;472.61854984;70;59;40;15420.000000;1.000000;1.000000;1.000000;1.000000;-0.069599;0.069599;-0.069599;1.000000
445620.68420227;5696592.72579964;472.57964994;114;106;89;27242.000000;1.000000;1.000000;1.000000;1.000000;-0.136760;0.136760;-0.136760;1.000000
445620.68540199;5696592.68829926;472.57924988;65;56;44;14649.000000;1.000000;1.000000;1.000000;1.000000;-0.167746;0.167746;-0.167746;1.000000
445620.72290237;5696592.68949898;472.57865002;167;160;150;41377.000000;1.000000;1.000000;1.000000;1.000000;-0.189577;0.189577;-0.189577;1.000000
445620.64890106;5696592.64959915;472.58185007;109;103;89;26471.000000;1.000000;1.000000;1.000000;1.000000;-0.188102;0.188102;-0.188102;1.000000
445620.61120232;5696592.64609917;472.58234980;94;88;77;22616.000000;1.000000;1.000000;1.000000;1.000000;-0.184559;0.184559;-0.184559;1.000000
445620.68100174;5696592.74239929;472.58204987;167;162;143;41377.000000;1.000000;1.000000;1.000000;1.000000;-0.122322;0.122322;-0.122322;1.000000
445620.68480118;5696592.70709999;472.57945015;68;59;44;15420.000000;1.000000;1.000000;1.000000;1.000000;-0.151843;0.151843;-0.151843;1.000000
445620.72240074;5696592.70829971;472.57884981;202;198;187;50629.000000;1.000000;1.000000;1.000000;1.000000;-0.175734;0.175734;-0.175734;1.000000
445620.61060150;5696592.66489990;472.58255007;141;135;124;34695.000000;1.000000;1.000000;1.000000;1.000000;-0.165778;0.165778;-0.165778;1.000000
445620.64810188;5696592.66609962;472.58194973;149;144;130;36751.000000;1.000000;1.000000;1.000000;1.000000;-0.172096;0.172096;-0.172096;1.000000
445620.68600090;5696592.66959961;472.57905008;125;119;108;30583.000000;1.000000;1.000000;1.000000;1.000000;-0.184108;0.184108;-0.184108;1.000000
445620.43100174;5696592.96579941;472.62694981;115;107;69;26985.000000;1.000000;1.000000;1.000000;1.000000;-0.135799;0.135799;-0.135799;1.000000
445620.65910156;5696592.86339958;472.59184982;57;44;15;11308.000000;1.000000;1.000000;1.000000;1.000000;0.071725;-0.071725;0.071725;1.000000
445620.66050156;5696592.82599838;472.58675005;121;110;83;28270.000000;1.000000;1.000000;1.000000;1.000000;-0.064997;0.064997;-0.064997;1.000000
445620.69810112;5696592.82720001;472.58614971;136;126;106;32382.000000;1.000000;1.000000;1.000000;1.000000;-0.102512;0.102512;-0.102512;1.000000
445620.73820122;5696592.75579842;472.58474972;151;148;131;37779.000000;1.000000;1.000000;1.000000;1.000000;-0.160727;0.160727;-0.160727;1.000000
445620.64670189;5696592.90879829;472.59875013;105;90;69;23644.000000;1.000000;1.000000;1.000000;1.000000;0.093903;-0.093903;0.093903;1.000000
445620.68460091;5696592.91239937;472.59585001;169;162;146;41634.000000;1.000000;1.000000;1.000000;1.000000;0.121268;-0.121268;0.121268;1.000000
445620.57780083;5696592.79609879;472.59665014;139;128;105;32896.000000;1.000000;1.000000;1.000000;1.000000;0.033901;-0.033901;0.033901;1.000000
445620.46930130;5696592.92029961;472.61654999;46;32;12;8738.000000;1.000000;1.000000;1.000000;1.000000;0.090300;-0.090300;0.090300;1.000000
445620.50700195;5696592.92159851;472.61354973;89;76;50;19789.000000;1.000000;1.000000;1.000000;1.000000;-0.091599;0.091599;-0.091599;1.000000
445620.70000084;5696592.74539955;472.58064987;121;115;97;29298.000000;1.000000;1.000000;1.000000;1.000000;-0.134354;0.134354;-0.134354;1.000000
445620.53970154;5696593.00700005;472.63474991;125;119;94;30326.000000;1.000000;1.000000;1.000000;1.000000;-0.177000;0.177000;-0.177000;1.000000
445620.22440155;5696592.98479851;472.63415005;68;52;39;14135.000000;1.000000;1.000000;1.000000;1.000000;-0.154799;0.154799;-0.154799;1.000000
445620.37440117;5696592.98959930;472.63635017;112;102;71;25957.000000;1.000000;1.000000;1.000000;1.000000;-0.159599;0.159599;-0.159599;1.000000
445620.40990074;5696592.99329956;472.63334991;83;74;36;18504.000000;1.000000;1.000000;1.000000;1.000000;-0.163300;0.163300;-0.163300;1.000000
445620.26300247;5696592.94849976;472.63544991;124;112;94;29041.000000;1.000000;1.000000;1.000000;1.000000;-0.118500;0.118500;-0.118500;1.000000
445620.22560127;5696592.94730003;472.63374998;124;112;97;29041.000000;1.000000;1.000000;1.000000;1.000000;-0.117300;0.117300;-0.117300;1.000000
445620.19140060;5696592.90839966;472.63644983;224;222;214;56797.000000;1.000000;1.000000;1.000000;1.000000;-0.078400;0.078400;-0.078400;1.000000
445620.33960159;5696592.91579826;472.63154985;47;40;25;10280.000000;1.000000;1.000000;1.000000;1.000000;-0.085798;0.085798;-0.085798;1.000000
445620.19270142;5696592.87099846;472.63374998;69;59;47;15420.000000;1.000000;1.000000;1.000000;1.000000;-0.040998;0.040998;-0.040998;1.000000
445620.23160179;5696592.83469971;472.63035013;60;48;31;12593.000000;1.000000;1.000000;1.000000;1.000000;-0.004700;0.004700;-0.004700;1.000000
445620.19870193;5696592.76059921;472.63495018;64;52;39;13878.000000;1.000000;1.000000;1.000000;1.000000;0.069401;-0.069401;0.069401;1.000000
445620.19770248;5696592.72339828;472.63215019;147;137;124;35466.000000;1.000000;1.000000;1.000000;1.000000;-0.070825;0.070825;-0.070825;1.000000
445620.16570099;5696592.68419846;472.63954975;101;92;81;23901.000000;1.000000;1.000000;1.000000;1.000000;-0.038824;0.038824;-0.038824;1.000000
445620.16470154;5696592.64699944;472.63444998;100;89;80;23387.000000;1.000000;1.000000;1.000000;1.000000;-0.037824;0.037824;-0.037824;1.000000
445620.42680176;5696592.65829857;472.59985020;124;111;94;29041.000000;1.000000;1.000000;1.000000;1.000000;0.171701;0.171701;-0.171701;1.000000
445620.46220215;5696592.65969856;472.59674980;149;137;124;35723.000000;1.000000;1.000000;1.000000;1.000000;-0.170301;0.170301;-0.170301;1.000000
445620.23780067;5696592.66859825;472.61474993;82;68;54;17990.000000;1.000000;1.000000;1.000000;1.000000;-0.110923;0.110923;-0.110923;1.000000
445620.44990166;5696592.93849953;472.61814978;88;78;47;19789.000000;1.000000;1.000000;1.000000;1.000000;-0.108500;0.108500;-0.108500;1.000000
445620.52510078;5696592.94089897;472.61464979;96;87;59;22102.000000;1.000000;1.000000;1.000000;1.000000;0.110899;-0.110899;0.110899;1.000000
445620.56280144;5696592.94439896;472.61404993;97;86;62;22102.000000;1.000000;1.000000;1.000000;1.000000;0.114399;-0.114399;0.114399;1.000000
445620.59810074;5696592.94579895;472.61334993;96;84;61;21845.000000;1.000000;1.000000;1.000000;1.000000;0.115825;-0.115825;0.115825;1.000000
445620.48870094;5696592.90219887;472.61485006;79;65;42;16962.000000;1.000000;1.000000;1.000000;1.000000;0.072199;-0.072199;0.072199;1.000000
445620.67920120;5696592.79859932;472.58264973;152;140;121;36237.000000;1.000000;1.000000;1.000000;1.000000;-0.089278;0.089278;-0.089278;1.000000
445620.72140129;5696592.72469910;472.58134987;193;189;177;48316.000000;1.000000;1.000000;1.000000;1.000000;-0.164035;0.164035;-0.164035;1.000000
445620.65770157;5696592.90079887;472.59684994;122;109;88;28270.000000;1.000000;1.000000;1.000000;1.000000;0.094158;-0.094158;0.094158;1.000000
445620.59250076;5696592.67349823;472.58654978;151;146;135;37522.000000;1.000000;1.000000;1.000000;1.000000;-0.156502;0.156502;-0.156502;1.000000
445620.44980247;5696592.99429901;472.63285019;121;114;74;28527.000000;1.000000;1.000000;1.000000;1.000000;-0.164299;0.164299;-0.164299;1.000000
445620.60280235;5696592.88959892;472.59884979;80;63;44;16962.000000;1.000000;1.000000;1.000000;1.000000;0.060029;-0.060029;0.060029;1.000000
445620.63810165;5696592.89099892;472.59585001;134;118;99;30840.000000;1.000000;1.000000;1.000000;1.000000;0.074330;-0.074330;0.074330;1.000000
445620.52870186;5696592.84739883;472.59964993;71;56;35;14906.000000;1.000000;1.000000;1.000000;1.000000;0.017399;-0.017399;0.017399;1.000000
445620.56620224;5696592.84859856;472.59905006;75;63;43;16448.000000;1.000000;1.000000;1.000000;1.000000;-0.018599;0.018599;-0.018599;1.000000
445620.53020103;5696592.81219872;472.59705021;163;149;129;38807.000000;1.000000;1.000000;1.000000;1.000000;-0.017801;0.017801;-0.017801;1.000000
445620.56760223;5696592.81339844;472.59875013;109;96;72;24929.000000;1.000000;1.000000;1.000000;1.000000;0.016602;-0.016602;0.016602;1.000000
445620.60530098;5696592.81460007;472.59574987;99;86;63;22359.000000;1.000000;1.000000;1.000000;1.000000;-0.018186;0.018186;-0.018186;1.000000
445620.53150185;5696592.77479942;472.59424974;98;84;67;22102.000000;1.000000;1.000000;1.000000;1.000000;-0.055201;0.055201;-0.055201;1.000000
445620.53260239;5696592.73729904;472.59625008;57;45;34;12079.000000;1.000000;1.000000;1.000000;1.000000;-0.092701;0.092701;-0.092701;1.000000
445620.70150192;5696592.73589905;472.58054974;130;125;109;31868.000000;1.000000;1.000000;1.000000;1.000000;-0.141649;0.141649;-0.141649;1.000000
