//X;Y;Z;R;G;B;Intensity;Return Number;Number Of Returns;Scan Direction Flag;Point Source ID;C2M signed distances[-][<0.8];C2M signed distances[<0.4];C2M signed distances[-][<0.2];Stump22
445588.19800194;5696586.12509926;474.44084980;31;28;22;7196.000000;1.000000;1.000000;1.000000;1.000000;-0.116375;0.116375;-0.116375;1.000000
445588.18680199;5696586.40129860;474.32485010;27;19;15;5140.000000;1.000000;1.000000;1.000000;1.000000;-0.146147;0.146147;-0.146147;1.000000
445588.27290161;5696586.28679855;474.41115000;106;88;70;23387.000000;1.000000;1.000000;1.000000;1.000000;0.059888;-0.059888;0.059888;1.000000
445588.15830048;5696586.39379890;474.37235023;77;77;66;19275.000000;1.000000;1.000000;1.000000;1.000000;-0.168612;0.168612;-0.168612;1.000000
445588.35580261;5696586.30989845;474.38254978;22;9;2;3084.000000;1.000000;1.000000;1.000000;1.000000;0.020102;-0.020102;0.020102;1.000000
445588.28250130;5696586.26939972;474.42075016;68;54;40;14392.000000;1.000000;1.000000;1.000000;1.000000;-0.052231;0.052231;-0.052231;1.000000
445588.29140289;5696586.04779823;474.49064972;119;107;76;27499.000000;1.000000;1.000000;1.000000;1.000000;-0.022974;0.022974;-0.022974;1.000000
445588.30920227;5696585.96289833;474.43925001;92;90;77;22873.000000;1.000000;1.000000;1.000000;1.000000;-0.005175;0.005175;-0.005175;1.000000
445588.18360146;5696586.39729889;474.44334986;27;15;8;4369.000000;1.000000;1.000000;1.000000;1.000000;-0.147076;0.147076;-0.147076;1.000000
445588.32580193;5696586.40639885;474.36604979;45;29;16;8224.000000;1.000000;1.000000;1.000000;1.000000;-0.076399;0.076399;-0.076399;1.000000
445588.31000145;5696586.07409866;474.49655010;178;173;145;43947.000000;1.000000;1.000000;1.000000;1.000000;-0.004375;0.004375;-0.004375;1.000000
445588.20150192;5696586.05179985;474.47034981;21;12;6;3598.000000;1.000000;1.000000;1.000000;1.000000;-0.112875;0.112875;-0.112875;1.000000
445588.28170212;5696586.51989944;474.38644983;126;116;103;30069.000000;1.000000;1.000000;1.000000;1.000000;-0.192690;0.192690;-0.192690;1.000000
445588.24450119;5696586.47959908;474.34934999;35;25;17;6939.000000;1.000000;1.000000;1.000000;1.000000;-0.165114;0.165114;-0.165114;1.000000
445588.13870056;5696586.36499985;474.38504984;91;73;54;19532.000000;1.000000;1.000000;1.000000;1.000000;-0.179129;0.179129;-0.179129;1.000000
445588.14940079;5696586.38709839;474.40214970;76;55;38;15163.000000;1.000000;1.000000;1.000000;1.000000;-0.174578;0.174578;-0.174578;1.000000
445588.21820267;5696586.50519951;474.36474993;32;23;20;6425.000000;1.000000;1.000000;1.000000;1.000000;-0.199861;0.199861;-0.199861;1.000000
445588.35460098;5696586.30059822;474.38945009;16;8;3;2313.000000;1.000000;1.000000;1.000000;1.000000;0.029402;-0.029402;0.029402;1.000000
445588.35430153;5696586.37609871;474.34375002;77;58;41;15677.000000;1.000000;1.000000;1.000000;1.000000;-0.046099;0.046099;-0.046099;1.000000
445588.27950104;5696586.12209900;474.44214966;160;158;135;40092.000000;1.000000;1.000000;1.000000;1.000000;-0.034876;0.034876;-0.034876;1.000000
445588.23080261;5696586.44619949;474.32494976;34;26;17;6939.000000;1.000000;1.000000;1.000000;1.000000;-0.143133;0.143133;-0.143133;1.000000
445588.21920212;5696586.47969826;474.34114983;24;18;13;4883.000000;1.000000;1.000000;1.000000;1.000000;-0.177392;0.177392;-0.177392;1.000000
445588.25690277;5696586.41299828;474.35144999;93;90;59;22359.000000;1.000000;1.000000;1.000000;1.000000;-0.100955;0.100955;-0.100955;1.000000
445588.23740204;5696585.99669846;474.49464991;86;89;62;21845.000000;1.000000;1.000000;1.000000;1.000000;-0.076975;0.076975;-0.076975;1.000000
445588.27630051;5696585.96279915;474.49364998;87;91;75;22616.000000;1.000000;1.000000;1.000000;1.000000;-0.038076;0.038076;-0.038076;1.000000
445588.23460205;5696586.26649864;474.43944981;72;59;50;15677.000000;1.000000;1.000000;1.000000;1.000000;-0.088407;0.088407;-0.088407;1.000000
445588.25530060;5696586.43599899;474.38425018;23;8;5;3084.000000;1.000000;1.000000;1.000000;1.000000;-0.121350;0.121350;-0.121350;1.000000
445588.28010185;5696586.18579872;474.40334990;51;33;1;8738.000000;1.000000;1.000000;1.000000;1.000000;-0.034275;0.034275;-0.034275;1.000000
445588.21120270;5696586.42509850;474.30055000;67;58;49;15163.000000;1.000000;1.000000;1.000000;1.000000;-0.140316;0.140316;-0.140316;1.000000
445588.25810059;5696585.96909912;474.49755003;137;142;123;35466.000000;1.000000;1.000000;1.000000;1.000000;-0.056276;0.056276;-0.056276;1.000000
445588.25490196;5696586.00679977;474.49084999;61;63;38;15163.000000;1.000000;1.000000;1.000000;1.000000;-0.059475;0.059475;-0.059475;1.000000
445588.20600136;5696586.30209930;474.42234995;83;67;58;17990.000000;1.000000;1.000000;1.000000;1.000000;0.111909;-0.111909;0.111909;1.000000
445588.27580078;5696586.22999962;474.43625023;38;25;17;7196.000000;1.000000;1.000000;1.000000;1.000000;-0.038612;0.038612;-0.038612;1.000000
445588.12140091;5696586.11549957;474.46054985;10;7;3;1799.000000;1.000000;1.000000;1.000000;1.000000;-0.192976;0.192976;-0.192976;1.000000
445588.15440186;5696586.39669998;474.36054995;9;5;0;1285.000000;1.000000;1.000000;1.000000;1.000000;-0.173323;0.173323;-0.173323;1.000000
445588.21650131;5696586.26829918;474.43174984;29;16;10;4883.000000;1.000000;1.000000;1.000000;1.000000;-0.105755;0.105755;-0.105755;1.000000
445588.15510185;5696586.24879845;474.40304996;21;11;9;3341.000000;1.000000;1.000000;1.000000;1.000000;-0.160671;0.160671;-0.160671;1.000000
445588.28390129;5696586.29769905;474.39554979;137;121;99;31611.000000;1.000000;1.000000;1.000000;1.000000;0.044408;-0.044408;0.044408;1.000000
445588.30960281;5696586.25309952;474.40774967;143;127;110;33153.000000;1.000000;1.000000;1.000000;1.000000;-0.025785;0.025785;-0.025785;1.000000
445588.26820190;5696586.45639999;474.34544994;60;44;33;12079.000000;1.000000;1.000000;1.000000;1.000000;-0.134570;0.134570;-0.134570;1.000000
445588.28380020;5696586.41699989;474.38525011;128;109;90;28784.000000;1.000000;1.000000;1.000000;1.000000;-0.092217;0.092217;-0.092217;1.000000
445588.18580063;5696586.41149910;474.42275002;11;2;0;1028.000000;1.000000;1.000000;1.000000;1.000000;-0.152230;0.152230;-0.152230;1.000000
445588.22240265;5696586.36869820;474.40284969;48;29;14;8481.000000;1.000000;1.000000;1.000000;1.000000;-0.099784;0.099784;-0.099784;1.000000
445588.19540222;5696586.16299828;474.42014982;62;55;48;14392.000000;1.000000;1.000000;1.000000;1.000000;-0.118975;0.118975;-0.118975;1.000000
445588.28080185;5696586.10279854;474.47685005;85;81;54;20303.000000;1.000000;1.000000;1.000000;1.000000;-0.033575;0.033575;-0.033575;1.000000
445588.18580063;5696586.39709862;474.44584991;12;4;2;1542.000000;1.000000;1.000000;1.000000;1.000000;-0.145031;0.145031;-0.145031;1.000000
445588.21420105;5696586.06539925;474.42455008;94;91;77;23130.000000;1.000000;1.000000;1.000000;1.000000;-0.100176;0.100176;-0.100176;1.000000
445588.16440018;5696586.40279968;474.35874989;2;1;0;257.000000;1.000000;1.000000;1.000000;1.000000;-0.166712;0.166712;-0.166712;1.000000
445588.29540070;5696585.98009880;474.46915009;27;20;13;5397.000000;1.000000;1.000000;1.000000;1.000000;-0.018976;0.018976;-0.018976;1.000000
445588.21470078;5696586.12369926;474.42994978;18;14;8;3598.000000;1.000000;1.000000;1.000000;1.000000;-0.099676;0.099676;-0.099676;1.000000
445588.31080063;5696586.23139961;474.44014980;58;44;35;12079.000000;1.000000;1.000000;1.000000;1.000000;-0.004665;0.004665;-0.004665;1.000000
445588.32890137;5696586.31719978;474.37214996;70;57;45;15163.000000;1.000000;1.000000;1.000000;1.000000;0.012800;-0.012800;0.012800;1.000000
445588.29070099;5696586.27809914;474.41184999;36;23;13;6425.000000;1.000000;1.000000;1.000000;1.000000;-0.055550;0.055550;-0.055550;1.000000
445588.33380135;5696586.13099869;474.44934990;119;109;82;28013.000000;1.000000;1.000000;1.000000;1.000000;0.019424;-0.019424;0.019424;1.000000
445588.20440109;5696586.15749939;474.41814997;34;26;16;6939.000000;1.000000;1.000000;1.000000;1.000000;-0.109976;0.109976;-0.109976;1.000000
445588.25720032;5696586.03459938;474.49595024;195;193;169;48830.000000;1.000000;1.000000;1.000000;1.000000;-0.057177;0.057177;-0.057177;1.000000
445588.18790253;5696586.45509918;474.30914976;21;15;10;4112.000000;1.000000;1.000000;1.000000;1.000000;-0.177892;0.177892;-0.177892;1.000000
445588.20880135;5696586.07469948;474.45935013;78;67;48;17476.000000;1.000000;1.000000;1.000000;1.000000;-0.105576;0.105576;-0.105576;1.000000
445588.22710236;5696586.08949860;474.44864990;82;75;58;19275.000000;1.000000;1.000000;1.000000;1.000000;-0.087275;0.087275;-0.087275;1.000000
445588.21350296;5696586.35069855;474.40924980;123;102;79;26985.000000;1.000000;1.000000;1.000000;1.000000;-0.102976;0.102976;-0.102976;1.000000
445588.21060188;5696586.45290001;474.31955006;37;28;21;7453.000000;1.000000;1.000000;1.000000;1.000000;-0.160853;0.160853;-0.160853;1.000000
445588.17200287;5696586.41219910;474.31264975;8;1;0;514.000000;1.000000;1.000000;1.000000;1.000000;-0.164399;0.164399;-0.164399;1.000000
445588.24960144;5696586.41359909;474.35804989;126;123;88;30840.000000;1.000000;1.000000;1.000000;1.000000;-0.105758;0.105758;-0.105758;1.000000
445588.19790085;5696586.26549919;474.42154982;22;12;7;3598.000000;1.000000;1.000000;1.000000;1.000000;-0.122352;0.122352;-0.122352;1.000000
445588.19590195;5696586.11319931;474.46385004;70;67;54;16962.000000;1.000000;1.000000;1.000000;1.000000;-0.118475;0.118475;-0.118475;1.000000
445588.24770172;5696586.20229919;474.43234970;24;13;7;3855.000000;1.000000;1.000000;1.000000;1.000000;-0.066675;0.066675;-0.066675;1.000000
445588.22870071;5696586.45469864;474.39024975;32;19;16;5654.000000;1.000000;1.000000;1.000000;1.000000;-0.151295;0.151295;-0.151295;1.000000
445588.22030075;5696586.46339996;474.33404972;21;14;7;3855.000000;1.000000;1.000000;1.000000;1.000000;-0.163236;0.163236;-0.163236;1.000000
445588.30180176;5696586.05629929;474.48665001;139;129;98;32896.000000;1.000000;1.000000;1.000000;1.000000;-0.012575;0.012575;-0.012575;1.000000
445588.21390160;5696586.38859947;474.37244989;59;48;38;12850.000000;1.000000;1.000000;1.000000;1.000000;-0.116315;0.116315;-0.116315;1.000000
445588.22260101;5696586.42399986;474.30345013;58;48;38;12593.000000;1.000000;1.000000;1.000000;1.000000;-0.131373;0.131373;-0.131373;1.000000
445588.16290100;5696586.07149895;474.48745014;172;170;157;43433.000000;1.000000;1.000000;1.000000;1.000000;-0.151476;0.151476;-0.151476;1.000000
445588.16080292;5696586.04839905;474.48484995;61;58;46;14649.000000;1.000000;1.000000;1.000000;1.000000;-0.153574;0.153574;-0.153574;1.000000
445588.31240280;5696586.29749878;474.38514997;56;38;26;10794.000000;1.000000;1.000000;1.000000;1.000000;0.032561;-0.032561;0.032561;1.000000
445588.27400024;5696586.33619888;474.38385012;58;37;22;10537.000000;1.000000;1.000000;1.000000;1.000000;-0.040850;0.040850;-0.040850;1.000000
445588.23290070;5696586.06289871;474.47195007;32;23;10;6168.000000;1.000000;1.000000;1.000000;1.000000;-0.081476;0.081476;-0.081476;1.000000
445588.22740181;5696586.28369911;474.42775013;68;52;43;14135.000000;1.000000;1.000000;1.000000;1.000000;0.098531;-0.098531;0.098531;1.000000
445588.23560150;5696586.29469879;474.42355015;166;146;129;38550.000000;1.000000;1.000000;1.000000;1.000000;0.086323;-0.086323;0.086323;1.000000
445588.32070168;5696586.37419899;474.36084988;92;69;52;19018.000000;1.000000;1.000000;1.000000;1.000000;-0.044199;0.044199;-0.044199;1.000000
445588.21320160;5696586.36949928;474.40245010;50;29;12;8481.000000;1.000000;1.000000;1.000000;1.000000;-0.108612;0.108612;-0.108612;1.000000
445588.13060196;5696586.11229904;474.45855000;27;25;22;6425.000000;1.000000;1.000000;1.000000;1.000000;-0.183775;0.183775;-0.183775;1.000000
445588.13110168;5696586.15029915;474.41944983;9;8;3;1799.000000;1.000000;1.000000;1.000000;1.000000;-0.183275;0.183275;-0.183275;1.000000
445588.23510178;5696586.24769981;474.44164993;131;119;105;31097.000000;1.000000;1.000000;1.000000;1.000000;-0.081582;0.081582;-0.081582;1.000000
445588.19000061;5696586.40329941;474.46934988;28;26;17;6425.000000;1.000000;1.000000;1.000000;1.000000;-0.144369;0.144369;-0.144369;1.000000
445588.20210083;5696586.18339928;474.41834976;46;39;32;10280.000000;1.000000;1.000000;1.000000;1.000000;-0.112276;0.112276;-0.112276;1.000000
445588.26800163;5696586.16559990;474.42345001;61;42;22;11565.000000;1.000000;1.000000;1.000000;1.000000;-0.046375;0.046375;-0.046375;1.000000
445588.28510101;5696585.99959953;474.47814991;77;71;53;17990.000000;1.000000;1.000000;1.000000;1.000000;-0.029276;0.029276;-0.029276;1.000000
445588.26790054;5696586.42079933;474.38455011;30;17;11;5140.000000;1.000000;1.000000;1.000000;1.000000;-0.102003;0.102003;-0.102003;1.000000
445588.19010170;5696586.05289848;474.46754982;23;18;10;4626.000000;1.000000;1.000000;1.000000;1.000000;-0.124275;0.124275;-0.124275;1.000000
445588.15880020;5696586.41569908;474.46114971;96;86;73;22359.000000;1.000000;1.000000;1.000000;1.000000;-0.177619;0.177619;-0.177619;1.000000
445588.23940094;5696586.18459900;474.42245008;79;64;52;17219.000000;1.000000;1.000000;1.000000;1.000000;-0.074976;0.074976;-0.074976;1.000000
445588.34580048;5696586.33929832;474.35225012;154;138;123;36237.000000;1.000000;1.000000;1.000000;1.000000;-0.009298;0.009298;-0.009298;1.000000
445588.32960136;5696586.24179848;474.40854980;45;31;21;8738.000000;1.000000;1.000000;1.000000;1.000000;0.020700;-0.020700;0.020700;1.000000
445588.17230042;5696586.41449936;474.31034996;8;1;0;514.000000;1.000000;1.000000;1.000000;1.000000;-0.165305;0.165305;-0.165305;1.000000
445588.25250061;5696586.36979874;474.30644991;89;85;63;21331.000000;1.000000;1.000000;1.000000;1.000000;-0.073570;0.073570;-0.073570;1.000000
445588.32300194;5696586.28259857;474.37844994;20;10;5;3084.000000;1.000000;1.000000;1.000000;1.000000;0.047401;-0.047401;0.047401;1.000000
445588.22650154;5696586.05159958;474.48784973;57;47;31;12336.000000;1.000000;1.000000;1.000000;1.000000;-0.087875;0.087875;-0.087875;1.000000
445588.15390213;5696586.04899986;474.48444988;38;34;26;8738.000000;1.000000;1.000000;1.000000;1.000000;-0.160475;0.160475;-0.160475;1.000000
445588.31960114;5696586.39289864;474.37034990;66;49;35;13364.000000;1.000000;1.000000;1.000000;1.000000;-0.062899;0.062899;-0.062899;1.000000
445588.33590134;5696586.31659897;474.37015011;35;23;17;6425.000000;1.000000;1.000000;1.000000;1.000000;0.013401;-0.013401;0.013401;1.000000
445588.30900200;5696586.05799873;474.48465015;133;120;87;30840.000000;1.000000;1.000000;1.000000;1.000000;-0.005375;0.005375;-0.005375;1.000000
445588.17420013;5696585.99559982;474.49405005;52;56;36;13364.000000;1.000000;1.000000;1.000000;1.000000;-0.140177;0.140177;-0.140177;1.000000
445588.28970154;5696586.11389931;474.45874979;100;94;61;23644.000000;1.000000;1.000000;1.000000;1.000000;-0.024675;0.024675;-0.024675;1.000000
445588.20900162;5696586.15709885;474.41834976;27;18;8;4883.000000;1.000000;1.000000;1.000000;1.000000;-0.105375;0.105375;-0.105375;1.000000
445588.15250214;5696586.41419991;474.44214966;51;39;33;10537.000000;1.000000;1.000000;1.000000;1.000000;-0.182464;0.182464;-0.182464;1.000000
445588.29060181;5696586.48429878;474.37474968;48;31;18;8738.000000;1.000000;1.000000;1.000000;1.000000;-0.156120;0.156120;-0.156120;1.000000
445588.25460251;5696586.25529869;474.44024994;126;116;103;30069.000000;1.000000;1.000000;1.000000;1.000000;-0.065544;0.065544;-0.065544;1.000000
445588.20740135;5696586.04409988;474.47984983;19;13;6;3598.000000;1.000000;1.000000;1.000000;1.000000;-0.106976;0.106976;-0.106976;1.000000
445588.21630295;5696586.31279953;474.42294981;141;123;105;32382.000000;1.000000;1.000000;1.000000;1.000000;0.099571;-0.099571;0.099571;1.000000
445588.13340195;5696586.07669838;474.47695019;14;10;5;2570.000000;1.000000;1.000000;1.000000;1.000000;-0.180975;0.180975;-0.180975;1.000000
445588.24450119;5696586.12079819;474.43825008;39;32;19;8224.000000;1.000000;1.000000;1.000000;1.000000;-0.069876;0.069876;-0.069876;1.000000
445588.15760239;5696586.34679993;474.39505007;195;181;161;47031.000000;1.000000;1.000000;1.000000;1.000000;-0.157672;0.157672;-0.157672;1.000000
445588.21230133;5696586.42599876;474.38215019;142;122;103;32125.000000;1.000000;1.000000;1.000000;1.000000;-0.140126;0.140126;-0.140126;1.000000
445588.14700134;5696586.39409836;474.41844990;73;53;43;14649.000000;1.000000;1.000000;1.000000;1.000000;-0.179229;0.179229;-0.179229;1.000000
445588.13210114;5696586.19279869;474.38275005;23;21;21;5397.000000;1.000000;1.000000;1.000000;1.000000;-0.182276;0.182276;-0.182276;1.000000
445588.24380119;5696586.50739868;474.37054970;19;12;7;3341.000000;1.000000;1.000000;1.000000;1.000000;-0.190922;0.190922;-0.190922;1.000000
445588.31790169;5696586.51400002;474.40194990;134;115;96;30326.000000;1.000000;1.000000;1.000000;1.000000;-0.184000;0.184000;-0.184000;1.000000
445588.24860199;5696586.43759926;474.32574989;98;93;76;23644.000000;1.000000;1.000000;1.000000;1.000000;-0.126111;0.126111;-0.126111;1.000000
445588.35920151;5696586.44059952;474.37034990;170;143;117;38036.000000;1.000000;1.000000;1.000000;1.000000;-0.110600;0.110600;-0.110600;1.000000
445588.17290123;5696586.41919907;474.30804970;9;2;0;771.000000;1.000000;1.000000;1.000000;1.000000;-0.167248;0.167248;-0.167248;1.000000
445588.20930298;5696586.40649994;474.30254986;81;78;66;19789.000000;1.000000;1.000000;1.000000;1.000000;-0.129972;0.129972;-0.129972;1.000000
445588.24650200;5696586.40759857;474.31124975;85;82;57;20560.000000;1.000000;1.000000;1.000000;1.000000;-0.103095;0.103095;-0.103095;1.000000
445588.29680069;5696586.16779907;474.41085007;89;71;44;18761.000000;1.000000;1.000000;1.000000;1.000000;-0.017576;0.017576;-0.017576;1.000000
445588.28960236;5696586.05719955;474.50005009;177;168;140;42919.000000;1.000000;1.000000;1.000000;1.000000;-0.024775;0.024775;-0.024775;1.000000
445588.25610168;5696586.07209976;474.49634983;82;72;47;18504.000000;1.000000;1.000000;1.000000;1.000000;-0.058275;0.058275;-0.058275;1.000000
445588.32920273;5696586.11259850;474.46054985;204;202;178;51143.000000;1.000000;1.000000;1.000000;1.000000;0.014826;-0.014826;0.014826;1.000000
445588.15220078;5696586.12269981;474.41305019;37;34;19;8481.000000;1.000000;1.000000;1.000000;1.000000;-0.162176;0.162176;-0.162176;1.000000
445588.26300247;5696586.07139977;474.49665024;82;78;57;19532.000000;1.000000;1.000000;1.000000;1.000000;-0.051374;0.051374;-0.051374;1.000000
445588.31080063;5696585.99269875;474.46525003;26;20;11;5140.000000;1.000000;1.000000;1.000000;1.000000;-0.003576;0.003576;-0.003576;1.000000
445588.18650253;5696586.16389854;474.41284992;58;52;43;13364.000000;1.000000;1.000000;1.000000;1.000000;-0.127874;0.127874;-0.127874;1.000000
445588.29130180;5696586.43989952;474.36954977;12;8;0;2056.000000;1.000000;1.000000;1.000000;1.000000;-0.112296;0.112296;-0.112296;1.000000
445588.13040169;5696586.24909981;474.38104965;14;8;6;2313.000000;1.000000;1.000000;1.000000;1.000000;-0.185271;0.185271;-0.185271;1.000000
445588.29380234;5696586.27809914;474.39575006;77;55;41;15420.000000;1.000000;1.000000;1.000000;1.000000;-0.054599;0.054599;-0.054599;1.000000
445588.26160248;5696586.10969933;474.45044996;68;60;43;15420.000000;1.000000;1.000000;1.000000;1.000000;-0.052774;0.052774;-0.052774;1.000000
445588.18290146;5696586.27409943;474.40924980;24;15;11;4369.000000;1.000000;1.000000;1.000000;1.000000;-0.139391;0.139391;-0.139391;1.000000
445588.17480286;5696586.38929947;474.41264965;73;54;39;14906.000000;1.000000;1.000000;1.000000;1.000000;-0.151649;0.151649;-0.151649;1.000000
445588.11850174;5696586.04759987;474.48754980;27;19;10;5140.000000;1.000000;1.000000;1.000000;1.000000;-0.195875;0.195875;-0.195875;1.000000
445588.23650177;5696586.06219872;474.49534990;66;57;38;14649.000000;1.000000;1.000000;1.000000;1.000000;-0.077875;0.077875;-0.077875;1.000000
445588.31620224;5696586.21679886;474.44724991;141;132;118;34181.000000;1.000000;1.000000;1.000000;1.000000;0.001825;-0.001825;0.001825;1.000000
445588.23640259;5696586.08869942;474.44675018;48;40;30;10537.000000;1.000000;1.000000;1.000000;1.000000;-0.077974;0.077974;-0.077974;1.000000
445588.30030258;5696586.52499969;474.39895012;139;126;109;32896.000000;1.000000;1.000000;1.000000;1.000000;-0.195507;0.195507;-0.195507;1.000000
445588.23520096;5696586.33239944;474.40765001;102;82;58;21845.000000;1.000000;1.000000;1.000000;1.000000;-0.079212;0.079212;-0.079212;1.000000
445588.35810287;5696586.45919998;474.38215019;152;126;95;33410.000000;1.000000;1.000000;1.000000;1.000000;-0.129200;0.129200;-0.129200;1.000000
445588.25830276;5696586.21989830;474.44004967;50;37;27;10023.000000;1.000000;1.000000;1.000000;1.000000;-0.056074;0.056074;-0.056074;1.000000
445588.18760117;5696586.34849937;474.40805008;101;86;69;22616.000000;1.000000;1.000000;1.000000;1.000000;-0.128118;0.128118;-0.128118;1.000000
445588.29830177;5696586.27759941;474.39825012;77;60;40;15934.000000;1.000000;1.000000;1.000000;1.000000;-0.052544;0.052544;-0.052544;1.000000
445588.26370056;5696586.48929985;474.35965015;80;66;57;17733.000000;1.000000;1.000000;1.000000;1.000000;-0.167166;0.167166;-0.167166;1.000000
445588.29550179;5696586.16739853;474.44105007;143;131;114;33924.000000;1.000000;1.000000;1.000000;1.000000;-0.018875;0.018875;-0.018875;1.000000
445588.14670189;5696586.16299828;474.41095020;26;21;18;5654.000000;1.000000;1.000000;1.000000;1.000000;-0.167675;0.167675;-0.167675;1.000000
445588.33510025;5696586.17059906;474.44985010;97;100;75;24672.000000;1.000000;1.000000;1.000000;1.000000;0.020723;-0.020723;0.020723;1.000000
445588.30980118;5696585.97969826;474.40684988;109;90;70;23901.000000;1.000000;1.000000;1.000000;1.000000;-0.004576;0.004576;-0.004576;1.000000
445588.33180054;5696586.20829971;474.44554998;165;150;133;39064.000000;1.000000;1.000000;1.000000;1.000000;0.017424;-0.017424;0.017424;1.000000
445588.20920189;5696586.42229851;474.34004976;61;42;34;11822.000000;1.000000;1.000000;1.000000;1.000000;-0.139931;0.139931;-0.139931;1.000000
445588.25500114;5696586.49939926;474.36634972;24;14;8;4112.000000;1.000000;1.000000;1.000000;1.000000;-0.179504;0.179504;-0.179504;1.000000
445588.27100189;5696586.12999924;474.43954994;127;120;99;30583.000000;1.000000;1.000000;1.000000;1.000000;-0.043375;0.043375;-0.043375;1.000000
445588.29400070;5696586.26369865;474.41414978;87;70;52;18761.000000;1.000000;1.000000;1.000000;1.000000;-0.041200;0.041200;-0.041200;1.000000
445588.36140259;5696586.37539871;474.34174969;38;20;9;6168.000000;1.000000;1.000000;1.000000;1.000000;-0.045399;0.045399;-0.045399;1.000000
445588.19150169;5696586.48549850;474.29104998;43;30;21;8224.000000;1.000000;1.000000;1.000000;1.000000;-0.198187;0.198187;-0.198187;1.000000
445588.30280121;5696586.49689873;474.38945009;96;78;63;20817.000000;1.000000;1.000000;1.000000;1.000000;-0.167300;0.167300;-0.167300;1.000000
445588.21100052;5696586.49899872;474.35505011;22;17;15;4626.000000;1.000000;1.000000;1.000000;1.000000;-0.198109;0.198109;-0.198109;1.000000
445588.21210297;5696586.46229942;474.30574991;52;35;24;9766.000000;1.000000;1.000000;1.000000;1.000000;-0.167222;0.167222;-0.167222;1.000000
445588.29740150;5696585.97299965;474.46215012;20;15;9;3855.000000;1.000000;1.000000;1.000000;1.000000;-0.016975;0.016975;-0.016975;1.000000
445588.24660118;5696586.09709938;474.44504978;38;28;18;7453.000000;1.000000;1.000000;1.000000;1.000000;-0.067776;0.067776;-0.067776;1.000000
445588.18440063;5696586.38620003;474.40135004;132;117;98;30583.000000;1.000000;1.000000;1.000000;1.000000;-0.141606;0.141606;-0.141606;1.000000
445588.33880051;5696586.24099930;474.40894987;50;36;25;9766.000000;1.000000;1.000000;1.000000;1.000000;0.027771;-0.027771;0.027771;1.000000
445588.36590202;5696586.50479897;474.40634968;100;79;59;21331.000000;1.000000;1.000000;1.000000;1.000000;-0.174799;0.174799;-0.174799;1.000000
445588.11720093;5696586.12059982;474.46035006;23;20;13;5140.000000;1.000000;1.000000;1.000000;1.000000;-0.197176;0.197176;-0.197176;1.000000
445588.31760223;5696585.98299988;474.44915010;37;28;22;7710.000000;1.000000;1.000000;1.000000;1.000000;0.003225;-0.003225;0.003225;1.000000
445588.15040024;5696586.11319931;474.43384983;111;112;100;28270.000000;1.000000;1.000000;1.000000;1.000000;-0.163977;0.163977;-0.163977;1.000000
445588.21400269;5696586.13789948;474.42304995;32;28;19;7196.000000;1.000000;1.000000;1.000000;1.000000;-0.100374;0.100374;-0.100374;1.000000
445588.34020050;5696586.43999870;474.37414982;164;135;110;35980.000000;1.000000;1.000000;1.000000;1.000000;-0.110003;0.110003;-0.110003;1.000000
445588.26330193;5696586.48469933;474.35724976;96;82;73;21845.000000;1.000000;1.000000;1.000000;1.000000;-0.162913;0.162913;-0.162913;1.000000
445588.15850266;5696586.33039864;474.39255001;77;61;48;16448.000000;1.000000;1.000000;1.000000;1.000000;-0.155875;0.155875;-0.155875;1.000000
445588.32920273;5696586.39209946;474.36375000;121;100;78;26471.000000;1.000000;1.000000;1.000000;1.000000;-0.062099;0.062099;-0.062099;1.000000
445588.26660164;5696586.27769859;474.42705013;135;126;116;32639.000000;1.000000;1.000000;1.000000;1.000000;-0.068829;0.068829;-0.068829;1.000000
445588.30650146;5696586.13149841;474.43184998;98;90;61;22873.000000;1.000000;1.000000;1.000000;1.000000;-0.007875;0.007875;-0.007875;1.000000
445588.30610092;5696586.40099915;474.37675001;57;36;21;10280.000000;1.000000;1.000000;1.000000;1.000000;-0.071480;0.071480;-0.071480;1.000000
445588.17420013;5696586.39589890;474.44065001;29;15;9;4626.000000;1.000000;1.000000;1.000000;1.000000;-0.154894;0.154894;-0.154894;1.000000
445588.29890259;5696586.11309822;474.45924999;110;106;72;26471.000000;1.000000;1.000000;1.000000;1.000000;-0.015474;0.015474;-0.015474;1.000000
445588.22810181;5696585.99759872;474.49424984;113;115;89;28527.000000;1.000000;1.000000;1.000000;1.000000;-0.086275;0.086275;-0.086275;1.000000
445588.34850128;5696586.36259850;474.34095003;90;65;42;17733.000000;1.000000;1.000000;1.000000;1.000000;-0.032598;0.032598;-0.032598;1.000000
445588.30290039;5696586.36399849;474.37155010;80;58;41;15934.000000;1.000000;1.000000;1.000000;1.000000;-0.035883;0.035883;-0.035883;1.000000
445588.26330193;5696586.39110001;474.37235023;14;1;0;1028.000000;1.000000;1.000000;1.000000;1.000000;-0.079636;0.079636;-0.079636;1.000000
445588.27250107;5696586.32449921;474.39295008;73;52;33;14392.000000;1.000000;1.000000;1.000000;1.000000;0.042236;-0.042236;0.042236;1.000000
445588.31720169;5696586.10369881;474.50184967;206;201;170;51143.000000;1.000000;1.000000;1.000000;1.000000;0.002825;-0.002825;0.002825;1.000000
445588.13170059;5696586.11489876;474.43765022;152;152;137;38550.000000;1.000000;1.000000;1.000000;1.000000;-0.182676;0.182676;-0.182676;1.000000
445588.18220146;5696586.39099892;474.40835001;84;69;58;18504.000000;1.000000;1.000000;1.000000;1.000000;-0.145572;0.145572;-0.145572;1.000000
445588.29380234;5696586.46769913;474.37235023;38;22;13;6425.000000;1.000000;1.000000;1.000000;1.000000;-0.139228;0.139228;-0.139228;1.000000
445588.22540100;5696586.39509972;474.33815004;82;75;61;19275.000000;1.000000;1.000000;1.000000;1.000000;-0.110248;0.110248;-0.110248;1.000000
445588.24850281;5696586.40649994;474.36954977;120;114;93;29041.000000;1.000000;1.000000;1.000000;1.000000;-0.100954;0.100954;-0.100954;1.000000
445588.27360161;5696586.50219925;474.37414982;92;80;70;21074.000000;1.000000;1.000000;1.000000;1.000000;-0.176961;0.176961;-0.176961;1.000000
445588.23630150;5696586.46179970;474.33944990;34;27;17;7196.000000;1.000000;1.000000;1.000000;1.000000;-0.153189;0.153189;-0.153189;1.000000
445588.31570251;5696586.42819984;474.37524988;130;110;90;29041.000000;1.000000;1.000000;1.000000;1.000000;-0.098200;0.098200;-0.098200;1.000000
445588.28990181;5696586.16839989;474.41054966;100;82;55;21588.000000;1.000000;1.000000;1.000000;1.000000;-0.024475;0.024475;-0.024475;1.000000
445588.14570053;5696586.42419823;474.29764988;28;22;16;5911.000000;1.000000;1.000000;1.000000;1.000000;-0.193197;0.193197;-0.193197;1.000000
445588.16790207;5696586.21249969;474.40784981;21;12;7;3598.000000;1.000000;1.000000;1.000000;1.000000;-0.146475;0.146475;-0.146475;1.000000
445588.13490112;5696586.37469872;474.38504984;88;74;59;19532.000000;1.000000;1.000000;1.000000;1.000000;-0.184958;0.184958;-0.184958;1.000000
445588.25970276;5696586.43099983;474.37964966;14;0;0;1028.000000;1.000000;1.000000;1.000000;1.000000;-0.114849;0.114849;-0.114849;1.000000
445588.26850136;5696586.14449890;474.42094995;79;69;53;17990.000000;1.000000;1.000000;1.000000;1.000000;-0.045876;0.045876;-0.045876;1.000000
445588.31780060;5696586.32519920;474.37404968;113;96;85;25443.000000;1.000000;1.000000;1.000000;1.000000;0.004801;-0.004801;0.004801;1.000000
445588.19220169;5696586.03609856;474.48845007;50;50;35;12336.000000;1.000000;1.000000;1.000000;1.000000;-0.122175;0.122175;-0.122175;1.000000
445588.30720146;5696586.25319870;474.41004993;117;103;90;26985.000000;1.000000;1.000000;1.000000;1.000000;-0.026387;0.026387;-0.026387;1.000000
445588.30370148;5696586.16709908;474.41344978;108;92;67;24158.000000;1.000000;1.000000;1.000000;1.000000;-0.010675;0.010675;-0.010675;1.000000
445588.14080246;5696586.33679970;474.38485004;67;53;39;14135.000000;1.000000;1.000000;1.000000;1.000000;-0.173708;0.173708;-0.173708;1.000000
445588.16790207;5696586.21249969;474.40784981;21;13;7;3598.000000;1.000000;1.000000;1.000000;1.000000;-0.146475;0.146475;-0.146475;1.000000
445588.32940109;5696586.19719894;474.42434980;148;136;109;34952.000000;1.000000;1.000000;1.000000;1.000000;0.015024;-0.015024;0.015024;1.000000
445588.22580154;5696586.11799820;474.43034985;36;28;20;7453.000000;1.000000;1.000000;1.000000;1.000000;-0.088575;0.088575;-0.088575;1.000000
445588.21700104;5696586.06229980;474.45954992;50;41;23;10537.000000;1.000000;1.000000;1.000000;1.000000;-0.097376;0.097376;-0.097376;1.000000
445588.20320137;5696586.38459976;474.39524986;145;129;115;33924.000000;1.000000;1.000000;1.000000;1.000000;-0.123859;0.123859;-0.123859;1.000000
445588.20400055;5696586.43019875;474.31425001;49;39;33;10537.000000;1.000000;1.000000;1.000000;1.000000;-0.149073;0.149073;-0.149073;1.000000
445588.28920181;5696586.09719856;474.48654987;100;98;67;24415.000000;1.000000;1.000000;1.000000;1.000000;-0.025175;0.025175;-0.025175;1.000000
445588.21830185;5696586.01489838;474.48934986;120;122;101;30583.000000;1.000000;1.000000;1.000000;1.000000;-0.096075;0.096075;-0.096075;1.000000
445588.29430206;5696586.47459991;474.37474968;45;28;21;8224.000000;1.000000;1.000000;1.000000;1.000000;-0.145987;0.145987;-0.145987;1.000000
445588.20270164;5696586.06199844;474.41235020;174;173;155;43947.000000;1.000000;1.000000;1.000000;1.000000;-0.111675;0.111675;-0.111675;1.000000
445588.15680130;5696586.10789879;474.43645002;37;36;19;8738.000000;1.000000;1.000000;1.000000;1.000000;-0.157576;0.157576;-0.157576;1.000000
445588.29360016;5696586.41629990;474.37404968;71;45;30;13107.000000;1.000000;1.000000;1.000000;1.000000;-0.088766;0.088766;-0.088766;1.000000
445588.19800194;5696586.06919868;474.42845013;145;141;121;35980.000000;1.000000;1.000000;1.000000;1.000000;-0.116375;0.116375;-0.116375;1.000000
445588.31210144;5696586.46589859;474.37785007;48;29;16;8481.000000;1.000000;1.000000;1.000000;1.000000;-0.135918;0.135918;-0.135918;1.000000
445588.27700241;5696586.38970001;474.37535002;34;23;13;6425.000000;1.000000;1.000000;1.000000;1.000000;-0.070434;0.070434;-0.070434;1.000000
445588.27810104;5696586.35219963;474.37725021;143;122;108;32382.000000;1.000000;1.000000;1.000000;1.000000;-0.042530;0.042530;-0.042530;1.000000
445588.23450287;5696586.39729889;474.29664995;124;126;94;31097.000000;1.000000;1.000000;1.000000;1.000000;-0.104446;0.104446;-0.104446;1.000000
445588.24270065;5696586.31519897;474.41244986;132;111;87;29298.000000;1.000000;1.000000;1.000000;1.000000;0.073188;-0.073188;0.073188;1.000000
445588.21630295;5696586.06059845;474.41995003;83;78;61;19789.000000;1.000000;1.000000;1.000000;1.000000;-0.098074;0.098074;-0.098074;1.000000
445588.22980125;5696586.07279976;474.45795013;69;61;51;15934.000000;1.000000;1.000000;1.000000;1.000000;-0.084576;0.084576;-0.084576;1.000000
445588.26360138;5696586.10939987;474.45755007;60;56;37;14135.000000;1.000000;1.000000;1.000000;1.000000;-0.050776;0.050776;-0.050776;1.000000
445588.21680267;5696586.29409988;474.42504980;121;105;94;27756.000000;1.000000;1.000000;1.000000;1.000000;0.103969;-0.103969;0.103969;1.000000
445588.21340187;5696586.32949837;474.41834976;155;128;106;34181.000000;1.000000;1.000000;1.000000;1.000000;0.100976;-0.100976;0.100976;1.000000
445588.32660110;5696586.25399979;474.39454987;58;37;28;10794.000000;1.000000;1.000000;1.000000;1.000000;0.029187;-0.029187;0.029187;1.000000
445588.17220123;5696586.06159981;474.46684982;63;56;44;14392.000000;1.000000;1.000000;1.000000;1.000000;-0.142176;0.142176;-0.142176;1.000000
445588.18970116;5696586.27339943;474.41194965;19;9;5;2827.000000;1.000000;1.000000;1.000000;1.000000;-0.132736;0.132736;-0.132736;1.000000
445588.14940079;5696586.38259895;474.39274981;77;65;48;16962.000000;1.000000;1.000000;1.000000;1.000000;-0.173158;0.173158;-0.173158;1.000000
445588.12320145;5696586.04709824;474.48775007;30;20;7;5397.000000;1.000000;1.000000;1.000000;1.000000;-0.191175;0.191175;-0.191175;1.000000
445588.28110130;5696586.31670006;474.39325001;111;89;67;23901.000000;1.000000;1.000000;1.000000;1.000000;0.035835;-0.035835;0.035835;1.000000
445588.21030243;5696586.20119865;474.42824986;127;120;112;31097.000000;1.000000;1.000000;1.000000;1.000000;-0.104074;0.104074;-0.104074;1.000000
445588.12340172;5696586.16279991;474.40994980;13;9;7;2313.000000;1.000000;1.000000;1.000000;1.000000;-0.190975;0.190975;-0.190975;1.000000
445588.16730125;5696586.39199837;474.43094971;39;21;14;6425.000000;1.000000;1.000000;1.000000;1.000000;-0.159609;0.159609;-0.159609;1.000000
445588.32670029;5696586.11269959;474.46514990;184;183;157;46260.000000;1.000000;1.000000;1.000000;1.000000;0.012323;-0.012323;0.012323;1.000000
445588.14810188;5696586.38539894;474.37414982;99;91;78;23387.000000;1.000000;1.000000;1.000000;1.000000;-0.175261;0.175261;-0.175261;1.000000
445588.24350174;5696586.32219894;474.41025021;141;121;98;31868.000000;1.000000;1.000000;1.000000;1.000000;0.071303;-0.071303;0.071303;1.000000
445588.27730186;5696586.28399857;474.41134979;92;76;60;20303.000000;1.000000;1.000000;1.000000;1.000000;0.059082;-0.059082;0.059082;1.000000
445588.33000191;5696586.13839920;474.44465019;144;130;99;33410.000000;1.000000;1.000000;1.000000;1.000000;0.015625;-0.015625;0.015625;1.000000
445588.34750183;5696586.47629936;474.39354994;141;116;93;30840.000000;1.000000;1.000000;1.000000;1.000000;-0.146299;0.146299;-0.146299;1.000000
445588.23950203;5696586.43619926;474.31825020;54;46;33;11822.000000;1.000000;1.000000;1.000000;1.000000;-0.129940;0.129940;-0.129940;1.000000
445588.27200134;5696586.51389893;474.38124992;65;54;45;14392.000000;1.000000;1.000000;1.000000;1.000000;-0.188718;0.188718;-0.188718;1.000000
445588.13710220;5696586.40549858;474.34824993;12;9;3;2313.000000;1.000000;1.000000;1.000000;1.000000;-0.192682;0.192682;-0.192682;1.000000
445588.13100250;5696586.35649879;474.38234999;63;45;26;12336.000000;1.000000;1.000000;1.000000;1.000000;-0.185279;0.185279;-0.185279;1.000000
445588.30050095;5696586.09599884;474.49405005;79;80;49;19532.000000;1.000000;1.000000;1.000000;1.000000;-0.013876;0.013876;-0.013876;1.000000
445588.24440201;5696586.28689964;474.42154982;92;72;59;19532.000000;1.000000;1.000000;1.000000;1.000000;0.082183;-0.082183;0.082183;1.000000
445588.32390030;5696586.21409996;474.42425014;124;115;93;29555.000000;1.000000;1.000000;1.000000;1.000000;0.009523;-0.009523;0.009523;1.000000
445588.28270157;5696586.25049980;474.42985012;58;44;37;12079.000000;1.000000;1.000000;1.000000;1.000000;-0.038737;0.038737;-0.038737;1.000000
445588.28560074;5696586.29049881;474.39545013;121;102;85;26985.000000;1.000000;1.000000;1.000000;1.000000;0.048871;-0.048871;0.048871;1.000000
445588.31760223;5696586.36519821;474.35825016;92;69;51;18761.000000;1.000000;1.000000;1.000000;1.000000;-0.035198;0.035198;-0.035198;1.000000
445588.35400208;5696586.32919891;474.35715010;29;18;12;5140.000000;1.000000;1.000000;1.000000;1.000000;0.000801;-0.000801;0.000801;1.000000
445588.27940186;5696586.32379921;474.39325001;85;64;43;17219.000000;1.000000;1.000000;1.000000;1.000000;0.035520;-0.035520;0.035520;1.000000
445588.14300163;5696586.09939964;474.46595003;119;115;104;29298.000000;1.000000;1.000000;1.000000;1.000000;-0.171375;0.171375;-0.171375;1.000000
445588.25150116;5696586.10129936;474.44994976;37;26;15;7196.000000;1.000000;1.000000;1.000000;1.000000;-0.062876;0.062876;-0.062876;1.000000
445588.18930252;5696586.24989899;474.42555000;27;18;14;5140.000000;1.000000;1.000000;1.000000;1.000000;-0.126957;0.126957;-0.126957;1.000000
445588.21980103;5696586.25619896;474.43634989;41;30;23;8224.000000;1.000000;1.000000;1.000000;1.000000;-0.098596;0.098596;-0.098596;1.000000
445588.32060059;5696586.32739838;474.36954977;121;103;88;27242.000000;1.000000;1.000000;1.000000;1.000000;0.002602;-0.002602;0.002602;1.000000
445588.25110062;5696586.37699898;474.29944994;100;95;65;23901.000000;1.000000;1.000000;1.000000;1.000000;-0.078821;0.078821;-0.078821;1.000000
445588.32110031;5696586.26179894;474.37815001;71;50;38;13878.000000;1.000000;1.000000;1.000000;1.000000;0.035276;-0.035276;0.035276;1.000000
445588.35270126;5696586.41119965;474.34875013;77;58;31;15420.000000;1.000000;1.000000;1.000000;1.000000;-0.081200;0.081200;-0.081200;1.000000
445588.12030228;5696586.12279900;474.44894983;38;36;27;8995.000000;1.000000;1.000000;1.000000;1.000000;-0.194075;0.194075;-0.194075;1.000000
445588.12130173;5696586.16309937;474.40514996;11;7;5;1799.000000;1.000000;1.000000;1.000000;1.000000;-0.193075;0.193075;-0.193075;1.000000
445588.16970261;5696586.45919998;474.30604984;10;8;3;2056.000000;1.000000;1.000000;1.000000;1.000000;-0.193967;0.193967;-0.193967;1.000000
445588.21140106;5696586.42969902;474.30524971;39;32;22;8481.000000;1.000000;1.000000;1.000000;1.000000;-0.143331;0.143331;-0.143331;1.000000
445588.24170120;5696586.08989914;474.48894979;108;97;84;25186.000000;1.000000;1.000000;1.000000;1.000000;-0.072676;0.072676;-0.072676;1.000000
445588.18470200;5696586.10759933;474.44004967;21;20;8;4626.000000;1.000000;1.000000;1.000000;1.000000;-0.129675;0.129675;-0.129675;1.000000
445588.33330162;5696586.35679825;474.35414984;111;91;70;24158.000000;1.000000;1.000000;1.000000;1.000000;-0.026798;0.026798;-0.026798;1.000000
445588.34290131;5696586.22379883;474.43925001;83;76;54;19275.000000;1.000000;1.000000;1.000000;1.000000;0.028524;-0.028524;0.028524;1.000000
445588.15230186;5696586.41419991;474.44684984;74;62;51;16448.000000;1.000000;1.000000;1.000000;1.000000;-0.182642;0.182642;-0.182642;1.000000
445588.14190109;5696586.11649902;474.42184975;164;166;155;42148.000000;1.000000;1.000000;1.000000;1.000000;-0.172476;0.172476;-0.172476;1.000000
445588.23110016;5696585.97859962;474.49414970;116;121;96;29812.000000;1.000000;1.000000;1.000000;1.000000;-0.083277;0.083277;-0.083277;1.000000
445588.33070190;5696586.07739838;474.45785000;67;55;40;14392.000000;1.000000;1.000000;1.000000;1.000000;0.016325;-0.016325;0.016325;1.000000
445588.24340256;5696586.40909966;474.38334991;69;49;29;13364.000000;1.000000;1.000000;1.000000;1.000000;-0.106274;0.106274;-0.106274;1.000000
445588.11770065;5696586.19479950;474.34254982;45;42;37;10794.000000;1.000000;1.000000;1.000000;1.000000;-0.196676;0.196676;-0.196676;1.000000
445588.26940163;5696586.13719948;474.43715002;87;80;60;20303.000000;1.000000;1.000000;1.000000;1.000000;-0.044975;0.044975;-0.044975;1.000000
445588.12880142;5696586.12929924;474.42845013;111;111;102;28270.000000;1.000000;1.000000;1.000000;1.000000;-0.185575;0.185575;-0.185575;1.000000
445588.22570236;5696586.33319862;474.41194965;122;96;68;25700.000000;1.000000;1.000000;1.000000;1.000000;-0.088732;0.088732;-0.088732;1.000000
445588.34610184;5696586.25399979;474.43044998;29;22;3;5654.000000;1.000000;1.000000;1.000000;1.000000;0.040882;-0.040882;0.040882;1.000000
445588.29730042;5696586.12019928;474.45924999;98;95;65;23644.000000;1.000000;1.000000;1.000000;1.000000;-0.017076;0.017076;-0.017076;1.000000
445588.30290039;5696585.98179825;474.46245005;49;40;31;10537.000000;1.000000;1.000000;1.000000;1.000000;-0.011477;0.011477;-0.011477;1.000000
445588.19210251;5696586.01260002;474.49515011;76;79;61;19532.000000;1.000000;1.000000;1.000000;1.000000;-0.122274;0.122274;-0.122274;1.000000
445588.18470200;5696586.22919853;474.43214991;28;20;16;5397.000000;1.000000;1.000000;1.000000;1.000000;-0.129678;0.129678;-0.129678;1.000000
445588.17010124;5696586.41449936;474.46624996;66;59;47;15163.000000;1.000000;1.000000;1.000000;1.000000;-0.167199;0.167199;-0.167199;1.000000
445588.22520264;5696586.15559967;474.41914989;46;34;26;9252.000000;1.000000;1.000000;1.000000;1.000000;-0.089174;0.089174;-0.089174;1.000000
445588.19370087;5696586.07419975;474.43064978;131;126;106;32125.000000;1.000000;1.000000;1.000000;1.000000;-0.120676;0.120676;-0.120676;1.000000
445588.11850174;5696586.13979919;474.41874983;21;21;16;5140.000000;1.000000;1.000000;1.000000;1.000000;-0.195875;0.195875;-0.195875;1.000000
445588.20130165;5696586.25569923;474.43085005;24;15;10;4369.000000;1.000000;1.000000;1.000000;1.000000;-0.116366;0.116366;-0.116366;1.000000
445588.14380081;5696586.43409927;474.41645004;6;1;0;514.000000;1.000000;1.000000;1.000000;1.000000;-0.199832;0.199832;-0.199832;1.000000
445588.12490280;5696586.06569870;474.48805000;14;9;4;2313.000000;1.000000;1.000000;1.000000;1.000000;-0.189474;0.189474;-0.189474;1.000000
445588.30850037;5696586.32609947;474.37594988;84;64;51;17476.000000;1.000000;1.000000;1.000000;1.000000;0.007053;-0.007053;0.007053;1.000000
445588.20160110;5696586.20899971;474.43034985;22;15;10;4112.000000;1.000000;1.000000;1.000000;1.000000;-0.112776;0.112776;-0.112776;1.000000
445588.29690178;5696586.14889915;474.42224981;130;112;83;29298.000000;1.000000;1.000000;1.000000;1.000000;-0.017475;0.017475;-0.017475;1.000000
445588.26450165;5696586.03629883;474.49405005;138;134;109;33924.000000;1.000000;1.000000;1.000000;1.000000;-0.049875;0.049875;-0.049875;1.000000
445588.16720016;5696586.15189941;474.40014984;48;43;37;11051.000000;1.000000;1.000000;1.000000;1.000000;-0.147177;0.147177;-0.147177;1.000000
445588.20700272;5696586.40669830;474.30244972;88;85;73;21588.000000;1.000000;1.000000;1.000000;1.000000;-0.131954;0.131954;-0.131954;1.000000
445588.21230133;5696586.42599876;474.38215019;143;122;103;32382.000000;1.000000;1.000000;1.000000;1.000000;-0.140126;0.140126;-0.140126;1.000000
445588.31550034;5696586.40019997;474.37484982;48;31;17;8738.000000;1.000000;1.000000;1.000000;1.000000;-0.070200;0.070200;-0.070200;1.000000
445588.21550186;5696586.07169922;474.46194984;75;70;57;17990.000000;1.000000;1.000000;1.000000;1.000000;-0.098875;0.098875;-0.098875;1.000000
445588.18190201;5696586.04869850;474.48574974;52;48;31;12079.000000;1.000000;1.000000;1.000000;1.000000;-0.132475;0.132475;-0.132475;1.000000
445588.18030174;5696586.08919914;474.44885017;53;49;32;12336.000000;1.000000;1.000000;1.000000;1.000000;-0.134075;0.134075;-0.134075;1.000000
445588.31710251;5696586.12339981;474.43914988;134;136;107;33924.000000;1.000000;1.000000;1.000000;1.000000;0.002726;-0.002726;0.002726;1.000000
445588.18710144;5696586.39289864;474.40625002;78;66;50;17219.000000;1.000000;1.000000;1.000000;1.000000;-0.141969;0.141969;-0.141969;1.000000
445588.32130249;5696585.97409828;474.40035011;119;104;83;27242.000000;1.000000;1.000000;1.000000;1.000000;0.006926;-0.006926;0.006926;1.000000
445588.31870087;5696586.08289917;474.47604992;192;188;161;47802.000000;1.000000;1.000000;1.000000;1.000000;0.004324;-0.004324;0.004324;1.000000
445588.29370125;5696586.49549873;474.38194992;70;52;39;14135.000000;1.000000;1.000000;1.000000;1.000000;-0.166785;0.166785;-0.166785;1.000000
445588.27280243;5696586.52539833;474.38835003;49;37;29;10023.000000;1.000000;1.000000;1.000000;1.000000;-0.199772;0.199772;-0.199772;1.000000
445588.25770195;5696586.15479858;474.42285015;56;42;29;11308.000000;1.000000;1.000000;1.000000;1.000000;-0.056675;0.056675;-0.056675;1.000000
445588.29790123;5696586.15819939;474.42005016;98;82;58;21588.000000;1.000000;1.000000;1.000000;1.000000;-0.016476;0.016476;-0.016476;1.000000
445588.23460205;5696586.46139915;474.37655022;27;8;7;3341.000000;1.000000;1.000000;1.000000;1.000000;-0.153720;0.153720;-0.153720;1.000000
445588.34880264;5696586.46009834;474.38174965;141;116;89;30840.000000;1.000000;1.000000;1.000000;1.000000;-0.130098;0.130098;-0.130098;1.000000
445588.36750229;5696586.46059998;474.38254978;133;107;78;28527.000000;1.000000;1.000000;1.000000;1.000000;-0.130600;0.130600;-0.130600;1.000000
445588.24550064;5696586.27739914;474.42845013;55;39;28;10794.000000;1.000000;1.000000;1.000000;1.000000;-0.084656;0.084656;-0.084656;1.000000
445588.16120155;5696586.42329987;474.26335003;46;39;30;10280.000000;1.000000;1.000000;1.000000;1.000000;-0.179353;0.179353;-0.179353;1.000000
445588.20100220;5696586.22999962;474.43524982;30;21;18;5911.000000;1.000000;1.000000;1.000000;1.000000;-0.113387;0.113387;-0.113387;1.000000
445588.31710251;5696586.31829842;474.37624981;108;91;81;24415.000000;1.000000;1.000000;1.000000;1.000000;0.011702;-0.011702;0.011702;1.000000
445588.29910095;5696586.05639847;474.49344971;128;118;88;30069.000000;1.000000;1.000000;1.000000;1.000000;-0.015276;0.015276;-0.015276;1.000000
445588.14380081;5696586.43409927;474.41645004;7;1;0;514.000000;1.000000;1.000000;1.000000;1.000000;-0.199832;0.199832;-0.199832;1.000000
445588.16820152;5696586.26619919;474.40854980;22;14;11;4112.000000;1.000000;1.000000;1.000000;1.000000;-0.151140;0.151140;-0.151140;1.000000
445588.21230133;5696586.14279945;474.41834976;45;36;27;9509.000000;1.000000;1.000000;1.000000;1.000000;-0.102076;0.102076;-0.102076;1.000000
445588.21450241;5696586.06779869;474.42224981;107;104;89;26471.000000;1.000000;1.000000;1.000000;1.000000;-0.099874;0.099874;-0.099874;1.000000
445588.29140289;5696586.11129959;474.46814968;107;102;68;25443.000000;1.000000;1.000000;1.000000;1.000000;-0.022974;0.022974;-0.022974;1.000000
445588.15990265;5696586.09799965;474.45274975;45;40;23;10023.000000;1.000000;1.000000;1.000000;1.000000;-0.154474;0.154474;-0.154474;1.000000
445588.18570145;5696586.40159996;474.45755007;29;22;16;5911.000000;1.000000;1.000000;1.000000;1.000000;-0.147255;0.147255;-0.147255;1.000000
445588.21590240;5696586.10429962;474.46694996;42;36;22;9252.000000;1.000000;1.000000;1.000000;1.000000;-0.098475;0.098475;-0.098475;1.000000
445588.16900070;5696586.11379822;474.43704988;35;30;20;7710.000000;1.000000;1.000000;1.000000;1.000000;-0.145376;0.145376;-0.145376;1.000000
445588.12660034;5696586.22629936;474.36654999;19;12;8;3341.000000;1.000000;1.000000;1.000000;1.000000;-0.187777;0.187777;-0.187777;1.000000
445588.13860138;5696586.13089951;474.42184975;118;118;106;29812.000000;1.000000;1.000000;1.000000;1.000000;-0.175776;0.175776;-0.175776;1.000000
445588.25140198;5696586.13900002;474.42474987;66;56;41;14649.000000;1.000000;1.000000;1.000000;1.000000;-0.062975;0.062975;-0.062975;1.000000
445588.31270035;5696586.07399948;474.48735001;184;178;150;45232.000000;1.000000;1.000000;1.000000;1.000000;-0.001677;0.001677;-0.001677;1.000000
445588.18470200;5696586.39539917;474.41314985;50;35;28;9766.000000;1.000000;1.000000;1.000000;1.000000;-0.145233;0.145233;-0.145233;1.000000
445588.25220116;5696586.14599998;474.42254974;51;38;27;10280.000000;1.000000;1.000000;1.000000;1.000000;-0.062176;0.062176;-0.062176;1.000000
445588.21440132;5696586.40989883;474.35414984;66;47;37;13107.000000;1.000000;1.000000;1.000000;1.000000;-0.127980;0.127980;-0.127980;1.000000
445588.27500160;5696586.42779930;474.34305002;13;9;1;2313.000000;1.000000;1.000000;1.000000;1.000000;-0.105428;0.105428;-0.105428;1.000000
445588.12250145;5696586.33629997;474.37465002;32;21;12;5911.000000;1.000000;1.000000;1.000000;1.000000;-0.191979;0.191979;-0.191979;1.000000
