//X;Y;Z;R;G;B;Intensity;Return Number;Number Of Returns;Scan Direction Flag;Point Source ID;C2M signed distances[-][<0.8];C2M signed distances[<0.4];C2M signed distances[-][<0.2];Stump76
445632.11540039;5696597.80570038;472.19474985;39;45;53;11308.000000;1.000000;1.000000;1.000000;1.000000;-0.056514;0.056514;-0.056514;1.000000
445632.18780334;5696597.84459885;472.11924984;20;22;21;5397.000000;1.000000;1.000000;1.000000;1.000000;0.124287;-0.124287;0.124287;1.000000
445632.17200287;5696597.69280060;472.20994999;60;61;60;15420.000000;1.000000;1.000000;1.000000;1.000000;-0.174376;0.174376;-0.174376;1.000000
445632.06380280;5696597.87599762;472.18855001;78;83;81;20817.000000;1.000000;1.000000;1.000000;1.000000;0.045998;-0.045998;0.045998;1.000000
445632.02810104;5696597.83669861;472.22604992;53;59;63;14649.000000;1.000000;1.000000;1.000000;1.000000;0.006699;-0.006699;0.006699;1.000000
445632.17740067;5696597.88289841;472.11924984;33;36;37;8995.000000;1.000000;1.000000;1.000000;1.000000;0.124790;-0.124790;0.124790;1.000000
445632.03130157;5696597.76560028;472.26734974;60;66;74;16705.000000;1.000000;1.000000;1.000000;1.000000;-0.064400;0.064400;-0.064400;1.000000
445632.06880005;5696597.76460083;472.26434996;70;77;83;19275.000000;1.000000;1.000000;1.000000;1.000000;-0.065549;0.065549;-0.065549;1.000000
445632.14290054;5696597.80610092;472.15634968;19;22;27;5397.000000;1.000000;1.000000;1.000000;1.000000;-0.082080;0.082080;-0.082080;1.000000
445632.13480194;5696597.77099808;472.21145012;18;22;27;5397.000000;1.000000;1.000000;1.000000;1.000000;-0.091874;0.091874;-0.091874;1.000000
445632.06330307;5696597.91369827;472.17504980;37;35;29;8738.000000;1.000000;1.000000;1.000000;1.000000;0.083698;-0.083698;0.083698;1.000000
445632.13900192;5696597.88149841;472.13845016;12;15;16;3598.000000;1.000000;1.000000;1.000000;1.000000;0.090670;-0.090670;0.090670;1.000000
445632.17720230;5696597.69779785;472.15665009;38;39;38;9766.000000;1.000000;1.000000;1.000000;1.000000;-0.173802;0.173802;-0.173802;1.000000
445632.07260330;5696597.84939774;472.19794991;64;71;76;17733.000000;1.000000;1.000000;1.000000;1.000000;0.021070;-0.021070;0.021070;1.000000
445632.11410339;5696597.85299881;472.16494991;76;82;88;20560.000000;1.000000;1.000000;1.000000;1.000000;0.054787;-0.054787;0.054787;1.000000
445632.06820114;5696597.85209854;472.19775011;75;81;84;20303.000000;1.000000;1.000000;1.000000;1.000000;0.022427;-0.022427;0.022427;1.000000
445632.13800247;5696597.85109909;472.14965012;19;24;29;5911.000000;1.000000;1.000000;1.000000;1.000000;0.076589;-0.076589;0.076589;1.000000
445632.03210266;5696597.77260025;472.26504995;62;68;77;17219.000000;1.000000;1.000000;1.000000;1.000000;-0.057400;0.057400;-0.057400;1.000000
445632.14150055;5696597.81559952;472.15404989;20;23;27;5654.000000;1.000000;1.000000;1.000000;1.000000;-0.078457;0.078457;-0.078457;1.000000
445632.10640152;5696597.77559860;472.22884991;51;58;66;14392.000000;1.000000;1.000000;1.000000;1.000000;-0.068743;0.068743;-0.068743;1.000000
445632.13430222;5696598.00129898;472.12804987;44;41;30;10280.000000;1.000000;1.000000;1.000000;1.000000;0.185021;0.185021;-0.185021;1.000000
445632.03780182;5696597.96199997;472.21864988;18;28;25;6168.000000;1.000000;1.000000;1.000000;1.000000;-0.132000;0.132000;-0.132000;1.000000
445632.12870224;5696597.89879807;472.14284994;47;50;51;12593.000000;1.000000;1.000000;1.000000;1.000000;0.094186;-0.094186;0.094186;1.000000
445632.13450058;5696597.86310013;472.14965012;22;26;30;6425.000000;1.000000;1.000000;1.000000;1.000000;0.077543;-0.077543;0.077543;1.000000
445632.10090073;5696597.78800018;472.22174980;56;63;71;15677.000000;1.000000;1.000000;1.000000;1.000000;-0.055659;0.055659;-0.055659;1.000000
445632.10040100;5696597.74999817;472.25855019;61;69;78;17219.000000;1.000000;1.000000;1.000000;1.000000;-0.087738;0.087738;-0.087738;1.000000
445632.16110046;5696597.77189835;472.14744999;22;26;31;6425.000000;1.000000;1.000000;1.000000;1.000000;-0.112833;0.112833;-0.112833;1.000000
445632.12680252;5696597.73129852;472.25724985;35;41;48;10023.000000;1.000000;1.000000;1.000000;1.000000;-0.116786;0.116786;-0.116786;1.000000
445632.08500107;5696598.02680023;472.13304998;59;59;52;14906.000000;1.000000;1.000000;1.000000;1.000000;0.197878;0.197878;-0.197878;1.000000
445632.12600143;5696597.99029739;472.13455011;66;65;47;16191.000000;1.000000;1.000000;1.000000;1.000000;0.171735;0.171735;-0.171735;1.000000
445632.18250092;5696597.75569733;472.15754988;19;23;22;5397.000000;1.000000;1.000000;1.000000;1.000000;-0.139550;0.139550;-0.139550;1.000000
445632.15250214;5696597.75399979;472.14454987;14;16;20;3855.000000;1.000000;1.000000;1.000000;1.000000;-0.116370;0.116370;-0.116370;1.000000
445632.05730255;5696598.02709778;472.12715008;113;105;85;26985.000000;1.000000;1.000000;1.000000;1.000000;0.197098;0.197098;-0.197098;1.000000
445632.13580139;5696597.99180038;472.12795021;45;43;31;10794.000000;1.000000;1.000000;1.000000;1.000000;0.176864;0.176864;-0.176864;1.000000
445632.09910019;5696597.91519745;472.16034986;48;48;47;12079.000000;1.000000;1.000000;1.000000;1.000000;0.092002;-0.092002;0.092002;1.000000
445632.06630142;5696597.80029877;472.23665001;69;75;82;18761.000000;1.000000;1.000000;1.000000;1.000000;-0.029764;0.029764;-0.029764;1.000000
445632.10570343;5696597.80649765;472.20365002;49;55;63;13878.000000;1.000000;1.000000;1.000000;1.000000;-0.047542;0.047542;-0.047542;1.000000
445632.17830093;5696597.84539993;472.12585022;24;25;26;6168.000000;1.000000;1.000000;1.000000;1.000000;0.114960;-0.114960;0.114960;1.000000
445632.13550003;5696597.91699799;472.13404991;22;22;21;5397.000000;1.000000;1.000000;1.000000;1.000000;0.112371;-0.112371;0.112371;1.000000
445632.14420135;5696597.77009781;472.20954992;16;20;25;4883.000000;1.000000;1.000000;1.000000;1.000000;-0.099801;0.099801;-0.099801;1.000000
445632.10659988;5696597.72799881;472.28424980;44;51;59;12593.000000;1.000000;1.000000;1.000000;1.000000;-0.110395;0.110395;-0.110395;1.000000
445632.11240204;5696597.88130005;472.15824987;70;77;82;19275.000000;1.000000;1.000000;1.000000;1.000000;0.070272;-0.070272;0.070272;1.000000
445632.07900055;5696597.84179886;472.19584991;61;69;74;17219.000000;1.000000;1.000000;1.000000;1.000000;0.018790;-0.018790;0.018790;1.000000
445632.04310043;5696597.76689728;472.26784994;64;70;77;17476.000000;1.000000;1.000000;1.000000;1.000000;0.063103;-0.063103;0.063103;1.000000
445632.07580002;5696597.76389893;472.26235010;79;87;93;21845.000000;1.000000;1.000000;1.000000;1.000000;-0.067081;0.067081;-0.067081;1.000000
445632.11860092;5696597.91599854;472.14494993;80;81;79;20560.000000;1.000000;1.000000;1.000000;1.000000;0.101666;-0.101666;0.101666;1.000000
445632.11499985;5696597.76779755;472.22914984;41;47;54;11565.000000;1.000000;1.000000;1.000000;1.000000;-0.080199;0.080199;-0.080199;1.000000
445632.09280212;5696597.87829788;472.17124989;78;83;87;20817.000000;1.000000;1.000000;1.000000;1.000000;0.056042;-0.056042;0.056042;1.000000
445632.01720245;5696597.72459991;472.28945019;56;61;69;15420.000000;1.000000;1.000000;1.000000;1.000000;0.105400;-0.105400;0.105400;1.000000
445632.13510330;5696597.80660065;472.17464973;15;20;26;4883.000000;1.000000;1.000000;1.000000;1.000000;-0.074497;0.074497;-0.074497;1.000000
445632.13620193;5696597.71150024;472.26674988;34;40;47;9766.000000;1.000000;1.000000;1.000000;1.000000;-0.138568;0.138568;-0.138568;1.000000
445632.05910309;5696597.78199966;472.25474979;77;84;90;21074.000000;1.000000;1.000000;1.000000;1.000000;-0.048000;0.048000;-0.048000;1.000000
445632.16050156;5696597.83519943;472.13654997;23;25;28;6168.000000;1.000000;1.000000;1.000000;1.000000;0.096265;-0.096265;0.096265;1.000000
445632.14990051;5696597.77669724;472.20055010;7;12;21;2827.000000;1.000000;1.000000;1.000000;1.000000;-0.100774;0.100774;-0.100774;1.000000
445632.09970291;5696597.94330032;472.15374996;29;28;21;6939.000000;1.000000;1.000000;1.000000;1.000000;0.118680;-0.118680;0.118680;1.000000
445632.10540207;5696597.73530014;472.27264978;50;56;65;14135.000000;1.000000;1.000000;1.000000;1.000000;-0.103204;0.103204;-0.103204;1.000000
445632.12720306;5696597.71919830;472.27574970;41;48;54;11822.000000;1.000000;1.000000;1.000000;1.000000;-0.127374;0.127374;-0.127374;1.000000
445632.17329987;5696597.75659760;472.15714981;32;35;30;8481.000000;1.000000;1.000000;1.000000;1.000000;-0.131347;0.131347;-0.131347;1.000000
445632.12440308;5696597.88039978;472.14944984;49;53;58;13364.000000;1.000000;1.000000;1.000000;1.000000;0.078379;-0.078379;0.078379;1.000000
445632.10430344;5696597.81369980;472.19894983;57;64;72;15934.000000;1.000000;1.000000;1.000000;1.000000;-0.043126;0.043126;-0.043126;1.000000
445632.06590088;5696597.81679733;472.22755005;63;69;73;17219.000000;1.000000;1.000000;1.000000;1.000000;-0.013290;0.013290;-0.013290;1.000000
445632.09710129;5696597.81429871;472.20335009;64;71;80;17733.000000;1.000000;1.000000;1.000000;1.000000;-0.036296;0.036296;-0.036296;1.000000
445632.13410004;5696597.81609924;472.16545012;13;18;25;4369.000000;1.000000;1.000000;1.000000;1.000000;-0.071095;0.071095;-0.071095;1.000000
445632.09679993;5696597.77639969;472.23775007;60;67;75;16705.000000;1.000000;1.000000;1.000000;1.000000;-0.062644;0.062644;-0.062644;1.000000
445632.19790085;5696597.82729919;472.11954977;19;20;19;4883.000000;1.000000;1.000000;1.000000;1.000000;-0.133551;0.133551;-0.133551;1.000000
445632.16000183;5696597.78819855;472.15455009;18;21;27;5140.000000;1.000000;1.000000;1.000000;1.000000;-0.104362;0.104362;-0.104362;1.000000
445632.13590057;5696597.77799805;472.20225002;15;19;25;4626.000000;1.000000;1.000000;1.000000;1.000000;-0.088430;0.088430;-0.088430;1.000000
445632.11180313;5696597.71339996;472.29365017;50;56;59;13878.000000;1.000000;1.000000;1.000000;1.000000;-0.125876;0.125876;-0.125876;1.000000
445632.09000214;5696597.72949799;472.29045012;42;50;59;12336.000000;1.000000;1.000000;1.000000;1.000000;-0.103717;0.103717;-0.103717;1.000000
445632.06540115;5696597.86879929;472.19084980;75;81;81;20303.000000;1.000000;1.000000;1.000000;1.000000;0.038813;-0.038813;0.038813;1.000000
445632.02970322;5696597.82950027;472.22835018;45;51;58;12593.000000;1.000000;1.000000;1.000000;1.000000;-0.000500;0.000500;-0.000500;1.000000
445632.17650040;5696597.87369736;472.11905005;35;37;37;9252.000000;1.000000;1.000000;1.000000;1.000000;0.120338;-0.120338;0.120338;1.000000
445632.10170181;5696597.83049973;472.18744995;67;74;82;18504.000000;1.000000;1.000000;1.000000;1.000000;0.037328;-0.037328;0.037328;1.000000
445632.07030304;5696597.75739868;472.26664974;58;64;72;16191.000000;1.000000;1.000000;1.000000;1.000000;-0.072843;0.072843;-0.072843;1.000000
445632.05370148;5696597.99289902;472.24074986;39;36;31;9252.000000;1.000000;1.000000;1.000000;1.000000;-0.162899;0.162899;-0.162899;1.000000
445632.22470291;5696597.81089981;472.11354973;26;30;25;7196.000000;1.000000;1.000000;1.000000;1.000000;-0.161460;0.161460;-0.161460;1.000000
445632.14990051;5696597.80549820;472.15434982;14;17;23;4112.000000;1.000000;1.000000;1.000000;1.000000;-0.088964;0.088964;-0.088964;1.000000
445632.11690338;5696597.72970016;472.26604988;50;57;64;14135.000000;1.000000;1.000000;1.000000;1.000000;-0.113221;0.113221;-0.113221;1.000000
445632.14370163;5696597.69219788;472.26685001;53;60;64;14906.000000;1.000000;1.000000;1.000000;1.000000;-0.159003;0.159003;-0.159003;1.000000
445632.15979965;5696597.80710037;472.14545013;7;9;13;2056.000000;1.000000;1.000000;1.000000;1.000000;-0.098132;0.098132;-0.098132;1.000000
445632.14760025;5696597.70759781;472.15774967;10;13;21;3084.000000;1.000000;1.000000;1.000000;1.000000;-0.148015;0.148015;-0.148015;1.000000
445632.08699997;5696597.86939819;472.17784979;65;70;75;17733.000000;1.000000;1.000000;1.000000;1.000000;0.045431;-0.045431;0.045431;1.000000
445632.16170319;5696597.79770096;472.13614990;18;20;23;4883.000000;1.000000;1.000000;1.000000;1.000000;-0.102546;0.102546;-0.102546;1.000000
445632.05100067;5696597.79220016;472.24755003;67;73;80;18247.000000;1.000000;1.000000;1.000000;1.000000;0.037800;-0.037800;0.037800;1.000000
445632.12740143;5696597.90830048;472.14055016;52;54;54;13621.000000;1.000000;1.000000;1.000000;1.000000;0.100514;-0.100514;0.100514;1.000000
445632.05820282;5696597.82939728;472.21805002;54;59;65;14906.000000;1.000000;1.000000;1.000000;1.000000;-0.000603;0.000603;-0.000603;1.000000
445632.02250107;5696597.78999908;472.25324966;75;79;86;20046.000000;1.000000;1.000000;1.000000;1.000000;0.040001;-0.040001;0.040001;1.000000
445632.09750183;5696597.83550079;472.18724968;70;77;84;19275.000000;1.000000;1.000000;1.000000;1.000000;0.033579;-0.033579;0.033579;1.000000
445632.13380249;5696597.79719742;472.18384983;15;20;28;4883.000000;1.000000;1.000000;1.000000;1.000000;-0.076785;0.076785;-0.076785;1.000000
445632.16480072;5696597.77350052;472.17324974;19;23;25;5654.000000;1.000000;1.000000;1.000000;1.000000;-0.115226;0.115226;-0.115226;1.000000
445632.09650238;5696597.75739868;472.25614979;63;69;77;17476.000000;1.000000;1.000000;1.000000;1.000000;-0.079391;0.079391;-0.079391;1.000000
445632.22990234;5696597.74489792;472.11994984;30;34;32;8224.000000;1.000000;1.000000;1.000000;1.000000;-0.186121;0.186121;-0.186121;1.000000
445632.24500092;5696597.80200012;472.11205008;42;51;35;11822.000000;1.000000;1.000000;1.000000;1.000000;-0.182781;0.182781;-0.182781;1.000000
445632.15600021;5696597.75860031;472.12844994;27;28;29;6939.000000;1.000000;1.000000;1.000000;1.000000;-0.116158;0.116158;-0.116158;1.000000
445632.14800079;5696597.68569763;472.20874979;12;19;30;4626.000000;1.000000;1.000000;1.000000;1.000000;-0.166782;0.166782;-0.166782;1.000000
445632.05270203;5696597.97229965;472.21945002;17;14;9;3598.000000;1.000000;1.000000;1.000000;1.000000;-0.142300;0.142300;-0.142300;1.000000
445632.14850052;5696597.68499954;472.24834969;39;46;56;11565.000000;1.000000;1.000000;1.000000;1.000000;-0.167636;0.167636;-0.167636;1.000000
445632.15450104;5696597.77179916;472.19144966;14;19;26;4626.000000;1.000000;1.000000;1.000000;1.000000;-0.107283;0.107283;-0.107283;1.000000
445632.14270218;5696597.75250061;472.15334990;5;8;15;1799.000000;1.000000;1.000000;1.000000;1.000000;-0.110186;0.110186;-0.110186;1.000000
445632.13860138;5696597.72739990;472.13894989;13;17;24;4112.000000;1.000000;1.000000;1.000000;1.000000;-0.126634;0.126634;-0.126634;1.000000
445632.03910263;5696597.86870010;472.20365002;56;62;59;15163.000000;1.000000;1.000000;1.000000;1.000000;-0.038700;0.038700;-0.038700;1.000000
445632.15110214;5696597.79599960;472.16124966;18;21;26;5140.000000;1.000000;1.000000;1.000000;1.000000;-0.093152;0.093152;-0.093152;1.000000
445632.07720001;5696597.79220016;472.23705008;69;75;83;19018.000000;1.000000;1.000000;1.000000;1.000000;-0.039916;0.039916;-0.039916;1.000000
445632.11810120;5696597.72239883;472.27535011;49;56;65;13878.000000;1.000000;1.000000;1.000000;1.000000;-0.120268;0.120268;-0.120268;1.000000
445632.15630157;5696597.77229889;472.15194990;22;26;32;6425.000000;1.000000;1.000000;1.000000;1.000000;-0.108534;0.108534;-0.108534;1.000000
445632.15570267;5696597.69280060;472.15555002;8;14;19;3084.000000;1.000000;1.000000;1.000000;1.000000;-0.164815;0.164815;-0.164815;1.000000
445632.22910126;5696597.73570068;472.11984970;28;31;30;7453.000000;1.000000;1.000000;1.000000;1.000000;-0.189806;0.189806;-0.189806;1.000000
445632.14999969;5696597.71499832;472.11835005;28;29;36;7453.000000;1.000000;1.000000;1.000000;1.000000;-0.143376;0.143376;-0.143376;1.000000
445632.22800262;5696597.77319916;472.11784985;21;27;25;6168.000000;1.000000;1.000000;1.000000;1.000000;-0.173204;0.173204;-0.173204;1.000000
445632.19140060;5696597.73219879;472.11805012;28;29;30;7196.000000;1.000000;1.000000;1.000000;1.000000;-0.160312;0.160312;-0.160312;1.000000
445632.17010315;5696597.75969894;472.12904980;17;20;24;4883.000000;1.000000;1.000000;1.000000;1.000000;-0.126966;0.126966;-0.126966;1.000000
445632.14780243;5696597.70310028;472.14374973;27;28;31;7196.000000;1.000000;1.000000;1.000000;1.000000;-0.151866;0.151866;-0.151866;1.000000
445632.19289978;5696597.69700058;472.11544992;15;18;23;4369.000000;1.000000;1.000000;1.000000;1.000000;-0.184951;0.184951;-0.184951;1.000000
445632.15620239;5696597.72849854;472.11415007;25;29;32;7196.000000;1.000000;1.000000;1.000000;1.000000;-0.136874;0.136874;-0.136874;1.000000
445632.17070206;5696597.76349838;472.17805006;15;21;24;4883.000000;1.000000;1.000000;1.000000;1.000000;-0.125409;0.125409;-0.125409;1.000000
445632.11710175;5696597.74869736;472.24764969;44;50;58;12593.000000;1.000000;1.000000;1.000000;1.000000;-0.096902;0.096902;-0.096902;1.000000
445632.14019974;5696597.71179779;472.22965004;46;50;54;12593.000000;1.000000;1.000000;1.000000;1.000000;-0.140431;0.140431;-0.140431;1.000000
445632.04580124;5696597.88469894;472.19014980;71;75;66;18504.000000;1.000000;1.000000;1.000000;1.000000;-0.054699;0.054699;-0.054699;1.000000
445632.23640259;5696597.80990036;472.11175014;34;40;31;9509.000000;1.000000;1.000000;1.000000;1.000000;-0.173196;0.173196;-0.173196;1.000000
445632.12619980;5696597.72209747;472.25015022;47;52;59;13107.000000;1.000000;1.000000;1.000000;1.000000;-0.124358;0.124358;-0.124358;1.000000
445632.06830032;5696597.81439789;472.22065022;53;60;68;14906.000000;1.000000;1.000000;1.000000;1.000000;-0.016088;0.016088;-0.016088;1.000000
445632.16180237;5696597.77129944;472.18244984;15;19;25;4626.000000;1.000000;1.000000;1.000000;1.000000;-0.113743;0.113743;-0.113743;1.000000
445632.14010056;5696597.77519806;472.20715000;10;15;23;3598.000000;1.000000;1.000000;1.000000;1.000000;-0.093474;0.093474;-0.093474;1.000000
445632.11800201;5696597.88789948;472.15154984;66;71;74;17733.000000;1.000000;1.000000;1.000000;1.000000;0.078918;-0.078918;0.078918;1.000000
445632.08230026;5696597.84860046;472.18905022;55;62;68;15420.000000;1.000000;1.000000;1.000000;1.000000;0.025831;-0.025831;0.025831;1.000000
445632.12370117;5696597.85230072;472.15835001;51;56;62;14135.000000;1.000000;1.000000;1.000000;1.000000;0.063377;-0.063377;0.063377;1.000000
445632.05070313;5696597.77089890;472.26354982;76;83;89;20817.000000;1.000000;1.000000;1.000000;1.000000;0.059101;-0.059101;0.059101;1.000000
445632.23590286;5696597.78179749;472.11604979;42;49;42;11822.000000;1.000000;1.000000;1.000000;1.000000;-0.178170;0.178170;-0.178170;1.000000
445632.06660278;5696597.87819870;472.18405010;78;84;82;20817.000000;1.000000;1.000000;1.000000;1.000000;0.048250;-0.048250;0.048250;1.000000
445632.07150085;5696597.76669891;472.25985004;60;67;76;16705.000000;1.000000;1.000000;1.000000;1.000000;-0.063701;0.063701;-0.063701;1.000000
445632.25520142;5696597.81049927;472.11025002;34;44;26;10023.000000;1.000000;1.000000;1.000000;1.000000;-0.191818;0.191818;-0.191818;1.000000
445632.08790024;5696598.01009949;472.13765003;94;93;76;23387.000000;1.000000;1.000000;1.000000;1.000000;0.181629;0.181629;-0.181629;1.000000
445632.17950256;5696597.80789764;472.12544968;10;10;12;2570.000000;1.000000;1.000000;1.000000;1.000000;-0.117228;0.117228;-0.117228;1.000000
445632.12550171;5696598.00900085;472.13234999;47;46;40;11565.000000;1.000000;1.000000;1.000000;1.000000;0.189150;0.189150;-0.189150;1.000000
445632.18290146;5696597.77020081;472.12745001;27;31;31;7453.000000;1.000000;1.000000;1.000000;1.000000;-0.132755;0.132755;-0.132755;1.000000
445632.14560135;5696597.69179733;472.27624990;32;41;45;9766.000000;1.000000;1.000000;1.000000;1.000000;-0.160304;0.160304;-0.160304;1.000000
445632.05550201;5696597.88619812;472.18594982;80;84;77;21074.000000;1.000000;1.000000;1.000000;1.000000;0.056198;-0.056198;0.056198;1.000000
445632.04860123;5696597.84900101;472.21084978;65;72;75;17990.000000;1.000000;1.000000;1.000000;1.000000;-0.019001;0.019001;-0.019001;1.000000
445632.19860275;5696597.77079971;472.14214994;25;30;27;7196.000000;1.000000;1.000000;1.000000;1.000000;-0.146701;0.146701;-0.146701;1.000000
445632.13010223;5696597.70479782;472.28504993;43;51;56;12593.000000;1.000000;1.000000;1.000000;1.000000;-0.141405;0.141405;-0.141405;1.000000
445632.01210220;5696597.72039993;472.28914978;55;60;69;15163.000000;1.000000;1.000000;1.000000;1.000000;0.109600;-0.109600;0.109600;1.000000
445632.16270264;5696597.73959930;472.25425007;12;21;28;4883.000000;1.000000;1.000000;1.000000;1.000000;-0.133567;0.133567;-0.133567;1.000000
445632.13990219;5696597.68749817;472.28994991;39;46;52;11308.000000;1.000000;1.000000;1.000000;1.000000;-0.161279;0.161279;-0.161279;1.000000
445632.06130035;5696597.94190033;472.17294981;71;67;58;17219.000000;1.000000;1.000000;1.000000;1.000000;0.111900;-0.111900;0.111900;1.000000
445632.06410034;5696597.83830078;472.20904972;61;67;73;16705.000000;1.000000;1.000000;1.000000;1.000000;0.008301;-0.008301;0.008301;1.000000
445632.10560043;5696597.84200104;472.17604973;73;79;85;19789.000000;1.000000;1.000000;1.000000;1.000000;0.042935;-0.042935;0.042935;1.000000
445632.03090103;5696597.80109985;472.24674990;75;80;88;20303.000000;1.000000;1.000000;1.000000;1.000000;-0.028900;0.028900;-0.028900;1.000000
445632.10280045;5696597.80200012;472.20804979;53;59;67;14906.000000;1.000000;1.000000;1.000000;1.000000;-0.047543;0.047543;-0.047543;1.000000
445632.13980301;5696597.80620010;472.17254974;11;14;21;3341.000000;1.000000;1.000000;1.000000;1.000000;-0.079092;0.079092;-0.079092;1.000000
445632.04100235;5696597.98919876;472.25645020;100;97;88;24672.000000;1.000000;1.000000;1.000000;1.000000;-0.159199;0.159199;-0.159199;1.000000
445632.13720139;5696597.72170074;472.21105005;40;45;52;11308.000000;1.000000;1.000000;1.000000;1.000000;-0.130507;0.130507;-0.130507;1.000000
445632.16250046;5696597.77820023;472.18254997;12;18;22;4112.000000;1.000000;1.000000;1.000000;1.000000;-0.110957;0.110957;-0.110957;1.000000
445632.13960083;5696597.82499893;472.16344978;5;8;15;1799.000000;1.000000;1.000000;1.000000;1.000000;-0.075390;0.075390;-0.075390;1.000000
445632.04470261;5696597.85639771;472.20844986;75;81;80;20303.000000;1.000000;1.000000;1.000000;1.000000;-0.026398;0.026398;-0.026398;1.000000
445632.12610062;5696597.71219833;472.28494980;41;48;56;11822.000000;1.000000;1.000000;1.000000;1.000000;-0.132993;0.132993;-0.132993;1.000000
445632.03780182;5696597.97789963;472.25145008;27;25;20;6425.000000;1.000000;1.000000;1.000000;1.000000;-0.147900;0.147900;-0.147900;1.000000
445632.15960129;5696597.75939758;472.20785000;9;13;24;3341.000000;1.000000;1.000000;1.000000;1.000000;-0.118543;0.118543;-0.118543;1.000000
445632.04280289;5696597.74559982;472.28385021;68;73;80;18504.000000;1.000000;1.000000;1.000000;1.000000;0.084400;-0.084400;0.084400;1.000000
445632.13980301;5696597.71470078;472.19245007;19;25;33;6168.000000;1.000000;1.000000;1.000000;1.000000;-0.137779;0.137779;-0.137779;1.000000
445632.16330154;5696597.68779953;472.13254978;14;16;20;3855.000000;1.000000;1.000000;1.000000;1.000000;-0.173225;0.173225;-0.173225;1.000000
445632.16069992;5696597.76050003;472.13334991;13;16;22;3855.000000;1.000000;1.000000;1.000000;1.000000;-0.118779;0.118779;-0.118779;1.000000
445632.08180054;5696597.93309982;472.16674997;27;24;21;6168.000000;1.000000;1.000000;1.000000;1.000000;0.104562;-0.104562;0.104562;1.000000
445632.04770096;5696597.86089905;472.20394995;75;82;80;20303.000000;1.000000;1.000000;1.000000;1.000000;-0.030899;0.030899;-0.030899;1.000000
445632.05410202;5696597.85560043;472.20655014;77;84;85;21074.000000;1.000000;1.000000;1.000000;1.000000;-0.025600;0.025600;-0.025600;1.000000
445632.16900070;5696597.82509811;472.13444998;15;17;20;4112.000000;1.000000;1.000000;1.000000;1.000000;-0.104739;0.104739;-0.104739;1.000000
445632.12930115;5696597.78549774;472.20904972;14;18;27;4369.000000;1.000000;1.000000;1.000000;1.000000;-0.078712;0.078712;-0.078712;1.000000
445632.19930084;5696597.81780060;472.12174990;21;22;21;5397.000000;1.000000;1.000000;1.000000;1.000000;-0.135474;0.135474;-0.135474;1.000000
445632.12920197;5696597.92679794;472.13854982;53;53;50;13364.000000;1.000000;1.000000;1.000000;1.000000;0.116499;-0.116499;0.116499;1.000000
445632.16069992;5696597.81629761;472.14564993;6;8;13;1799.000000;1.000000;1.000000;1.000000;1.000000;-0.097293;0.097293;-0.097293;1.000000
445632.04230316;5696597.98129852;472.15625002;69;61;50;15934.000000;1.000000;1.000000;1.000000;1.000000;-0.151299;0.151299;-0.151299;1.000000
445632.08710297;5696597.79379852;472.22825005;69;75;83;19018.000000;1.000000;1.000000;1.000000;1.000000;-0.042744;0.042744;-0.042744;1.000000
445632.13160141;5696597.75060089;472.18785002;5;12;19;2570.000000;1.000000;1.000000;1.000000;1.000000;-0.104035;0.104035;-0.104035;1.000000
445632.21980103;5696597.73649796;472.11945011;26;31;28;7453.000000;1.000000;1.000000;1.000000;1.000000;-0.181382;0.181382;-0.181382;1.000000
445632.15320023;5696598.00189789;472.12424995;25;23;19;5911.000000;1.000000;1.000000;1.000000;1.000000;0.193490;0.193490;-0.193490;1.000000
445632.04980286;5696597.82060059;472.22914984;47;54;61;13364.000000;1.000000;1.000000;1.000000;1.000000;0.009399;-0.009399;0.009399;1.000000
445632.08090027;5696597.92379959;472.16664984;21;19;17;4883.000000;1.000000;1.000000;1.000000;1.000000;0.095244;-0.095244;0.095244;1.000000
445632.14940079;5696597.69280060;472.19255020;9;13;19;3084.000000;1.000000;1.000000;1.000000;1.000000;-0.161409;0.161409;-0.161409;1.000000
445632.16870316;5696597.69190033;472.28195002;8;14;15;3084.000000;1.000000;1.000000;1.000000;1.000000;-0.173077;0.173077;-0.173077;1.000000
445632.09440048;5696597.81209763;472.20785000;63;70;78;17476.000000;1.000000;1.000000;1.000000;1.000000;-0.034956;0.034956;-0.034956;1.000000
445632.21860321;5696597.77400024;472.11984970;21;26;26;6168.000000;1.000000;1.000000;1.000000;1.000000;-0.164078;0.164078;-0.164078;1.000000
445632.09570129;5696597.73609741;472.28154995;48;54;62;13621.000000;1.000000;1.000000;1.000000;1.000000;-0.098989;0.098989;-0.098989;1.000000
445632.14770325;5696597.69240006;472.22975018;20;26;35;6425.000000;1.000000;1.000000;1.000000;1.000000;-0.160863;0.160863;-0.160863;1.000000
445632.19740112;5696597.79929932;472.12384989;11;14;14;3341.000000;1.000000;1.000000;1.000000;1.000000;-0.136521;0.136521;-0.136521;1.000000
445632.20890244;5696597.77249725;472.12404968;19;23;24;5397.000000;1.000000;1.000000;1.000000;1.000000;-0.155545;0.155545;-0.155545;1.000000
445632.04310043;5696597.96710022;472.16305019;89;85;70;21588.000000;1.000000;1.000000;1.000000;1.000000;-0.137100;0.137100;-0.137100;1.000000
445632.05300339;5696597.98369797;472.23824980;34;31;26;7967.000000;1.000000;1.000000;1.000000;1.000000;-0.153698;0.153698;-0.153698;1.000000
445632.08540161;5696597.89769943;472.16884996;76;79;78;19789.000000;1.000000;1.000000;1.000000;1.000000;0.070889;-0.070889;0.070889;1.000000
445632.08640106;5696597.82459839;472.20295002;64;71;79;17733.000000;1.000000;1.000000;1.000000;1.000000;-0.022677;0.022677;-0.022677;1.000000
445632.06850250;5696598.02589996;472.13464977;69;66;55;16705.000000;1.000000;1.000000;1.000000;1.000000;0.195943;0.195943;-0.195943;1.000000
445632.04910095;5696597.81360062;472.23145010;39;46;55;11308.000000;1.000000;1.000000;1.000000;1.000000;0.016399;-0.016399;0.016399;1.000000
445632.07280167;5696597.91509827;472.17315008;34;33;29;8224.000000;1.000000;1.000000;1.000000;1.000000;0.085514;-0.085514;0.085514;1.000000
445632.14850052;5696597.88069733;472.13425018;12;16;19;3855.000000;1.000000;1.000000;1.000000;1.000000;0.098219;-0.098219;0.098219;1.000000
445632.14240082;5696598.01219757;472.12614967;38;35;30;8995.000000;1.000000;1.000000;1.000000;1.000000;0.198201;0.198201;-0.198201;1.000000
445632.14350327;5696597.77979858;472.19334986;13;17;24;4112.000000;1.000000;1.000000;1.000000;1.000000;-0.093708;0.093708;-0.093708;1.000000
445632.18290146;5696597.71209915;472.11044981;39;40;37;10023.000000;1.000000;1.000000;1.000000;1.000000;-0.167179;0.167179;-0.167179;1.000000
445632.13540085;5696597.75979813;472.17415001;4;6;14;1542.000000;1.000000;1.000000;1.000000;1.000000;-0.099863;0.099863;-0.099863;1.000000
445632.06280334;5696597.93239792;472.17285015;62;58;50;14906.000000;1.000000;1.000000;1.000000;1.000000;0.102398;-0.102398;0.102398;1.000000
445632.12530334;5696597.74069794;472.25724985;25;30;40;7453.000000;1.000000;1.000000;1.000000;1.000000;-0.108106;0.108106;-0.108106;1.000000
445632.13340195;5696597.76159866;472.22295000;12;17;22;4112.000000;1.000000;1.000000;1.000000;1.000000;-0.097176;0.097176;-0.097176;1.000000
445632.10120209;5696597.72369965;472.29094984;44;50;59;12593.000000;1.000000;1.000000;1.000000;1.000000;-0.112498;0.112498;-0.112498;1.000000
445632.17210205;5696597.75939758;472.13614990;17;18;24;4626.000000;1.000000;1.000000;1.000000;1.000000;-0.128800;0.128800;-0.128800;1.000000
445632.07209976;5696597.95269974;472.16424992;42;38;28;9766.000000;1.000000;1.000000;1.000000;1.000000;0.122943;-0.122943;0.122943;1.000000
445632.18449982;5696597.73279770;472.11774971;28;29;29;7196.000000;1.000000;1.000000;1.000000;1.000000;-0.154524;0.154524;-0.154524;1.000000
445632.05030258;5696597.78520020;472.24974968;53;58;67;14649.000000;1.000000;1.000000;1.000000;1.000000;0.044800;-0.044800;0.044800;1.000000
445632.17200287;5696597.69280060;472.20994999;60;61;60;15420.000000;1.000000;1.000000;1.000000;1.000000;-0.174376;0.174376;-0.174376;1.000000
445632.02860077;5696597.86020096;472.21245005;57;64;63;15677.000000;1.000000;1.000000;1.000000;1.000000;0.030201;-0.030201;0.030201;1.000000
445632.04969986;5696598.00419815;472.14284994;79;76;60;19275.000000;1.000000;1.000000;1.000000;1.000000;-0.174198;0.174198;-0.174198;1.000000
445632.12830170;5696597.73929794;472.18514969;47;53;57;13107.000000;1.000000;1.000000;1.000000;1.000000;-0.110965;0.110965;-0.110965;1.000000
445632.09250076;5696597.94389923;472.15805008;28;26;18;6425.000000;1.000000;1.000000;1.000000;1.000000;0.117320;-0.117320;0.117320;1.000000
445632.04840286;5696597.82779892;472.22454979;56;61;65;15163.000000;1.000000;1.000000;1.000000;1.000000;0.002201;-0.002201;0.002201;1.000000
445632.12780197;5696597.72170074;472.26644995;43;50;56;12336.000000;1.000000;1.000000;1.000000;1.000000;-0.125505;0.125505;-0.125505;1.000000
445632.16590317;5696597.86289795;472.12544968;32;35;36;8738.000000;1.000000;1.000000;1.000000;1.000000;0.106723;-0.106723;0.106723;1.000000
445632.13250168;5696597.82329758;472.16305019;12;18;25;4112.000000;1.000000;1.000000;1.000000;1.000000;-0.068454;0.068454;-0.068454;1.000000
445632.14290054;5696597.77739914;472.20025017;13;17;23;4112.000000;1.000000;1.000000;1.000000;1.000000;-0.094514;0.094514;-0.094514;1.000000
445632.09050186;5696597.81949814;472.20545008;73;80;88;20046.000000;1.000000;1.000000;1.000000;1.000000;-0.028157;0.028157;-0.028157;1.000000
445632.14380081;5696597.73309906;472.19284966;9;12;20;2827.000000;1.000000;1.000000;1.000000;1.000000;-0.125291;0.125291;-0.125291;1.000000
445632.04070099;5696597.98459824;472.25404980;87;84;76;21588.000000;1.000000;1.000000;1.000000;1.000000;-0.154598;0.154598;-0.154598;1.000000
445632.18589981;5696597.69769867;472.11744978;36;38;40;9509.000000;1.000000;1.000000;1.000000;1.000000;-0.179643;0.179643;-0.179643;1.000000
445632.13930328;5696597.75020035;472.17184975;12;13;19;3341.000000;1.000000;1.000000;1.000000;1.000000;-0.109462;0.109462;-0.109462;1.000000
445632.17170151;5696597.75250061;472.13145020;25;25;25;6425.000000;1.000000;1.000000;1.000000;1.000000;-0.132381;0.132381;-0.132381;1.000000
445632.12570007;5696597.74080093;472.24795010;29;35;42;8481.000000;1.000000;1.000000;1.000000;1.000000;-0.108245;0.108245;-0.108245;1.000000
445632.14360245;5696597.76549728;472.21184971;22;25;26;6168.000000;1.000000;1.000000;1.000000;1.000000;-0.102163;0.102163;-0.102163;1.000000
445632.05310257;5696597.86519821;472.19724991;83;88;84;22102.000000;1.000000;1.000000;1.000000;1.000000;-0.035198;0.035198;-0.035198;1.000000
445632.11090286;5696597.93540009;472.14715006;35;34;27;8481.000000;1.000000;1.000000;1.000000;1.000000;0.115212;-0.115212;0.115212;1.000000
445632.13100250;5696597.79500015;472.19065001;17;22;30;5397.000000;1.000000;1.000000;1.000000;1.000000;-0.075259;0.075259;-0.075259;1.000000
445632.08839996;5696597.76759918;472.24895002;66;73;81;18247.000000;1.000000;1.000000;1.000000;1.000000;-0.066865;0.066865;-0.066865;1.000000
445632.12520035;5696597.76949890;472.21334984;21;27;33;6425.000000;1.000000;1.000000;1.000000;1.000000;-0.085790;0.085790;-0.085790;1.000000
445632.01519974;5696597.72709854;472.28704979;58;63;70;15934.000000;1.000000;1.000000;1.000000;1.000000;0.102901;-0.102901;0.102901;1.000000
445632.06100281;5696597.75819977;472.26854994;43;50;58;12336.000000;1.000000;1.000000;1.000000;1.000000;-0.071800;0.071800;-0.071800;1.000000
445632.09580048;5696597.75269897;472.26305010;63;69;78;17476.000000;1.000000;1.000000;1.000000;1.000000;-0.083444;0.083444;-0.083444;1.000000
445632.09230240;5696597.74360092;472.26975014;43;51;61;12593.000000;1.000000;1.000000;1.000000;1.000000;-0.090800;0.090800;-0.090800;1.000000
445632.14410217;5696597.78219803;472.18405010;14;18;23;4369.000000;1.000000;1.000000;1.000000;1.000000;-0.092958;0.092958;-0.092958;1.000000
445632.12090118;5696597.87119873;472.15614988;53;60;65;14906.000000;1.000000;1.000000;1.000000;1.000000;0.069945;-0.069945;0.069945;1.000000
445632.08760269;5696597.83399780;472.19614985;61;68;75;16962.000000;1.000000;1.000000;1.000000;1.000000;0.023567;-0.023567;0.023567;1.000000
445632.10190018;5696597.91739853;472.15584995;48;49;47;12336.000000;1.000000;1.000000;1.000000;1.000000;0.095113;-0.095113;0.095113;1.000000
445632.12410172;5696597.79789932;472.19264986;34;39;46;9766.000000;1.000000;1.000000;1.000000;1.000000;-0.067805;0.067805;-0.067805;1.000000
445632.08660324;5696597.75589951;472.26504995;60;66;75;16705.000000;1.000000;1.000000;1.000000;1.000000;-0.077362;0.077362;-0.077362;1.000000
445632.12600143;5696597.75979813;472.22954990;19;25;32;5911.000000;1.000000;1.000000;1.000000;1.000000;-0.093412;0.093412;-0.093412;1.000000
445632.06940277;5696597.80480011;472.22984983;52;59;68;14649.000000;1.000000;1.000000;1.000000;1.000000;-0.025696;0.025696;-0.025696;1.000000
445632.07610138;5696597.82069977;472.21645023;52;59;66;14649.000000;1.000000;1.000000;1.000000;1.000000;-0.014965;0.014965;-0.014965;1.000000
445632.14620026;5696597.85980042;472.14085009;19;24;28;5654.000000;1.000000;1.000000;1.000000;1.000000;0.087081;-0.087081;0.087081;1.000000
445632.11280258;5696597.82250031;472.18314983;47;54;62;13364.000000;1.000000;1.000000;1.000000;1.000000;-0.049003;0.049003;-0.049003;1.000000
445632.02370270;5696597.72149857;472.29435017;32;36;45;8995.000000;1.000000;1.000000;1.000000;1.000000;0.108501;-0.108501;0.108501;1.000000
445632.09630020;5696597.99999817;472.13794996;93;92;73;23130.000000;1.000000;1.000000;1.000000;1.000000;0.172970;0.172970;-0.172970;1.000000
445632.14439972;5696597.77329834;472.15835001;16;19;28;4883.000000;1.000000;1.000000;1.000000;1.000000;-0.098075;0.098075;-0.098075;1.000000
445632.14360245;5696597.73829849;472.15555002;19;23;28;5654.000000;1.000000;1.000000;1.000000;1.000000;-0.121185;0.121185;-0.121185;1.000000
445632.06920059;5696598.00950058;472.13684990;90;85;64;21588.000000;1.000000;1.000000;1.000000;1.000000;0.179565;0.179565;-0.179565;1.000000
445632.14570053;5696597.89969833;472.13194992;11;14;16;3341.000000;1.000000;1.000000;1.000000;1.000000;0.107105;-0.107105;0.107105;1.000000
445632.14450272;5696597.79899796;472.15634968;21;24;30;5911.000000;1.000000;1.000000;1.000000;1.000000;-0.085914;0.085914;-0.085914;1.000000
445632.07080276;5696597.79749878;472.23455002;50;58;68;14392.000000;1.000000;1.000000;1.000000;1.000000;-0.033130;0.033130;-0.033130;1.000000
445632.16080292;5696597.79749878;472.15474989;10;13;18;3084.000000;1.000000;1.000000;1.000000;1.000000;-0.101756;0.101756;-0.101756;1.000000
445632.10610016;5696597.93580063;472.15154984;27;26;19;6425.000000;1.000000;1.000000;1.000000;1.000000;0.113730;-0.113730;0.113730;1.000000
445632.03500183;5696597.89499863;472.19214966;63;65;53;16191.000000;1.000000;1.000000;1.000000;1.000000;-0.064999;0.064999;-0.064999;1.000000
445632.12350281;5696597.73060043;472.17084982;78;83;85;20817.000000;1.000000;1.000000;1.000000;1.000000;-0.115655;0.115655;-0.115655;1.000000
445632.13980301;5696597.88849838;472.13625004;11;14;16;3341.000000;1.000000;1.000000;1.000000;1.000000;0.095452;-0.095452;0.095452;1.000000
445632.14420135;5696597.74080093;472.14634993;7;10;16;2313.000000;1.000000;1.000000;1.000000;1.000000;-0.119701;0.119701;-0.119701;1.000000
445632.06250198;5696597.95129974;472.16615011;72;67;51;16962.000000;1.000000;1.000000;1.000000;1.000000;0.121300;-0.121300;0.121300;1.000000
445632.15890320;5696597.70249756;472.26294996;3;12;17;2313.000000;1.000000;1.000000;1.000000;1.000000;-0.158720;0.158720;-0.158720;1.000000
445632.23930176;5696597.74410065;472.11805012;36;40;37;9766.000000;1.000000;1.000000;1.000000;1.000000;-0.194878;0.194878;-0.194878;1.000000
445632.17040070;5696597.76339920;472.18274977;9;16;21;3598.000000;1.000000;1.000000;1.000000;1.000000;-0.125207;0.125207;-0.125207;1.000000
445632.06150253;5696597.72509964;472.29145004;44;48;55;12079.000000;1.000000;1.000000;1.000000;1.000000;-0.104900;0.104900;-0.104900;1.000000
445632.10260208;5696597.87980087;472.16475012;68;74;78;18504.000000;1.000000;1.000000;1.000000;1.000000;0.062780;-0.062780;0.062780;1.000000
445632.06710251;5696597.84279831;472.20225002;61;68;74;16962.000000;1.000000;1.000000;1.000000;1.000000;0.013085;-0.013085;0.013085;1.000000
445632.13640030;5696597.92619904;472.13425018;25;25;22;6168.000000;1.000000;1.000000;1.000000;1.000000;0.120173;-0.120173;0.120173;1.000000
445632.03300293;5696597.76069839;472.27194979;89;93;100;23644.000000;1.000000;1.000000;1.000000;1.000000;-0.069302;0.069302;-0.069302;1.000000
445632.14260300;5696597.80610092;472.16335012;17;20;25;4883.000000;1.000000;1.000000;1.000000;1.000000;-0.081795;0.081795;-0.081795;1.000000
445632.05340012;5696597.93329819;472.17474987;41;37;27;9509.000000;1.000000;1.000000;1.000000;1.000000;-0.103298;0.103298;-0.103298;1.000000
445632.17720230;5696597.69779785;472.15665009;38;38;38;9766.000000;1.000000;1.000000;1.000000;1.000000;-0.173802;0.173802;-0.173802;1.000000
445632.20730026;5696597.82649811;472.11754992;20;22;19;5397.000000;1.000000;1.000000;1.000000;1.000000;-0.142966;0.142966;-0.142966;1.000000
445632.14050110;5696597.71949966;472.18555023;19;25;32;5911.000000;1.000000;1.000000;1.000000;1.000000;-0.134184;0.134184;-0.134184;1.000000
445632.24730118;5696597.75499924;472.11854984;32;37;32;8738.000000;1.000000;1.000000;1.000000;1.000000;-0.197703;0.197703;-0.197703;1.000000
445632.13450058;5696597.75200089;472.23224976;15;20;27;4883.000000;1.000000;1.000000;1.000000;1.000000;-0.104887;0.104887;-0.104887;1.000000
445632.23540314;5696597.80060013;472.11385014;49;56;47;13364.000000;1.000000;1.000000;1.000000;1.000000;-0.173535;0.173535;-0.173535;1.000000
445632.17240341;5696597.72469910;472.11014988;25;28;27;6682.000000;1.000000;1.000000;1.000000;1.000000;-0.150858;0.150858;-0.150858;1.000000
445632.13690002;5696597.72159775;472.21794989;39;44;49;11051.000000;1.000000;1.000000;1.000000;1.000000;-0.130425;0.130425;-0.130425;1.000000
445632.16069992;5696597.76420029;472.19395020;19;23;26;5654.000000;1.000000;1.000000;1.000000;1.000000;-0.116652;0.116652;-0.116652;1.000000
445632.13270004;5696597.75989731;472.18335011;2;5;14;1285.000000;1.000000;1.000000;1.000000;1.000000;-0.097890;0.097890;-0.097890;1.000000
445632.23890121;5696597.76510056;472.11824991;30;35;29;8224.000000;1.000000;1.000000;1.000000;1.000000;-0.186201;0.186201;-0.186201;1.000000
445632.10320099;5696597.90789993;472.15815022;80;81;81;20560.000000;1.000000;1.000000;1.000000;1.000000;0.087039;-0.087039;0.087039;1.000000
445632.10640152;5696597.75900085;472.24735023;62;68;76;17219.000000;1.000000;1.000000;1.000000;1.000000;-0.082504;0.082504;-0.082504;1.000000
445632.18820007;5696597.82580002;472.12375023;15;16;17;3855.000000;1.000000;1.000000;1.000000;1.000000;-0.123894;0.123894;-0.123894;1.000000
445632.14590271;5696597.72149857;472.17415001;25;29;35;7196.000000;1.000000;1.000000;1.000000;1.000000;-0.135717;0.135717;-0.135717;1.000000
445632.10830124;5696597.72319992;472.28655006;42;49;59;12336.000000;1.000000;1.000000;1.000000;1.000000;-0.115480;0.115480;-0.115480;1.000000
445632.20030029;5696597.72669800;472.11604979;15;19;24;4626.000000;1.000000;1.000000;1.000000;1.000000;-0.170723;0.170723;-0.170723;1.000000
445632.20370300;5696597.68670090;472.11345007;22;25;29;6168.000000;1.000000;1.000000;1.000000;1.000000;-0.199866;0.199866;-0.199866;1.000000
445632.12730225;5696597.75789841;472.19465019;18;25;33;5911.000000;1.000000;1.000000;1.000000;1.000000;-0.095699;0.095699;-0.095699;1.000000
445632.19940002;5696597.74309738;472.11854984;16;20;22;4883.000000;1.000000;1.000000;1.000000;1.000000;-0.160572;0.160572;-0.160572;1.000000
445632.06080063;5696597.99849899;472.14564993;64;60;42;15163.000000;1.000000;1.000000;1.000000;1.000000;0.168499;0.168499;-0.168499;1.000000
445632.03970154;5696597.96399887;472.23274996;16;18;17;4369.000000;1.000000;1.000000;1.000000;1.000000;-0.133999;0.133999;-0.133999;1.000000
445632.20300110;5696597.70540054;472.11595013;19;22;24;5397.000000;1.000000;1.000000;1.000000;1.000000;-0.186391;0.186391;-0.186391;1.000000
445632.17200287;5696597.69280060;472.20994999;60;61;60;15420.000000;1.000000;1.000000;1.000000;1.000000;-0.174376;0.174376;-0.174376;1.000000
445632.14520081;5696597.69479950;472.23894979;37;43;50;10537.000000;1.000000;1.000000;1.000000;1.000000;-0.157517;0.157517;-0.157517;1.000000
445632.16550262;5696597.70419891;472.11654999;28;30;34;7453.000000;1.000000;1.000000;1.000000;1.000000;-0.161407;0.161407;-0.161407;1.000000
445632.14960297;5696597.68749817;472.22975018;18;25;36;6168.000000;1.000000;1.000000;1.000000;1.000000;-0.166043;0.166043;-0.166043;1.000000
445632.16390045;5696597.73710068;472.11684992;37;37;37;9509.000000;1.000000;1.000000;1.000000;1.000000;-0.136144;0.136144;-0.136144;1.000000
445632.17049988;5696597.81789978;472.13674976;10;12;15;2827.000000;1.000000;1.000000;1.000000;1.000000;-0.106811;0.106811;-0.106811;1.000000
445632.10980042;5696597.87919815;472.16034986;75;81;85;20303.000000;1.000000;1.000000;1.000000;1.000000;0.066961;-0.066961;0.066961;1.000000
445632.07390030;5696597.83989914;472.20025017;62;69;76;17219.000000;1.000000;1.000000;1.000000;1.000000;0.013736;-0.013736;0.013736;1.000000
445632.10020264;5696597.92460068;472.15584995;25;25;21;6168.000000;1.000000;1.000000;1.000000;1.000000;0.101157;-0.101157;0.101157;1.000000
445632.04170044;5696597.75519760;472.27465012;68;77;86;19275.000000;1.000000;1.000000;1.000000;1.000000;0.074802;-0.074802;0.074802;1.000000
445632.07680328;5696597.75429733;472.27154972;84;90;96;22616.000000;1.000000;1.000000;1.000000;1.000000;-0.076716;0.076716;-0.076716;1.000000
445632.06780060;5696597.81199844;472.22755005;58;64;71;15934.000000;1.000000;1.000000;1.000000;1.000000;-0.018324;0.018324;-0.018324;1.000000
445632.15220078;5696597.78869827;472.17285015;14;19;24;4626.000000;1.000000;1.000000;1.000000;1.000000;-0.097051;0.097051;-0.097051;1.000000
445632.10700043;5696597.81590088;472.19444992;54;61;70;15163.000000;1.000000;1.000000;1.000000;1.000000;-0.044895;0.044895;-0.044895;1.000000
445632.17080124;5696597.68939789;472.28204967;6;12;14;2570.000000;1.000000;1.000000;1.000000;1.000000;-0.176338;0.176338;-0.176338;1.000000
445632.13520248;5696598.01050003;472.12815001;43;41;32;10280.000000;1.000000;1.000000;1.000000;1.000000;0.193898;0.193898;-0.193898;1.000000
445632.14949997;5696597.78879745;472.18204977;12;16;22;3855.000000;1.000000;1.000000;1.000000;1.000000;-0.094571;0.094571;-0.094571;1.000000
445632.13370331;5696597.76700027;472.17415001;8;14;24;3341.000000;1.000000;1.000000;1.000000;1.000000;-0.093676;0.093676;-0.093676;1.000000
445632.09959991;5696597.89649780;472.16244986;87;91;92;22873.000000;1.000000;1.000000;1.000000;1.000000;0.075250;-0.075250;0.075250;1.000000
445632.12100037;5696597.85009964;472.16284992;61;67;73;16705.000000;1.000000;1.000000;1.000000;1.000000;0.060085;-0.060085;0.060085;1.000000
445632.16020020;5696597.85399826;472.12974979;34;36;36;8995.000000;1.000000;1.000000;1.000000;1.000000;0.098783;-0.098783;0.098783;1.000000
445632.16720016;5696597.90019806;472.12134983;38;40;42;10023.000000;1.000000;1.000000;1.000000;1.000000;0.124501;-0.124501;0.124501;1.000000
445632.13480194;5696597.78759964;472.19304993;14;19;27;4626.000000;1.000000;1.000000;1.000000;1.000000;-0.082204;0.082204;-0.082204;1.000000
445632.08740051;5696597.77720078;472.23964979;60;68;76;16962.000000;1.000000;1.000000;1.000000;1.000000;-0.057601;0.057601;-0.057601;1.000000
445632.15550049;5696597.75169952;472.12605001;19;19;22;4883.000000;1.000000;1.000000;1.000000;1.000000;-0.120144;0.120144;-0.120144;1.000000
445632.01410110;5696597.73670013;472.27784969;44;50;59;12593.000000;1.000000;1.000000;1.000000;1.000000;0.093300;-0.093300;0.093300;1.000000
445632.11550339;5696597.84350021;472.16725018;77;82;88;20817.000000;1.000000;1.000000;1.000000;1.000000;0.052879;-0.052879;0.052879;1.000000
445632.04250153;5696597.76219757;472.27244999;86;93;100;23387.000000;1.000000;1.000000;1.000000;1.000000;0.067802;-0.067802;0.067802;1.000000
445632.14690216;5696597.68459900;472.28554966;36;43;49;10537.000000;1.000000;1.000000;1.000000;1.000000;-0.167188;0.167188;-0.167188;1.000000
445632.21040161;5696597.76299866;472.12395002;18;22;25;5397.000000;1.000000;1.000000;1.000000;1.000000;-0.160662;0.160662;-0.160662;1.000000
445632.21600159;5696597.81870087;472.11555006;21;24;19;5654.000000;1.000000;1.000000;1.000000;1.000000;-0.152045;0.152045;-0.152045;1.000000
445632.14740189;5696597.78000076;472.15625002;20;23;30;5654.000000;1.000000;1.000000;1.000000;1.000000;-0.096918;0.096918;-0.096918;1.000000
445632.10620316;5696597.73999985;472.26574995;55;61;69;15420.000000;1.000000;1.000000;1.000000;1.000000;-0.099244;0.099244;-0.099244;1.000000
445632.15369995;5696597.70749863;472.12544968;26;27;35;6939.000000;1.000000;1.000000;1.000000;1.000000;-0.151609;0.151609;-0.151609;1.000000
445632.14669998;5696597.90899857;472.12745001;13;14;14;3341.000000;1.000000;1.000000;1.000000;1.000000;0.114096;-0.114096;0.114096;1.000000
445632.10730179;5696597.92399796;472.15154984;39;39;36;9766.000000;1.000000;1.000000;1.000000;1.000000;0.103335;-0.103335;0.103335;1.000000
445632.03640182;5696597.88550003;472.19444992;60;64;54;15677.000000;1.000000;1.000000;1.000000;1.000000;-0.055500;0.055500;-0.055500;1.000000
445632.07460220;5696597.80900009;472.22555019;66;72;78;17990.000000;1.000000;1.000000;1.000000;1.000000;-0.023357;0.023357;-0.023357;1.000000
445632.11400040;5696597.81289871;472.19004967;41;47;55;11822.000000;1.000000;1.000000;1.000000;1.000000;-0.052488;0.052488;-0.052488;1.000000
445632.18650253;5696597.85409744;472.11695005;25;27;27;6682.000000;1.000000;1.000000;1.000000;1.000000;0.124480;-0.124480;0.124480;1.000000
445632.06410034;5696597.92289932;472.17514994;48;45;38;11565.000000;1.000000;1.000000;1.000000;1.000000;0.092899;-0.092899;0.092899;1.000000
445632.04320343;5696597.74799927;472.27924969;48;54;62;13621.000000;1.000000;1.000000;1.000000;1.000000;0.082001;-0.082001;0.082001;1.000000
445632.11210068;5696597.71570023;472.29134991;40;48;57;11822.000000;1.000000;1.000000;1.000000;1.000000;-0.123863;0.123863;-0.123863;1.000000
445632.12400253;5696597.83339890;472.16515018;34;39;47;9766.000000;1.000000;1.000000;1.000000;1.000000;0.059722;-0.059722;0.059722;1.000000
445632.05120285;5696597.75670059;472.27504971;57;65;73;16191.000000;1.000000;1.000000;1.000000;1.000000;0.073299;-0.073299;0.073299;1.000000
445632.14090164;5696597.83439835;472.15424969;10;14;20;3341.000000;1.000000;1.000000;1.000000;1.000000;0.076651;-0.076651;0.076651;1.000000
445632.14780243;5696597.68479736;472.26464989;38;44;51;10794.000000;1.000000;1.000000;1.000000;1.000000;-0.167462;0.167462;-0.167462;1.000000
445632.12360199;5696597.79549988;472.19964983;32;37;45;9252.000000;1.000000;1.000000;1.000000;1.000000;-0.068541;0.068541;-0.068541;1.000000
