//X;Y;Z;R;G;B;Intensity;Return Number;Number Of Returns;Scan Direction Flag;Point Source ID;C2M signed distances[-][<0.8];C2M signed distances[<0.4];C2M signed distances[-][<0.2];Stump75
445646.79460342;5696574.00849922;470.55544998;126;126;119;32125.000000;1.000000;1.000000;1.000000;1.000000;-0.183542;0.183542;-0.183542;1.000000
445646.83210190;5696574.00969894;470.55484988;129;128;126;32896.000000;1.000000;1.000000;1.000000;1.000000;-0.196794;0.196794;-0.196794;1.000000
445646.77340134;5696573.82079895;470.58484985;92;93;90;23644.000000;1.000000;1.000000;1.000000;1.000000;-0.021524;0.021524;-0.021524;1.000000
445646.63810165;5696573.93579872;470.61045005;78;80;73;20046.000000;1.000000;1.000000;1.000000;1.000000;-0.105799;0.105799;-0.105799;1.000000
445646.80190094;5696573.60769947;470.59994986;136;135;131;34438.000000;1.000000;1.000000;1.000000;1.000000;-0.050024;0.050024;-0.050024;1.000000
445646.80170258;5696573.84859951;470.58655002;111;113;114;28784.000000;1.000000;1.000000;1.000000;1.000000;-0.053184;0.053184;-0.053184;1.000000
445646.83680161;5696573.85219868;470.59274985;103;106;106;26985.000000;1.000000;1.000000;1.000000;1.000000;-0.087778;0.087778;-0.087778;1.000000
445646.69130142;5696573.57359894;470.59684994;145;144;140;36751.000000;1.000000;1.000000;1.000000;1.000000;0.060575;-0.060575;0.060575;1.000000
445646.80320175;5696573.57029922;470.59725000;163;163;160;41634.000000;1.000000;1.000000;1.000000;1.000000;-0.051325;0.051325;-0.051325;1.000000
445646.63800247;5696573.74929913;470.58725001;107;101;93;25957.000000;1.000000;1.000000;1.000000;1.000000;0.080701;-0.080701;0.080701;1.000000
445646.76820190;5696573.57119949;470.59795000;102;102;98;25957.000000;1.000000;1.000000;1.000000;1.000000;-0.016325;0.016325;-0.016325;1.000000
445646.82850082;5696573.45839890;470.58305003;138;138;135;35209.000000;1.000000;1.000000;1.000000;1.000000;-0.091675;0.091675;-0.091675;1.000000
445646.61410339;5696573.83269890;470.61745002;135;130;123;33410.000000;1.000000;1.000000;1.000000;1.000000;-0.002699;0.002699;-0.002699;1.000000
445646.66980179;5696573.92799957;470.61644985;136;138;134;34952.000000;1.000000;1.000000;1.000000;1.000000;-0.098000;0.098000;-0.098000;1.000000
445646.70540054;5696573.89029892;470.57795002;116;115;114;29555.000000;1.000000;1.000000;1.000000;1.000000;-0.060299;0.060299;-0.060299;1.000000
445646.84589966;5696573.68289955;470.60984995;127;123;117;31611.000000;1.000000;1.000000;1.000000;1.000000;-0.094023;0.094023;-0.094023;1.000000
445646.60290344;5696573.71989925;470.58064987;144;138;129;35466.000000;1.000000;1.000000;1.000000;1.000000;0.110101;-0.110101;0.110101;1.000000
445646.76960190;5696573.96869953;470.56084992;76;76;70;19275.000000;1.000000;1.000000;1.000000;1.000000;-0.139828;0.139828;-0.139828;1.000000
445646.71370132;5696573.90129955;470.57154991;87;86;85;22102.000000;1.000000;1.000000;1.000000;1.000000;-0.071427;0.071427;-0.071427;1.000000
445646.84720047;5696573.64539917;470.60714986;138;135;131;34695.000000;1.000000;1.000000;1.000000;1.000000;-0.095324;0.095324;-0.095324;1.000000
445646.73920258;5696574.01379879;470.55075004;124;120;110;30840.000000;1.000000;1.000000;1.000000;1.000000;-0.183799;0.183799;-0.183799;1.000000
445646.62820251;5696573.99089916;470.58034994;93;95;84;23901.000000;1.000000;1.000000;1.000000;1.000000;-0.160899;0.160899;-0.160899;1.000000
445646.62970169;5696573.89149960;470.65374996;153;153;149;39064.000000;1.000000;1.000000;1.000000;1.000000;-0.061500;0.061500;-0.061500;1.000000
445646.74630173;5696573.82809933;470.57904984;111;111;109;28270.000000;1.000000;1.000000;1.000000;1.000000;0.005575;-0.005575;0.005575;1.000000
445646.67340286;5696573.85109909;470.58535006;173;170;163;43690.000000;1.000000;1.000000;1.000000;1.000000;-0.021099;0.021099;-0.021099;1.000000
445646.71210297;5696573.78919895;470.58174994;74;71;67;18247.000000;1.000000;1.000000;1.000000;1.000000;0.039774;-0.039774;0.039774;1.000000
445646.74740036;5696573.79289921;470.58574988;84;81;77;20817.000000;1.000000;1.000000;1.000000;1.000000;0.004477;-0.004477;0.004477;1.000000
445646.83310135;5696573.53269871;470.58184983;168;168;162;42919.000000;1.000000;1.000000;1.000000;1.000000;-0.081224;0.081224;-0.081224;1.000000
445646.70570190;5696573.92059906;470.58305003;105;105;102;26728.000000;1.000000;1.000000;1.000000;1.000000;-0.090599;0.090599;-0.090599;1.000000
445646.63890274;5696573.88149937;470.63544991;124;122;115;31097.000000;1.000000;1.000000;1.000000;1.000000;-0.051499;0.051499;-0.051499;1.000000
445646.69490250;5696573.53599937;470.59424998;127;127;124;32382.000000;1.000000;1.000000;1.000000;1.000000;0.056974;-0.056974;0.056974;1.000000
445646.68150146;5696573.83639915;470.58095004;93;87;83;22616.000000;1.000000;1.000000;1.000000;1.000000;-0.007199;0.007199;-0.007199;1.000000
445646.62840088;5696573.97199924;470.58944990;106;107;97;26985.000000;1.000000;1.000000;1.000000;1.000000;-0.141999;0.141999;-0.141999;1.000000
445646.60960205;5696573.80299957;470.60294988;150;145;136;37265.000000;1.000000;1.000000;1.000000;1.000000;0.027000;-0.027000;0.027000;1.000000
445646.65810211;5696573.47149952;470.60344984;138;136;128;34695.000000;1.000000;1.000000;1.000000;1.000000;0.100746;-0.100746;0.100746;1.000000
445646.62100037;5696573.86449917;470.63444998;149;147;143;37779.000000;1.000000;1.000000;1.000000;1.000000;0.034499;-0.034499;0.034499;1.000000
445646.70910080;5696573.82699879;470.57274987;92;88;86;22616.000000;1.000000;1.000000;1.000000;1.000000;0.003001;-0.003001;0.003001;1.000000
445646.63260086;5696573.85439880;470.61614992;152;149;143;38293.000000;1.000000;1.000000;1.000000;1.000000;-0.024399;0.024399;-0.024399;1.000000
445646.83850296;5696573.86849888;470.58844997;84;87;86;21845.000000;1.000000;1.000000;1.000000;1.000000;-0.094796;0.094796;-0.094796;1.000000
445646.64660080;5696574.01029881;470.57445004;100;102;89;25443.000000;1.000000;1.000000;1.000000;1.000000;-0.180299;0.180299;-0.180299;1.000000
445646.62120255;5696573.90609940;470.66524984;230;233;230;59367.000000;1.000000;1.000000;1.000000;1.000000;0.076099;-0.076099;0.076099;1.000000
445646.67850311;5696573.65899952;470.59264996;102;99;92;25443.000000;1.000000;1.000000;1.000000;1.000000;0.073374;-0.073374;0.073374;1.000000
445646.68169983;5696573.61899956;470.59235003;117;116;111;29555.000000;1.000000;1.000000;1.000000;1.000000;0.070177;-0.070177;0.070177;1.000000
445646.66280182;5696573.81469925;470.58914997;122;118;114;30326.000000;1.000000;1.000000;1.000000;1.000000;0.015301;-0.015301;0.015301;1.000000
445646.62220200;5696573.92519959;470.63054993;83;86;77;21588.000000;1.000000;1.000000;1.000000;1.000000;0.095200;-0.095200;0.095200;1.000000
445646.66660126;5696573.70459946;470.58795001;166;163;156;41891.000000;1.000000;1.000000;1.000000;1.000000;0.085276;-0.085276;0.085276;1.000000
445646.69030197;5696573.88229950;470.58424999;106;103;100;26471.000000;1.000000;1.000000;1.000000;1.000000;-0.052299;0.052299;-0.052299;1.000000
445646.72810181;5696573.80879887;470.58034994;83;79;75;20303.000000;1.000000;1.000000;1.000000;1.000000;0.021201;-0.021201;0.021201;1.000000
445646.83950241;5696573.83319958;470.59734990;93;95;95;24158.000000;1.000000;1.000000;1.000000;1.000000;-0.087684;0.087684;-0.087684;1.000000
445646.80640228;5696573.75679882;470.60194995;135;134;129;34181.000000;1.000000;1.000000;1.000000;1.000000;-0.054525;0.054525;-0.054525;1.000000
445646.77260025;5696573.64319904;470.59905006;155;152;145;39064.000000;1.000000;1.000000;1.000000;1.000000;-0.020723;0.020723;-0.020723;1.000000
445646.70750244;5696573.66799934;470.58944990;109;104;96;26728.000000;1.000000;1.000000;1.000000;1.000000;0.044374;-0.044374;0.044374;1.000000
445646.80410202;5696573.98889931;470.56264998;84;84;81;21331.000000;1.000000;1.000000;1.000000;1.000000;-0.167262;0.167262;-0.167262;1.000000
445646.74910172;5696573.94959934;470.56204988;107;104;98;26728.000000;1.000000;1.000000;1.000000;1.000000;0.119632;-0.119632;0.119632;1.000000
445646.84690292;5696573.47999866;470.58184983;96;95;90;24158.000000;1.000000;1.000000;1.000000;1.000000;-0.099282;0.099282;-0.099282;1.000000
445646.76560028;5696573.81219872;470.58445003;114;113;111;29041.000000;1.000000;1.000000;1.000000;1.000000;-0.013723;0.013723;-0.013723;1.000000
445646.73550232;5696573.43669899;470.57865002;103;102;94;25957.000000;1.000000;1.000000;1.000000;1.000000;0.073949;-0.073949;0.073949;1.000000
445646.69790085;5696573.64089878;470.59095003;165;163;156;41634.000000;1.000000;1.000000;1.000000;1.000000;0.053976;-0.053976;0.053976;1.000000
445646.73140152;5696573.77099903;470.58474996;145;140;132;35980.000000;1.000000;1.000000;1.000000;1.000000;0.020475;-0.020475;0.020475;1.000000
445646.64690216;5696573.76939877;470.58784987;152;148;138;38036.000000;1.000000;1.000000;1.000000;1.000000;0.060601;-0.060601;0.060601;1.000000
445646.85280045;5696573.51689919;470.58025004;214;214;209;54741.000000;1.000000;1.000000;1.000000;1.000000;-0.100924;0.100924;-0.100924;1.000000
445646.65240295;5696573.65669926;470.59614994;177;176;171;44975.000000;1.000000;1.000000;1.000000;1.000000;0.099474;-0.099474;0.099474;1.000000
445646.74520309;5696573.67149933;470.59115006;135;129;120;33153.000000;1.000000;1.000000;1.000000;1.000000;0.006674;-0.006674;0.006674;1.000000
445646.67090042;5696573.62929924;470.59424998;155;155;150;39578.000000;1.000000;1.000000;1.000000;1.000000;0.080976;-0.080976;0.080976;1.000000
445646.63210114;5696573.49039944;470.59784986;104;102;96;25957.000000;1.000000;1.000000;1.000000;1.000000;0.121127;-0.121127;0.121127;1.000000
445646.71470078;5696573.52019890;470.59034993;192;193;188;49344.000000;1.000000;1.000000;1.000000;1.000000;0.037176;-0.037176;0.037176;1.000000
445646.75350006;5696573.48389919;470.58694984;101;99;92;25186.000000;1.000000;1.000000;1.000000;1.000000;-0.024810;0.024810;-0.024810;1.000000
445646.78860291;5696573.48529919;470.59095003;125;125;117;31868.000000;1.000000;1.000000;1.000000;1.000000;-0.043481;0.043481;-0.043481;1.000000
445646.72050293;5696574.01539906;470.55454995;83;80;69;20303.000000;1.000000;1.000000;1.000000;1.000000;-0.185399;0.185399;-0.185399;1.000000
445646.75910004;5696573.97909935;470.55585005;84;82;76;20817.000000;1.000000;1.000000;1.000000;1.000000;-0.149274;0.149274;-0.149274;1.000000
445646.69370087;5696573.98499878;470.56694986;83;81;72;20560.000000;1.000000;1.000000;1.000000;1.000000;-0.154999;0.154999;-0.154999;1.000000
445646.69540222;5696573.95669945;470.57364990;142;140;135;35980.000000;1.000000;1.000000;1.000000;1.000000;-0.126699;0.126699;-0.126699;1.000000
445646.68940170;5696573.90089901;470.59134986;95;93;90;23901.000000;1.000000;1.000000;1.000000;1.000000;-0.070899;0.070899;-0.070899;1.000000
445646.63940247;5696573.89069946;470.64485003;121;121;117;30840.000000;1.000000;1.000000;1.000000;1.000000;-0.060699;0.060699;-0.060699;1.000000
445646.79520233;5696574.01549919;470.55554988;116;114;109;29298.000000;1.000000;1.000000;1.000000;1.000000;-0.190492;0.190492;-0.190492;1.000000
445646.81760223;5696573.44069870;470.58005001;172;172;167;43947.000000;1.000000;1.000000;1.000000;1.000000;-0.094634;0.094634;-0.094634;1.000000
445646.67120178;5696573.46099957;470.60165002;139;137;129;34952.000000;1.000000;1.000000;1.000000;1.000000;0.093548;-0.093548;0.093548;1.000000
445646.65830048;5696573.94799908;470.60214998;98;98;93;24929.000000;1.000000;1.000000;1.000000;1.000000;-0.117999;0.117999;-0.117999;1.000000
445646.79350098;5696573.81189926;470.58804991;97;98;96;24929.000000;1.000000;1.000000;1.000000;1.000000;-0.041624;0.041624;-0.041624;1.000000
445646.78170212;5696573.85749920;470.58104994;107;108;109;27499.000000;1.000000;1.000000;1.000000;1.000000;-0.040568;0.040568;-0.040568;1.000000
445646.83110245;5696573.84109886;470.59244992;83;85;86;21588.000000;1.000000;1.000000;1.000000;1.000000;-0.079999;0.079999;-0.079999;1.000000
445646.66830261;5696573.50109871;470.59494998;158;157;152;40092.000000;1.000000;1.000000;1.000000;1.000000;0.083901;-0.083901;0.083901;1.000000
445646.82900055;5696573.88809879;470.58124997;95;96;94;24415.000000;1.000000;1.000000;1.000000;1.000000;-0.096558;0.096558;-0.096558;1.000000
445646.84600266;5696573.47079952;470.58165004;119;119;115;30326.000000;1.000000;1.000000;1.000000;1.000000;-0.101492;0.101492;-0.101492;1.000000
445646.78050049;5696573.65409954;470.60185005;173;170;161;43433.000000;1.000000;1.000000;1.000000;1.000000;-0.028624;0.028624;-0.028624;1.000000
445646.79240234;5696573.84939869;470.58605005;111;113;114;28784.000000;1.000000;1.000000;1.000000;1.000000;-0.044929;0.044929;-0.044929;1.000000
445646.63760193;5696573.52489956;470.59854986;140;142;140;36237.000000;1.000000;1.000000;1.000000;1.000000;0.114275;-0.114275;0.114275;1.000000
445646.66600235;5696573.72329910;470.58815004;116;111;101;28527.000000;1.000000;1.000000;1.000000;1.000000;0.085875;-0.085875;0.085875;1.000000
445646.74430283;5696573.68789871;470.59134986;111;105;92;26985.000000;1.000000;1.000000;1.000000;1.000000;0.007574;-0.007574;0.007574;1.000000
445646.67030151;5696573.64799889;470.59445002;162;161;154;41120.000000;1.000000;1.000000;1.000000;1.000000;0.081575;-0.081575;0.081575;1.000000
445646.75060089;5696573.50289925;470.58704998;129;129;122;32896.000000;1.000000;1.000000;1.000000;1.000000;0.005898;-0.005898;0.005898;1.000000
445646.71660049;5696573.46399887;470.58734991;152;150;142;38293.000000;1.000000;1.000000;1.000000;1.000000;0.056900;-0.056900;0.056900;1.000000
445646.70560272;5696573.69629868;470.58734991;166;161;152;41377.000000;1.000000;1.000000;1.000000;1.000000;0.046274;-0.046274;0.046274;1.000000
445646.74300201;5696573.69739922;470.58904984;133;127;115;32639.000000;1.000000;1.000000;1.000000;1.000000;0.008875;-0.008875;0.008875;1.000000
445646.69380005;5696573.76979931;470.58535006;124;119;112;30583.000000;1.000000;1.000000;1.000000;1.000000;0.058077;-0.058077;0.058077;1.000000
445646.79790314;5696573.73889931;470.59905006;140;138;133;35466.000000;1.000000;1.000000;1.000000;1.000000;-0.046026;0.046026;-0.046026;1.000000
445646.68490036;5696573.94819935;470.58244993;142;140;136;35980.000000;1.000000;1.000000;1.000000;1.000000;-0.118284;0.118284;-0.118284;1.000000
445646.64120300;5696573.48949917;470.60054996;99;97;92;24929.000000;1.000000;1.000000;1.000000;1.000000;0.112274;-0.112274;0.112274;1.000000
445646.79900177;5696573.70139893;470.60095002;151;147;137;37779.000000;1.000000;1.000000;1.000000;1.000000;-0.047125;0.047125;-0.047125;1.000000
445646.67160233;5696573.86049946;470.59244992;158;155;150;39835.000000;1.000000;1.000000;1.000000;1.000000;-0.030499;0.030499;-0.030499;1.000000
445646.67990311;5696573.45319946;470.60194995;148;144;137;37008.000000;1.000000;1.000000;1.000000;1.000000;0.090674;-0.090674;0.090674;1.000000
445646.76379974;5696573.62529953;470.60074999;164;162;157;41634.000000;1.000000;1.000000;1.000000;1.000000;-0.011923;0.011923;-0.011923;1.000000
445646.63530167;5696573.85659893;470.61165001;169;166;156;42405.000000;1.000000;1.000000;1.000000;1.000000;-0.026599;0.026599;-0.026599;1.000000
445646.81410034;5696573.97149952;470.56524994;72;72;70;18247.000000;1.000000;1.000000;1.000000;1.000000;-0.154576;0.154576;-0.154576;1.000000
445646.77670105;5696574.01719959;470.55474998;111;108;103;27756.000000;1.000000;1.000000;1.000000;1.000000;-0.188838;0.188838;-0.188838;1.000000
445646.80560120;5696573.54209908;470.59005000;134;133;129;33924.000000;1.000000;1.000000;1.000000;1.000000;-0.053724;0.053724;-0.053724;1.000000
445646.71140106;5696573.92949875;470.57874991;126;126;122;32125.000000;1.000000;1.000000;1.000000;1.000000;-0.099518;0.099518;-0.099518;1.000000
445646.75700195;5696573.81999882;470.58414986;144;143;140;36494.000000;1.000000;1.000000;1.000000;1.000000;-0.005125;0.005125;-0.005125;1.000000
445646.72070129;5696573.78139885;470.58434989;130;125;120;32125.000000;1.000000;1.000000;1.000000;1.000000;0.031176;-0.031176;0.031176;1.000000
445646.82860001;5696573.64709957;470.60864999;151;149;143;38036.000000;1.000000;1.000000;1.000000;1.000000;-0.076723;0.076723;-0.076723;1.000000
445646.66090210;5696573.64659889;470.59404995;175;175;169;44718.000000;1.000000;1.000000;1.000000;1.000000;0.090975;-0.090975;0.090975;1.000000
445646.73390015;5696573.93929871;470.56585004;114;113;111;29041.000000;1.000000;1.000000;1.000000;1.000000;-0.109299;0.109299;-0.109299;1.000000
445646.70340164;5696573.94419868;470.57854988;145;144;139;36751.000000;1.000000;1.000000;1.000000;1.000000;-0.114199;0.114199;-0.114199;1.000000
445646.66780289;5696573.90719898;470.61844995;103;102;95;25957.000000;1.000000;1.000000;1.000000;1.000000;-0.077199;0.077199;-0.077199;1.000000
445646.67420013;5696573.75999935;470.58434989;155;150;141;38550.000000;1.000000;1.000000;1.000000;1.000000;0.070001;-0.070001;0.070001;1.000000
445646.81680115;5696573.71839912;470.60424997;150;148;142;37779.000000;1.000000;1.000000;1.000000;1.000000;-0.064924;0.064924;-0.064924;1.000000
445646.74790009;5696573.60339935;470.59745004;187;185;179;47288.000000;1.000000;1.000000;1.000000;1.000000;0.003977;-0.003977;0.003977;1.000000
445646.72660263;5696573.62409885;470.59445002;114;112;104;28527.000000;1.000000;1.000000;1.000000;1.000000;0.025274;-0.025274;0.025274;1.000000
445646.84420212;5696573.52469929;470.57994987;205;205;200;52428.000000;1.000000;1.000000;1.000000;1.000000;-0.092325;0.092325;-0.092325;1.000000
445646.71690186;5696573.88469894;470.57145001;115;114;113;29298.000000;1.000000;1.000000;1.000000;1.000000;-0.054826;0.054826;-0.054826;1.000000
445646.71570023;5696573.84739883;470.57095005;130;128;129;32896.000000;1.000000;1.000000;1.000000;1.000000;-0.018083;0.018083;-0.018083;1.000000
445646.81860168;5696573.47799881;470.58285000;131;129;124;33153.000000;1.000000;1.000000;1.000000;1.000000;-0.073464;0.073464;-0.073464;1.000000
445646.66650208;5696573.93779953;470.60704996;108;108;103;27499.000000;1.000000;1.000000;1.000000;1.000000;-0.107800;0.107800;-0.107800;1.000000
445646.66230209;5696573.61139877;470.59364988;85;85;82;21588.000000;1.000000;1.000000;1.000000;1.000000;0.089575;-0.089575;0.089575;1.000000
445646.71850021;5696573.82839878;470.57314994;81;78;74;20046.000000;1.000000;1.000000;1.000000;1.000000;0.002662;-0.002662;0.002662;1.000000
445646.61230286;5696573.72139938;470.58104994;157;150;141;38807.000000;1.000000;1.000000;1.000000;1.000000;0.108601;-0.108601;0.108601;1.000000
445646.82460220;5696573.51489933;470.57894995;222;222;217;56797.000000;1.000000;1.000000;1.000000;1.000000;-0.072725;0.072725;-0.072725;1.000000
445646.79040344;5696573.89429958;470.56795003;66;67;65;16962.000000;1.000000;1.000000;1.000000;1.000000;-0.074958;0.074958;-0.074958;1.000000
445646.80890091;5696573.44849880;470.58204987;151;151;147;38550.000000;1.000000;1.000000;1.000000;1.000000;-0.082955;0.082955;-0.082955;1.000000
445646.70580109;5696573.49999912;470.58964993;97;97;91;24672.000000;1.000000;1.000000;1.000000;1.000000;0.046873;-0.046873;0.046873;1.000000
445646.62160309;5696573.72049912;470.58145000;165;159;151;40863.000000;1.000000;1.000000;1.000000;1.000000;-0.109501;0.109501;-0.109501;1.000000
445646.70190247;5696573.78079899;470.58355000;107;103;97;26471.000000;1.000000;1.000000;1.000000;1.000000;0.049201;-0.049201;0.049201;1.000000
445646.67790039;5696573.88089951;470.59754993;90;89;86;22616.000000;1.000000;1.000000;1.000000;1.000000;-0.050900;0.050900;-0.050900;1.000000
445646.75430115;5696573.88359936;470.56844999;96;95;94;24415.000000;1.000000;1.000000;1.000000;1.000000;-0.053654;0.053654;-0.053654;1.000000
445646.71540268;5696573.67669876;470.58754994;129;123;114;31611.000000;1.000000;1.000000;1.000000;1.000000;0.036474;-0.036474;0.036474;1.000000
445646.78320129;5696573.60709961;470.59905006;147;145;140;37265.000000;1.000000;1.000000;1.000000;1.000000;-0.031324;0.031324;-0.031324;1.000000
445646.77130325;5696573.91469868;470.56725003;124;124;119;31611.000000;1.000000;1.000000;1.000000;1.000000;-0.086898;0.086898;-0.086898;1.000000
445646.67889984;5696573.93919952;470.59364988;96;93;90;23901.000000;1.000000;1.000000;1.000000;1.000000;-0.109202;0.109202;-0.109202;1.000000
445646.64500244;5696573.60139950;470.59274985;108;109;107;27756.000000;1.000000;1.000000;1.000000;1.000000;0.106874;-0.106874;0.106874;1.000000
445646.70170029;5696573.58439930;470.59745004;159;158;152;40349.000000;1.000000;1.000000;1.000000;1.000000;0.050177;-0.050177;0.050177;1.000000
445646.74370010;5696573.92189892;470.57075002;81;79;78;20303.000000;1.000000;1.000000;1.000000;1.000000;-0.091948;0.091948;-0.091948;1.000000
445646.66830261;5696573.88159950;470.60644986;101;99;96;25443.000000;1.000000;1.000000;1.000000;1.000000;-0.051600;0.051600;-0.051600;1.000000
445646.76090057;5696573.51359947;470.58764984;163;163;158;41634.000000;1.000000;1.000000;1.000000;1.000000;-0.009024;0.009024;-0.009024;1.000000
445646.78660019;5696573.56939896;470.60115005;162;162;158;41377.000000;1.000000;1.000000;1.000000;1.000000;-0.034723;0.034723;-0.034723;1.000000
445646.65699966;5696573.97419937;470.58145000;123;123;116;31354.000000;1.000000;1.000000;1.000000;1.000000;-0.144204;0.144204;-0.144204;1.000000
445646.65260132;5696573.44149883;470.61214997;153;151;146;38807.000000;1.000000;1.000000;1.000000;1.000000;0.119571;-0.119571;0.119571;1.000000
445646.76440247;5696573.84739883;470.58014991;78;79;78;20046.000000;1.000000;1.000000;1.000000;1.000000;-0.021438;0.021438;-0.021438;1.000000
445646.73240097;5696573.73349960;470.58664991;143;136;127;35209.000000;1.000000;1.000000;1.000000;1.000000;0.019476;-0.019476;0.019476;1.000000
445646.62510117;5696573.85039909;470.61815001;148;145;137;37265.000000;1.000000;1.000000;1.000000;1.000000;0.020399;-0.020399;0.020399;1.000000
445646.74330338;5696573.47329910;470.58404996;151;149;141;38036.000000;1.000000;1.000000;1.000000;1.000000;0.036436;-0.036436;0.036436;1.000000
445646.67600067;5696573.97479923;470.57534983;95;94;86;23901.000000;1.000000;1.000000;1.000000;1.000000;-0.144799;0.144799;-0.144799;1.000000
445646.71490295;5696573.93859871;470.57204988;135;135;132;34438.000000;1.000000;1.000000;1.000000;1.000000;-0.108736;0.108736;-0.108736;1.000000
445646.81580170;5696573.94319923;470.57194998;150;149;145;38036.000000;1.000000;1.000000;1.000000;1.000000;-0.130002;0.130002;-0.130002;1.000000
445646.82720001;5696573.68229874;470.60894992;153;150;143;38550.000000;1.000000;1.000000;1.000000;1.000000;-0.075323;0.075323;-0.075323;1.000000
445646.79969986;5696573.42149933;470.57434990;172;171;165;43690.000000;1.000000;1.000000;1.000000;1.000000;-0.091499;0.091499;-0.091499;1.000000
445646.83810242;5696573.84269913;470.59504988;96;98;98;24929.000000;1.000000;1.000000;1.000000;1.000000;-0.087156;0.087156;-0.087156;1.000000
445646.72110184;5696573.97559937;470.56104996;127;126;121;32125.000000;1.000000;1.000000;1.000000;1.000000;-0.145599;0.145599;-0.145599;1.000000
445646.81070145;5696573.86879929;470.58244993;65;67;69;16962.000000;1.000000;1.000000;1.000000;1.000000;-0.070468;0.070468;-0.070468;1.000000
445646.75930222;5696573.77299889;470.59064986;134;130;124;33410.000000;1.000000;1.000000;1.000000;1.000000;-0.007425;0.007425;-0.007425;1.000000
445646.63410004;5696573.84269913;470.60914995;152;147;141;37779.000000;1.000000;1.000000;1.000000;1.000000;-0.012699;0.012699;-0.012699;1.000000
445646.68670090;5696573.69569881;470.58885004;160;156;148;40092.000000;1.000000;1.000000;1.000000;1.000000;0.065176;-0.065176;0.065176;1.000000
445646.80920227;5696573.89719875;470.57114985;114;115;113;29298.000000;1.000000;1.000000;1.000000;1.000000;-0.088328;0.088328;-0.088328;1.000000
445646.70930298;5696573.43439873;470.58434989;91;88;81;22616.000000;1.000000;1.000000;1.000000;1.000000;0.085633;-0.085633;0.085633;1.000000
445646.72680099;5696573.64989956;470.59005000;107;103;93;26471.000000;1.000000;1.000000;1.000000;1.000000;0.025076;-0.025076;0.025076;1.000000
445646.63910110;5696573.96169956;470.58984997;153;154;148;39321.000000;1.000000;1.000000;1.000000;1.000000;-0.131700;0.131700;-0.131700;1.000000
445646.68720062;5696573.67689903;470.59095003;141;136;128;34952.000000;1.000000;1.000000;1.000000;1.000000;0.064676;-0.064676;0.064676;1.000000
445646.78569992;5696573.75649937;470.59404995;124;123;116;31354.000000;1.000000;1.000000;1.000000;1.000000;-0.033823;0.033823;-0.033823;1.000000
445646.69510086;5696573.95659931;470.58064987;149;149;143;38036.000000;1.000000;1.000000;1.000000;1.000000;-0.126599;0.126599;-0.126599;1.000000
445646.70000275;5696573.85579880;470.57504990;133;130;126;33410.000000;1.000000;1.000000;1.000000;1.000000;-0.025799;0.025799;-0.025799;1.000000
445646.62920197;5696573.53499897;470.59824993;102;105;104;26471.000000;1.000000;1.000000;1.000000;1.000000;0.122675;-0.122675;0.122675;1.000000
445646.72440155;5696573.47259911;470.58784987;160;157;150;40349.000000;1.000000;1.000000;1.000000;1.000000;0.045316;-0.045316;0.045316;1.000000
445646.63130005;5696573.92659958;470.63794996;110;113;107;28527.000000;1.000000;1.000000;1.000000;1.000000;-0.096600;0.096600;-0.096600;1.000000
445646.71809967;5696573.45449932;470.58504989;141;139;131;35466.000000;1.000000;1.000000;1.000000;1.000000;0.063854;-0.063854;0.063854;1.000000
445646.79920013;5696573.65459927;470.60274984;168;167;157;42662.000000;1.000000;1.000000;1.000000;1.000000;-0.047323;0.047323;-0.047323;1.000000
445646.71310242;5696573.96689899;470.56524994;129;128;123;32639.000000;1.000000;1.000000;1.000000;1.000000;-0.136948;0.136948;-0.136948;1.000000
445646.72980316;5696574.01459892;470.55264999;100;98;87;24929.000000;1.000000;1.000000;1.000000;1.000000;-0.184599;0.184599;-0.184599;1.000000
445646.68430145;5696573.89899929;470.59815003;93;92;90;23644.000000;1.000000;1.000000;1.000000;1.000000;-0.069186;0.069186;-0.069186;1.000000
445646.75720032;5696574.00739868;470.55375006;116;115;105;29298.000000;1.000000;1.000000;1.000000;1.000000;-0.177479;0.177479;-0.177479;1.000000
445646.68540009;5696573.97399910;470.57344987;73;71;63;17990.000000;1.000000;1.000000;1.000000;1.000000;-0.144054;0.144054;-0.144054;1.000000
445646.77190216;5696573.66189869;470.60154988;162;159;150;40606.000000;1.000000;1.000000;1.000000;1.000000;-0.020025;0.020025;-0.020025;1.000000
445646.77300079;5696573.62439926;470.60115005;156;153;148;39321.000000;1.000000;1.000000;1.000000;1.000000;-0.021124;0.021124;-0.021124;1.000000
445646.79630096;5696573.98019894;470.56224992;99;100;96;25443.000000;1.000000;1.000000;1.000000;1.000000;-0.156631;0.156631;-0.156631;1.000000
445646.73920258;5696573.58549889;470.59684994;127;126;121;32125.000000;1.000000;1.000000;1.000000;1.000000;0.012674;-0.012674;0.012674;1.000000
445646.82370193;5696573.76679905;470.60284998;126;127;123;32382.000000;1.000000;1.000000;1.000000;1.000000;-0.071825;0.071825;-0.071825;1.000000
445646.78250320;5696573.88559921;470.56974985;50;50;50;12850.000000;1.000000;1.000000;1.000000;1.000000;-0.063476;0.063476;-0.063476;1.000000
445646.77650269;5696573.58669956;470.60084989;120;119;114;30326.000000;1.000000;1.000000;1.000000;1.000000;-0.024626;0.024626;-0.024626;1.000000
445646.81420334;5696573.58789928;470.59795000;167;167;164;42662.000000;1.000000;1.000000;1.000000;1.000000;-0.062326;0.062326;-0.062326;1.000000
445646.75560196;5696573.66109951;470.59844996;163;158;150;40606.000000;1.000000;1.000000;1.000000;1.000000;-0.003725;0.003725;-0.003725;1.000000
445646.64180191;5696573.47069939;470.60045006;129;126;116;32125.000000;1.000000;1.000000;1.000000;1.000000;0.116347;-0.116347;0.116347;1.000000
445646.81320007;5696574.00909908;470.55865004;94;93;89;23644.000000;1.000000;1.000000;1.000000;1.000000;-0.189307;0.189307;-0.189307;1.000000
445646.68760117;5696573.70489891;470.58894994;156;153;144;39064.000000;1.000000;1.000000;1.000000;1.000000;0.064276;-0.064276;0.064276;1.000000
445646.76020248;5696573.70749958;470.59224989;146;142;131;36237.000000;1.000000;1.000000;1.000000;1.000000;-0.008326;0.008326;-0.008326;1.000000
445646.72470291;5696573.91899879;470.57224991;97;97;96;24672.000000;1.000000;1.000000;1.000000;1.000000;-0.088999;0.088999;-0.088999;1.000000
445646.77570160;5696574.00559910;470.55454995;102;100;94;25443.000000;1.000000;1.000000;1.000000;1.000000;-0.177208;0.177208;-0.177208;1.000000
445646.74170120;5696573.96899899;470.55725004;105;103;99;26471.000000;1.000000;1.000000;1.000000;1.000000;-0.139003;0.139003;-0.139003;1.000000
445646.83540161;5696573.90629871;470.57935001;155;154;151;39321.000000;1.000000;1.000000;1.000000;1.000000;-0.113128;0.113128;-0.113128;1.000000
445646.72190292;5696573.93799885;470.56994988;125;125;123;31868.000000;1.000000;1.000000;1.000000;1.000000;-0.107999;0.107999;-0.107999;1.000000
445646.80140121;5696573.86739929;470.57974984;70;72;74;18247.000000;1.000000;1.000000;1.000000;1.000000;-0.062059;0.062059;-0.062059;1.000000
445646.76710327;5696573.55729874;470.59314992;126;126;122;32125.000000;1.000000;1.000000;1.000000;1.000000;-0.015226;0.015226;-0.015226;1.000000
445646.77340134;5696573.65239914;470.59914996;166;163;155;41891.000000;1.000000;1.000000;1.000000;1.000000;-0.021524;0.021524;-0.021524;1.000000
445646.80480011;5696573.56079872;470.59484984;140;141;136;35980.000000;1.000000;1.000000;1.000000;1.000000;-0.052923;0.052923;-0.052923;1.000000
445646.63450058;5696573.89109905;470.64934995;143;142;138;36237.000000;1.000000;1.000000;1.000000;1.000000;-0.061099;0.061099;-0.061099;1.000000
445646.72290237;5696573.70639904;470.58594992;130;124;115;31868.000000;1.000000;1.000000;1.000000;1.000000;0.028975;-0.028975;0.028975;1.000000
445646.76490219;5696573.66249950;470.60124995;165;162;153;41377.000000;1.000000;1.000000;1.000000;1.000000;-0.013025;0.013025;-0.013025;1.000000
445646.76730164;5696573.58759888;470.60045006;135;134;129;34181.000000;1.000000;1.000000;1.000000;1.000000;-0.015425;0.015425;-0.015425;1.000000
445646.73130234;5696573.52099903;470.58644988;205;205;199;52428.000000;1.000000;1.000000;1.000000;1.000000;0.020575;-0.020575;0.020575;1.000000
445646.84530075;5696573.48719891;470.57955005;88;88;83;22359.000000;1.000000;1.000000;1.000000;1.000000;-0.095890;0.095890;-0.095890;1.000000
445646.73390015;5696573.44609936;470.58095004;131;130;121;33153.000000;1.000000;1.000000;1.000000;1.000000;0.065196;-0.065196;0.065196;1.000000
445646.82100113;5696573.83269890;470.59185006;94;95;96;24158.000000;1.000000;1.000000;1.000000;1.000000;-0.069177;0.069177;-0.069177;1.000000
445646.75080307;5696573.75509937;470.58774998;103;98;91;25186.000000;1.000000;1.000000;1.000000;1.000000;0.001074;-0.001074;0.001074;1.000000
445646.84010132;5696573.56229885;470.59185006;161;160;155;40863.000000;1.000000;1.000000;1.000000;1.000000;-0.088224;0.088224;-0.088224;1.000000
445646.69700058;5696573.48209961;470.59134986;113;110;104;28270.000000;1.000000;1.000000;1.000000;1.000000;0.060926;-0.060926;0.060926;1.000000
445646.76980026;5696573.48469933;470.59005000;123;121;113;30840.000000;1.000000;1.000000;1.000000;1.000000;-0.029870;0.029870;-0.029870;1.000000
445646.66540344;5696573.96399887;470.58174994;115;114;108;29041.000000;1.000000;1.000000;1.000000;1.000000;-0.133999;0.133999;-0.133999;1.000000
445646.82580002;5696573.92589958;470.57454993;152;152;148;38807.000000;1.000000;1.000000;1.000000;1.000000;-0.121084;0.121084;-0.121084;1.000000
445646.67350204;5696573.77869900;470.58684995;140;136;129;34952.000000;1.000000;1.000000;1.000000;1.000000;0.051301;-0.051301;0.051301;1.000000
445646.74850281;5696573.78099926;470.58795001;115;111;105;28527.000000;1.000000;1.000000;1.000000;1.000000;0.003374;-0.003374;0.003374;1.000000
445646.75420197;5696573.43729885;470.57944991;94;93;87;23644.000000;1.000000;1.000000;1.000000;1.000000;-0.071536;0.071536;-0.071536;1.000000
445646.67810257;5696573.70349892;470.58854987;154;151;143;38807.000000;1.000000;1.000000;1.000000;1.000000;0.073774;-0.073774;0.073774;1.000000
445646.78960236;5696573.72569950;470.59844996;155;152;145;39064.000000;1.000000;1.000000;1.000000;1.000000;-0.037725;0.037725;-0.037725;1.000000
445646.72610291;5696573.88379868;470.57184984;112;112;111;28527.000000;1.000000;1.000000;1.000000;1.000000;-0.053799;0.053799;-0.053799;1.000000
445646.72960098;5696573.84609898;470.57154991;101;99;98;25443.000000;1.000000;1.000000;1.000000;1.000000;-0.016099;0.016099;-0.016099;1.000000
445646.72970016;5696573.96769913;470.56134989;120;119;114;30326.000000;1.000000;1.000000;1.000000;1.000000;-0.137699;0.137699;-0.137699;1.000000
445646.80700119;5696573.97219952;470.56725003;90;90;87;22873.000000;1.000000;1.000000;1.000000;1.000000;-0.152510;0.152510;-0.152510;1.000000
445646.76050003;5696573.73549946;470.59025003;136;132;125;33924.000000;1.000000;1.000000;1.000000;1.000000;-0.008623;0.008623;-0.008623;1.000000
445646.82120331;5696573.85839947;470.58754994;65;67;68;16962.000000;1.000000;1.000000;1.000000;1.000000;-0.074918;0.074918;-0.074918;1.000000
445646.64850052;5696573.96309956;470.59025003;132;132;125;33667.000000;1.000000;1.000000;1.000000;1.000000;-0.133108;0.133108;-0.133108;1.000000
445646.80800064;5696573.70049961;470.60594990;161;159;151;40606.000000;1.000000;1.000000;1.000000;1.000000;-0.056124;0.056124;-0.056124;1.000000
445646.64830215;5696573.92749889;470.62704994;106;107;101;27242.000000;1.000000;1.000000;1.000000;1.000000;-0.097507;0.097507;-0.097507;1.000000
445646.75590332;5696573.61439903;470.59795000;156;152;147;39064.000000;1.000000;1.000000;1.000000;1.000000;-0.004026;0.004026;-0.004026;1.000000
445646.65340240;5696573.81549938;470.59104993;132;127;124;32896.000000;1.000000;1.000000;1.000000;1.000000;0.015251;-0.015251;0.015251;1.000000
445646.67480286;5696573.74119957;470.58414986;152;148;139;38036.000000;1.000000;1.000000;1.000000;1.000000;0.077074;-0.077074;0.077074;1.000000
445646.61940201;5696573.77659901;470.59134986;116;112;104;28784.000000;1.000000;1.000000;1.000000;1.000000;-0.053401;0.053401;-0.053401;1.000000
445646.65470322;5696573.77809914;470.58834984;147;144;136;37008.000000;1.000000;1.000000;1.000000;1.000000;0.052014;-0.052014;0.052014;1.000000
445646.65590103;5696573.74059875;470.58795001;105;99;89;25443.000000;1.000000;1.000000;1.000000;1.000000;0.089429;-0.089429;0.089429;1.000000
445646.66060074;5696573.66769894;470.59194996;110;108;102;27499.000000;1.000000;1.000000;1.000000;1.000000;0.091276;-0.091276;0.091276;1.000000
445646.64080246;5696573.70229919;470.58445003;131;128;119;32639.000000;1.000000;1.000000;1.000000;1.000000;0.111074;-0.111074;0.111074;1.000000
445646.63400085;5696573.87959869;470.63754990;134;132;127;33924.000000;1.000000;1.000000;1.000000;1.000000;-0.049599;0.049599;-0.049599;1.000000
445646.67000015;5696573.47279938;470.60174992;127;125;117;31868.000000;1.000000;1.000000;1.000000;1.000000;0.089265;-0.089265;0.089265;1.000000
445646.71600159;5696573.70699890;470.58564999;141;137;128;35209.000000;1.000000;1.000000;1.000000;1.000000;0.035875;-0.035875;0.035875;1.000000
445646.66410263;5696573.55519875;470.59305002;135;137;136;34952.000000;1.000000;1.000000;1.000000;1.000000;0.087774;-0.087774;0.087774;1.000000
445646.70380219;5696573.55619915;470.59494998;72;72;67;18247.000000;1.000000;1.000000;1.000000;1.000000;0.048075;-0.048075;0.048075;1.000000
445646.79890259;5696573.88639935;470.57054998;58;60;59;15163.000000;1.000000;1.000000;1.000000;1.000000;-0.073432;0.073432;-0.073432;1.000000
445646.66760071;5696573.51749905;470.59284999;192;194;190;49344.000000;1.000000;1.000000;1.000000;1.000000;0.084276;-0.084276;0.084276;1.000000
445646.77460297;5696573.61489876;470.59885003;161;159;153;40606.000000;1.000000;1.000000;1.000000;1.000000;-0.022726;0.022726;-0.022726;1.000000
445646.75200089;5696573.67079933;470.59375002;133;129;117;32896.000000;1.000000;1.000000;1.000000;1.000000;-0.000124;0.000124;-0.000124;1.000000
445646.71700104;5696573.66949947;470.58984997;127;121;114;31354.000000;1.000000;1.000000;1.000000;1.000000;0.034876;-0.034876;0.034876;1.000000
445646.68370255;5696573.78709896;470.58515002;135;130;124;33410.000000;1.000000;1.000000;1.000000;1.000000;0.043251;-0.043251;0.043251;1.000000
445646.74230011;5696573.92909916;470.56614997;100;98;96;25186.000000;1.000000;1.000000;1.000000;1.000000;-0.099112;0.099112;-0.099112;1.000000
445646.75810059;5696573.96979912;470.55804994;74;73;69;18504.000000;1.000000;1.000000;1.000000;1.000000;-0.139938;0.139938;-0.139938;1.000000
445646.68960007;5696573.92889889;470.59404995;101;101;97;25700.000000;1.000000;1.000000;1.000000;1.000000;-0.098899;0.098899;-0.098899;1.000000
445646.80370148;5696573.82259949;470.59095003;112;114;114;29041.000000;1.000000;1.000000;1.000000;1.000000;-0.051825;0.051825;-0.051825;1.000000
445646.76850327;5696573.74639900;470.59075000;127;122;116;31354.000000;1.000000;1.000000;1.000000;1.000000;-0.016626;0.016626;-0.016626;1.000000
445646.84959991;5696573.56369884;470.59224989;178;177;172;45232.000000;1.000000;1.000000;1.000000;1.000000;-0.097723;0.097723;-0.097723;1.000000
445646.74370010;5696573.89399918;470.56574990;98;96;94;24672.000000;1.000000;1.000000;1.000000;1.000000;-0.064070;0.064070;-0.064070;1.000000
445646.65590103;5696573.84329899;470.59384992;142;137;129;35209.000000;1.000000;1.000000;1.000000;1.000000;-0.013484;0.013484;-0.013484;1.000000
445646.84180267;5696573.73929890;470.61034991;121;119;114;30583.000000;1.000000;1.000000;1.000000;1.000000;-0.089926;0.089926;-0.089926;1.000000
445646.64770325;5696573.90619953;470.64774992;124;124;121;31611.000000;1.000000;1.000000;1.000000;1.000000;-0.076202;0.076202;-0.076202;1.000000
445646.80030258;5696573.87919910;470.57515003;41;43;44;10794.000000;1.000000;1.000000;1.000000;1.000000;-0.069033;0.069033;-0.069033;1.000000
445646.61470230;5696573.84189899;470.62454988;131;126;124;32639.000000;1.000000;1.000000;1.000000;1.000000;-0.011899;0.011899;-0.011899;1.000000
445646.66650208;5696573.95449932;470.58865001;120;120;115;30583.000000;1.000000;1.000000;1.000000;1.000000;-0.124499;0.124499;-0.124499;1.000000
445646.64940079;5696573.89229877;470.63374998;104;103;96;26214.000000;1.000000;1.000000;1.000000;1.000000;-0.062344;0.062344;-0.062344;1.000000
445646.80560120;5696573.74749954;470.60174992;133;132;126;33667.000000;1.000000;1.000000;1.000000;1.000000;-0.053724;0.053724;-0.053724;1.000000
445646.77040298;5696573.67129906;470.60165002;133;130;120;33153.000000;1.000000;1.000000;1.000000;1.000000;-0.018526;0.018526;-0.018526;1.000000
445646.81130035;5696573.63479908;470.60305001;138;136;129;34695.000000;1.000000;1.000000;1.000000;1.000000;-0.059423;0.059423;-0.059423;1.000000
445646.73780258;5696573.59499939;470.59694983;177;176;171;44975.000000;1.000000;1.000000;1.000000;1.000000;0.014074;-0.014074;0.014074;1.000000
445646.77510269;5696573.59619911;470.60095002;144;142;137;36494.000000;1.000000;1.000000;1.000000;1.000000;-0.023226;0.023226;-0.023226;1.000000
445646.84819992;5696573.60109909;470.59734990;158;157;152;40092.000000;1.000000;1.000000;1.000000;1.000000;-0.096323;0.096323;-0.096323;1.000000
445646.70120056;5696574.01249893;470.56064989;96;95;86;24158.000000;1.000000;1.000000;1.000000;1.000000;-0.182499;0.182499;-0.182499;1.000000
445646.73000153;5696573.58639915;470.59644987;128;127;123;32382.000000;1.000000;1.000000;1.000000;1.000000;0.021875;-0.021875;0.021875;1.000000
445646.66360291;5696573.57399948;470.59095003;132;135;131;34181.000000;1.000000;1.000000;1.000000;1.000000;0.088274;-0.088274;0.088274;1.000000
445646.83390244;5696573.54189880;470.58434989;154;154;148;39321.000000;1.000000;1.000000;1.000000;1.000000;-0.082026;0.082026;-0.082026;1.000000
445646.79170044;5696573.88479908;470.57014992;55;56;55;14135.000000;1.000000;1.000000;1.000000;1.000000;-0.067741;0.067741;-0.067741;1.000000
445646.66700180;5696573.53629883;470.59305002;105;108;106;27242.000000;1.000000;1.000000;1.000000;1.000000;0.084875;-0.084875;0.084875;1.000000
445646.68050201;5696573.63079937;470.59244992;172;171;166;43690.000000;1.000000;1.000000;1.000000;1.000000;0.071375;-0.071375;0.071375;1.000000
445646.67730148;5696573.94639881;470.59134986;144;143;140;36494.000000;1.000000;1.000000;1.000000;1.000000;-0.116399;0.116399;-0.116399;1.000000
445646.72590073;5696573.46319874;470.58544995;147;145;137;37008.000000;1.000000;1.000000;1.000000;1.000000;0.052378;-0.052378;0.052378;1.000000
445646.81100281;5696573.84999950;470.58924987;74;76;78;19275.000000;1.000000;1.000000;1.000000;1.000000;-0.062417;0.062417;-0.062417;1.000000
445646.67630203;5696573.95599945;470.58215000;127;126;120;32125.000000;1.000000;1.000000;1.000000;1.000000;-0.125999;0.125999;-0.125999;1.000000
445646.64340027;5696573.91579922;470.65934994;169;171;169;43690.000000;1.000000;1.000000;1.000000;1.000000;-0.085799;0.085799;-0.085799;1.000000
445646.67590149;5696573.91809948;470.61654999;174;173;171;44461.000000;1.000000;1.000000;1.000000;1.000000;-0.088099;0.088099;-0.088099;1.000000
445646.64980133;5696573.89919956;470.63844993;114;112;106;28527.000000;1.000000;1.000000;1.000000;1.000000;-0.069255;0.069255;-0.069255;1.000000
445646.80910309;5696573.66299923;470.60794999;165;162;155;41634.000000;1.000000;1.000000;1.000000;1.000000;-0.057226;0.057226;-0.057226;1.000000
445646.77140244;5696573.68059929;470.59944989;106;102;92;26214.000000;1.000000;1.000000;1.000000;1.000000;-0.019526;0.019526;-0.019526;1.000000
445646.75790222;5696573.55819901;470.59274985;121;121;115;30840.000000;1.000000;1.000000;1.000000;1.000000;-0.006025;0.006025;-0.006025;1.000000
445646.83320053;5696573.56289871;470.59154989;145;145;141;37008.000000;1.000000;1.000000;1.000000;1.000000;-0.081324;0.081324;-0.081324;1.000000
445646.72170074;5696573.51959904;470.58824994;202;202;198;51657.000000;1.000000;1.000000;1.000000;1.000000;0.030176;-0.030176;0.030176;1.000000
445646.83660324;5696573.46929939;470.58124997;120;119;115;30326.000000;1.000000;1.000000;1.000000;1.000000;-0.093468;0.093468;-0.093468;1.000000
445646.83490189;5696573.73999889;470.61004998;119;118;113;30069.000000;1.000000;1.000000;1.000000;1.000000;-0.083025;0.083025;-0.083025;1.000000
445646.76270111;5696573.48299892;470.58974983;99;98;90;24929.000000;1.000000;1.000000;1.000000;1.000000;-0.027795;0.027795;-0.027795;1.000000
445646.83150299;5696573.77539928;470.60325005;140;141;138;35980.000000;1.000000;1.000000;1.000000;1.000000;-0.079626;0.079626;-0.079626;1.000000
445646.80130203;5696573.62649925;470.60014989;147;145;137;37008.000000;1.000000;1.000000;1.000000;1.000000;-0.049425;0.049425;-0.049425;1.000000
445646.67680176;5696573.94399937;470.59824993;136;136;131;34695.000000;1.000000;1.000000;1.000000;1.000000;-0.113999;0.113999;-0.113999;1.000000
445646.79810150;5696573.48679932;470.58904984;126;125;118;31868.000000;1.000000;1.000000;1.000000;1.000000;-0.051114;0.051114;-0.051114;1.000000
445646.77580078;5696573.57749947;470.59844996;115;116;110;29555.000000;1.000000;1.000000;1.000000;1.000000;-0.023924;0.023924;-0.023924;1.000000
445646.77370270;5696573.60569962;470.59865000;162;160;154;40863.000000;1.000000;1.000000;1.000000;1.000000;-0.021826;0.021826;-0.021826;1.000000
445646.70240219;5696573.97719868;470.56495001;72;70;62;17733.000000;1.000000;1.000000;1.000000;1.000000;-0.147199;0.147199;-0.147199;1.000000
445646.69300278;5696573.93799885;470.58964993;126;125;121;31868.000000;1.000000;1.000000;1.000000;1.000000;-0.107999;0.107999;-0.107999;1.000000
445646.79720123;5696573.94269951;470.56874992;109;109;104;27756.000000;1.000000;1.000000;1.000000;1.000000;-0.121472;0.121472;-0.121472;1.000000
445646.68200119;5696573.81769951;470.58305003;72;68;63;17476.000000;1.000000;1.000000;1.000000;1.000000;0.012873;-0.012873;0.012873;1.000000
445646.72670181;5696573.86509903;470.57165005;98;98;98;25186.000000;1.000000;1.000000;1.000000;1.000000;-0.035099;0.035099;-0.035099;1.000000
445646.65590103;5696573.54429920;470.59494998;103;106;106;26985.000000;1.000000;1.000000;1.000000;1.000000;0.095976;-0.095976;0.095976;1.000000
445646.72780045;5696573.82759960;470.57355000;75;72;69;18504.000000;1.000000;1.000000;1.000000;1.000000;0.002400;-0.002400;0.002400;1.000000
445646.68540009;5696573.77989872;470.58504989;136;131;124;33667.000000;1.000000;1.000000;1.000000;1.000000;0.050259;-0.050259;0.050259;1.000000
445646.70860107;5696573.63049896;470.59134986;164;160;154;41120.000000;1.000000;1.000000;1.000000;1.000000;0.043276;-0.043276;0.043276;1.000000
445646.68710144;5696573.45489891;470.59994986;150;147;140;37779.000000;1.000000;1.000000;1.000000;1.000000;0.084007;-0.084007;0.084007;1.000000
445646.84119995;5696573.75809868;470.61054995;133;133;129;33924.000000;1.000000;1.000000;1.000000;1.000000;-0.089323;0.089323;-0.089323;1.000000
445646.82010086;5696573.82339867;470.59165003;110;112;111;28527.000000;1.000000;1.000000;1.000000;1.000000;-0.068224;0.068224;-0.068224;1.000000
445646.69410141;5696573.72309883;470.58484985;141;136;127;34952.000000;1.000000;1.000000;1.000000;1.000000;0.057775;-0.057775;0.057775;1.000000
445646.83270081;5696573.76589878;470.60784986;146;146;143;37265.000000;1.000000;1.000000;1.000000;1.000000;-0.080824;0.080824;-0.080824;1.000000
445646.83520325;5696573.69319923;470.60944988;152;148;142;38036.000000;1.000000;1.000000;1.000000;1.000000;-0.083326;0.083326;-0.083326;1.000000
445646.83580215;5696573.88749893;470.58384993;108;109;106;27756.000000;1.000000;1.000000;1.000000;1.000000;-0.101733;0.101733;-0.101733;1.000000
445646.69200333;5696573.84489925;470.57454993;160;156;152;40092.000000;1.000000;1.000000;1.000000;1.000000;-0.014899;0.014899;-0.014899;1.000000
445646.79740341;5696573.78339870;470.59714987;106;107;105;27242.000000;1.000000;1.000000;1.000000;1.000000;-0.045527;0.045527;-0.045527;1.000000
445646.71249969;5696573.54839905;470.59284999;80;80;76;20303.000000;1.000000;1.000000;1.000000;1.000000;0.039377;-0.039377;0.039377;1.000000
445646.69740112;5696573.43539913;470.59084990;93;90;82;23130.000000;1.000000;1.000000;1.000000;1.000000;0.091221;-0.091221;0.091221;1.000000
445646.72660263;5696573.44449909;470.58294990;139;137;129;34952.000000;1.000000;1.000000;1.000000;1.000000;0.069023;-0.069023;0.069023;1.000000
445646.76140030;5696573.46689899;470.58474996;144;142;137;36494.000000;1.000000;1.000000;1.000000;1.000000;-0.042869;0.042869;-0.042869;1.000000
445646.62400253;5696573.93469913;470.60975005;104;107;98;26985.000000;1.000000;1.000000;1.000000;1.000000;0.104699;-0.104699;0.104699;1.000000
445646.83870132;5696573.65549953;470.60914995;140;138;133;35466.000000;1.000000;1.000000;1.000000;1.000000;-0.086824;0.086824;-0.086824;1.000000
445646.73700150;5696573.42719944;470.57624986;88;87;81;22102.000000;1.000000;1.000000;1.000000;1.000000;0.083003;-0.083003;0.083003;1.000000
445646.79540070;5696573.97099884;470.56434991;110;110;107;28013.000000;1.000000;1.000000;1.000000;1.000000;-0.147564;0.147564;-0.147564;1.000000
445646.65229996;5696573.46259888;470.61004998;172;170;162;43433.000000;1.000000;1.000000;1.000000;1.000000;0.109518;-0.109518;0.109518;1.000000
445646.79090317;5696573.87779911;470.57474997;49;51;51;12850.000000;1.000000;1.000000;1.000000;1.000000;-0.061707;0.061707;-0.061707;1.000000
445646.68490036;5696573.74959953;470.58474996;164;159;150;40863.000000;1.000000;1.000000;1.000000;1.000000;0.066977;-0.066977;0.066977;1.000000
445646.83060272;5696573.85979946;470.59025003;89;91;92;23130.000000;1.000000;1.000000;1.000000;1.000000;-0.084177;0.084177;-0.084177;1.000000
445646.82920273;5696573.62609871;470.60375001;183;181;175;46260.000000;1.000000;1.000000;1.000000;1.000000;-0.077326;0.077326;-0.077326;1.000000
445646.85379990;5696573.42349918;470.56984999;113;112;104;28527.000000;1.000000;1.000000;1.000000;1.000000;-0.093499;0.093499;-0.093499;1.000000
445646.82310303;5696573.78559883;470.60305001;127;129;127;32896.000000;1.000000;1.000000;1.000000;1.000000;-0.071226;0.071226;-0.071226;1.000000
445646.64880188;5696573.71329887;470.58494999;153;149;139;38293.000000;1.000000;1.000000;1.000000;1.000000;0.103075;-0.103075;0.103075;1.000000
445646.66140182;5696573.43369873;470.60784986;130;128;123;32896.000000;1.000000;1.000000;1.000000;1.000000;0.117219;-0.117219;0.117219;1.000000
445646.76239975;5696573.89459904;470.56664993;63;62;62;15934.000000;1.000000;1.000000;1.000000;1.000000;-0.065450;0.065450;-0.065450;1.000000
