//X;Y;Z;R;G;B;Intensity;Return Number;Number Of Returns;Scan Direction Flag;Point Source ID;C2M signed distances[-][<0.8];C2M signed distances[<0.4];C2M signed distances[-][<0.2];Stump58
445644.87390335;5696568.88919933;470.38914992;104;101;93;25957.000000;1.000000;1.000000;1.000000;1.000000;-0.059199;0.059199;-0.059199;1.000000
445644.67530258;5696569.37309845;470.35095002;62;57;52;14649.000000;1.000000;1.000000;1.000000;1.000000;-0.045338;0.045338;-0.045338;1.000000
445644.40040024;5696569.26979931;470.37454988;179;170;157;43947.000000;1.000000;1.000000;1.000000;1.000000;0.060315;-0.060315;0.060315;1.000000
445644.91930206;5696568.89909943;470.38664987;134;134;125;34181.000000;1.000000;1.000000;1.000000;1.000000;-0.069099;0.069099;-0.069099;1.000000
445644.84720047;5696569.32179935;470.37444999;21;23;15;5397.000000;1.000000;1.000000;1.000000;1.000000;-0.126574;0.126574;-0.126574;1.000000
445644.79480179;5696569.19319923;470.38914992;75;69;70;17990.000000;1.000000;1.000000;1.000000;1.000000;-0.074175;0.074175;-0.074175;1.000000
445644.72800262;5696569.00329979;470.38625004;43;43;33;10537.000000;1.000000;1.000000;1.000000;1.000000;-0.011927;0.011927;-0.011927;1.000000
445644.80440338;5696569.17359932;470.39404990;74;72;71;18504.000000;1.000000;1.000000;1.000000;1.000000;-0.083776;0.083776;-0.083776;1.000000
445644.78400238;5696569.41429909;470.35874989;156;155;145;39578.000000;1.000000;1.000000;1.000000;1.000000;-0.105465;0.105465;-0.105465;1.000000
445644.40089996;5696569.27669914;470.37704994;182;172;159;44461.000000;1.000000;1.000000;1.000000;1.000000;0.053466;-0.053466;0.053466;1.000000
445644.73159988;5696568.89079865;470.38504984;48;47;39;11822.000000;1.000000;1.000000;1.000000;1.000000;-0.060799;0.060799;-0.060799;1.000000
445644.63770111;5696569.37189873;470.35395004;124;120;109;30583.000000;1.000000;1.000000;1.000000;1.000000;-0.041899;0.041899;-0.041899;1.000000
445644.78750046;5696569.37659843;470.35844995;113;112;101;28527.000000;1.000000;1.000000;1.000000;1.000000;-0.081508;0.081508;-0.081508;1.000000
445644.65509995;5696568.99839981;470.38524987;64;65;55;16191.000000;1.000000;1.000000;1.000000;1.000000;0.067068;-0.067068;0.067068;1.000000
445644.86600311;5696569.23099907;470.39054992;83;97;62;22616.000000;1.000000;1.000000;1.000000;1.000000;-0.145376;0.145376;-0.145376;1.000000
445644.60350235;5696569.33299931;470.35655000;136;133;123;33924.000000;1.000000;1.000000;1.000000;1.000000;-0.002999;0.002999;-0.002999;1.000000
445644.63860138;5696569.33439930;470.35815002;89;85;78;21845.000000;1.000000;1.000000;1.000000;1.000000;-0.004399;0.004399;-0.004399;1.000000
445644.39579971;5696568.95229919;470.38925006;128;129;119;32639.000000;1.000000;1.000000;1.000000;1.000000;0.122299;-0.122299;0.122299;1.000000
445644.95570190;5696568.86299904;470.38784983;80;79;75;20046.000000;1.000000;1.000000;1.000000;1.000000;-0.033933;0.033933;-0.033933;1.000000
445644.57100113;5696569.22879894;470.34224989;131;131;121;33153.000000;1.000000;1.000000;1.000000;1.000000;0.101201;-0.101201;0.101201;1.000000
445644.69060333;5696568.97419937;470.37724998;100;101;87;25443.000000;1.000000;1.000000;1.000000;1.000000;0.048940;-0.048940;0.048940;1.000000
445644.75119980;5696569.33789928;470.35864999;46;43;40;11051.000000;1.000000;1.000000;1.000000;1.000000;-0.031577;0.031577;-0.031577;1.000000
445644.65770157;5696568.89779861;470.37944986;62;57;43;14392.000000;1.000000;1.000000;1.000000;1.000000;-0.067800;0.067800;-0.067800;1.000000
445644.48230179;5696569.33719929;470.35815002;116;109;88;27756.000000;1.000000;1.000000;1.000000;1.000000;-0.007199;0.007199;-0.007199;1.000000
445644.88060196;5696569.13849934;470.39474990;68;66;56;16705.000000;1.000000;1.000000;1.000000;1.000000;-0.159975;0.159975;-0.159975;1.000000
445644.77810104;5696569.34949883;470.35535004;137;134;127;34438.000000;1.000000;1.000000;1.000000;1.000000;-0.060692;0.060692;-0.060692;1.000000
445644.74390228;5696569.31049927;470.36034991;63;62;59;15677.000000;1.000000;1.000000;1.000000;1.000000;-0.023275;0.023275;-0.023275;1.000000
445644.84520157;5696569.13699921;470.39774992;71;67;64;17219.000000;1.000000;1.000000;1.000000;1.000000;-0.124575;0.124575;-0.124575;1.000000
445644.81660278;5696569.31319912;470.35894992;71;70;62;17733.000000;1.000000;1.000000;1.000000;1.000000;-0.095976;0.095976;-0.095976;1.000000
445644.88190277;5696569.10329922;470.39674999;55;50;42;12850.000000;1.000000;1.000000;1.000000;1.000000;-0.161276;0.161276;-0.161276;1.000000
445644.63260086;5696569.26949890;470.35714986;176;175;168;44718.000000;1.000000;1.000000;1.000000;1.000000;0.060501;-0.060501;0.060501;1.000000
445644.73060043;5696569.13149937;470.38784983;138;136;123;34695.000000;1.000000;1.000000;1.000000;1.000000;-0.009974;0.009974;-0.009974;1.000000
445644.63610275;5696569.23179920;470.35684993;169;168;162;42919.000000;1.000000;1.000000;1.000000;1.000000;-0.084524;0.084524;-0.084524;1.000000
445644.84760101;5696569.06209953;470.39695003;182;183;176;46517.000000;1.000000;1.000000;1.000000;1.000000;-0.126974;0.126974;-0.126974;1.000000
445644.89159973;5696569.30789955;470.39724996;76;90;68;21331.000000;1.000000;1.000000;1.000000;1.000000;-0.170973;0.170973;-0.170973;1.000000
445644.60120209;5696569.10889919;470.35844995;108;106;98;26985.000000;1.000000;1.000000;1.000000;1.000000;0.119425;-0.119425;0.119425;1.000000
445644.62190063;5696568.84939964;470.39824988;208;208;197;52942.000000;1.000000;1.000000;1.000000;1.000000;-0.041094;0.041094;-0.041094;1.000000
445644.38950165;5696568.88739975;470.39514997;97;99;89;24929.000000;1.000000;1.000000;1.000000;1.000000;0.057400;-0.057400;0.057400;1.000000
445644.64579971;5696569.40849884;470.35244991;181;179;163;45489.000000;1.000000;1.000000;1.000000;1.000000;-0.078499;0.078499;-0.078499;1.000000
445644.90970047;5696569.34609898;470.38684990;27;35;26;7967.000000;1.000000;1.000000;1.000000;1.000000;-0.189758;0.189758;-0.189758;1.000000
445644.40190323;5696569.25799950;470.36984994;166;157;144;40606.000000;1.000000;1.000000;1.000000;1.000000;0.072189;-0.072189;0.072189;1.000000
445644.82830246;5696569.05459984;470.39374997;195;196;190;50115.000000;1.000000;1.000000;1.000000;1.000000;-0.107676;0.107676;-0.107676;1.000000
445644.86700256;5696569.01829918;470.39504983;139;141;134;35723.000000;1.000000;1.000000;1.000000;1.000000;-0.146376;0.146376;-0.146376;1.000000
445644.54470261;5696569.15389927;470.35644986;116;114;108;29041.000000;1.000000;1.000000;1.000000;1.000000;-0.175924;0.175924;-0.175924;1.000000
445644.65470322;5696569.15759857;470.36144998;156;159;154;40349.000000;1.000000;1.000000;1.000000;1.000000;-0.065924;0.065924;-0.065924;1.000000
445644.84830292;5696569.01769932;470.39415004;130;131;124;33153.000000;1.000000;1.000000;1.000000;1.000000;-0.127676;0.127676;-0.127676;1.000000
445644.77680023;5696568.97759922;470.39275004;130;131;117;33153.000000;1.000000;1.000000;1.000000;1.000000;-0.066153;0.066153;-0.066153;1.000000
445644.88700302;5696568.98369892;470.39785006;68;70;65;17476.000000;1.000000;1.000000;1.000000;1.000000;-0.153708;0.153708;-0.153708;1.000000
445644.96190079;5696568.98369892;470.39654996;143;140;130;35723.000000;1.000000;1.000000;1.000000;1.000000;-0.153946;0.153946;-0.153946;1.000000
445644.81540115;5696568.94129951;470.39415004;115;115;103;29041.000000;1.000000;1.000000;1.000000;1.000000;-0.111300;0.111300;-0.111300;1.000000
445644.51960190;5696568.85419853;470.39605000;154;157;148;39835.000000;1.000000;1.000000;1.000000;1.000000;0.083795;-0.083795;0.083795;1.000000
445644.55730255;5696568.85769852;470.39774992;102;102;92;25700.000000;1.000000;1.000000;1.000000;1.000000;-0.104560;0.104560;-0.104560;1.000000
445644.77919968;5696568.90269859;470.39205005;126;131;123;32896.000000;1.000000;1.000000;1.000000;1.000000;-0.072805;0.072805;-0.072805;1.000000
445644.59470184;5696568.85659893;470.39474990;111;112;101;28270.000000;1.000000;1.000000;1.000000;1.000000;-0.068777;0.068777;-0.068777;1.000000
445644.82120331;5696568.82859905;470.39535000;38;37;37;9509.000000;1.000000;1.000000;1.000000;1.000000;0.001401;-0.001401;0.001401;1.000000
445644.50390060;5696569.44939907;470.36975004;115;126;87;30326.000000;1.000000;1.000000;1.000000;1.000000;-0.119399;0.119399;-0.119399;1.000000
445644.50760086;5696569.41179855;470.36485006;163;165;140;41377.000000;1.000000;1.000000;1.000000;1.000000;-0.081799;0.081799;-0.081799;1.000000
445644.61810120;5696569.41789921;470.36524989;131;136;109;33667.000000;1.000000;1.000000;1.000000;1.000000;-0.087899;0.087899;-0.087899;1.000000
445644.84330185;5696569.35259922;470.36765005;107;106;94;26728.000000;1.000000;1.000000;1.000000;1.000000;-0.124739;0.124739;-0.124739;1.000000
445644.73520096;5696569.27149971;470.36874988;58;54;51;13878.000000;1.000000;1.000000;1.000000;1.000000;-0.014574;0.014574;-0.014574;1.000000
445644.81050308;5696569.27619942;470.36754992;92;91;80;23130.000000;1.000000;1.000000;1.000000;1.000000;-0.089876;0.089876;-0.089876;1.000000
445644.87520035;5696569.08279903;470.39844992;126;121;114;31097.000000;1.000000;1.000000;1.000000;1.000000;-0.154573;0.154573;-0.154573;1.000000
445644.87770279;5696569.00789936;470.39535000;132;134;128;33924.000000;1.000000;1.000000;1.000000;1.000000;-0.157143;0.157143;-0.157143;1.000000
445644.95530136;5696568.93759926;470.39575006;146;146;135;37008.000000;1.000000;1.000000;1.000000;1.000000;-0.107859;0.107859;-0.107859;1.000000
445644.88520248;5696569.24299915;470.40555002;88;113;69;25700.000000;1.000000;1.000000;1.000000;1.000000;-0.164576;0.164576;-0.164576;1.000000
445644.66240128;5696569.19419868;470.36924984;144;146;139;37008.000000;1.000000;1.000000;1.000000;1.000000;-0.058226;0.058226;-0.058226;1.000000
445644.73970230;5696569.16079910;470.40264990;241;242;237;61937.000000;1.000000;1.000000;1.000000;1.000000;-0.019075;0.019075;-0.019075;1.000000
445644.63110168;5696569.08259972;470.36644985;186;183;171;46774.000000;1.000000;1.000000;1.000000;1.000000;0.089525;-0.089525;0.089525;1.000000
445644.70370300;5696568.96359928;470.37765004;143;143;127;36237.000000;1.000000;1.000000;1.000000;1.000000;0.052065;-0.052065;0.052065;1.000000
445644.67560013;5696568.93589981;470.37144997;118;120;99;30069.000000;1.000000;1.000000;1.000000;1.000000;0.089247;-0.089247;0.089247;1.000000
445644.64130219;5696568.85919960;470.40384986;117;114;100;29041.000000;1.000000;1.000000;1.000000;1.000000;-0.033700;0.033700;-0.033700;1.000000
445644.93169983;5696568.83479889;470.39345004;66;66;64;16705.000000;1.000000;1.000000;1.000000;1.000000;-0.004799;0.004799;-0.004799;1.000000
445644.64730270;5696569.39909943;470.35235002;172;171;157;43433.000000;1.000000;1.000000;1.000000;1.000000;-0.069099;0.069099;-0.069099;1.000000
445644.64850052;5696569.36159904;470.35194995;90;86;77;22102.000000;1.000000;1.000000;1.000000;1.000000;-0.031599;0.031599;-0.031599;1.000000
445644.57480057;5696569.32179935;470.34815003;152;149;136;38036.000000;1.000000;1.000000;1.000000;1.000000;0.008201;-0.008201;0.008201;1.000000
445644.90890320;5696569.33919914;470.38905003;32;43;32;9766.000000;1.000000;1.000000;1.000000;1.000000;-0.188501;0.188501;-0.188501;1.000000
445644.65150269;5696569.22329910;470.36204984;192;192;184;49087.000000;1.000000;1.000000;1.000000;1.000000;-0.069124;0.069124;-0.069124;1.000000
445644.64600189;5696568.97129925;470.37514998;74;77;68;19275.000000;1.000000;1.000000;1.000000;1.000000;0.085432;-0.085432;0.085432;1.000000
445644.91610153;5696569.19579895;470.39934995;136;139;107;34438.000000;1.000000;1.000000;1.000000;1.000000;-0.195475;0.195475;-0.195475;1.000000
445644.64840134;5696568.89859970;470.37905004;41;38;25;9509.000000;1.000000;1.000000;1.000000;1.000000;-0.069286;0.069286;-0.069286;1.000000
445644.88030060;5696569.35369881;470.37864997;29;33;25;7710.000000;1.000000;1.000000;1.000000;1.000000;-0.161423;0.161423;-0.161423;1.000000
445644.42790039;5696569.26029976;470.36644985;209;200;189;51657.000000;1.000000;1.000000;1.000000;1.000000;0.069700;-0.069700;0.069700;1.000000
445644.48830231;5696569.40199860;470.35914995;185;184;164;46774.000000;1.000000;1.000000;1.000000;1.000000;-0.071999;0.071999;-0.071999;1.000000
445644.71249969;5696569.37419899;470.35734989;106;105;98;26728.000000;1.000000;1.000000;1.000000;1.000000;-0.044324;0.044324;-0.044324;1.000000
445644.82270248;5696569.37799843;470.36004998;116;116;104;29298.000000;1.000000;1.000000;1.000000;1.000000;-0.112797;0.112797;-0.112797;1.000000
445644.71360214;5696569.33669861;470.35924985;70;68;66;17476.000000;1.000000;1.000000;1.000000;1.000000;-0.008029;0.008029;-0.008029;1.000000
445644.49300201;5696569.25209911;470.35765006;104;96;83;24672.000000;1.000000;1.000000;1.000000;1.000000;0.077944;-0.077944;0.077944;1.000000
445644.47560318;5696569.44959934;470.37544991;122;128;92;31354.000000;1.000000;1.000000;1.000000;1.000000;-0.119599;0.119599;-0.119599;1.000000
445644.55920227;5696569.22749908;470.34165003;156;155;146;39578.000000;1.000000;1.000000;1.000000;1.000000;0.102631;-0.102631;0.102631;1.000000
445644.70800217;5696569.23419960;470.37644984;73;66;60;17219.000000;1.000000;1.000000;1.000000;1.000000;0.012625;-0.012625;0.012625;1.000000
445644.74559982;5696569.23769959;470.37815001;36;30;28;7967.000000;1.000000;1.000000;1.000000;1.000000;-0.024973;0.024973;-0.024973;1.000000
445644.82060059;5696569.24009903;470.37924983;55;55;46;13878.000000;1.000000;1.000000;1.000000;1.000000;-0.099974;0.099974;-0.099974;1.000000
445644.67150314;5696569.19549950;470.37894990;129;130;123;32896.000000;1.000000;1.000000;1.000000;1.000000;0.049124;-0.049124;0.049124;1.000000
445644.44880112;5696569.43809898;470.37644984;85;93;58;22102.000000;1.000000;1.000000;1.000000;1.000000;-0.108099;0.108099;-0.108099;1.000000
445644.67730148;5696569.29799850;470.35944988;97;91;84;23644.000000;1.000000;1.000000;1.000000;1.000000;0.034204;-0.034204;0.034204;1.000000
445644.79000290;5696569.30389984;470.36004998;70;68;62;17219.000000;1.000000;1.000000;1.000000;1.000000;-0.069376;0.069376;-0.069376;1.000000
445644.57570084;5696569.30309875;470.34095003;127;125;113;31868.000000;1.000000;1.000000;1.000000;1.000000;0.026901;-0.026901;0.026901;1.000000
445644.91230209;5696569.23339851;470.40664985;84;104;59;23901.000000;1.000000;1.000000;1.000000;1.000000;-0.191675;0.191675;-0.191675;1.000000
445644.62600143;5696569.00819977;470.37704994;96;97;85;24415.000000;1.000000;1.000000;1.000000;1.000000;0.094740;-0.094740;0.094740;1.000000
445644.59430130;5696568.89429863;470.37885000;73;70;62;17990.000000;1.000000;1.000000;1.000000;1.000000;-0.090598;0.090598;-0.090598;1.000000
445644.56089981;5696569.22039898;470.34165003;161;160;151;40863.000000;1.000000;1.000000;1.000000;1.000000;0.109656;-0.109656;0.109656;1.000000
445644.67180069;5696569.22119911;470.37465002;124;120;112;30840.000000;1.000000;1.000000;1.000000;1.000000;0.048826;-0.048826;0.048826;1.000000
445644.70940216;5696569.22699936;470.38104989;85;78;70;20303.000000;1.000000;1.000000;1.000000;1.000000;0.011225;-0.011225;0.011225;1.000000
445644.74699982;5696569.22819908;470.38045003;36;29;27;7710.000000;1.000000;1.000000;1.000000;1.000000;-0.026373;0.026373;-0.026373;1.000000
445644.81970032;5696569.23079880;470.37914993;53;52;45;13107.000000;1.000000;1.000000;1.000000;1.000000;-0.099073;0.099073;-0.099073;1.000000
445644.67300232;5696569.18599899;470.37894990;116;118;109;29812.000000;1.000000;1.000000;1.000000;1.000000;0.047625;-0.047625;0.047625;1.000000
445644.41990097;5696569.45479973;470.37765004;154;157;121;39064.000000;1.000000;1.000000;1.000000;1.000000;-0.124800;0.124800;-0.124800;1.000000
445644.44020279;5696569.41799934;470.36885001;104;107;77;26214.000000;1.000000;1.000000;1.000000;1.000000;-0.087999;0.087999;-0.087999;1.000000
445644.64520081;5696568.96209915;470.37504985;174;177;167;44975.000000;1.000000;1.000000;1.000000;1.000000;0.090932;-0.090932;0.090932;1.000000
445644.44620331;5696569.30759914;470.37014987;146;138;123;35466.000000;1.000000;1.000000;1.000000;1.000000;0.022401;-0.022401;0.022401;1.000000
445644.65170105;5696568.84879883;470.41124990;142;140;127;35723.000000;1.000000;1.000000;1.000000;1.000000;-0.019867;0.019867;-0.019867;1.000000
445644.62590225;5696569.42649849;470.36564996;158;163;136;40606.000000;1.000000;1.000000;1.000000;1.000000;-0.096498;0.096498;-0.096498;1.000000
445644.85110291;5696569.36119850;470.36815001;83;84;72;21074.000000;1.000000;1.000000;1.000000;1.000000;-0.134154;0.134154;-0.134154;1.000000
445644.74340256;5696569.28249939;470.36465003;53;50;48;12850.000000;1.000000;1.000000;1.000000;1.000000;-0.022776;0.022776;-0.022776;1.000000
445644.89529999;5696569.25139912;470.40604999;75;101;53;22359.000000;1.000000;1.000000;1.000000;1.000000;-0.174673;0.174673;-0.174673;1.000000
445644.82400330;5696569.13659866;470.40144994;86;83;81;21331.000000;1.000000;1.000000;1.000000;1.000000;-0.103376;0.103376;-0.103376;1.000000
445644.67660339;5696569.09469898;470.36864998;186;182;172;46774.000000;1.000000;1.000000;1.000000;1.000000;0.044024;-0.044024;0.044024;1.000000
445644.86630066;5696569.06489952;470.40255000;202;201;196;51400.000000;1.000000;1.000000;1.000000;1.000000;-0.145674;0.145674;-0.145674;1.000000
445644.64570053;5696569.18419846;470.35675003;149;153;149;38807.000000;1.000000;1.000000;1.000000;1.000000;-0.074926;0.074926;-0.074926;1.000000
445644.86930283;5696569.19319923;470.39485003;120;122;104;30583.000000;1.000000;1.000000;1.000000;1.000000;-0.148676;0.148676;-0.148676;1.000000
445644.79770096;5696569.15539940;470.40054991;85;84;84;21588.000000;1.000000;1.000000;1.000000;1.000000;-0.077074;0.077074;-0.077074;1.000000
445644.41700180;5696569.32419975;470.37835004;136;130;115;33410.000000;1.000000;1.000000;1.000000;1.000000;0.005800;-0.005800;0.005800;1.000000
445644.73400314;5696569.08469971;470.37115004;110;106;93;26985.000000;1.000000;1.000000;1.000000;1.000000;-0.013376;0.013376;-0.013376;1.000000
445644.53009995;5696569.29099854;470.34115006;71;65;47;16448.000000;1.000000;1.000000;1.000000;1.000000;0.039001;-0.039001;0.039001;1.000000
445644.56789978;5696569.29449852;470.34054996;115;113;99;28784.000000;1.000000;1.000000;1.000000;1.000000;0.035501;-0.035501;0.035501;1.000000
445644.65839966;5696569.14789970;470.36384990;155;158;153;40092.000000;1.000000;1.000000;1.000000;1.000000;-0.062227;0.062227;-0.062227;1.000000
445644.52570160;5696569.40539940;470.36555006;146;146;118;36494.000000;1.000000;1.000000;1.000000;1.000000;-0.075399;0.075399;-0.075399;1.000000
445644.85990341;5696569.38139923;470.37104990;197;199;189;50629.000000;1.000000;1.000000;1.000000;1.000000;-0.148458;0.148458;-0.148458;1.000000
445644.71450241;5696569.29919918;470.36584999;62;59;56;15163.000000;1.000000;1.000000;1.000000;1.000000;0.006124;-0.006124;0.006124;1.000000
445644.68050201;5696569.26029976;470.36614992;143;139;131;35723.000000;1.000000;1.000000;1.000000;1.000000;0.040125;-0.040125;0.040125;1.000000
445644.42440231;5696569.35159882;470.37434985;136;133;115;33667.000000;1.000000;1.000000;1.000000;1.000000;-0.021599;0.021599;-0.021599;1.000000
445644.71400269;5696569.12379845;470.37774994;91;88;73;22359.000000;1.000000;1.000000;1.000000;1.000000;0.006624;-0.006624;0.006624;1.000000
445644.87160309;5696569.33569916;470.38034989;28;32;23;7453.000000;1.000000;1.000000;1.000000;1.000000;-0.151084;0.151084;-0.151084;1.000000
445644.72220047;5696569.14159973;470.38765003;111;109;95;27756.000000;1.000000;1.000000;1.000000;1.000000;-0.001574;0.001574;-0.001574;1.000000
445644.49430283;5696569.44799908;470.37165000;136;144;107;35209.000000;1.000000;1.000000;1.000000;1.000000;-0.118062;0.118062;-0.118062;1.000000
445644.60850342;5696569.41639908;470.36714985;114;118;87;29041.000000;1.000000;1.000000;1.000000;1.000000;-0.086399;0.086399;-0.086399;1.000000
445644.60980042;5696569.37899979;470.36434986;169;170;150;42919.000000;1.000000;1.000000;1.000000;1.000000;-0.049000;0.049000;-0.049000;1.000000
445644.45210083;5696569.34449966;470.36854984;103;98;79;24929.000000;1.000000;1.000000;1.000000;1.000000;-0.014500;0.014500;-0.014500;1.000000
445644.68350037;5696568.97249897;470.37684991;88;89;75;22359.000000;1.000000;1.000000;1.000000;1.000000;0.054836;-0.054836;0.054836;1.000000
445644.68500336;5696568.93739899;470.37415006;124;124;105;31097.000000;1.000000;1.000000;1.000000;1.000000;0.083485;-0.083485;0.083485;1.000000
445644.72229965;5696568.93849953;470.37824990;114;113;93;28527.000000;1.000000;1.000000;1.000000;1.000000;-0.074339;0.074339;-0.074339;1.000000
445644.61070068;5696568.89509972;470.37964990;44;43;36;10794.000000;1.000000;1.000000;1.000000;1.000000;-0.080543;0.080543;-0.080543;1.000000
445644.52480133;5696569.39389904;470.36074998;197;195;173;49601.000000;1.000000;1.000000;1.000000;1.000000;-0.063899;0.063899;-0.063899;1.000000
445644.63560303;5696569.40009888;470.35414984;159;159;144;40349.000000;1.000000;1.000000;1.000000;1.000000;-0.070099;0.070099;-0.070099;1.000000
445644.52620132;5696569.35649879;470.35564997;191;184;166;47288.000000;1.000000;1.000000;1.000000;1.000000;-0.026499;0.026499;-0.026499;1.000000
445644.60120209;5696569.36109932;470.36144998;191;188;172;48059.000000;1.000000;1.000000;1.000000;1.000000;-0.031099;0.031099;-0.031099;1.000000
445644.63879974;5696569.36009892;470.35614993;117;112;103;28784.000000;1.000000;1.000000;1.000000;1.000000;-0.030099;0.030099;-0.030099;1.000000
445644.48990067;5696569.31779869;470.35594990;106;98;78;25186.000000;1.000000;1.000000;1.000000;1.000000;0.012201;-0.012201;0.012201;1.000000
445644.67530258;5696569.32629974;470.35745003;146;143;138;36751.000000;1.000000;1.000000;1.000000;1.000000;0.014553;-0.014553;0.014553;1.000000
445644.78800018;5696569.32989891;470.35554983;60;57;51;14649.000000;1.000000;1.000000;1.000000;1.000000;-0.067373;0.067373;-0.067373;1.000000
445644.45560272;5696569.27889927;470.36084988;177;168;154;43433.000000;1.000000;1.000000;1.000000;1.000000;0.051101;-0.051101;0.051101;1.000000
445644.82550247;5696569.33329971;470.35964992;98;94;86;24158.000000;1.000000;1.000000;1.000000;1.000000;-0.104927;0.104927;-0.104927;1.000000
445644.61170013;5696569.07289894;470.36084988;146;146;130;37008.000000;1.000000;1.000000;1.000000;1.000000;0.108927;-0.108927;0.108927;1.000000
445644.87180145;5696569.12059982;470.39645006;45;38;32;10023.000000;1.000000;1.000000;1.000000;1.000000;-0.151175;0.151175;-0.151175;1.000000
445644.80560120;5696569.11719902;470.40505006;234;233;230;59624.000000;1.000000;1.000000;1.000000;1.000000;-0.084974;0.084974;-0.084974;1.000000
445644.45269974;5696569.32569893;470.36835005;126;120;103;30583.000000;1.000000;1.000000;1.000000;1.000000;0.004301;-0.004301;0.004301;1.000000
445644.66060074;5696569.07519920;470.37004997;173;171;159;43690.000000;1.000000;1.000000;1.000000;1.000000;0.060026;-0.060026;0.060026;1.000000
445644.73560150;5696569.07749947;470.37115004;91;88;75;22359.000000;1.000000;1.000000;1.000000;1.000000;-0.014975;0.014975;-0.014975;1.000000
445644.39790161;5696568.92409904;470.38905003;119;121;108;30326.000000;1.000000;1.000000;1.000000;1.000000;0.094099;-0.094099;0.094099;1.000000
445644.45400055;5696569.28829964;470.36555006;161;153;139;39321.000000;1.000000;1.000000;1.000000;1.000000;0.041700;-0.041700;0.041700;1.000000
445644.62430008;5696569.03419884;470.36564996;49;49;36;12079.000000;1.000000;1.000000;1.000000;1.000000;0.096327;-0.096327;0.096327;1.000000
445644.88330276;5696569.04699905;470.40304996;230;230;224;58853.000000;1.000000;1.000000;1.000000;1.000000;-0.162676;0.162676;-0.162676;1.000000
445644.44120224;5696568.95309933;470.36804988;86;87;77;21845.000000;1.000000;1.000000;1.000000;1.000000;0.123113;-0.123113;0.123113;1.000000
445644.92440231;5696569.01049908;470.40214993;198;197;189;50372.000000;1.000000;1.000000;1.000000;1.000000;-0.180499;0.180499;-0.180499;1.000000
445644.88800247;5696568.97179897;470.40244987;99;99;91;25186.000000;1.000000;1.000000;1.000000;1.000000;-0.141824;0.141824;-0.141824;1.000000
445644.41990097;5696569.24939926;470.36594989;182;171;161;44461.000000;1.000000;1.000000;1.000000;1.000000;0.080601;-0.080601;0.080601;1.000000
445644.92550095;5696568.97299965;470.40415003;166;165;157;42148.000000;1.000000;1.000000;1.000000;1.000000;-0.143000;0.143000;-0.143000;1.000000
445644.84259995;5696568.93399914;470.39754989;132;135;125;34181.000000;1.000000;1.000000;1.000000;1.000000;-0.104043;0.104043;-0.104043;1.000000
445644.88020142;5696568.93519981;470.39695003;216;217;208;55255.000000;1.000000;1.000000;1.000000;1.000000;-0.105200;0.105200;-0.105200;1.000000
445644.80650146;5696568.89539917;470.39314987;169;172;165;43690.000000;1.000000;1.000000;1.000000;1.000000;-0.065399;0.065399;-0.065399;1.000000
445644.90120132;5696569.33279903;470.39094998;26;35;23;7710.000000;1.000000;1.000000;1.000000;1.000000;-0.180596;0.180596;-0.180596;1.000000
445644.73460205;5696568.85299881;470.39634993;189;188;180;48059.000000;1.000000;1.000000;1.000000;1.000000;-0.022999;0.022999;-0.022999;1.000000
445644.86740311;5696569.29619892;470.39135005;100;115;93;27756.000000;1.000000;1.000000;1.000000;1.000000;-0.146776;0.146776;-0.146776;1.000000
445644.64250000;5696569.24989899;470.35734989;179;178;171;45489.000000;1.000000;1.000000;1.000000;1.000000;-0.078127;0.078127;-0.078127;1.000000
445644.63000305;5696568.92379959;470.37384989;41;42;31;10280.000000;1.000000;1.000000;1.000000;1.000000;-0.097925;0.097925;-0.097925;1.000000
445644.55300339;5696569.42389877;470.36934998;91;99;58;23644.000000;1.000000;1.000000;1.000000;1.000000;-0.094585;0.094585;-0.094585;1.000000
445644.67170151;5696569.24239929;470.36784985;125;121;113;31097.000000;1.000000;1.000000;1.000000;1.000000;0.048925;-0.048925;0.048925;1.000000
445644.78199966;5696569.24839981;470.37064983;51;47;41;12079.000000;1.000000;1.000000;1.000000;1.000000;-0.061373;0.061373;-0.061373;1.000000
445644.89680298;5696569.21619900;470.40334990;87;99;64;23387.000000;1.000000;1.000000;1.000000;1.000000;-0.176176;0.176176;-0.176176;1.000000
445644.42230042;5696569.42889984;470.37514998;131;135;103;33410.000000;1.000000;1.000000;1.000000;1.000000;-0.098900;0.098900;-0.098900;1.000000
445644.83390244;5696569.35109909;470.36724998;102;99;87;25186.000000;1.000000;1.000000;1.000000;1.000000;-0.115224;0.115224;-0.115224;1.000000
445644.64250000;5696569.05579956;470.36905005;84;83;69;20817.000000;1.000000;1.000000;1.000000;1.000000;0.078127;-0.078127;0.078127;1.000000
445644.64830215;5696568.94319923;470.37025001;142;146;132;36751.000000;1.000000;1.000000;1.000000;1.000000;0.100501;-0.100501;0.100501;1.000000
445644.83490189;5696569.31359871;470.36914994;36;37;27;8995.000000;1.000000;1.000000;1.000000;1.000000;-0.114275;0.114275;-0.114275;1.000000
445644.72590073;5696569.27239903;470.36835005;43;40;36;10280.000000;1.000000;1.000000;1.000000;1.000000;-0.005274;0.005274;-0.005274;1.000000
445644.80120285;5696569.27709969;470.36714985;62;60;51;15163.000000;1.000000;1.000000;1.000000;1.000000;-0.080576;0.080576;-0.080576;1.000000
445644.91200073;5696569.28019913;470.40715005;161;182;148;43947.000000;1.000000;1.000000;1.000000;1.000000;-0.191374;0.191374;-0.191374;1.000000
445644.87590225;5696569.24159916;470.40045001;97;118;78;27499.000000;1.000000;1.000000;1.000000;1.000000;-0.155275;0.155275;-0.155275;1.000000
445644.82740219;5696569.09889896;470.40354993;220;219;213;56026.000000;1.000000;1.000000;1.000000;1.000000;-0.106775;0.106775;-0.106775;1.000000
445644.90270050;5696569.02879913;470.40374996;228;228;221;58339.000000;1.000000;1.000000;1.000000;1.000000;-0.182074;0.182074;-0.182074;1.000000
445644.90720184;5696568.95359905;470.40534999;209;210;203;53456.000000;1.000000;1.000000;1.000000;1.000000;-0.123603;0.123603;-0.123603;1.000000
445644.78610046;5696569.38609894;470.35844995;122;122;111;30840.000000;1.000000;1.000000;1.000000;1.000000;-0.086220;0.086220;-0.086220;1.000000
445644.92080124;5696568.88959892;470.38664987;146;146;137;37265.000000;1.000000;1.000000;1.000000;1.000000;-0.059599;0.059599;-0.059599;1.000000
445644.65559967;5696569.19479950;470.36664989;181;183;178;46517.000000;1.000000;1.000000;1.000000;1.000000;-0.065027;0.065027;-0.065027;1.000000
445644.84860046;5696568.82139977;470.39415004;19;18;16;4626.000000;1.000000;1.000000;1.000000;1.000000;0.008600;-0.008600;0.008600;1.000000
445644.88610275;5696568.82259949;470.39584996;32;30;27;7710.000000;1.000000;1.000000;1.000000;1.000000;0.007442;-0.007442;0.007442;1.000000
445644.92130096;5696568.82399948;470.39514997;25;23;21;5911.000000;1.000000;1.000000;1.000000;1.000000;0.006001;-0.006001;0.006001;1.000000
445644.65810211;5696569.11989983;470.36344983;150;149;142;38036.000000;1.000000;1.000000;1.000000;1.000000;0.062525;-0.062525;0.062525;1.000000
445644.80650146;5696569.12649925;470.40524985;206;203;200;52171.000000;1.000000;1.000000;1.000000;1.000000;-0.085875;0.085875;-0.085875;1.000000
445644.62430008;5696569.08329971;470.36384990;199;196;183;50115.000000;1.000000;1.000000;1.000000;1.000000;0.096327;-0.096327;0.096327;1.000000
445644.66620071;5696568.93449982;470.37095000;112;113;94;28270.000000;1.000000;1.000000;1.000000;1.000000;0.095494;-0.095494;0.095494;1.000000
445644.57680328;5696569.26559933;470.34294989;153;152;140;38550.000000;1.000000;1.000000;1.000000;1.000000;0.064401;-0.064401;0.064401;1.000000
445644.61850174;5696569.16579922;470.35064985;46;47;47;11822.000000;1.000000;1.000000;1.000000;1.000000;-0.102125;0.102125;-0.102125;1.000000
445644.67360123;5696569.16499908;470.37174990;117;118;109;29812.000000;1.000000;1.000000;1.000000;1.000000;0.047026;-0.047026;0.047026;1.000000
445644.78860291;5696569.13519867;470.40454986;233;232;230;59624.000000;1.000000;1.000000;1.000000;1.000000;-0.067976;0.067976;-0.067976;1.000000
445644.64130219;5696569.09329899;470.36944987;114;111;101;28270.000000;1.000000;1.000000;1.000000;1.000000;0.079325;-0.079325;0.079325;1.000000
445644.70060165;5696568.98249920;470.38004996;102;102;87;25700.000000;1.000000;1.000000;1.000000;1.000000;0.036314;-0.036314;0.036314;1.000000
445644.59190186;5696568.94139870;470.37235000;143;144;135;36494.000000;1.000000;1.000000;1.000000;1.000000;-0.129597;0.129597;-0.129597;1.000000
445644.70200165;5696568.94509895;470.37504985;142;140;122;35466.000000;1.000000;1.000000;1.000000;1.000000;0.070299;-0.070299;0.070299;1.000000
445644.63030060;5696568.90499886;470.37835004;45;44;35;11051.000000;1.000000;1.000000;1.000000;1.000000;-0.079995;0.079995;-0.079995;1.000000
445644.60610016;5696569.01489933;470.36684992;100;100;91;25443.000000;1.000000;1.000000;1.000000;1.000000;0.114527;-0.114527;0.114527;1.000000
445644.42700012;5696569.27669914;470.36885001;174;166;152;42662.000000;1.000000;1.000000;1.000000;1.000000;0.053301;-0.053301;0.053301;1.000000
445644.62540253;5696569.04579933;470.36574986;55;54;40;13364.000000;1.000000;1.000000;1.000000;1.000000;0.095224;-0.095224;0.095224;1.000000
445644.84990128;5696569.39869888;470.36844995;165;167;158;42405.000000;1.000000;1.000000;1.000000;1.000000;-0.146395;0.146395;-0.146395;1.000000
445644.81830032;5696569.28479965;470.36804988;97;98;85;24672.000000;1.000000;1.000000;1.000000;1.000000;-0.097673;0.097673;-0.097673;1.000000
445644.60770233;5696569.43509872;470.37194993;132;140;104;34181.000000;1.000000;1.000000;1.000000;1.000000;-0.105099;0.105099;-0.105099;1.000000
445644.86960037;5696569.41079910;470.37185003;52;54;44;13364.000000;1.000000;1.000000;1.000000;1.000000;-0.169474;0.169474;-0.169474;1.000000
445644.83340271;5696569.36989983;470.36504986;82;81;69;20303.000000;1.000000;1.000000;1.000000;1.000000;-0.119626;0.119626;-0.119626;1.000000
445644.80050095;5696569.29349907;470.36504986;63;60;52;15420.000000;1.000000;1.000000;1.000000;1.000000;-0.079874;0.079874;-0.079874;1.000000
445644.91150101;5696569.29889877;470.40505006;71;89;62;20560.000000;1.000000;1.000000;1.000000;1.000000;-0.190874;0.190874;-0.190874;1.000000
445644.80170258;5696569.25829895;470.36934998;41;41;32;10280.000000;1.000000;1.000000;1.000000;1.000000;-0.081076;0.081076;-0.081076;1.000000
445644.65630157;5696569.17609985;470.36404993;187;191;187;48573.000000;1.000000;1.000000;1.000000;1.000000;-0.064325;0.064325;-0.064325;1.000000
445644.87910278;5696569.22489937;470.40034987;134;147;116;35723.000000;1.000000;1.000000;1.000000;1.000000;-0.158476;0.158476;-0.158476;1.000000
445644.72970016;5696569.18029984;470.40474989;207;205;202;52685.000000;1.000000;1.000000;1.000000;1.000000;-0.009073;0.009073;-0.009073;1.000000
445644.69230087;5696569.13989933;470.37224986;104;101;89;25700.000000;1.000000;1.000000;1.000000;1.000000;0.028326;-0.028326;0.028326;1.000000
445644.80600174;5696569.14529903;470.40304996;103;103;101;26214.000000;1.000000;1.000000;1.000000;1.000000;-0.085375;0.085375;-0.085375;1.000000
445644.65850266;5696569.10109909;470.36794998;155;152;142;38807.000000;1.000000;1.000000;1.000000;1.000000;0.062124;-0.062124;0.062124;1.000000
445644.62470062;5696569.06229980;470.36364986;87;86;70;21588.000000;1.000000;1.000000;1.000000;1.000000;0.095926;-0.095926;0.095926;1.000000
445644.62800034;5696568.95199974;470.37174990;195;199;190;50372.000000;1.000000;1.000000;1.000000;1.000000;0.110883;-0.110883;0.110883;1.000000
445644.74100311;5696569.37639912;470.35165002;63;62;53;15677.000000;1.000000;1.000000;1.000000;1.000000;-0.050676;0.050676;-0.050676;1.000000
445644.70760162;5696568.84369858;470.40435006;202;200;190;51143.000000;1.000000;1.000000;1.000000;1.000000;0.013699;-0.013699;0.013699;1.000000
445644.55460175;5696569.33059891;470.34734990;139;134;120;34181.000000;1.000000;1.000000;1.000000;1.000000;-0.009793;0.009793;-0.009793;1.000000
445644.51820190;5696569.29199894;470.34754993;65;60;43;15163.000000;1.000000;1.000000;1.000000;1.000000;0.038001;-0.038001;0.038001;1.000000
445644.64790161;5696568.89399918;470.38135006;42;39;27;9766.000000;1.000000;1.000000;1.000000;1.000000;-0.064811;0.064811;-0.064811;1.000000
445644.52160080;5696569.25419910;470.34964993;138;131;118;33667.000000;1.000000;1.000000;1.000000;1.000000;0.075801;-0.075801;0.075801;1.000000
445644.67780121;5696569.19469936;470.39325001;180;181;171;46003.000000;1.000000;1.000000;1.000000;1.000000;0.042826;-0.042826;0.042826;1.000000
445644.83080109;5696569.24849899;470.37745001;67;70;55;17219.000000;1.000000;1.000000;1.000000;1.000000;-0.110174;0.110174;-0.110174;1.000000
445644.87990005;5696569.37239845;470.37654998;158;162;153;40863.000000;1.000000;1.000000;1.000000;1.000000;-0.164820;0.164820;-0.164820;1.000000
445644.54800232;5696569.28229912;470.34185006;111;108;92;27499.000000;1.000000;1.000000;1.000000;1.000000;0.048151;-0.048151;0.048151;1.000000
445644.58570297;5696569.28579910;470.34124996;171;170;159;43433.000000;1.000000;1.000000;1.000000;1.000000;0.044228;-0.044228;0.044228;1.000000
445644.54940231;5696569.24709900;470.34145000;66;63;51;15934.000000;1.000000;1.000000;1.000000;1.000000;0.083283;-0.083283;0.083283;1.000000
445644.73570068;5696569.25499924;470.37555005;63;58;55;15163.000000;1.000000;1.000000;1.000000;1.000000;-0.015074;0.015074;-0.015074;1.000000
445644.66290100;5696569.00919922;470.39034988;118;121;108;30326.000000;1.000000;1.000000;1.000000;1.000000;0.057826;-0.057826;0.057826;1.000000
445644.44950302;5696569.44729908;470.37894990;63;69;32;16191.000000;1.000000;1.000000;1.000000;1.000000;-0.117299;0.117299;-0.117299;1.000000
445644.78690155;5696569.16349895;470.39774992;62;60;62;15420.000000;1.000000;1.000000;1.000000;1.000000;-0.066275;0.066275;-0.066275;1.000000
445644.65160187;5696569.05489929;470.37404992;132;135;122;33924.000000;1.000000;1.000000;1.000000;1.000000;0.069025;-0.069025;0.069025;1.000000
445644.76180084;5696569.06099899;470.37914993;97;98;91;24672.000000;1.000000;1.000000;1.000000;1.000000;-0.041174;0.041174;-0.041174;1.000000
445644.65860184;5696568.90709885;470.37724998;76;74;61;18761.000000;1.000000;1.000000;1.000000;1.000000;-0.077099;0.077099;-0.077099;1.000000
445644.56680115;5696569.25719936;470.34005000;76;74;63;18761.000000;1.000000;1.000000;1.000000;1.000000;0.072801;-0.072801;0.072801;1.000000
445644.43500336;5696568.91609962;470.37894990;74;77;66;19018.000000;1.000000;1.000000;1.000000;1.000000;0.086100;-0.086100;0.086100;1.000000
445644.48019989;5696569.36539848;470.35835006;111;107;84;26985.000000;1.000000;1.000000;1.000000;1.000000;-0.035398;0.035398;-0.035398;1.000000
445644.55300339;5696569.36799915;470.35704996;161;159;135;40092.000000;1.000000;1.000000;1.000000;1.000000;-0.039665;0.039665;-0.039665;1.000000
445644.48260315;5696569.29039963;470.35754992;81;72;56;18504.000000;1.000000;1.000000;1.000000;1.000000;0.039600;-0.039600;0.039600;1.000000
445644.44970139;5696569.21409901;470.35754992;87;82;74;21074.000000;1.000000;1.000000;1.000000;1.000000;0.115901;-0.115901;0.115901;1.000000
445644.48719986;5696569.21519859;470.35924985;150;144;133;37008.000000;1.000000;1.000000;1.000000;1.000000;0.114801;-0.114801;0.114801;1.000000
445644.83680161;5696568.89489944;470.39454987;125;124;117;31611.000000;1.000000;1.000000;1.000000;1.000000;-0.065497;0.065497;-0.065497;1.000000
445644.85990341;5696569.24089916;470.39034988;126;139;111;33924.000000;1.000000;1.000000;1.000000;1.000000;-0.139277;0.139277;-0.139277;1.000000
445644.50610168;5696569.42129906;470.36714985;141;144;118;35980.000000;1.000000;1.000000;1.000000;1.000000;-0.091299;0.091299;-0.091299;1.000000
445644.60200317;5696569.11819847;470.35864999;112;111;106;28270.000000;1.000000;1.000000;1.000000;1.000000;0.118624;-0.118624;0.118624;1.000000
445644.57860001;5696569.42379959;470.37054994;102;109;67;26214.000000;1.000000;1.000000;1.000000;1.000000;-0.093800;0.093800;-0.093800;1.000000
445644.43560226;5696569.34369858;470.37004997;131;125;109;32125.000000;1.000000;1.000000;1.000000;1.000000;-0.014209;0.014209;-0.014209;1.000000
445644.80560120;5696569.39819916;470.36644985;204;205;198;52171.000000;1.000000;1.000000;1.000000;1.000000;-0.108958;0.108958;-0.108958;1.000000
445644.63840302;5696569.15679939;470.35835006;54;53;51;13621.000000;1.000000;1.000000;1.000000;1.000000;-0.082224;0.082224;-0.082224;1.000000
445644.71199997;5696569.16109856;470.39434983;181;180;170;46003.000000;1.000000;1.000000;1.000000;1.000000;0.008627;-0.008627;0.008627;1.000000
445644.88420303;5696569.05619915;470.40325000;205;202;197;51914.000000;1.000000;1.000000;1.000000;1.000000;-0.163576;0.163576;-0.163576;1.000000
445644.92400177;5696568.98249920;470.40415003;142;141;134;35980.000000;1.000000;1.000000;1.000000;1.000000;-0.152499;0.152499;-0.152499;1.000000
445644.45409973;5696569.31629951;470.36824991;120;112;97;28784.000000;1.000000;1.000000;1.000000;1.000000;0.013700;-0.013700;0.013700;1.000000
445644.86110123;5696569.13089951;470.39605000;49;44;38;11308.000000;1.000000;1.000000;1.000000;1.000000;-0.140474;0.140474;-0.140474;1.000000
445644.60430344;5696569.04319962;470.36014988;63;64;50;15934.000000;1.000000;1.000000;1.000000;1.000000;0.116323;-0.116323;0.116323;1.000000
445644.90320023;5696569.05689915;470.39715006;111;109;99;27756.000000;1.000000;1.000000;1.000000;1.000000;-0.182573;0.182573;-0.182573;1.000000
445644.50110062;5696569.33779915;470.35664989;104;97;78;24929.000000;1.000000;1.000000;1.000000;1.000000;-0.007838;0.007838;-0.007838;1.000000
445644.64650162;5696569.34299858;470.35634996;101;98;89;24929.000000;1.000000;1.000000;1.000000;1.000000;-0.012999;0.012999;-0.012999;1.000000
445644.50450333;5696569.22529896;470.35784986;124;117;104;30069.000000;1.000000;1.000000;1.000000;1.000000;0.104701;-0.104701;0.104701;1.000000
445644.81660278;5696568.90379913;470.39374997;174;176;169;44718.000000;1.000000;1.000000;1.000000;1.000000;-0.073799;0.073799;-0.073799;1.000000
445644.85400208;5696568.90499886;470.39544990;150;150;143;38293.000000;1.000000;1.000000;1.000000;1.000000;-0.074999;0.074999;-0.074999;1.000000
445644.92010315;5696569.08579929;470.39354994;59;58;44;14392.000000;1.000000;1.000000;1.000000;1.000000;-0.199476;0.199476;-0.199476;1.000000
445644.40900238;5696569.28759964;470.37754991;169;161;147;41377.000000;1.000000;1.000000;1.000000;1.000000;0.042400;-0.042400;0.042400;1.000000
445644.96070297;5696569.02119930;470.39695003;86;85;69;21331.000000;1.000000;1.000000;1.000000;1.000000;-0.191457;0.191457;-0.191457;1.000000
445644.96330078;5696568.94859894;470.39625003;166;165;155;42148.000000;1.000000;1.000000;1.000000;1.000000;-0.118825;0.118825;-0.118825;1.000000
445644.79549988;5696568.97819908;470.39364984;121;121;109;30583.000000;1.000000;1.000000;1.000000;1.000000;-0.082364;0.082364;-0.082364;1.000000
445644.59360321;5696569.29439934;470.33935000;204;204;193;51914.000000;1.000000;1.000000;1.000000;1.000000;0.035658;-0.035658;0.035658;1.000000
445644.83180054;5696568.94209869;470.39485003;88;89;77;22359.000000;1.000000;1.000000;1.000000;1.000000;-0.112458;0.112458;-0.112458;1.000000
445644.86919983;5696568.94319923;470.39884998;177;177;169;45232.000000;1.000000;1.000000;1.000000;1.000000;-0.113199;0.113199;-0.113199;1.000000
445644.94450195;5696568.94799908;470.39765002;143;142;133;36237.000000;1.000000;1.000000;1.000000;1.000000;-0.117999;0.117999;-0.117999;1.000000
445644.49590118;5696569.20749863;470.35724999;149;143;131;36751.000000;1.000000;1.000000;1.000000;1.000000;0.122624;-0.122624;0.122624;1.000000
445644.64610107;5696569.21449860;470.35944988;181;183;177;46517.000000;1.000000;1.000000;1.000000;1.000000;-0.074526;0.074526;-0.074526;1.000000
445644.68580063;5696569.17989929;470.39345004;169;172;161;43433.000000;1.000000;1.000000;1.000000;1.000000;0.034826;-0.034826;0.034826;1.000000
445644.75819977;5696569.18239983;470.39905002;72;66;69;17476.000000;1.000000;1.000000;1.000000;1.000000;-0.037573;0.037573;-0.037573;1.000000
445644.90610321;5696569.18749912;470.39645006;103;102;78;25443.000000;1.000000;1.000000;1.000000;1.000000;-0.185476;0.185476;-0.185476;1.000000
445644.64840134;5696569.13949974;470.36095001;109;108;104;27499.000000;1.000000;1.000000;1.000000;1.000000;0.072226;-0.072226;0.072226;1.000000
445644.90740021;5696569.14999969;470.39374997;104;102;86;25700.000000;1.000000;1.000000;1.000000;1.000000;-0.186773;0.186773;-0.186773;1.000000
445644.79800232;5696569.10639961;470.39765002;218;219;212;55769.000000;1.000000;1.000000;1.000000;1.000000;-0.077375;0.077375;-0.077375;1.000000
445644.90970047;5696569.07499893;470.39524986;73;70;58;17733.000000;1.000000;1.000000;1.000000;1.000000;-0.189074;0.189074;-0.189074;1.000000
445644.83820160;5696569.03499897;470.39395000;181;182;177;46517.000000;1.000000;1.000000;1.000000;1.000000;-0.117575;0.117575;-0.117575;1.000000
445644.76670273;5696568.99489983;470.39255001;82;83;73;20817.000000;1.000000;1.000000;1.000000;1.000000;-0.049339;0.049339;-0.049339;1.000000
445644.84169968;5696568.99729927;470.39364984;126;126;119;32125.000000;1.000000;1.000000;1.000000;1.000000;-0.122026;0.122026;-0.122026;1.000000
445644.57590302;5696568.85599907;470.39625003;96;97;86;24415.000000;1.000000;1.000000;1.000000;1.000000;-0.086236;0.086236;-0.086236;1.000000
445644.95190247;5696569.00329979;470.39864995;106;103;92;26214.000000;1.000000;1.000000;1.000000;1.000000;-0.173348;0.173348;-0.173348;1.000000
445644.36170013;5696568.86649902;470.39835002;160;162;154;41120.000000;1.000000;1.000000;1.000000;1.000000;0.036499;-0.036499;0.036499;1.000000
445644.47210129;5696568.87039955;470.39404990;105;107;97;26985.000000;1.000000;1.000000;1.000000;1.000000;0.051990;-0.051990;0.051990;1.000000
445644.80680283;5696568.92339905;470.39345004;85;88;78;21845.000000;1.000000;1.000000;1.000000;1.000000;-0.093399;0.093399;-0.093399;1.000000
445644.50970276;5696568.87159927;470.39345004;57;58;48;14392.000000;1.000000;1.000000;1.000000;1.000000;0.081708;-0.081708;0.081708;1.000000
445644.72390182;5696568.86329849;470.39605000;149;148;140;37779.000000;1.000000;1.000000;1.000000;1.000000;-0.033298;0.033298;-0.033298;1.000000
445644.95790298;5696568.89069946;470.39524986;113;111;104;28270.000000;1.000000;1.000000;1.000000;1.000000;-0.061532;0.061532;-0.061532;1.000000
445644.77150162;5696568.84719856;470.39564993;137;140;134;35466.000000;1.000000;1.000000;1.000000;1.000000;-0.017199;0.017199;-0.017199;1.000000
445644.84660156;5696568.84959896;470.39444997;105;103;101;26471.000000;1.000000;1.000000;1.000000;1.000000;-0.019599;0.019599;-0.019599;1.000000
445644.84850128;5696569.04569920;470.39454987;199;201;195;51143.000000;1.000000;1.000000;1.000000;1.000000;-0.127874;0.127874;-0.127874;1.000000
445644.77589996;5696568.96829899;470.39264991;94;94;81;23644.000000;1.000000;1.000000;1.000000;1.000000;-0.070797;0.070797;-0.070797;1.000000
445644.96360214;5696568.97659882;470.39654996;167;164;153;41891.000000;1.000000;1.000000;1.000000;1.000000;-0.146767;0.146767;-0.146767;1.000000
445644.81450089;5696568.93199928;470.39395000;93;94;82;23644.000000;1.000000;1.000000;1.000000;1.000000;-0.101999;0.101999;-0.101999;1.000000
445644.88940247;5696568.93439873;470.39734985;215;216;208;54998.000000;1.000000;1.000000;1.000000;1.000000;-0.104479;0.104479;-0.104479;1.000000
445644.77830322;5696568.89339931;470.39185001;162;167;160;42148.000000;1.000000;1.000000;1.000000;1.000000;-0.063583;0.063583;-0.063583;1.000000
445644.59399994;5696568.84969910;470.39695003;163;164;154;41634.000000;1.000000;1.000000;1.000000;1.000000;-0.067084;0.067084;-0.067084;1.000000
445644.78170212;5696568.85569962;470.39384987;146;147;144;37522.000000;1.000000;1.000000;1.000000;1.000000;-0.025739;0.025739;-0.025739;1.000000
445644.72960098;5696568.99379929;470.38384988;43;43;31;10537.000000;1.000000;1.000000;1.000000;1.000000;-0.020940;0.020940;-0.020940;1.000000
445644.40630157;5696569.33459862;470.37794997;147;142;127;36237.000000;1.000000;1.000000;1.000000;1.000000;-0.004948;0.004948;-0.004948;1.000000
445644.85350235;5696569.31639870;470.37934997;35;40;29;9509.000000;1.000000;1.000000;1.000000;1.000000;-0.132875;0.132875;-0.132875;1.000000
445644.43220337;5696569.40709885;470.36835005;97;99;72;24415.000000;1.000000;1.000000;1.000000;1.000000;-0.077217;0.077217;-0.077217;1.000000
445644.52330215;5696569.43129929;470.36804988;118;121;84;29812.000000;1.000000;1.000000;1.000000;1.000000;-0.101299;0.101299;-0.101299;1.000000
445644.84430130;5696569.31509979;470.37194993;21;22;15;5140.000000;1.000000;1.000000;1.000000;1.000000;-0.123674;0.123674;-0.123674;1.000000
445644.85450180;5696568.85829933;470.39255001;121;118;117;30326.000000;1.000000;1.000000;1.000000;1.000000;-0.028299;0.028299;-0.028299;1.000000
445644.86130341;5696569.37189873;470.37104990;106;108;97;27242.000000;1.000000;1.000000;1.000000;1.000000;-0.146783;0.146783;-0.146783;1.000000
445644.44970139;5696569.41939934;470.36924984;117;121;93;29812.000000;1.000000;1.000000;1.000000;1.000000;-0.089399;0.089399;-0.089399;1.000000
445644.93080338;5696568.82549866;470.39564993;44;43;40;10794.000000;1.000000;1.000000;1.000000;1.000000;0.004501;-0.004501;0.004501;1.000000
445644.45560272;5696569.30679901;470.36824991;128;121;106;31097.000000;1.000000;1.000000;1.000000;1.000000;0.023201;-0.023201;0.023201;1.000000
445644.48670013;5696569.43939980;470.36885001;164;169;139;42148.000000;1.000000;1.000000;1.000000;1.000000;-0.109400;0.109400;-0.109400;1.000000
445644.68510254;5696569.16849907;470.38395001;114;115;105;29041.000000;1.000000;1.000000;1.000000;1.000000;0.035524;-0.035524;0.035524;1.000000
445644.84710129;5696569.29829891;470.37885000;93;101;85;24672.000000;1.000000;1.000000;1.000000;1.000000;-0.126474;0.126474;-0.126474;1.000000
445644.65240295;5696569.01959904;470.38535001;150;152;139;38293.000000;1.000000;1.000000;1.000000;1.000000;0.068224;-0.068224;0.068224;1.000000
445644.82710083;5696569.30499847;470.36864998;48;49;37;12079.000000;1.000000;1.000000;1.000000;1.000000;-0.106474;0.106474;-0.106474;1.000000
445644.56220062;5696569.42299850;470.36975004;101;110;67;26214.000000;1.000000;1.000000;1.000000;1.000000;-0.093024;0.093024;-0.093024;1.000000
445644.85930069;5696569.40009888;470.37124993;133;136;127;34438.000000;1.000000;1.000000;1.000000;1.000000;-0.155384;0.155384;-0.155384;1.000000
445644.86050232;5696569.36259850;470.37084987;69;70;58;17476.000000;1.000000;1.000000;1.000000;1.000000;-0.143624;0.143624;-0.143624;1.000000
