//X;Y;Z;R;G;B;Intensity;Return Number;Number Of Returns;Scan Direction Flag;Point Source ID;C2M signed distances[-][<0.8];C2M signed distances[<0.4];C2M signed distances[-][<0.2];Stump63
445624.50640114;5696577.63429935;471.98815014;111;117;96;28784.000000;1.000000;1.000000;1.000000;1.000000;-0.195753;0.195753;-0.195753;1.000000
445624.42310150;5696577.81559952;472.08904984;171;189;154;46003.000000;1.000000;1.000000;1.000000;1.000000;-0.014400;0.014400;-0.014400;1.000000
445624.75760086;5696577.83249958;472.01354982;141;139;93;34438.000000;1.000000;1.000000;1.000000;1.000000;0.006245;-0.006245;0.006245;1.000000
445624.56550224;5696577.71299942;471.98245003;64;61;47;15420.000000;1.000000;1.000000;1.000000;1.000000;-0.117006;0.117006;-0.117006;1.000000
445624.60520180;5696577.71399887;471.98425009;136;134;123;34181.000000;1.000000;1.000000;1.000000;1.000000;-0.116001;0.116001;-0.116001;1.000000
445624.43120201;5696577.82659920;472.08715012;177;193;162;47288.000000;1.000000;1.000000;1.000000;1.000000;-0.003401;0.003401;-0.003401;1.000000
445624.63470085;5696577.83479889;471.99634983;171;155;137;40349.000000;1.000000;1.000000;1.000000;1.000000;0.009178;-0.009178;0.009178;1.000000
445624.32920082;5696577.80359943;472.07065012;49;69;28;14906.000000;1.000000;1.000000;1.000000;1.000000;-0.029477;0.029477;-0.029477;1.000000
445624.34050186;5696577.74879940;472.07054998;90;105;64;24415.000000;1.000000;1.000000;1.000000;1.000000;-0.081221;0.081221;-0.081221;1.000000
445624.33270081;5696577.76589878;472.07035019;130;146;108;35209.000000;1.000000;1.000000;1.000000;1.000000;-0.064818;0.064818;-0.064818;1.000000
445624.58680161;5696577.66439922;471.97814991;116;113;106;29041.000000;1.000000;1.000000;1.000000;1.000000;-0.165601;0.165601;-0.165601;1.000000
445624.71620186;5696577.71789940;471.96834995;130;123;111;31611.000000;1.000000;1.000000;1.000000;1.000000;-0.112101;0.112101;-0.112101;1.000000
445624.44680222;5696577.69509895;472.03744986;156;168;134;41120.000000;1.000000;1.000000;1.000000;1.000000;-0.134915;0.134915;-0.134915;1.000000
445624.54540070;5696577.83139904;471.99924995;200;192;170;49087.000000;1.000000;1.000000;1.000000;1.000000;0.001399;-0.001399;0.001399;1.000000
445624.61860092;5696577.83639915;471.99324991;182;169;151;43690.000000;1.000000;1.000000;1.000000;1.000000;0.006399;-0.006399;0.006399;1.000000
445624.43110092;5696577.79179867;472.06815006;79;101;60;22873.000000;1.000000;1.000000;1.000000;1.000000;-0.038201;0.038201;-0.038201;1.000000
445624.31220062;5696577.79359921;472.06514980;104;121;81;28527.000000;1.000000;1.000000;1.000000;1.000000;-0.036401;0.036401;-0.036401;1.000000
445624.42400177;5696577.76219948;472.06045010;111;133;96;31354.000000;1.000000;1.000000;1.000000;1.000000;-0.067801;0.067801;-0.067801;1.000000
445624.31470116;5696577.71859940;472.06204988;35;44;16;9766.000000;1.000000;1.000000;1.000000;1.000000;-0.111401;0.111401;-0.111401;1.000000
445624.22620209;5696577.86489876;472.04575016;141;142;131;35980.000000;1.000000;1.000000;1.000000;1.000000;0.035102;-0.035102;0.035102;1.000000
445624.22750099;5696577.82749947;472.04304983;103;106;89;26471.000000;1.000000;1.000000;1.000000;1.000000;-0.003517;0.003517;-0.003517;1.000000
445624.33880241;5696577.83299931;472.07614996;121;142;107;33667.000000;1.000000;1.000000;1.000000;1.000000;0.004601;-0.004601;0.004601;1.000000
445624.23100098;5696577.71499928;472.04185011;156;161;142;40349.000000;1.000000;1.000000;1.000000;1.000000;-0.115001;0.115001;-0.115001;1.000000
445624.71570213;5696577.66189869;471.96764996;156;154;149;39578.000000;1.000000;1.000000;1.000000;1.000000;-0.168101;0.168101;-0.168101;1.000000
445624.28280075;5696577.87579926;472.05774977;58;66;52;15934.000000;1.000000;1.000000;1.000000;1.000000;0.045799;-0.045799;0.045799;1.000000
445624.61020096;5696577.76949890;471.98974993;235;230;220;59110.000000;1.000000;1.000000;1.000000;1.000000;-0.060501;0.060501;-0.060501;1.000000
445624.49970062;5696577.72779949;472.02154972;123;132;103;32382.000000;1.000000;1.000000;1.000000;1.000000;-0.102201;0.102201;-0.102201;1.000000
445624.57280167;5696577.76829918;471.98574974;161;155;140;39835.000000;1.000000;1.000000;1.000000;1.000000;-0.061709;0.061709;-0.061709;1.000000
445624.28390129;5696577.83829887;472.05975010;113;128;98;30840.000000;1.000000;1.000000;1.000000;1.000000;0.008335;-0.008335;0.008335;1.000000
445624.50960167;5696577.81089886;472.02535011;90;92;63;22616.000000;1.000000;1.000000;1.000000;1.000000;-0.019172;0.019172;-0.019172;1.000000
445624.73020180;5696577.80499943;471.99335005;187;173;147;44718.000000;1.000000;1.000000;1.000000;1.000000;-0.025001;0.025001;-0.025001;1.000000
445624.54560097;5696577.75669868;471.99604990;106;104;81;26214.000000;1.000000;1.000000;1.000000;1.000000;-0.073301;0.073301;-0.073301;1.000000
445624.51070221;5696577.68289955;471.99354984;87;89;71;22102.000000;1.000000;1.000000;1.000000;1.000000;-0.147102;0.147102;-0.147102;1.000000
445624.43190201;5696577.77089890;472.05865004;111;132;94;31097.000000;1.000000;1.000000;1.000000;1.000000;-0.059101;0.059101;-0.059101;1.000000
445624.46540077;5696577.68889912;472.02654984;202;210;180;52428.000000;1.000000;1.000000;1.000000;1.000000;-0.141101;0.141101;-0.141101;1.000000
445624.57630165;5696577.73059948;471.98544981;92;89;73;22616.000000;1.000000;1.000000;1.000000;1.000000;-0.099401;0.099401;-0.099401;1.000000
445624.61390121;5696577.73179920;471.98484995;140;136;125;34695.000000;1.000000;1.000000;1.000000;1.000000;-0.098201;0.098201;-0.098201;1.000000
445624.58160217;5696577.81419952;471.98904993;113;102;87;26471.000000;1.000000;1.000000;1.000000;1.000000;-0.015800;0.015800;-0.015800;1.000000
445624.58290108;5696577.77669914;471.98635008;207;200;187;51400.000000;1.000000;1.000000;1.000000;1.000000;-0.053301;0.053301;-0.053301;1.000000
445624.76880081;5696577.78759869;471.98325016;187;181;160;46260.000000;1.000000;1.000000;1.000000;1.000000;-0.042445;0.042445;-0.042445;1.000000
445624.17970093;5696577.82459934;472.05954983;56;61;40;14649.000000;1.000000;1.000000;1.000000;1.000000;-0.005401;0.005401;-0.005401;1.000000
445624.36650093;5696577.85379894;472.07525017;66;80;55;18761.000000;1.000000;1.000000;1.000000;1.000000;0.023799;-0.023799;0.023799;1.000000
445624.64900215;5696577.73319920;471.98644974;174;170;158;43433.000000;1.000000;1.000000;1.000000;1.000000;-0.096801;0.096801;-0.096801;1.000000
445624.68460091;5696577.73699959;471.98344995;192;185;172;47545.000000;1.000000;1.000000;1.000000;1.000000;-0.093000;0.093000;-0.093000;1.000000
445624.28190239;5696577.86659916;472.05765011;71;79;62;19018.000000;1.000000;1.000000;1.000000;1.000000;0.036599;-0.036599;0.036599;1.000000
445624.28310211;5696577.82909878;472.05725004;104;120;87;28527.000000;1.000000;1.000000;1.000000;1.000000;-0.000901;0.000901;-0.000901;1.000000
445624.28660210;5696577.79139908;472.05695011;152;166;129;40349.000000;1.000000;1.000000;1.000000;1.000000;-0.038757;0.038757;-0.038757;1.000000
445624.71150215;5696577.80439957;471.99244978;170;154;132;40092.000000;1.000000;1.000000;1.000000;1.000000;-0.025600;0.025600;-0.025600;1.000000
445624.48980148;5696577.75419910;472.03545000;111;124;92;29812.000000;1.000000;1.000000;1.000000;1.000000;-0.075801;0.075801;-0.075801;1.000000
445624.32400139;5696577.72009953;472.06475021;56;65;36;15163.000000;1.000000;1.000000;1.000000;1.000000;-0.110321;0.110321;-0.110321;1.000000
445624.61520203;5696577.69439896;471.98215010;129;128;118;32639.000000;1.000000;1.000000;1.000000;1.000000;-0.135601;0.135601;-0.135601;1.000000
445624.58440216;5696577.76719959;471.98624994;206;201;188;51657.000000;1.000000;1.000000;1.000000;1.000000;-0.062800;0.062800;-0.062800;1.000000
445624.47560127;5696577.69729908;472.02474977;131;139;111;34181.000000;1.000000;1.000000;1.000000;1.000000;-0.132774;0.132774;-0.132774;1.000000
445624.76420219;5696577.69969948;471.95394995;204;195;184;50372.000000;1.000000;1.000000;1.000000;1.000000;-0.130467;0.130467;-0.130467;1.000000
445624.50580223;5696577.65299900;471.98834993;98;100;82;24929.000000;1.000000;1.000000;1.000000;1.000000;-0.177045;0.177045;-0.177045;1.000000
445624.20630081;5696577.85499866;472.05174973;136;138;130;34952.000000;1.000000;1.000000;1.000000;1.000000;0.024999;-0.024999;0.024999;1.000000
445624.22120102;5696577.73459919;472.04164984;193;196;181;49601.000000;1.000000;1.000000;1.000000;1.000000;-0.095403;0.095403;-0.095403;1.000000
445624.43970116;5696577.80969913;472.07105019;84;103;65;23901.000000;1.000000;1.000000;1.000000;1.000000;-0.020303;0.020303;-0.020303;1.000000
445624.43980225;5696577.63989933;472.02714970;104;120;78;28270.000000;1.000000;1.000000;1.000000;1.000000;-0.190101;0.190101;-0.190101;1.000000
445624.43440063;5696577.77069958;472.05404999;122;142;103;33667.000000;1.000000;1.000000;1.000000;1.000000;-0.059300;0.059300;-0.059300;1.000000
445624.28790100;5696577.72829922;472.05394985;131;133;102;32896.000000;1.000000;1.000000;1.000000;1.000000;-0.101803;0.101803;-0.101803;1.000000
445624.43570145;5696577.73329933;472.05135014;88;109;70;25186.000000;1.000000;1.000000;1.000000;1.000000;-0.096701;0.096701;-0.096701;1.000000
445624.55430229;5696577.77459915;471.99434998;112;106;84;26985.000000;1.000000;1.000000;1.000000;1.000000;-0.055401;0.055401;-0.055401;1.000000
445624.22870071;5696577.78999908;472.04264977;151;155;134;38807.000000;1.000000;1.000000;1.000000;1.000000;-0.040021;0.040021;-0.040021;1.000000
445624.28890236;5696577.69079884;472.05585005;57;67;41;15677.000000;1.000000;1.000000;1.000000;1.000000;-0.139247;0.139247;-0.139247;1.000000
445624.41470154;5696577.79779919;472.08145000;90;111;71;25700.000000;1.000000;1.000000;1.000000;1.000000;-0.032316;0.032316;-0.032316;1.000000
445624.48700150;5696577.80109890;472.04054977;87;98;70;23387.000000;1.000000;1.000000;1.000000;1.000000;-0.028901;0.028901;-0.028901;1.000000
445624.22990234;5696577.75249870;472.04225018;119;121;102;30326.000000;1.000000;1.000000;1.000000;1.000000;-0.077501;0.077501;-0.077501;1.000000
445624.58420189;5696577.73929890;471.98364975;121;118;103;30069.000000;1.000000;1.000000;1.000000;1.000000;-0.090701;0.090701;-0.090701;1.000000
445624.19360168;5696577.71389874;472.04015018;207;207;197;52685.000000;1.000000;1.000000;1.000000;1.000000;-0.116178;0.116178;-0.116178;1.000000
445624.52950104;5696577.76499947;472.00705006;142;143;115;35723.000000;1.000000;1.000000;1.000000;1.000000;-0.065001;0.065001;-0.065001;1.000000
445624.19470222;5696577.67639931;472.04215004;55;58;43;14135.000000;1.000000;1.000000;1.000000;1.000000;-0.153653;0.153653;-0.153653;1.000000
445624.23220070;5696577.67979916;472.04614975;56;68;43;15677.000000;1.000000;1.000000;1.000000;1.000000;-0.150201;0.150201;-0.150201;1.000000
445624.41780098;5696577.68609913;472.04064991;165;180;143;43947.000000;1.000000;1.000000;1.000000;1.000000;-0.143901;0.143901;-0.143901;1.000000
445624.52870186;5696577.73009880;472.00425007;123;128;100;31611.000000;1.000000;1.000000;1.000000;1.000000;-0.099901;0.099901;-0.099901;1.000000
445624.62160118;5696577.74039944;471.98764994;180;175;163;44975.000000;1.000000;1.000000;1.000000;1.000000;-0.089601;0.089601;-0.089601;1.000000
445624.27090080;5696577.64349945;472.04745008;174;195;156;47288.000000;1.000000;1.000000;1.000000;1.000000;-0.186501;0.186501;-0.186501;1.000000
445624.74950226;5696577.77549942;471.97055008;197;186;168;48059.000000;1.000000;1.000000;1.000000;1.000000;-0.054501;0.054501;-0.054501;1.000000
445624.49430092;5696577.68879898;472.00684978;93;96;72;23644.000000;1.000000;1.000000;1.000000;1.000000;-0.141201;0.141201;-0.141201;1.000000
445624.34620102;5696577.64599903;472.04164984;111;123;95;29812.000000;1.000000;1.000000;1.000000;1.000000;-0.184001;0.184001;-0.184001;1.000000
445624.43920143;5696577.65859898;472.02734997;103;117;76;27756.000000;1.000000;1.000000;1.000000;1.000000;-0.171401;0.171401;-0.171401;1.000000
445624.58560188;5696577.70409878;471.98325016;142;137;126;35209.000000;1.000000;1.000000;1.000000;1.000000;-0.125901;0.125901;-0.125901;1.000000
445624.34480103;5696577.86989887;472.06984999;122;137;117;33410.000000;1.000000;1.000000;1.000000;1.000000;0.039899;-0.039899;0.039899;1.000000
445624.64630135;5696577.80809887;471.99424984;141;125;112;32896.000000;1.000000;1.000000;1.000000;1.000000;-0.021901;0.021901;-0.021901;1.000000
445624.50330170;5696577.65319927;471.99284985;88;92;72;22616.000000;1.000000;1.000000;1.000000;1.000000;-0.176806;0.176806;-0.176806;1.000000
445624.50080116;5696577.79299934;472.02705004;59;64;38;15163.000000;1.000000;1.000000;1.000000;1.000000;-0.037001;0.037001;-0.037001;1.000000
445624.62250145;5696577.72399910;471.98514988;147;144;134;36751.000000;1.000000;1.000000;1.000000;1.000000;-0.106001;0.106001;-0.106001;1.000000
445624.42850121;5696577.78739937;472.06565001;85;105;64;24158.000000;1.000000;1.000000;1.000000;1.000000;-0.042601;0.042601;-0.042601;1.000000
445624.51450165;5696577.64529903;471.98635008;151;154;138;38807.000000;1.000000;1.000000;1.000000;1.000000;-0.184701;0.184701;-0.184701;1.000000
445624.32240112;5696577.80429943;472.06804993;47;69;26;14649.000000;1.000000;1.000000;1.000000;1.000000;-0.026924;0.026924;-0.026924;1.000000
445624.23470123;5696577.85479935;472.04374983;97;101;86;25186.000000;1.000000;1.000000;1.000000;1.000000;0.024799;-0.024799;0.024799;1.000000
445624.32360085;5696577.76679905;472.06764986;132;147;109;35466.000000;1.000000;1.000000;1.000000;1.000000;-0.063870;0.063870;-0.063870;1.000000
445624.35850151;5696577.76809891;472.07385017;99;117;77;27499.000000;1.000000;1.000000;1.000000;1.000000;-0.061901;0.061901;-0.061901;1.000000
445624.50480087;5696577.81129940;472.02974989;106;111;82;27242.000000;1.000000;1.000000;1.000000;1.000000;-0.018928;0.018928;-0.018928;1.000000
445624.75810249;5696577.80239876;471.99224998;189;182;155;46517.000000;1.000000;1.000000;1.000000;1.000000;-0.028295;0.028295;-0.028295;1.000000
445624.39970215;5696577.69689949;472.04925014;151;167;132;40606.000000;1.000000;1.000000;1.000000;1.000000;-0.133101;0.133101;-0.133101;1.000000
445624.23730095;5696577.78219898;472.04295017;96;101;77;24672.000000;1.000000;1.000000;1.000000;1.000000;-0.047801;0.047801;-0.047801;1.000000
445624.24200066;5696577.70699890;472.04225018;86;92;70;22359.000000;1.000000;1.000000;1.000000;1.000000;-0.123001;0.123001;-0.123001;1.000000
445624.37440117;5696577.86239918;472.07345011;29;42;24;9252.000000;1.000000;1.000000;1.000000;1.000000;0.032399;-0.032399;0.032399;1.000000
445624.41200073;5696577.86359890;472.07044985;42;56;35;12593.000000;1.000000;1.000000;1.000000;1.000000;0.033821;-0.033821;0.033821;1.000000
445624.32480247;5696577.72929867;472.06724979;66;78;43;17990.000000;1.000000;1.000000;1.000000;1.000000;-0.101240;0.101240;-0.101240;1.000000
445624.69150169;5696577.81789883;471.99865009;164;149;129;38807.000000;1.000000;1.000000;1.000000;1.000000;-0.012286;0.012286;-0.012286;1.000000
445624.65630157;5696577.81649883;471.99704983;171;154;138;40349.000000;1.000000;1.000000;1.000000;1.000000;-0.013501;0.013501;-0.013501;1.000000
445624.51000221;5696577.73629959;472.01744987;113;121;89;29555.000000;1.000000;1.000000;1.000000;1.000000;-0.093709;0.093709;-0.093709;1.000000
445624.30970200;5696577.86849888;472.06825020;20;33;15;6939.000000;1.000000;1.000000;1.000000;1.000000;0.038499;-0.038499;0.038499;1.000000
445624.31070145;5696577.83099945;472.07245018;104;124;87;29041.000000;1.000000;1.000000;1.000000;1.000000;0.000999;-0.000999;0.000999;1.000000
445624.72120102;5696577.81039913;471.99764969;186;171;146;44204.000000;1.000000;1.000000;1.000000;1.000000;-0.019601;0.019601;-0.019601;1.000000
445624.48220070;5696577.77359875;472.03764965;40;52;22;11565.000000;1.000000;1.000000;1.000000;1.000000;-0.056401;0.056401;-0.056401;1.000000
445624.72540100;5696577.73819931;471.96204998;173;162;147;41891.000000;1.000000;1.000000;1.000000;1.000000;-0.091801;0.091801;-0.091801;1.000000
445624.62020119;5696577.77779873;471.99265005;161;154;144;39835.000000;1.000000;1.000000;1.000000;1.000000;-0.052201;0.052201;-0.052201;1.000000
445624.47330101;5696577.69979961;472.02934982;129;139;108;33924.000000;1.000000;1.000000;1.000000;1.000000;-0.130228;0.130228;-0.130228;1.000000
445624.29240234;5696577.83049877;472.06234982;90;107;72;25186.000000;1.000000;1.000000;1.000000;1.000000;0.000501;-0.000501;0.000501;1.000000
445624.51210220;5696577.69899948;471.99615004;121;121;100;30326.000000;1.000000;1.000000;1.000000;1.000000;-0.131001;0.131001;-0.131001;1.000000
445624.36600121;5696577.65589912;472.03795006;149;162;131;39578.000000;1.000000;1.000000;1.000000;1.000000;-0.174101;0.174101;-0.174101;1.000000
445624.65780075;5696577.75339897;471.98945000;154;146;132;37522.000000;1.000000;1.000000;1.000000;1.000000;-0.076601;0.076601;-0.076601;1.000000
445624.45950134;5696577.83849915;472.05364992;28;40;16;8481.000000;1.000000;1.000000;1.000000;1.000000;0.008499;-0.008499;0.008499;1.000000
445624.30360229;5696577.77569874;472.06215002;141;152;117;37008.000000;1.000000;1.000000;1.000000;1.000000;-0.054301;0.054301;-0.054301;1.000000
445624.45800217;5696577.84799870;472.05375006;36;47;24;10537.000000;1.000000;1.000000;1.000000;1.000000;0.017999;-0.017999;0.017999;1.000000
445624.47640236;5696577.70649918;472.02724983;77;85;58;20303.000000;1.000000;1.000000;1.000000;1.000000;-0.123553;0.123553;-0.123553;1.000000
445624.38710220;5696577.80499943;472.08724977;134;152;115;36494.000000;1.000000;1.000000;1.000000;1.000000;-0.025001;0.025001;-0.025001;1.000000
445624.43830116;5696577.84479912;472.07144978;66;81;52;18761.000000;1.000000;1.000000;1.000000;1.000000;0.014799;-0.014799;0.014799;1.000000
445624.49100121;5696577.79149921;472.03595020;46;54;28;12336.000000;1.000000;1.000000;1.000000;1.000000;-0.038501;0.038501;-0.038501;1.000000
445624.74900063;5696577.80559929;471.99414970;184;174;147;44718.000000;1.000000;1.000000;1.000000;1.000000;-0.024401;0.024401;-0.024401;1.000000
445624.49520119;5696577.64219959;471.99475004;78;84;59;20303.000000;1.000000;1.000000;1.000000;1.000000;-0.187800;0.187800;-0.187800;1.000000
445624.55100067;5696577.81459911;471.99464991;174;164;143;42148.000000;1.000000;1.000000;1.000000;1.000000;-0.015401;0.015401;-0.015401;1.000000
445624.73330124;5696577.74689873;471.96014978;168;155;140;40349.000000;1.000000;1.000000;1.000000;1.000000;-0.083101;0.083101;-0.083101;1.000000
445624.40170105;5696577.85519894;472.07455017;50;63;40;14392.000000;1.000000;1.000000;1.000000;1.000000;0.025199;-0.025199;0.025199;1.000000
445624.71310242;5696577.79269894;471.98544981;177;161;140;41891.000000;1.000000;1.000000;1.000000;1.000000;-0.037301;0.037301;-0.037301;1.000000
445624.31910141;5696577.82079895;472.07275011;85;107;67;24672.000000;1.000000;1.000000;1.000000;1.000000;-0.010343;0.010343;-0.010343;1.000000
445624.55400093;5696577.79559906;471.99454977;132;122;101;31354.000000;1.000000;1.000000;1.000000;1.000000;-0.034401;0.034401;-0.034401;1.000000
445624.72250183;5696577.79189880;471.98115017;183;167;145;43433.000000;1.000000;1.000000;1.000000;1.000000;-0.038101;0.038101;-0.038101;1.000000
445624.20680244;5696577.65879925;472.04944994;42;49;30;11308.000000;1.000000;1.000000;1.000000;1.000000;-0.171201;0.171201;-0.171201;1.000000
445624.61580093;5696577.67559917;471.98194983;155;154;146;39321.000000;1.000000;1.000000;1.000000;1.000000;-0.154401;0.154401;-0.154401;1.000000
445624.68910225;5696577.68069942;471.97365000;105;103;94;26214.000000;1.000000;1.000000;1.000000;1.000000;-0.149301;0.149301;-0.149301;1.000000
445624.57240112;5696577.81499870;471.98864986;136;125;109;32382.000000;1.000000;1.000000;1.000000;1.000000;-0.015066;0.015066;-0.015066;1.000000
445624.38850220;5696577.73279961;472.06084969;80;100;59;22873.000000;1.000000;1.000000;1.000000;1.000000;-0.097200;0.097200;-0.097200;1.000000
445624.66800125;5696577.76179894;471.98764994;158;145;130;37779.000000;1.000000;1.000000;1.000000;1.000000;-0.068201;0.068201;-0.068201;1.000000
445624.57300194;5696577.79629906;471.98845007;170;160;144;41377.000000;1.000000;1.000000;1.000000;1.000000;-0.033710;0.033710;-0.033710;1.000000
445624.76110085;5696577.77669914;471.97574999;194;186;167;47802.000000;1.000000;1.000000;1.000000;1.000000;-0.054093;0.054093;-0.054093;1.000000
445624.67730148;5696577.73529919;471.98544981;185;179;167;46003.000000;1.000000;1.000000;1.000000;1.000000;-0.094701;0.094701;-0.094701;1.000000
445624.51230247;5696577.67119892;471.98654987;51;52;35;12593.000000;1.000000;1.000000;1.000000;1.000000;-0.158801;0.158801;-0.158801;1.000000
445624.31130226;5696577.78429897;472.06495001;172;186;149;45489.000000;1.000000;1.000000;1.000000;1.000000;-0.045701;0.045701;-0.045701;1.000000
445624.19050224;5696577.76069935;472.04995014;118;119;96;29812.000000;1.000000;1.000000;1.000000;1.000000;-0.069310;0.069310;-0.069310;1.000000
445624.71250160;5696577.78349884;471.97825005;175;159;140;41377.000000;1.000000;1.000000;1.000000;1.000000;-0.046501;0.046501;-0.046501;1.000000
445624.38100250;5696577.69639881;472.04845001;98;115;77;26985.000000;1.000000;1.000000;1.000000;1.000000;-0.133601;0.133601;-0.133601;1.000000
445624.64210136;5696577.70599945;471.97884991;129;129;118;32639.000000;1.000000;1.000000;1.000000;1.000000;-0.124054;0.124054;-0.124054;1.000000
445624.64350136;5696577.66849907;471.97374966;193;192;184;49087.000000;1.000000;1.000000;1.000000;1.000000;-0.161516;0.161516;-0.161516;1.000000
445624.35400208;5696577.68479927;472.05174973;105;119;82;28270.000000;1.000000;1.000000;1.000000;1.000000;-0.145201;0.145201;-0.145201;1.000000
445624.24690063;5696577.80929955;472.04134991;127;134;111;33153.000000;1.000000;1.000000;1.000000;1.000000;-0.020700;0.020700;-0.020700;1.000000
445624.38760193;5696577.74919899;472.06335022;118;136;94;32125.000000;1.000000;1.000000;1.000000;1.000000;-0.080801;0.080801;-0.080801;1.000000
445624.57150085;5696577.83139904;471.99114992;210;201;183;51657.000000;1.000000;1.000000;1.000000;1.000000;0.002681;-0.002681;0.002681;1.000000
445624.21030243;5696577.77059944;472.04624989;121;121;99;30326.000000;1.000000;1.000000;1.000000;1.000000;-0.059401;0.059401;-0.059401;1.000000
445624.60670097;5696577.83289917;471.99034979;144;131;113;33924.000000;1.000000;1.000000;1.000000;1.000000;0.002899;-0.002899;0.002899;1.000000
445624.30480202;5696577.73819931;472.06185009;116;123;86;29812.000000;1.000000;1.000000;1.000000;1.000000;-0.091801;0.091801;-0.091801;1.000000
445624.55980118;5696577.83249958;471.99294998;219;210;190;53970.000000;1.000000;1.000000;1.000000;1.000000;0.002500;-0.002500;0.002500;1.000000
445624.36420067;5696577.63729961;472.03764965;42;52;30;11822.000000;1.000000;1.000000;1.000000;1.000000;-0.192700;0.192700;-0.192700;1.000000
445624.43810089;5696577.70509918;472.04414989;122;137;101;32896.000000;1.000000;1.000000;1.000000;1.000000;-0.124901;0.124901;-0.124901;1.000000
445624.42070206;5696577.63919933;472.03324987;72;90;50;20560.000000;1.000000;1.000000;1.000000;1.000000;-0.190801;0.190801;-0.190801;1.000000
445624.38840111;5696577.76069935;472.07054998;130;150;110;35723.000000;1.000000;1.000000;1.000000;1.000000;-0.069301;0.069301;-0.069301;1.000000
445624.31610115;5696577.70919903;472.06195023;27;35;11;7453.000000;1.000000;1.000000;1.000000;1.000000;-0.120813;0.120813;-0.120813;1.000000
445624.72660072;5696577.70069893;471.96164991;134;126;116;32639.000000;1.000000;1.000000;1.000000;1.000000;-0.129301;0.129301;-0.129301;1.000000
445624.36090096;5696577.71209915;472.05935003;115;130;92;31097.000000;1.000000;1.000000;1.000000;1.000000;-0.117901;0.117901;-0.117901;1.000000
445624.60580070;5696577.69519909;471.98404982;118;116;106;29555.000000;1.000000;1.000000;1.000000;1.000000;-0.134801;0.134801;-0.134801;1.000000
445624.63700111;5696577.80669888;471.99144985;107;93;79;24415.000000;1.000000;1.000000;1.000000;1.000000;-0.024871;0.024871;-0.024871;1.000000
445624.75610168;5696577.66309937;471.95314981;170;168;162;42919.000000;1.000000;1.000000;1.000000;1.000000;-0.166954;0.166954;-0.166954;1.000000
445624.63170250;5696577.72319897;471.98554995;159;156;145;39835.000000;1.000000;1.000000;1.000000;1.000000;-0.106910;0.106910;-0.106910;1.000000
445624.61040123;5696577.79749878;471.99014999;53;43;35;11565.000000;1.000000;1.000000;1.000000;1.000000;-0.032501;0.032501;-0.032501;1.000000
445624.72260101;5696577.79419907;471.98355009;179;163;141;42405.000000;1.000000;1.000000;1.000000;1.000000;-0.035801;0.035801;-0.035801;1.000000
445624.23310097;5696577.86429890;472.04605009;139;141;130;35723.000000;1.000000;1.000000;1.000000;1.000000;0.034299;-0.034299;0.034299;1.000000
445624.44840248;5696577.82759960;472.06934978;128;143;108;34438.000000;1.000000;1.000000;1.000000;1.000000;-0.002418;0.002418;-0.002418;1.000000
445624.53050240;5696577.69049938;471.98525002;125;123;107;31097.000000;1.000000;1.000000;1.000000;1.000000;-0.139501;0.139501;-0.139501;1.000000
445624.57430084;5696577.75889881;471.98574974;137;133;118;33924.000000;1.000000;1.000000;1.000000;1.000000;-0.071101;0.071101;-0.071101;1.000000
445624.23810204;5696577.79139908;472.04314997;168;173;151;43433.000000;1.000000;1.000000;1.000000;1.000000;-0.038601;0.038601;-0.038601;1.000000
445624.24040230;5696577.71649940;472.04465010;109;115;92;28270.000000;1.000000;1.000000;1.000000;1.000000;-0.113501;0.113501;-0.113501;1.000000
445624.73950203;5696577.80189903;471.98904993;186;175;150;44975.000000;1.000000;1.000000;1.000000;1.000000;-0.028101;0.028101;-0.028101;1.000000
445624.28240211;5696577.81989868;472.05474998;113;130;93;30840.000000;1.000000;1.000000;1.000000;1.000000;-0.010101;0.010101;-0.010101;1.000000
445624.44940193;5696577.64139946;472.02294971;97;113;71;26471.000000;1.000000;1.000000;1.000000;1.000000;-0.188601;0.188601;-0.188601;1.000000
445624.31250198;5696577.74679955;472.06454994;139;145;109;35723.000000;1.000000;1.000000;1.000000;1.000000;-0.083200;0.083200;-0.083200;1.000000
445624.68460091;5696577.76269920;471.98374989;137;124;108;32382.000000;1.000000;1.000000;1.000000;1.000000;-0.067301;0.067301;-0.067301;1.000000
445624.50500114;5696577.64379890;471.98824980;110;113;94;28270.000000;1.000000;1.000000;1.000000;1.000000;-0.186227;0.186227;-0.186227;1.000000
445624.61730202;5696577.63819893;471.97454979;150;148;141;37779.000000;1.000000;1.000000;1.000000;1.000000;-0.191801;0.191801;-0.191801;1.000000
445624.61160095;5696577.75999935;471.98974993;210;206;195;52685.000000;1.000000;1.000000;1.000000;1.000000;-0.070001;0.070001;-0.070001;1.000000
445624.50120171;5696577.74629887;472.02654984;111;123;89;29555.000000;1.000000;1.000000;1.000000;1.000000;-0.083701;0.083701;-0.083701;1.000000
445624.71340187;5696577.73689945;471.96614983;170;159;144;41120.000000;1.000000;1.000000;1.000000;1.000000;-0.093101;0.093101;-0.093101;1.000000
445624.71680077;5696577.69919880;471.96814968;116;111;101;28527.000000;1.000000;1.000000;1.000000;1.000000;-0.130801;0.130801;-0.130801;1.000000
445624.38230141;5696577.68459900;472.04605009;116;131;94;31354.000000;1.000000;1.000000;1.000000;1.000000;-0.145401;0.145401;-0.145401;1.000000
445624.46470078;5696577.67959888;472.02404978;177;186;154;46003.000000;1.000000;1.000000;1.000000;1.000000;-0.150401;0.150401;-0.150401;1.000000
445624.19710167;5696577.88149937;472.05165007;135;135;129;34438.000000;1.000000;1.000000;1.000000;1.000000;0.051525;-0.051525;0.051525;1.000000
445624.57550247;5696577.72139938;471.98535015;85;82;68;20817.000000;1.000000;1.000000;1.000000;1.000000;-0.108601;0.108601;-0.108601;1.000000
445624.21500214;5696577.87289913;472.05004980;176;176;169;44975.000000;1.000000;1.000000;1.000000;1.000000;0.042899;-0.042899;0.042899;1.000000
445624.47500237;5696577.69039925;472.02465012;184;191;163;47545.000000;1.000000;1.000000;1.000000;1.000000;-0.139669;0.139669;-0.139669;1.000000
445624.25280197;5696577.87639912;472.04944994;176;180;169;45489.000000;1.000000;1.000000;1.000000;1.000000;0.046408;-0.046408;0.046408;1.000000
445624.25980194;5696577.72629936;472.05034973;155;158;132;39578.000000;1.000000;1.000000;1.000000;1.000000;-0.103710;0.103710;-0.103710;1.000000
445624.55890091;5696577.66469868;471.97695019;76;73;63;18504.000000;1.000000;1.000000;1.000000;1.000000;-0.165301;0.165301;-0.165301;1.000000
445624.52350243;5696577.66319950;471.97994997;98;98;85;24672.000000;1.000000;1.000000;1.000000;1.000000;-0.166800;0.166800;-0.166800;1.000000
445624.58570107;5696577.72979935;471.98355009;116;113;98;28784.000000;1.000000;1.000000;1.000000;1.000000;-0.100201;0.100201;-0.100201;1.000000
445624.43920143;5696577.85409935;472.06924965;69;84;57;19532.000000;1.000000;1.000000;1.000000;1.000000;0.024099;-0.024099;0.024099;1.000000
445624.55190094;5696577.82389935;471.99475004;212;202;182;51914.000000;1.000000;1.000000;1.000000;1.000000;-0.006101;0.006101;-0.006101;1.000000
445624.45490082;5696577.70829876;472.04024984;155;169;135;41377.000000;1.000000;1.000000;1.000000;1.000000;-0.121701;0.121701;-0.121701;1.000000
445624.19130142;5696577.76989944;472.05235006;130;133;107;33153.000000;1.000000;1.000000;1.000000;1.000000;-0.060131;0.060131;-0.060131;1.000000
445624.71300133;5696577.79039867;471.98304989;186;170;149;44204.000000;1.000000;1.000000;1.000000;1.000000;-0.039601;0.039601;-0.039601;1.000000
445624.38150223;5696577.70329960;472.05084993;87;103;64;23901.000000;1.000000;1.000000;1.000000;1.000000;-0.126700;0.126700;-0.126700;1.000000
445624.64210136;5696577.67799957;471.97384979;206;206;198;52685.000000;1.000000;1.000000;1.000000;1.000000;-0.152044;0.152044;-0.152044;1.000000
445624.63840111;5696577.79719933;471.99134972;73;60;48;15934.000000;1.000000;1.000000;1.000000;1.000000;-0.033603;0.033603;-0.033603;1.000000
445624.18100174;5696577.78939922;472.06145002;182;188;156;46774.000000;1.000000;1.000000;1.000000;1.000000;-0.040601;0.040601;-0.040601;1.000000
445624.41520126;5696577.74209888;472.05754997;120;142;104;33667.000000;1.000000;1.000000;1.000000;1.000000;-0.087930;0.087930;-0.087930;1.000000
445624.19820221;5696577.84399899;472.05354979;149;151;141;38293.000000;1.000000;1.000000;1.000000;1.000000;0.014008;-0.014008;0.014008;1.000000
445624.62100227;5696577.73349960;471.98514988;157;154;143;39321.000000;1.000000;1.000000;1.000000;1.000000;-0.096500;0.096500;-0.096500;1.000000
445624.18970116;5696577.85409935;472.05564978;149;151;143;38293.000000;1.000000;1.000000;1.000000;1.000000;0.024102;-0.024102;0.024102;1.000000
445624.39660080;5696577.77849873;472.08045008;107;127;86;29812.000000;1.000000;1.000000;1.000000;1.000000;-0.051501;0.051501;-0.051501;1.000000
445624.37990196;5696577.71269901;472.05555012;87;102;62;23901.000000;1.000000;1.000000;1.000000;1.000000;-0.117301;0.117301;-0.117301;1.000000
445624.75410088;5696577.69129951;471.95344975;168;160;152;41377.000000;1.000000;1.000000;1.000000;1.000000;-0.138718;0.138718;-0.138718;1.000000
445624.59620102;5696577.66579922;471.98094990;114;112;104;28527.000000;1.000000;1.000000;1.000000;1.000000;-0.164202;0.164202;-0.164202;1.000000
445624.19760139;5696577.86279877;472.05375006;142;144;137;36494.000000;1.000000;1.000000;1.000000;1.000000;0.032818;-0.032818;0.032818;1.000000
445624.27040108;5696577.86539944;472.05244972;98;106;89;25957.000000;1.000000;1.000000;1.000000;1.000000;0.035399;-0.035399;0.035399;1.000000
445624.30990227;5696577.82169922;472.07004978;68;89;50;20046.000000;1.000000;1.000000;1.000000;1.000000;-0.008301;0.008301;-0.008301;1.000000
445624.64280136;5696577.68719872;471.97634985;173;173;164;44204.000000;1.000000;1.000000;1.000000;1.000000;-0.142831;0.142831;-0.142831;1.000000
445624.51040085;5696577.79219921;472.02045013;85;85;58;21074.000000;1.000000;1.000000;1.000000;1.000000;-0.037810;0.037810;-0.037810;1.000000
445624.26500137;5696577.85659893;472.04974987;89;96;77;23387.000000;1.000000;1.000000;1.000000;1.000000;0.026599;-0.026599;0.026599;1.000000
445624.67670067;5696577.75399883;471.98565008;131;120;106;31097.000000;1.000000;1.000000;1.000000;1.000000;-0.076001;0.076001;-0.076001;1.000000
445624.19450195;5696577.75109871;472.04535009;107;107;87;26728.000000;1.000000;1.000000;1.000000;1.000000;-0.079014;0.079014;-0.079014;1.000000
445624.39230164;5696577.85599907;472.07644989;46;59;37;13364.000000;1.000000;1.000000;1.000000;1.000000;0.025999;-0.025999;0.025999;1.000000
445624.46150215;5696577.78229912;472.04845001;34;52;20;11051.000000;1.000000;1.000000;1.000000;1.000000;-0.047701;0.047701;-0.047701;1.000000
445624.27690132;5696577.73629959;472.05354979;115;115;84;28527.000000;1.000000;1.000000;1.000000;1.000000;-0.093700;0.093700;-0.093700;1.000000
445624.42020233;5696577.80889900;472.08645012;133;152;115;36494.000000;1.000000;1.000000;1.000000;1.000000;-0.021101;0.021101;-0.021101;1.000000
445624.27180107;5696577.83019932;472.05205013;115;128;96;30840.000000;1.000000;1.000000;1.000000;1.000000;0.000199;-0.000199;0.000199;1.000000
445624.26840218;5696577.74409874;472.05095007;70;70;43;17219.000000;1.000000;1.000000;1.000000;1.000000;-0.085901;0.085901;-0.085901;1.000000
445624.45270164;5696577.79009922;472.05275013;61;79;43;17733.000000;1.000000;1.000000;1.000000;1.000000;-0.039901;0.039901;-0.039901;1.000000
445624.52490242;5696577.79339893;472.01184990;120;118;91;29555.000000;1.000000;1.000000;1.000000;1.000000;-0.036601;0.036601;-0.036601;1.000000
445624.52610214;5696577.75589951;472.01144983;141;144;116;35980.000000;1.000000;1.000000;1.000000;1.000000;-0.074100;0.074100;-0.074100;1.000000
445624.62630089;5696577.81699951;471.98875000;131;118;105;30840.000000;1.000000;1.000000;1.000000;1.000000;-0.013000;0.013000;-0.013000;1.000000
445624.71410187;5696577.77179916;471.97125008;145;128;110;33667.000000;1.000000;1.000000;1.000000;1.000000;-0.058201;0.058201;-0.058201;1.000000
445624.45400246;5696577.72469910;472.04274990;91;108;71;25186.000000;1.000000;1.000000;1.000000;1.000000;-0.105301;0.105301;-0.105301;1.000000
445624.20000084;5696577.78779896;472.05294992;187;191;167;48059.000000;1.000000;1.000000;1.000000;1.000000;-0.042201;0.042201;-0.042201;1.000000
445624.27530106;5696577.79249866;472.05174973;135;147;112;35723.000000;1.000000;1.000000;1.000000;1.000000;-0.037501;0.037501;-0.037501;1.000000
445624.66730125;5696577.78049953;471.99014999;174;160;146;41634.000000;1.000000;1.000000;1.000000;1.000000;-0.049500;0.049500;-0.049500;1.000000
445624.27650078;5696577.75509937;472.05144979;46;48;21;11308.000000;1.000000;1.000000;1.000000;1.000000;-0.074901;0.074901;-0.074901;1.000000
445624.42550095;5696577.72479923;472.05314972;121;139;102;33153.000000;1.000000;1.000000;1.000000;1.000000;-0.105201;0.105201;-0.105201;1.000000
445624.27870186;5696577.68009956;472.05294992;72;85;57;20046.000000;1.000000;1.000000;1.000000;1.000000;-0.149900;0.149900;-0.149900;1.000000
445624.50220116;5696577.72769936;472.01704981;125;133;104;32639.000000;1.000000;1.000000;1.000000;1.000000;-0.102301;0.102301;-0.102301;1.000000
445624.20720108;5696577.63999947;472.05154993;90;99;73;23901.000000;1.000000;1.000000;1.000000;1.000000;-0.190001;0.190001;-0.190001;1.000000
445624.28250130;5696577.64469917;472.05034973;153;175;134;41891.000000;1.000000;1.000000;1.000000;1.000000;-0.185301;0.185301;-0.185301;1.000000
445624.57780083;5696577.69319923;471.97814991;150;145;135;37265.000000;1.000000;1.000000;1.000000;1.000000;-0.136801;0.136801;-0.136801;1.000000
445624.26590164;5696577.79109867;472.04904987;152;163;132;40092.000000;1.000000;1.000000;1.000000;1.000000;-0.038901;0.038901;-0.038901;1.000000
445624.57910164;5696577.65579899;471.97534992;104;102;94;25957.000000;1.000000;1.000000;1.000000;1.000000;-0.174201;0.174201;-0.174201;1.000000
445624.54020126;5696577.69199951;471.98105003;110;107;93;27242.000000;1.000000;1.000000;1.000000;1.000000;-0.138020;0.138020;-0.138020;1.000000
445624.37370117;5696577.83429916;472.08234980;35;51;21;10794.000000;1.000000;1.000000;1.000000;1.000000;0.004299;-0.004299;0.004299;1.000000
445624.53980072;5696577.82249935;472.00124981;167;157;135;40349.000000;1.000000;1.000000;1.000000;1.000000;-0.007980;0.007980;-0.007980;1.000000
445624.43300064;5696577.81719883;472.08015015;110;130;95;30840.000000;1.000000;1.000000;1.000000;1.000000;-0.012801;0.012801;-0.012801;1.000000
445624.72940071;5696577.82819946;472.00754978;182;171;138;43690.000000;1.000000;1.000000;1.000000;1.000000;-0.001801;0.001801;-0.001801;1.000000
445624.27810104;5696577.69879921;472.05314972;67;76;49;17990.000000;1.000000;1.000000;1.000000;1.000000;-0.131201;0.131201;-0.131201;1.000000
445624.37380226;5696577.63879879;472.03574993;58;68;43;15934.000000;1.000000;1.000000;1.000000;1.000000;-0.191201;0.191201;-0.191201;1.000000
445624.22680099;5696577.84619911;472.04554989;117;119;105;29812.000000;1.000000;1.000000;1.000000;1.000000;0.016506;-0.016506;0.016506;1.000000
445624.22930153;5696577.77129944;472.04244997;70;72;52;17733.000000;1.000000;1.000000;1.000000;1.000000;-0.058704;0.058704;-0.058704;1.000000
445624.47750099;5696577.63429935;472.00785019;95;106;74;25443.000000;1.000000;1.000000;1.000000;1.000000;-0.195717;0.195717;-0.195717;1.000000
445624.69960220;5696577.64229877;471.97135021;134;133;128;33924.000000;1.000000;1.000000;1.000000;1.000000;-0.187900;0.187900;-0.187900;1.000000
445624.49810226;5696577.76519878;472.03125002;67;78;48;18247.000000;1.000000;1.000000;1.000000;1.000000;-0.064801;0.064801;-0.064801;1.000000
445624.50420197;5696577.69039925;471.99805023;98;99;78;24672.000000;1.000000;1.000000;1.000000;1.000000;-0.139620;0.139620;-0.139620;1.000000
445624.41750153;5696577.71389874;472.05264999;174;190;154;46517.000000;1.000000;1.000000;1.000000;1.000000;-0.116101;0.116101;-0.116101;1.000000
445624.23340233;5696577.66799934;472.04845001;80;94;67;22102.000000;1.000000;1.000000;1.000000;1.000000;-0.162001;0.162001;-0.162001;1.000000
445624.27090080;5696577.67149933;472.05244972;65;82;51;18761.000000;1.000000;1.000000;1.000000;1.000000;-0.158501;0.158501;-0.158501;1.000000
445624.23160179;5696577.69629868;472.04164984;66;73;52;17476.000000;1.000000;1.000000;1.000000;1.000000;-0.133701;0.133701;-0.133701;1.000000
445624.49420174;5696577.71669872;472.01655008;88;94;68;22873.000000;1.000000;1.000000;1.000000;1.000000;-0.113301;0.113301;-0.113301;1.000000
445624.74870117;5696577.80099876;471.98945000;182;172;147;44204.000000;1.000000;1.000000;1.000000;1.000000;-0.029001;0.029001;-0.029001;1.000000
445624.70180138;5696577.83079918;472.00394966;191;177;154;45746.000000;1.000000;1.000000;1.000000;1.000000;0.006416;-0.006416;0.006416;1.000000
445624.52830132;5696577.80249889;472.00745012;97;89;66;22616.000000;1.000000;1.000000;1.000000;1.000000;-0.027501;0.027501;-0.027501;1.000000
445624.74950226;5696577.81479939;472.00124981;177;169;134;42919.000000;1.000000;1.000000;1.000000;1.000000;-0.015201;0.015201;-0.015201;1.000000
445624.38510139;5696577.83319958;472.08514978;41;58;26;12593.000000;1.000000;1.000000;1.000000;1.000000;0.003200;-0.003200;0.003200;1.000000
445624.46710213;5696577.65149887;472.01454975;65;76;41;17476.000000;1.000000;1.000000;1.000000;1.000000;-0.178501;0.178501;-0.178501;1.000000
445624.48800095;5696577.83829887;472.04334976;55;63;36;14649.000000;1.000000;1.000000;1.000000;1.000000;0.008299;-0.008299;0.008299;1.000000
445624.34370239;5696577.67409904;472.05114986;149;163;130;39835.000000;1.000000;1.000000;1.000000;1.000000;-0.155901;0.155901;-0.155901;1.000000
445624.19720085;5696577.63159950;472.04864981;144;152;126;37522.000000;1.000000;1.000000;1.000000;1.000000;-0.198406;0.198406;-0.198406;1.000000
445624.53990181;5696577.85269936;472.01084997;111;105;74;26471.000000;1.000000;1.000000;1.000000;1.000000;0.022849;-0.022849;0.022849;1.000000
445624.38640221;5696577.79799946;472.08715012;126;146;107;34695.000000;1.000000;1.000000;1.000000;1.000000;-0.032001;0.032001;-0.032001;1.000000
445624.53220184;5696577.68109901;471.98054983;123;121;106;30583.000000;1.000000;1.000000;1.000000;1.000000;-0.148901;0.148901;-0.148901;1.000000
445624.76850136;5696577.78299912;471.98084976;186;179;159;45746.000000;1.000000;1.000000;1.000000;1.000000;-0.047053;0.047053;-0.047053;1.000000
445624.45760162;5696577.65009888;472.01644995;86;97;59;22873.000000;1.000000;1.000000;1.000000;1.000000;-0.179901;0.179901;-0.179901;1.000000
445624.75250061;5696577.70079906;471.95585014;194;184;173;47545.000000;1.000000;1.000000;1.000000;1.000000;-0.129202;0.129202;-0.129202;1.000000
445624.43430145;5696577.74279888;472.05144979;88;109;69;25186.000000;1.000000;1.000000;1.000000;1.000000;-0.087201;0.087201;-0.087201;1.000000
445624.34750183;5696577.85089882;472.07434990;85;102;76;24158.000000;1.000000;1.000000;1.000000;1.000000;0.020899;-0.020899;0.020899;1.000000
445624.41680153;5696577.73259933;472.05515005;125;143;102;34181.000000;1.000000;1.000000;1.000000;1.000000;-0.097403;0.097403;-0.097403;1.000000
445624.73870094;5696577.82729919;472.00794985;161;151;115;38550.000000;1.000000;1.000000;1.000000;1.000000;-0.002701;0.002701;-0.002701;1.000000
445624.77650078;5696577.83089931;472.00734999;131;131;81;32125.000000;1.000000;1.000000;1.000000;1.000000;0.000899;-0.000899;0.000899;1.000000
445624.68040092;5696577.68839939;471.97564985;117;116;107;29555.000000;1.000000;1.000000;1.000000;1.000000;-0.141601;0.141601;-0.141601;1.000000
445624.23470123;5696577.63279922;472.05034973;117;134;99;32125.000000;1.000000;1.000000;1.000000;1.000000;-0.197201;0.197201;-0.197201;1.000000
445624.46450241;5696577.70749958;472.03375008;140;151;119;37008.000000;1.000000;1.000000;1.000000;1.000000;-0.122500;0.122500;-0.122500;1.000000
445624.21510132;5696577.64859875;472.04964973;30;41;17;8995.000000;1.000000;1.000000;1.000000;1.000000;-0.181401;0.181401;-0.181401;1.000000
445624.42020233;5696577.83459957;472.08914997;124;140;109;33667.000000;1.000000;1.000000;1.000000;1.000000;0.004600;-0.004600;0.004600;1.000000
445624.60650070;5696577.64859875;471.97655012;110;108;102;27499.000000;1.000000;1.000000;1.000000;1.000000;-0.181401;0.181401;-0.181401;1.000000
445624.29020126;5696577.65329941;472.05314972;118;139;100;32896.000000;1.000000;1.000000;1.000000;1.000000;-0.176715;0.176715;-0.176715;1.000000
445624.50260170;5696577.67189892;471.99545004;65;67;47;16448.000000;1.000000;1.000000;1.000000;1.000000;-0.158103;0.158103;-0.158103;1.000000
445624.49290092;5696577.67269905;472.00435020;118;122;99;30326.000000;1.000000;1.000000;1.000000;1.000000;-0.157301;0.157301;-0.157301;1.000000
445624.39410217;5696577.85119923;472.07884981;57;71;47;16448.000000;1.000000;1.000000;1.000000;1.000000;0.021199;-0.021199;0.021199;1.000000
445624.46860130;5696577.85649879;472.04495003;38;45;25;10280.000000;1.000000;1.000000;1.000000;1.000000;0.026499;-0.026499;0.026499;1.000000
445624.35790070;5696577.81479939;472.08145000;83;104;66;23901.000000;1.000000;1.000000;1.000000;1.000000;-0.015201;0.015201;-0.015201;1.000000
445624.26840218;5696577.71839912;472.05065014;148;153;126;38036.000000;1.000000;1.000000;1.000000;1.000000;-0.111601;0.111601;-0.111601;1.000000
445624.16010101;5696577.63729961;472.05404999;133;135;120;33924.000000;1.000000;1.000000;1.000000;1.000000;-0.192710;0.192710;-0.192710;1.000000
445624.53200157;5696577.65309914;471.97784998;188;188;176;47802.000000;1.000000;1.000000;1.000000;1.000000;-0.176901;0.176901;-0.176901;1.000000
445624.17540176;5696577.69449909;472.04145004;122;120;107;30583.000000;1.000000;1.000000;1.000000;1.000000;-0.135501;0.135501;-0.135501;1.000000
445624.66060074;5696577.70419891;471.97965004;223;223;213;56797.000000;1.000000;1.000000;1.000000;1.000000;-0.125801;0.125801;-0.125801;1.000000
445624.33000191;5696577.81279953;472.07315018;72;95;52;21331.000000;1.000000;1.000000;1.000000;1.000000;-0.021146;0.021146;-0.021146;1.000000
445624.33700188;5696577.81439884;472.07585003;75;97;55;21845.000000;1.000000;1.000000;1.000000;1.000000;-0.016474;0.016474;-0.016474;1.000000
445624.42480095;5696577.80619915;472.08204987;95;115;77;26728.000000;1.000000;1.000000;1.000000;1.000000;-0.023801;0.023801;-0.023801;1.000000
445624.72210129;5696577.82199867;472.00245001;184;170;141;43947.000000;1.000000;1.000000;1.000000;1.000000;-0.008001;0.008001;-0.008001;1.000000
445624.75690086;5696577.82099922;472.00635006;162;158;117;39578.000000;1.000000;1.000000;1.000000;1.000000;-0.010308;0.010308;-0.010308;1.000000
445624.29920204;5696577.82979877;472.06495001;85;104;68;24158.000000;1.000000;1.000000;1.000000;1.000000;-0.000201;0.000201;-0.000201;1.000000
445624.19050224;5696577.78859909;472.05725004;189;193;166;48316.000000;1.000000;1.000000;1.000000;1.000000;-0.041416;0.041416;-0.041416;1.000000
445624.30280121;5696577.79209908;472.06234982;129;145;107;34952.000000;1.000000;1.000000;1.000000;1.000000;-0.037901;0.037901;-0.037901;1.000000
445624.41680153;5696577.76059921;472.06244995;118;138;102;32896.000000;1.000000;1.000000;1.000000;1.000000;-0.069404;0.069404;-0.069404;1.000000
445624.30780228;5696577.71929939;472.05935003;43;51;22;11565.000000;1.000000;1.000000;1.000000;1.000000;-0.110701;0.110701;-0.110701;1.000000
445624.59970100;5696577.80779942;471.98974993;78;66;55;17476.000000;1.000000;1.000000;1.000000;1.000000;-0.022571;0.022571;-0.022571;1.000000
445624.60080154;5696577.76809891;471.98705008;232;228;216;58339.000000;1.000000;1.000000;1.000000;1.000000;-0.062046;0.062046;-0.062046;1.000000
445624.49240120;5696577.72609909;472.02355005;119;128;99;31354.000000;1.000000;1.000000;1.000000;1.000000;-0.103901;0.103901;-0.103901;1.000000
445624.63980110;5696577.73409946;471.98605015;183;179;168;45746.000000;1.000000;1.000000;1.000000;1.000000;-0.096083;0.096083;-0.096083;1.000000
445624.45790108;5696577.68489941;472.02845003;178;188;155;46517.000000;1.000000;1.000000;1.000000;1.000000;-0.145101;0.145101;-0.145101;1.000000
445624.56440170;5696577.72939880;471.98724987;80;77;61;19532.000000;1.000000;1.000000;1.000000;1.000000;-0.100601;0.100601;-0.100601;1.000000
445624.45500191;5696577.65019901;472.02094986;75;89;51;20560.000000;1.000000;1.000000;1.000000;1.000000;-0.179801;0.179801;-0.179801;1.000000
445624.30610092;5696577.70079906;472.05905010;28;39;14;8224.000000;1.000000;1.000000;1.000000;1.000000;-0.129201;0.129201;-0.129201;1.000000
445624.27590187;5696577.77379902;472.05154993;90;98;65;23387.000000;1.000000;1.000000;1.000000;1.000000;-0.056201;0.056201;-0.056201;1.000000
445624.57010086;5696577.84319885;471.99354984;193;183;161;47031.000000;1.000000;1.000000;1.000000;1.000000;0.013703;-0.013703;0.013703;1.000000
445624.60770233;5696577.84439953;471.99294998;187;175;156;45232.000000;1.000000;1.000000;1.000000;1.000000;0.014400;-0.014400;0.014400;1.000000
445624.35580070;5696577.84069927;472.07695009;109;127;97;30326.000000;1.000000;1.000000;1.000000;1.000000;0.010699;-0.010699;0.010699;1.000000
445624.75820168;5696577.80469902;471.99454977;193;187;159;47545.000000;1.000000;1.000000;1.000000;1.000000;-0.026079;0.026079;-0.026079;1.000000
445624.49760063;5696577.66999920;471.99984982;87;91;68;22359.000000;1.000000;1.000000;1.000000;1.000000;-0.160001;0.160001;-0.160001;1.000000
445624.55310066;5696577.78639896;471.99445011;123;115;94;29555.000000;1.000000;1.000000;1.000000;1.000000;-0.043601;0.043601;-0.043601;1.000000
445624.62960251;5696577.75359924;471.99284985;205;199;189;51143.000000;1.000000;1.000000;1.000000;1.000000;-0.076449;0.076449;-0.076449;1.000000
445624.72180183;5696577.78039940;471.97405006;152;135;116;35466.000000;1.000000;1.000000;1.000000;1.000000;-0.049601;0.049601;-0.049601;1.000000
445624.53930099;5696577.76649960;472.00054981;96;92;69;23130.000000;1.000000;1.000000;1.000000;1.000000;-0.063582;0.063582;-0.063582;1.000000
445624.49140175;5696577.74479874;472.03305008;161;175;142;42919.000000;1.000000;1.000000;1.000000;1.000000;-0.085201;0.085201;-0.085201;1.000000
445624.43640144;5696577.79609879;472.06374981;67;87;48;19532.000000;1.000000;1.000000;1.000000;1.000000;-0.033901;0.033901;-0.033901;1.000000
445624.42200096;5696577.79949959;472.07945015;73;95;55;21331.000000;1.000000;1.000000;1.000000;1.000000;-0.030500;0.030500;-0.030500;1.000000
445624.23930176;5696577.75399883;472.04274990;106;108;86;26728.000000;1.000000;1.000000;1.000000;1.000000;-0.076001;0.076001;-0.076001;1.000000
