//X;Y;Z;R;G;B;Intensity;Return Number;Number Of Returns;Scan Direction Flag;Point Source ID;C2M signed distances[-][<0.8];C2M signed distances[<0.4];C2M signed distances[-][<0.2];Stump41
445628.24300201;5696604.07499893;472.61604979;116;105;94;27499.000000;1.000000;1.000000;1.000000;1.000000;-0.071375;0.071375;-0.071375;1.000000
445628.35270126;5696604.07939728;472.57684996;31;24;19;6425.000000;1.000000;1.000000;1.000000;1.000000;0.024176;-0.024176;0.024176;1.000000
445628.28170212;5696604.03869827;472.61504986;107;103;94;26471.000000;1.000000;1.000000;1.000000;1.000000;-0.032675;0.032675;-0.032675;1.000000
445628.24540146;5696603.99999817;472.61525013;37;27;21;7453.000000;1.000000;1.000000;1.000000;1.000000;-0.068975;0.068975;-0.068975;1.000000
445628.32290085;5696603.92970093;472.61564972;29;25;23;6425.000000;1.000000;1.000000;1.000000;1.000000;0.008524;-0.008524;0.008524;1.000000
445627.95140083;5696603.86580093;472.63534977;123;105;96;28013.000000;1.000000;1.000000;1.000000;1.000000;0.035801;-0.035801;0.035801;1.000000
445628.24830063;5696603.91530045;472.63534977;146;131;122;34438.000000;1.000000;1.000000;1.000000;1.000000;-0.066076;0.066076;-0.066076;1.000000
445628.33170135;5696604.20739944;472.58204987;148;133;115;34695.000000;1.000000;1.000000;1.000000;1.000000;0.023688;-0.023688;0.023688;1.000000
445628.36720093;5696604.21119888;472.57905008;147;132;114;34438.000000;1.000000;1.000000;1.000000;1.000000;0.009676;-0.009676;0.009676;1.000000
445628.26730164;5696604.31920059;472.68764975;243;236;227;60909.000000;1.000000;1.000000;1.000000;1.000000;0.048298;-0.048298;0.048298;1.000000
445628.29110153;5696604.24099930;472.61794998;143;136;124;34952.000000;1.000000;1.000000;1.000000;1.000000;-0.054275;0.054275;-0.054275;1.000000
445628.25270088;5696604.24410065;472.64884998;134;128;119;32896.000000;1.000000;1.000000;1.000000;1.000000;-0.080359;0.080359;-0.080359;1.000000
445628.36520203;5696604.28309830;472.61945011;165;152;145;39835.000000;1.000000;1.000000;1.000000;1.000000;0.011675;-0.011675;0.011675;1.000000
445628.08270081;5696603.91900070;472.63264992;66;49;44;13621.000000;1.000000;1.000000;1.000000;1.000000;-0.089001;0.089001;-0.089001;1.000000
445628.12040146;5696603.92029770;472.62965014;76;58;48;15934.000000;1.000000;1.000000;1.000000;1.000000;-0.090530;0.090530;-0.090530;1.000000
445628.15530212;5696603.92159851;472.63595011;104;88;74;23387.000000;1.000000;1.000000;1.000000;1.000000;-0.091642;0.091642;-0.091642;1.000000
445628.40060242;5696604.33139999;472.60764982;104;88;74;23387.000000;1.000000;1.000000;1.000000;1.000000;-0.023767;0.023767;-0.023767;1.000000
445628.02110107;5696603.86079987;472.68734982;172;169;168;43433.000000;1.000000;1.000000;1.000000;1.000000;-0.030800;0.030800;-0.030800;1.000000
445628.19150169;5696604.40799912;472.68755009;214;208;202;53713.000000;1.000000;1.000000;1.000000;1.000000;-0.145541;0.145541;-0.145541;1.000000
445628.20570190;5696603.85859879;472.63275005;87;74;67;19789.000000;1.000000;1.000000;1.000000;1.000000;-0.028691;0.028691;-0.028691;1.000000
445628.22880180;5696604.40909775;472.69164993;105;100;99;25957.000000;1.000000;1.000000;1.000000;1.000000;-0.116531;0.116531;-0.116531;1.000000
445628.23010071;5696604.37159927;472.68895008;101;92;86;24158.000000;1.000000;1.000000;1.000000;1.000000;-0.093984;0.093984;-0.093984;1.000000
445628.30290230;5696604.37430008;472.68755009;153;149;145;38293.000000;1.000000;1.000000;1.000000;1.000000;-0.045762;0.045762;-0.045762;1.000000
445628.23260124;5696604.25749786;472.65504982;207;200;189;51400.000000;1.000000;1.000000;1.000000;1.000000;-0.104327;0.104327;-0.104327;1.000000
445628.27270134;5696604.26079758;472.65455009;205;198;190;51143.000000;1.000000;1.000000;1.000000;1.000000;-0.079834;0.079834;-0.079834;1.000000
445628.20400246;5696604.10890015;472.61704971;92;77;65;20560.000000;1.000000;1.000000;1.000000;1.000000;-0.110374;0.110374;-0.110374;1.000000
445627.98880203;5696603.91519745;472.68654968;205;205;209;52685.000000;1.000000;1.000000;1.000000;1.000000;-0.085197;0.085197;-0.085197;1.000000
445628.02730186;5696603.87890060;472.69014980;197;197;200;50629.000000;1.000000;1.000000;1.000000;1.000000;-0.048976;0.048976;-0.048976;1.000000
445628.28470238;5696604.40180023;472.68004992;122;115;116;30069.000000;1.000000;1.000000;1.000000;1.000000;-0.077691;0.077691;-0.077691;1.000000
445628.21080215;5696604.36189850;472.68094971;223;215;206;55512.000000;1.000000;1.000000;1.000000;1.000000;-0.108375;0.108375;-0.108375;1.000000
445628.21610077;5696604.24989899;472.64255001;139;129;116;33410.000000;1.000000;1.000000;1.000000;1.000000;-0.113829;0.113829;-0.113829;1.000000
445628.28910072;5696604.25480087;472.64125015;150;140;131;36494.000000;1.000000;1.000000;1.000000;1.000000;-0.067291;0.067291;-0.067291;1.000000
445628.36540230;5696604.25530060;472.60745003;171;160;150;41634.000000;1.000000;1.000000;1.000000;1.000000;0.011475;-0.011475;0.011475;1.000000
445628.13530167;5696604.35790070;472.63555004;125;107;89;28270.000000;1.000000;1.000000;1.000000;1.000000;-0.181236;0.181236;-0.181236;1.000000
445628.40110214;5696604.25910004;472.60214998;124;111;108;29298.000000;1.000000;1.000000;1.000000;1.000000;-0.024225;0.024225;-0.024225;1.000000
445628.28380211;5696604.24149902;472.62685015;140;131;118;33924.000000;1.000000;1.000000;1.000000;1.000000;-0.058056;0.058056;-0.058056;1.000000
445628.33610161;5696603.87459763;472.62484982;65;70;62;17219.000000;1.000000;1.000000;1.000000;1.000000;0.021725;-0.021725;0.021725;1.000000
445628.29960068;5696603.83589752;472.62745001;63;66;61;16448.000000;1.000000;1.000000;1.000000;1.000000;-0.005898;0.005898;-0.005898;1.000000
445628.18900116;5696603.99819763;472.61735012;45;23;11;7196.000000;1.000000;1.000000;1.000000;1.000000;-0.125376;0.125376;-0.125376;1.000000
445628.20530136;5696604.07150085;472.61434986;132;108;88;29041.000000;1.000000;1.000000;1.000000;1.000000;-0.109076;0.109076;-0.109076;1.000000
445627.94770248;5696603.91020020;472.65434982;54;49;49;12850.000000;1.000000;1.000000;1.000000;1.000000;-0.080200;0.080200;-0.080200;1.000000
445628.16240128;5696604.41559799;472.67234995;140;126;113;32896.000000;1.000000;1.000000;1.000000;1.000000;-0.174424;0.174424;-0.174424;1.000000
445627.97430237;5696603.90500076;472.67644979;80;78;81;20046.000000;1.000000;1.000000;1.000000;1.000000;-0.075001;0.075001;-0.075001;1.000000
445628.27970131;5696604.32509811;472.68365004;246;240;231;61680.000000;1.000000;1.000000;1.000000;1.000000;0.035020;-0.035020;0.035020;1.000000
445628.00560196;5696603.97049912;472.63434984;117;111;112;28784.000000;1.000000;1.000000;1.000000;1.000000;-0.140499;0.140499;-0.140499;1.000000
445628.15640076;5696603.88410004;472.63784983;106;90;76;23901.000000;1.000000;1.000000;1.000000;1.000000;-0.054128;0.054128;-0.054128;1.000000
445627.93290146;5696603.89319809;472.63485004;122;109;102;28784.000000;1.000000;1.000000;1.000000;1.000000;0.063198;-0.063198;0.063198;1.000000
445628.21400078;5696604.31509979;472.66884996;183;171;158;44461.000000;1.000000;1.000000;1.000000;1.000000;0.101476;-0.101476;0.101476;1.000000
445628.12130173;5696603.88270004;472.63625004;90;70;57;19018.000000;1.000000;1.000000;1.000000;1.000000;-0.052994;0.052994;-0.052994;1.000000
445628.37330063;5696604.29409988;472.61754992;212;201;194;52171.000000;1.000000;1.000000;1.000000;1.000000;0.003576;-0.003576;0.003576;1.000000
445628.19750221;5696603.84760101;472.63464977;82;68;62;18247.000000;1.000000;1.000000;1.000000;1.000000;-0.017601;0.017601;-0.017601;1.000000
445628.33700188;5696604.25549896;472.61544992;150;138;128;35980.000000;1.000000;1.000000;1.000000;1.000000;0.039875;0.039875;-0.039875;1.000000
445628.30680092;5696604.29969986;472.65194990;229;217;209;56283.000000;1.000000;1.000000;1.000000;1.000000;0.031233;-0.031233;0.031233;1.000000
445628.19280251;5696604.33130081;472.65415003;149;137;121;35466.000000;1.000000;1.000000;1.000000;1.000000;-0.121581;0.121581;-0.121581;1.000000
445628.37680061;5696603.94840057;472.59964993;42;41;46;10537.000000;1.000000;1.000000;1.000000;1.000000;0.020003;-0.020003;0.020003;1.000000
445628.34510239;5696603.87369736;472.62995007;69;75;65;18504.000000;1.000000;1.000000;1.000000;1.000000;0.030725;-0.030725;0.030725;1.000000
445628.23150070;5696604.10169800;472.61584999;104;93;84;24415.000000;1.000000;1.000000;1.000000;1.000000;-0.082876;0.082876;-0.082876;1.000000
445628.31470116;5696604.15059860;472.58064987;113;105;91;26985.000000;1.000000;1.000000;1.000000;1.000000;0.000324;-0.000324;0.000324;1.000000
445628.13140114;5696604.10859879;472.62074997;61;50;41;13364.000000;1.000000;1.000000;1.000000;1.000000;-0.182976;0.182976;-0.182976;1.000000
445628.02180107;5696603.95009811;472.64884998;76;64;64;17219.000000;1.000000;1.000000;1.000000;1.000000;-0.120098;0.120098;-0.120098;1.000000
445628.03440102;5696603.95379837;472.63544991;119;107;103;28270.000000;1.000000;1.000000;1.000000;1.000000;-0.123798;0.123798;-0.123798;1.000000
445628.26680191;5696604.10320099;472.61284973;197;191;184;49344.000000;1.000000;1.000000;1.000000;1.000000;-0.047575;0.047575;-0.047575;1.000000
445628.03380211;5696603.91359909;472.66995003;36;29;33;7967.000000;1.000000;1.000000;1.000000;1.000000;-0.083599;0.083599;-0.083599;1.000000
445628.23510178;5696604.06410034;472.61324980;121;104;89;27499.000000;1.000000;1.000000;1.000000;1.000000;-0.079275;0.079275;-0.079275;1.000000
445628.34470184;5696604.07079895;472.58104994;53;45;39;11822.000000;1.000000;1.000000;1.000000;1.000000;0.030325;-0.030325;0.030325;1.000000
445628.27130135;5696604.02789886;472.61684992;193;188;179;48316.000000;1.000000;1.000000;1.000000;1.000000;-0.043076;0.043076;-0.043076;1.000000
445628.26220139;5696604.24329956;472.64225008;110;104;95;26728.000000;1.000000;1.000000;1.000000;1.000000;-0.072852;0.072852;-0.072852;1.000000
445628.33480080;5696604.32060059;472.64414980;240;232;223;59881.000000;1.000000;1.000000;1.000000;1.000000;0.009399;-0.009399;0.009399;1.000000
445628.32710083;5696604.03949936;472.59384968;38;30;24;7967.000000;1.000000;1.000000;1.000000;1.000000;0.012724;-0.012724;0.012724;1.000000
445628.33060081;5696604.00399979;472.60055019;140;135;129;34695.000000;1.000000;1.000000;1.000000;1.000000;0.016224;-0.016224;0.016224;1.000000
445628.16260155;5696604.38769730;472.66274979;184;168;153;43947.000000;1.000000;1.000000;1.000000;1.000000;-0.162372;0.162372;-0.162372;1.000000
445628.31150063;5696603.95649918;472.61315014;32;28;26;7196.000000;1.000000;1.000000;1.000000;1.000000;-0.002876;0.002876;-0.002876;1.000000
445628.24740227;5696604.20279892;472.62715008;190;186;178;47802.000000;1.000000;1.000000;1.000000;1.000000;-0.067817;0.067817;-0.067817;1.000000
445628.04380234;5696603.95299728;472.63355019;147;133;128;34952.000000;1.000000;1.000000;1.000000;1.000000;-0.122997;0.122997;-0.122997;1.000000
445628.15440186;5696604.36989792;472.65284969;184;169;156;44204.000000;1.000000;1.000000;1.000000;1.000000;-0.164875;0.164875;-0.164875;1.000000
445628.23810204;5696604.14779861;472.61674978;182;175;167;45232.000000;1.000000;1.000000;1.000000;1.000000;-0.076275;0.076275;-0.076275;1.000000
445627.91160210;5696603.94859894;472.65315010;34;30;31;7967.000000;1.000000;1.000000;1.000000;1.000000;-0.118599;0.118599;-0.118599;1.000000
445628.34900101;5696604.18960007;472.57564976;116;97;78;25700.000000;1.000000;1.000000;1.000000;1.000000;0.027876;-0.027876;0.027876;1.000000
445628.31820114;5696604.29179962;472.64304974;204;191;184;49858.000000;1.000000;1.000000;1.000000;1.000000;0.038200;-0.038200;0.038200;1.000000
445628.27710159;5696604.35309799;472.69775011;164;154;144;39835.000000;1.000000;1.000000;1.000000;1.000000;-0.043852;0.043852;-0.043852;1.000000
445628.36450203;5696604.05949982;472.58414986;30;22;19;6168.000000;1.000000;1.000000;1.000000;1.000000;0.012375;-0.012375;0.012375;1.000000
445628.34120186;5696604.34099777;472.64934971;118;105;91;27499.000000;1.000000;1.000000;1.000000;1.000000;-0.011759;0.011759;-0.011759;1.000000
445628.39170082;5696604.25989731;472.60405018;139;126;121;33153.000000;1.000000;1.000000;1.000000;1.000000;-0.014824;0.014824;-0.014824;1.000000
445628.36010178;5696604.18160065;472.57144978;157;139;121;36494.000000;1.000000;1.000000;1.000000;1.000000;0.016775;-0.016775;0.016775;1.000000
445628.29620178;5696604.35379990;472.68935015;196;188;180;48573.000000;1.000000;1.000000;1.000000;1.000000;-0.029946;0.029946;-0.029946;1.000000
445628.40960129;5696604.35840042;472.61994984;127;106;87;28270.000000;1.000000;1.000000;1.000000;1.000000;-0.043330;0.043330;-0.043330;1.000000
445628.40200241;5696604.24040039;472.59494974;219;211;203;54484.000000;1.000000;1.000000;1.000000;1.000000;-0.025126;0.025126;-0.025126;1.000000
445627.93380173;5696603.90249832;472.63495018;140;127;121;33410.000000;1.000000;1.000000;1.000000;1.000000;0.072498;-0.072498;0.072498;1.000000
445628.23230179;5696604.28989990;472.67875006;113;101;96;26728.000000;1.000000;1.000000;1.000000;1.000000;0.091347;-0.091347;0.091347;1.000000
445628.34260185;5696604.32919891;472.64454987;188;176;165;45746.000000;1.000000;1.000000;1.000000;1.000000;0.003129;-0.003129;0.003129;1.000000
445628.27560242;5696604.22379883;472.61695005;129;123;113;31611.000000;1.000000;1.000000;1.000000;1.000000;-0.050181;0.050181;-0.050181;1.000000
445628.15660103;5696603.91209991;472.63814976;100;83;71;22102.000000;1.000000;1.000000;1.000000;1.000000;-0.082114;0.082114;-0.082114;1.000000
445628.29790123;5696604.07720001;472.59525015;60;53;46;13878.000000;1.000000;1.000000;1.000000;1.000000;-0.016476;0.016476;-0.016476;1.000000
445628.33760078;5696604.00340088;472.59854986;140;134;129;34695.000000;1.000000;1.000000;1.000000;1.000000;0.023224;-0.023224;0.023224;1.000000
445628.03430183;5696603.93490036;472.65154984;57;47;46;12593.000000;1.000000;1.000000;1.000000;1.000000;-0.104900;0.104900;-0.104900;1.000000
445628.03720100;5696603.85930069;472.69035007;213;211;212;54227.000000;1.000000;1.000000;1.000000;1.000000;-0.029301;0.029301;-0.029301;1.000000
445628.28110130;5696604.28090103;472.66454985;139;124;120;32896.000000;1.000000;1.000000;1.000000;1.000000;0.059313;-0.059313;0.059313;1.000000
445628.26080139;5696603.86989792;472.62605001;52;43;39;11565.000000;1.000000;1.000000;1.000000;1.000000;-0.039898;0.039898;-0.039898;1.000000
445627.96240242;5696603.89469727;472.65945007;52;44;43;11822.000000;1.000000;1.000000;1.000000;1.000000;0.064697;-0.064697;0.064697;1.000000
445628.29300125;5696603.98390015;472.61494972;106;102;98;26214.000000;1.000000;1.000000;1.000000;1.000000;-0.021376;0.021376;-0.021376;1.000000
445628.20140083;5696604.17479904;472.60374977;73;65;59;16962.000000;1.000000;1.000000;1.000000;1.000000;-0.112976;0.112976;-0.112976;1.000000
445628.02720078;5696603.93549927;472.65354969;46;36;36;10023.000000;1.000000;1.000000;1.000000;1.000000;-0.105533;0.105533;-0.105533;1.000000
445628.17270096;5696604.24740036;472.61264994;180;168;153;43433.000000;1.000000;1.000000;1.000000;1.000000;-0.152172;0.152172;-0.152172;1.000000
445628.06370171;5696603.89949997;472.65245010;33;21;20;6168.000000;1.000000;1.000000;1.000000;1.000000;-0.069503;0.069503;-0.069503;1.000000
445628.02790077;5696603.86009796;472.68995001;215;213;212;54741.000000;1.000000;1.000000;1.000000;1.000000;-0.030280;0.030280;-0.030280;1.000000
445628.23130234;5696604.33419998;472.68855001;187;176;165;45746.000000;1.000000;1.000000;1.000000;1.000000;-0.083181;0.083181;-0.083181;1.000000
445628.04110153;5696604.01880081;472.62255003;62;44;36;12336.000000;1.000000;1.000000;1.000000;1.000000;-0.188801;0.188801;-0.188801;1.000000
445628.25670250;5696604.23219879;472.63724997;125;119;109;30583.000000;1.000000;1.000000;1.000000;1.000000;-0.070100;0.070100;-0.070100;1.000000
445628.22300156;5696604.31640060;472.67864992;165;152;142;39578.000000;1.000000;1.000000;1.000000;1.000000;0.092382;-0.092382;0.092382;1.000000
445628.30670174;5696604.36459930;472.68534996;225;218;212;56283.000000;1.000000;1.000000;1.000000;1.000000;-0.035440;0.035440;-0.035440;1.000000
445628.30160149;5696604.33019836;472.67534973;213;201;189;52171.000000;1.000000;1.000000;1.000000;1.000000;-0.012777;0.012777;-0.012777;1.000000
445628.27890213;5696604.05769928;472.61284973;84;79;69;20303.000000;1.000000;1.000000;1.000000;1.000000;-0.035475;0.035475;-0.035475;1.000000
445628.28230103;5696604.01989944;472.61485006;146;141;133;36237.000000;1.000000;1.000000;1.000000;1.000000;-0.032076;0.032076;-0.032076;1.000000
445628.28330238;5696603.98240097;472.61914970;186;182;177;46774.000000;1.000000;1.000000;1.000000;1.000000;-0.031075;0.031075;-0.031075;1.000000
445628.13760193;5696604.38559921;472.64295008;159;139;123;36751.000000;1.000000;1.000000;1.000000;1.000000;-0.185312;0.185312;-0.185312;1.000000
445628.21170242;5696604.34319885;472.67374994;215;204;191;52685.000000;1.000000;1.000000;1.000000;1.000000;-0.103519;0.103519;-0.103519;1.000000
445628.36720093;5696604.18099792;472.56934978;150;131;113;34438.000000;1.000000;1.000000;1.000000;1.000000;0.009676;-0.009676;0.009676;1.000000
445628.28770073;5696604.16699799;472.59124996;198;192;182;49344.000000;1.000000;1.000000;1.000000;1.000000;-0.026676;0.026676;-0.026676;1.000000
445628.31990250;5696604.20849808;472.58624985;126;112;97;29298.000000;1.000000;1.000000;1.000000;1.000000;0.018037;-0.018037;0.018037;1.000000
445628.35340126;5696604.28420074;472.62354996;162;149;141;39064.000000;1.000000;1.000000;1.000000;1.000000;0.023476;-0.023476;0.023476;1.000000
445628.31540115;5696604.31979950;472.65955021;238;228;217;58853.000000;1.000000;1.000000;1.000000;1.000000;0.010201;-0.010201;0.010201;1.000000
445628.39090164;5696604.33219727;472.61654999;119;104;91;27499.000000;1.000000;1.000000;1.000000;1.000000;-0.014196;0.014196;-0.014196;1.000000
445628.21550186;5696604.30559738;472.66884996;164;150;138;39064.000000;1.000000;1.000000;1.000000;1.000000;0.101842;-0.101842;0.101842;1.000000
445628.14660080;5696604.16349991;472.60344984;123;116;108;30069.000000;1.000000;1.000000;1.000000;1.000000;-0.167776;0.167776;-0.167776;1.000000
445628.18510063;5696604.12949951;472.61175014;105;91;80;23901.000000;1.000000;1.000000;1.000000;1.000000;-0.129276;0.129276;-0.129276;1.000000
445628.13910110;5696604.40410049;472.64794971;161;143;132;37779.000000;1.000000;1.000000;1.000000;1.000000;-0.190296;0.190296;-0.190296;1.000000
445627.82110222;5696603.92679794;472.64414980;47;44;43;11308.000000;1.000000;1.000000;1.000000;1.000000;-0.096798;0.096798;-0.096798;1.000000
445628.00460251;5696603.93020065;472.67814972;105;102;106;26471.000000;1.000000;1.000000;1.000000;1.000000;-0.100201;0.100201;-0.100201;1.000000
445627.82230194;5696603.88929947;472.64374973;60;49;43;13107.000000;1.000000;1.000000;1.000000;1.000000;-0.059299;0.059299;-0.059299;1.000000
445628.16300209;5696603.99589737;472.61854984;126;102;80;27242.000000;1.000000;1.000000;1.000000;1.000000;-0.151375;0.151375;-0.151375;1.000000
445628.09000214;5696603.88069733;472.65114977;74;60;59;16448.000000;1.000000;1.000000;1.000000;1.000000;-0.050697;0.050697;-0.050697;1.000000
445627.98090179;5696603.84169968;472.65735008;117;97;86;25957.000000;1.000000;1.000000;1.000000;1.000000;-0.011700;0.011700;-0.011700;1.000000
445628.26870163;5696604.07489975;472.61494972;167;161;153;41377.000000;1.000000;1.000000;1.000000;1.000000;-0.045675;0.045675;-0.045675;1.000000
445628.23590096;5696603.99859818;472.61485006;29;16;10;4883.000000;1.000000;1.000000;1.000000;1.000000;-0.078476;0.078476;-0.078476;1.000000
445628.27340134;5696604.00200089;472.61894991;220;216;210;55512.000000;1.000000;1.000000;1.000000;1.000000;-0.040976;0.040976;-0.040976;1.000000
445628.08280190;5696603.90019806;472.64405014;52;38;35;10537.000000;1.000000;1.000000;1.000000;1.000000;-0.070198;0.070198;-0.070198;1.000000
445628.15570076;5696603.90279968;472.64034988;96;84;76;22102.000000;1.000000;1.000000;1.000000;1.000000;-0.072840;0.072840;-0.072840;1.000000
445628.12160118;5696603.86389740;472.64064981;119;106;100;28013.000000;1.000000;1.000000;1.000000;1.000000;-0.034305;0.034305;-0.034305;1.000000
445628.03320129;5696603.94449814;472.64234974;87;76;74;20303.000000;1.000000;1.000000;1.000000;1.000000;-0.114498;0.114498;-0.114498;1.000000
445628.26990135;5696604.29109772;472.67574980;142;126;120;33410.000000;1.000000;1.000000;1.000000;1.000000;0.059089;-0.059089;0.059089;1.000000
445627.90500076;5696603.89119919;472.62654974;49;33;25;9252.000000;1.000000;1.000000;1.000000;1.000000;0.061199;-0.061199;0.061199;1.000000
445628.21360214;5696604.27569778;472.64744999;145;136;121;35209.000000;1.000000;1.000000;1.000000;1.000000;0.114474;-0.114474;0.114474;1.000000
445627.95380219;5696603.86779984;472.63784983;125;107;97;28527.000000;1.000000;1.000000;1.000000;1.000000;0.037800;-0.037800;0.037800;1.000000
445628.21540077;5696604.02630051;472.60724976;185;166;150;43433.000000;1.000000;1.000000;1.000000;1.000000;-0.098976;0.098976;-0.098976;1.000000
445628.39970215;5696604.32219894;472.60745003;153;140;130;36494.000000;1.000000;1.000000;1.000000;1.000000;-0.022825;0.022825;-0.022825;1.000000
445628.40120132;5696604.28700073;472.60475018;179;167;162;43690.000000;1.000000;1.000000;1.000000;1.000000;-0.024324;0.024324;-0.024324;1.000000
445628.21790131;5696604.24279984;472.64024975;145;136;124;35209.000000;1.000000;1.000000;1.000000;1.000000;-0.108840;0.108840;-0.108840;1.000000
445628.32310112;5696603.90859802;472.62004997;21;19;18;4883.000000;1.000000;1.000000;1.000000;1.000000;0.008724;-0.008724;0.008724;1.000000
445628.28910072;5696603.87199982;472.62505009;137;136;133;34695.000000;1.000000;1.000000;1.000000;1.000000;-0.025276;0.025276;-0.025276;1.000000
445628.19240196;5696604.38929947;472.68044998;203;196;186;50629.000000;1.000000;1.000000;1.000000;1.000000;-0.135626;0.135626;-0.135626;1.000000
445628.15510185;5696604.34889801;472.64564993;172;157;142;40863.000000;1.000000;1.000000;1.000000;1.000000;-0.160392;0.160392;-0.160392;1.000000
445628.16040237;5696604.23699768;472.60494997;209;197;181;50886.000000;1.000000;1.000000;1.000000;1.000000;-0.160497;0.160497;-0.160497;1.000000
445627.98890121;5696603.97189911;472.64535000;32;29;33;7710.000000;1.000000;1.000000;1.000000;1.000000;-0.141899;0.141899;-0.141899;1.000000
445627.84220131;5696603.85239990;472.64424994;88;71;61;19018.000000;1.000000;1.000000;1.000000;1.000000;0.022400;-0.022400;0.022400;1.000000
445628.32660110;5696603.87319763;472.62444975;51;55;48;13621.000000;1.000000;1.000000;1.000000;1.000000;0.012224;-0.012224;0.012224;1.000000
445628.38050087;5696604.35840042;472.64435007;184;171;156;44461.000000;1.000000;1.000000;1.000000;1.000000;-0.028631;0.028631;-0.028631;1.000000
445628.06230171;5696603.92790039;472.63644983;68;49;42;13621.000000;1.000000;1.000000;1.000000;1.000000;-0.097922;0.097922;-0.097922;1.000000
445628.17500122;5696603.93149765;472.63455011;123;107;92;28270.000000;1.000000;1.000000;1.000000;1.000000;-0.101498;0.101498;-0.101498;1.000000
445628.13990219;5696603.85759933;472.63674976;112;98;90;25957.000000;1.000000;1.000000;1.000000;1.000000;-0.027599;0.027599;-0.027599;1.000000
445628.31960114;5696604.01199921;472.60015013;148;143;136;36751.000000;1.000000;1.000000;1.000000;1.000000;0.005224;-0.005224;0.005224;1.000000
445628.39240082;5696604.01470001;472.59884979;43;41;41;10537.000000;1.000000;1.000000;1.000000;1.000000;-0.015524;0.015524;-0.015524;1.000000
445628.24790199;5696603.93409927;472.63094999;87;71;63;19018.000000;1.000000;1.000000;1.000000;1.000000;-0.066475;0.066475;-0.066475;1.000000
445628.21370132;5696603.89520081;472.63355019;96;79;66;21074.000000;1.000000;1.000000;1.000000;1.000000;-0.065568;0.065568;-0.065568;1.000000
445628.32650192;5696603.82629974;472.63324978;40;46;37;11051.000000;1.000000;1.000000;1.000000;1.000000;-0.003700;0.003700;-0.003700;1.000000
445628.05100067;5696603.93350037;472.64064981;80;65;61;17733.000000;1.000000;1.000000;1.000000;1.000000;-0.103500;0.103500;-0.103500;1.000000
445627.81770142;5696603.94339951;472.64884998;56;55;50;13878.000000;1.000000;1.000000;1.000000;1.000000;-0.113400;0.113400;-0.113400;1.000000
445628.30360229;5696604.35549744;472.68505003;214;207;199;53456.000000;1.000000;1.000000;1.000000;1.000000;-0.027681;0.027681;-0.027681;1.000000
445627.82020195;5696603.87069901;472.65044977;59;48;43;12850.000000;1.000000;1.000000;1.000000;1.000000;-0.040699;0.040699;-0.040699;1.000000
445627.97010239;5696603.87539871;472.65494968;55;44;41;11822.000000;1.000000;1.000000;1.000000;1.000000;0.045399;-0.045399;0.045399;1.000000
445628.18970116;5696604.00519760;472.61514999;47;24;10;7453.000000;1.000000;1.000000;1.000000;1.000000;-0.124676;0.124676;-0.124676;1.000000
445628.33850105;5696604.01269730;472.59865000;91;86;80;22102.000000;1.000000;1.000000;1.000000;1.000000;0.024124;-0.024124;0.024124;1.000000
445628.20990189;5696604.37829788;472.68344976;230;225;217;57825.000000;1.000000;1.000000;1.000000;1.000000;-0.115099;0.115099;-0.115099;1.000000
445628.36370094;5696604.26470001;472.61445000;143;130;124;34181.000000;1.000000;1.000000;1.000000;1.000000;0.013176;-0.013176;0.013176;1.000000
445628.25830086;5696604.11329849;472.61494972;198;193;187;49601.000000;1.000000;1.000000;1.000000;1.000000;-0.056076;0.056076;-0.056076;1.000000
445628.33280190;5696604.11630066;472.57634975;112;101;88;26214.000000;1.000000;1.000000;1.000000;1.000000;0.018425;-0.018425;0.018425;1.000000
445628.26170166;5696604.07549866;472.61695005;201;194;187;50115.000000;1.000000;1.000000;1.000000;1.000000;-0.052675;0.052675;-0.052675;1.000000
445628.33610161;5696604.07860001;472.58075001;63;56;49;14649.000000;1.000000;1.000000;1.000000;1.000000;0.021725;-0.021725;0.021725;1.000000
445628.26290138;5696604.03809937;472.61654999;202;195;184;50115.000000;1.000000;1.000000;1.000000;1.000000;-0.051476;0.051476;-0.051476;1.000000
445628.01160248;5696604.02630051;472.61665012;115;103;98;27242.000000;1.000000;1.000000;1.000000;1.000000;-0.196301;0.196301;-0.196301;1.000000
445628.19830139;5696603.99740036;472.61544992;38;17;8;5654.000000;1.000000;1.000000;1.000000;1.000000;-0.116076;0.116076;-0.116076;1.000000
445627.93520172;5696603.84620102;472.64134981;139;119;111;31868.000000;1.000000;1.000000;1.000000;1.000000;0.016201;-0.016201;0.016201;1.000000
445628.23450096;5696604.31759842;472.68615009;149;135;127;35466.000000;1.000000;1.000000;1.000000;1.000000;0.080833;-0.080833;0.080833;1.000000
445628.35540207;5696603.81870087;472.65074970;6;13;4;2313.000000;1.000000;1.000000;1.000000;1.000000;-0.011299;0.011299;-0.011299;1.000000
445628.03720100;5696603.90159805;472.67455008;56;49;50;13107.000000;1.000000;1.000000;1.000000;1.000000;-0.071598;0.071598;-0.071598;1.000000
445628.00300224;5696603.97069748;472.64125015;85;78;79;20560.000000;1.000000;1.000000;1.000000;1.000000;-0.140697;0.140697;-0.140697;1.000000
445628.37250145;5696603.89219864;472.63145020;24;28;22;6682.000000;1.000000;1.000000;1.000000;1.000000;0.058125;-0.058125;0.058125;1.000000
445628.33620079;5696603.85349854;472.63164999;34;42;30;9766.000000;1.000000;1.000000;1.000000;1.000000;0.021824;-0.021824;0.021824;1.000000
445628.31910141;5696604.27309998;472.63584997;135;122;115;32125.000000;1.000000;1.000000;1.000000;1.000000;0.056900;-0.056900;0.056900;1.000000
445628.21240242;5696604.35239990;472.67854979;221;210;200;54484.000000;1.000000;1.000000;1.000000;1.000000;-0.104406;0.104406;-0.104406;1.000000
445628.37850197;5696603.94119843;472.59964993;51;50;54;12850.000000;1.000000;1.000000;1.000000;1.000000;-0.027252;0.027252;-0.027252;1.000000
445628.34650238;5696603.86419876;472.63224985;51;59;47;14135.000000;1.000000;1.000000;1.000000;1.000000;0.032125;-0.032125;0.032125;1.000000
445628.05500229;5696603.89060028;472.67065002;26;20;23;5654.000000;1.000000;1.000000;1.000000;1.000000;-0.060600;0.060600;-0.060600;1.000000
445628.29290207;5696604.23159988;472.61084988;155;145;132;37522.000000;1.000000;1.000000;1.000000;1.000000;-0.045202;0.045202;-0.045202;1.000000
445628.16320236;5696603.93020065;472.63404991;116;101;87;26471.000000;1.000000;1.000000;1.000000;1.000000;-0.100201;0.100201;-0.100201;1.000000
445628.31200226;5696604.39219864;472.67884972;67;62;62;16191.000000;1.000000;1.000000;1.000000;1.000000;-0.062244;0.062244;-0.062244;1.000000
445628.42660149;5696604.35939987;472.60685017;144;119;101;31868.000000;1.000000;1.000000;1.000000;1.000000;-0.057766;0.057766;-0.057766;1.000000
445627.94690140;5696604.00589951;472.66244986;102;105;106;26728.000000;1.000000;1.000000;1.000000;1.000000;-0.175900;0.175900;-0.175900;1.000000
445628.16830070;5696604.05380066;472.62174990;156;130;104;34438.000000;1.000000;1.000000;1.000000;1.000000;-0.146076;0.146076;-0.146076;1.000000
445628.20450218;5696604.27659805;472.64465000;123;108;93;28270.000000;1.000000;1.000000;1.000000;1.000000;0.122165;-0.122165;0.122165;1.000000
445627.91300209;5696603.96700104;472.66045000;49;49;52;12593.000000;1.000000;1.000000;1.000000;1.000000;-0.137001;0.137001;-0.137001;1.000000
445628.09640129;5696604.01129730;472.62505009;153;134;113;35209.000000;1.000000;1.000000;1.000000;1.000000;-0.181297;0.181297;-0.181297;1.000000
445627.80140121;5696603.92370041;472.65955021;61;61;59;15420.000000;1.000000;1.000000;1.000000;1.000000;0.093700;-0.093700;0.093700;1.000000
445628.06010063;5696603.97489746;472.62755014;112;92;78;24672.000000;1.000000;1.000000;1.000000;1.000000;-0.144961;0.144961;-0.144961;1.000000
445628.09740074;5696603.97379883;472.62694981;79;55;36;15420.000000;1.000000;1.000000;1.000000;1.000000;-0.143799;0.143799;-0.143799;1.000000
445627.80250175;5696603.88619812;472.66144993;120;117;115;30069.000000;1.000000;1.000000;1.000000;1.000000;0.056198;-0.056198;0.056198;1.000000
445628.09860237;5696603.93639954;472.62654974;88;64;52;17733.000000;1.000000;1.000000;1.000000;1.000000;-0.106400;0.106400;-0.106400;1.000000
445627.98930176;5696603.85949905;472.66265013;63;51;45;13621.000000;1.000000;1.000000;1.000000;1.000000;-0.029499;0.029499;-0.029499;1.000000
445628.39250191;5696604.32049759;472.60944988;195;184;174;47802.000000;1.000000;1.000000;1.000000;1.000000;-0.015625;0.015625;-0.015625;1.000000
445627.95030220;5696603.94930084;472.67824986;160;160;161;41120.000000;1.000000;1.000000;1.000000;1.000000;0.119301;-0.119301;0.119301;1.000000
445628.02410133;5696603.91440018;472.67884972;61;54;59;14392.000000;1.000000;1.000000;1.000000;1.000000;-0.084400;0.084400;-0.084400;1.000000
445628.34100159;5696604.39679916;472.66624977;85;78;75;20303.000000;1.000000;1.000000;1.000000;1.000000;-0.066915;0.066915;-0.066915;1.000000
445628.20440109;5696603.89599808;472.63555004;115;99;87;26214.000000;1.000000;1.000000;1.000000;1.000000;-0.066005;0.066005;-0.066005;1.000000
445628.39170082;5696604.28560074;472.60664989;178;165;159;43176.000000;1.000000;1.000000;1.000000;1.000000;-0.014824;0.014824;-0.014824;1.000000
445628.23450096;5696603.84189804;472.63154985;67;51;44;14135.000000;1.000000;1.000000;1.000000;1.000000;-0.011898;0.011898;-0.011898;1.000000
445628.35520180;5696604.06040009;472.58605005;40;32;28;8481.000000;1.000000;1.000000;1.000000;1.000000;0.021675;-0.021675;0.021675;1.000000
445628.14370163;5696604.40590103;472.65284969;155;136;121;35980.000000;1.000000;1.000000;1.000000;1.000000;-0.186791;0.186791;-0.186791;1.000000
445628.25260170;5696603.83329971;472.62764980;64;53;51;14392.000000;1.000000;1.000000;1.000000;1.000000;-0.003300;0.003300;-0.003300;1.000000
445628.39560135;5696604.21100052;472.57105019;158;146;130;37779.000000;1.000000;1.000000;1.000000;1.000000;-0.018724;0.018724;-0.018724;1.000000
445628.15710075;5696604.10859879;472.61954977;126;111;97;29041.000000;1.000000;1.000000;1.000000;1.000000;-0.157276;0.157276;-0.157276;1.000000
445628.19470222;5696604.10980042;472.61894991;120;105;92;27756.000000;1.000000;1.000000;1.000000;1.000000;-0.119675;0.119675;-0.119675;1.000000
445628.05360229;5696603.91679962;472.65224983;36;25;25;7196.000000;1.000000;1.000000;1.000000;1.000000;-0.086800;0.086800;-0.086800;1.000000
445628.18590172;5696604.33199890;472.65154984;148;135;120;35209.000000;1.000000;1.000000;1.000000;1.000000;-0.128491;0.128491;-0.128491;1.000000
445628.37410172;5696604.30340012;472.61774971;236;228;221;58853.000000;1.000000;1.000000;1.000000;1.000000;0.002775;-0.002775;0.002775;1.000000
445628.26530083;5696604.11260040;472.61284973;189;185;177;47545.000000;1.000000;1.000000;1.000000;1.000000;-0.049076;0.049076;-0.049076;1.000000
445628.23230179;5696604.11099823;472.61604979;126;116;108;30326.000000;1.000000;1.000000;1.000000;1.000000;-0.082075;0.082075;-0.082075;1.000000
445628.30670174;5696604.11400040;472.57984974;76;67;56;17476.000000;1.000000;1.000000;1.000000;1.000000;-0.007675;0.007675;-0.007675;1.000000
445628.27210243;5696604.03719910;472.61695005;182;177;168;45489.000000;1.000000;1.000000;1.000000;1.000000;-0.042274;0.042274;-0.042274;1.000000
445628.34310158;5696604.07799728;472.57875015;42;34;28;8995.000000;1.000000;1.000000;1.000000;1.000000;0.028725;-0.028725;0.028725;1.000000
445628.31340225;5696603.92830093;472.61754992;31;27;26;7196.000000;1.000000;1.000000;1.000000;1.000000;-0.000975;0.000975;-0.000975;1.000000
445628.28140076;5696604.24399765;472.63385012;124;117;106;30069.000000;1.000000;1.000000;1.000000;1.000000;-0.061330;0.061330;-0.061330;1.000000
445628.36540230;5696604.02419861;472.59534981;55;50;48;13107.000000;1.000000;1.000000;1.000000;1.000000;0.011475;-0.011475;0.011475;1.000000
445628.20920189;5696604.39919861;472.69065001;234;230;224;59110.000000;1.000000;1.000000;1.000000;1.000000;-0.125898;0.125898;-0.125898;1.000000
445627.91370209;5696603.97849854;472.66764977;77;78;79;19789.000000;1.000000;1.000000;1.000000;1.000000;-0.148499;0.148499;-0.148499;1.000000
445627.87620171;5696603.93810089;472.63744976;18;13;8;3341.000000;1.000000;1.000000;1.000000;1.000000;0.108101;-0.108101;0.108101;1.000000
445628.13910110;5696603.87399872;472.63695004;129;115;106;30326.000000;1.000000;1.000000;1.000000;1.000000;-0.043999;0.043999;-0.043999;1.000000
445628.24690063;5696604.40049942;472.68764975;92;86;86;22359.000000;1.000000;1.000000;1.000000;1.000000;-0.097587;0.097587;-0.097587;1.000000
445628.23060234;5696604.32499893;472.68374969;163;151;140;39321.000000;1.000000;1.000000;1.000000;1.000000;0.083924;-0.083924;0.083924;1.000000
445628.36540230;5696604.25749786;472.61214973;160;148;141;38550.000000;1.000000;1.000000;1.000000;1.000000;0.011475;-0.011475;0.011475;1.000000
445628.20760162;5696604.40640076;472.69065001;228;224;220;57568.000000;1.000000;1.000000;1.000000;1.000000;-0.131294;0.131294;-0.131294;1.000000
445628.28720100;5696604.26420029;472.65065004;182;170;162;44204.000000;1.000000;1.000000;1.000000;1.000000;0.071191;-0.071191;0.071191;1.000000
445628.21330078;5696604.12919815;472.60844995;93;80;70;21074.000000;1.000000;1.000000;1.000000;1.000000;-0.101076;0.101076;-0.101076;1.000000
445628.14770134;5696604.10709961;472.61914970;84;70;57;18504.000000;1.000000;1.000000;1.000000;1.000000;-0.166676;0.166676;-0.166676;1.000000
445627.81660088;5696603.98079880;472.64925005;23;25;14;5911.000000;1.000000;1.000000;1.000000;1.000000;-0.150799;0.150799;-0.150799;1.000000
445628.00240143;5696604.02720078;472.61625006;168;160;154;41377.000000;1.000000;1.000000;1.000000;1.000000;-0.197201;0.197201;-0.197201;1.000000
445628.22430237;5696604.07440002;472.61525013;85;67;52;17990.000000;1.000000;1.000000;1.000000;1.000000;-0.090075;0.090075;-0.090075;1.000000
445628.04620178;5696603.87949951;472.68874981;66;65;71;16705.000000;1.000000;1.000000;1.000000;1.000000;-0.049500;0.049500;-0.049500;1.000000
445628.33160217;5696604.15379913;472.57674982;156;144;129;37265.000000;1.000000;1.000000;1.000000;1.000000;0.017225;-0.017225;0.017225;1.000000
445628.30280121;5696603.96430023;472.61514999;53;49;46;12593.000000;1.000000;1.000000;1.000000;1.000000;-0.011576;0.011576;-0.011576;1.000000
445628.21930130;5696604.40759857;472.69115021;166;161;158;41634.000000;1.000000;1.000000;1.000000;1.000000;-0.122723;0.122723;-0.122723;1.000000
445628.22070129;5696604.37019928;472.68615009;160;153;145;39578.000000;1.000000;1.000000;1.000000;1.000000;-0.101937;0.101937;-0.101937;1.000000
445628.22600182;5696604.26050003;472.65245010;208;199;187;51400.000000;1.000000;1.000000;1.000000;1.000000;-0.111410;0.111410;-0.111410;1.000000
445628.37320145;5696604.26619919;472.61254980;140;125;121;33153.000000;1.000000;1.000000;1.000000;1.000000;0.003675;-0.003675;0.003675;1.000000
445628.23350151;5696604.07349976;472.61564972;80;66;53;17476.000000;1.000000;1.000000;1.000000;1.000000;-0.080875;0.080875;-0.080875;1.000000
445628.01790245;5696603.87739761;472.68975021;216;215;218;55255.000000;1.000000;1.000000;1.000000;1.000000;-0.047398;0.047398;-0.047398;1.000000
445628.34090240;5696604.15299805;472.57485010;167;154;140;40092.000000;1.000000;1.000000;1.000000;1.000000;0.026525;-0.026525;0.026525;1.000000
445628.36060150;5696604.13489731;472.56855013;153;141;126;36494.000000;1.000000;1.000000;1.000000;1.000000;0.016275;-0.016275;0.016275;1.000000
445628.36180122;5696604.09739883;472.56815006;58;47;38;12593.000000;1.000000;1.000000;1.000000;1.000000;0.015076;-0.015076;0.015076;1.000000
445628.29080208;5696604.05669983;472.60634996;41;36;28;9252.000000;1.000000;1.000000;1.000000;1.000000;-0.023575;0.023575;-0.023575;1.000000
445628.33110245;5696603.98530014;472.60034992;137;133;130;34181.000000;1.000000;1.000000;1.000000;1.000000;0.016726;-0.016726;0.016726;1.000000
445628.25930222;5696603.90730103;472.63345005;146;136;129;35466.000000;1.000000;1.000000;1.000000;1.000000;-0.055075;0.055075;-0.055075;1.000000
445627.96180161;5696603.92249878;472.67845013;115;113;114;29041.000000;1.000000;1.000000;1.000000;1.000000;0.092499;-0.092499;0.092499;1.000000
445628.21480186;5696604.04500015;472.60745003;201;181;163;47545.000000;1.000000;1.000000;1.000000;1.000000;-0.099575;0.099575;-0.099575;1.000000
445628.19600113;5696604.07229813;472.61625006;117;91;70;24672.000000;1.000000;1.000000;1.000000;1.000000;-0.118376;0.118376;-0.118376;1.000000
445627.94340141;5696603.91300018;472.65184977;77;70;69;18247.000000;1.000000;1.000000;1.000000;1.000000;-0.083000;0.083000;-0.083000;1.000000
445628.35830124;5696604.21669968;472.58104994;155;142;124;36751.000000;1.000000;1.000000;1.000000;1.000000;0.018576;-0.018576;0.018576;1.000000
445628.28000076;5696604.21879776;472.61245014;144;137;130;35466.000000;1.000000;1.000000;1.000000;1.000000;-0.043677;0.043677;-0.043677;1.000000
445628.22730072;5696604.18379791;472.61905005;154;150;142;38550.000000;1.000000;1.000000;1.000000;1.000000;-0.087076;0.087076;-0.087076;1.000000
445628.34440239;5696604.29189880;472.63254978;193;179;172;46774.000000;1.000000;1.000000;1.000000;1.000000;0.032475;0.032475;-0.032475;1.000000
445628.23640068;5696604.21309860;472.63374998;219;214;204;54998.000000;1.000000;1.000000;1.000000;1.000000;-0.080708;0.080708;-0.080708;1.000000
445628.39190109;5696604.03339966;472.59665014;16;13;13;3341.000000;1.000000;1.000000;1.000000;1.000000;-0.015024;0.015024;-0.015024;1.000000
445628.27360161;5696604.17049988;472.60225012;115;109;100;28013.000000;1.000000;1.000000;1.000000;1.000000;-0.040775;0.040775;-0.040775;1.000000
445628.30180176;5696604.29780014;472.65634968;208;194;185;50629.000000;1.000000;1.000000;1.000000;1.000000;0.034568;-0.034568;0.034568;1.000000
445628.18750198;5696604.25760086;472.61805012;165;150;132;39064.000000;1.000000;1.000000;1.000000;1.000000;-0.142843;0.142843;-0.142843;1.000000
445628.18860062;5696604.22009857;472.62004997;179;169;156;43690.000000;1.000000;1.000000;1.000000;1.000000;-0.128875;0.128875;-0.128875;1.000000
445628.03280075;5696603.96100052;472.63315012;111;98;94;25957.000000;1.000000;1.000000;1.000000;1.000000;-0.131001;0.131001;-0.131001;1.000000
445628.05670174;5696603.84340103;472.69105007;176;171;171;44204.000000;1.000000;1.000000;1.000000;1.000000;-0.013429;0.013429;-0.013429;1.000000
445628.07170113;5696603.92700012;472.63455011;78;61;56;16705.000000;1.000000;1.000000;1.000000;1.000000;-0.097000;0.097000;-0.097000;1.000000
445628.01470192;5696603.95070084;472.65084984;61;53;54;14135.000000;1.000000;1.000000;1.000000;1.000000;-0.120701;0.120701;-0.120701;1.000000
445628.35790070;5696603.99449738;472.59705021;126;124;123;31868.000000;1.000000;1.000000;1.000000;1.000000;0.018976;-0.018976;0.018976;1.000000
445628.21980103;5696603.93440063;472.63194992;59;40;29;11308.000000;1.000000;1.000000;1.000000;1.000000;-0.094576;0.094576;-0.094576;1.000000
445628.22410210;5696603.83119782;472.63324978;92;77;70;20560.000000;1.000000;1.000000;1.000000;1.000000;-0.001198;0.001198;-0.001198;1.000000
445628.31930168;5696603.98399933;472.60214998;118;113;109;29298.000000;1.000000;1.000000;1.000000;1.000000;0.004925;-0.004925;0.004925;1.000000
445628.40000160;5696604.38939865;472.63854982;47;28;19;8224.000000;1.000000;1.000000;1.000000;1.000000;-0.063741;0.063741;-0.063741;1.000000
445628.18640144;5696604.07079895;472.61814978;119;93;72;25186.000000;1.000000;1.000000;1.000000;1.000000;-0.127975;0.127975;-0.127975;1.000000
445627.97110184;5696603.85679825;472.64545013;110;94;87;25186.000000;1.000000;1.000000;1.000000;1.000000;-0.026798;0.026798;-0.026798;1.000000
445628.40500076;5696604.21019943;472.56914999;196;185;171;47802.000000;1.000000;1.000000;1.000000;1.000000;-0.028124;0.028124;-0.028124;1.000000
445628.22030075;5696604.12859924;472.60874989;117;106;95;27756.000000;1.000000;1.000000;1.000000;1.000000;-0.094076;0.094076;-0.094076;1.000000
445628.26260193;5696604.13170059;472.60834982;148;144;135;37008.000000;1.000000;1.000000;1.000000;1.000000;-0.051775;0.051775;-0.051775;1.000000
445628.37010201;5696604.13640030;472.56664993;173;160;145;41634.000000;1.000000;1.000000;1.000000;1.000000;0.006775;-0.006775;0.006775;1.000000
445628.37120064;5696604.09889801;472.56855013;44;33;25;8995.000000;1.000000;1.000000;1.000000;1.000000;0.005676;-0.005676;0.005676;1.000000
445628.29790123;5696604.05610092;472.60204985;42;36;28;9252.000000;1.000000;1.000000;1.000000;1.000000;-0.016476;0.016476;-0.016476;1.000000
445628.21820076;5696604.18469818;472.61625006;153;147;139;37779.000000;1.000000;1.000000;1.000000;1.000000;-0.096176;0.096176;-0.096176;1.000000
445628.33010109;5696604.18889816;472.57945015;136;119;103;31354.000000;1.000000;1.000000;1.000000;1.000000;0.015724;-0.015724;0.015724;1.000000
445628.23120125;5696604.14850052;472.61404993;166;159;153;41120.000000;1.000000;1.000000;1.000000;1.000000;-0.083176;0.083176;-0.083176;1.000000
445627.97380074;5696603.98729904;472.64944984;60;58;62;15163.000000;1.000000;1.000000;1.000000;1.000000;-0.157299;0.157299;-0.157299;1.000000
445628.34010132;5696604.35959824;472.66115000;170;163;152;41891.000000;1.000000;1.000000;1.000000;1.000000;-0.029755;0.029755;-0.029755;1.000000
445628.41450127;5696604.36260040;472.62264969;124;101;83;26985.000000;1.000000;1.000000;1.000000;1.000000;-0.049783;0.049783;-0.049783;1.000000
445628.25590141;5696604.37389954;472.69245007;64;58;54;15163.000000;1.000000;1.000000;1.000000;1.000000;-0.073120;0.073120;-0.073120;1.000000
445628.37010201;5696604.37789734;472.65574982;110;99;91;25957.000000;1.000000;1.000000;1.000000;1.000000;-0.047931;0.047931;-0.047931;1.000000
445628.41310127;5696604.22789963;472.58134987;217;208;198;53713.000000;1.000000;1.000000;1.000000;1.000000;-0.036224;0.036224;-0.036224;1.000000
445628.33960159;5696604.19039734;472.57754995;118;100;83;26471.000000;1.000000;1.000000;1.000000;1.000000;0.025225;-0.025225;0.025225;1.000000
445628.30810173;5696604.24869736;472.62104990;146;135;125;35209.000000;1.000000;1.000000;1.000000;1.000000;-0.057011;0.057011;-0.057011;1.000000
445628.28170212;5696604.24859818;472.63625004;139;131;119;33924.000000;1.000000;1.000000;1.000000;1.000000;-0.065062;0.065062;-0.065062;1.000000
445628.28530128;5696604.14150055;472.59314968;152;145;134;37265.000000;1.000000;1.000000;1.000000;1.000000;-0.029076;0.029076;-0.029076;1.000000
445628.26530083;5696604.18739899;472.61375000;119;114;107;29298.000000;1.000000;1.000000;1.000000;1.000000;-0.049076;0.049076;-0.049076;1.000000
445628.29680069;5696604.26569946;472.64874985;166;152;143;39835.000000;1.000000;1.000000;1.000000;1.000000;0.066659;-0.066659;0.066659;1.000000
445628.33380135;5696604.33919724;472.65364983;130;115;103;30326.000000;1.000000;1.000000;1.000000;1.000000;-0.009197;0.009197;-0.009197;1.000000
445628.12100227;5696604.07900055;472.63394978;212;198;184;51400.000000;1.000000;1.000000;1.000000;1.000000;-0.193375;0.193375;-0.193375;1.000000
445628.40640076;5696604.14710052;472.56145002;71;57;48;15420.000000;1.000000;1.000000;1.000000;1.000000;-0.029524;0.029524;-0.029524;1.000000
445628.20440109;5696604.09009750;472.62155010;150;132;119;34695.000000;1.000000;1.000000;1.000000;1.000000;-0.109976;0.109976;-0.109976;1.000000
445628.24210175;5696604.32609756;472.69124987;175;163;154;42405.000000;1.000000;1.000000;1.000000;1.000000;0.072380;-0.072380;0.072380;1.000000
445627.98380096;5696604.00779922;472.62454988;78;73;73;19018.000000;1.000000;1.000000;1.000000;1.000000;-0.177799;0.177799;-0.177799;1.000000
445628.40630157;5696604.34480103;472.61275007;116;97;81;25700.000000;1.000000;1.000000;1.000000;1.000000;-0.032938;0.032938;-0.032938;1.000000
445628.29280098;5696604.34020050;472.68435003;179;168;158;43690.000000;1.000000;1.000000;1.000000;1.000000;-0.023866;0.023866;-0.023866;1.000000
445628.13530167;5696603.97739990;472.62404968;117;97;78;25700.000000;1.000000;1.000000;1.000000;1.000000;-0.147400;0.147400;-0.147400;1.000000
445628.36390121;5696603.85539825;472.64225008;68;80;62;19018.000000;1.000000;1.000000;1.000000;1.000000;0.025398;-0.025398;0.025398;1.000000
445628.14960106;5696604.36809738;472.65024998;178;162;151;42405.000000;1.000000;1.000000;1.000000;1.000000;-0.169123;0.169123;-0.169123;1.000000
445628.29570206;5696604.37489899;472.69194986;133;128;124;33153.000000;1.000000;1.000000;1.000000;1.000000;-0.048628;0.048628;-0.048628;1.000000
445628.02180107;5696603.84210022;472.68484976;119;112;107;29041.000000;1.000000;1.000000;1.000000;1.000000;-0.012100;0.012100;-0.012100;1.000000
445628.13000114;5696604.34919937;472.63054993;110;93;77;24672.000000;1.000000;1.000000;1.000000;1.000000;-0.185373;0.185373;-0.185373;1.000000
445628.21660240;5696604.25910004;472.64965012;177;165;153;42919.000000;1.000000;1.000000;1.000000;1.000000;-0.118242;0.118242;-0.118242;1.000000
445628.17800148;5696604.25620087;472.61765005;160;144;128;37779.000000;1.000000;1.000000;1.000000;1.000000;-0.150746;0.150746;-0.150746;1.000000
445628.12230118;5696604.04149826;472.63114979;242;227;208;58853.000000;1.000000;1.000000;1.000000;1.000000;-0.192076;0.192076;-0.192076;1.000000
445627.97780235;5696603.99880035;472.63584997;74;71;74;18504.000000;1.000000;1.000000;1.000000;1.000000;-0.168800;0.168800;-0.168800;1.000000
445628.01410110;5696603.96269806;472.63705017;103;93;90;24415.000000;1.000000;1.000000;1.000000;1.000000;-0.132698;0.132698;-0.132698;1.000000
445627.99670227;5696603.94280060;472.67094995;61;59;61;15163.000000;1.000000;1.000000;1.000000;1.000000;-0.112851;0.112851;-0.112851;1.000000
445628.17940147;5696604.22099884;472.61724998;185;176;162;45489.000000;1.000000;1.000000;1.000000;1.000000;-0.138066;0.138066;-0.138066;1.000000
445628.22290237;5696604.10949905;472.61555006;85;73;63;19275.000000;1.000000;1.000000;1.000000;1.000000;-0.091475;0.091475;-0.091475;1.000000
445627.81540115;5696604.01829727;472.64965012;58;70;43;16191.000000;1.000000;1.000000;1.000000;1.000000;-0.188297;0.188297;-0.188297;1.000000
445628.07270248;5696603.93630035;472.63234999;84;66;62;17990.000000;1.000000;1.000000;1.000000;1.000000;-0.106300;0.106300;-0.106300;1.000000
445627.84930237;5696603.89859970;472.63345005;77;62;52;16705.000000;1.000000;1.000000;1.000000;1.000000;-0.068600;0.068600;-0.068600;1.000000
445628.07120140;5696603.94579895;472.63245012;81;64;60;17476.000000;1.000000;1.000000;1.000000;1.000000;-0.115799;0.115799;-0.115799;1.000000
445627.81120117;5696603.85719879;472.66855003;65;58;59;15420.000000;1.000000;1.000000;1.000000;1.000000;0.027199;-0.027199;0.027199;1.000000
