//X;Y;Z;R;G;B;Intensity;Return Number;Number Of Returns;Scan Direction Flag;Point Source ID;C2M signed distances[-][<0.8];C2M signed distances[<0.4];C2M signed distances[-][<0.2];Stump21
445630.91580017;5696564.33899887;471.72825005;223;221;213;56540.000000;1.000000;1.000000;1.000000;1.000000;0.008999;-0.008999;0.008999;1.000000
445630.98610123;5696564.34719856;471.68734982;228;227;220;58082.000000;1.000000;1.000000;1.000000;1.000000;0.017199;-0.017199;0.017199;1.000000
445630.87560089;5696564.33039864;471.77294971;232;230;223;58853.000000;1.000000;1.000000;1.000000;1.000000;0.000399;-0.000399;0.000399;1.000000
445630.95250137;5696564.33859833;471.69035007;230;229;222;58596.000000;1.000000;1.000000;1.000000;1.000000;0.008598;-0.008598;0.008598;1.000000
445631.29129990;5696564.46919830;471.49294998;54;51;46;13107.000000;1.000000;1.000000;1.000000;1.000000;0.088197;-0.088197;0.088197;1.000000
445631.29240234;5696564.43169983;471.49484970;103;98;91;25186.000000;1.000000;1.000000;1.000000;1.000000;0.101703;-0.101703;0.101703;1.000000
445631.10390289;5696564.39139946;471.60234978;207;204;194;52171.000000;1.000000;1.000000;1.000000;1.000000;-0.061399;0.061399;-0.061399;1.000000
445631.14540298;5696564.35129936;471.53154995;184;176;163;45232.000000;1.000000;1.000000;1.000000;1.000000;0.021299;-0.021299;0.021299;1.000000
445631.34800156;5696564.65609940;471.45344975;162;162;155;41377.000000;1.000000;1.000000;1.000000;1.000000;0.028875;-0.028875;0.028875;1.000000
445631.04160126;5696564.36849983;471.64115002;211;210;201;53713.000000;1.000000;1.000000;1.000000;1.000000;0.038524;-0.038524;0.038524;1.000000
445631.06150253;5696564.37389954;471.62585022;205;202;191;51657.000000;1.000000;1.000000;1.000000;1.000000;0.043900;-0.043900;0.043900;1.000000
445631.00880249;5696564.34799965;471.65345003;229;228;220;58339.000000;1.000000;1.000000;1.000000;1.000000;0.018233;-0.018233;0.018233;1.000000
445630.79800232;5696564.46559914;471.80364992;199;197;188;50372.000000;1.000000;1.000000;1.000000;1.000000;-0.135599;0.135599;-0.135599;1.000000
445631.06350143;5696564.33519943;471.55095007;224;219;208;56283.000000;1.000000;1.000000;1.000000;1.000000;0.005199;-0.005199;0.005199;1.000000
445630.78059967;5696564.17799957;471.48264982;147;136;123;35209.000000;1.000000;1.000000;1.000000;1.000000;0.033777;-0.033777;0.033777;1.000000
445630.84150131;5696564.28859909;471.66144993;232;231;224;59110.000000;1.000000;1.000000;1.000000;1.000000;-0.027124;-0.027124;0.027124;1.000000
445630.91410263;5696564.29649933;471.62284996;212;210;202;53713.000000;1.000000;1.000000;1.000000;1.000000;-0.033501;0.033501;-0.033501;1.000000
445630.72940262;5696564.28969963;471.66104986;234;234;226;59881.000000;1.000000;1.000000;1.000000;1.000000;-0.040300;0.040300;-0.040300;1.000000
445630.87220200;5696564.43299873;471.80195000;181;177;167;45489.000000;1.000000;1.000000;1.000000;1.000000;0.102999;-0.102999;0.102999;1.000000
445630.95320328;5696564.29809959;471.58745005;223;220;211;56283.000000;1.000000;1.000000;1.000000;1.000000;-0.031900;0.031900;-0.031900;1.000000
445630.99040039;5696564.30229958;471.54955008;194;191;180;48830.000000;1.000000;1.000000;1.000000;1.000000;-0.027700;0.027700;-0.027700;1.000000
445630.84190186;5696564.25709923;471.58654978;211;206;195;52942.000000;1.000000;1.000000;1.000000;1.000000;-0.027525;-0.027525;0.027525;1.000000
445630.80640228;5696564.25329979;471.58724977;192;185;174;47545.000000;1.000000;1.000000;1.000000;1.000000;0.007975;-0.007975;0.007975;1.000000
445630.80460175;5696564.30029877;471.72744991;242;242;236;61937.000000;1.000000;1.000000;1.000000;1.000000;0.009775;-0.009775;0.009775;1.000000
445630.84110077;5696564.29749878;471.68944981;235;235;228;60138.000000;1.000000;1.000000;1.000000;1.000000;-0.026724;-0.026724;0.026724;1.000000
445631.31920059;5696564.67509850;471.45704987;121;122;116;31097.000000;1.000000;1.000000;1.000000;1.000000;0.057676;-0.057676;0.057676;1.000000
445630.73450287;5696564.16799934;471.49914982;247;247;240;63222.000000;1.000000;1.000000;1.000000;1.000000;0.079874;-0.079874;0.079874;1.000000
445631.04300125;5696564.16819962;471.45015003;189;173;152;44975.000000;1.000000;1.000000;1.000000;1.000000;-0.161801;0.161801;-0.161801;1.000000
445630.79100235;5696564.18649872;471.47625019;160;149;134;38550.000000;1.000000;1.000000;1.000000;1.000000;0.023375;-0.023375;0.023375;1.000000
445631.32050140;5696564.63760002;471.45435001;218;218;213;55769.000000;1.000000;1.000000;1.000000;1.000000;0.056376;-0.056376;0.056376;1.000000
445630.78400238;5696564.30459984;471.72655012;242;242;235;61937.000000;1.000000;1.000000;1.000000;1.000000;0.025400;-0.025400;0.025400;1.000000
445630.97000320;5696564.31479843;471.61394979;198;196;188;50115.000000;1.000000;1.000000;1.000000;1.000000;-0.015202;0.015202;-0.015202;1.000000
445631.27280243;5696564.44749840;471.49644997;56;48;39;12593.000000;1.000000;1.000000;1.000000;1.000000;0.112594;-0.112594;0.112594;1.000000
445631.08070190;5696564.17169960;471.44955017;147;133;110;34438.000000;1.000000;1.000000;1.000000;1.000000;-0.158300;0.158300;-0.158300;1.000000
445631.18070038;5696564.43429955;471.54104998;203;200;191;51143.000000;1.000000;1.000000;1.000000;1.000000;0.104300;-0.104300;0.104300;1.000000
445630.73100098;5696564.24629982;471.58605005;234;230;221;59110.000000;1.000000;1.000000;1.000000;1.000000;0.083376;-0.083376;0.083376;1.000000
445630.73610123;5696564.15629967;471.49204971;245;244;237;62451.000000;1.000000;1.000000;1.000000;1.000000;0.078276;-0.078276;0.078276;1.000000
445630.76600082;5696564.29509933;471.69074966;224;224;218;57311.000000;1.000000;1.000000;1.000000;1.000000;-0.034901;0.034901;-0.034901;1.000000
445631.10500153;5696564.46929939;471.68944981;165;165;159;42148.000000;1.000000;1.000000;1.000000;1.000000;-0.139299;0.139299;-0.139299;1.000000
445630.76870163;5696564.24979980;471.58785011;207;202;193;51914.000000;1.000000;1.000000;1.000000;1.000000;0.045675;-0.045675;0.045675;1.000000
445630.86240204;5696564.23779877;471.50344994;212;206;193;52942.000000;1.000000;1.000000;1.000000;1.000000;-0.048025;-0.048025;0.048025;1.000000
445630.82520111;5696564.19749840;471.46635010;102;90;72;23387.000000;1.000000;1.000000;1.000000;1.000000;-0.010824;-0.010824;0.010824;1.000000
445631.03630264;5696564.30999954;471.53074982;163;155;145;40092.000000;1.000000;1.000000;1.000000;1.000000;-0.020251;0.020251;-0.020251;1.000000
445631.14790161;5696564.31189926;471.49624969;211;197;179;51143.000000;1.000000;1.000000;1.000000;1.000000;-0.018101;0.018101;-0.018101;1.000000
445630.81920059;5696564.15149887;471.45384981;180;170;156;43947.000000;1.000000;1.000000;1.000000;1.000000;-0.004824;0.004824;-0.004824;1.000000
445631.19060333;5696564.20109947;471.45954992;82;65;48;17476.000000;1.000000;1.000000;1.000000;1.000000;-0.128906;0.128906;-0.128906;1.000000
445630.87860306;5696564.25659950;471.54864981;206;201;190;51657.000000;1.000000;1.000000;1.000000;1.000000;-0.064226;-0.064226;0.064226;1.000000
445630.95300110;5696564.25969894;471.51004984;115;109;98;28013.000000;1.000000;1.000000;1.000000;1.000000;-0.070301;0.070301;-0.070301;1.000000
445631.19650085;5696564.44699867;471.52794983;160;154;141;39578.000000;1.000000;1.000000;1.000000;1.000000;0.117034;-0.117034;0.117034;1.000000
445631.02930267;5696564.26009949;471.47865011;62;46;28;12336.000000;1.000000;1.000000;1.000000;1.000000;-0.069901;0.069901;-0.069901;1.000000
445630.75340088;5696564.16639908;471.49294998;235;232;224;59624.000000;1.000000;1.000000;1.000000;1.000000;0.060976;-0.060976;0.060976;1.000000
445631.08740051;5696564.22909935;471.47384979;171;161;146;41634.000000;1.000000;1.000000;1.000000;1.000000;-0.100901;0.100901;-0.100901;1.000000
445630.91720016;5696564.25359924;471.51534988;227;222;211;57054.000000;1.000000;1.000000;1.000000;1.000000;-0.076401;0.076401;-0.076401;1.000000
445631.15990265;5696564.22939880;471.47244980;121;107;94;28013.000000;1.000000;1.000000;1.000000;1.000000;0.100601;-0.100601;0.100601;1.000000
445630.86560257;5696564.14269836;471.44185020;111;103;88;26471.000000;1.000000;1.000000;1.000000;1.000000;-0.051226;0.051226;-0.051226;1.000000
445630.97910126;5696564.33429916;471.66124966;226;225;217;57568.000000;1.000000;1.000000;1.000000;1.000000;0.004506;-0.004506;0.004506;1.000000
445630.90360077;5696564.14629944;471.43664982;153;144;130;37265.000000;1.000000;1.000000;1.000000;1.000000;-0.089224;0.089224;-0.089224;1.000000
445630.90870102;5696564.21989830;471.47734978;80;69;59;18247.000000;1.000000;1.000000;1.000000;1.000000;-0.094324;-0.094324;0.094324;1.000000
445631.01570328;5696564.14749916;471.44175007;153;139;119;36237.000000;1.000000;1.000000;1.000000;1.000000;-0.182501;0.182501;-0.182501;1.000000
445630.76870163;5696564.21369942;471.51055004;213;204;191;52685.000000;1.000000;1.000000;1.000000;1.000000;0.045675;-0.045675;0.045675;1.000000
445631.12759979;5696564.48899849;471.64185001;146;148;143;37522.000000;1.000000;1.000000;1.000000;1.000000;-0.158998;0.158998;-0.158998;1.000000
445631.02650269;5696564.29719933;471.51384975;192;186;174;47802.000000;1.000000;1.000000;1.000000;1.000000;-0.032801;0.032801;-0.032801;1.000000
445631.02650269;5696564.33109863;471.58645012;194;191;183;49087.000000;1.000000;1.000000;1.000000;1.000000;0.001099;-0.001099;0.001099;1.000000
445631.06020172;5696564.44669922;471.75705006;232;230;223;58853.000000;1.000000;1.000000;1.000000;1.000000;0.116699;-0.116699;0.116699;1.000000
445630.95290192;5696564.30709847;471.61315014;221;218;210;56026.000000;1.000000;1.000000;1.000000;1.000000;-0.022902;0.022902;-0.022902;1.000000
445631.02610214;5696564.40779884;471.75734999;217;215;207;54998.000000;1.000000;1.000000;1.000000;1.000000;0.077799;-0.077799;0.077799;1.000000
445630.87390335;5696564.21859940;471.46875002;133;122;100;31354.000000;1.000000;1.000000;1.000000;1.000000;-0.059526;-0.059526;0.059526;1.000000
445631.06730087;5696564.43249901;471.72464993;206;204;197;52171.000000;1.000000;1.000000;1.000000;1.000000;-0.102499;0.102499;-0.102499;1.000000
445630.88900192;5696564.31849869;471.70825006;222;221;214;56540.000000;1.000000;1.000000;1.000000;1.000000;-0.011501;0.011501;-0.011501;1.000000
445630.90410049;5696564.15319832;471.43905022;157;147;130;38036.000000;1.000000;1.000000;1.000000;1.000000;-0.089724;0.089724;-0.089724;1.000000
445630.92040070;5696564.18419846;471.45414974;95;82;68;21588.000000;1.000000;1.000000;1.000000;1.000000;-0.106024;-0.106024;0.106024;1.000000
445631.06530197;5696564.30779846;471.50404980;232;226;214;58082.000000;1.000000;1.000000;1.000000;1.000000;0.022202;-0.022202;0.022202;1.000000
445630.72440155;5696564.19429977;471.51994993;219;215;205;55255.000000;1.000000;1.000000;1.000000;1.000000;0.089975;-0.089975;0.089975;1.000000
445630.94900330;5696564.16519936;471.45524981;118;105;86;27242.000000;1.000000;1.000000;1.000000;1.000000;-0.134626;0.134626;-0.134626;1.000000
445630.80980118;5696564.21279915;471.47744991;153;146;131;37522.000000;1.000000;1.000000;1.000000;1.000000;0.004576;-0.004576;0.004576;1.000000
445631.29870041;5696564.51549919;471.47755005;180;181;181;46260.000000;1.000000;1.000000;1.000000;1.000000;0.078176;-0.078176;0.078176;1.000000
445630.80600174;5696564.26229866;471.61525013;170;165;156;42405.000000;1.000000;1.000000;1.000000;1.000000;0.008375;-0.008375;0.008375;1.000000
445630.97100266;5696564.29479988;471.54855015;194;190;178;48573.000000;1.000000;1.000000;1.000000;1.000000;-0.035202;0.035202;-0.035202;1.000000
445630.88070114;5696564.26759918;471.57674982;199;197;187;50372.000000;1.000000;1.000000;1.000000;1.000000;-0.062401;0.062401;-0.062401;1.000000
445630.73130234;5696564.26219948;471.61424973;223;220;212;56540.000000;1.000000;1.000000;1.000000;1.000000;-0.067801;0.067801;-0.067801;1.000000
445630.91710098;5696564.26479919;471.54115011;212;209;199;53456.000000;1.000000;1.000000;1.000000;1.000000;-0.065201;0.065201;-0.065201;1.000000
445630.95590027;5696564.26409920;471.50794985;135;129;117;33153.000000;1.000000;1.000000;1.000000;1.000000;-0.065901;0.065901;-0.065901;1.000000
445630.73299988;5696564.22119911;471.54164984;184;175;162;45232.000000;1.000000;1.000000;1.000000;1.000000;0.081377;-0.081377;0.081377;1.000000
445630.88140305;5696564.24519928;471.51364996;201;195;182;50115.000000;1.000000;1.000000;1.000000;1.000000;-0.067026;-0.067026;0.067026;1.000000
445631.29110153;5696564.48799904;471.48614981;49;48;46;12336.000000;1.000000;1.000000;1.000000;1.000000;0.085817;-0.085817;0.085817;1.000000
445631.21580322;5696564.44779976;471.51725008;147;137;122;35466.000000;1.000000;1.000000;1.000000;1.000000;0.117800;-0.117800;0.117800;1.000000
445631.10220154;5696564.51540001;471.74574997;157;158;154;40349.000000;1.000000;1.000000;1.000000;1.000000;-0.185400;0.185400;-0.185400;1.000000
445631.10270126;5696564.47849854;471.70814993;183;184;178;47031.000000;1.000000;1.000000;1.000000;1.000000;-0.148499;0.148499;-0.148499;1.000000
445631.25620087;5696564.60599907;471.46735003;60;56;52;14392.000000;1.000000;1.000000;1.000000;1.000000;0.120676;-0.120676;0.120676;1.000000
445631.03660019;5696564.34399994;471.59635021;204;201;191;51400.000000;1.000000;1.000000;1.000000;1.000000;0.014424;-0.014424;0.014424;1.000000
445631.10350235;5696564.44399841;471.67044975;191;191;185;48830.000000;1.000000;1.000000;1.000000;1.000000;-0.113998;0.113998;-0.113998;1.000000
445630.73780258;5696564.31119926;471.72924997;242;242;236;61937.000000;1.000000;1.000000;1.000000;1.000000;-0.018801;0.018801;-0.018801;1.000000
445631.10860260;5696564.32909973;471.52264978;243;238;225;61166.000000;1.000000;1.000000;1.000000;1.000000;-0.000900;0.000900;-0.000900;1.000000
445631.03660019;5696564.36209877;471.63385012;215;214;205;54741.000000;1.000000;1.000000;1.000000;1.000000;0.032286;-0.032286;0.032286;1.000000
445631.03640182;5696564.32359894;471.55884983;215;212;202;54227.000000;1.000000;1.000000;1.000000;1.000000;-0.007190;0.007190;-0.007190;1.000000
445630.89620026;5696564.32919891;471.72725012;222;220;213;56283.000000;1.000000;1.000000;1.000000;1.000000;-0.000801;0.000801;-0.000801;1.000000
445631.03840073;5696564.28709991;471.48864986;192;185;170;47545.000000;1.000000;1.000000;1.000000;1.000000;-0.043164;0.043164;-0.043164;1.000000
445631.11140259;5696564.29209908;471.48735001;165;154;138;39835.000000;1.000000;1.000000;1.000000;1.000000;-0.037901;0.037901;-0.037901;1.000000
445631.19000061;5696564.45459946;471.53245022;143;140;128;35723.000000;1.000000;1.000000;1.000000;1.000000;0.124601;-0.124601;0.124601;1.000000
445631.14340027;5696564.20059975;471.46904995;99;78;58;21074.000000;1.000000;1.000000;1.000000;1.000000;-0.129400;0.129400;-0.129400;1.000000
445630.81020172;5696564.18719872;471.46785023;185;174;159;44975.000000;1.000000;1.000000;1.000000;1.000000;0.004175;-0.004175;0.004175;1.000000
445631.14920242;5696564.29559906;471.48444988;204;190;174;49344.000000;1.000000;1.000000;1.000000;1.000000;-0.034401;0.034401;-0.034401;1.000000
445631.30080231;5696564.30079849;471.45174982;146;137;128;35466.000000;1.000000;1.000000;1.000000;1.000000;-0.029202;0.029202;-0.029202;1.000000
445630.98999985;5696564.37589844;471.76704981;236;234;229;60138.000000;1.000000;1.000000;1.000000;1.000000;0.045898;-0.045898;0.045898;1.000000
445631.18920334;5696564.44529922;471.53224995;160;156;146;40092.000000;1.000000;1.000000;1.000000;1.000000;0.115299;-0.115299;0.115299;1.000000
445631.29890259;5696564.44979866;471.49305012;23;17;15;4626.000000;1.000000;1.000000;1.000000;1.000000;0.087972;-0.087972;0.087972;1.000000
445630.73540314;5696564.18179901;471.50864985;239;237;229;60652.000000;1.000000;1.000000;1.000000;1.000000;0.078974;-0.078974;0.078974;1.000000
445630.81210144;5696564.33589943;471.79344990;168;162;152;41634.000000;1.000000;1.000000;1.000000;1.000000;0.006323;-0.006323;0.006323;1.000000
445631.11670120;5696564.40409859;471.60535004;210;208;198;53199.000000;1.000000;1.000000;1.000000;1.000000;0.074099;-0.074099;0.074099;1.000000
445631.14930161;5696564.40879829;471.56495001;204;202;192;51657.000000;1.000000;1.000000;1.000000;1.000000;0.078798;-0.078798;0.078798;1.000000
445631.07970245;5696564.40229996;471.64325001;187;185;175;47288.000000;1.000000;1.000000;1.000000;1.000000;0.072300;-0.072300;0.072300;1.000000
445631.11520203;5696564.36989983;471.56535007;218;214;202;54741.000000;1.000000;1.000000;1.000000;1.000000;0.039900;-0.039900;0.039900;1.000000
445631.15600021;5696564.36659821;471.53455021;211;204;192;52428.000000;1.000000;1.000000;1.000000;1.000000;0.036598;-0.036598;0.036598;1.000000
445631.11830338;5696564.33519943;471.52775003;239;233;222;59881.000000;1.000000;1.000000;1.000000;1.000000;0.005199;-0.005199;0.005199;1.000000
445631.04420288;5696564.41799934;471.73964979;211;209;203;53456.000000;1.000000;1.000000;1.000000;1.000000;0.087999;-0.087999;0.087999;1.000000
445630.83250244;5696564.30679901;471.74515011;240;239;233;61166.000000;1.000000;1.000000;1.000000;1.000000;-0.018126;-0.018126;0.018126;1.000000
445630.81229980;5696564.29759987;471.70685007;244;244;238;62451.000000;1.000000;1.000000;1.000000;1.000000;0.002077;-0.002077;0.002077;1.000000
445630.73180206;5696564.43429955;471.80725004;182;170;155;43947.000000;1.000000;1.000000;1.000000;1.000000;0.104300;-0.104300;0.104300;1.000000
445631.27430161;5696564.41229828;471.49384977;150;143;134;37008.000000;1.000000;1.000000;1.000000;1.000000;0.082298;-0.082298;0.082298;1.000000
445631.33839996;5696564.62899979;471.45274975;116;115;106;29298.000000;1.000000;1.000000;1.000000;1.000000;0.038477;-0.038477;0.038477;1.000000
445630.90450104;5696564.31530006;471.66925003;231;230;221;58853.000000;1.000000;1.000000;1.000000;1.000000;-0.014700;0.014700;-0.014700;1.000000
445630.80680283;5696564.48349960;471.80195000;199;199;192;50886.000000;1.000000;1.000000;1.000000;1.000000;-0.153514;0.153514;-0.153514;1.000000
445631.29740341;5696564.45929916;471.49305012;33;27;25;7196.000000;1.000000;1.000000;1.000000;1.000000;0.085391;-0.085391;0.085391;1.000000
445630.70670135;5696564.17509850;471.50955011;207;202;193;51914.000000;1.000000;1.000000;1.000000;1.000000;0.107676;-0.107676;0.107676;1.000000
445630.80809982;5696564.44829948;471.80394985;194;190;179;48573.000000;1.000000;1.000000;1.000000;1.000000;-0.118347;0.118347;-0.118347;1.000000
445630.88100250;5696564.45089920;471.80025007;181;180;172;46003.000000;1.000000;1.000000;1.000000;1.000000;0.120899;-0.120899;0.120899;1.000000
445630.74330338;5696564.19269951;471.51144983;163;159;148;40606.000000;1.000000;1.000000;1.000000;1.000000;0.071074;-0.071074;0.071074;1.000000
445630.78130157;5696564.15699966;471.47545006;161;151;139;39064.000000;1.000000;1.000000;1.000000;1.000000;0.033075;-0.033075;0.033075;1.000000
445630.78090103;5696564.40869911;471.80684998;182;167;147;43433.000000;1.000000;1.000000;1.000000;1.000000;0.078699;-0.078699;0.078699;1.000000
445631.18380173;5696564.29229935;471.48824980;194;179;160;46517.000000;1.000000;1.000000;1.000000;1.000000;-0.037701;0.037701;-0.037701;1.000000
445631.22380264;5696564.29559906;471.49014999;158;145;127;37522.000000;1.000000;1.000000;1.000000;1.000000;-0.034547;0.034547;-0.034547;1.000000
445630.85320099;5696564.23419960;471.49364998;209;202;187;51914.000000;1.000000;1.000000;1.000000;1.000000;-0.038824;-0.038824;0.038824;1.000000
445631.29290207;5696564.19170006;471.45244982;116;96;76;25443.000000;1.000000;1.000000;1.000000;1.000000;-0.138300;0.138300;-0.138300;1.000000
445630.89290054;5696564.22829826;471.48134996;125;114;97;29555.000000;1.000000;1.000000;1.000000;1.000000;-0.078524;-0.078524;0.078524;1.000000
445630.89270218;5696564.18680008;471.45055010;173;157;140;40863.000000;1.000000;1.000000;1.000000;1.000000;-0.078325;-0.078325;0.078325;1.000000
445631.30420120;5696564.58999832;471.45764973;222;222;220;56797.000000;1.000000;1.000000;1.000000;1.000000;0.072676;-0.072676;0.072676;1.000000
445631.18220337;5696564.14399918;471.42355015;174;164;152;42405.000000;1.000000;1.000000;1.000000;1.000000;-0.186001;0.186001;-0.186001;1.000000
445630.87500198;5696564.36039932;471.79654982;158;154;145;39578.000000;1.000000;1.000000;1.000000;1.000000;0.030399;-0.030399;0.030399;1.000000
445630.91400345;5696564.32580002;471.68844988;224;222;213;56797.000000;1.000000;1.000000;1.000000;1.000000;-0.004200;0.004200;-0.004200;1.000000
445630.87090118;5696564.33529861;471.78445007;226;223;216;57311.000000;1.000000;1.000000;1.000000;1.000000;0.005299;-0.005299;0.005299;1.000000
445630.95260056;5696564.32279976;471.65284969;221;220;211;56283.000000;1.000000;1.000000;1.000000;1.000000;-0.007200;0.007200;-0.007200;1.000000
445630.98960312;5696564.32469948;471.61494972;195;192;182;49087.000000;1.000000;1.000000;1.000000;1.000000;-0.005301;0.005301;-0.005301;1.000000
445630.76889999;5696564.22509964;471.52934982;193;185;173;47802.000000;1.000000;1.000000;1.000000;1.000000;0.045477;-0.045477;0.045477;1.000000
445631.28400238;5696564.65479858;471.46915009;178;177;169;45232.000000;1.000000;1.000000;1.000000;1.000000;0.092875;-0.092875;0.092875;1.000000
445631.25980194;5696564.30169876;471.48255016;162;151;140;39321.000000;1.000000;1.000000;1.000000;1.000000;-0.028381;0.028381;-0.028381;1.000000
445630.75200089;5696564.42539986;471.80804970;167;153;135;39835.000000;1.000000;1.000000;1.000000;1.000000;-0.095400;0.095400;-0.095400;1.000000
445630.96660049;5696564.24469955;471.48955013;10;3;1;1028.000000;1.000000;1.000000;1.000000;1.000000;-0.085300;0.085300;-0.085300;1.000000
445631.28310211;5696564.61759956;471.46404984;185;185;182;47288.000000;1.000000;1.000000;1.000000;1.000000;0.093775;-0.093775;0.093775;1.000000
445630.80350311;5696564.27829941;471.65264990;219;217;209;55512.000000;1.000000;1.000000;1.000000;1.000000;0.010874;-0.010874;0.010874;1.000000
445630.91980179;5696564.20969971;471.46834995;41;30;21;8224.000000;1.000000;1.000000;1.000000;1.000000;-0.105425;-0.105425;0.105425;1.000000
445630.84010132;5696564.30399902;471.72674992;234;233;226;59624.000000;1.000000;1.000000;1.000000;1.000000;-0.025724;-0.025724;0.025724;1.000000
445631.01090057;5696564.40189941;471.77294971;218;215;208;55255.000000;1.000000;1.000000;1.000000;1.000000;0.071902;-0.071902;0.071902;1.000000
445630.74670227;5696564.13690002;471.47604992;225;222;213;56797.000000;1.000000;1.000000;1.000000;1.000000;0.067675;-0.067675;0.067675;1.000000
445630.81140335;5696564.30639847;471.74644997;244;243;237;62194.000000;1.000000;1.000000;1.000000;1.000000;0.002974;-0.002974;0.002974;1.000000
445630.90990265;5696564.24959953;471.51265003;193;189;176;48316.000000;1.000000;1.000000;1.000000;1.000000;-0.080400;0.080400;-0.080400;1.000000
445631.02869995;5696564.38729866;471.70834972;210;208;202;53199.000000;1.000000;1.000000;1.000000;1.000000;0.057299;-0.057299;0.057299;1.000000
445630.73680313;5696564.36139877;471.80434992;209;202;188;51914.000000;1.000000;1.000000;1.000000;1.000000;0.031399;-0.031399;0.031399;1.000000
445630.77210052;5696564.36279877;471.80354979;194;186;171;47802.000000;1.000000;1.000000;1.000000;1.000000;0.032799;-0.032799;0.032799;1.000000
445630.91160019;5696564.37579926;471.79374983;132;125;113;32125.000000;1.000000;1.000000;1.000000;1.000000;0.045799;-0.045799;0.045799;1.000000
445631.17110260;5696564.43499954;471.54995014;210;209;199;53456.000000;1.000000;1.000000;1.000000;1.000000;0.105000;-0.105000;0.105000;1.000000
445631.09800156;5696564.43069847;471.66074993;212;212;204;54227.000000;1.000000;1.000000;1.000000;1.000000;-0.100698;0.100698;-0.100698;1.000000
445631.13140305;5696564.40079887;471.58274986;197;194;184;49601.000000;1.000000;1.000000;1.000000;1.000000;-0.070799;0.070799;-0.070799;1.000000
445631.09449966;5696564.39899834;471.62064983;172;169;159;43176.000000;1.000000;1.000000;1.000000;1.000000;0.068998;-0.068998;0.068998;1.000000
445631.13390167;5696564.36139877;471.54745008;179;173;161;44461.000000;1.000000;1.000000;1.000000;1.000000;-0.031399;0.031399;-0.031399;1.000000
445631.17490204;5696564.36049850;471.51664974;226;217;204;56026.000000;1.000000;1.000000;1.000000;1.000000;0.030499;-0.030499;0.030499;1.000000
445631.32040222;5696564.36870010;471.46974995;94;81;68;21331.000000;1.000000;1.000000;1.000000;1.000000;0.038910;-0.038910;0.038910;1.000000
445631.02330215;5696564.39199837;471.73614981;217;215;209;54998.000000;1.000000;1.000000;1.000000;1.000000;0.061998;-0.061998;0.061998;1.000000
445631.02670105;5696564.35149963;471.62395002;212;210;201;53713.000000;1.000000;1.000000;1.000000;1.000000;0.021500;-0.021500;0.021500;1.000000
445631.13680084;5696564.32440002;471.50985004;226;215;200;55512.000000;1.000000;1.000000;1.000000;1.000000;0.005600;-0.005600;0.005600;1.000000
445630.84720047;5696564.36519821;471.80235006;204;197;186;50629.000000;1.000000;1.000000;1.000000;1.000000;0.035198;-0.035198;0.035198;1.000000
445631.01140030;5696564.43680008;471.78265001;139;135;125;34695.000000;1.000000;1.000000;1.000000;1.000000;0.106800;-0.106800;0.106800;1.000000
445631.14050110;5696564.24749954;471.47415020;87;74;59;19532.000000;1.000000;1.000000;1.000000;1.000000;-0.082500;0.082500;-0.082500;1.000000
445630.97720154;5696564.39779861;471.78534986;144;139;130;35723.000000;1.000000;1.000000;1.000000;1.000000;0.067869;-0.067869;0.067869;1.000000
445631.10840042;5696564.13669975;471.43645002;122;116;104;29812.000000;1.000000;1.000000;1.000000;1.000000;-0.193300;0.193300;-0.193300;1.000000
445630.97790344;5696564.36099823;471.74534990;220;220;214;56283.000000;1.000000;1.000000;1.000000;1.000000;0.031094;-0.031094;0.031094;1.000000
445631.12240036;5696564.41529854;471.60575010;198;196;186;50115.000000;1.000000;1.000000;1.000000;1.000000;0.085299;-0.085299;0.085299;1.000000
445631.08990295;5696564.41069992;471.64384987;199;197;188;50372.000000;1.000000;1.000000;1.000000;1.000000;0.080700;-0.080700;0.080700;1.000000
445631.12530334;5696564.37829979;471.56584980;208;204;193;52171.000000;1.000000;1.000000;1.000000;1.000000;0.048300;-0.048300;0.048300;1.000000
445631.16410263;5696564.37759979;471.53265001;205;199;189;51143.000000;1.000000;1.000000;1.000000;1.000000;-0.047600;0.047600;-0.047600;1.000000
445631.12780197;5696564.33889969;471.53294994;232;226;214;58082.000000;1.000000;1.000000;1.000000;1.000000;-0.008900;0.008900;-0.008900;1.000000
445631.01680191;5696564.33629997;471.60475018;201;198;190;50886.000000;1.000000;1.000000;1.000000;1.000000;0.006300;-0.006300;0.006300;1.000000
445630.78230103;5696564.13839920;471.46595003;153;144;133;37265.000000;1.000000;1.000000;1.000000;1.000000;0.032076;-0.032076;0.032076;1.000000
445631.30660065;5696564.47729881;471.48204996;54;50;49;13107.000000;1.000000;1.000000;1.000000;1.000000;0.071553;-0.071553;0.071553;1.000000
445631.05540283;5696564.29719933;471.49414970;230;224;212;57568.000000;1.000000;1.000000;1.000000;1.000000;-0.032801;0.032801;-0.032801;1.000000
445630.80160339;5696564.13909920;471.45524981;151;140;128;36237.000000;1.000000;1.000000;1.000000;1.000000;0.012774;-0.012774;0.012774;1.000000
445630.71560104;5696564.38669975;471.80835011;162;151;132;39064.000000;1.000000;1.000000;1.000000;1.000000;0.056700;-0.056700;0.056700;1.000000
445630.75290115;5696564.15949829;471.48824980;242;239;232;61423.000000;1.000000;1.000000;1.000000;1.000000;0.061476;-0.061476;0.061476;1.000000
445630.72130020;5696564.31709869;471.74484970;237;237;231;60652.000000;1.000000;1.000000;1.000000;1.000000;-0.012901;0.012901;-0.012901;1.000000
445630.71759995;5696564.31099899;471.70965006;239;240;234;61423.000000;1.000000;1.000000;1.000000;1.000000;-0.019001;0.019001;-0.019001;1.000000
445631.06470306;5696564.50429924;471.77654984;119;117;111;29812.000000;1.000000;1.000000;1.000000;1.000000;-0.174299;0.174299;-0.174299;1.000000
445631.14360245;5696564.43459900;471.58834984;184;182;171;46517.000000;1.000000;1.000000;1.000000;1.000000;0.104599;-0.104599;0.104599;1.000000
445631.10080154;5696564.43509872;471.65864994;214;213;206;54484.000000;1.000000;1.000000;1.000000;1.000000;-0.105099;0.105099;-0.105099;1.000000
445631.05960281;5696564.39459999;471.65854980;208;205;197;52685.000000;1.000000;1.000000;1.000000;1.000000;0.064600;-0.064600;0.064600;1.000000
445631.18230255;5696564.36219986;471.51235010;226;218;205;56026.000000;1.000000;1.000000;1.000000;1.000000;0.032200;-0.032200;0.032200;1.000000
445631.29650314;5696564.36619957;471.47564985;79;68;57;17990.000000;1.000000;1.000000;1.000000;1.000000;0.036200;-0.036200;0.036200;1.000000
445630.86810120;5696564.28429993;471.63234999;219;218;209;55769.000000;1.000000;1.000000;1.000000;1.000000;-0.045700;0.045700;-0.045700;1.000000
445630.71990021;5696564.27469833;471.63245012;219;217;209;55512.000000;1.000000;1.000000;1.000000;1.000000;-0.055302;0.055302;-0.055302;1.000000
445631.14640244;5696564.32589920;471.50794985;206;194;179;50115.000000;1.000000;1.000000;1.000000;1.000000;-0.004101;0.004101;-0.004101;1.000000
445630.94390305;5696564.28539856;471.55884983;198;195;184;49858.000000;1.000000;1.000000;1.000000;1.000000;-0.044831;0.044831;-0.044831;1.000000
445631.15130051;5696564.21149834;471.47184994;58;39;25;11051.000000;1.000000;1.000000;1.000000;1.000000;-0.118502;0.118502;-0.118502;1.000000
445630.79740341;5696564.24299820;471.55874969;218;212;201;54484.000000;1.000000;1.000000;1.000000;1.000000;0.016973;-0.016973;0.016973;1.000000
445630.83510025;5696564.24650009;471.55814983;211;205;194;52685.000000;1.000000;1.000000;1.000000;1.000000;-0.020723;-0.020723;0.020723;1.000000
445630.75940140;5696564.23709877;471.55924990;224;219;209;56283.000000;1.000000;1.000000;1.000000;1.000000;0.054976;-0.054976;0.054976;1.000000
445630.72480209;5696564.20119865;471.52465012;198;192;181;49344.000000;1.000000;1.000000;1.000000;1.000000;0.089575;-0.089575;0.089575;1.000000
445630.79510315;5696564.20699890;471.48134996;162;152;138;39321.000000;1.000000;1.000000;1.000000;1.000000;0.019274;-0.019274;0.019274;1.000000
445630.87280090;5696564.17239960;471.44714977;173;162;141;41634.000000;1.000000;1.000000;1.000000;1.000000;-0.058424;-0.058424;0.058424;1.000000
445630.85920151;5696564.12239845;471.43895008;184;180;172;46260.000000;1.000000;1.000000;1.000000;1.000000;-0.044825;0.044825;-0.044825;1.000000
445631.26620300;5696564.17569931;471.44175007;123;104;82;27499.000000;1.000000;1.000000;1.000000;1.000000;-0.154301;0.154301;-0.154301;1.000000
445631.11790283;5696564.13809975;471.43685009;137;130;117;33410.000000;1.000000;1.000000;1.000000;1.000000;-0.191900;0.191900;-0.191900;1.000000
445631.07220276;5696564.42759903;471.70844986;215;214;207;54741.000000;1.000000;1.000000;1.000000;1.000000;-0.097599;0.097599;-0.097599;1.000000
445631.03380020;5696564.39149864;471.70865013;209;207;199;52942.000000;1.000000;1.000000;1.000000;1.000000;0.061502;-0.061502;0.061502;1.000000
445631.31150253;5696564.41119965;471.49545004;177;173;161;44204.000000;1.000000;1.000000;1.000000;1.000000;0.081200;-0.081200;0.081200;1.000000
445631.15210159;5696564.41549881;471.56755020;188;186;177;47545.000000;1.000000;1.000000;1.000000;1.000000;0.085499;-0.085499;0.085499;1.000000
445631.11270340;5696564.25459869;471.48465015;151;140;126;36237.000000;1.000000;1.000000;1.000000;1.000000;-0.075401;0.075401;-0.075401;1.000000
445631.29580124;5696564.53209885;471.47295000;150;153;154;39064.000000;1.000000;1.000000;1.000000;1.000000;0.081076;-0.081076;0.081076;1.000000
445631.07349976;5696564.52219971;471.77484991;137;135;128;34438.000000;1.000000;1.000000;1.000000;1.000000;-0.192200;0.192200;-0.192200;1.000000
445631.03860291;5696564.44839867;471.77244999;157;153;146;39321.000000;1.000000;1.000000;1.000000;1.000000;0.118473;-0.118473;0.118473;1.000000
445630.74419983;5696564.41679962;471.80765011;184;169;149;43947.000000;1.000000;1.000000;1.000000;1.000000;0.086800;-0.086800;0.086800;1.000000
445631.04150208;5696564.41139992;471.73484995;219;217;210;55512.000000;1.000000;1.000000;1.000000;1.000000;0.081411;-0.081411;0.081411;1.000000
445631.07980164;5696564.41129883;471.66204979;229;228;219;58339.000000;1.000000;1.000000;1.000000;1.000000;0.081299;-0.081299;0.081299;1.000000
445631.04820068;5696564.44989975;471.77054979;191;188;181;48316.000000;1.000000;1.000000;1.000000;1.000000;0.119900;-0.119900;0.119900;1.000000
445631.04660233;5696564.41559990;471.73274996;218;216;209;55255.000000;1.000000;1.000000;1.000000;1.000000;0.085600;-0.085600;0.085600;1.000000
445631.28210266;5696564.42099960;471.49424984;168;162;153;41634.000000;1.000000;1.000000;1.000000;1.000000;0.091000;-0.091000;0.091000;1.000000
445630.88610275;5696564.32079895;471.72674992;217;215;208;54998.000000;1.000000;1.000000;1.000000;1.000000;-0.009201;0.009201;-0.009201;1.000000
445631.09140213;5696564.38089951;471.59934999;195;192;179;49087.000000;1.000000;1.000000;1.000000;1.000000;0.050900;-0.050900;0.050900;1.000000
445631.25190170;5696564.52419861;471.49644997;71;69;66;17733.000000;1.000000;1.000000;1.000000;1.000000;0.124975;-0.124975;0.124975;1.000000
445631.13260086;5696564.37999924;471.56384995;220;216;205;55255.000000;1.000000;1.000000;1.000000;1.000000;-0.049999;0.049999;-0.049999;1.000000
445631.06270035;5696564.44649895;471.75254967;229;226;220;58082.000000;1.000000;1.000000;1.000000;1.000000;0.116499;-0.116499;0.116499;1.000000
445631.07230194;5696564.43439873;471.72015001;205;204;196;52171.000000;1.000000;1.000000;1.000000;1.000000;-0.104399;0.104399;-0.104399;1.000000
445631.17170151;5696564.38159950;471.52845003;205;200;191;51400.000000;1.000000;1.000000;1.000000;1.000000;0.051600;-0.051600;0.051600;1.000000
445631.03410156;5696564.36449821;471.64314987;215;214;205;54741.000000;1.000000;1.000000;1.000000;1.000000;0.034512;-0.034512;0.034512;1.000000
445630.85080154;5696564.29679878;471.68055012;227;227;220;58082.000000;1.000000;1.000000;1.000000;1.000000;-0.033201;0.033201;-0.033201;1.000000
445630.73650177;5696564.19789894;471.51814987;175;168;157;43176.000000;1.000000;1.000000;1.000000;1.000000;0.077875;-0.077875;0.077875;1.000000
445630.78590210;5696564.51109894;471.80364992;195;195;188;49858.000000;1.000000;1.000000;1.000000;1.000000;-0.181099;0.181099;-0.181099;1.000000
445630.78849991;5696564.43839844;471.80294992;161;150;135;38807.000000;1.000000;1.000000;1.000000;1.000000;-0.108398;0.108398;-0.108398;1.000000
445631.02620132;5696564.37159927;471.68004992;214;212;205;54227.000000;1.000000;1.000000;1.000000;1.000000;0.041599;-0.041599;0.041599;1.000000
445631.10160263;5696564.33429916;471.53394987;239;234;222;60138.000000;1.000000;1.000000;1.000000;1.000000;-0.004299;0.004299;-0.004299;1.000000
445630.80700119;5696564.20609863;471.47485020;163;154;140;39835.000000;1.000000;1.000000;1.000000;1.000000;0.007376;-0.007376;0.007376;1.000000
445631.13760193;5696564.34269913;471.53105022;208;201;189;51657.000000;1.000000;1.000000;1.000000;1.000000;0.012699;-0.012699;0.012699;1.000000
445631.02420242;5696564.34029968;471.60505011;199;196;188;50372.000000;1.000000;1.000000;1.000000;1.000000;0.010300;-0.010300;0.010300;1.000000
445630.78720291;5696564.26619919;471.62614967;196;192;183;49344.000000;1.000000;1.000000;1.000000;1.000000;0.027174;-0.027174;0.027174;1.000000
445631.29760178;5696564.50609978;471.48204996;146;144;141;37008.000000;1.000000;1.000000;1.000000;1.000000;0.079275;-0.079275;0.079275;1.000000
445631.06490143;5696564.29859932;471.49464991;214;206;192;52942.000000;1.000000;1.000000;1.000000;1.000000;0.031401;-0.031401;0.031401;1.000000
445631.21260269;5696564.30359848;471.49674990;206;195;177;50372.000000;1.000000;1.000000;1.000000;1.000000;-0.026402;0.026402;-0.026402;1.000000
445630.72720154;5696564.32300003;471.78245022;239;238;232;60909.000000;1.000000;1.000000;1.000000;1.000000;-0.007000;0.007000;-0.007000;1.000000
445631.25690277;5696564.40219887;471.49524977;37;25;17;6939.000000;1.000000;1.000000;1.000000;1.000000;0.072372;-0.072372;0.072372;1.000000
445630.88020142;5696564.29009827;471.63525011;217;215;207;54998.000000;1.000000;1.000000;1.000000;1.000000;-0.039902;0.039902;-0.039902;1.000000
445630.76620300;5696564.28839882;471.67205002;214;212;204;54227.000000;1.000000;1.000000;1.000000;1.000000;-0.041601;0.041601;-0.041601;1.000000
445630.80630310;5696564.25560005;471.59425022;180;173;164;44718.000000;1.000000;1.000000;1.000000;1.000000;0.008074;-0.008074;0.008074;1.000000
445630.91710098;5696564.25579842;471.52234985;221;216;206;55512.000000;1.000000;1.000000;1.000000;1.000000;-0.074202;0.074202;-0.074202;1.000000
445630.99139984;5696564.25879868;471.48614981;32;21;14;5911.000000;1.000000;1.000000;1.000000;1.000000;-0.071201;0.071201;-0.071201;1.000000
445630.91790207;5696564.22129829;471.48245003;49;40;30;10537.000000;1.000000;1.000000;1.000000;1.000000;-0.103525;-0.103525;0.103525;1.000000
445630.80510147;5696564.21539886;471.48425009;172;165;149;42405.000000;1.000000;1.000000;1.000000;1.000000;0.009275;-0.009275;0.009275;1.000000
445630.73490341;5696564.20959862;471.52524998;179;171;158;43947.000000;1.000000;1.000000;1.000000;1.000000;0.079473;-0.079473;0.079473;1.000000
445630.88290222;5696564.18079956;471.44775011;175;162;144;41891.000000;1.000000;1.000000;1.000000;1.000000;-0.068525;-0.068525;0.068525;1.000000
445630.77090271;5696564.17649849;471.48684980;142;133;121;34438.000000;1.000000;1.000000;1.000000;1.000000;0.043474;-0.043474;0.043474;1.000000
445631.05440338;5696564.38130005;471.64424994;217;214;204;54741.000000;1.000000;1.000000;1.000000;1.000000;0.051300;-0.051300;0.051300;1.000000
445631.32620056;5696564.67439850;471.45505001;122;122;116;31097.000000;1.000000;1.000000;1.000000;1.000000;0.050676;-0.050676;0.050676;1.000000
445630.96830185;5696564.11229904;471.43444969;70;60;54;15934.000000;1.000000;1.000000;1.000000;1.000000;-0.153925;0.153925;-0.153925;1.000000
445631.19120224;5696564.17559822;471.44535019;103;87;69;22873.000000;1.000000;1.000000;1.000000;1.000000;-0.154413;0.154413;-0.154413;1.000000
445631.04490097;5696564.43400009;471.75855019;208;205;197;52685.000000;1.000000;1.000000;1.000000;1.000000;0.104000;-0.104000;0.104000;1.000000
445631.04150208;5696564.40229996;471.71604969;219;217;210;55512.000000;1.000000;1.000000;1.000000;1.000000;0.072313;-0.072313;0.072313;1.000000
445630.73390015;5696564.40599831;471.80704977;191;175;154;45489.000000;1.000000;1.000000;1.000000;1.000000;0.075998;-0.075998;0.075998;1.000000
445631.26390274;5696564.17809875;471.44624998;109;91;70;24158.000000;1.000000;1.000000;1.000000;1.000000;-0.151901;0.151901;-0.151901;1.000000
445631.13020142;5696564.51680000;471.64225008;121;125;121;31611.000000;1.000000;1.000000;1.000000;1.000000;-0.186800;0.186800;-0.186800;1.000000
445631.09970291;5696564.51779945;471.75274994;143;143;139;36494.000000;1.000000;1.000000;1.000000;1.000000;-0.187799;0.187799;-0.187799;1.000000
445631.25550278;5696564.41169937;471.49524977;51;40;31;10794.000000;1.000000;1.000000;1.000000;1.000000;0.081780;-0.081780;0.081780;1.000000
445631.10000046;5696564.47859962;471.71735003;193;194;188;49601.000000;1.000000;1.000000;1.000000;1.000000;-0.148600;0.148600;-0.148600;1.000000
445630.82220276;5696564.30959900;471.77264978;247;247;240;63222.000000;1.000000;1.000000;1.000000;1.000000;-0.007826;-0.007826;0.007826;1.000000
445630.89719971;5696564.30909927;471.66184999;235;233;224;59624.000000;1.000000;1.000000;1.000000;1.000000;-0.020901;0.020901;-0.020901;1.000000
445630.94900330;5696564.39809998;471.78875019;146;138;126;35723.000000;1.000000;1.000000;1.000000;1.000000;0.068100;-0.068100;0.068100;1.000000
445631.19160278;5696564.18249901;471.45004990;94;77;58;20560.000000;1.000000;1.000000;1.000000;1.000000;-0.147518;0.147518;-0.147518;1.000000
445630.91840179;5696564.23049934;471.49184992;58;50;40;13107.000000;1.000000;1.000000;1.000000;1.000000;-0.099501;0.099501;-0.099501;1.000000
445631.22720154;5696564.18619926;471.44705011;123;109;92;28527.000000;1.000000;1.000000;1.000000;1.000000;-0.143844;0.143844;-0.143844;1.000000
445630.77650269;5696564.30729874;471.74494984;237;236;230;60395.000000;1.000000;1.000000;1.000000;1.000000;-0.022701;0.022701;-0.022701;1.000000
445631.27520187;5696564.17019852;471.43744995;141;126;107;32896.000000;1.000000;1.000000;1.000000;1.000000;-0.159801;0.159801;-0.159801;1.000000
445631.28429993;5696564.58009918;471.46364977;156;156;156;39835.000000;1.000000;1.000000;1.000000;1.000000;0.092577;-0.092577;0.092577;1.000000
445630.73520096;5696564.21639832;471.53464987;187;178;165;46003.000000;1.000000;1.000000;1.000000;1.000000;0.079176;-0.079176;0.079176;1.000000
445630.72760208;5696564.31859978;471.76375010;241;240;234;61423.000000;1.000000;1.000000;1.000000;1.000000;-0.011400;0.011400;-0.011400;1.000000
445630.80640228;5696564.24879845;471.57784988;203;196;186;50629.000000;1.000000;1.000000;1.000000;1.000000;0.007975;-0.007975;0.007975;1.000000
445630.84570129;5696564.21659859;471.46744968;107;98;78;25186.000000;1.000000;1.000000;1.000000;1.000000;-0.031324;-0.031324;0.031324;1.000000
445630.73920258;5696564.31749924;471.76434996;234;234;227;59881.000000;1.000000;1.000000;1.000000;1.000000;-0.012501;0.012501;-0.012501;1.000000
445630.77380188;5696564.31189926;471.76345016;240;239;233;61166.000000;1.000000;1.000000;1.000000;1.000000;-0.018101;0.018101;-0.018101;1.000000
445631.04420288;5696564.37290009;471.64365007;217;215;206;54998.000000;1.000000;1.000000;1.000000;1.000000;0.042900;-0.042900;0.042900;1.000000
445630.81509979;5696564.27719887;471.65315010;214;212;204;54227.000000;1.000000;1.000000;1.000000;1.000000;-0.000723;0.000723;-0.000723;1.000000
445631.28780182;5696564.54459961;471.46805002;119;122;123;31097.000000;1.000000;1.000000;1.000000;1.000000;0.089075;-0.089075;0.089075;1.000000
445630.85420044;5696564.20649918;471.46534969;108;97;74;24929.000000;1.000000;1.000000;1.000000;1.000000;-0.039824;-0.039824;0.039824;1.000000
445630.94270142;5696564.24899872;471.50944998;107;102;92;26214.000000;1.000000;1.000000;1.000000;1.000000;-0.081069;0.081069;-0.081069;1.000000
445631.10080154;5696564.44409950;471.67964985;193;192;185;49087.000000;1.000000;1.000000;1.000000;1.000000;-0.114100;0.114100;-0.114100;1.000000
445631.30540283;5696564.53369911;471.46875002;161;165;167;42148.000000;1.000000;1.000000;1.000000;1.000000;0.071474;-0.071474;0.071474;1.000000
445630.92950256;5696564.44179924;471.79304983;164;160;148;40863.000000;1.000000;1.000000;1.000000;1.000000;0.111799;-0.111799;0.111799;1.000000
445631.25900085;5696564.37399872;471.49494984;53;41;30;11051.000000;1.000000;1.000000;1.000000;1.000000;0.044095;-0.044095;0.044095;1.000000
445630.90180023;5696564.18359955;471.45095016;126;113;98;29555.000000;1.000000;1.000000;1.000000;1.000000;-0.087423;-0.087423;0.087423;1.000000
445631.11970337;5696564.41319855;471.60794975;206;204;195;52171.000000;1.000000;1.000000;1.000000;1.000000;0.083199;-0.083199;0.083199;1.000000
445631.11770065;5696564.37419899;471.57014992;215;212;200;54227.000000;1.000000;1.000000;1.000000;1.000000;0.044199;-0.044199;0.044199;1.000000
445631.03640182;5696564.32809837;471.56825020;212;208;199;53456.000000;1.000000;1.000000;1.000000;1.000000;-0.003787;0.003787;-0.003787;1.000000
445631.16370209;5696564.46349915;471.56624987;117;115;102;29298.000000;1.000000;1.000000;1.000000;1.000000;-0.133499;0.133499;-0.133499;1.000000
445631.26010330;5696564.33649834;471.49694969;190;181;168;46774.000000;1.000000;1.000000;1.000000;1.000000;0.006744;-0.006744;0.006744;1.000000
445631.01920135;5696564.33389862;471.59784986;193;190;181;48573.000000;1.000000;1.000000;1.000000;1.000000;0.003899;-0.003899;0.003899;1.000000
445631.11830338;5696564.33739861;471.53245022;241;236;223;60652.000000;1.000000;1.000000;1.000000;1.000000;0.007399;-0.007399;0.007399;1.000000
445630.79750259;5696564.24069984;471.55174973;217;211;199;54227.000000;1.000000;1.000000;1.000000;1.000000;0.016874;-0.016874;0.016874;1.000000
445631.03630264;5696564.29189880;471.49324991;207;201;187;51657.000000;1.000000;1.000000;1.000000;1.000000;-0.038233;0.038233;-0.038233;1.000000
445631.00570114;5696564.14139946;471.44354965;144;129;110;33667.000000;1.000000;1.000000;1.000000;1.000000;-0.188639;0.188639;-0.188639;1.000000
445631.26440247;5696564.18509872;471.44875004;129;108;84;28527.000000;1.000000;1.000000;1.000000;1.000000;-0.144901;0.144901;-0.144901;1.000000
445631.30220230;5696564.18859871;471.44815018;123;101;77;26728.000000;1.000000;1.000000;1.000000;1.000000;-0.141401;0.141401;-0.141401;1.000000
445631.11850174;5696564.14729889;471.44404985;208;200;186;51400.000000;1.000000;1.000000;1.000000;1.000000;-0.182701;0.182701;-0.182701;1.000000
445631.12880142;5696564.52619942;471.64234974;124;127;124;32125.000000;1.000000;1.000000;1.000000;1.000000;-0.196199;0.196199;-0.196199;1.000000
445631.04620178;5696564.32510002;471.55004980;215;211;200;53970.000000;1.000000;1.000000;1.000000;1.000000;-0.004900;0.004900;-0.004900;1.000000
445631.26799973;5696564.34519966;471.49504997;126;113;97;29555.000000;1.000000;1.000000;1.000000;1.000000;0.015200;-0.015200;0.015200;1.000000
445631.21600159;5696564.22209938;471.45865013;233;227;213;58339.000000;1.000000;1.000000;1.000000;1.000000;-0.107901;0.107901;-0.107901;1.000000
445630.99510010;5696564.38239868;471.77194979;242;239;232;61423.000000;1.000000;1.000000;1.000000;1.000000;0.052399;-0.052399;0.052399;1.000000
445631.13660248;5696564.50009926;471.62134983;126;128;124;32382.000000;1.000000;1.000000;1.000000;1.000000;-0.170099;0.170099;-0.170099;1.000000
445631.17220123;5696564.38849838;471.53084995;189;185;176;47545.000000;1.000000;1.000000;1.000000;1.000000;0.058498;-0.058498;0.058498;1.000000
445631.13310059;5696564.38690002;471.56635000;209;206;195;52685.000000;1.000000;1.000000;1.000000;1.000000;-0.056900;0.056900;-0.056900;1.000000
445631.06970032;5696564.42099960;471.69894983;221;220;212;56283.000000;1.000000;1.000000;1.000000;1.000000;-0.091000;0.091000;-0.091000;1.000000
445630.91069992;5696564.41549881;471.79414989;169;163;151;41891.000000;1.000000;1.000000;1.000000;1.000000;0.085499;-0.085499;0.085499;1.000000
445630.80880173;5696564.14079865;471.45324995;158;148;135;38293.000000;1.000000;1.000000;1.000000;1.000000;0.005575;-0.005575;0.005575;1.000000
445630.85210236;5696564.24739845;471.54734995;197;193;183;49601.000000;1.000000;1.000000;1.000000;1.000000;-0.037725;-0.037725;0.037725;1.000000
445630.98990067;5696564.30669983;471.56825020;203;200;189;51143.000000;1.000000;1.000000;1.000000;1.000000;-0.023300;0.023300;-0.023300;1.000000
445631.14450272;5696564.18199928;471.45725014;168;149;128;39064.000000;1.000000;1.000000;1.000000;1.000000;-0.148001;0.148001;-0.148001;1.000000
445631.26340302;5696564.21049889;471.47225000;114;102;84;26471.000000;1.000000;1.000000;1.000000;1.000000;-0.119501;0.119501;-0.119501;1.000000
445630.94600113;5696564.41699989;471.79115011;119;113;99;29041.000000;1.000000;1.000000;1.000000;1.000000;0.087053;-0.087053;0.087053;1.000000
445631.30320175;5696564.16999825;471.43864967;141;123;100;32125.000000;1.000000;1.000000;1.000000;1.000000;-0.160002;0.160002;-0.160002;1.000000
445631.07610138;5696564.29289825;471.49274971;173;159;145;41377.000000;1.000000;1.000000;1.000000;1.000000;-0.037102;0.037102;-0.037102;1.000000
445631.13020142;5696564.42169960;471.59924986;196;193;183;49344.000000;1.000000;1.000000;1.000000;1.000000;-0.091700;0.091700;-0.091700;1.000000
445631.04590042;5696564.29569824;471.49604990;235;230;218;59110.000000;1.000000;1.000000;1.000000;1.000000;-0.034302;0.034302;-0.034302;1.000000
445630.90369995;5696564.34219940;471.74405005;221;219;211;56026.000000;1.000000;1.000000;1.000000;1.000000;0.012199;-0.012199;0.012199;1.000000
445631.05980118;5696564.43750008;471.74524977;222;220;214;56283.000000;1.000000;1.000000;1.000000;1.000000;0.107500;-0.107500;0.107500;1.000000
445630.94030197;5696564.34179886;471.70844986;215;213;206;54484.000000;1.000000;1.000000;1.000000;1.000000;0.011835;-0.011835;0.011835;1.000000
445631.05130203;5696564.34969910;471.59244968;203;198;187;50886.000000;1.000000;1.000000;1.000000;1.000000;0.019699;-0.019699;0.019699;1.000000
445630.99890335;5696564.10959824;471.42415001;77;67;61;17733.000000;1.000000;1.000000;1.000000;1.000000;-0.184526;0.184526;-0.184526;1.000000
