//X;Y;Z;R;G;B;Intensity;Return Number;Number Of Returns;Scan Direction Flag;Point Source ID;C2M signed distances[-][<0.8];C2M signed distances[<0.4];C2M signed distances[-][<0.2];Stump87
445632.31740005;5696585.92229851;471.79925014;169;168;157;42919.000000;1.000000;1.000000;1.000000;1.000000;-0.092299;0.092299;-0.092299;1.000000
445632.24230011;5696585.91999825;471.80044987;204;204;192;51914.000000;1.000000;1.000000;1.000000;1.000000;0.089998;-0.089998;0.089998;1.000000
445632.35260208;5696585.92379959;471.79845001;158;157;146;40092.000000;1.000000;1.000000;1.000000;1.000000;0.093800;-0.093800;0.093800;1.000000
445632.50280197;5696585.93079956;471.80074980;176;159;129;41120.000000;1.000000;1.000000;1.000000;1.000000;-0.100800;0.100800;-0.100800;1.000000
445632.57670029;5696585.89589890;471.80135014;159;141;100;36237.000000;1.000000;1.000000;1.000000;1.000000;-0.065899;0.065899;-0.065899;1.000000
445632.18309982;5696585.77629860;471.77745010;190;180;161;46260.000000;1.000000;1.000000;1.000000;1.000000;0.054067;-0.054067;0.054067;1.000000
445632.33960159;5696585.58929832;471.75664999;143;140;127;35723.000000;1.000000;1.000000;1.000000;1.000000;-0.025225;0.025225;-0.025225;1.000000
445632.29600342;5696585.78219994;471.77565004;153;146;132;37522.000000;1.000000;1.000000;1.000000;1.000000;0.018373;-0.018373;0.018373;1.000000
445632.33120163;5696585.78359993;471.77495005;182;176;164;45232.000000;1.000000;1.000000;1.000000;1.000000;-0.016825;0.016825;-0.016825;1.000000
445632.37020309;5696585.74739845;471.76924994;156;153;142;39064.000000;1.000000;1.000000;1.000000;1.000000;-0.055826;0.055826;-0.055826;1.000000
445632.33250244;5696585.74619873;471.77215006;155;152;141;38807.000000;1.000000;1.000000;1.000000;1.000000;-0.018126;0.018126;-0.018126;1.000000
445632.67720230;5696585.53729828;471.73175003;161;154;137;39578.000000;1.000000;1.000000;1.000000;1.000000;0.112825;-0.112825;0.112825;1.000000
445632.60550125;5696585.49720009;471.73495008;132;126;111;32382.000000;1.000000;1.000000;1.000000;1.000000;0.041124;-0.041124;0.041124;1.000000
445632.63280304;5696585.93689926;471.83465006;131;118;72;29812.000000;1.000000;1.000000;1.000000;1.000000;-0.106899;0.106899;-0.106899;1.000000
445632.42469986;5696585.55319984;471.76475002;30;28;20;6939.000000;1.000000;1.000000;1.000000;1.000000;-0.110323;0.110323;-0.110323;1.000000
445632.57740219;5696585.94439896;471.83454992;136;119;78;30583.000000;1.000000;1.000000;1.000000;1.000000;-0.114399;0.114399;-0.114399;1.000000
445632.56700333;5696585.95929916;471.83654978;139;124;87;31868.000000;1.000000;1.000000;1.000000;1.000000;-0.129299;0.129299;-0.129299;1.000000
445632.71920212;5696585.85519989;471.76994993;155;143;120;37008.000000;1.000000;1.000000;1.000000;1.000000;-0.025240;0.025240;-0.025240;1.000000
445632.26470001;5696585.64049919;471.76084997;144;142;131;36237.000000;1.000000;1.000000;1.000000;1.000000;0.012823;-0.012823;0.012823;1.000000
445632.54549988;5696585.81999977;471.76405003;122;112;93;28784.000000;1.000000;1.000000;1.000000;1.000000;0.010000;-0.010000;0.010000;1.000000
445632.50570114;5696585.81899841;471.76454975;137;129;110;33153.000000;1.000000;1.000000;1.000000;1.000000;0.011002;-0.011002;0.011002;1.000000
445632.47170074;5696585.78009995;471.76254990;166;160;147;41120.000000;1.000000;1.000000;1.000000;1.000000;0.049900;-0.049900;0.049900;1.000000
445632.55410202;5696586.02579887;471.84604980;92;93;58;22616.000000;1.000000;1.000000;1.000000;1.000000;-0.195799;0.195799;-0.195799;1.000000
445632.39980133;5696585.73769959;471.76585009;151;146;133;37522.000000;1.000000;1.000000;1.000000;1.000000;-0.085424;0.085424;-0.085424;1.000000
445632.40260132;5696585.66509827;471.76044991;78;75;65;19018.000000;1.000000;1.000000;1.000000;1.000000;-0.088224;0.088224;-0.088224;1.000000
445632.13970001;5696585.92469986;471.80515005;86;91;77;22359.000000;1.000000;1.000000;1.000000;1.000000;-0.106939;0.106939;-0.106939;1.000000
445632.14060028;5696585.88719948;471.80944969;85;91;57;21845.000000;1.000000;1.000000;1.000000;1.000000;-0.075173;0.075173;-0.075173;1.000000
445632.29730042;5696585.74479874;471.77294971;169;163;149;41891.000000;1.000000;1.000000;1.000000;1.000000;0.017076;-0.017076;0.017076;1.000000
445632.23230179;5696585.69489868;471.76235010;182;175;162;44975.000000;1.000000;1.000000;1.000000;1.000000;-0.028020;0.028020;-0.028020;1.000000
445632.45340164;5696585.56219872;471.76844980;37;35;29;8738.000000;1.000000;1.000000;1.000000;1.000000;-0.110975;0.110975;-0.110975;1.000000
445632.53320129;5696585.49389847;471.77594997;39;38;23;9252.000000;1.000000;1.000000;1.000000;1.000000;-0.031176;0.031176;-0.031176;1.000000
445632.39650162;5696585.57239922;471.75435020;60;56;49;14392.000000;1.000000;1.000000;1.000000;1.000000;-0.082125;0.082125;-0.082125;1.000000
445632.25650223;5696586.02139862;471.79995014;102;95;80;24415.000000;1.000000;1.000000;1.000000;1.000000;-0.191399;0.191399;-0.191399;1.000000
445632.67040070;5696585.93809898;471.83395006;126;123;73;30326.000000;1.000000;1.000000;1.000000;1.000000;-0.108099;0.108099;-0.108099;1.000000
445632.55700119;5696585.51309975;471.75394966;58;53;40;13621.000000;1.000000;1.000000;1.000000;1.000000;-0.007376;0.007376;-0.007376;1.000000
445632.23500259;5696585.64799889;471.75964977;168;166;154;42405.000000;1.000000;1.000000;1.000000;1.000000;-0.016874;0.016874;-0.016874;1.000000
445632.35730179;5696585.65529831;471.76055004;145;142;130;36237.000000;1.000000;1.000000;1.000000;1.000000;-0.042925;0.042925;-0.042925;1.000000
445632.53870209;5696585.52169998;471.76254990;45;42;33;10537.000000;1.000000;1.000000;1.000000;1.000000;-0.025675;0.025675;-0.025675;1.000000
445632.25790222;5696585.98629959;471.79964973;143;136;121;34952.000000;1.000000;1.000000;1.000000;1.000000;-0.156300;0.156300;-0.156300;1.000000
445632.58870132;5696585.90399940;471.81125023;166;147;104;37779.000000;1.000000;1.000000;1.000000;1.000000;0.073999;-0.073999;0.073999;1.000000
445632.62360199;5696585.90309914;471.81285002;145;126;81;32382.000000;1.000000;1.000000;1.000000;1.000000;0.073099;-0.073099;0.073099;1.000000
445632.63790329;5696585.57119949;471.73964979;133;126;112;32382.000000;1.000000;1.000000;1.000000;1.000000;0.073526;-0.073526;0.073526;1.000000
445632.67970093;5696585.93729980;471.83204987;122;119;69;29298.000000;1.000000;1.000000;1.000000;1.000000;-0.107300;0.107300;-0.107300;1.000000
445632.18180283;5696586.01909836;471.79194977;155;150;133;38293.000000;1.000000;1.000000;1.000000;1.000000;-0.189250;0.189250;-0.189250;1.000000
445632.29790314;5696585.91249855;471.79584982;115;113;101;28784.000000;1.000000;1.000000;1.000000;1.000000;-0.082499;0.082499;-0.082499;1.000000
445632.22660263;5696585.87249954;471.78984978;147;140;120;35723.000000;1.000000;1.000000;1.000000;1.000000;-0.042500;0.042500;-0.042500;1.000000
445632.70980270;5696585.89069946;471.79325010;194;182;149;46517.000000;1.000000;1.000000;1.000000;1.000000;-0.060699;0.060699;-0.060699;1.000000
445632.57120331;5696585.66359909;471.75175001;137;130;116;33410.000000;1.000000;1.000000;1.000000;1.000000;0.006826;-0.006826;0.006826;1.000000
445632.49839981;5696585.58629997;471.75444986;147;146;143;37265.000000;1.000000;1.000000;1.000000;1.000000;-0.065977;0.065977;-0.065977;1.000000
445632.53709991;5696585.54999931;471.75344994;120;118;108;30069.000000;1.000000;1.000000;1.000000;1.000000;-0.027277;0.027277;-0.027277;1.000000
445632.50119980;5696585.50829895;471.79094984;99;100;84;24929.000000;1.000000;1.000000;1.000000;1.000000;-0.063177;0.063177;-0.063177;1.000000
445632.13599976;5696585.97899826;471.79164984;57;57;50;14392.000000;1.000000;1.000000;1.000000;1.000000;-0.158271;0.158271;-0.158271;1.000000
445632.14320190;5696585.83119972;471.79255011;150;149;109;37008.000000;1.000000;1.000000;1.000000;1.000000;-0.046191;0.046191;-0.046191;1.000000
445632.18080338;5696585.83239944;471.78964998;141;138;108;34695.000000;1.000000;1.000000;1.000000;1.000000;-0.008903;0.008903;-0.008903;1.000000
445632.15680130;5696585.53389938;471.75474979;164;159;144;40606.000000;1.000000;1.000000;1.000000;1.000000;-0.095076;0.095076;-0.095076;1.000000
445632.18280228;5696585.56180008;471.75394966;186;183;167;46774.000000;1.000000;1.000000;1.000000;1.000000;-0.069075;0.069075;-0.069075;1.000000
445632.60700043;5696585.89769943;471.80734970;158;138;93;35723.000000;1.000000;1.000000;1.000000;1.000000;-0.067699;0.067699;-0.067699;1.000000
445632.23170288;5696585.95599945;471.79804995;39;36;27;8995.000000;1.000000;1.000000;1.000000;1.000000;-0.125999;0.125999;-0.125999;1.000000
445632.27040298;5696585.91969879;471.79934980;204;204;194;51914.000000;1.000000;1.000000;1.000000;1.000000;-0.089699;0.089699;-0.089699;1.000000
445632.39640244;5696585.98979958;471.79425003;129;128;103;32125.000000;1.000000;1.000000;1.000000;1.000000;0.159800;0.159800;-0.159800;1.000000
445632.43750198;5696585.95339973;471.79334976;126;123;98;31097.000000;1.000000;1.000000;1.000000;1.000000;0.123400;-0.123400;0.123400;1.000000
445632.16860016;5696585.90799912;471.80394985;85;89;69;21845.000000;1.000000;1.000000;1.000000;1.000000;-0.080719;0.080719;-0.080719;1.000000
445632.55470093;5696586.00479897;471.84124996;67;64;29;15677.000000;1.000000;1.000000;1.000000;1.000000;-0.174799;0.174799;-0.174799;1.000000
445632.29950150;5696585.87519844;471.78624966;161;155;141;39835.000000;1.000000;1.000000;1.000000;1.000000;-0.045198;0.045198;-0.045198;1.000000
445632.36350067;5696585.91349991;471.79425003;134;132;117;33410.000000;1.000000;1.000000;1.000000;1.000000;0.083500;-0.083500;0.083500;1.000000
445632.43660172;5696585.91839989;471.79054977;125;121;102;30840.000000;1.000000;1.000000;1.000000;1.000000;0.088400;-0.088400;0.088400;1.000000
445632.40130051;5696585.91699989;471.79365017;187;186;171;47288.000000;1.000000;1.000000;1.000000;1.000000;0.087000;-0.087000;0.087000;1.000000
445632.47410019;5696585.91959961;471.79225018;150;140;116;35980.000000;1.000000;1.000000;1.000000;1.000000;-0.089600;0.089600;-0.089600;1.000000
445632.58770187;5696585.88569839;471.79465010;165;147;105;37779.000000;1.000000;1.000000;1.000000;1.000000;0.055698;-0.055698;0.055698;1.000000
445632.55560120;5696585.77479942;471.75694992;129;122;108;31354.000000;1.000000;1.000000;1.000000;1.000000;-0.055201;0.055201;-0.055201;1.000000
445632.48190125;5696585.73499878;471.75315001;186;180;168;46260.000000;1.000000;1.000000;1.000000;1.000000;-0.095001;0.095001;-0.095001;1.000000
445632.55690201;5696585.73729904;471.75425007;172;167;154;42919.000000;1.000000;1.000000;1.000000;1.000000;-0.063046;0.063046;-0.063046;1.000000
445632.59440048;5696585.73849876;471.75594999;148;142;128;36494.000000;1.000000;1.000000;1.000000;1.000000;0.070482;-0.070482;0.070482;1.000000
445632.63110168;5696586.01120003;471.87264969;50;41;20;10537.000000;1.000000;1.000000;1.000000;1.000000;-0.181200;0.181200;-0.181200;1.000000
445632.66970261;5696585.74319847;471.75474979;148;140;125;35980.000000;1.000000;1.000000;1.000000;1.000000;0.086802;-0.086802;0.086802;1.000000
445632.16990097;5696585.87059982;471.80125000;127;128;91;31611.000000;1.000000;1.000000;1.000000;1.000000;-0.045030;0.045030;-0.045030;1.000000
445632.70480164;5696585.74239929;471.75164988;141;131;116;33924.000000;1.000000;1.000000;1.000000;1.000000;0.087601;-0.087601;0.087601;1.000000
445632.44780167;5696585.69599922;471.75584986;156;151;138;38807.000000;1.000000;1.000000;1.000000;1.000000;-0.118501;0.118501;-0.118501;1.000000
445632.40990265;5696585.69249924;471.75874998;107;101;87;25957.000000;1.000000;1.000000;1.000000;1.000000;-0.095526;0.095526;-0.095526;1.000000
445632.52300079;5696585.69849976;471.75225021;131;126;114;32382.000000;1.000000;1.000000;1.000000;1.000000;-0.047758;0.047758;-0.047758;1.000000
445632.55809982;5696585.69989975;471.75385000;174;167;155;42919.000000;1.000000;1.000000;1.000000;1.000000;-0.025987;0.025987;-0.025987;1.000000
445632.67749985;5696585.93979843;471.83435013;128;128;79;31354.000000;1.000000;1.000000;1.000000;1.000000;-0.109798;0.109798;-0.109798;1.000000
445632.25880249;5696585.51989944;471.74515011;168;162;147;41634.000000;1.000000;1.000000;1.000000;1.000000;0.006926;-0.006926;0.006926;1.000000
445632.63340195;5696585.70459946;471.75264980;174;167;154;42919.000000;1.000000;1.000000;1.000000;1.000000;0.075239;-0.075239;0.075239;1.000000
445632.41110046;5696585.65499886;471.75834991;130;128;117;32639.000000;1.000000;1.000000;1.000000;1.000000;-0.096724;0.096724;-0.096724;1.000000
445632.48660095;5696585.65979965;471.75254967;94;91;80;23130.000000;1.000000;1.000000;1.000000;1.000000;-0.077776;0.077776;-0.077776;1.000000
445632.22710236;5696585.61139877;471.75654985;174;171;158;43690.000000;1.000000;1.000000;1.000000;1.000000;-0.024775;0.024775;-0.024775;1.000000
445632.59700211;5696585.66359909;471.75054981;179;173;160;44461.000000;1.000000;1.000000;1.000000;1.000000;0.032625;-0.032625;0.032625;1.000000
445632.41260345;5696585.61989983;471.75565006;118;116;106;29555.000000;1.000000;1.000000;1.000000;1.000000;-0.098227;0.098227;-0.098227;1.000000
445632.45020111;5696585.62109955;471.75505020;66;67;59;16705.000000;1.000000;1.000000;1.000000;1.000000;-0.114176;0.114176;-0.114176;1.000000
445632.45129974;5696585.58359917;471.75694992;40;41;38;10280.000000;1.000000;1.000000;1.000000;1.000000;-0.113077;0.113077;-0.113077;1.000000
445632.41620071;5696585.58219917;471.75304987;84;82;76;20817.000000;1.000000;1.000000;1.000000;1.000000;-0.101824;0.101824;-0.101824;1.000000
445632.64200027;5696585.89909943;471.81125023;149;131;87;33667.000000;1.000000;1.000000;1.000000;1.000000;-0.069099;0.069099;-0.069099;1.000000
445632.72000320;5696585.86439903;471.77244999;158;146;121;37522.000000;1.000000;1.000000;1.000000;1.000000;-0.034405;0.034405;-0.034405;1.000000
445632.49040039;5696585.53759964;471.77915003;22;20;15;5140.000000;1.000000;1.000000;1.000000;1.000000;-0.073977;0.073977;-0.073977;1.000000
445632.62960251;5696586.01839836;471.86805012;48;39;20;10023.000000;1.000000;1.000000;1.000000;1.000000;-0.188398;0.188398;-0.188398;1.000000
445632.61560257;5696585.88760002;471.80294992;178;159;120;41120.000000;1.000000;1.000000;1.000000;1.000000;-0.057600;0.057600;-0.057600;1.000000
445632.65310104;5696585.88879974;471.80235006;176;157;117;40606.000000;1.000000;1.000000;1.000000;1.000000;0.058800;-0.058800;0.058800;1.000000
445632.29150208;5696585.65209969;471.75985004;154;152;141;38807.000000;1.000000;1.000000;1.000000;1.000000;0.022875;-0.022875;0.022875;1.000000
445632.56620224;5696585.98029907;471.84604980;154;142;110;36494.000000;1.000000;1.000000;1.000000;1.000000;-0.150299;0.150299;-0.150299;1.000000
445632.68390091;5696585.82580002;471.76574995;164;155;134;39835.000000;1.000000;1.000000;1.000000;1.000000;0.005952;-0.005952;0.005952;1.000000
445632.50000198;5696585.78219994;471.76154997;150;143;130;36751.000000;1.000000;1.000000;1.000000;1.000000;-0.047800;0.047800;-0.047800;1.000000
445632.27680023;5696585.53919991;471.74854996;167;162;147;41377.000000;1.000000;1.000000;1.000000;1.000000;0.024923;-0.024923;0.024923;1.000000
445632.31430252;5696585.54039963;471.74795010;176;169;153;43433.000000;1.000000;1.000000;1.000000;1.000000;0.000074;-0.000074;0.000074;1.000000
445632.38890274;5696585.74799927;471.77005007;131;128;117;32639.000000;1.000000;1.000000;1.000000;1.000000;-0.074526;0.074526;-0.074526;1.000000
445632.22360046;5696585.94499977;471.79995014;32;32;25;7967.000000;1.000000;1.000000;1.000000;1.000000;-0.115000;0.115000;-0.115000;1.000000
445632.25910004;5696585.94879921;471.79925014;79;75;66;19275.000000;1.000000;1.000000;1.000000;1.000000;-0.118799;0.118799;-0.118799;1.000000
445632.67189987;5696585.88939865;471.80314972;175;159;121;40863.000000;1.000000;1.000000;1.000000;1.000000;-0.059399;0.059399;-0.059399;1.000000
445632.13810165;5696585.53329857;471.75385000;164;160;147;40863.000000;1.000000;1.000000;1.000000;1.000000;-0.113775;0.113775;-0.113775;1.000000
445632.70770081;5696585.89549835;471.79794981;185;176;143;44975.000000;1.000000;1.000000;1.000000;1.000000;-0.065498;0.065498;-0.065498;1.000000
445632.71150024;5696585.81859978;471.76224997;131;121;104;31354.000000;1.000000;1.000000;1.000000;1.000000;0.011414;-0.011414;0.011414;1.000000
445632.23240097;5696585.72289856;471.76734974;183;174;158;44718.000000;1.000000;1.000000;1.000000;1.000000;-0.051747;0.051747;-0.051747;1.000000
445632.33300217;5696585.54089935;471.75114967;147;142;127;36237.000000;1.000000;1.000000;1.000000;1.000000;-0.018625;0.018625;-0.018625;1.000000
445632.40610321;5696585.55269821;471.76154997;35;31;23;7967.000000;1.000000;1.000000;1.000000;1.000000;-0.091726;0.091726;-0.091726;1.000000
445632.37210281;5696585.51610001;471.76424982;49;48;32;11822.000000;1.000000;1.000000;1.000000;1.000000;-0.057726;0.057726;-0.057726;1.000000
445632.70680054;5696585.95789917;471.84515001;157;164;118;40092.000000;1.000000;1.000000;1.000000;1.000000;-0.127899;0.127899;-0.127899;1.000000
445632.41420181;5696585.79469879;471.77174999;128;123;112;31611.000000;1.000000;1.000000;1.000000;1.000000;0.035514;-0.035514;0.035514;1.000000
445632.64000137;5696585.77859886;471.76084997;163;156;139;40092.000000;1.000000;1.000000;1.000000;1.000000;0.051401;-0.051401;0.051401;1.000000
445632.42490204;5696585.60009964;471.75365021;66;64;59;16448.000000;1.000000;1.000000;1.000000;1.000000;-0.110525;0.110525;-0.110525;1.000000
445632.29020126;5696585.68949898;471.76265003;189;183;171;47031.000000;1.000000;1.000000;1.000000;1.000000;0.024176;-0.024176;0.024176;1.000000
445632.23640259;5696585.82499893;471.78504993;172;167;152;42662.000000;1.000000;1.000000;1.000000;1.000000;0.005001;-0.005001;0.005001;1.000000
445632.38840302;5696585.56139954;471.75624992;81;76;66;19532.000000;1.000000;1.000000;1.000000;1.000000;-0.074026;0.074026;-0.074026;1.000000
445632.44280060;5696585.82469948;471.77115013;180;172;160;44461.000000;1.000000;1.000000;1.000000;1.000000;-0.005301;0.005301;-0.005301;1.000000
445632.66030319;5696585.92739876;471.82875015;109;98;50;24672.000000;1.000000;1.000000;1.000000;1.000000;-0.097399;0.097399;-0.097399;1.000000
445632.67790039;5696586.00249870;471.85374977;104;99;65;24672.000000;1.000000;1.000000;1.000000;1.000000;-0.172499;0.172499;-0.172499;1.000000
445632.38410004;5696585.87899979;471.78545000;162;155;139;39835.000000;1.000000;1.000000;1.000000;1.000000;0.049000;-0.049000;0.049000;1.000000
445632.42160233;5696585.88019951;471.78475000;182;176;161;45232.000000;1.000000;1.000000;1.000000;1.000000;0.050541;-0.050541;0.050541;1.000000
445632.45919998;5696585.88139923;471.78414967;195;187;170;48059.000000;1.000000;1.000000;1.000000;1.000000;0.051399;-0.051399;0.051399;1.000000
445632.15320023;5696585.83949860;471.79544975;127;127;84;31354.000000;1.000000;1.000000;1.000000;1.000000;-0.037403;0.037403;-0.037403;1.000000
445632.49440201;5696585.88279922;471.78344967;178;165;142;42662.000000;1.000000;1.000000;1.000000;1.000000;0.052799;-0.052799;0.052799;1.000000
445632.34790237;5696585.84039886;471.78095009;139;134;121;34438.000000;1.000000;1.000000;1.000000;1.000000;0.010399;-0.010399;0.010399;1.000000
445632.38550003;5696585.84159859;471.78035023;167;162;150;41634.000000;1.000000;1.000000;1.000000;1.000000;0.011599;-0.011599;0.011599;1.000000
445632.20120056;5696585.79559906;471.78084995;155;147;131;37779.000000;1.000000;1.000000;1.000000;1.000000;0.034401;-0.034401;0.034401;1.000000
445632.23850067;5696585.79679878;471.78484966;155;149;136;38293.000000;1.000000;1.000000;1.000000;1.000000;0.033201;-0.033201;0.033201;1.000000
445632.60850342;5696585.85129936;471.78125002;194;179;154;46260.000000;1.000000;1.000000;1.000000;1.000000;-0.021299;0.021299;-0.021299;1.000000
445632.65340240;5696585.66549881;471.74615004;181;175;160;44975.000000;1.000000;1.000000;1.000000;1.000000;0.089025;-0.089025;0.089025;1.000000
445632.65480240;5696585.63029869;471.74574997;167;163;148;41634.000000;1.000000;1.000000;1.000000;1.000000;0.090425;-0.090425;0.090425;1.000000
445632.61860092;5696585.59159859;471.74364998;130;123;110;31611.000000;1.000000;1.000000;1.000000;1.000000;0.054224;-0.054224;0.054224;1.000000
445632.47229965;5696585.54389961;471.77845003;25;23;16;5654.000000;1.000000;1.000000;1.000000;1.000000;-0.092077;0.092077;-0.092077;1.000000
445632.19470032;5696585.98289879;471.79435017;62;60;47;15163.000000;1.000000;1.000000;1.000000;1.000000;-0.152899;0.152899;-0.152899;1.000000
445632.63760193;5696586.00140007;471.86354973;119;114;83;28784.000000;1.000000;1.000000;1.000000;1.000000;-0.171400;0.171400;-0.171400;1.000000
445632.32900055;5696585.65329941;471.76165010;139;135;124;34438.000000;1.000000;1.000000;1.000000;1.000000;-0.014624;0.014624;-0.014624;1.000000
445632.53920181;5696585.52399834;471.75794985;79;78;65;19532.000000;1.000000;1.000000;1.000000;1.000000;-0.025175;0.025175;-0.025175;1.000000
445632.29630096;5696585.52109917;471.74454977;141;136;119;34695.000000;1.000000;1.000000;1.000000;1.000000;0.018076;-0.018076;0.018076;1.000000
445632.44480331;5696585.52769859;471.78394987;25;25;14;5911.000000;1.000000;1.000000;1.000000;1.000000;-0.119574;0.119574;-0.119574;1.000000
445632.48230179;5696585.52889832;471.78564980;22;19;13;4883.000000;1.000000;1.000000;1.000000;1.000000;-0.082075;0.082075;-0.082075;1.000000
445632.34480103;5696585.91289909;471.79334976;126;124;110;31611.000000;1.000000;1.000000;1.000000;1.000000;0.082899;-0.082899;0.082899;1.000000
445632.38250168;5696585.91639908;471.79514982;134;132;117;33410.000000;1.000000;1.000000;1.000000;1.000000;0.086399;-0.086399;0.086399;1.000000
445632.45540054;5696585.91899879;471.79145004;146;139;118;35466.000000;1.000000;1.000000;1.000000;1.000000;0.088999;-0.088999;0.088999;1.000000
445632.49270065;5696585.92019852;471.79544975;168;153;124;39578.000000;1.000000;1.000000;1.000000;1.000000;0.090199;-0.090199;0.090199;1.000000
445632.34640320;5696585.87780006;471.78835012;132;126;113;32382.000000;1.000000;1.000000;1.000000;1.000000;0.047800;-0.047800;0.047800;1.000000
445632.14640244;5696585.72849854;471.76585009;185;178;162;45746.000000;1.000000;1.000000;1.000000;1.000000;0.110224;-0.110224;0.110224;1.000000
445632.16470154;5696585.54249962;471.75285007;158;154;139;39321.000000;1.000000;1.000000;1.000000;1.000000;-0.087175;0.087175;-0.087175;1.000000
445632.28450211;5696585.99549873;471.79864981;125;117;100;30069.000000;1.000000;1.000000;1.000000;1.000000;-0.165499;0.165499;-0.165499;1.000000
445632.39730270;5696586.00140007;471.79915001;160;158;134;39835.000000;1.000000;1.000000;1.000000;1.000000;0.171400;0.171400;-0.171400;1.000000
445632.28800018;5696585.95779999;471.79834988;54;49;39;12593.000000;1.000000;1.000000;1.000000;1.000000;-0.127800;0.127800;-0.127800;1.000000
445632.32660110;5696585.92149933;471.79964973;165;165;154;41891.000000;1.000000;1.000000;1.000000;1.000000;-0.091499;0.091499;-0.091499;1.000000
445632.36440094;5696585.92499931;471.79904987;157;157;145;39835.000000;1.000000;1.000000;1.000000;1.000000;0.094999;-0.094999;0.094999;1.000000
445632.51210220;5696585.92999847;471.80114986;178;161;129;41634.000000;1.000000;1.000000;1.000000;1.000000;-0.099998;0.099998;-0.099998;1.000000
445632.58820160;5696585.89479836;471.80415012;164;146;102;37522.000000;1.000000;1.000000;1.000000;1.000000;0.064798;-0.064798;0.064798;1.000000
445632.51750000;5696585.82029922;471.76275017;152;144;125;37008.000000;1.000000;1.000000;1.000000;1.000000;0.009701;-0.009701;0.009701;1.000000
445632.44330032;5696585.77809914;471.76594975;157;152;142;39064.000000;1.000000;1.000000;1.000000;1.000000;-0.051901;0.051901;-0.051901;1.000000
445632.37290009;5696585.70049866;471.76644995;139;134;120;34181.000000;1.000000;1.000000;1.000000;1.000000;-0.058523;0.058523;-0.058523;1.000000
445632.69890030;5696585.90779884;471.81164982;194;187;149;47288.000000;1.000000;1.000000;1.000000;1.000000;-0.077799;0.077799;-0.077799;1.000000
445632.37420090;5696585.66299828;471.76375010;172;168;156;42919.000000;1.000000;1.000000;1.000000;1.000000;-0.059824;0.059824;-0.059824;1.000000
445632.40979965;5696585.66679962;471.76074984;74;72;62;18247.000000;1.000000;1.000000;1.000000;1.000000;-0.095423;0.095423;-0.095423;1.000000
445632.16610153;5696585.74059875;471.76924994;188;182;167;46774.000000;1.000000;1.000000;1.000000;1.000000;0.092381;-0.092381;0.092381;1.000000
445632.67620285;5696585.98399933;471.85115005;58;55;17;13107.000000;1.000000;1.000000;1.000000;1.000000;-0.153999;0.153999;-0.153999;1.000000
445632.60510071;5696585.90479858;471.81204988;157;137;89;35209.000000;1.000000;1.000000;1.000000;1.000000;-0.074799;0.074799;-0.074799;1.000000
445632.64250000;5696585.90599831;471.81374981;132;113;67;29041.000000;1.000000;1.000000;1.000000;1.000000;-0.075998;0.075998;-0.075998;1.000000
445632.53300293;5696585.86539848;471.77334978;192;179;157;46260.000000;1.000000;1.000000;1.000000;1.000000;0.035398;-0.035398;0.035398;1.000000
445632.25980194;5696585.74359901;471.77124979;185;179;164;46003.000000;1.000000;1.000000;1.000000;1.000000;0.054575;-0.054575;0.054575;1.000000
445632.56910141;5696585.88509949;471.79155018;167;152;117;39064.000000;1.000000;1.000000;1.000000;1.000000;-0.055099;0.055099;-0.055099;1.000000
445632.61300095;5696585.95269974;471.84084990;147;134;91;34181.000000;1.000000;1.000000;1.000000;1.000000;-0.122700;0.122700;-0.122700;1.000000
445632.65260132;5696585.88189896;471.79995014;193;176;142;45489.000000;1.000000;1.000000;1.000000;1.000000;0.051899;-0.051899;0.051899;1.000000
445632.29020126;5696585.71519859;471.76524975;188;180;165;46260.000000;1.000000;1.000000;1.000000;1.000000;0.024176;-0.024176;0.024176;1.000000
445632.15620239;5696585.97009857;471.79255011;74;75;69;19018.000000;1.000000;1.000000;1.000000;1.000000;-0.143973;0.143973;-0.143973;1.000000
445632.66140182;5696585.90659912;471.81224968;127;110;64;28270.000000;1.000000;1.000000;1.000000;1.000000;-0.076599;0.076599;-0.076599;1.000000
445632.52219971;5696585.54199989;471.75734999;27;26;18;6425.000000;1.000000;1.000000;1.000000;1.000000;-0.042177;0.042177;-0.042177;1.000000
445632.47800262;5696585.82619865;471.77035000;153;145;128;37265.000000;1.000000;1.000000;1.000000;1.000000;0.003801;-0.003801;0.003801;1.000000
445632.40910156;5696585.92559822;471.79404976;180;179;165;45489.000000;1.000000;1.000000;1.000000;1.000000;-0.095598;0.095598;-0.095598;1.000000
445632.44700058;5696585.92909821;471.79115011;164;159;141;40606.000000;1.000000;1.000000;1.000000;1.000000;0.099098;-0.099098;0.099098;1.000000
445632.33780106;5696585.88559921;471.78805019;165;160;147;41120.000000;1.000000;1.000000;1.000000;1.000000;-0.055630;0.055630;-0.055630;1.000000
445632.37330063;5696585.88929947;471.78735020;138;132;117;33924.000000;1.000000;1.000000;1.000000;1.000000;0.059299;-0.059299;0.059299;1.000000
445632.18860062;5696585.84099968;471.79015018;147;144;117;36237.000000;1.000000;1.000000;1.000000;1.000000;-0.011027;0.011027;-0.011027;1.000000
445632.41080292;5696585.89049919;471.78674986;185;180;165;46003.000000;1.000000;1.000000;1.000000;1.000000;-0.060501;0.060501;-0.060501;1.000000
445632.52320297;5696585.89399918;471.79185011;195;178;149;46003.000000;1.000000;1.000000;1.000000;1.000000;-0.063999;0.063999;-0.063999;1.000000
445632.56350143;5696585.78339966;471.75514986;122;115;99;29555.000000;1.000000;1.000000;1.000000;1.000000;-0.046600;0.046600;-0.046600;1.000000
445632.49200256;5696585.74339874;471.75374987;178;173;162;44461.000000;1.000000;1.000000;1.000000;1.000000;-0.086601;0.086601;-0.086601;1.000000
445632.52950104;5696585.74449928;471.75544979;116;114;102;29041.000000;1.000000;1.000000;1.000000;1.000000;-0.078007;0.078007;-0.078007;1.000000
445632.60220154;5696585.74709900;471.75645020;161;155;140;39835.000000;1.000000;1.000000;1.000000;1.000000;0.081646;-0.081646;0.081646;1.000000
445632.64000137;5696585.75070007;471.75355007;164;159;144;40606.000000;1.000000;1.000000;1.000000;1.000000;0.079300;-0.079300;0.079300;1.000000
445632.45570190;5696585.70469864;471.75394966;165;158;144;40606.000000;1.000000;1.000000;1.000000;1.000000;-0.112743;0.112743;-0.112743;1.000000
445632.67749985;5696585.75179871;471.75525000;177;170;155;43690.000000;1.000000;1.000000;1.000000;1.000000;0.078201;-0.078201;0.078201;1.000000
445632.42040070;5696585.70319946;471.75705006;96;89;76;22873.000000;1.000000;1.000000;1.000000;1.000000;-0.106024;0.106024;-0.106024;1.000000
445632.49330338;5696585.70589836;471.75105001;126;121;109;31097.000000;1.000000;1.000000;1.000000;1.000000;-0.077649;0.077649;-0.077649;1.000000
445632.53070267;5696585.70709999;471.75505020;150;146;133;37265.000000;1.000000;1.000000;1.000000;1.000000;-0.046725;0.046725;-0.046725;1.000000
445632.56840332;5696585.71059998;471.75444986;165;158;146;40606.000000;1.000000;1.000000;1.000000;1.000000;0.036129;-0.036129;0.036129;1.000000
445632.60370071;5696585.71199997;471.75374987;180;173;162;44461.000000;1.000000;1.000000;1.000000;1.000000;0.054212;-0.054212;0.054212;1.000000
445632.64120300;5696585.71319969;471.75315001;170;162;149;41634.000000;1.000000;1.000000;1.000000;1.000000;0.085946;-0.085946;0.085946;1.000000
445632.41920288;5696585.66599854;471.75654985;77;74;65;18761.000000;1.000000;1.000000;1.000000;1.000000;-0.104826;0.104826;-0.104826;1.000000
445632.49450119;5696585.66839989;471.75064995;107;104;92;26471.000000;1.000000;1.000000;1.000000;1.000000;-0.069876;0.069876;-0.069876;1.000000
445632.60500153;5696585.67449959;471.75105001;165;159;146;40863.000000;1.000000;1.000000;1.000000;1.000000;0.040625;-0.040625;0.040625;1.000000
445632.42270096;5696585.62829979;471.75624992;116;115;103;29041.000000;1.000000;1.000000;1.000000;1.000000;-0.108324;0.108324;-0.108324;1.000000
445632.49559982;5696585.63089951;471.75254967;103;100;88;25443.000000;1.000000;1.000000;1.000000;1.000000;-0.068777;0.068777;-0.068777;1.000000
445632.38879974;5696585.58939941;471.75425007;93;89;82;22873.000000;1.000000;1.000000;1.000000;1.000000;-0.074423;0.074423;-0.074423;1.000000
445632.46150024;5696585.59199913;471.75525000;37;39;36;9766.000000;1.000000;1.000000;1.000000;1.000000;-0.102877;0.102877;-0.102877;1.000000
445632.35010345;5696585.55099876;471.75435020;143;139;124;35466.000000;1.000000;1.000000;1.000000;1.000000;-0.035727;0.035727;-0.035727;1.000000
445632.46460159;5696585.51869972;471.79404976;42;42;32;10280.000000;1.000000;1.000000;1.000000;1.000000;-0.099775;0.099775;-0.099775;1.000000
445632.57570084;5696585.48569878;471.74974968;117;109;92;28013.000000;1.000000;1.000000;1.000000;1.000000;0.011324;-0.011324;0.011324;1.000000
445632.25510223;5696585.61109932;471.75775005;133;130;117;33153.000000;1.000000;1.000000;1.000000;1.000000;0.003225;-0.003225;0.003225;1.000000
445632.29280289;5696585.61459930;471.75715019;145;143;130;36494.000000;1.000000;1.000000;1.000000;1.000000;0.021574;-0.021574;0.021574;1.000000
445632.33040054;5696585.61579903;471.75654985;168;165;153;42148.000000;1.000000;1.000000;1.000000;1.000000;-0.016024;0.016024;-0.016024;1.000000
445632.10980042;5696585.53119858;471.75495007;125;123;114;31354.000000;1.000000;1.000000;1.000000;1.000000;-0.142076;0.142076;-0.142076;1.000000
445632.22800262;5696585.83509834;471.78484966;168;163;145;41634.000000;1.000000;1.000000;1.000000;1.000000;-0.005098;0.005098;-0.005098;1.000000
445632.63640030;5696585.85099991;471.78254988;197;183;156;47288.000000;1.000000;1.000000;1.000000;1.000000;-0.021000;0.021000;-0.021000;1.000000
445632.54730042;5696585.93809898;471.81444981;140;123;83;31611.000000;1.000000;1.000000;1.000000;1.000000;-0.108099;0.108099;-0.108099;1.000000
445632.17490204;5696585.55319984;471.75575020;167;163;149;41634.000000;1.000000;1.000000;1.000000;1.000000;-0.076975;0.076975;-0.076975;1.000000
445632.56550034;5696586.02689941;471.85594990;85;85;53;20817.000000;1.000000;1.000000;1.000000;1.000000;-0.196899;0.196899;-0.196899;1.000000
445632.67700012;5696585.99319847;471.85354998;67;64;30;15677.000000;1.000000;1.000000;1.000000;1.000000;-0.163198;0.163198;-0.163198;1.000000
445632.28940018;5696585.68029984;471.76244976;182;176;164;45232.000000;1.000000;1.000000;1.000000;1.000000;0.024977;-0.024977;0.024977;1.000000
445632.61079987;5696586.02009972;471.87414982;46;39;21;10023.000000;1.000000;1.000000;1.000000;1.000000;-0.190100;0.190100;-0.190100;1.000000
445632.67840012;5696585.91889961;471.82245018;133;124;77;31097.000000;1.000000;1.000000;1.000000;1.000000;-0.088900;0.088900;-0.088900;1.000000
445632.60379990;5696585.99049957;471.86424973;165;154;127;39578.000000;1.000000;1.000000;1.000000;1.000000;-0.160500;0.160500;-0.160500;1.000000
445632.65200241;5696585.90969856;471.81885006;126;112;67;28527.000000;1.000000;1.000000;1.000000;1.000000;0.079699;-0.079699;0.079699;1.000000
445632.30880173;5696585.90219887;471.79164984;137;134;121;34181.000000;1.000000;1.000000;1.000000;1.000000;0.072199;-0.072199;0.072199;1.000000
445632.41940125;5696585.90839966;471.78964998;173;169;153;43176.000000;1.000000;1.000000;1.000000;1.000000;0.078812;-0.078812;0.078812;1.000000
445632.64529999;5696585.87789925;471.79724981;200;183;149;47288.000000;1.000000;1.000000;1.000000;1.000000;-0.047899;0.047899;-0.047899;1.000000
445632.57220276;5696585.80129822;471.75575020;138;129;111;33153.000000;1.000000;1.000000;1.000000;1.000000;0.028702;-0.028702;0.028702;1.000000
445632.57590302;5696585.76589973;471.75544979;122;117;103;29812.000000;1.000000;1.000000;1.000000;1.000000;0.064100;-0.064100;0.064100;1.000000
445632.68610199;5696585.76969917;471.75584986;194;189;174;48316.000000;1.000000;1.000000;1.000000;1.000000;0.060390;-0.060390;0.060390;1.000000
445632.39380081;5696585.64499863;471.75745012;203;200;189;51143.000000;1.000000;1.000000;1.000000;1.000000;-0.079424;0.079424;-0.079424;1.000000
445632.46690186;5696585.64989861;471.75385000;152;151;141;38550.000000;1.000000;1.000000;1.000000;1.000000;-0.097475;0.097475;-0.097475;1.000000
445632.68960007;5696585.91089828;471.81825020;174;168;128;42405.000000;1.000000;1.000000;1.000000;1.000000;-0.080898;0.080898;-0.080898;1.000000
445632.29060181;5696585.64279945;471.76205017;153;151;141;38550.000000;1.000000;1.000000;1.000000;1.000000;0.023775;-0.023775;0.023775;1.000000
445632.15640076;5696585.95129974;471.79925014;39;41;35;10023.000000;1.000000;1.000000;1.000000;1.000000;-0.125702;0.125702;-0.125702;1.000000
445632.19530304;5696585.91729935;471.80065014;197;199;187;50629.000000;1.000000;1.000000;1.000000;1.000000;-0.087299;0.087299;-0.087299;1.000000
445632.13450058;5696585.83889969;471.79465010;146;145;99;35980.000000;1.000000;1.000000;1.000000;1.000000;-0.055593;0.055593;-0.055593;1.000000
445632.32820328;5696585.64399918;471.75915005;144;141;130;35980.000000;1.000000;1.000000;1.000000;1.000000;-0.013826;0.013826;-0.013826;1.000000
445632.34620102;5696585.68899925;471.76515009;160;157;142;40092.000000;1.000000;1.000000;1.000000;1.000000;-0.031824;0.031824;-0.031824;1.000000
445632.13010223;5696585.72769936;471.76284983;183;176;160;45232.000000;1.000000;1.000000;1.000000;1.000000;0.118232;-0.118232;0.118232;1.000000
445632.16520126;5696585.72909935;471.76674988;189;183;167;47031.000000;1.000000;1.000000;1.000000;1.000000;-0.102202;0.102202;-0.102202;1.000000
445632.16890152;5696585.69149979;471.76184990;187;182;169;46774.000000;1.000000;1.000000;1.000000;1.000000;-0.084631;0.084631;-0.084631;1.000000
445632.20779999;5696585.65749939;471.76084997;186;185;175;47288.000000;1.000000;1.000000;1.000000;1.000000;-0.044077;0.044077;-0.044077;1.000000
445632.50850113;5696586.00459869;471.82744982;135;138;105;34181.000000;1.000000;1.000000;1.000000;1.000000;-0.174599;0.174599;-0.174599;1.000000
445632.18850143;5696585.86889847;471.79974987;103;101;71;25186.000000;1.000000;1.000000;1.000000;1.000000;-0.038908;0.038908;-0.038908;1.000000
445632.54070099;5696585.94339951;471.81654980;167;150;113;38807.000000;1.000000;1.000000;1.000000;1.000000;-0.113400;0.113400;-0.113400;1.000000
445632.26799973;5696585.99469955;471.80014994;135;128;112;32896.000000;1.000000;1.000000;1.000000;1.000000;-0.164700;0.164700;-0.164700;1.000000
445632.19660004;5696585.87979897;471.79794981;67;62;38;15420.000000;1.000000;1.000000;1.000000;1.000000;-0.049799;0.049799;-0.049799;1.000000
445632.64780243;5696585.78719910;471.76125004;123;117;99;29812.000000;1.000000;1.000000;1.000000;1.000000;0.042801;-0.042801;0.042801;1.000000
445632.31680115;5696585.69870003;471.76394989;189;184;169;47031.000000;1.000000;1.000000;1.000000;1.000000;-0.002424;0.002424;-0.002424;1.000000
445632.50720032;5696585.55729874;471.75915005;45;43;39;11051.000000;1.000000;1.000000;1.000000;1.000000;-0.057177;0.057177;-0.057177;1.000000
445632.15080078;5696585.86769875;471.80264999;123;127;86;31097.000000;1.000000;1.000000;1.000000;1.000000;-0.053938;0.053938;-0.053938;1.000000
445632.19490250;5696585.72169884;471.76564981;167;160;144;41120.000000;1.000000;1.000000;1.000000;1.000000;-0.073717;0.073717;-0.073717;1.000000
445632.11350067;5696585.69889839;471.76174976;162;154;139;39578.000000;1.000000;1.000000;1.000000;1.000000;-0.140452;0.140452;-0.140452;1.000000
445632.15880020;5696585.68309982;471.76125004;168;165;152;42148.000000;1.000000;1.000000;1.000000;1.000000;-0.093444;0.093444;-0.093444;1.000000
445632.18770035;5696585.66639908;471.76004984;155;154;144;39321.000000;1.000000;1.000000;1.000000;1.000000;-0.064177;0.064177;-0.064177;1.000000
445632.11580093;5696585.62399872;471.76095011;174;172;160;43947.000000;1.000000;1.000000;1.000000;1.000000;-0.136076;0.136076;-0.136076;1.000000
445632.15649994;5696585.76479919;471.77374985;169;160;142;41120.000000;1.000000;1.000000;1.000000;1.000000;0.073021;-0.073021;0.073021;1.000000
445632.57390030;5696586.01680000;471.85615017;75;72;42;17733.000000;1.000000;1.000000;1.000000;1.000000;-0.186800;0.186800;-0.186800;1.000000
445632.59770020;5696585.89859970;471.80695011;166;147;99;37779.000000;1.000000;1.000000;1.000000;1.000000;-0.068600;0.068600;-0.068600;1.000000
445632.56030090;5696585.85819824;471.77444984;156;143;115;36751.000000;1.000000;1.000000;1.000000;1.000000;0.028198;-0.028198;0.028198;1.000000
445632.19390305;5696585.76599892;471.77544977;182;173;155;44461.000000;1.000000;1.000000;1.000000;1.000000;0.064001;-0.064001;0.064001;1.000000
445632.45150192;5696585.81699951;471.76905014;194;188;175;48316.000000;1.000000;1.000000;1.000000;1.000000;-0.013000;0.013000;-0.013000;1.000000
445632.63680084;5696585.82539948;471.77294971;129;118;92;30326.000000;1.000000;1.000000;1.000000;1.000000;0.004601;-0.004601;0.004601;1.000000
445632.34190186;5696585.77329834;471.77524998;172;167;154;42919.000000;1.000000;1.000000;1.000000;1.000000;-0.027525;0.027525;-0.027525;1.000000
445632.41500290;5696585.77829941;471.77164986;166;162;152;41634.000000;1.000000;1.000000;1.000000;1.000000;0.051912;-0.051912;0.051912;1.000000
445632.19320114;5696585.73109825;471.77035000;158;151;137;38807.000000;1.000000;1.000000;1.000000;1.000000;-0.081165;0.081165;-0.081165;1.000000
445632.46190079;5696585.55429848;471.77105000;30;28;22;6939.000000;1.000000;1.000000;1.000000;1.000000;-0.102476;0.102476;-0.102476;1.000000
445632.61140259;5696585.56199844;471.73834993;164;157;142;40349.000000;1.000000;1.000000;1.000000;1.000000;0.047026;-0.047026;0.047026;1.000000
445632.64890106;5696585.56320007;471.73775007;129;122;106;31354.000000;1.000000;1.000000;1.000000;1.000000;0.084524;-0.084524;0.084524;1.000000
445632.68650253;5696585.56439980;471.73714973;148;144;127;36751.000000;1.000000;1.000000;1.000000;1.000000;0.122126;-0.122126;0.122126;1.000000
445632.61270340;5696585.52459915;471.73565008;165;157;141;40349.000000;1.000000;1.000000;1.000000;1.000000;0.048326;-0.048326;0.048326;1.000000
445632.61390121;5696585.48709877;471.73525002;155;148;132;38036.000000;1.000000;1.000000;1.000000;1.000000;0.049524;-0.049524;0.049524;1.000000
445632.14730270;5696585.99899872;471.79015018;55;52;41;13107.000000;1.000000;1.000000;1.000000;1.000000;-0.174157;0.174157;-0.174157;1.000000
445632.15950211;5696585.66429909;471.75874998;126;124;112;31611.000000;1.000000;1.000000;1.000000;1.000000;-0.092375;0.092375;-0.092375;1.000000
445632.12670334;5696585.58799942;471.75635006;170;167;156;42662.000000;1.000000;1.000000;1.000000;1.000000;-0.125174;0.125174;-0.125174;1.000000
445632.26480301;5696585.85499962;471.78905012;167;161;147;41377.000000;1.000000;1.000000;1.000000;1.000000;-0.025000;0.025000;-0.025000;1.000000
445632.67320068;5696585.87309845;471.79145004;197;181;151;46774.000000;1.000000;1.000000;1.000000;1.000000;-0.043098;0.043098;-0.043098;1.000000
445632.49559982;5696585.67999847;471.75085022;118;114;101;29041.000000;1.000000;1.000000;1.000000;1.000000;-0.068987;0.068987;-0.068987;1.000000
445632.27470215;5696585.59529884;471.75614979;174;173;159;43947.000000;1.000000;1.000000;1.000000;1.000000;0.022825;-0.022825;0.022825;1.000000
445632.38730057;5696585.59889992;471.75425007;103;100;90;25443.000000;1.000000;1.000000;1.000000;1.000000;-0.072924;0.072924;-0.072924;1.000000
445632.46000107;5696585.60149963;471.75525000;40;43;39;10537.000000;1.000000;1.000000;1.000000;1.000000;-0.104376;0.104376;-0.104376;1.000000
445632.31340225;5696585.55900009;471.75514986;164;160;146;40863.000000;1.000000;1.000000;1.000000;1.000000;0.000975;-0.000975;0.000975;1.000000
445632.17380341;5696586.00819977;471.79145004;177;174;159;44461.000000;1.000000;1.000000;1.000000;1.000000;-0.178879;0.178879;-0.178879;1.000000
445632.59230240;5696585.76669891;471.75624992;127;122;106;31097.000000;1.000000;1.000000;1.000000;1.000000;-0.063301;0.063301;-0.063301;1.000000
445632.13770111;5696585.95069893;471.79845001;21;23;17;5397.000000;1.000000;1.000000;1.000000;1.000000;-0.131296;0.131296;-0.131296;1.000000
445632.17650040;5696585.91669853;471.80214979;198;202;188;51143.000000;1.000000;1.000000;1.000000;1.000000;-0.087650;0.087650;-0.087650;1.000000
445632.14780243;5696585.98019989;471.79225018;61;60;54;15163.000000;1.000000;1.000000;1.000000;1.000000;-0.155848;0.155848;-0.155848;1.000000
445632.11260040;5696585.68969925;471.76154997;163;158;142;40349.000000;1.000000;1.000000;1.000000;1.000000;-0.140068;0.140068;-0.140068;1.000000
445632.15020187;5696585.69089897;471.76095011;177;173;160;44204.000000;1.000000;1.000000;1.000000;1.000000;-0.102938;0.102938;-0.102938;1.000000
445632.21260269;5696585.92739876;471.80154993;173;174;165;44204.000000;1.000000;1.000000;1.000000;1.000000;0.097399;-0.097399;0.097399;1.000000
445632.25010117;5696585.92859848;471.80095007;216;216;207;55255.000000;1.000000;1.000000;1.000000;1.000000;0.098598;-0.098598;0.098598;1.000000
445632.22650345;5696585.65809830;471.76165010;187;186;175;47545.000000;1.000000;1.000000;1.000000;1.000000;-0.025373;0.025373;-0.025373;1.000000
445632.18340118;5696585.54309853;471.75374987;171;167;153;42662.000000;1.000000;1.000000;1.000000;1.000000;-0.068476;0.068476;-0.068476;1.000000
445632.21400269;5696585.91789825;471.80144979;164;166;153;41891.000000;1.000000;1.000000;1.000000;1.000000;0.087898;-0.087898;0.087898;1.000000
445632.25160034;5696585.91909988;471.80084993;213;212;201;54227.000000;1.000000;1.000000;1.000000;1.000000;0.089100;-0.089100;0.089100;1.000000
445632.59010132;5696585.82279976;471.76615002;171;158;139;40863.000000;1.000000;1.000000;1.000000;1.000000;-0.007200;0.007200;-0.007200;1.000000
445632.70280273;5696585.82639893;471.76424982;133;123;105;31868.000000;1.000000;1.000000;1.000000;1.000000;0.003601;-0.003601;0.003601;1.000000
445632.66660126;5696585.78779991;471.75985004;154;147;130;37779.000000;1.000000;1.000000;1.000000;1.000000;0.042200;-0.042200;0.042200;1.000000
445632.33550079;5696585.69929894;471.76475002;175;170;155;43433.000000;1.000000;1.000000;1.000000;1.000000;-0.021124;0.021124;-0.021124;1.000000
445632.52940186;5696585.52249916;471.76445009;49;48;38;12079.000000;1.000000;1.000000;1.000000;1.000000;-0.034975;0.034975;-0.034975;1.000000
445632.21400269;5696585.88989838;471.79645016;65;58;40;14906.000000;1.000000;1.000000;1.000000;1.000000;0.059898;-0.059898;0.059898;1.000000
445632.22980316;5696585.56449898;471.75374987;169;166;151;42405.000000;1.000000;1.000000;1.000000;1.000000;-0.022074;0.022074;-0.022074;1.000000
445632.33880051;5696585.60569962;471.75684978;148;145;133;37008.000000;1.000000;1.000000;1.000000;1.000000;-0.024424;0.024424;-0.024424;1.000000
445632.70350082;5696585.83569916;471.76674988;150;140;120;35980.000000;1.000000;1.000000;1.000000;1.000000;-0.005699;0.005699;-0.005699;1.000000
445632.40780075;5696585.74860008;471.76634981;136;132;120;33667.000000;1.000000;1.000000;1.000000;1.000000;-0.081400;0.081400;-0.081400;1.000000
445632.33760269;5696585.67109879;471.76224997;156;152;140;38807.000000;1.000000;1.000000;1.000000;1.000000;-0.023226;0.023226;-0.023226;1.000000
445632.52779968;5696585.52969940;471.76214983;44;42;33;10537.000000;1.000000;1.000000;1.000000;1.000000;-0.036577;0.036577;-0.036577;1.000000
445632.49230011;5696585.49269875;471.79964973;100;108;85;26471.000000;1.000000;1.000000;1.000000;1.000000;-0.072077;0.072077;-0.072077;1.000000
445632.67030151;5696585.90109833;471.81024982;159;143;100;36751.000000;1.000000;1.000000;1.000000;1.000000;-0.071098;0.071098;-0.071098;1.000000
445632.37600143;5696585.81219872;471.77495005;145;141;130;35980.000000;1.000000;1.000000;1.000000;1.000000;-0.017801;0.017801;-0.017801;1.000000
445632.30440338;5696585.77209862;471.77584984;168;162;149;41634.000000;1.000000;1.000000;1.000000;1.000000;0.009974;-0.009974;0.009974;1.000000
445632.37740143;5696585.77699860;471.77454998;178;175;165;44718.000000;1.000000;1.000000;1.000000;1.000000;-0.053001;0.053001;-0.053001;1.000000
445632.23080261;5696585.73229988;471.76975014;184;176;160;45232.000000;1.000000;1.000000;1.000000;1.000000;-0.061046;0.061046;-0.061046;1.000000
445632.34350021;5696585.73819931;471.77024986;139;134;123;34438.000000;1.000000;1.000000;1.000000;1.000000;-0.029123;0.029123;-0.029123;1.000000
445632.30600174;5696585.73699959;471.77084972;154;147;134;37779.000000;1.000000;1.000000;1.000000;1.000000;0.008375;-0.008375;0.008375;1.000000
445632.71210297;5696586.02249916;471.86254980;21;19;4;4369.000000;1.000000;1.000000;1.000000;1.000000;-0.192502;0.192502;-0.192502;1.000000
445632.21249969;5696585.52649887;471.74784996;167;162;146;41377.000000;1.000000;1.000000;1.000000;1.000000;-0.039377;0.039377;-0.039377;1.000000
445632.58100327;5696585.61609848;471.74694969;135;127;112;32639.000000;1.000000;1.000000;1.000000;1.000000;0.016626;-0.016626;0.016626;1.000000
445632.43620117;5696585.53319939;471.77895023;42;40;32;10023.000000;1.000000;1.000000;1.000000;1.000000;-0.121824;0.121824;-0.121824;1.000000
445632.19300278;5696585.96429832;471.79404976;32;31;23;7710.000000;1.000000;1.000000;1.000000;1.000000;-0.134298;0.134298;-0.134298;1.000000
445632.33550079;5696585.91369827;471.79524996;127;124;110;31611.000000;1.000000;1.000000;1.000000;1.000000;-0.083698;0.083698;-0.083698;1.000000
445632.37300308;5696585.91489990;471.79465010;132;130;115;32896.000000;1.000000;1.000000;1.000000;1.000000;0.084900;-0.084900;0.084900;1.000000
445632.44590195;5696585.91759880;471.79094984;135;130;111;33153.000000;1.000000;1.000000;1.000000;1.000000;0.087599;-0.087599;0.087599;1.000000
445632.41069992;5696585.91619881;471.79174997;181;179;163;45489.000000;1.000000;1.000000;1.000000;1.000000;-0.086199;0.086199;-0.086199;1.000000
445632.48330124;5696585.91869934;471.79274990;159;145;118;37522.000000;1.000000;1.000000;1.000000;1.000000;0.088699;-0.088699;0.088699;1.000000
445632.59700211;5696585.88480003;471.79514982;172;153;112;39578.000000;1.000000;1.000000;1.000000;1.000000;-0.054800;0.054800;-0.054800;1.000000
445632.41570099;5696585.97169884;471.79495003;101;99;73;24672.000000;1.000000;1.000000;1.000000;1.000000;-0.141798;0.141798;-0.141798;1.000000
445632.41920288;5696585.93400009;471.79465010;201;201;186;51143.000000;1.000000;1.000000;1.000000;1.000000;0.104326;-0.104326;0.104326;1.000000
445632.45470245;5696585.93769844;471.79395010;147;140;120;35723.000000;1.000000;1.000000;1.000000;1.000000;0.107698;-0.107698;0.107698;1.000000
445632.34570129;5696585.89649971;471.79085018;142;138;126;35209.000000;1.000000;1.000000;1.000000;1.000000;0.066500;-0.066500;0.066500;1.000000
