//X;Y;Z;R;G;B;Intensity;Return Number;Number Of Returns;Scan Direction Flag;Point Source ID;C2M signed distances[-][<0.8];C2M signed distances[<0.4];C2M signed distances[-][<0.2];Stump93
445648.52900131;5696574.91869934;470.47934987;81;83;68;20560.000000;1.000000;1.000000;1.000000;1.000000;0.088699;-0.088699;0.088699;1.000000
445648.77430161;5696574.79089935;470.47724988;22;20;18;5140.000000;1.000000;1.000000;1.000000;1.000000;-0.045075;0.045075;-0.045075;1.000000
445648.65369995;5696574.98179920;470.48805000;103;96;87;24929.000000;1.000000;1.000000;1.000000;1.000000;0.102324;-0.102324;0.102324;1.000000
445648.83970078;5696574.95119961;470.44715001;149;144;128;36751.000000;1.000000;1.000000;1.000000;1.000000;-0.106501;0.106501;-0.106501;1.000000
445648.66500290;5696574.74959953;470.48114993;223;227;220;57825.000000;1.000000;1.000000;1.000000;1.000000;-0.080694;0.080694;-0.080694;1.000000
445648.77540024;5696574.75339897;470.47914984;157;155;148;39578.000000;1.000000;1.000000;1.000000;1.000000;-0.080132;0.080132;-0.080132;1.000000
445648.80540283;5696574.91219910;470.45214989;106;106;95;26728.000000;1.000000;1.000000;1.000000;1.000000;0.098090;-0.098090;0.098090;1.000000
445648.58450134;5696574.86669930;470.48814990;114;113;105;28784.000000;1.000000;1.000000;1.000000;1.000000;0.036699;-0.036699;0.036699;1.000000
445648.84430130;5696574.87819870;470.45344998;91;97;94;24158.000000;1.000000;1.000000;1.000000;1.000000;0.104237;-0.104237;0.104237;1.000000
445648.86070068;5696574.72949894;470.45474984;126;126;111;31868.000000;1.000000;1.000000;1.000000;1.000000;-0.148132;0.148132;-0.148132;1.000000
445648.89830215;5696574.73069962;470.45414998;155;157;143;39578.000000;1.000000;1.000000;1.000000;1.000000;-0.176921;0.176921;-0.176921;1.000000
445648.77330215;5696574.99459942;470.45394995;61;59;46;14906.000000;1.000000;1.000000;1.000000;1.000000;-0.027176;0.027176;-0.027176;1.000000
445648.54930313;5696574.79059895;470.48805000;133;155;115;37008.000000;1.000000;1.000000;1.000000;1.000000;-0.039401;0.039401;-0.039401;1.000000
445648.75950058;5696574.71489914;470.49195005;131;134;123;33667.000000;1.000000;1.000000;1.000000;1.000000;-0.115353;0.115353;-0.115353;1.000000
445648.65050323;5696575.00059898;470.49504997;67;58;49;15163.000000;1.000000;1.000000;1.000000;1.000000;0.101856;-0.101856;0.101856;1.000000
445648.65880020;5696574.85079868;470.46575000;107;104;98;26728.000000;1.000000;1.000000;1.000000;1.000000;0.020810;-0.020810;0.020810;1.000000
445648.55350311;5696574.69719894;470.46144988;153;155;128;38807.000000;1.000000;1.000000;1.000000;1.000000;-0.114126;0.114126;-0.114126;1.000000
445648.51820190;5696574.69579895;470.46225001;137;142;116;35209.000000;1.000000;1.000000;1.000000;1.000000;-0.078825;0.078825;-0.078825;1.000000
445648.70440109;5696574.70359905;470.49864985;92;95;85;23644.000000;1.000000;1.000000;1.000000;1.000000;-0.126401;0.126401;-0.126401;1.000000
445648.81410034;5696574.70809944;470.45945003;121;121;111;30583.000000;1.000000;1.000000;1.000000;1.000000;-0.136863;0.136863;-0.136863;1.000000
445648.62980087;5696574.66209896;470.45984985;144;143;125;36237.000000;1.000000;1.000000;1.000000;1.000000;-0.167926;0.167926;-0.167926;1.000000
445648.48430069;5696574.58209904;470.46164991;197;198;188;50372.000000;1.000000;1.000000;1.000000;1.000000;-0.044924;0.044924;-0.044924;1.000000
445648.52200134;5696574.58339890;470.45634987;97;97;78;24158.000000;1.000000;1.000000;1.000000;1.000000;-0.082624;0.082624;-0.082624;1.000000
445648.56060226;5696574.54709919;470.45764997;141;140;129;35723.000000;1.000000;1.000000;1.000000;1.000000;-0.121225;0.121225;-0.121225;1.000000
445648.93920334;5696575.01209934;470.44074990;132;132;123;33667.000000;1.000000;1.000000;1.000000;1.000000;-0.187326;0.187326;-0.187326;1.000000
445648.77660187;5696574.71589954;470.47875001;86;86;79;21845.000000;1.000000;1.000000;1.000000;1.000000;-0.116749;0.116749;-0.116749;1.000000
445648.66750153;5696574.67459877;470.47805001;124;122;110;31097.000000;1.000000;1.000000;1.000000;1.000000;-0.155684;0.155684;-0.155684;1.000000
445648.51750000;5696574.47129925;470.48044993;99;104;99;25957.000000;1.000000;1.000000;1.000000;1.000000;-0.087534;0.087534;-0.087534;1.000000
445648.78000076;5696574.67819889;470.48085000;118;120;114;30326.000000;1.000000;1.000000;1.000000;1.000000;-0.154384;0.154384;-0.154384;1.000000
445648.53510101;5696574.46259888;470.48584988;108;114;111;28527.000000;1.000000;1.000000;1.000000;1.000000;-0.107118;0.107118;-0.107118;1.000000
445648.65089996;5696574.83989914;470.46295001;163;162;156;41377.000000;1.000000;1.000000;1.000000;1.000000;0.009899;-0.009899;0.009899;1.000000
445648.48780258;5696574.47869881;470.47924997;67;72;66;17733.000000;1.000000;1.000000;1.000000;1.000000;-0.058104;0.058104;-0.058104;1.000000
445648.71310242;5696574.90879925;470.47124984;209;210;205;53713.000000;1.000000;1.000000;1.000000;1.000000;0.078799;-0.078799;0.078799;1.000000
445648.75060089;5696574.90999897;470.47054984;83;81;77;20817.000000;1.000000;1.000000;1.000000;1.000000;0.079999;-0.079999;0.079999;1.000000
445648.71440323;5696574.87129887;470.46844985;130;133;125;33667.000000;1.000000;1.000000;1.000000;1.000000;0.041299;-0.041299;0.041299;1.000000
445648.79890259;5696574.84719952;470.46274998;58;66;61;16191.000000;1.000000;1.000000;1.000000;1.000000;0.050072;-0.050072;0.050072;1.000000
445648.80480011;5696574.73459919;470.46164991;180;180;171;46003.000000;1.000000;1.000000;1.000000;1.000000;-0.109097;0.109097;-0.109097;1.000000
445648.50790222;5696574.68499954;470.46164991;148;152;131;38036.000000;1.000000;1.000000;1.000000;1.000000;-0.068525;0.068525;-0.068525;1.000000
445648.69420059;5696574.69289883;470.49574997;141;144;135;36494.000000;1.000000;1.000000;1.000000;1.000000;-0.137101;0.137101;-0.137101;1.000000
445648.84150131;5696574.70089920;470.45825006;135;135;127;34438.000000;1.000000;1.000000;1.000000;1.000000;-0.157161;0.157161;-0.157161;1.000000
445648.73150070;5696574.69409950;470.49974992;114;118;109;29555.000000;1.000000;1.000000;1.000000;1.000000;-0.135901;0.135901;-0.135901;1.000000
445648.62300308;5696574.61599930;470.46134998;138;132;116;33924.000000;1.000000;1.000000;1.000000;1.000000;-0.183626;0.183626;-0.183626;1.000000
445648.82960327;5696574.80229958;470.46584990;38;43;40;10537.000000;1.000000;1.000000;1.000000;1.000000;-0.082515;0.082515;-0.082515;1.000000
445648.60910233;5696574.71999939;470.46654989;103;105;88;26214.000000;1.000000;1.000000;1.000000;1.000000;-0.110001;0.110001;-0.110001;1.000000
445648.64620026;5696574.71879871;470.47295000;67;66;54;16448.000000;1.000000;1.000000;1.000000;1.000000;-0.111201;0.111201;-0.111201;1.000000
445648.51180084;5696574.57499893;470.45814993;67;66;51;16448.000000;1.000000;1.000000;1.000000;1.000000;-0.072424;0.072424;-0.072424;1.000000
445648.51330002;5696574.81689938;470.51234986;175;188;172;46774.000000;1.000000;1.000000;1.000000;1.000000;-0.013101;0.013101;-0.013101;1.000000
445648.88930328;5696574.69159897;470.46965005;82;84;75;21074.000000;1.000000;1.000000;1.000000;1.000000;-0.195041;0.195041;-0.195041;1.000000
445648.90710266;5696575.00079926;470.45544984;154;151;143;38807.000000;1.000000;1.000000;1.000000;1.000000;-0.155580;0.155580;-0.155580;1.000000
445648.86860092;5696574.96239956;470.45094993;126;124;112;31611.000000;1.000000;1.000000;1.000000;1.000000;-0.126581;0.126581;-0.126581;1.000000
445648.57230194;5696574.91219910;470.49055006;137;141;128;35466.000000;1.000000;1.000000;1.000000;1.000000;0.082268;-0.082268;0.082268;1.000000
445648.69600113;5696574.65789898;470.48604991;127;126;118;32125.000000;1.000000;1.000000;1.000000;1.000000;-0.172101;0.172101;-0.172101;1.000000
445648.59140213;5696574.46429928;470.48604991;104;106;101;26728.000000;1.000000;1.000000;1.000000;1.000000;-0.158940;0.158940;-0.158940;1.000000
445648.80170258;5696574.99669941;470.45065000;143;139;124;35466.000000;1.000000;1.000000;1.000000;1.000000;-0.051945;0.051945;-0.051945;1.000000
445648.73180206;5696574.88139923;470.46704986;201;203;197;51657.000000;1.000000;1.000000;1.000000;1.000000;0.051399;-0.051399;0.051399;1.000000
445648.51060303;5696574.83589943;470.50775005;82;92;80;22359.000000;1.000000;1.000000;1.000000;1.000000;0.006423;-0.006423;0.006423;1.000000
445648.51310165;5696574.76099880;470.50464990;104;124;88;29298.000000;1.000000;1.000000;1.000000;1.000000;-0.069001;0.069001;-0.069001;1.000000
445648.60050018;5696574.50579937;470.47295000;74;82;69;20046.000000;1.000000;1.000000;1.000000;1.000000;-0.161205;0.161205;-0.161205;1.000000
445648.63580139;5696574.50489910;470.46755006;64;69;54;16705.000000;1.000000;1.000000;1.000000;1.000000;-0.196521;0.196521;-0.196521;1.000000
445648.68140228;5696575.00029953;470.48254992;79;70;60;18247.000000;1.000000;1.000000;1.000000;1.000000;0.071245;-0.071245;0.071245;1.000000
445648.68300064;5696574.96519955;470.47755005;80;72;62;18761.000000;1.000000;1.000000;1.000000;1.000000;0.082626;-0.082626;0.082626;1.000000
445648.64510162;5696574.96159943;470.48274996;165;161;152;41377.000000;1.000000;1.000000;1.000000;1.000000;0.117538;-0.117538;0.117538;1.000000
445648.94270142;5696574.97439869;470.44044997;106;106;100;26985.000000;1.000000;1.000000;1.000000;1.000000;-0.194414;0.194414;-0.194414;1.000000
445648.61110123;5696574.92279919;470.48074986;184;185;177;47031.000000;1.000000;1.000000;1.000000;1.000000;0.092799;-0.092799;0.092799;1.000000
445648.83329971;5696574.93309887;470.44665005;181;178;162;45489.000000;1.000000;1.000000;1.000000;1.000000;-0.112999;0.112999;-0.112999;1.000000
445648.61030014;5696574.88789948;470.47794988;132;129;119;32896.000000;1.000000;1.000000;1.000000;1.000000;0.057899;-0.057899;0.057899;1.000000
445648.57710083;5696574.80909927;470.48015000;78;92;65;21588.000000;1.000000;1.000000;1.000000;1.000000;-0.020901;0.020901;-0.020901;1.000000
445648.76610001;5696574.77989872;470.48134996;37;33;30;8481.000000;1.000000;1.000000;1.000000;1.000000;-0.052081;0.052081;-0.052081;1.000000
445648.54230316;5696574.73529919;470.47774984;159;174;143;42662.000000;1.000000;1.000000;1.000000;1.000000;-0.094725;0.094725;-0.094725;1.000000
445648.61740311;5696574.73769959;470.47644999;205;212;199;53456.000000;1.000000;1.000000;1.000000;1.000000;-0.092300;0.092300;-0.092300;1.000000
445648.65470322;5696574.73889931;470.48054983;200;203;196;51657.000000;1.000000;1.000000;1.000000;1.000000;-0.091101;0.091101;-0.091101;1.000000
445648.69910248;5696575.03839882;470.47914984;53;50;36;12593.000000;1.000000;1.000000;1.000000;1.000000;0.052774;-0.052774;0.052774;1.000000
445648.69810303;5696575.00119884;470.47624995;120;113;102;29041.000000;1.000000;1.000000;1.000000;1.000000;0.054637;-0.054637;0.054637;1.000000
445648.66390045;5696574.96219929;470.48124983;116;110;102;28270.000000;1.000000;1.000000;1.000000;1.000000;0.100491;-0.100491;0.100491;1.000000
445648.70160110;5696574.96349915;470.47604992;75;70;60;17990.000000;1.000000;1.000000;1.000000;1.000000;0.069077;-0.069077;0.069077;1.000000
445648.85230072;5696574.93369873;470.44284989;124;122;108;31097.000000;1.000000;1.000000;1.000000;1.000000;-0.127052;0.127052;-0.127052;1.000000
445648.59470184;5696574.84719952;470.48144986;150;151;141;38293.000000;1.000000;1.000000;1.000000;1.000000;0.017200;-0.017200;0.017200;1.000000
445648.55980118;5696574.77339943;470.47895004;65;88;48;19532.000000;1.000000;1.000000;1.000000;1.000000;-0.056601;0.056601;-0.056601;1.000000
445648.78270157;5696574.78079899;470.47744991;48;45;43;11565.000000;1.000000;1.000000;1.000000;1.000000;-0.058059;0.058059;-0.058059;1.000000
445648.52550323;5696574.73219879;470.48155000;107;121;89;29041.000000;1.000000;1.000000;1.000000;1.000000;-0.086126;0.086126;-0.086126;1.000000
445648.78190048;5696574.74589928;470.47475006;167;167;158;42662.000000;1.000000;1.000000;1.000000;1.000000;-0.089299;0.089299;-0.089299;1.000000
445648.78510101;5696574.70579918;470.47674992;69;70;61;17476.000000;1.000000;1.000000;1.000000;1.000000;-0.128568;0.128568;-0.128568;1.000000
445648.67580231;5696574.66449936;470.48054983;148;146;137;37265.000000;1.000000;1.000000;1.000000;1.000000;-0.165574;0.165574;-0.165574;1.000000
445648.78870209;5696574.67039879;470.47875001;158;159;153;40606.000000;1.000000;1.000000;1.000000;1.000000;-0.163795;0.163795;-0.163795;1.000000
445648.77090271;5696574.63229950;470.48214986;102;103;96;25957.000000;1.000000;1.000000;1.000000;1.000000;-0.198614;0.198614;-0.198614;1.000000
445648.49900253;5696574.47299870;470.47965004;75;81;78;20046.000000;1.000000;1.000000;1.000000;1.000000;-0.070598;0.070598;-0.070598;1.000000
445648.55160339;5696574.51019867;470.47784998;91;96;88;23901.000000;1.000000;1.000000;1.000000;1.000000;-0.112228;0.112228;-0.112228;1.000000
445648.57640274;5696574.61339958;470.45225002;158;153;137;39064.000000;1.000000;1.000000;1.000000;1.000000;-0.137026;0.137026;-0.137026;1.000000
445648.57780273;5696574.57829960;470.45184996;86;79;61;20303.000000;1.000000;1.000000;1.000000;1.000000;-0.138426;0.138426;-0.138426;1.000000
445648.64380081;5696575.03609951;470.50915005;204;202;192;51657.000000;1.000000;1.000000;1.000000;1.000000;0.108076;-0.108076;0.108076;1.000000
445648.77370270;5696575.02259930;470.45204999;100;96;78;24415.000000;1.000000;1.000000;1.000000;1.000000;-0.021826;0.021826;-0.021826;1.000000
445648.66310318;5696574.98089893;470.48615005;128;121;112;31354.000000;1.000000;1.000000;1.000000;1.000000;0.093633;-0.093633;0.093633;1.000000
445648.81369980;5696574.95109947;470.45295002;144;141;121;35723.000000;1.000000;1.000000;1.000000;1.000000;-0.086311;0.086311;-0.086311;1.000000
445648.81500061;5696574.91369923;470.45024993;98;98;88;24672.000000;1.000000;1.000000;1.000000;1.000000;0.104834;-0.104834;0.104834;1.000000
445648.59180267;5696574.86839874;470.48624994;109;109;102;27756.000000;1.000000;1.000000;1.000000;1.000000;0.038399;-0.038399;0.038399;1.000000
445648.81830032;5696574.87589939;470.45464994;210;215;211;54741.000000;1.000000;1.000000;1.000000;1.000000;0.080739;-0.080739;0.080739;1.000000
445648.71720322;5696575.00189884;470.47015001;122;116;105;29812.000000;1.000000;1.000000;1.000000;1.000000;0.035847;-0.035847;0.035847;1.000000
445648.86710175;5696575.00659950;470.47234990;179;179;167;45489.000000;1.000000;1.000000;1.000000;1.000000;-0.115307;0.115307;-0.115307;1.000000
445648.85360153;5696574.87739952;470.45155003;68;74;71;18247.000000;1.000000;1.000000;1.000000;1.000000;0.112226;-0.112226;0.112226;1.000000
445648.75600250;5696574.96559914;470.46685006;57;58;45;14392.000000;1.000000;1.000000;1.000000;1.000000;-0.045642;0.045642;-0.045642;1.000000
445648.55960281;5696574.82689960;470.49125006;175;186;165;46260.000000;1.000000;1.000000;1.000000;1.000000;-0.003100;0.003100;-0.003100;1.000000
445648.52440079;5696574.75079926;470.49105002;72;94;51;21074.000000;1.000000;1.000000;1.000000;1.000000;-0.079201;0.079201;-0.079201;1.000000
445648.78310211;5696575.02409943;470.45245006;94;91;72;22873.000000;1.000000;1.000000;1.000000;1.000000;-0.031225;0.031225;-0.031225;1.000000
445648.64669998;5696574.92429932;470.47304990;239;239;231;61166.000000;1.000000;1.000000;1.000000;1.000000;0.094299;-0.094299;0.094299;1.000000
445648.72170074;5696574.92659958;470.47414996;64;61;57;15677.000000;1.000000;1.000000;1.000000;1.000000;0.089539;-0.089539;0.089539;1.000000
445648.68420227;5696574.92549904;470.47245004;147;143;138;36751.000000;1.000000;1.000000;1.000000;1.000000;0.095499;-0.095499;0.095499;1.000000
445648.64809998;5696574.88909920;470.47264983;129;127;115;32382.000000;1.000000;1.000000;1.000000;1.000000;0.059099;-0.059099;0.059099;1.000000
445648.72330292;5696574.89149960;470.46914985;232;233;228;59624.000000;1.000000;1.000000;1.000000;1.000000;0.061558;-0.061558;0.061558;1.000000
445648.76080139;5696574.89269932;470.46854999;190;193;188;49087.000000;1.000000;1.000000;1.000000;1.000000;0.063331;-0.063331;0.063331;1.000000
445648.52729996;5696574.86469944;470.50884988;126;134;124;33410.000000;1.000000;1.000000;1.000000;1.000000;0.034699;-0.034699;0.034699;1.000000
445648.75300034;5696574.83499916;470.46984984;90;94;85;23387.000000;1.000000;1.000000;1.000000;1.000000;0.005124;-0.005124;0.005124;1.000000
445648.52760132;5696574.78999908;470.50335004;120;141;103;33410.000000;1.000000;1.000000;1.000000;1.000000;-0.040001;0.040001;-0.040001;1.000000
445648.61380203;5696574.84789951;470.47295000;148;149;142;37779.000000;1.000000;1.000000;1.000000;1.000000;0.017900;-0.017900;0.017900;1.000000
445648.61850174;5696574.49709900;470.47134997;46;53;40;12593.000000;1.000000;1.000000;1.000000;1.000000;-0.179661;0.179661;-0.179661;1.000000
445648.53720291;5696574.84509953;470.50674989;184;193;181;48316.000000;1.000000;1.000000;1.000000;1.000000;0.015640;-0.015640;0.015640;1.000000
445648.72459991;5696574.85409935;470.46645000;73;76;69;19018.000000;1.000000;1.000000;1.000000;1.000000;0.024425;-0.024425;0.024425;1.000000
445648.63960083;5696574.69159897;470.45834996;103;101;88;25700.000000;1.000000;1.000000;1.000000;1.000000;-0.138401;0.138401;-0.138401;1.000000
445648.71270187;5696574.69339951;470.50125005;81;83;74;20817.000000;1.000000;1.000000;1.000000;1.000000;-0.136600;0.136600;-0.136600;1.000000
445648.82710083;5696575.02449902;470.46374990;132;128;111;32639.000000;1.000000;1.000000;1.000000;1.000000;-0.075224;0.075224;-0.075224;1.000000
445648.62100037;5696574.64419945;470.46155002;144;140;121;35723.000000;1.000000;1.000000;1.000000;1.000000;-0.181623;0.181623;-0.181623;1.000000
445648.58940323;5696574.53259953;470.46344997;121;124;112;31097.000000;1.000000;1.000000;1.000000;1.000000;-0.150026;0.150026;-0.150026;1.000000
445648.61520203;5696574.81049927;470.46794989;47;52;37;12336.000000;1.000000;1.000000;1.000000;1.000000;-0.019501;0.019501;-0.019501;1.000000
445648.61630066;5696574.77299889;470.46984984;85;99;77;23644.000000;1.000000;1.000000;1.000000;1.000000;-0.057001;0.057001;-0.057001;1.000000
445648.80190094;5696574.78379925;470.47144987;36;35;32;8738.000000;1.000000;1.000000;1.000000;1.000000;-0.068095;0.068095;-0.068095;1.000000
445648.58020218;5696574.73659904;470.47015001;222;230;212;57825.000000;1.000000;1.000000;1.000000;1.000000;-0.093401;0.093401;-0.093401;1.000000
445648.58860214;5696574.56789883;470.45225002;99;93;76;23644.000000;1.000000;1.000000;1.000000;1.000000;-0.149225;0.149225;-0.149225;1.000000
445648.65860184;5696574.70349892;470.47564985;71;73;63;18247.000000;1.000000;1.000000;1.000000;1.000000;-0.126502;0.126502;-0.126502;1.000000
445648.80529984;5696574.67129906;470.47484996;150;150;144;38293.000000;1.000000;1.000000;1.000000;1.000000;-0.167451;0.167451;-0.167451;1.000000
445648.62780197;5696574.47509869;470.47854998;53;57;49;13878.000000;1.000000;1.000000;1.000000;1.000000;-0.191782;0.191782;-0.191782;1.000000
445648.62800034;5696574.92599876;470.47455003;233;232;223;59367.000000;1.000000;1.000000;1.000000;1.000000;0.096005;-0.096005;0.096005;1.000000
445648.59350021;5696574.88469894;470.48184993;132;131;120;33410.000000;1.000000;1.000000;1.000000;1.000000;0.054699;-0.054699;0.054699;1.000000
445648.89560135;5696574.95289906;470.45435001;139;140;130;35466.000000;1.000000;1.000000;1.000000;1.000000;-0.155137;0.155137;-0.155137;1.000000
445648.57390030;5696574.47539909;470.48304989;139;143;137;36237.000000;1.000000;1.000000;1.000000;1.000000;-0.139086;0.139086;-0.139086;1.000000
445648.61150177;5696574.47659882;470.48015000;76;80;74;20046.000000;1.000000;1.000000;1.000000;1.000000;-0.175488;0.175488;-0.175488;1.000000
445648.56690033;5696574.82859905;470.48924996;144;154;134;38036.000000;1.000000;1.000000;1.000000;1.000000;-0.002886;0.002886;-0.002886;1.000000
445648.73900040;5696574.76829918;470.48704984;168;167;162;42662.000000;1.000000;1.000000;1.000000;1.000000;-0.061701;0.061701;-0.061701;1.000000
445648.75490005;5696574.76219948;470.48534991;88;86;80;21845.000000;1.000000;1.000000;1.000000;1.000000;-0.067868;0.067868;-0.067868;1.000000
445648.68290146;5696574.71969898;470.49084999;51;54;44;13364.000000;1.000000;1.000000;1.000000;1.000000;-0.110301;0.110301;-0.110301;1.000000
445648.57320221;5696574.67909916;470.45284988;99;100;73;24672.000000;1.000000;1.000000;1.000000;1.000000;-0.133825;0.133825;-0.133825;1.000000
445648.54689987;5696574.87449940;470.50985004;187;192;184;48573.000000;1.000000;1.000000;1.000000;1.000000;0.044499;-0.044499;0.044499;1.000000
445648.57440002;5696574.64169891;470.45245006;156;154;137;39064.000000;1.000000;1.000000;1.000000;1.000000;-0.135023;0.135023;-0.135023;1.000000
445648.61320313;5696574.60769947;470.45385005;158;149;132;38293.000000;1.000000;1.000000;1.000000;1.000000;-0.173826;0.173826;-0.173826;1.000000
445648.76080139;5696574.64949902;470.48424985;167;168;161;42662.000000;1.000000;1.000000;1.000000;1.000000;-0.180721;0.180721;-0.180721;1.000000
445648.57930191;5696574.56879910;470.45184996;98;93;76;23644.000000;1.000000;1.000000;1.000000;1.000000;-0.139925;0.139925;-0.139925;1.000000
445648.61440094;5696574.57019909;470.45344998;163;155;138;39835.000000;1.000000;1.000000;1.000000;1.000000;-0.175024;0.175024;-0.175024;1.000000
445648.90170105;5696575.01999958;470.46004989;150;149;140;38036.000000;1.000000;1.000000;1.000000;1.000000;-0.149824;0.149824;-0.149824;1.000000
445648.91590317;5696574.72199924;470.45954992;107;109;98;27499.000000;1.000000;1.000000;1.000000;1.000000;-0.196389;0.196389;-0.196389;1.000000
445648.60150345;5696574.68119915;470.45184996;111;109;83;27242.000000;1.000000;1.000000;1.000000;1.000000;-0.148901;0.148901;-0.148901;1.000000
445648.56380280;5696574.67999943;470.45474984;90;91;64;22359.000000;1.000000;1.000000;1.000000;1.000000;-0.124426;0.124426;-0.124426;1.000000
445648.63890274;5696574.68239887;470.45354988;95;87;68;22359.000000;1.000000;1.000000;1.000000;1.000000;-0.147601;0.147601;-0.147601;1.000000
445648.49210175;5696574.63759907;470.45334985;201;201;186;51143.000000;1.000000;1.000000;1.000000;1.000000;-0.052725;0.052725;-0.052725;1.000000
445648.52980240;5696574.64109905;470.45505001;59;59;40;14392.000000;1.000000;1.000000;1.000000;1.000000;-0.090425;0.090425;-0.090425;1.000000
445648.71380051;5696574.64919956;470.48914983;128;129;122;32639.000000;1.000000;1.000000;1.000000;1.000000;-0.180800;0.180800;-0.180800;1.000000
445648.53220184;5696574.56609924;470.45435001;102;100;86;25443.000000;1.000000;1.000000;1.000000;1.000000;-0.092825;0.092825;-0.092825;1.000000
445648.71170242;5696574.73099907;470.49694993;85;86;79;21588.000000;1.000000;1.000000;1.000000;1.000000;-0.099001;0.099001;-0.099001;1.000000
445648.53510101;5696574.50939949;470.47934987;64;70;66;17219.000000;1.000000;1.000000;1.000000;1.000000;-0.095735;0.095735;-0.095735;1.000000
445648.92510040;5696574.96429928;470.44654991;121;121;116;30840.000000;1.000000;1.000000;1.000000;1.000000;-0.179528;0.179528;-0.179528;1.000000
445648.66790207;5696574.87789925;470.47574999;119;118;108;30069.000000;1.000000;1.000000;1.000000;1.000000;0.048887;-0.048887;0.048887;1.000000
445648.73760040;5696574.79899891;470.47805001;55;54;50;13621.000000;1.000000;1.000000;1.000000;1.000000;-0.031001;0.031001;-0.031001;1.000000
445648.67550095;5696574.71349915;470.48584988;52;53;43;13107.000000;1.000000;1.000000;1.000000;1.000000;-0.116617;0.116617;-0.116617;1.000000
445648.59200104;5696574.67969902;470.45134999;121;120;94;30069.000000;1.000000;1.000000;1.000000;1.000000;-0.150301;0.150301;-0.150301;1.000000
445648.55669983;5696574.67829903;470.45444991;94;95;69;23387.000000;1.000000;1.000000;1.000000;1.000000;-0.117323;0.117323;-0.117323;1.000000
445648.62730225;5696574.68119915;470.45065000;76;70;50;17733.000000;1.000000;1.000000;1.000000;1.000000;-0.148801;0.148801;-0.148801;1.000000
445648.51670273;5696574.67729958;470.45724990;158;160;140;40349.000000;1.000000;1.000000;1.000000;1.000000;-0.077326;0.077326;-0.077326;1.000000
445648.48490341;5696574.56559952;470.46615006;66;66;56;16448.000000;1.000000;1.000000;1.000000;1.000000;-0.045527;0.045527;-0.045527;1.000000
445648.52250107;5696574.56459911;470.45855000;80;79;65;19789.000000;1.000000;1.000000;1.000000;1.000000;-0.083124;0.083124;-0.083124;1.000000
445648.56140335;5696574.53289898;470.46455004;113;115;106;29041.000000;1.000000;1.000000;1.000000;1.000000;-0.122026;0.122026;-0.122026;1.000000
445648.50290115;5696574.80609901;470.51405003;157;169;151;41891.000000;1.000000;1.000000;1.000000;1.000000;-0.023923;0.023923;-0.023923;1.000000
445648.84890182;5696574.78409870;470.46654989;79;83;76;20817.000000;1.000000;1.000000;1.000000;1.000000;-0.107335;0.107335;-0.107335;1.000000
445648.52620132;5696574.51029881;470.47204997;98;103;95;25700.000000;1.000000;1.000000;1.000000;1.000000;-0.086827;0.086827;-0.086827;1.000000
445648.74410065;5696574.81709869;470.47615005;60;61;54;15163.000000;1.000000;1.000000;1.000000;1.000000;-0.012901;0.012901;-0.012901;1.000000
445648.78730209;5696574.72669895;470.47004988;120;120;110;30326.000000;1.000000;1.000000;1.000000;1.000000;-0.109206;0.109206;-0.109206;1.000000
445648.65110214;5696575.03779896;470.50724985;149;146;134;37265.000000;1.000000;1.000000;1.000000;1.000000;0.100775;-0.100775;0.100775;1.000000
445648.95100220;5696575.01109894;470.43654992;108;107;99;27242.000000;1.000000;1.000000;1.000000;1.000000;-0.199126;0.199126;-0.199126;1.000000
445648.84180267;5696575.00899895;470.46895005;155;153;140;39064.000000;1.000000;1.000000;1.000000;1.000000;-0.089948;0.089948;-0.089948;1.000000
445648.73000153;5696574.96559914;470.47264983;65;63;55;15934.000000;1.000000;1.000000;1.000000;1.000000;0.050340;-0.050340;0.050340;1.000000
445648.65620239;5696574.92569931;470.47114994;224;223;216;57054.000000;1.000000;1.000000;1.000000;1.000000;0.095699;-0.095699;0.095699;1.000000
445648.69380005;5696574.92689903;470.47054984;117;114;109;29298.000000;1.000000;1.000000;1.000000;1.000000;0.096899;-0.096899;0.096899;1.000000
445648.65730103;5696574.88819893;470.47315003;121;120;106;30326.000000;1.000000;1.000000;1.000000;1.000000;0.058199;-0.058199;0.058199;1.000000
445648.69500168;5696574.88949879;470.47015001;178;178;171;45489.000000;1.000000;1.000000;1.000000;1.000000;0.059499;-0.059499;0.059499;1.000000
445648.73250015;5696574.89069946;470.46954991;235;237;232;60395.000000;1.000000;1.000000;1.000000;1.000000;0.060699;-0.060699;0.060699;1.000000
445648.77010162;5696574.89189919;470.46895005;158;161;155;40863.000000;1.000000;1.000000;1.000000;1.000000;0.064526;-0.064526;0.064526;1.000000
445648.69630249;5696574.85199936;470.46744992;55;56;52;14135.000000;1.000000;1.000000;1.000000;1.000000;0.021999;-0.021999;0.021999;1.000000
445648.54680069;5696574.84659870;470.50484993;167;174;163;43690.000000;1.000000;1.000000;1.000000;1.000000;0.016599;-0.016599;0.016599;1.000000
445648.73380096;5696574.85319908;470.46685006;67;70;63;17476.000000;1.000000;1.000000;1.000000;1.000000;0.023199;-0.023199;0.023199;1.000000
445648.69989975;5696574.81659897;470.46954991;77;75;69;19018.000000;1.000000;1.000000;1.000000;1.000000;-0.013401;0.013401;-0.013401;1.000000
445648.58820160;5696574.77319916;470.47094991;61;79;45;17733.000000;1.000000;1.000000;1.000000;1.000000;-0.056801;0.056801;-0.056801;1.000000
445648.62580307;5696574.77439888;470.47035005;98;108;90;26471.000000;1.000000;1.000000;1.000000;1.000000;-0.055601;0.055601;-0.055601;1.000000
445648.81130035;5696574.78289898;470.46945002;28;27;24;6682.000000;1.000000;1.000000;1.000000;1.000000;-0.075826;0.075826;-0.075826;1.000000
445648.55410202;5696574.73429878;470.47354986;211;222;196;55255.000000;1.000000;1.000000;1.000000;1.000000;-0.095701;0.095701;-0.095701;1.000000
445648.75720032;5696574.97719868;470.46474983;48;48;36;11822.000000;1.000000;1.000000;1.000000;1.000000;-0.034315;0.034315;-0.034315;1.000000
445648.90649994;5696574.94479950;470.45704987;195;196;190;50115.000000;1.000000;1.000000;1.000000;1.000000;-0.168296;0.168296;-0.168296;1.000000
445648.81720169;5696574.67249878;470.47315003;137;137;131;34952.000000;1.000000;1.000000;1.000000;1.000000;-0.170511;0.170511;-0.170511;1.000000
445648.51210220;5696574.60299881;470.45844986;100;99;78;24672.000000;1.000000;1.000000;1.000000;1.000000;-0.072725;0.072725;-0.072725;1.000000
445648.57030304;5696574.52969940;470.46724989;103;107;96;26728.000000;1.000000;1.000000;1.000000;1.000000;-0.130926;0.130926;-0.130926;1.000000
445648.68210037;5696574.98159893;470.47994997;57;48;39;12593.000000;1.000000;1.000000;1.000000;1.000000;0.075639;-0.075639;0.075639;1.000000
445648.53560074;5696574.93919952;470.47755005;127;128;116;32382.000000;1.000000;1.000000;1.000000;1.000000;0.109228;-0.109228;0.109228;1.000000
445648.94210251;5696574.99319942;470.44065001;142;143;134;36237.000000;1.000000;1.000000;1.000000;1.000000;-0.191112;0.191112;-0.191112;1.000000
445648.64590271;5696574.94299896;470.47784998;134;133;125;33924.000000;1.000000;1.000000;1.000000;1.000000;0.112999;-0.112999;0.112999;1.000000
445648.94330032;5696574.95569904;470.44024994;102;104;100;26214.000000;1.000000;1.000000;1.000000;1.000000;-0.199414;0.199414;-0.199414;1.000000
445648.60950287;5696574.90429886;470.47814991;152;151;141;38550.000000;1.000000;1.000000;1.000000;1.000000;0.074299;-0.074299;0.074299;1.000000
445648.83390244;5696574.91429909;470.44645001;91;91;81;22873.000000;1.000000;1.000000;1.000000;1.000000;0.117620;-0.117620;0.117620;1.000000
445648.61070068;5696574.86679943;470.47774984;120;119;110;30326.000000;1.000000;1.000000;1.000000;1.000000;0.036799;-0.036799;0.036799;1.000000
445648.49760254;5696574.50819881;470.47994997;63;67;63;16705.000000;1.000000;1.000000;1.000000;1.000000;-0.058284;0.058284;-0.058284;1.000000
445648.51730164;5696574.91749866;470.47644999;69;72;59;17733.000000;1.000000;1.000000;1.000000;1.000000;0.087499;-0.087499;0.087499;1.000000
445648.70760162;5696574.77839954;470.47875001;110;109;101;27756.000000;1.000000;1.000000;1.000000;1.000000;-0.051600;0.051600;-0.051600;1.000000
445648.57870300;5696574.82759960;470.48284986;126;136;116;33410.000000;1.000000;1.000000;1.000000;1.000000;-0.002400;0.002400;-0.002400;1.000000
445648.57780273;5696574.79039867;470.47764995;85;103;69;23901.000000;1.000000;1.000000;1.000000;1.000000;-0.039601;0.039601;-0.039601;1.000000
445648.65410049;5696574.75529869;470.47604992;203;207;199;52428.000000;1.000000;1.000000;1.000000;1.000000;-0.074701;0.074701;-0.074701;1.000000
445648.76670273;5696574.76119907;470.48114993;102;100;93;25443.000000;1.000000;1.000000;1.000000;1.000000;-0.070380;0.070380;-0.070380;1.000000
445648.50550278;5696574.53799923;470.46904995;44;46;38;11308.000000;1.000000;1.000000;1.000000;1.000000;-0.066126;0.066126;-0.066126;1.000000
445648.65270050;5696574.78369911;470.46234991;139;142;134;35980.000000;1.000000;1.000000;1.000000;1.000000;-0.046301;0.046301;-0.046301;1.000000
445648.64389999;5696575.00819881;470.50184991;100;93;83;24158.000000;1.000000;1.000000;1.000000;1.000000;0.107999;-0.107999;0.107999;1.000000
445648.86779984;5696574.98339947;470.46044995;143;141;129;35980.000000;1.000000;1.000000;1.000000;1.000000;-0.119206;0.119206;-0.119206;1.000000
445648.90520294;5696574.98229893;470.45984985;149;150;142;38036.000000;1.000000;1.000000;1.000000;1.000000;-0.156026;0.156026;-0.156026;1.000000
445648.79390152;5696574.94119938;470.45665004;103;101;82;25443.000000;1.000000;1.000000;1.000000;1.000000;-0.081692;0.081692;-0.081692;1.000000
445648.79500015;5696574.90369900;470.45855000;72;73;64;18247.000000;1.000000;1.000000;1.000000;1.000000;0.085388;-0.085388;0.085388;1.000000
445648.57390030;5696574.85589893;470.49455001;118;121;112;30583.000000;1.000000;1.000000;1.000000;1.000000;0.025959;-0.025959;0.025959;1.000000
445648.65170105;5696574.82349880;470.46274998;115;116;108;29298.000000;1.000000;1.000000;1.000000;1.000000;-0.006501;0.006501;-0.006501;1.000000
445648.68690308;5696574.82489880;470.46435000;77;76;69;19275.000000;1.000000;1.000000;1.000000;1.000000;-0.005101;0.005101;-0.005101;1.000000
445648.54190262;5696574.81679924;470.49965002;179;192;168;47545.000000;1.000000;1.000000;1.000000;1.000000;-0.013435;0.013435;-0.013435;1.000000
445648.79950150;5696574.82849892;470.46254994;101;107;103;26728.000000;1.000000;1.000000;1.000000;1.000000;-0.047648;0.047648;-0.047648;1.000000
445648.87470062;5696574.83089931;470.45895006;202;208;204;52685.000000;1.000000;1.000000;1.000000;1.000000;0.122827;-0.122827;0.122827;1.000000
445648.53890045;5696574.78209885;470.49444987;109;131;90;30583.000000;1.000000;1.000000;1.000000;1.000000;-0.048217;0.048217;-0.048217;1.000000
445648.87600143;5696574.79569920;470.46094992;155;160;151;40349.000000;1.000000;1.000000;1.000000;1.000000;-0.128777;0.128777;-0.128777;1.000000
445648.91130264;5696574.79719933;470.45785000;81;86;78;21331.000000;1.000000;1.000000;1.000000;1.000000;-0.162765;0.162765;-0.162765;1.000000
445648.50480087;5696574.74319942;470.49704983;83;101;68;23387.000000;1.000000;1.000000;1.000000;1.000000;-0.065424;0.065424;-0.065424;1.000000
445648.54460342;5696574.70489891;470.46584990;192;196;170;49087.000000;1.000000;1.000000;1.000000;1.000000;-0.105227;0.105227;-0.105227;1.000000
445648.62220200;5696574.88689907;470.47155001;167;163;151;41634.000000;1.000000;1.000000;1.000000;1.000000;0.056899;-0.056899;0.056899;1.000000
445648.77250107;5696574.81919868;470.47284986;127;127;121;32382.000000;1.000000;1.000000;1.000000;1.000000;-0.023281;0.023281;-0.023281;1.000000
445648.58940323;5696574.73569878;470.47054984;222;228;213;57568.000000;1.000000;1.000000;1.000000;1.000000;-0.094301;0.094301;-0.094301;1.000000
445648.51590164;5696574.69819935;470.46674993;131;138;111;33924.000000;1.000000;1.000000;1.000000;1.000000;-0.076525;0.076525;-0.076525;1.000000
445648.72760208;5696574.75049885;470.49564983;210;211;203;53713.000000;1.000000;1.000000;1.000000;1.000000;-0.079618;0.079618;-0.079618;1.000000
445648.62020309;5696574.70969875;470.45994999;141;139;122;35209.000000;1.000000;1.000000;1.000000;1.000000;-0.120301;0.120301;-0.120301;1.000000
445648.54760178;5696574.63239868;470.45814993;82;81;63;20303.000000;1.000000;1.000000;1.000000;1.000000;-0.108225;0.108225;-0.108225;1.000000
445648.62240036;5696574.63469894;470.46155002;151;147;130;37522.000000;1.000000;1.000000;1.000000;1.000000;-0.183023;0.183023;-0.183023;1.000000
445648.86250122;5696574.69899948;470.45684983;57;56;47;14135.000000;1.000000;1.000000;1.000000;1.000000;-0.171461;0.171461;-0.171461;1.000000
445648.79689987;5696574.87549885;470.46295001;225;230;226;58596.000000;1.000000;1.000000;1.000000;1.000000;0.064009;-0.064009;0.064009;1.000000
445648.61840256;5696574.71679886;470.46234991;111;110;94;27756.000000;1.000000;1.000000;1.000000;1.000000;-0.113201;0.113201;-0.113201;1.000000
445648.72970016;5696574.72459896;470.50004985;89;91;82;22873.000000;1.000000;1.000000;1.000000;1.000000;-0.105424;0.105424;-0.105424;1.000000
445648.84180267;5696574.72889908;470.45855000;87;86;74;21588.000000;1.000000;1.000000;1.000000;1.000000;-0.135307;0.135307;-0.135307;1.000000
445648.74750336;5696574.78159912;470.48284986;66;61;57;15934.000000;1.000000;1.000000;1.000000;1.000000;-0.048401;0.048401;-0.048401;1.000000
445648.67460068;5696574.70199879;470.48094990;33;30;23;7710.000000;1.000000;1.000000;1.000000;1.000000;-0.128148;0.128148;-0.128148;1.000000
445648.80100067;5696575.01539906;470.45315005;87;83;68;21074.000000;1.000000;1.000000;1.000000;1.000000;-0.049124;0.049124;-0.049124;1.000000
445648.58120163;5696574.93239887;470.49114992;147;150;140;38036.000000;1.000000;1.000000;1.000000;1.000000;0.102399;-0.102399;0.102399;1.000000
445648.91850098;5696574.94609936;470.45295002;184;185;181;47288.000000;1.000000;1.000000;1.000000;1.000000;-0.178937;0.178937;-0.178937;1.000000
445648.58460052;5696574.89239891;470.48854997;152;152;142;38550.000000;1.000000;1.000000;1.000000;1.000000;0.062399;-0.062399;0.062399;1.000000
445648.51659973;5696574.74219902;470.49064996;80;99;63;22873.000000;1.000000;1.000000;1.000000;1.000000;-0.077223;0.077223;-0.077223;1.000000
445648.51830109;5696574.66779907;470.45484998;176;179;159;44975.000000;1.000000;1.000000;1.000000;1.000000;-0.078924;0.078924;-0.078924;1.000000
445648.59350021;5696574.67029961;470.45134999;153;151;128;38293.000000;1.000000;1.000000;1.000000;1.000000;-0.154123;0.154123;-0.154123;1.000000
445648.84309967;5696574.67249878;470.46965005;143;141;136;36237.000000;1.000000;1.000000;1.000000;1.000000;-0.182012;0.182012;-0.182012;1.000000
445648.70210083;5696574.67589958;470.49125006;133;132;122;33667.000000;1.000000;1.000000;1.000000;1.000000;-0.154100;0.154100;-0.154100;1.000000
445648.59460266;5696574.63279922;470.45324995;123;119;103;30326.000000;1.000000;1.000000;1.000000;1.000000;-0.155226;0.155226;-0.155226;1.000000
445648.55840118;5696574.59639938;470.45354988;166;162;144;41377.000000;1.000000;1.000000;1.000000;1.000000;-0.119024;0.119024;-0.119024;1.000000
445648.74330338;5696574.63939960;470.48805000;94;94;88;23901.000000;1.000000;1.000000;1.000000;1.000000;-0.190600;0.190600;-0.190600;1.000000
445648.95010193;5696574.81679924;470.46914985;172;174;169;44204.000000;1.000000;1.000000;1.000000;1.000000;-0.198664;0.198664;-0.198664;1.000000
445648.57400330;5696574.90499886;470.49055006;130;135;122;33924.000000;1.000000;1.000000;1.000000;1.000000;0.075017;-0.075017;0.075017;1.000000
445648.62740143;5696574.51499947;470.46735003;58;64;47;15420.000000;1.000000;1.000000;1.000000;1.000000;-0.188025;0.188025;-0.188025;1.000000
445648.78720291;5696574.87399872;470.46714999;232;236;231;60138.000000;1.000000;1.000000;1.000000;1.000000;0.056425;-0.056425;0.056425;1.000000
445648.72530182;5696574.81649883;470.47534992;61;62;55;15420.000000;1.000000;1.000000;1.000000;1.000000;-0.014288;0.014288;-0.014288;1.000000
445648.72640045;5696574.78119953;470.48195006;88;89;83;22616.000000;1.000000;1.000000;1.000000;1.000000;-0.049112;0.049112;-0.049112;1.000000
445648.76740082;5696574.74469955;470.48335006;148;147;138;37522.000000;1.000000;1.000000;1.000000;1.000000;-0.086702;0.086702;-0.086702;1.000000
445648.63610275;5696574.73829945;470.47735002;215;219;209;55512.000000;1.000000;1.000000;1.000000;1.000000;-0.091724;0.091724;-0.091724;1.000000
445648.68960007;5696574.80589874;470.46895005;60;58;52;14649.000000;1.000000;1.000000;1.000000;1.000000;-0.024101;0.024101;-0.024101;1.000000
445648.59270294;5696574.47599895;470.48155000;97;100;93;25186.000000;1.000000;1.000000;1.000000;1.000000;-0.157218;0.157218;-0.157218;1.000000
445648.59110077;5696574.50429924;470.47254993;61;68;56;16448.000000;1.000000;1.000000;1.000000;1.000000;-0.151869;0.151869;-0.151869;1.000000
445648.75570114;5696574.72459896;470.49424984;129;131;120;33153.000000;1.000000;1.000000;1.000000;1.000000;-0.105470;0.105470;-0.105470;1.000000
445648.62850006;5696574.50319870;470.46954991;52;58;42;13878.000000;1.000000;1.000000;1.000000;1.000000;-0.189284;0.189284;-0.189284;1.000000
445648.77029999;5696574.72579868;470.48324992;117;117;107;29555.000000;1.000000;1.000000;1.000000;1.000000;-0.105817;0.105817;-0.105817;1.000000
445648.52620132;5696574.46579941;470.48315002;109;115;110;28784.000000;1.000000;1.000000;1.000000;1.000000;-0.097760;0.097760;-0.097760;1.000000
445648.59870346;5696574.53179939;470.46385004;127;130;117;32639.000000;1.000000;1.000000;1.000000;1.000000;-0.159327;0.159327;-0.159327;1.000000
445648.51460083;5696574.55599888;470.46035006;69;68;56;16962.000000;1.000000;1.000000;1.000000;1.000000;-0.075224;0.075224;-0.075224;1.000000
445648.62600143;5696574.52449902;470.46505000;63;69;51;16705.000000;1.000000;1.000000;1.000000;1.000000;-0.186625;0.186625;-0.186625;1.000000
445648.51720245;5696574.71659954;470.47634985;120;131;103;31868.000000;1.000000;1.000000;1.000000;1.000000;-0.077826;0.077826;-0.077826;1.000000
445648.88730057;5696574.73869904;470.45374991;130;131;117;33153.000000;1.000000;1.000000;1.000000;1.000000;-0.163326;0.163326;-0.163326;1.000000
445648.52650269;5696574.49149902;470.47875001;82;86;81;21588.000000;1.000000;1.000000;1.000000;1.000000;-0.089243;0.089243;-0.089243;1.000000
445648.47660263;5696574.51689919;470.49775006;45;47;45;11822.000000;1.000000;1.000000;1.000000;1.000000;-0.037226;0.037226;-0.037226;1.000000
445648.75399979;5696575.01269920;470.45334985;122;118;105;30069.000000;1.000000;1.000000;1.000000;1.000000;-0.002123;0.002123;-0.002123;1.000000
445648.83300217;5696574.90499886;470.44864990;76;78;70;19532.000000;1.000000;1.000000;1.000000;1.000000;0.110481;-0.110481;0.110481;1.000000
445648.57629974;5696574.85569962;470.49234988;125;126;116;31868.000000;1.000000;1.000000;1.000000;1.000000;0.025700;-0.025700;0.025700;1.000000
445648.83620270;5696574.86729916;470.45534994;204;211;208;53456.000000;1.000000;1.000000;1.000000;1.000000;0.092207;-0.092207;0.092207;1.000000
445648.54120071;5696574.77959927;470.48985006;100;124;81;28784.000000;1.000000;1.000000;1.000000;1.000000;-0.050503;0.050503;-0.050503;1.000000
445648.68290146;5696574.99079903;470.48245003;53;45;36;11822.000000;1.000000;1.000000;1.000000;1.000000;0.071802;-0.071802;0.071802;1.000000
445648.94060333;5696575.00259884;470.44065001;126;127;118;32125.000000;1.000000;1.000000;1.000000;1.000000;-0.188940;0.188940;-0.188940;1.000000
445648.53420074;5696574.94859894;470.47755005;159;161;150;40863.000000;1.000000;1.000000;1.000000;1.000000;0.118604;-0.118604;0.118604;1.000000
445648.64430054;5696574.95239933;470.48024990;151;147;139;37779.000000;1.000000;1.000000;1.000000;1.000000;0.122398;-0.122398;0.122398;1.000000
445648.68220337;5696574.95589931;470.47735002;73;67;58;17219.000000;1.000000;1.000000;1.000000;1.000000;0.088730;-0.088730;0.088730;1.000000
445648.94410141;5696574.96489914;470.44034984;79;79;75;20046.000000;1.000000;1.000000;1.000000;1.000000;-0.197812;0.197812;-0.197812;1.000000
445648.83490189;5696574.92359932;470.44424989;134;133;119;33667.000000;1.000000;1.000000;1.000000;1.000000;-0.120910;0.120910;-0.120910;1.000000
445648.80870255;5696575.02399929;470.45595004;123;119;102;30326.000000;1.000000;1.000000;1.000000;1.000000;-0.056826;0.056826;-0.056826;1.000000
445648.92300232;5696574.99249943;470.44904997;133;132;124;33667.000000;1.000000;1.000000;1.000000;1.000000;-0.172168;0.172168;-0.172168;1.000000
445648.59130295;5696574.94079884;470.49175002;153;156;147;39578.000000;1.000000;1.000000;1.000000;1.000000;0.110799;-0.110799;0.110799;1.000000
445648.88650330;5696574.95379932;470.45164992;102;102;92;25700.000000;1.000000;1.000000;1.000000;1.000000;-0.146414;0.146414;-0.146414;1.000000
445648.92410095;5696574.95499905;470.44864990;160;162;157;41120.000000;1.000000;1.000000;1.000000;1.000000;-0.181229;0.181229;-0.181229;1.000000
445648.55510147;5696574.90439899;470.49195005;125;133;123;33153.000000;1.000000;1.000000;1.000000;1.000000;0.074399;-0.074399;0.074399;1.000000
445648.59040268;5696574.90359886;470.48654987;148;147;138;37522.000000;1.000000;1.000000;1.000000;1.000000;0.073599;-0.073599;0.073599;1.000000
445648.74760254;5696574.76049908;470.48735001;130;129;123;32896.000000;1.000000;1.000000;1.000000;1.000000;-0.069501;0.069501;-0.069501;1.000000
445648.61150177;5696574.87609871;470.47784998;125;123;113;31354.000000;1.000000;1.000000;1.000000;1.000000;0.046099;-0.046099;0.046099;1.000000
445648.60260208;5696574.64369877;470.45374991;120;115;97;29298.000000;1.000000;1.000000;1.000000;1.000000;-0.163225;0.163225;-0.163225;1.000000
445648.75130280;5696574.65039928;470.48844983;144;145;139;37008.000000;1.000000;1.000000;1.000000;1.000000;-0.179601;0.179601;-0.179601;1.000000
445648.71010025;5696574.75929935;470.48794987;197;199;192;50629.000000;1.000000;1.000000;1.000000;1.000000;-0.070701;0.070701;-0.070701;1.000000
445648.56980331;5696574.56729897;470.45134999;118;113;97;28784.000000;1.000000;1.000000;1.000000;1.000000;-0.130426;0.130426;-0.130426;1.000000
445648.60530289;5696574.57109936;470.45065000;147;140;122;35980.000000;1.000000;1.000000;1.000000;1.000000;-0.165926;0.165926;-0.165926;1.000000
445648.91580017;5696574.99309929;470.45344998;131;130;123;33153.000000;1.000000;1.000000;1.000000;1.000000;-0.164934;0.164934;-0.164934;1.000000
445648.80410202;5696574.94969948;470.45484998;131;128;108;32382.000000;1.000000;1.000000;1.000000;1.000000;-0.080752;0.080752;-0.080752;1.000000
445648.87970169;5696574.95439919;470.44904997;92;91;81;23130.000000;1.000000;1.000000;1.000000;1.000000;-0.139961;0.139961;-0.139961;1.000000
445648.88900192;5696574.73159893;470.45374991;142;143;128;36237.000000;1.000000;1.000000;1.000000;1.000000;-0.168778;0.168778;-0.168778;1.000000
445648.70440109;5696574.64769943;470.48634984;118;120;114;30326.000000;1.000000;1.000000;1.000000;1.000000;-0.182301;0.182301;-0.182301;1.000000
445648.74170120;5696574.64889915;470.49035003;116;117;110;29555.000000;1.000000;1.000000;1.000000;1.000000;-0.181101;0.181101;-0.181101;1.000000
445648.59460266;5696574.60709961;470.45065000;155;147;129;37779.000000;1.000000;1.000000;1.000000;1.000000;-0.155226;0.155226;-0.155226;1.000000
445648.56050308;5696574.56819923;470.45324995;118;115;98;29298.000000;1.000000;1.000000;1.000000;1.000000;-0.121126;0.121126;-0.121126;1.000000
445648.63319977;5696574.57079895;470.45424988;123;114;97;29298.000000;1.000000;1.000000;1.000000;1.000000;-0.193823;0.193823;-0.193823;1.000000
445648.60230072;5696574.45629890;470.48644998;111;113;108;28527.000000;1.000000;1.000000;1.000000;1.000000;-0.171754;0.171754;-0.171754;1.000000
445648.57120331;5696574.94969948;470.48854997;137;139;132;35209.000000;1.000000;1.000000;1.000000;1.000000;0.119783;-0.119783;0.119783;1.000000
445648.56840332;5696574.57679947;470.45144989;94;87;70;22359.000000;1.000000;1.000000;1.000000;1.000000;-0.129026;0.129026;-0.129026;1.000000
445648.71100052;5696574.76859959;470.48574998;138;138;131;35209.000000;1.000000;1.000000;1.000000;1.000000;-0.061400;0.061400;-0.061400;1.000000
445648.49279984;5696574.62109955;470.45554997;121;120;103;30326.000000;1.000000;1.000000;1.000000;1.000000;-0.053423;0.053423;-0.053423;1.000000
445648.55949982;5696574.55889900;470.45544984;138;136;121;34438.000000;1.000000;1.000000;1.000000;1.000000;-0.120123;0.120123;-0.120123;1.000000
445648.87660034;5696575.00809868;470.47274997;199;198;187;50629.000000;1.000000;1.000000;1.000000;1.000000;-0.124756;0.124756;-0.124756;1.000000
445648.54780014;5696574.88379868;470.50775005;168;173;163;43690.000000;1.000000;1.000000;1.000000;1.000000;0.053799;-0.053799;0.053799;1.000000
445648.77140244;5696574.85669907;470.47085001;89;95;86;23644.000000;1.000000;1.000000;1.000000;1.000000;0.033077;-0.033077;0.033077;1.000000
445648.62240036;5696574.81209953;470.46825006;51;55;41;13364.000000;1.000000;1.000000;1.000000;1.000000;-0.017900;0.017900;-0.017900;1.000000
445648.63310059;5696574.62659939;470.46884992;150;146;129;37265.000000;1.000000;1.000000;1.000000;1.000000;-0.193724;0.193724;-0.193724;1.000000
445648.48530014;5696574.54689892;470.46825006;53;52;45;13107.000000;1.000000;1.000000;1.000000;1.000000;-0.045923;0.045923;-0.045923;1.000000
445648.52029999;5696574.63959892;470.45464994;72;73;52;17990.000000;1.000000;1.000000;1.000000;1.000000;-0.080923;0.080923;-0.080923;1.000000
445648.58720215;5696575.24719913;470.49055006;97;96;85;24415.000000;1.000000;1.000000;1.000000;1.000000;0.082850;-0.082850;0.082850;1.000000
445648.95940216;5696575.30139931;470.48934986;148;148;138;37522.000000;1.000000;1.000000;1.000000;1.000000;-0.087341;0.087341;-0.087341;1.000000
445648.77120026;5696575.25529869;470.52454998;129;131;114;32896.000000;1.000000;1.000000;1.000000;1.000000;-0.019323;0.019323;-0.019323;1.000000
445648.81130035;5696575.25859936;470.52405002;97;100;77;24672.000000;1.000000;1.000000;1.000000;1.000000;-0.059423;0.059423;-0.059423;1.000000
445648.68610199;5696575.13959892;470.51234986;171;172;162;43690.000000;1.000000;1.000000;1.000000;1.000000;0.065775;-0.065775;0.065775;1.000000
445648.95840271;5696575.26419933;470.48654987;165;169;158;42662.000000;1.000000;1.000000;1.000000;1.000000;-0.104767;0.104767;-0.104767;1.000000
445648.87590225;5696575.44659908;470.51755001;151;150;142;38293.000000;1.000000;1.000000;1.000000;1.000000;0.116599;-0.116599;0.116599;1.000000
