x,y,z,nx,ny,nz,curvature,density
10.87714958190918,-0.3833026885986328,0.2292790412902832,-0.0,-0.0,-1.0,0.09416578750325752,1.0
11.025299072265625,-0.7219867706298828,0.2030022144317627,-0.0,-0.0,-1.0,0.19775441897192927,2.0
11.2206392288208,-0.7106523513793945,0.2061903476715088,-0.0,-0.0,-1.0,0.22620339838115225,2.0
9.777612686157227,-1.297403335571289,0.6981005072593689,-0.0,-0.0,-1.0,0.1490768069157226,1.0
9.957900047302246,-1.560049057006836,0.6828310489654541,-0.0,-0.0,-1.0,0.2284495911517096,1.0
9.76088809967041,-0.6796741485595703,0.29497653245925903,-0.0,-0.0,-1.0,0.1684110006668137,1.0
10.574505805969238,-2.031374931335449,0.24650192260742188,-0.0,-0.0,-1.0,0.08963387655113254,2.0
10.625603675842285,-0.40413665771484375,0.3410801291465759,-0.6975475102546518,-0.6645488167758613,-0.2679595884818071,0.09597562786453401,3.0
11.00581169128418,-0.9207391738891602,0.3243701457977295,0.5157909552538137,-0.5882055888176725,-0.6228754897746528,0.16831517094037765,3.0
10.895720481872559,-0.4520416259765625,0.3475719690322876,-0.8411898238111458,-0.03452941699675965,0.5396363587439574,0.14502889993294737,4.0
10.978750228881836,-0.7800464630126953,0.3316439986228943,0.22752790440807588,0.19290179075860986,-0.95447365172528,0.12198939515722147,4.0
11.6594820022583,-0.5541715621948242,0.3651907444000244,-0.0,-0.0,-1.0,0.20869403707749865,1.0
9.927899360656738,-1.0623178482055664,0.8305662870407104,-0.0,-0.0,-1.0,0.08738334609492021,1.0
9.95880126953125,-1.291900634765625,0.8247073888778687,-0.0576126186351615,0.24041147587842657,-0.9689598074429899,0.12326189771510389,3.0
9.839241027832031,-0.7137250900268555,0.16631770133972168,-0.0,-0.0,-1.0,0.2181863898214158,2.0
10.425219535827637,-1.9947586059570312,0.07312953472137451,-0.0,-0.0,-1.0,0.12088446791912477,1.0
10.509607315063477,-2.2086048126220703,0.05596363544464111,-0.0,-0.0,-1.0,0.16852064352948792,1.0
9.912481307983398,-0.628169059753418,0.17434048652648926,-0.0,-0.0,-1.0,0.2199001624041708,2.0
10.073585510253906,-0.6024541854858398,0.17956137657165527,-0.0,-0.0,-1.0,0.12521365083656738,2.0
10.540655136108398,-0.40878868103027344,0.20336461067199707,-0.0,-0.0,-1.0,0.10093751616994238,1.0
11.027321815490723,-0.6700382232666016,0.19003450870513916,-0.0,-0.0,-1.0,0.17549016333647907,1.0
11.153608322143555,-0.776153564453125,0.1829150915145874,-0.0,-0.0,-1.0,0.2351508245083001,2.0
9.823993682861328,-1.2663202285766602,0.6827328205108643,-0.40769002325429865,-0.30415236595505185,-0.8609762965511036,0.15013984074566553,3.0
10.336827278137207,-1.5829334259033203,0.6631802320480347,-0.10631039813483563,0.7471259173071089,-0.6561257218981926,0.2212748241190394,4.0
10.154404640197754,-0.9477014541625977,0.6976078748703003,-0.0,-0.0,-1.0,0.11211126121305526,1.0
10.241026878356934,-0.5809917449951172,-0.06408703327178955,-0.0,-0.0,-1.0,0.21573330895969983,1.0
11.152908325195312,-0.39636898040771484,-0.013509511947631836,-0.0,-0.0,-1.0,0.1545340805557279,2.0
11.3608980178833,-0.3746337890625,-0.004194378852844238,-0.0,-0.0,-1.0,0.10404340681063473,2.0
10.158251762390137,-0.9616899490356445,0.4477529525756836,-0.0,-0.0,-1.0,0.1934961797830053,2.0
10.898923873901367,-0.4958944320678711,0.48502397537231445,-0.47051364969489134,0.21377549853304517,-0.8561056837083498,0.29884786637350363,4.0
10.941496849060059,-0.7383613586425781,0.4720315933227539,-0.0787044458105216,-0.8571966879017567,-0.5089395332059761,0.1416802968696879,5.0
10.290828704833984,-0.7482967376708984,0.9965656995773315,0.36388262529403914,-0.2320834997012267,-0.9020680041856871,0.1314012810186182,3.0
10.305854797363281,-1.6739234924316406,0.3589925765991211,-0.0,-0.0,-1.0,0.1827523953715128,2.0
10.757322311401367,-0.4039163589477539,0.4174751043319702,-0.40092567294581644,-0.8013485186207966,-0.443958507607635,0.12602001856827222,3.0
10.943512916564941,-0.6392078399658203,0.420202374458313,0.42367649570636734,-0.8434891516726101,0.33018824630291227,0.09438726839000405,7.0
10.18814468383789,-1.8918914794921875,0.10830140113830566,-0.0,-0.0,-1.0,0.2888295681295486,1.0
11.178257942199707,-2.273641586303711,0.18516576290130615,-0.0,-0.0,-1.0,0.13439181518166127,2.0
11.273847579956055,-2.3388185501098633,0.1915823221206665,-0.0,-0.0,-1.0,0.10269063094139018,2.0
10.333078384399414,-1.6687793731689453,0.12332439422607422,-0.0,-0.0,-1.0,0.17526859283510696,1.0
9.833958625793457,-0.736485481262207,0.08509647846221924,-0.0,-0.0,-1.0,0.144461648916554,1.0
10.976981163024902,-0.522730827331543,0.1909642219543457,-0.22614751782211198,-0.5087949362727375,-0.8306533651326035,0.14249738861131636,4.0
9.735878944396973,-1.2232599258422852,0.6664276123046875,-0.0,-0.0,-1.0,0.11517298295194948,1.0
10.277345657348633,-0.8154773712158203,0.6946451663970947,-0.0,-0.0,-1.0,0.13632877006394156,1.0
10.363052368164062,-1.1478347778320312,0.6375048160552979,-0.0,-0.0,-1.0,0.16121201628002918,1.0
10.145416259765625,-2.2621617317199707,0.09433603286743164,-0.0,-0.0,-1.0,0.15805682696477585,1.0
10.975870132446289,-0.42724132537841797,0.17852628231048584,-0.27962157995033443,0.7453496432651676,-0.6051988774862078,0.21479053845391824,3.0
10.80154037475586,-0.37746191024780273,0.3548048734664917,-0.0,-0.0,-1.0,0.11165505665080326,2.0
10.389423370361328,-1.848880648612976,0.18123137950897217,-0.0,-0.0,-1.0,0.23180947135979182,2.0
11.518739700317383,-2.0830578804016113,0.26805710792541504,-0.0,-0.0,-1.0,0.17339934057952294,1.0
10.529556274414062,-2.077867031097412,0.22252368927001953,-0.0,-0.0,-1.0,0.0860588051403312,1.0
10.249431610107422,-0.9509704113006592,0.5793339610099792,-0.0,-0.0,-1.0,0.08203545501798135,1.0
10.469409942626953,-1.8058300018310547,0.7309242486953735,-0.0,-0.0,-1.0,0.1884244025933199,1.0
10.059324264526367,-1.494570016860962,0.34299707412719727,-0.0,-0.0,-1.0,0.21105026474740385,2.0
10.445941925048828,-1.799826741218567,0.35722655057907104,0.5356985704156892,-0.6148556255466545,-0.5787742231546071,0.1584347462959891,4.0
10.135467529296875,-1.3994426727294922,0.894766628742218,-0.0,-0.0,-1.0,0.1452870927310484,1.0
10.442251205444336,-0.6698458194732666,0.9878765344619751,-0.0,-0.0,-1.0,0.11795643930019097,1.0
10.021570205688477,-1.3742802143096924,0.3384515047073364,-0.0,-0.0,-1.0,0.2346703819087909,2.0
10.653068542480469,-1.873199701309204,0.35962212085723877,-0.0,-0.0,-1.0,0.1310616137155385,2.0
10.431081771850586,-1.6697309017181396,0.3523707389831543,-0.0,-0.0,-1.0,0.20482713217080406,2.0
10.05742073059082,-1.73735511302948,0.3384300470352173,-0.0,-0.0,-1.0,0.16611135704914626,1.0
9.87108039855957,-1.0542056560516357,0.20958590507507324,-0.0,-0.0,-1.0,0.14692344758302983,1.0
9.98603630065918,-1.2486236095428467,0.20947647094726562,-0.0,-0.0,-1.0,0.1332697372412261,2.0
9.887454986572266,-1.143479824066162,0.8165765404701233,-0.0,-0.0,-1.0,0.22401260530460282,1.0
10.42628288269043,-1.6441960334777832,0.8050597310066223,-0.0,-0.0,-1.0,0.07839716202729478,2.0
10.038091659545898,-1.340433120727539,0.8107197284698486,-0.0,-0.0,-1.0,0.10283069718107807,2.0
10.433345794677734,-1.819469928741455,0.7970133423805237,-0.15764273871844184,0.7299478645226661,-0.665075095014201,0.13602717990542465,3.0
9.844938278198242,-0.5937628746032715,0.5953249931335449,-0.0,-0.0,-1.0,0.19618792743111801,1.0
10.392524719238281,-1.5370938777923584,0.5970126390457153,-0.0,-0.0,-1.0,0.19619538575169812,2.0
10.507036209106445,-1.896071195602417,0.5947834849357605,-0.0,-0.0,-1.0,0.1986182448410385,2.0
9.971124649047852,-1.327287197113037,0.26404130458831787,-0.0,-0.0,-1.0,0.21471564560931858,2.0
10.336498260498047,-1.7519121170043945,0.2706356644630432,0.09574294237445775,0.1357002486195964,-0.9861129405448754,0.15055051701191396,3.0
9.989225387573242,-1.2779736518859863,0.2688354253768921,-0.08317121153234562,-0.2473885123160613,-0.9653400818086275,0.20891861451617652,3.0
9.894546508789062,-1.4308068752288818,0.26045548915863037,-0.0,-0.0,-1.0,0.17397938592705134,1.0
10.424507141113281,-1.754260778427124,0.2764226198196411,0.11321583252395173,0.9898342077551459,-0.08608377561219804,0.16861564965400677,5.0
9.787263870239258,-1.6923904418945312,0.7991858720779419,-0.0,-0.0,-1.0,0.12012903005182819,1.0
10.047399520874023,-1.322676658630371,0.8585907220840454,0.01241879556493753,-0.28064624652999565,-0.959730929909702,0.11022861231691605,4.0
9.817110061645508,-1.8585166931152344,0.8193084001541138,-0.5149238983242245,0.7081050934522315,-0.4831568643428243,0.11373123160737805,7.0
10.35714340209961,-1.0737547874450684,0.995031476020813,-0.0,-0.0,-1.0,0.15302955907977198,1.0
10.174875259399414,-1.1102256774902344,0.9964092969894409,-0.0,-0.0,-1.0,0.05289172162760261,1.0
10.33696174621582,-1.2976083755493164,1.0071078538894653,-0.0,-0.0,-1.0,0.07938551097505425,1.0
10.136201858520508,-2.297632932662964,0.7516530752182007,-0.0,-0.0,-1.0,0.11766759942929758,1.0
11.036102294921875,-1.7351584434509277,0.0896385908126831,-0.0,-0.0,-1.0,0.15551320134729574,1.0
10.399765014648438,-1.8089118003845215,0.8165609836578369,-0.15764273871844184,0.7299478645226661,-0.665075095014201,0.11544604226621205,3.0
11.112592697143555,-1.6727356910705566,0.2728953957557678,-0.0,-0.0,-1.0,0.1386222341324227,1.0
10.405845642089844,-1.6951260566711426,0.9985923767089844,-0.9690630132313759,0.08791787651847677,-0.2306237701873076,0.11507139730521466,3.0
10.449203491210938,-1.9062440395355225,0.8045082092285156,0.3623246481598362,0.12014605624375276,-0.9242758108405326,0.14423397418777595,4.0
10.007375717163086,-1.4574306011199951,0.7819701433181763,-0.0,-0.0,-1.0,0.1182518369504774,2.0
11.281610488891602,-2.3196210861206055,0.23466622829437256,0.041707894527503155,0.9099033141065521,-0.4127183186048267,0.06672263084630187,4.0
10.316246032714844,-0.847567081451416,0.8600019216537476,0.5808263629339042,-0.13047525963668324,-0.8035029201836872,0.12784243023599973,4.0
10.10494613647461,-0.9421055316925049,0.8562231659889221,-0.0,-0.0,-1.0,0.133527272765365,2.0
10.063961029052734,-1.4349982738494873,0.8579373955726624,-0.0,-0.0,-1.0,0.10709474787684338,2.0
9.875070571899414,-1.2652435302734375,0.8532626628875732,-0.0,-0.0,-1.0,0.15332221620916317,1.0
11.05551528930664,-1.6294183731079102,0.20499229431152344,-0.0,-0.0,-1.0,0.14707222354059968,2.0
10.431005477905273,-1.7805390357971191,0.18884211778640747,-0.6033736270456782,-0.33071317125379696,-0.7256507869113074,0.23505250578699563,5.0
9.94257926940918,-1.3869976997375488,0.1368119716644287,0.317563961594667,0.8636674931934849,-0.3914480699878108,0.171450883183442,3.0
10.022041320800781,-1.9649831056594849,0.18471640348434448,-0.0,-0.0,-1.0,0.17088719301971383,1.0
10.211381912231445,-0.8758668899536133,0.7694514989852905,-0.0,-0.0,-1.0,0.13892333882415162,2.0
9.811979293823242,-1.8892338275909424,0.839321494102478,-0.8734446444255708,-0.041144979453191295,-0.48518196977019407,0.1122626959425671,6.0
10.358903884887695,-0.8469312191009521,0.44165289402008057,-0.0,-0.0,-1.0,0.27892602150128554,2.0
10.560752868652344,-1.9037057161331177,0.548812210559845,-0.0,-0.0,-1.0,0.14365276312857625,2.0
10.451934814453125,-1.6518819332122803,0.5218216180801392,-0.0,-0.0,-1.0,0.16430065998338175,2.0
10.058145523071289,-1.3412586450576782,0.4798879623413086,-0.0,-0.0,-1.0,0.1305297535449259,2.0
9.991600036621094,-1.740452527999878,0.5154515504837036,-0.0,-0.0,-1.0,0.2398922223604625,1.0
10.700448989868164,-1.8287602663040161,0.4068206548690796,-0.0,-0.0,-1.0,0.20046656846380537,1.0
10.417991638183594,-1.5158538818359375,0.3718700408935547,-0.0,-0.0,-1.0,0.16936367442985661,1.0
9.947233200073242,-1.118764877319336,0.32167577743530273,-0.0,-0.0,-1.0,0.1958903723087257,1.0
9.991935729980469,-2.0431344509124756,0.3902933597564697,-0.0,-0.0,-1.0,0.1803833980413918,1.0
9.898153305053711,-1.3320603370666504,0.33540165424346924,-0.0,-0.0,-1.0,0.196242612177311,1.0
10.434286117553711,-1.5288811922073364,0.9804559946060181,-0.0,-0.0,-1.0,0.16274692411219502,1.0
9.994317054748535,-0.6196460723876953,0.16553735733032227,-0.0,-0.0,-1.0,0.17795653009096601,2.0
11.174324989318848,-0.6788558959960938,0.04786884784698486,-0.0,-0.0,-1.0,0.1631925301018561,2.0
11.096256256103516,-0.8916854858398438,0.03991222381591797,-0.0,-0.0,-1.0,0.11744875045274464,1.0
10.323614120483398,-0.8833808898925781,0.6119341254234314,-0.0,-0.0,-1.0,0.16044639947495204,2.0
11.216416358947754,-0.7859477996826172,0.15937364101409912,-0.0,-0.0,-1.0,0.2344039095528797,2.0
9.851408958435059,-2.0767860412597656,0.054517269134521484,-0.0,-0.0,-1.0,0.1525079035758728,1.0
10.934082984924316,-0.45764923095703125,0.443692684173584,-0.6922415313056787,0.27887511737322307,-0.66560523679253,0.11164901964757268,5.0
10.987955093383789,-0.7005119323730469,0.4423074722290039,-0.8304598997732401,-0.25958274788550356,-0.49290278135635557,0.2067926080999107,4.0
10.496725082397461,-1.7155990600585938,0.40415072441101074,-0.0,-0.0,-1.0,0.14421757697894108,1.0
11.003450393676758,-0.5984716415405273,0.5114099979400635,-0.0,-0.0,-1.0,0.19013456306400975,1.0
10.85789680480957,-0.44499683380126953,0.5046855211257935,-0.5685046353523908,-0.001513293518610394,0.822678667236225,0.23326917341613176,7.0
11.288002967834473,-0.37179088592529297,0.01120913028717041,-0.0,-0.0,-1.0,0.1279197281423902,1.0
10.653382301330566,-1.9396276473999023,0.6812111735343933,-0.0,-0.0,-1.0,0.10274532286910572,2.0
10.478536605834961,-1.8000593185424805,0.6746227145195007,-0.2653700071401892,0.9010428138280223,-0.3430752205556324,0.15242807966417057,3.0
10.962043762207031,-0.48833656311035156,0.5325450897216797,-0.7732422337711742,-0.1373385229442286,-0.6190594301261086,0.18273770453062346,3.0
10.72006607055664,-0.7088031768798828,0.5249962210655212,-0.0,-0.0,-1.0,0.12248752442283192,1.0
11.466348648071289,-0.9024238586425781,0.5135091543197632,-0.0,-0.0,-1.0,0.1085594180444149,1.0
11.164512634277344,-0.8239669799804688,0.5182212591171265,-0.15308466349599759,-0.8913746870823895,0.4266336285750216,0.11445792653849372,3.0
10.424060821533203,-0.9711456298828125,0.516013503074646,-0.0,-0.0,-1.0,0.13682797271460337,1.0
11.597603797912598,-0.9568157196044922,0.5106285810470581,-0.0,-0.0,-1.0,0.16710875985089538,2.0
9.761489868164062,-1.6492118835449219,0.49219316244125366,-0.0,-0.0,-1.0,0.11940853129526348,1.0
10.956573486328125,-0.47640419006347656,0.4105048179626465,-0.40258408549283103,0.1580692504362465,-0.9016319460702487,0.11737766738704486,6.0
11.076569557189941,-0.7061042785644531,0.3902919292449951,-0.0,-0.0,-1.0,0.215831689658734,1.0
10.655675888061523,-0.7413806915283203,0.4122236967086792,-0.0,-0.0,-1.0,0.2271215423653236,1.0
10.325765609741211,-0.9591007232666016,0.418414831161499,-0.717939628969692,-0.6897160190756376,-0.0940983644136076,0.16447921320051972,4.0
10.37601375579834,-0.9526138305664062,0.5941855907440186,-0.0,-0.0,-1.0,0.1232990034162664,1.0
10.043027877807617,-1.2446975708007812,0.6105843782424927,-0.7732019162005523,0.6307476785415003,-0.06569750983334183,0.18206680480753604,3.0
9.840347290039062,-1.5143795013427734,0.6153945922851562,-0.0,-0.0,-1.0,0.20265245992728295,2.0
10.55435562133789,-1.6375484466552734,0.5379084348678589,-0.0,-0.0,-1.0,0.18411245024389936,1.0
9.968929290771484,-0.7971057891845703,0.3905141353607178,-0.0,-0.0,-1.0,0.1999656938436857,2.0
11.02908706665039,-0.40776824951171875,0.3031553030014038,-0.0,-0.0,-1.0,0.18671876720915806,1.0
10.725635528564453,-0.4799613952636719,0.33116161823272705,-0.0,-0.0,-1.0,0.1672852619076827,2.0
10.033208847045898,-1.4544544219970703,0.3348534107208252,-0.6605005962770927,-0.7488582445888796,-0.05431658889203693,0.16722845736805433,5.0
11.243159294128418,-0.844482421875,0.24717438220977783,-0.0,-0.0,-1.0,0.12797860340564643,1.0
10.239959716796875,-1.4475822448730469,0.3127385377883911,-0.0,-0.0,-1.0,0.16960361404861196,1.0
11.483621597290039,-0.7629165649414062,0.22667145729064941,-0.0,-0.0,-1.0,0.21735063862264478,1.0
11.632823944091797,-1.5988311767578125,0.1480926275253296,-0.0,-0.0,-1.0,0.17835861494964425,1.0
11.457040786743164,-1.653726577758789,0.16347944736480713,-0.0,-0.0,-1.0,0.1473373936261583,1.0
10.72697925567627,-0.44617462158203125,0.004548072814941406,-0.0,-0.0,-1.0,0.08070548611491235,1.0
11.153120040893555,-0.4930686950683594,-0.03866219520568848,-0.0,-0.0,-1.0,0.11843602972219312,2.0
11.222805976867676,-0.6486549377441406,-0.05896711349487305,-0.0,-0.0,-1.0,0.09731380675938041,2.0
11.650299072265625,-0.5060863494873047,-0.0860666036605835,-0.0,-0.0,-1.0,0.15347006033981417,1.0
11.424076080322266,-0.7775363922119141,-0.08915543556213379,-0.0,-0.0,-1.0,0.04000036414445918,1.0
10.436345100402832,-0.9635982513427734,0.6302106380462646,-0.0,-0.0,-1.0,0.17769489672979683,1.0
9.870813369750977,-1.7830142974853516,0.6405546069145203,-0.0,-0.0,-1.0,0.13549994642768431,2.0
10.651344299316406,-0.5159683227539062,-0.014861583709716797,-0.0,-0.0,-1.0,0.19511321876721746,1.0
10.961349487304688,-0.4856433868408203,-0.02325451374053955,-0.0,-0.0,-1.0,0.21432732395106005,2.0
11.593647956848145,-0.463226318359375,-0.044838666915893555,-0.0,-0.0,-1.0,0.16361766616245035,1.0
11.28696346282959,-0.7112808227539062,-0.05367755889892578,-0.0,-0.0,-1.0,0.11484824031374916,1.0
9.837287902832031,-1.5102119445800781,0.5732595920562744,-0.0,-0.0,-1.0,0.21137603606903857,2.0
10.333434104919434,-0.9945011138916016,0.5780661106109619,0.07073003905754519,-0.9186586146914874,-0.388669025300493,0.1592821825031458,3.0
9.947404861450195,-2.217672348022461,0.5355737805366516,-0.0,-0.0,-1.0,0.13936330369400804,1.0
9.856781005859375,-1.6018953323364258,0.22084581851959229,-0.0,-0.0,-1.0,0.20265370386817128,1.0
10.609552383422852,-0.4253664016723633,0.27633124589920044,-0.04640123735364126,0.15808543522409194,-0.9863345884344017,0.11100968341019146,3.0
10.376272201538086,-0.740015983581543,0.26254385709762573,-0.0,-0.0,-1.0,0.135769711003555,1.0
10.245121002197266,-0.9464216232299805,0.2527925372123718,-0.0,-0.0,-1.0,0.20990198067821017,2.0
10.040437698364258,-1.341017723083496,0.23271441459655762,-0.0,-0.0,-1.0,0.2329370430883972,2.0
10.927900314331055,-0.4332427978515625,0.2657960057258606,-0.657947741322067,-0.5615740243694105,-0.5017363698624362,0.14289546681387097,3.0
11.09343433380127,-0.7490415573120117,0.23937344551086426,-0.0,-0.0,-1.0,0.20166090284814306,1.0
11.095709800720215,-1.6643400192260742,0.17803919315338135,-0.0,-0.0,-1.0,0.20896212147326024,2.0
11.688867568969727,-0.7285242080688477,0.22077739238739014,-0.0,-0.0,-1.0,0.14898123959508572,2.0
11.249561309814453,-1.611973762512207,0.17642521858215332,-0.0,-0.0,-1.0,0.12571026217437326,1.0
10.456003189086914,-0.4228200912475586,0.04086315631866455,-0.0,-0.0,-1.0,0.08556957349902444,1.0
11.000921249389648,-0.49721813201904297,-0.035080671310424805,0.30224316468829693,0.9497129306890958,0.08181942728430634,0.14469798999458583,3.0
10.346431732177734,-1.735518455505371,0.5020374059677124,-0.0,-0.0,-1.0,0.22274669212842527,1.0
10.825968742370605,-0.4088172912597656,0.5374112129211426,0.21673719822037782,0.970942565155661,-0.10146685210710636,0.14590277276703548,4.0
10.866582870483398,-0.4789714813232422,0.5269038677215576,-0.17626995822969055,-0.5699212135516694,-0.8025700668287447,0.15727627617659734,3.0
10.988007545471191,-0.699406623840332,0.49458539485931396,0.3820953428752713,-0.15019990717091616,-0.9118350381724082,0.16709504932390876,3.0
10.22641372680664,-0.8553934097290039,0.05827319622039795,-0.0,-0.0,-1.0,0.23760891859404185,1.0
10.237871170043945,-1.7997474670410156,0.5427536964416504,-0.0,-0.0,-1.0,0.21011205500451283,1.0
10.492171287536621,-0.3934059143066406,0.08070230484008789,-0.0,-0.0,-1.0,0.08169219925909765,1.0
10.877693176269531,-0.39159488677978516,0.045569777488708496,-0.6679678395441877,0.701034846384827,0.2497380817754326,0.07235539686805033,4.0
11.119466781616211,-0.6770534515380859,-0.006177544593811035,-0.0,-0.0,-1.0,0.09536690041437938,2.0
11.24743938446045,-0.7018899917602539,-0.021145343780517578,-0.0,-0.0,-1.0,0.1584249672987234,1.0
10.085790634155273,-0.9789466857910156,0.610724925994873,-0.0,-0.0,-1.0,0.038697692018425864,1.0
11.20064926147461,-0.8339195251464844,0.5103937387466431,-0.15308466349599759,-0.8913746870823895,0.4266336285750216,0.09845329596892628,3.0
11.305632591247559,-0.8460979461669922,0.49875593185424805,-0.0,-0.0,-1.0,0.10149072963492357,2.0
9.716642379760742,-1.4132108688354492,0.19928395748138428,-0.0,-0.0,-1.0,0.14511001374413715,1.0
9.768172264099121,-0.73614501953125,0.2546728849411011,-0.0,-0.0,-1.0,0.18120933922813712,1.0
10.075244903564453,-1.0093774795532227,0.21194100379943848,-0.0,-0.0,-1.0,0.15506139950939185,1.0
11.054096221923828,-1.3718338012695312,0.11222195625305176,-0.0,-0.0,-1.0,0.1074602734843085,1.0
9.937772750854492,-0.6118564605712891,0.2550846338272095,-0.0,-0.0,-1.0,0.19326387141977625,1.0
10.262763977050781,-0.4842519760131836,0.2457292079925537,-0.0,-0.0,-1.0,0.12674308224452002,1.0
10.860219955444336,-0.4525642395019531,0.20831024646759033,-0.0,-0.0,-1.0,0.1161709056887239,1.0
10.973555564880371,-0.7067642211914062,0.1776062250137329,-0.0,-0.0,-1.0,0.24150763769268266,1.0
11.377191543579102,-0.9748249053955078,0.12341034412384033,-0.0,-0.0,-1.0,0.13075674055115802,1.0
11.695597648620605,-0.5443696975708008,0.13739705085754395,-0.0,-0.0,-1.0,0.19173646966844723,1.0
10.234450340270996,-1.8985395431518555,0.6980140209197998,-0.0,-0.0,-1.0,0.12253726812055508,1.0
9.763938903808594,-1.3899459838867188,0.17570900917053223,-0.0,-0.0,-1.0,0.18383986232233857,1.0
9.926322937011719,-1.3346920013427734,0.17786669731140137,-0.0,-0.0,-1.0,0.13837172028671074,2.0
9.858799934387207,-0.650965690612793,0.231408953666687,-0.0,-0.0,-1.0,0.23942852708141293,2.0
10.131318092346191,-1.029897689819336,0.1986597776412964,-0.0,-0.0,-1.0,0.21755196581527836,1.0
11.025429725646973,-1.824533462524414,0.12125587463378906,-0.0,-0.0,-1.0,0.2056827915658676,1.0
10.087732315063477,-0.5187559127807617,0.23878061771392822,-0.0,-0.0,-1.0,0.07872545481433793,1.0
11.213083267211914,-1.6001319885253906,0.13517558574676514,-0.0,-0.0,-1.0,0.1503422871489024,2.0
11.139862060546875,-1.8224401473999023,0.1191028356552124,-0.0,-0.0,-1.0,0.12405625636791592,1.0
10.99905776977539,-0.6179609298706055,0.21684777736663818,-0.0,-0.0,-1.0,0.15131661115694375,2.0
11.37334156036377,-1.495570182800293,0.14010322093963623,-0.0,-0.0,-1.0,0.08286879880369319,1.0
11.202008247375488,-0.6603946685791016,0.20970988273620605,-0.0,-0.0,-1.0,0.24911659724885343,1.0
11.596583366394043,-0.649139404296875,0.2024620771408081,-0.0,-0.0,-1.0,0.24935945232676374,1.0
9.957021713256836,-1.1928586959838867,0.7379565238952637,-0.0,-0.0,-1.0,0.18070789240512486,2.0
10.30249309539795,-1.7824106216430664,0.7037368416786194,-0.0,-0.0,-1.0,0.15383258827875643,1.0
10.372444152832031,-0.7505626678466797,-0.04567360877990723,-0.0,-0.0,-1.0,0.1055874271982608,1.0
11.157085418701172,-0.4847068786621094,-0.02322256565093994,-0.0,-0.0,-1.0,0.16230828432125652,2.0
9.710430145263672,-1.9678869247436523,0.41219663619995117,-0.8592059630745795,0.5077291118035135,0.06305760893262692,0.1480252375743999,3.0
9.97878360748291,-1.404789924621582,0.4407237768173218,-0.0,-0.0,-1.0,0.22738311608168393,1.0
10.690214157104492,-2.086958885192871,0.39391517639160156,-0.0,-0.0,-1.0,0.1556577652158731,1.0
10.257376670837402,-0.9449787139892578,0.4634326696395874,0.43168001936400374,-0.495581600933931,-0.7536917391730229,0.2220354469186564,4.0
10.67406177520752,-0.5325479507446289,0.4819200038909912,-0.0,-0.0,-1.0,0.1371267121235843,1.0
10.96645450592041,-0.7651691436767578,0.46502721309661865,-0.8050934201531381,-0.3299109255326746,0.4929334296234098,0.2102374938204442,8.0
10.814014434814453,-0.4258556365966797,0.4862079620361328,-0.5830672480686865,0.5563022679744885,-0.5920813887262872,0.15242935240390973,6.0
10.907485961914062,-0.5376319885253906,0.4787198305130005,-0.7008975109336127,-0.316459636626682,0.6392151261924067,0.19324592991203535,5.0
10.339555740356445,-1.7072687149047852,0.969158411026001,-0.0,-0.0,-1.0,0.10440689019410551,2.0
10.294973373413086,-0.7249774932861328,0.9922380447387695,-0.31296188406405917,0.4628163123334847,-0.8293707977503844,0.12238275281158624,4.0
9.913285255432129,-1.3934011459350586,0.3223731517791748,-0.0,-0.0,-1.0,0.27181020835732134,2.0
10.564706802368164,-0.4922027587890625,0.37777405977249146,0.045135519983028095,0.9846442420496572,-0.16863718876427577,0.1307540652497372,4.0
11.036028861999512,-0.9113559722900391,0.34053146839141846,0.5157909552538137,-0.5882055888176725,-0.6228754897746528,0.149350055665219,3.0
10.83934497833252,-0.40844058990478516,0.37988436222076416,-0.1443146046596809,-0.9873004538317954,-0.06641617834120504,0.17121152644219614,3.0
10.989830017089844,-0.624995231628418,0.3620213270187378,-0.9582626868212218,0.23681459742325334,-0.1601607614037695,0.0758847413131279,5.0
10.390230178833008,-1.7397375106811523,0.8329369425773621,-0.0,-0.0,-1.0,0.08882107946195401,2.0
9.768489837646484,-1.4399385452270508,0.3078492283821106,-0.0,-0.0,-1.0,0.16864302997320416,1.0
10.605623245239258,-1.9518585205078125,0.25661635398864746,-0.0,-0.0,-1.0,0.09453307594704105,2.0
9.9213228225708,-1.2735233306884766,0.3189561367034912,-0.0,-0.0,-1.0,0.23332539960026083,1.0
10.859869003295898,-1.712864875793457,0.2712576985359192,-0.0,-0.0,-1.0,0.1131295015826395,1.0
10.6003999710083,-0.4456491470336914,0.3748306632041931,-0.0,-0.0,-1.0,0.10084052019602283,2.0
11.019521713256836,-0.8041963577270508,0.34092873334884644,-0.35879069164530314,-0.8546053531999129,0.3753917019204574,0.14387391069666353,8.0
10.976314544677734,-0.5547037124633789,0.36129242181777954,0.23969762631253086,-0.1036277482715578,-0.9653011642634153,0.08784005502129001,5.0
10.44352912902832,-1.909480094909668,0.8017091155052185,0.3623246481598362,0.12014605624375276,-0.9242758108405326,0.144233974187776,4.0
10.580642700195312,-2.3046531677246094,0.05085015296936035,-0.0,-0.0,-1.0,0.16473091403008688,1.0
10.990547180175781,-1.782358169555664,0.0962296724319458,-0.0,-0.0,-1.0,0.2047321870883229,1.0
11.009950637817383,-0.5536088943481445,0.2082451581954956,0.18986027023974708,-0.043793768847099686,-0.9808339225346241,0.109333663950488,5.0
11.105810165405273,-0.8183622360229492,0.1839691400527954,-0.0,-0.0,-1.0,0.19902625787244116,2.0
9.80687427520752,-1.2278261184692383,0.6772406101226807,-0.40769002325429865,-0.30415236595505185,-0.8609762965511036,0.1271427231296592,3.0
10.308025360107422,-1.6077146530151367,0.6455038785934448,-0.0,-0.0,-1.0,0.20067034426878524,2.0
10.0364408493042,-1.1634883880615234,0.6768940091133118,-0.0,-0.0,-1.0,0.1683588428864632,1.0
10.253291130065918,-0.6748008728027344,-0.06882977485656738,-0.0,-0.0,-1.0,0.08835221115329123,1.0
10.458115577697754,-1.8032102584838867,0.3565356135368347,-0.10044234553148337,-0.16088415709950057,-0.9818490837285112,0.15843474629598922,3.0
10.11590576171875,-0.7949609756469727,0.42612236738204956,-0.0,-0.0,-1.0,0.17993982781681112,1.0
10.830384254455566,-0.4406394958496094,0.4530789852142334,-0.7367966961835118,0.660944188020797,-0.1424198329397679,0.24229739834649244,6.0
10.973104476928711,-0.7035198211669922,0.43486905097961426,-0.8220422242963874,0.5099317813292318,0.25340907612838975,0.12589791849156298,5.0
9.95592212677002,-0.7309207916259766,-0.024591684341430664,-0.0,-0.0,-1.0,0.13729282212287586,1.0
10.039016723632812,-0.640080451965332,-0.01358485221862793,-0.0,-0.0,-1.0,0.1819225839069538,1.0
10.870651245117188,-0.40845203399658203,0.040361881256103516,-0.6679678395441877,0.701034846384827,0.2497380817754326,0.07897898434952423,4.0
11.101262092590332,-0.6216163635253906,0.03125286102294922,-0.0,-0.0,-1.0,0.13666005823727867,2.0
11.17892074584961,-0.884760856628418,0.01132822036743164,-0.0,-0.0,-1.0,0.13293351602552272,1.0
11.247187614440918,-0.5698108673095703,0.04119992256164551,-0.0,-0.0,-1.0,0.2290727422234286,1.0
9.840522766113281,-0.5652990341186523,0.4963434338569641,-0.0,-0.0,-1.0,0.17616431119958822,1.0
10.917898178100586,-0.4372749328613281,0.5243359208106995,0.1213457095913186,0.6999468014461309,-0.7038108367374788,0.16804631706779743,6.0
11.021965026855469,-0.7084140777587891,0.5102986693382263,-0.0,-0.0,-1.0,0.19262010696864468,2.0
11.395636558532715,-0.8753490447998047,0.505541980266571,-0.0,-0.0,-1.0,0.11893569896073553,2.0
10.400887489318848,-1.6455926895141602,0.9725160598754883,-0.7747393019923983,-0.627737080685052,0.0756648629242152,0.14857643977826013,5.0
10.318599700927734,-0.7231416702270508,1.0012962818145752,0.36388262529403914,-0.2320834997012267,-0.9020680041856871,0.12238275281158632,3.0
10.444698333740234,-1.7723722457885742,0.3180333375930786,0.8594560966433789,0.02832545991832958,-0.5104242218615241,0.15621187644103157,6.0
10.53056526184082,-0.4476509094238281,0.39667582511901855,0.5536811375012435,-0.09283102041295209,-0.8275382768334159,0.06715549556610677,4.0
11.015632629394531,-0.7918729782104492,0.3914529085159302,-0.17961696448066464,0.3121028240443005,-0.9329145584105353,0.1507640027710444,9.0
10.970422744750977,-0.5249776840209961,0.4055759310722351,-0.7529186999392224,-0.6134904322072555,-0.2382077263062339,0.09781386647268296,9.0
10.324227333068848,-0.7224283218383789,0.8856102228164673,-0.5535088652605465,0.8260006283851424,-0.1065405931339397,0.11795643930019097,5.0
10.071551322937012,-0.6171026229858398,0.41951441764831543,-0.0,-0.0,-1.0,0.26388280551017446,1.0
10.737041473388672,-0.41326427459716797,0.4526631832122803,-0.6032376283241557,0.7853472028926689,-0.13904723903231156,0.11082512790368619,3.0
10.062514305114746,-1.3065013885498047,0.9253531694412231,-0.0,-0.0,-1.0,0.13169696928314392,1.0
10.336262702941895,-0.7468109130859375,0.9412081837654114,0.9251307812671029,-0.09780427142264206,-0.36683424328108427,0.12238275281158624,3.0
9.893318176269531,-0.5384531021118164,0.1285635232925415,-0.0,-0.0,-1.0,0.22159010792811923,1.0
10.962890625,-0.42055606842041016,0.19275665283203125,-0.7006136157264787,0.6665927758029552,-0.2545478986477416,0.21027673852656306,4.0
11.140161514282227,-0.7330293655395508,0.18576979637145996,-0.0,-0.0,-1.0,0.21859447979639315,2.0
9.84436321258545,-2.183199882507324,0.611490786075592,-0.0,-0.0,-1.0,0.07077591334794503,1.0
10.018893241882324,-1.3636894226074219,0.6426149606704712,-0.0,-0.0,-1.0,0.10694682967455847,1.0
10.448257446289062,-1.547703742980957,0.6469939947128296,-0.0,-0.0,-1.0,0.1393140218077895,2.0
10.220268249511719,-1.0209455490112305,0.6585586667060852,-0.0,-0.0,-1.0,0.1578033457438917,1.0
11.143905639648438,-2.265957832336426,0.2774856686592102,-0.2761228390595475,0.6780607923279899,-0.6811679232445065,0.10603078646539378,3.0
10.893304824829102,-0.4916110038757324,0.3489793539047241,-0.18119198805570758,-0.023906940296900266,-0.9831571195236601,0.16296808332331378,3.0
10.974008560180664,-0.763951301574707,0.3405660390853882,-0.9459157487165906,-0.3169692764456438,0.06909322773946194,0.12818715458566116,3.0
10.163107872009277,-0.8862929344177246,0.8323005437850952,-0.0,-0.0,-1.0,0.12788721620007537,2.0
9.795732498168945,-1.3432774543762207,0.419394314289093,-0.0,-0.0,-1.0,0.13475984710206027,1.0
9.906354904174805,-0.5077614784240723,0.440751850605011,-0.0,-0.0,-1.0,0.15268358769819623,1.0
10.836215019226074,-0.5433177947998047,0.48499345779418945,-0.2739026542746097,-0.9428667328944965,-0.1896830513835689,0.10990458657098148,3.0
9.742659568786621,-1.7364802360534668,0.9622088670730591,-0.0,-0.0,-1.0,0.06432866927792434,1.0
10.252351760864258,-1.5754194259643555,0.9712861776351929,-0.0,-0.0,-1.0,0.10439490841415543,1.0
10.973243713378906,-0.5045461654663086,0.06721794605255127,-0.0,-0.0,-1.0,0.14986810355591623,1.0
9.925924301147461,-1.410240650177002,0.47433650493621826,-0.0,-0.0,-1.0,0.21753181728918486,1.0
10.499723434448242,-1.940157413482666,0.4702434539794922,-0.0,-0.0,-1.0,0.07121273321396782,2.0
10.761927604675293,-0.4637570381164551,0.5443369150161743,-0.0,-0.0,-1.0,0.14050246021316906,1.0
10.880805969238281,-0.5957016944885254,0.5433087944984436,-0.0,-0.0,-1.0,0.1401297543315832,2.0
10.891822814941406,-0.7902312278747559,0.5355627536773682,-0.0,-0.0,-1.0,0.12585049069567894,1.0
10.280782699584961,-0.6538543701171875,1.0248303413391113,-0.0,-0.0,-1.0,0.12238275281158632,1.0
10.515904426574707,-1.7363905906677246,0.056998252868652344,-0.0,-0.0,-1.0,0.22632895390848978,2.0
10.989786148071289,-0.45195960998535156,0.1416541337966919,-0.0,-0.0,-1.0,0.1474158230738159,2.0
9.896745681762695,-0.610135555267334,0.5613076686859131,-0.0,-0.0,-1.0,0.16539638016052272,1.0
10.025668144226074,-0.6498370170593262,0.5662792921066284,-0.0,-0.0,-1.0,0.14299772722145138,1.0
10.01877212524414,-1.2324934005737305,0.5525957345962524,-0.0,-0.0,-1.0,0.12366883772616065,1.0
10.363229751586914,-1.5811305046081543,0.5578914880752563,-0.0,-0.0,-1.0,0.20402764614776875,1.0
10.572338104248047,-0.6314234733581543,0.5910279750823975,-0.0,-0.0,-1.0,0.07574994458088193,1.0
10.493894577026367,-1.5868802070617676,0.5631887912750244,-0.0,-0.0,-1.0,0.1256871776661486,2.0
10.634990692138672,-1.9577603340148926,0.5575469732284546,-0.0,-0.0,-1.0,0.09961247240828748,1.0
10.389591217041016,-1.5214638710021973,1.0629944801330566,-0.0,-0.0,-1.0,0.13782765880730694,1.0
10.388351440429688,-1.7865185737609863,0.4450141191482544,-0.0,-0.0,-1.0,0.17386089417212444,1.0
10.667478561401367,-1.9698257446289062,0.45370376110076904,-0.0,-0.0,-1.0,0.1148117198632188,1.0
10.94713306427002,-0.5414252281188965,0.5054972767829895,-0.582521061499639,0.19835649160013552,0.7882410260506737,0.19515888984466204,4.0
10.976131439208984,-0.7727863788604736,0.5021783709526062,-0.9142419500181345,-0.23425097271119397,0.33058756572336273,0.20210363270869208,4.0
10.397737503051758,-1.6506052017211914,0.9452479481697083,-0.7276819341527051,-0.5342328537186095,-0.43020258101904596,0.1485764397782601,4.0
10.320868492126465,-1.6387207508087158,0.3447664976119995,-0.0,-0.0,-1.0,0.26175540537603303,2.0
10.88133430480957,-0.3662683963775635,0.42282891273498535,-0.6500528929615682,0.7569913555541427,0.06629723952471427,0.11156437781698549,5.0
10.931610107421875,-0.47675108909606934,0.4224768280982971,-0.9187492823281885,-0.3887596855943836,0.06903378215044076,0.11585113814301252,7.0
10.702412605285645,-1.9439315795898438,0.3541269898414612,-0.0,-0.0,-1.0,0.1707533847451219,1.0
10.212555885314941,-0.774630069732666,0.8630241751670837,-0.0,-0.0,-1.0,0.10594562572747927,1.0
10.097923278808594,-2.2350356578826904,0.14564085006713867,-0.0,-0.0,-1.0,0.16759812353482884,2.0
10.451151847839355,-1.806802749633789,0.1790611743927002,-0.29024146924420213,-0.49678915186481254,-0.8179000110773974,0.22176370561183806,7.0
11.184901237487793,-2.2875401973724365,0.23231029510498047,0.7778676362061324,0.48753785026907714,-0.3965208507734376,0.13439181518166135,7.0
11.227705955505371,-2.2328412532806396,0.2366034984588623,-0.5957456408826401,0.3348325888998644,-0.7300508672551156,0.12415363634333772,3.0
9.989994049072266,-1.184555172920227,0.6508287191390991,-0.8044086507632456,0.263001051723057,-0.5326886232780096,0.17734707881588727,3.0
10.495674133300781,-1.7954257726669312,0.6735361814498901,-0.0,-0.0,-1.0,0.17934535782827457,2.0
9.71159553527832,-2.0443520545959473,0.11743748188018799,-0.0,-0.0,-1.0,0.12675972371306668,1.0
9.914738655090332,-1.5694661140441895,0.1450662612915039,-0.0,-0.0,-1.0,0.16840850703664512,1.0
10.096015930175781,-2.138019323348999,0.15950024127960205,-0.0,-0.0,-1.0,0.18001266771922567,1.0
10.430121421813965,-1.8244422674179077,0.200888991355896,-0.5719148959083227,-0.6423072581224137,-0.510249682019929,0.24918286413522564,6.0
10.67811393737793,-1.9921627044677734,0.2269120216369629,-0.0,-0.0,-1.0,0.17849478984340275,1.0
10.375812530517578,-1.5207407474517822,0.702698826789856,-0.0,-0.0,-1.0,0.22228158217101424,1.0
10.55859088897705,-1.8527588844299316,0.7145404815673828,-0.0,-0.0,-1.0,0.11077598446308862,1.0
10.009429931640625,-1.3111448287963867,0.40571343898773193,-0.0,-0.0,-1.0,0.14845450847047018,1.0
10.007525444030762,-1.4928263425827026,0.4051269292831421,0.9053486983590947,-0.2512395909123936,-0.34237757277261266,0.1500598285774332,3.0
9.970587730407715,-1.8224241733551025,0.39995133876800537,-0.0,-0.0,-1.0,0.269233431121497,1.0
10.082935333251953,-2.1845085620880127,0.4076920747756958,-0.0,-0.0,-1.0,0.09889043711406291,2.0
10.441180229187012,-1.849818468093872,0.44511544704437256,-0.0,-0.0,-1.0,0.12720688550601464,1.0
10.85698413848877,-0.364307165145874,0.4832206964492798,-0.6447905520904668,-0.7599561723423544,-0.08192533218503968,0.15424069850362107,4.0
10.912959098815918,-0.46729767322540283,0.48950278759002686,-0.8471019767887796,0.44361749805878287,-0.292611955218182,0.15992254165880496,5.0
10.417677879333496,-1.676470160484314,0.9559862017631531,-0.7277730697965048,-0.4825223144068247,-0.4873587743936211,0.11507139730521479,5.0
9.96867847442627,-1.388819932937622,0.21062135696411133,-0.0,-0.0,-1.0,0.20333199541886085,1.0
10.186909675598145,-1.9860255718231201,0.2650575637817383,-0.0,-0.0,-1.0,0.15617398688235645,1.0
10.376797676086426,-1.7678825855255127,0.2723506689071655,0.12939060881169454,0.6866697159168537,-0.7153619864054889,0.10113055975836582,5.0
10.678930282592773,-1.9683637619018555,0.3129221200942993,-0.0,-0.0,-1.0,0.19419957847999522,2.0
9.952072143554688,-1.1995371580123901,0.7409831285476685,-0.0,-0.0,-1.0,0.18070789240512494,2.0
9.778141975402832,-2.0067145824432373,0.11445844173431396,-0.0,-0.0,-1.0,0.11984678078200217,1.0
9.993523597717285,-2.3042781352996826,0.14741039276123047,-0.0,-0.0,-1.0,0.1895794980648505,1.0
9.902005195617676,-1.3586740493774414,0.10146737098693848,0.2771783747393139,0.1393208184185843,-0.9506639038756277,0.1741595992493467,4.0
10.431421279907227,-1.792410135269165,0.17423439025878906,-0.522637152862566,-0.3547017522932452,-0.7752658082024592,0.2350525057869956,6.0
10.529719352722168,-1.964120626449585,0.1911160945892334,0.35178421733943976,-0.38877183542064925,-0.8515305774982701,0.1030557711475435,3.0
11.08189868927002,-1.6324763298034668,0.23507237434387207,-0.0,-0.0,-1.0,0.10423676905843098,2.0
11.25111198425293,-2.262941837310791,0.2772942781448364,-0.0,-0.0,-1.0,0.12415363634333766,1.0
11.100617408752441,-0.8545525074005127,0.20093417167663574,-0.0,-0.0,-1.0,0.21384760764878,2.0
9.972613334655762,-1.2130675315856934,0.6629979610443115,-0.0,-0.0,-1.0,0.19368707605969004,2.0
10.272804260253906,-1.5432236194610596,0.6958719491958618,-0.0,-0.0,-1.0,0.18741858132608522,1.0
10.004817962646484,-1.456834316253662,0.37155628204345703,0.712836133517454,-0.6893117868897557,-0.1292822772337285,0.1553279269155898,6.0
10.346074104309082,-0.9823827743530273,0.38548052310943604,-0.717939628969692,-0.6897160190756376,-0.0940983644136076,0.16461448412938223,4.0
10.340788841247559,-1.7840774059295654,0.41000688076019287,-0.0,-0.0,-1.0,0.16656329086457355,1.0
11.013057708740234,-0.8820428848266602,0.438340425491333,-0.0,-0.0,-1.0,0.16763523756231538,1.0
10.288742065429688,-0.7816791534423828,0.9459575414657593,-0.0,-0.0,-1.0,0.1314012810186182,1.0
10.335976600646973,-1.6603171825408936,0.9693227410316467,-0.0,-0.0,-1.0,0.14857643977826013,2.0
10.264323234558105,-0.9788007736206055,0.41205430030822754,-0.6261371938370103,0.201825039660132,-0.7531393415962948,0.13360512111548598,5.0
10.996493339538574,-0.8397650718688965,0.4629857540130615,-0.9404445163563614,-0.3063313970605069,0.147394663506546,0.1725464061552467,3.0
10.284417152404785,-1.0151610374450684,0.247178316116333,-0.0,-0.0,-1.0,0.1681492252873079,2.0
10.793024063110352,-1.0327239036560059,0.29069221019744873,-0.0,-0.0,-1.0,0.09510628031284077,1.0
10.483052253723145,-1.8885951042175293,0.3004041910171509,-0.0,-0.0,-1.0,0.09007200700791872,1.0
10.032585144042969,-1.4737873077392578,0.8435043096542358,-0.0,-0.0,-1.0,0.07895994898098635,1.0
10.071839332580566,-1.5037312507629395,0.011194705963134766,-0.0,-0.0,-1.0,0.1469456613333011,1.0
10.488626480102539,-1.7729907035827637,0.06402146816253662,-0.0,-0.0,-1.0,0.2238967368777675,2.0
11.149323463439941,-0.828333854675293,0.07903194427490234,-0.0,-0.0,-1.0,0.17597689716655354,2.0
10.915719032287598,-1.7771062850952148,0.10559213161468506,-0.0,-0.0,-1.0,0.16293758658322655,1.0
10.075751304626465,-1.5302481651306152,0.6151219606399536,-0.0,-0.0,-1.0,0.17199399620928602,1.0
10.48856258392334,-1.581191062927246,0.643403172492981,-0.0,-0.0,-1.0,0.15875989144623623,1.0
10.560663223266602,-1.9196434020996094,0.6589106321334839,-0.0,-0.0,-1.0,0.10769188042832602,2.0
11.217835426330566,-0.575474739074707,0.1104893684387207,-0.0,-0.0,-1.0,0.2251545896677401,1.0
10.506003379821777,-1.6346650123596191,0.10760283470153809,-0.0,-0.0,-1.0,0.14450356130906,2.0
11.105780601501465,-1.5639638900756836,0.15740418434143066,-0.0,-0.0,-1.0,0.14411482524850786,1.0
11.050824165344238,-1.598803997039795,0.154410719871521,-0.0,-0.0,-1.0,0.16990041681883647,1.0
11.688063621520996,-1.5068631172180176,0.20553386211395264,-0.0,-0.0,-1.0,0.138488159338883,1.0
10.036778450012207,-1.2476396560668945,0.6558883190155029,-0.0,-0.0,-1.0,0.13377416024971633,2.0
10.436615943908691,-1.6548900604248047,0.6940518617630005,-0.0,-0.0,-1.0,0.1483225382201944,1.0
10.857132911682129,-0.621821403503418,0.5374952554702759,-0.0,-0.0,-1.0,0.09368431991588728,2.0
10.162920951843262,-0.9217338562011719,0.3924473524093628,-0.0,-0.0,-1.0,0.21847007824534645,1.0
10.972514152526855,-0.5472040176391602,0.42930710315704346,-0.3793924596775071,-0.8759398481372342,-0.297977757534301,0.09629581907752467,5.0
10.318178176879883,-0.9585990905761719,0.4049607515335083,-0.717939628969692,-0.6897160190756376,-0.0940983644136076,0.1547565903706075,4.0
10.104866027832031,-1.5428800582885742,0.4161940813064575,-0.0,-0.0,-1.0,0.18351995203638208,1.0
10.3289155960083,-1.6214313507080078,1.034202218055725,-0.0,-0.0,-1.0,0.14857643977826013,1.0
9.887083053588867,-0.6988506317138672,0.19222211837768555,0.6732499902790015,-0.24355363054741533,-0.6981519029813624,0.21904502514062854,4.0
10.387619018554688,-0.8913288116455078,0.15702152252197266,-0.0,-0.0,-1.0,0.22903482284768775,1.0
10.777053833007812,-0.9323892593383789,0.18307626247406006,-0.0,-0.0,-1.0,0.15873433693707822,1.0
11.053540229797363,-0.8724136352539062,0.19398164749145508,-0.0,-0.0,-1.0,0.12674926787223756,2.0
9.855481147766113,-1.8270540237426758,0.7998631000518799,-0.0,-0.0,-1.0,0.11373123160737802,1.0
11.702472686767578,-1.4897270202636719,0.26766467094421387,-0.0,-0.0,-1.0,0.128523673621697,2.0
11.109932899475098,-0.8497438430786133,0.2566835880279541,-0.0,-0.0,-1.0,0.18843360860305242,2.0
11.634923934936523,-1.708353042602539,0.2825791835784912,-0.0,-0.0,-1.0,0.1678128993939473,1.0
10.767858505249023,-1.0884761810302734,0.27671027183532715,-0.0,-0.0,-1.0,0.0973869070800853,1.0
10.31524658203125,-0.7463397979736328,0.8471572399139404,0.8456228663947508,0.34176792303514697,-0.4100203100025248,0.11363736453958369,3.0
11.69011116027832,-1.5888957977294922,0.24116039276123047,-0.0,-0.0,-1.0,0.11768833594674946,2.0
11.025611877441406,-0.9457473754882812,0.13857698440551758,-0.0,-0.0,-1.0,0.08872923342455796,1.0
11.649077415466309,-1.593099594116211,0.22890949249267578,-0.0,-0.0,-1.0,0.12523188719330514,2.0
10.388205528259277,-1.9100418090820312,0.5095112323760986,-0.0,-0.0,-1.0,0.10460884884689578,1.0
9.915886878967285,-1.961050033569336,0.94883131980896,-0.0,-0.0,-1.0,0.11056244600749003,1.0
10.945743560791016,-0.5866260528564453,0.5192430019378662,-0.22563455783713082,-0.2770890579996477,-0.9339757492818056,0.1526328130209973,3.0
10.577776908874512,-1.53582763671875,0.5288288593292236,-0.0,-0.0,-1.0,0.15480514899513442,2.0
10.420960426330566,-1.7544288635253906,0.36823368072509766,-0.0,-0.0,-1.0,0.22270717655054487,2.0
10.23433780670166,-1.754913330078125,0.35442328453063965,-0.0,-0.0,-1.0,0.15511065300906735,1.0
10.043144226074219,-0.7187461853027344,0.24604177474975586,-0.0,-0.0,-1.0,0.17677662458306442,1.0
9.940689086914062,-2.072601318359375,0.36103320121765137,-0.0,-0.0,-1.0,0.18989727337767,1.0
11.004999160766602,-0.6615180969238281,0.2502610683441162,-0.05341412276254307,-0.7185324809803906,-0.6934392585264211,0.1456269600026221,3.0
10.633087158203125,-1.835012435913086,0.34038424491882324,-0.0,-0.0,-1.0,0.1424687736809556,2.0
9.776684761047363,-1.9230995178222656,0.7393996715545654,-0.0,-0.0,-1.0,0.08759542533252884,2.0
10.084940910339355,-1.4894046783447266,0.08069539070129395,-0.0,-0.0,-1.0,0.18081865512718784,1.0
9.793508529663086,-1.5022468566894531,0.051372528076171875,-0.0,-0.0,-1.0,0.22314622049306945,1.0
9.83699893951416,-1.3852615356445312,0.04385995864868164,-0.08158277977817412,0.7782327174663499,0.6226540672866487,0.184879700377742,3.0
9.964418411254883,-1.3369216918945312,0.8132030963897705,-0.0,-0.0,-1.0,0.10386093260189701,2.0
9.78453540802002,-1.8864479064941406,0.8383972644805908,-0.9413146836298789,0.2544144132219153,-0.2218106686517342,0.11226269594256709,5.0
11.092374801635742,-0.7559528350830078,0.15460419654846191,-0.0,-0.0,-1.0,0.19103410041026345,2.0
11.054397583007812,-0.9040184020996094,0.16771578788757324,-0.0,-0.0,-1.0,0.13012843312690392,2.0
10.077519416809082,-1.8063411712646484,0.16814374923706055,-0.0,-0.0,-1.0,0.26468693489426837,2.0
9.984291076660156,-1.4700183868408203,0.12148380279541016,-0.0,-0.0,-1.0,0.1809021055994536,1.0
9.721220016479492,-1.9722785949707031,0.14818930625915527,-0.5898682163373441,0.7774761460205298,-0.2181429112395451,0.15103717054247726,4.0
9.931744575500488,-1.289113998413086,0.827007532119751,-0.0,-0.0,-1.0,0.1475933410142843,2.0
9.800612449645996,-1.8657188415527344,0.8618528842926025,-0.717930437745058,0.6439375367543649,0.2644245361495598,0.11373123160737808,6.0
9.805861473083496,-1.229726791381836,0.8114614486694336,-0.0,-0.0,-1.0,0.20554799810575233,2.0
10.942849159240723,-0.49360084533691406,0.4232957363128662,-0.49903601731249725,0.15861231938844048,-0.8519420083333727,0.1184615042607548,8.0
10.938477516174316,-0.7487564086914062,0.4465773105621338,-0.0787044458105216,-0.8571966879017567,-0.5089395332059761,0.15114738829088392,5.0
10.038103103637695,-1.4515275955200195,0.4015994071960449,0.1879884386883925,-0.9815511048943766,-0.03489663880846964,0.14380962389489207,3.0
11.017321586608887,-0.8310298919677734,0.2052140235900879,-0.0,-0.0,-1.0,0.17392517461782245,1.0
11.108820915222168,-0.5694742202758789,0.18582653999328613,-0.0,-0.0,-1.0,0.19681577923685717,2.0
10.064663887023926,-1.4457769393920898,0.1538372039794922,-0.0,-0.0,-1.0,0.1519096577719967,1.0
9.738224983215332,-1.9606103897094727,0.16667747497558594,-0.42648354322930127,0.8886479889038015,-0.16857205928566457,0.16688285997467706,3.0
9.777429580688477,-1.6404190063476562,0.13715171813964844,-0.0,-0.0,-1.0,0.1100272477688572,2.0
9.839618682861328,-1.343374252319336,0.11281538009643555,-0.0,-0.0,-1.0,0.2196724030588061,2.0
10.18083667755127,-1.9406938552856445,0.22391796112060547,-0.0,-0.0,-1.0,0.1651918533548341,1.0
9.724250793457031,-1.6581106185913086,0.7782444953918457,-0.0,-0.0,-1.0,0.10278810907573853,1.0
11.019059181213379,-0.834477424621582,0.31329965591430664,-0.3524975696493029,-0.9167953587991274,0.1877011813380885,0.131471856399434,5.0
11.045327186584473,-0.5869970321655273,0.28514838218688965,-0.0,-0.0,-1.0,0.08611974924595374,2.0
10.450489044189453,-1.7431268692016602,0.3580653667449951,0.079256426743608,0.8913523672004705,-0.446328776022735,0.20830968060361704,4.0
10.17225456237793,-1.8496875762939453,0.33657002449035645,-0.0,-0.0,-1.0,0.18482321429726217,1.0
10.011399269104004,-1.4109020233154297,0.2642405033111572,0.8456950007482318,-0.3720066593607847,0.38263691810994577,0.17818533312675414,4.0
11.0458345413208,-0.5926198959350586,0.25757741928100586,-0.6998286066968918,-0.7023161208149536,0.13035331868472905,0.13337357728652424,3.0
11.022910118103027,-0.8815603256225586,0.2949995994567871,-0.0,-0.0,-1.0,0.1391779522443082,2.0
11.031743049621582,-0.680811882019043,0.26819300651550293,0.1502938770698234,-0.8973975042206128,-0.4148366786265848,0.16596019876906506,4.0
10.47891902923584,-1.7686176300048828,0.3487391471862793,0.8844116225326119,-0.11959856526529944,-0.45112333692208284,0.19124916687520457,5.0
10.16750717163086,-1.9290618896484375,0.32976293563842773,-0.0,-0.0,-1.0,0.1626956682770376,2.0
