x,y,z,nx,ny,nz,curvature,density
23.66565704345703,24.015338897705078,-1.49583101272583,-0.26721279918576873,0.7845045629244849,0.5595979902590513,0.14271198608497052,3.0
23.63832664489746,24.151939392089844,-1.8609809875488281,0.49679534160357947,-0.22247433239507833,-0.8388680229847523,0.15653201914021336,3.0
23.18182373046875,23.806127548217773,-1.7660908699035645,-0.0,-0.0,-1.0,0.18756048677094447,2.0
23.693099975585938,24.07601547241211,-1.830381155014038,-0.0,-0.0,-1.0,0.17254078147943844,1.0
23.151952743530273,23.770570755004883,-1.7178919315338135,0.04813092036380575,0.5810905060827087,-0.8124144498010077,0.2161701492652532,3.0
23.21280288696289,23.745006561279297,-1.7683141231536865,-0.09680039354043782,0.962893209085627,-0.25192528993175695,0.21634025617532815,4.0
23.44125747680664,25.028745651245117,-1.7171003818511963,-0.004243338012332458,0.008850934074468408,-0.9999518263639117,0.08774235217527766,4.0
23.662071228027344,24.36960220336914,-1.9373230934143066,-0.0,-0.0,-1.0,0.09766472939102945,1.0
22.934429168701172,24.16677474975586,-1.7823848724365234,-0.0,-0.0,-1.0,0.012696631010256696,1.0
22.454410552978516,24.45635223388672,-1.921022891998291,-0.0,-0.0,-1.0,0.06650230668133554,2.0
23.69442367553711,24.14822006225586,-1.3566820621490479,-0.0,-0.0,-1.0,0.1264350805006408,1.0
23.534141540527344,24.125019073486328,-1.5287461280822754,-0.0,-0.0,-1.0,0.1949701558320297,1.0
23.490089416503906,24.016036987304688,-1.5221071243286133,0.1847979735418527,0.575432775957403,-0.7966974515641315,0.1759003494624453,3.0
23.194360733032227,23.704269409179688,-1.6827168464660645,-0.9706419665391417,0.11819518355758175,-0.20948525336361407,0.2250339895597994,6.0
23.66904067993164,24.01228904724121,-1.4899396896362305,-0.26721279918576873,0.7845045629244849,0.5595979902590513,0.1328860007544606,3.0
22.31673812866211,23.80859375,-0.04937291145324707,-0.0,-0.0,-1.0,0.09202429249474346,1.0
22.212947845458984,25.09823989868164,-1.8817306756973267,-0.0,-0.0,-1.0,0.016858230941470317,1.0
21.98477554321289,24.20475959777832,-1.6805665493011475,-0.0,-0.0,-1.0,0.0290816850530629,1.0
23.195056915283203,23.67359733581543,-1.7170567512512207,-0.9141619580735381,-0.21954325182435114,-0.34074723034757654,0.2132925632665069,6.0
23.22504997253418,23.657339096069336,-1.7323188781738281,-0.48445931069,-0.07558142961115584,-0.8715426689403701,0.19574503258350895,3.0
23.197786331176758,23.697481155395508,-1.7057831287384033,-0.9706419665391417,0.11819518355758175,-0.20948525336361407,0.21158992210823602,6.0
23.264507293701172,23.774391174316406,-1.77088463306427,-0.0,-0.0,-1.0,0.1539525868607595,2.0
21.79317855834961,24.015705108642578,-1.6611496210098267,-0.0,-0.0,-1.0,0.029750561256358544,1.0
23.252370834350586,23.78116226196289,-1.7940030097961426,-0.0,-0.0,-1.0,0.14911371237218482,2.0
21.878543853759766,24.098966598510742,-1.7141587734222412,-0.0,-0.0,-1.0,0.03221248190255613,2.0
21.851181030273438,24.023752212524414,-1.6815162897109985,-0.0,-0.0,-1.0,0.0304135797100115,1.0
23.273019790649414,23.65560531616211,-1.7477082014083862,-0.0,-0.0,-1.0,0.2096667465476558,2.0
22.526264190673828,24.497596740722656,-1.817581295967102,-0.0,-0.0,-1.0,0.12227177733638013,1.0
22.104106903076172,25.406951904296875,-1.9036879539489746,0.04143877991095146,0.7478682579836872,-0.6625525610998249,0.01752625229395872,3.0
23.029207229614258,25.602005004882812,-1.9712018966674805,-0.0,-0.0,-1.0,0.011687814729491399,2.0
22.4056453704834,24.403339385986328,-1.7717020511627197,-0.0,-0.0,-1.0,0.09532934461714054,1.0
23.68637466430664,23.978090286254883,-1.6332519054412842,-0.0,-0.0,-1.0,0.19995402539359705,2.0
23.196706771850586,25.54096221923828,-2.0410232543945312,-0.0,-0.0,-1.0,0.004531680812469548,1.0
22.956335067749023,24.73858642578125,-1.894707202911377,-0.0,-0.0,-1.0,0.03109956904881867,1.0
23.49897003173828,24.001985549926758,-1.530196189880371,0.2497475714952197,0.5009473162365606,-0.8286603266041083,0.18731987942064798,4.0
23.479679107666016,25.0032901763916,-1.7176539897918701,-0.05224470460914416,0.01302312613858409,-0.9985493923817096,0.10024172463842235,5.0
23.395429611206055,24.325571060180664,-1.8142716884613037,0.6102328501941535,-0.42552100017983774,-0.6682422816238657,0.13100000727684424,3.0
22.422971725463867,24.290311813354492,-1.7784533500671387,-0.0,-0.0,-1.0,0.0953798145495398,2.0
23.630380630493164,24.071523666381836,-1.4903514385223389,0.25858714418651496,0.9461406133522526,0.19480921083687552,0.14344257801566423,4.0
23.42011260986328,24.111799240112305,-1.5156798362731934,-0.0,-0.0,-1.0,0.17804868380356506,2.0
23.648672103881836,24.955062866210938,-1.614192008972168,-0.0,-0.0,-1.0,0.12230645177682938,2.0
23.110416412353516,23.77584457397461,-1.7610852718353271,-0.0,-0.0,-1.0,0.21218810843339794,2.0
23.214092254638672,24.462495803833008,-1.815532922744751,0.3615295038518595,0.5163182756073493,-0.7763451913411208,0.03495401534604765,3.0
23.437042236328125,23.933307647705078,-1.5543651580810547,-0.0,-0.0,-1.0,0.13340431709604006,1.0
23.107044219970703,23.82166862487793,-1.5497684478759766,-0.0,-0.0,-1.0,0.23442247539068906,1.0
23.115711212158203,23.668312072753906,-1.6531472206115723,-0.0,-0.0,-1.0,0.20149467666652254,1.0
23.695194244384766,24.87258529663086,-1.6374101638793945,0.15099673016335372,-0.3043102093226313,-0.9405292573769259,0.1900044557440385,3.0
23.590351104736328,23.95703887939453,-1.5175600051879883,-0.0,-0.0,-1.0,0.10401779598835256,2.0
23.55845832824707,24.007251739501953,-1.527510166168213,-0.2872771789536859,0.4758268361907057,-0.8313005740483739,0.10426162182214387,3.0
23.130006790161133,24.971525192260742,-1.9431242942810059,-0.0,-0.0,-1.0,0.058641228204386185,1.0
23.24650001525879,24.894792556762695,-1.7320170402526855,-0.0,-0.0,-1.0,0.12094815400954859,1.0
21.73747444152832,25.296857833862305,-1.693284034729004,-0.0,-0.0,-1.0,0.01989564680265913,1.0
23.625789642333984,25.535924911499023,-1.8746180534362793,-0.0,-0.0,-1.0,0.09178462839543051,1.0
22.81830406188965,25.6140079498291,-1.8281283378601074,-0.0,-0.0,-1.0,0.01593625246592821,1.0
23.158281326293945,23.748809814453125,-1.670332908630371,-0.0,-0.0,-1.0,0.24356502773323643,2.0
23.182605743408203,23.7387752532959,-1.793776035308838,0.25289963958950495,0.8268857858194586,-0.5022963960703233,0.26940853933938064,3.0
23.549896240234375,23.825077056884766,-1.8451032638549805,-0.0,-0.0,-1.0,0.18483384240874426,1.0
23.405576705932617,23.8858699798584,-1.8440570831298828,-0.0,-0.0,-1.0,0.08272976779075707,1.0
23.624404907226562,23.662418365478516,-1.8245701789855957,-0.0,-0.0,-1.0,0.17523024917400937,2.0
23.668214797973633,24.89468765258789,-1.6012330055236816,-0.0,-0.0,-1.0,0.17249168490247418,2.0
21.798175811767578,25.59671974182129,-1.8439202308654785,-0.0,-0.0,-1.0,0.024647286722550836,1.0
23.239055633544922,23.773670196533203,-1.6708617210388184,-0.0,-0.0,-1.0,0.1373328267282302,2.0
23.560327529907227,24.218791961669922,-1.8113884925842285,-0.0,-0.0,-1.0,0.17293277011319289,1.0
23.529029846191406,24.470651626586914,-1.8628993034362793,-0.0,-0.0,-1.0,0.07862243077044331,1.0
23.15135383605957,23.795650482177734,-1.6642847061157227,-0.0,-0.0,-1.0,0.20146185926836996,2.0
23.22223472595215,24.40228271484375,-1.8083128929138184,-0.0,-0.0,-1.0,0.04003792427986363,2.0
22.778276443481445,24.882274627685547,-1.86114501953125,-0.0,-0.0,-1.0,0.025407285251084898,1.0
22.46770477294922,25.029294967651367,-1.8574414253234863,-0.0,-0.0,-1.0,0.019045191651952807,2.0
22.50794219970703,25.09250259399414,-1.8766064643859863,-0.0,-0.0,-1.0,0.016042356689924167,2.0
21.78656768798828,24.747365951538086,-1.7129216194152832,-0.0,-0.0,-1.0,0.00952575396316154,1.0
21.96429443359375,24.865650177001953,-1.7607474327087402,-0.0,-0.0,-1.0,0.014372306228097508,1.0
23.515653610229492,24.065486907958984,-1.5071663856506348,-0.6527192240786263,-0.2477269477038425,-0.7159531925339351,0.219129132558986,3.0
23.672801971435547,24.900007247924805,-1.6498775482177734,-0.8801564836552648,0.35078143775805587,-0.31980767220939293,0.16485187831273782,4.0
23.62853240966797,24.977075576782227,-1.6562738418579102,-0.0,-0.0,-1.0,0.12230645177682921,2.0
22.687053680419922,24.497303009033203,-1.8815088272094727,-0.0,-0.0,-1.0,0.05943326842679717,1.0
22.428096771240234,25.109479904174805,-1.94108247756958,-0.0,-0.0,-1.0,0.015159180481934308,1.0
23.543060302734375,24.916086196899414,-1.7313003540039062,-0.0,-0.0,-1.0,0.12230645177682921,1.0
23.645126342773438,23.959232330322266,-1.5967292785644531,-0.0,-0.0,-1.0,0.14029882892958645,2.0
23.59294891357422,24.10250473022461,-1.7044570446014404,-0.0,-0.0,-1.0,0.08263568834792544,1.0
23.617778778076172,24.148929595947266,-1.8723516464233398,0.49679534160357947,-0.22247433239507833,-0.8388680229847523,0.10581430429472924,3.0
23.53911018371582,24.24656105041504,-1.8746395111083984,-0.0,-0.0,-1.0,0.09966320327029093,1.0
23.41824722290039,25.195541381835938,-2.0285449028015137,-0.0,-0.0,-1.0,0.08891411400443204,2.0
23.298643112182617,24.842727661132812,-1.9389281272888184,-0.0,-0.0,-1.0,0.18601292968538605,1.0
23.250732421875,25.249309539794922,-2.007701873779297,-0.0,-0.0,-1.0,0.012090910408751885,2.0
23.10434341430664,25.499534606933594,-2.0292563438415527,-0.0,-0.0,-1.0,0.012994981504568766,2.0
22.668216705322266,25.35836410522461,-1.9248237609863281,-0.0,-0.0,-1.0,0.019286835262621836,2.0
22.568302154541016,25.437572479248047,-1.9223918914794922,-0.0,-0.0,-1.0,0.01761050242730856,2.0
22.516719818115234,25.475601196289062,-1.9206562042236328,-0.0,-0.0,-1.0,0.019555942005743843,1.0
23.4227294921875,24.31243896484375,-1.8640508651733398,-0.0,-0.0,-1.0,0.05945240730607366,2.0
23.314559936523438,23.73944091796875,-1.739452838897705,-0.0,-0.0,-1.0,0.18783990873762638,2.0
23.211322784423828,24.422208786010742,-1.843616008758545,0.756316245867531,0.05435461181059851,-0.6519442556014767,0.04017416713594714,4.0
22.33981704711914,25.55138397216797,-1.904177188873291,-0.0,-0.0,-1.0,0.007336166989442734,1.0
21.972457885742188,25.573184967041016,-1.8434028625488281,-0.0,-0.0,-1.0,0.013454274933934923,2.0
23.555816650390625,25.041540145874023,-1.6022920608520508,-0.0,-0.0,-1.0,0.11775875562190737,1.0
23.593839645385742,24.083580017089844,-1.4871244430541992,0.14513348322653494,0.9502048398991798,-0.27576626747792565,0.19657646317304306,4.0
23.62566375732422,24.046701431274414,-1.393965721130371,-0.0,-0.0,-1.0,0.11801594590885396,1.0
23.57390594482422,24.11347198486328,-1.389756202697754,-0.0,-0.0,-1.0,0.11425957555395376,1.0
23.687274932861328,23.90062713623047,-1.8899774551391602,-0.0,-0.0,-1.0,0.13910024750910993,2.0
23.650510787963867,23.912872314453125,-1.8797955513000488,-0.0,-0.0,-1.0,0.15969763670368506,2.0
23.204559326171875,23.79555320739746,-1.7727103233337402,-0.41757573448843166,-0.38161005784657437,-0.8246237140155389,0.17447334906493794,3.0
23.677766799926758,23.80352783203125,-1.8460266590118408,-0.0,-0.0,-1.0,0.19194524624241233,1.0
23.187658309936523,23.753400802612305,-1.728057622909546,-0.8410673105634106,-0.4618708863771556,-0.2815689319133282,0.26696846720620576,8.0
23.508464813232422,25.005220413208008,-1.7238433361053467,-0.1472954273163709,-0.5136763368812547,-0.8452459275382188,0.10024172463842235,3.0
23.155479431152344,25.255443572998047,-2.0365138053894043,-0.0,-0.0,-1.0,0.009822024505702492,2.0
23.309463500976562,25.486980438232422,-2.061448097229004,-0.0,-0.0,-1.0,0.020024350107278027,2.0
22.53383445739746,24.633377075195312,-1.9203319549560547,-0.0,-0.0,-1.0,0.04831210412999159,1.0
22.716495513916016,24.8596134185791,-1.949587345123291,-0.0,-0.0,-1.0,0.027759755854384078,1.0
22.995418548583984,25.091047286987305,-2.0058488845825195,-0.0,-0.0,-1.0,0.015047874162973077,1.0
22.06456756591797,24.374841690063477,-1.8197546005249023,-0.0,-0.0,-1.0,0.024838692982740444,1.0
22.293697357177734,24.51679801940918,-1.8670063018798828,-0.0,-0.0,-1.0,0.04937817843890378,1.0
21.86565399169922,24.26648712158203,-1.77809476852417,-0.0,-0.0,-1.0,0.028279644893200735,2.0
23.430179595947266,23.978343963623047,-1.606942892074585,-0.0,-0.0,-1.0,0.20429560750715092,1.0
23.55901336669922,24.10667610168457,-1.627316951751709,-0.0,-0.0,-1.0,0.18429548492466377,1.0
23.154966354370117,23.650127410888672,-1.7632768154144287,-0.8043527642102136,-0.2611552770803172,-0.5336801963353062,0.19786968882237926,3.0
23.433303833007812,24.970239639282227,-1.7194955348968506,-0.6442562254284905,0.16188486144039138,-0.7474805734151619,0.11311895238559717,3.0
23.583316802978516,24.41884994506836,-1.9126896858215332,-0.0,-0.0,-1.0,0.05854830893649298,1.0
22.469900131225586,23.749958038330078,-1.720576286315918,-0.0,-0.0,-1.0,0.007514332803769273,1.0
22.84534454345703,23.923786163330078,-1.7891349792480469,-0.0,-0.0,-1.0,0.023271544522530538,1.0
23.187732696533203,24.15398406982422,-1.8452363014221191,-0.0,-0.0,-1.0,0.027584243992192232,2.0
23.350486755371094,24.449108123779297,-1.8523368835449219,-0.0,-0.0,-1.0,0.04624464613625907,1.0
23.60468292236328,24.603071212768555,-1.8983545303344727,-0.0,-0.0,-1.0,0.1653092750094134,1.0
22.425647735595703,24.480308532714844,-1.9045894145965576,-0.0,-0.0,-1.0,0.06579462024214576,2.0
22.60727310180664,24.6345272064209,-1.9250452518463135,-0.0,-0.0,-1.0,0.05886247584890111,1.0
22.959362030029297,24.881027221679688,-1.9747874736785889,-0.0,-0.0,-1.0,0.03865364015801292,1.0
23.297733306884766,25.10843276977539,-2.026649236679077,-0.0,-0.0,-1.0,0.05856526283496248,1.0
23.525344848632812,25.316267013549805,-2.0552666187286377,-0.0,-0.0,-1.0,0.10015441138153292,1.0
23.631637573242188,25.473125457763672,-2.0610859394073486,-0.0,-0.0,-1.0,0.09914293986398136,1.0
23.503433227539062,24.288410186767578,-1.6012990474700928,-0.0,-0.0,-1.0,0.10635784267785642,1.0
23.68686294555664,24.403226852416992,-1.6262953281402588,-0.0,-0.0,-1.0,0.11056341583825947,1.0
23.54883575439453,24.560791015625,-1.576284646987915,-0.0,-0.0,-1.0,0.1578451231836093,1.0
21.893383026123047,24.296329498291016,-1.8064863681793213,-0.0,-0.0,-1.0,0.01886562022042914,2.0
22.736589431762695,24.5076961517334,-1.9820880889892578,-0.0,-0.0,-1.0,0.046892503187878506,1.0
22.954898834228516,24.667343139648438,-2.0100951194763184,-0.0,-0.0,-1.0,0.05174407385765316,1.0
23.239009857177734,24.788043975830078,-2.0620908737182617,-0.0,-0.0,-1.0,0.06968933402099846,1.0
23.326093673706055,24.98345947265625,-2.0531702041625977,-0.0,-0.0,-1.0,0.03562659511579804,1.0
23.62777328491211,25.230506896972656,-2.0927281379699707,-0.0,-0.0,-1.0,0.09484571048636109,1.0
23.42253875732422,24.246536254882812,-1.6114425659179688,-0.0,-0.0,-1.0,0.08052348371873375,1.0
21.871997833251953,24.143033981323242,-1.8349027633666992,-0.0,-0.0,-1.0,0.03011222765163576,1.0
22.345409393310547,24.284957885742188,-1.9240260124206543,-0.0,-0.0,-1.0,0.05278895110896466,1.0
22.574420928955078,24.40899658203125,-1.958735466003418,-0.0,-0.0,-1.0,0.08481251258004809,1.0
23.259971618652344,23.892637252807617,-1.8625831604003906,-0.0,-0.0,-1.0,0.08990802754036178,1.0
23.474506378173828,24.05556869506836,-1.8843564987182617,-0.0,-0.0,-1.0,0.1151127736329383,1.0
22.513580322265625,23.654621124267578,-1.7369322776794434,-0.0,-0.0,-1.0,0.013393741585992524,1.0
22.71664047241211,23.712472915649414,-1.7715163230895996,-0.0,-0.0,-1.0,0.02487583766324992,2.0
22.946903228759766,23.8165283203125,-1.8047990798950195,-0.0,-0.0,-1.0,0.07434465301056142,1.0
23.215192794799805,23.861919403076172,-1.8576574325561523,-0.0,-0.0,-1.0,0.1511935028795226,1.0
23.461687088012695,25.01906967163086,-1.7241082191467285,-0.05224470460914416,0.01302312613858409,-0.9985493923817096,0.07459784080519827,5.0
23.662433624267578,24.10626220703125,-1.356177568435669,-0.0,-0.0,-1.0,0.11801594590885404,1.0
23.67262077331543,23.819534301757812,-1.6039092540740967,-0.0,-0.0,-1.0,0.09863251753499813,1.0
23.549232482910156,24.071176528930664,-1.539748191833496,-0.10911609859925496,0.9921676804817369,0.060802720613212034,0.17810918797108463,3.0
23.612213134765625,23.995319366455078,-1.5553126335144043,-0.15483527538474584,0.006254956002689724,-0.9879204993429049,0.11527866099945087,4.0
23.5035400390625,24.978147506713867,-1.5582189559936523,-0.0,-0.0,-1.0,0.10094908879689238,1.0
23.52411460876465,24.763168334960938,-1.5977745056152344,-0.0,-0.0,-1.0,0.0900582176363906,1.0
21.74077796936035,25.221054077148438,-1.7964082956314087,-0.0,-0.0,-1.0,0.025646111193103054,2.0
21.958402633666992,25.490631103515625,-1.8379040956497192,-0.0,-0.0,-1.0,0.024399613613573738,1.0
22.715444564819336,25.231830596923828,-1.933403730392456,-0.0,-0.0,-1.0,0.0062870475792519915,2.0
22.943485260009766,25.518417358398438,-1.9804182052612305,-0.0,-0.0,-1.0,0.013647438323509108,1.0
23.572404861450195,24.072410583496094,-1.5183002948760986,-0.7708606761970009,0.3187036875054681,0.5515449006776506,0.21028331026758773,4.0
22.10424041748047,25.425235748291016,-1.8830413818359375,0.04143877991095146,0.7478682579836872,-0.6625525610998249,0.016717790316936296,3.0
22.20098876953125,25.517162322998047,-1.8932812213897705,-0.0,-0.0,-1.0,0.0130968343154306,2.0
22.69037437438965,23.819416046142578,-1.8108042478561401,-0.0,-0.0,-1.0,0.016156367484256327,1.0
22.68431282043457,23.710155487060547,-1.8050116300582886,-0.0,-0.0,-1.0,0.020117908519332733,2.0
22.760921478271484,25.46630096435547,-1.9275823831558228,-0.0,-0.0,-1.0,0.01602161281057871,1.0
23.255733489990234,23.67586898803711,-1.8057271242141724,-0.0,-0.0,-1.0,0.20776167836302606,1.0
23.65947723388672,23.740928649902344,-1.7686840295791626,-0.0,-0.0,-1.0,0.19343726043869,1.0
21.941499710083008,25.566448211669922,-1.809798240661621,-0.0,-0.0,-1.0,0.024262802006690246,2.0
21.837543487548828,25.371051788330078,-1.8093256950378418,-0.0,-0.0,-1.0,0.022102932589204847,1.0
21.876171112060547,24.98907470703125,-1.7872302532196045,-0.0,-0.0,-1.0,0.018648031929330063,2.0
21.927095413208008,24.60875701904297,-1.7644069194793701,-0.0,-0.0,-1.0,0.014251327376873945,1.0
22.17905044555664,24.020618438720703,-1.714081048965454,-0.0,-0.0,-1.0,0.021750801833235266,1.0
22.1009464263916,24.29100799560547,-1.7337615489959717,-0.0,-0.0,-1.0,0.028007014130708593,1.0
22.437026977539062,23.783876419067383,-1.679861068725586,-0.0,-0.0,-1.0,0.0070993978683872505,1.0
22.043392181396484,24.1107120513916,-0.06394076347351074,-0.0,-0.0,-1.0,0.05890628612501201,1.0
23.414108276367188,24.54627799987793,0.013927936553955078,-0.0,-0.0,-1.0,0.0802467770736543,1.0
23.1734561920166,24.417844772338867,-1.8622632026672363,-0.0,-0.0,-1.0,0.041007849226306424,2.0
23.07611083984375,24.5714168548584,-1.8790972232818604,-0.0,-0.0,-1.0,0.04346598195197381,1.0
22.813425064086914,24.9180908203125,-1.921877384185791,-0.0,-0.0,-1.0,0.023108193515099826,1.0
23.393169403076172,24.197425842285156,-1.829376459121704,-0.0,-0.0,-1.0,0.12834071880653222,1.0
23.29590606689453,23.869279861450195,-1.8271644115447998,-0.0,-0.0,-1.0,0.08482293323015715,1.0
21.777263641357422,23.920480728149414,-1.6549558639526367,-0.0,-0.0,-1.0,0.029893458045241208,2.0
21.747802734375,23.82834815979004,-1.6562201976776123,-0.0,-0.0,-1.0,0.02778246531841766,1.0
23.50819969177246,24.005962371826172,-1.4684979915618896,-0.0,-0.0,-1.0,0.1196127611395023,2.0
21.803598403930664,23.697139739990234,-1.6473472118377686,-0.0,-0.0,-1.0,0.028315438843365768,1.0
22.977096557617188,25.14566421508789,-1.9677530527114868,-0.0,-0.0,-1.0,0.012510233276656029,2.0
23.309598922729492,24.39089012145996,-1.9002450704574585,-0.0,-0.0,-1.0,0.06196677224034747,1.0
23.14658546447754,24.621288299560547,-1.929531455039978,-0.0,-0.0,-1.0,0.04767090499755483,1.0
23.585491180419922,23.970731735229492,-1.8501368761062622,-0.0,-0.0,-1.0,0.17747600542717867,1.0
23.467967987060547,23.94330406188965,-1.866435170173645,-0.0,-0.0,-1.0,0.13704472531432085,1.0
23.694625854492188,23.908981323242188,-1.8329719305038452,-0.0,-0.0,-1.0,0.10253259476130121,1.0
23.64673614501953,23.669097900390625,-1.8341532945632935,-0.0,-0.0,-1.0,0.19553116067320253,2.0
22.180315017700195,25.525985717773438,-1.906042456626892,-0.0,-0.0,-1.0,0.012089793424356544,2.0
22.230554580688477,25.14583969116211,-1.8814762830734253,-0.0,-0.0,-1.0,0.017006355601462665,2.0
22.390995025634766,24.63511848449707,-1.8362268209457397,-0.0,-0.0,-1.0,0.041463268055809244,1.0
22.284231185913086,24.870826721191406,-1.8615647554397583,-0.0,-0.0,-1.0,0.02063474729496466,1.0
22.62872314453125,24.23825454711914,-1.785676121711731,-0.0,-0.0,-1.0,0.08981084374879984,1.0
22.400867462158203,25.515581130981445,-1.8528913259506226,-0.0,-0.0,-1.0,0.009935894588694403,1.0
22.40953826904297,25.03768539428711,-1.825527548789978,-0.0,-0.0,-1.0,0.022434752962766997,1.0
22.3896427154541,25.171466827392578,-1.835532307624817,-0.0,-0.0,-1.0,0.01434963221852062,1.0
22.477876663208008,24.696773529052734,-1.7979196310043335,-0.0,-0.0,-1.0,0.039954538617951056,1.0
22.70676040649414,24.186126708984375,-1.7392371892929077,-0.0,-0.0,-1.0,0.051270608750035786,1.0
22.01457405090332,25.602413177490234,-1.86638343334198,-0.0,-0.0,-1.0,0.013454274933934923,1.0
22.000967025756836,25.353635787963867,-1.857115626335144,-0.0,-0.0,-1.0,0.022594743551817828,2.0
22.026723861694336,24.916343688964844,-1.8340290784835815,-0.0,-0.0,-1.0,0.014489006595151774,1.0
23.471717834472656,24.964481353759766,-1.6147962808609009,-0.0,-0.0,-1.0,0.10094908879689231,2.0
22.10625648498535,24.70220184326172,-1.812661051750183,-0.0,-0.0,-1.0,0.01783856309182642,1.0
22.370485305786133,24.183399200439453,-1.750372290611267,-0.0,-0.0,-1.0,0.06782949921031804,2.0
22.1210994720459,24.607166290283203,-1.8064240217208862,-0.0,-0.0,-1.0,0.024965240249230053,1.0
22.486173629760742,23.882709503173828,-1.7206066846847534,-0.0,-0.0,-1.0,0.015583134208557236,1.0
22.567310333251953,25.366695404052734,-1.9038795232772827,-0.0,-0.0,-1.0,0.012924172931790087,2.0
22.602989196777344,24.783212661743164,-1.8633869886398315,-0.0,-0.0,-1.0,0.022111549938751654,1.0
22.533164978027344,25.1094970703125,-1.89403235912323,-0.0,-0.0,-1.0,0.01609278810431916,2.0
22.70407485961914,24.452495574951172,-1.8277696371078491,-0.0,-0.0,-1.0,0.05016753188779054,1.0
23.205188751220703,23.767671585083008,-1.7058871984481812,-0.8646628832720982,0.015514860268521986,0.5021129229589999,0.24515907282570465,6.0
22.80862045288086,24.15909194946289,-1.7939587831497192,-0.0,-0.0,-1.0,0.014174102361738721,1.0
23.124732971191406,23.70803451538086,-1.7163223028182983,-0.0,-0.0,-1.0,0.2389336187706618,2.0
21.741039276123047,25.437973022460938,-1.7972257137298584,-0.0,-0.0,-1.0,0.022102932589204843,2.0
21.737735748291016,25.0081787109375,-1.7696800231933594,-0.0,-0.0,-1.0,0.018927864469314798,1.0
21.897415161132812,24.128908157348633,-1.6900832653045654,-0.0,-0.0,-1.0,0.031186194979031925,2.0
21.882091522216797,23.829519271850586,-1.675081491470337,-0.0,-0.0,-1.0,0.028315438843365768,1.0
22.734472274780273,25.250957489013672,-1.927706241607666,-0.0,-0.0,-1.0,0.006111635936622495,2.0
22.80632972717285,24.787113189697266,-1.8758649826049805,-0.0,-0.0,-1.0,0.027121321271102013,1.0
22.855369567871094,24.648239135742188,-1.8555421829223633,-0.0,-0.0,-1.0,0.044996501805145035,1.0
22.91316795349121,24.26187515258789,-1.8140318393707275,-0.0,-0.0,-1.0,0.022145376132728756,2.0
23.197982788085938,23.715126037597656,-1.7197144031524658,-0.9886775986115157,-0.07964133286190439,-0.12717650767239272,0.2238736783510949,7.0
22.87545394897461,24.08517837524414,-1.8069236278533936,-0.0,-0.0,-1.0,0.01586002876103038,1.0
21.739181518554688,23.98111343383789,-1.6916065216064453,-0.0,-0.0,-1.0,0.02975056125635853,1.0
23.045269012451172,25.52507781982422,-1.9876694679260254,-0.0,-0.0,-1.0,0.013159031975768789,1.0
22.987953186035156,25.16736602783203,-1.9539551734924316,-0.0,-0.0,-1.0,0.01274989218820857,2.0
23.28360366821289,24.461830139160156,-1.8125360012054443,-0.0,-0.0,-1.0,0.04561380443564284,1.0
23.105411529541016,24.318927764892578,-1.830514669418335,-0.0,-0.0,-1.0,0.02579165410548432,1.0
22.953453063964844,24.103023529052734,-1.8355286121368408,-0.0,-0.0,-1.0,0.010565174119666426,1.0
23.394062042236328,23.784183502197266,-1.7131824493408203,-0.0,-0.0,-1.0,0.1376658018296351,1.0
23.076337814331055,23.948257446289062,-1.7939653396606445,-0.0,-0.0,-1.0,0.049432917749105056,1.0
22.884632110595703,25.417312622070312,-1.965705156326294,-0.0,-0.0,-1.0,0.015291510393609412,1.0
22.936918258666992,25.1418514251709,-1.9222826957702637,-0.0,-0.0,-1.0,0.012340334894842077,1.0
23.08544921875,24.583431243896484,-1.8264679908752441,-0.0,-0.0,-1.0,0.04346598195197379,1.0
22.862037658691406,24.986709594726562,-1.9201991558074951,-0.0,-0.0,-1.0,0.01456916471933928,2.0
22.987770080566406,24.370479583740234,-1.8241515159606934,-0.0,-0.0,-1.0,0.02852798573192919,1.0
23.586872100830078,23.919923782348633,-1.6440117359161377,-0.0,-0.0,-1.0,0.22653997478527566,1.0
23.20264434814453,23.777729034423828,-1.7130990028381348,-0.9833668366620528,0.010119355945494833,0.1813484579160133,0.24515907282570457,5.0
22.89657974243164,24.13579559326172,-1.8186111450195312,-0.0,-0.0,-1.0,0.017188843939080826,1.0
23.328960418701172,25.511112213134766,-2.025881290435791,-0.0,-0.0,-1.0,0.020024350107278016,2.0
23.363271713256836,24.927776336669922,-1.9242850542068481,-0.0,-0.0,-1.0,0.11520501181025988,1.0
23.180042266845703,25.264301300048828,-2.0164194107055664,-0.0,-0.0,-1.0,0.010169061511240144,2.0
21.786745071411133,25.523513793945312,-1.8396743535995483,-0.0,-0.0,-1.0,0.02414836651412046,1.0
23.360450744628906,24.840076446533203,-1.910993218421936,-0.0,-0.0,-1.0,0.11158030993530062,2.0
23.221576690673828,24.694700241088867,-1.9178944826126099,-0.0,-0.0,-1.0,0.08296692281737184,1.0
23.200546264648438,24.269874572753906,-1.8578625917434692,-0.0,-0.0,-1.0,0.035841121950733475,1.0
23.1070556640625,24.10316276550293,-1.8536940813064575,-0.0,-0.0,-1.0,0.014824272394959034,1.0
21.734130859375,25.37783432006836,-1.8316701650619507,-0.0,-0.0,-1.0,0.02210293258920475,1.0
21.730072021484375,25.123855590820312,-1.8014858961105347,-0.0,-0.0,-1.0,0.020544618980340216,1.0
21.716999053955078,25.219833374023438,-1.8156999349594116,-0.0,-0.0,-1.0,0.01824721977593407,2.0
23.359649658203125,24.29360580444336,-1.826590895652771,0.2413709756148254,0.8032534570674843,-0.5445401140778173,0.12923506161317186,4.0
22.48575210571289,24.367509841918945,-1.56283700466156,-0.0,-0.0,-1.0,0.09682166651521337,1.0
23.185388565063477,23.84455108642578,-1.798746943473816,-0.0,-0.0,-1.0,0.14286202591464536,1.0
23.568859100341797,25.50812339782715,-2.0605342388153076,-0.0,-0.0,-1.0,0.05696288486281692,1.0
23.437782287597656,25.286197662353516,-2.042030096054077,-0.0,-0.0,-1.0,0.07967303039914884,1.0
23.453481674194336,24.73926544189453,-1.9308054447174072,-0.43446681448304236,0.26785002103976857,-0.8599389241928482,0.13402996206227294,3.0
23.364519119262695,24.910945892333984,-1.9828553199768066,-0.0,-0.0,-1.0,0.1873024649995045,1.0
21.961761474609375,25.348865509033203,-1.887620449066162,-0.0,-0.0,-1.0,0.023929550937044505,2.0
21.888355255126953,25.294456481933594,-1.8930273056030273,-0.0,-0.0,-1.0,0.021775726545782286,1.0
23.379905700683594,24.299699783325195,-1.862053394317627,-0.06613799469686048,0.990633014989351,-0.11946545639048332,0.058543859438671866,5.0
23.21097183227539,24.609750747680664,-1.956838607788086,-0.0,-0.0,-1.0,0.05948508598188887,1.0
21.840421676635742,24.909896850585938,-1.8427648544311523,-0.0,-0.0,-1.0,0.01766659585214907,1.0
23.1617488861084,24.13723373413086,-1.8790054321289062,-0.0,-0.0,-1.0,0.018989787023801972,2.0
21.773326873779297,24.500106811523438,-1.7943458557128906,-0.0,-0.0,-1.0,0.015026154060486513,1.0
23.166179656982422,23.68100929260254,-1.7952892780303955,-0.8043527642102136,-0.2611552770803172,-0.5336801963353062,0.19692816993084922,3.0
23.080486297607422,23.70104217529297,-1.8183307647705078,-0.0,-0.0,-1.0,0.21217896034340475,1.0
21.759387969970703,24.255756378173828,-1.7611794471740723,-0.0,-0.0,-1.0,0.02181516279350708,1.0
21.766529083251953,24.028160095214844,-1.7269206047058105,-0.0,-0.0,-1.0,0.03115300017868458,1.0
22.0224666595459,25.447093963623047,-1.8798061609268188,-0.0,-0.0,-1.0,0.014663671106811108,1.0
22.06383514404297,25.401809692382812,-1.8634966611862183,-0.0,-0.0,-1.0,0.015811292254856345,1.0
21.90778160095215,25.054853439331055,-1.8362447023391724,-0.0,-0.0,-1.0,0.01930516999540535,1.0
21.79538345336914,24.706859588623047,-1.8022743463516235,-0.0,-0.0,-1.0,0.008380500424074176,1.0
21.748735427856445,24.33149528503418,-1.7520982027053833,-0.0,-0.0,-1.0,0.022738629405788875,1.0
21.767574310302734,23.894010543823242,-1.680090069770813,-0.0,-0.0,-1.0,0.029893458045241177,2.0
23.268226623535156,24.15144920349121,-1.8682667016983032,-0.0,-0.0,-1.0,0.04709198498014901,1.0
23.34117317199707,24.29561996459961,-1.8846737146377563,0.2817412549531577,0.7362916789386551,-0.615220634230612,0.04787109909928024,3.0
23.394302368164062,24.675594329833984,-1.9393824338912964,-0.0,-0.0,-1.0,0.0905326411257221,1.0
23.27163314819336,25.32179832458496,-2.0494227409362793,-0.0,-0.0,-1.0,0.008721079670499648,1.0
23.501392364501953,25.466575622558594,-2.0553836822509766,-0.0,-0.0,-1.0,0.019869953678285014,2.0
22.604814529418945,25.569263458251953,-1.9583622217178345,-0.0,-0.0,-1.0,0.01739783427562279,2.0
23.073570251464844,24.28207778930664,-1.813785195350647,-0.0,-0.0,-1.0,0.02289689332754928,1.0
22.8879337310791,24.277830123901367,-1.8202193975448608,-0.0,-0.0,-1.0,0.04130079338423156,2.0
23.348995208740234,24.791635513305664,-1.849445104598999,-0.0,-0.0,-1.0,0.18348723468537337,2.0
23.278587341308594,24.2614803314209,-1.7977523803710938,-0.0,-0.0,-1.0,0.0504123073415748,1.0
23.149423599243164,24.168075561523438,-1.791893720626831,-0.0,-0.0,-1.0,0.020873090092166993,1.0
23.490053176879883,24.110567092895508,-1.7768635749816895,-0.0,-0.0,-1.0,0.21903331532127068,1.0
23.68472671508789,24.03403091430664,-1.5129295587539673,-0.43934857376816666,-0.44786851161148056,-0.7787083067714087,0.1470242522893274,5.0
21.898399353027344,25.532875061035156,-1.7760111093521118,-0.0,-0.0,-1.0,0.02464728672255084,1.0
21.763011932373047,25.424701690673828,-1.7720247507095337,-0.0,-0.0,-1.0,0.02210293258920475,2.0
23.405258178710938,24.32162094116211,-1.8027809858322144,-0.0,-0.0,-1.0,0.19454518645755023,2.0
23.300201416015625,23.65865707397461,-1.7467013597488403,-0.0,-0.0,-1.0,0.18468623815225282,2.0
23.37555503845215,24.77783966064453,-1.8438876867294312,-0.48402459528414493,-0.8527286633003387,0.19640269332684085,0.13583750548195442,3.0
23.20703125,23.700674057006836,-1.7260609865188599,-0.8946112410617827,-0.09158563772389582,-0.4373588896188167,0.2195737251139686,7.0
23.050004959106445,23.652339935302734,-1.7290867567062378,-0.0,-0.0,-1.0,0.23893361877066183,2.0
23.24127960205078,23.725488662719727,-1.6931843757629395,-0.0,-0.0,-1.0,0.15901997178636115,2.0
23.199705123901367,24.494245529174805,-1.801117181777954,-0.0,-0.0,-1.0,0.03624628227465077,2.0
23.135086059570312,23.711641311645508,-1.696699857711792,-0.0,-0.0,-1.0,0.2166908779903601,2.0
22.65561866760254,25.277376174926758,-1.9368112087249756,-0.0,-0.0,-1.0,0.00847537731542797,1.0
22.635610580444336,25.354909896850586,-1.9292253255844116,-0.0,-0.0,-1.0,0.011725029658409374,2.0
22.793481826782227,24.339094161987305,-1.763994812965393,-0.0,-0.0,-1.0,0.04320150908725255,1.0
22.643863677978516,24.42936134338379,-1.7890976667404175,-0.0,-0.0,-1.0,0.08968663031042928,1.0
22.52838706970215,24.308979034423828,-1.7799962759017944,-0.0,-0.0,-1.0,0.11375439168179059,1.0
23.323022842407227,23.724958419799805,-1.759283423423767,-0.0,-0.0,-1.0,0.14227079559990993,2.0
23.49152946472168,24.166322708129883,-1.8352340459823608,-0.0,-0.0,-1.0,0.1493748100258855,1.0
23.509611129760742,24.355451583862305,-1.8684273958206177,-0.0,-0.0,-1.0,0.08062932922240894,1.0
23.395156860351562,24.767269134521484,-1.8414744138717651,-0.0,-0.0,-1.0,0.14262137945958164,2.0
23.021827697753906,24.76514434814453,-1.853441834449768,-0.0,-0.0,-1.0,0.068760460489277,1.0
23.0904598236084,25.070363998413086,-1.913559079170227,-0.0,-0.0,-1.0,0.03968689849996189,1.0
23.093379974365234,25.49309539794922,-2.0000572204589844,-0.0,-0.0,-1.0,0.014074388772658927,2.0
22.533931732177734,24.78880500793457,-1.876644253730774,-0.0,-0.0,-1.0,0.02276027980550161,1.0
22.633522033691406,25.002208709716797,-1.9162777662277222,-0.0,-0.0,-1.0,0.01453979075564984,1.0
22.81060028076172,25.245044708251953,-1.9592233896255493,-0.0,-0.0,-1.0,0.00578685160773457,1.0
22.970691680908203,24.36471176147461,-1.773339867591858,-0.0,-0.0,-1.0,0.026629010692910828,1.0
23.080951690673828,24.721620559692383,-1.8424698114395142,-0.0,-0.0,-1.0,0.07591205780355796,1.0
22.490272521972656,24.398021697998047,-1.798763394355774,-0.0,-0.0,-1.0,0.10582692127478685,1.0
22.367431640625,24.21072769165039,-1.7658251523971558,-0.0,-0.0,-1.0,0.08424783667790857,2.0
23.661151885986328,24.066421508789062,-1.519036054611206,-0.5698162503874751,-0.516891500261285,-0.6388525790446468,0.2004381512621304,4.0
21.981748580932617,24.99032974243164,-1.8300693035125732,-0.0,-0.0,-1.0,0.014947930266451987,2.0
22.13785171508789,25.407379150390625,-1.9010951519012451,0.04143877991095146,0.7478682579836872,-0.6625525610998249,0.017526252293958756,3.0
22.26563262939453,25.529651641845703,-1.9155635833740234,-0.0,-0.0,-1.0,0.00922225556668057,1.0
22.806427001953125,24.431903839111328,-1.7339231967926025,-0.0,-0.0,-1.0,0.041382991348316085,1.0
22.64347267150879,25.061962127685547,-1.891266107559204,-0.0,-0.0,-1.0,0.01257270320609169,1.0
22.79381561279297,25.41368293762207,-1.9534966945648193,-0.0,-0.0,-1.0,0.01702256476891976,1.0
22.954748153686523,25.611099243164062,-1.9807875156402588,-0.0,-0.0,-1.0,0.011919005827570734,2.0
22.269075393676758,24.212703704833984,-1.7452967166900635,-0.0,-0.0,-1.0,0.06958095995903811,1.0
22.35177230834961,24.33875274658203,-1.763570785522461,-0.0,-0.0,-1.0,0.08866729073001416,1.0
22.46696662902832,24.995075225830078,-1.8957502841949463,-0.0,-0.0,-1.0,0.019045191651952797,1.0
22.179706573486328,24.11814308166504,-1.7349019050598145,-0.0,-0.0,-1.0,0.026390497660654492,1.0
23.645366668701172,24.05097198486328,-1.5642149448394775,-0.0,-0.0,-1.0,0.19276880031860583,1.0
23.531700134277344,23.9686222076416,-1.8766863346099854,-0.0,-0.0,-1.0,0.15292917726110397,2.0
22.614280700683594,25.550504684448242,-1.9467434883117676,0.0657925188281472,-0.501209904093021,-0.8628209411606281,0.0177187375941525,3.0
22.417186737060547,25.41096305847168,-1.9388208389282227,-0.0,-0.0,-1.0,0.011146119595180312,1.0
22.126415252685547,25.017093658447266,-1.8848292827606201,-0.0,-0.0,-1.0,0.018944870223489577,1.0
22.226675033569336,25.151763916015625,-1.902836799621582,-0.0,-0.0,-1.0,0.01720313749367936,2.0
23.591398239135742,24.074073791503906,-1.4842886924743652,0.14513348322653494,0.9502048398991798,-0.27576626747792565,0.19657646317304303,4.0
23.42278289794922,24.95964813232422,-1.712721347808838,-0.6442562254284905,0.16188486144039138,-0.7474805734151619,0.1131189523855971,3.0
22.425317764282227,24.434463500976562,-1.7093384265899658,-0.0,-0.0,-1.0,0.0977591987552782,1.0
22.0561580657959,24.247772216796875,-1.7157721519470215,-0.0,-0.0,-1.0,0.028080238806676223,1.0
22.01371955871582,24.754440307617188,-1.8390791416168213,-0.0,-0.0,-1.0,0.01370723736894524,1.0
22.033353805541992,24.175159454345703,-1.7021434307098389,-0.0,-0.0,-1.0,0.027398404985147666,1.0
21.931842803955078,24.404003143310547,-1.7692945003509521,-0.0,-0.0,-1.0,0.018286459772680137,1.0
23.425016403198242,24.719242095947266,-1.6500908136367798,-0.0,-0.0,-1.0,0.09764893445430202,1.0
23.438858032226562,24.988574981689453,-1.7203117609024048,-0.04500833134747499,-0.04746424267671,-0.997858404672949,0.09538699911431057,6.0
22.535627365112305,25.574851989746094,-1.9370232820510864,-0.0,-0.0,-1.0,0.014531125558406025,1.0
22.30929183959961,25.47815704345703,-1.9303609132766724,-0.0,-0.0,-1.0,0.01007919533756167,1.0
21.948326110839844,24.993148803710938,-1.836478352546692,-0.0,-0.0,-1.0,0.014947930266451909,2.0
22.03289031982422,25.275405883789062,-1.9017292261123657,-0.0,-0.0,-1.0,0.01738020920566857,1.0
21.767271041870117,24.819488525390625,-1.8093222379684448,-0.0,-0.0,-1.0,0.013094921970155791,1.0
23.56157875061035,24.028179168701172,-1.4595988988876343,-0.0,-0.0,-1.0,0.15509347414710337,1.0
21.866233825683594,25.467784881591797,-1.8852394819259644,-0.0,-0.0,-1.0,0.024148366514120462,1.0
23.518339157104492,24.974111557006836,-1.6287652254104614,-0.0,-0.0,-1.0,0.10094908879689238,2.0
23.45005226135254,24.320541381835938,-1.9467321634292603,-0.0,-0.0,-1.0,0.04916114530598676,1.0
23.356931686401367,24.147804260253906,-1.9109631776809692,-0.0,-0.0,-1.0,0.05176154023563465,1.0
23.605100631713867,24.002300262451172,-1.8897958993911743,-0.0,-0.0,-1.0,0.14612473415329583,1.0
23.331995010375977,24.20781707763672,-1.8771817684173584,-0.0,-0.0,-1.0,0.059999395105395016,1.0
23.699806213378906,24.04438591003418,-1.529045581817627,-0.46583829661215065,-0.4792827072962942,-0.7438297976662573,0.21137044385907813,3.0
23.199512481689453,23.758398056030273,-1.752960443496704,-0.9854491588257158,0.14900388547304058,0.08177895501671335,0.2419186295540061,8.0
23.65843391418457,24.863624572753906,-1.6404125690460205,-0.036733310043268935,-0.34600876719852947,-0.937511918300252,0.17249168490247413,4.0
23.69498062133789,23.95944595336914,-1.5375213623046875,-0.0,-0.0,-1.0,0.14523635254847223,1.0
23.615310668945312,24.000680923461914,-1.5400762557983398,-0.807558236599785,0.5882314839209428,-0.0428184052016319,0.11231522060723936,3.0
23.13458251953125,24.911888122558594,-1.8944079875946045,-0.0,-0.0,-1.0,0.06911827022386118,1.0
22.62908935546875,25.418418884277344,-1.9495375156402588,-0.0,-0.0,-1.0,0.019389135520006734,1.0
22.547138214111328,25.440256118774414,-1.9474880695343018,-0.0,-0.0,-1.0,0.01083282215661906,2.0
23.019046783447266,24.89085578918457,-1.881251573562622,-0.0,-0.0,-1.0,0.0653600224215599,1.0
23.634044647216797,23.95345115661621,-1.5501346588134766,-0.6040481258895704,-0.5397157459084221,-0.5863725566803184,0.11583387307796461,5.0
23.40526580810547,25.000545501708984,-1.6804320812225342,-0.0,-0.0,-1.0,0.1131189523855971,1.0
23.54267120361328,23.90321922302246,-1.5600240230560303,-0.0,-0.0,-1.0,0.10249014535486811,1.0
22.551347732543945,24.9608097076416,-1.9230530261993408,-0.0,-0.0,-1.0,0.02143379597687612,1.0
22.266931533813477,25.387584686279297,-1.9364922046661377,-0.0,-0.0,-1.0,0.01115755856436309,1.0
22.2038631439209,25.46904945373535,-1.9379003047943115,-0.0,-0.0,-1.0,0.013096834315430591,1.0
21.88640022277832,25.412723541259766,-1.8746306896209717,-0.0,-0.0,-1.0,0.024148366514120414,1.0
21.860118865966797,25.02648162841797,-1.8115546703338623,-0.0,-0.0,-1.0,0.019726687473880816,2.0
23.64216423034668,25.111305236816406,-2.0149028301239014,-0.0,-0.0,-1.0,0.07680624190325061,1.0
23.46416473388672,25.45275115966797,-2.031181573867798,-0.0,-0.0,-1.0,0.020901035377733117,2.0
23.607988357543945,24.159339904785156,-1.8809106349945068,0.49679534160357947,-0.22247433239507833,-0.8388680229847523,0.10907411553951228,3.0
23.43528938293457,24.729270935058594,-1.924727201461792,-0.0,-0.0,-1.0,0.13650991533970971,2.0
23.353614807128906,24.797094345092773,-1.919135332107544,-0.0,-0.0,-1.0,0.18881419550301323,2.0
23.418664932250977,25.187484741210938,-1.9852397441864014,-0.0,-0.0,-1.0,0.1052166167016044,2.0
23.466266632080078,24.24154281616211,-1.8652875423431396,-0.0,-0.0,-1.0,0.08377188856695295,1.0
23.251623153686523,24.373916625976562,-1.8432047367095947,-0.0,-0.0,-1.0,0.04205983642987616,1.0
23.079959869384766,24.918882369995117,-1.8864800930023193,-0.0,-0.0,-1.0,0.05374073998362853,1.0
23.056299209594727,24.449928283691406,-1.8175499439239502,-0.0,-0.0,-1.0,0.03926689064696052,1.0
23.224435806274414,25.210205078125,-2.005061626434326,-0.0,-0.0,-1.0,0.012889789516981652,2.0
23.007566452026367,25.581748962402344,-2.009624481201172,0.3839190632971916,0.709886374457345,-0.5904807263550719,0.01121915137669162,3.0
23.079078674316406,24.390979766845703,-1.8783268928527832,-0.0,-0.0,-1.0,0.03964707028626459,1.0
23.0142879486084,24.674686431884766,-1.8986506462097168,-0.0,-0.0,-1.0,0.04690721614437249,1.0
22.96900749206543,23.872085571289062,-1.7977771759033203,-0.0,-0.0,-1.0,0.05791356853638088,1.0
23.070283889770508,24.203006744384766,-1.8550987243652344,-0.0,-0.0,-1.0,0.0177076663682273,1.0
22.95212745666504,24.44727897644043,-1.8594536781311035,-0.0,-0.0,-1.0,0.04818955664670313,1.0
21.713191986083984,25.610069274902344,-1.7652487754821777,-0.0,-0.0,-1.0,0.024148366514120466,1.0
23.6214599609375,24.95212173461914,-1.6541366577148438,0.8042588707484968,-0.2731465790027742,-0.5277865242704038,0.12230645177682929,3.0
23.66153907775879,23.918498992919922,-1.5525379180908203,-0.0,-0.0,-1.0,0.12742614318234188,2.0
23.586400985717773,23.960811614990234,-1.5425548553466797,-0.4707836332001198,-0.15224283771226926,-0.8690137450444675,0.10401779598835259,5.0
23.446922302246094,24.09104347229004,-1.5294532775878906,-0.0,-0.0,-1.0,0.19446349145168604,2.0
23.692935943603516,23.981510162353516,-1.625530481338501,-0.0,-0.0,-1.0,0.1999540253935971,2.0
23.533672332763672,24.981578826904297,-1.6800105571746826,-0.0,-0.0,-1.0,0.11775875562190737,1.0
23.478919982910156,24.935447692871094,-1.7111570835113525,-0.0,-0.0,-1.0,0.09589984293279434,1.0
23.583656311035156,23.836824417114258,-1.6375815868377686,-0.0,-0.0,-1.0,0.09963173218363039,1.0
23.48267364501953,24.09568214416504,-1.6381723880767822,-0.0,-0.0,-1.0,0.1991475361760269,1.0
23.58075714111328,24.097660064697266,-1.83913254737854,-0.0,-0.0,-1.0,0.1709176622700955,1.0
23.136091232299805,23.767499923706055,-1.7210280895233154,-0.24370058980492423,0.9064049745245091,0.3450218032037336,0.2509843122503334,3.0
22.235294342041016,23.912160873413086,-1.7264235019683838,-0.0,-0.0,-1.0,0.0204632690063072,1.0
22.42911148071289,24.328903198242188,-1.7981765270233154,-0.0,-0.0,-1.0,0.09618896311031887,2.0
22.653491973876953,24.62660026550293,-1.8708622455596924,-0.0,-0.0,-1.0,0.05825318086943626,1.0
22.84650230407715,24.99655532836914,-1.942556619644165,-0.0,-0.0,-1.0,0.014735993909794711,2.0
22.86527442932129,25.32567024230957,-1.9721543788909912,-0.0,-0.0,-1.0,0.004420155011402537,1.0
22.104501724243164,23.69033432006836,-1.6825296878814697,-0.0,-0.0,-1.0,0.017951784483773596,1.0
22.224050521850586,24.16455078125,-1.7396152019500732,-0.0,-0.0,-1.0,0.052114484438380904,1.0
22.642667770385742,25.538244247436523,-1.9374568462371826,-0.0,-0.0,-1.0,0.018657805855967907,2.0
22.306350708007812,23.823528289794922,-1.7245025634765625,-0.0,-0.0,-1.0,0.012984716726015458,1.0
22.521413803100586,24.176746368408203,-1.795670986175537,-0.0,-0.0,-1.0,0.08239737916524152,1.0
22.79779815673828,24.538341522216797,-1.883760929107666,-0.0,-0.0,-1.0,0.05066683999359312,1.0
22.883487701416016,24.862377166748047,-1.9251031875610352,-0.0,-0.0,-1.0,0.025453248149565066,1.0
23.024595260620117,25.20259666442871,-1.9822649955749512,-0.0,-0.0,-1.0,0.010538598513952,1.0
23.024904251098633,25.450458526611328,-2.0000181198120117,-0.0,-0.0,-1.0,0.014038105979301394,1.0
22.973468780517578,25.608692169189453,-1.9994025230407715,-0.6145022332771038,-0.5712422366715523,-0.5441225159281081,0.011571507410660438,3.0
21.824249267578125,23.76519775390625,-1.6939852237701416,-0.0,-0.0,-1.0,0.028315438843365744,1.0
21.983861923217773,24.073551177978516,-1.7500970363616943,-0.0,-0.0,-1.0,0.03129874543355383,1.0
22.2055721282959,24.591880798339844,-1.8359854221343994,-0.0,-0.0,-1.0,0.03373602381235084,1.0
22.366649627685547,24.870765686035156,-1.8951146602630615,-0.0,-0.0,-1.0,0.02096333284721119,1.0
22.37336540222168,25.150747299194336,-1.9148695468902588,-0.0,-0.0,-1.0,0.01457485352040023,1.0
22.374099731445312,25.271207809448242,-1.9232676029205322,-0.0,-0.0,-1.0,0.015498296772852697,1.0
22.24128532409668,24.729843139648438,-1.8780946731567383,-0.0,-0.0,-1.0,0.020208585683660223,1.0
22.25322914123535,24.992395401000977,-1.8955087661743164,-0.0,-0.0,-1.0,0.01991184510392797,1.0
23.528932571411133,23.9755802154541,-1.5354351997375488,0.024441380236185598,0.22116711379773446,-0.9749296008976903,0.10722370166522517,3.0
23.604591369628906,24.833648681640625,-1.596735954284668,-0.0,-0.0,-1.0,0.09005821763639064,2.0
21.725189208984375,23.743637084960938,-1.6940727233886719,-0.0,-0.0,-1.0,0.02778246531841753,1.0
21.770374298095703,24.10377311706543,-1.7197227478027344,-0.0,-0.0,-1.0,0.025887868640709254,1.0
22.062828063964844,24.57685089111328,-1.821251392364502,-0.0,-0.0,-1.0,0.014954652272876387,1.0
22.16179084777832,24.966257095336914,-1.868600845336914,-0.0,-0.0,-1.0,0.019971958319867738,1.0
23.142406463623047,23.696989059448242,-1.7672784328460693,-0.8043527642102136,-0.2611552770803172,-0.5336801963353062,0.25298396274562485,3.0
23.503002166748047,23.990976333618164,-1.8752009868621826,-0.0,-0.0,-1.0,0.11037915118089939,2.0
23.346107482910156,24.326297760009766,-1.8456990718841553,0.5749704962296011,0.7851919129107032,-0.22996214550468336,0.047946135692577156,4.0
23.63275146484375,24.52222442626953,-1.9324591159820557,-0.0,-0.0,-1.0,0.06940763383304423,1.0
23.629562377929688,24.69992446899414,-1.9399464130401611,-0.0,-0.0,-1.0,0.07810487653419015,1.0
23.603221893310547,23.9007511138916,-1.598172664642334,-0.0,-0.0,-1.0,0.13432463510815687,1.0
23.610694885253906,24.012760162353516,-1.602963924407959,-0.0,-0.0,-1.0,0.2813564131913779,1.0
23.526153564453125,24.70530891418457,-1.601987361907959,-0.0,-0.0,-1.0,0.11635380458493111,1.0
23.610565185546875,24.86163902282715,-1.6308479309082031,-0.0965926673929739,-0.7610856539142541,-0.6414191172796636,0.09005821763639062,3.0
23.387977600097656,25.42523765563965,-2.0329513549804688,-0.0,-0.0,-1.0,0.020901035377733104,1.0
22.668842315673828,25.63058853149414,-1.9364433288574219,-0.0,-0.0,-1.0,0.016785884679732056,1.0
23.384952545166016,24.744117736816406,-1.9219512939453125,-0.0,-0.0,-1.0,0.16648005941488714,1.0
23.679336547851562,24.320098876953125,-1.908121109008789,-0.0,-0.0,-1.0,0.11254889820783914,1.0
22.901180267333984,24.521358489990234,-1.878960132598877,-0.0,-0.0,-1.0,0.04754725202382511,1.0
22.622045516967773,24.929540634155273,-1.870816707611084,-0.0,-0.0,-1.0,0.018431120959491943,1.0
22.498172760009766,24.997243881225586,-1.8526482582092285,-0.0,-0.0,-1.0,0.018636456660840402,2.0
22.290613174438477,25.007949829101562,-1.8088669776916504,-0.0,-0.0,-1.0,0.020125181693435936,1.0
22.376689910888672,24.618099212646484,-1.7767930030822754,-0.0,-0.0,-1.0,0.07095577674879308,1.0
22.080150604248047,25.015256881713867,-1.7640633583068848,-0.0,-0.0,-1.0,0.017643215196866454,1.0
21.7796573638916,23.935867309570312,-1.557990550994873,-0.0,-0.0,-1.0,0.029893458045241225,1.0
23.687833786010742,23.98465919494629,-1.7128562927246094,-0.0,-0.0,-1.0,0.08634104101614802,1.0
23.689680099487305,24.507442474365234,-1.768697738647461,-0.0,-0.0,-1.0,0.17193571385425954,1.0
23.600126266479492,24.202964782714844,-1.7138614654541016,-0.0,-0.0,-1.0,0.1612830487421893,1.0
23.494503021240234,23.681800842285156,-1.78047513961792,-0.0,-0.0,-1.0,0.12953854688756883,1.0
23.543094635009766,24.0361328125,-1.8105006217956543,-0.0,-0.0,-1.0,0.21116851985823662,1.0
23.48131561279297,24.22901725769043,-1.797752857208252,-0.0,-0.0,-1.0,0.17613087998184812,1.0
23.694902420043945,24.558673858642578,-1.8827738761901855,-0.0,-0.0,-1.0,0.18456921380317248,2.0
23.527217864990234,24.028108596801758,-1.5047760009765625,-0.46545939493637645,0.38469010705442835,-0.7970953978037477,0.18344925183330538,6.0
23.690433502197266,24.600509643554688,-1.8759007453918457,-0.0,-0.0,-1.0,0.12966498486438105,2.0
23.452007293701172,24.77728271484375,-1.9182190895080566,-0.0,-0.0,-1.0,0.13747353257598222,2.0
23.22348403930664,24.853843688964844,-1.9316191673278809,-0.0,-0.0,-1.0,0.09694668904814913,1.0
22.208677291870117,24.662336349487305,-1.835319995880127,-0.0,-0.0,-1.0,0.02981468707656165,1.0
23.05561637878418,23.64457130432129,-1.773141860961914,-0.0,-0.0,-1.0,0.2193285311427034,2.0
22.207887649536133,24.018939971923828,-1.8047285079956055,-0.0,-0.0,-1.0,0.022866258637242308,1.0
22.577077865600586,24.046157836914062,-1.8459539413452148,-0.0,-0.0,-1.0,0.024588486137335382,1.0
