x,y,z,nx,ny,nz,curvature,density
51.222652435302734,15.672440528869629,-2.2482261657714844,-0.0,-0.0,-1.0,0.0406611999792483,1.0
51.56320571899414,17.164779663085938,-2.1434926986694336,0.10494960094585067,0.4474634021507163,-0.8881227871173072,0.1054380742667769,3.0
51.312255859375,17.317651748657227,-1.9437503814697266,-0.0,-0.0,-1.0,0.14975986092196292,1.0
51.54048156738281,17.157686233520508,-2.149751901626587,0.0008247000656682443,0.14859561319830286,-0.9888977012856396,0.1054380742667769,4.0
51.632415771484375,17.39378547668457,-1.8746769428253174,-0.46273796038848736,0.7479433282533756,0.4758722073590413,0.10228596464189502,4.0
51.55133056640625,17.256662368774414,-2.092740058898926,-0.19630464689351845,0.8234852720677253,0.5322936147424241,0.07139771112435338,3.0
51.642581939697266,17.195600509643555,-2.077312469482422,0.2677738989764085,0.36681241143044474,-0.8909241235074706,0.12652570659744736,3.0
51.257347106933594,17.62098503112793,-2.0309619903564453,-0.0,-0.0,-1.0,0.11385041416040019,1.0
51.63877868652344,17.344942092895508,-1.8963899612426758,-0.0,-0.0,-1.0,0.1400767820913361,1.0
51.53679656982422,17.26683235168457,-2.0427606105804443,-0.011657076793287147,0.8110062747539788,-0.5849213065620963,0.07444281035490405,4.0
51.59819793701172,17.20004653930664,-2.0888218879699707,-0.0,-0.0,-1.0,0.13241306716529344,2.0
51.628273010253906,16.111595153808594,-2.2963449954986572,-0.0,-0.0,-1.0,0.06382489047532174,1.0
51.412845611572266,16.795751571655273,-2.282804012298584,-0.0,-0.0,-1.0,0.08528568168745172,1.0
51.165931701660156,17.099008560180664,-2.2336316108703613,-0.0,-0.0,-1.0,0.10912989872286008,1.0
50.97806930541992,17.555381774902344,-2.220872402191162,0.2899701056245862,-0.8618986707893442,-0.4159904075043411,0.11935201585887542,3.0
51.49559783935547,17.350269317626953,-1.9186227321624756,-0.0,-0.0,-1.0,0.1373731080422749,1.0
51.703006744384766,17.305706024169922,-1.9289988279342651,-0.0,-0.0,-1.0,0.1077078164674451,2.0
51.416038513183594,17.34998321533203,-1.8868138790130615,-0.0,-0.0,-1.0,0.17821505055512246,1.0
51.57102584838867,16.39757537841797,-2.2264761924743652,-0.0,-0.0,-1.0,0.09433355636299572,1.0
51.56483459472656,16.97449493408203,-2.275792121887207,-0.0,-0.0,-1.0,0.07192493758269988,1.0
51.47153091430664,17.044456481933594,-2.2319817543029785,0.24499693846834644,0.6404036353772645,-0.7279146130809033,0.09790381412687117,3.0
50.37450408935547,15.807392120361328,-2.2813403606414795,-0.0,-0.0,-1.0,0.0047735591427123655,2.0
51.19849395751953,17.581174850463867,-2.0169389247894287,-0.03892966233302946,-0.23129310239614806,-0.9721049234391324,0.16949288763694845,5.0
51.308815002441406,17.297754287719727,-2.046570301055908,-0.0,-0.0,-1.0,0.1464675132839122,2.0
51.67916488647461,17.377565383911133,-1.9219229221343994,-0.0,-0.0,-1.0,0.08948793395441931,2.0
49.93321990966797,16.246232986450195,-2.174318790435791,-0.0,-0.0,-1.0,0.029019197449346324,2.0
51.03960418701172,15.682193756103516,-2.272463798522949,-0.0,-0.0,-1.0,0.019237300569256273,1.0
51.2828483581543,17.468097686767578,-1.842384696006775,-0.0,-0.0,-1.0,0.17464259680114447,1.0
50.03846740722656,16.06610870361328,-2.1881961822509766,-0.0,-0.0,-1.0,0.02674400943362356,2.0
51.61585998535156,17.63726806640625,-1.884108066558838,-0.0,-0.0,-1.0,0.04837587853062244,2.0
51.249366760253906,15.698993682861328,-2.297649383544922,-0.0,-0.0,-1.0,0.0406611999792483,1.0
51.24614715576172,17.44775390625,-1.9808335304260254,-0.0,-0.0,-1.0,0.17754306672169876,2.0
51.31734085083008,17.280929565429688,-1.895799160003662,-0.0,-0.0,-1.0,0.12867652753864736,1.0
51.384796142578125,17.337081909179688,-2.13295578956604,-0.0,-0.0,-1.0,0.07616994813340175,1.0
51.31623458862305,17.158302307128906,-2.2292470932006836,-0.0,-0.0,-1.0,0.1039873327713266,2.0
51.51799392700195,16.94837188720703,-2.2413835525512695,-0.0,-0.0,-1.0,0.0908061726802093,1.0
51.37384796142578,17.03704071044922,-2.2693653106689453,-0.0,-0.0,-1.0,0.06273253114064271,1.0
51.353424072265625,15.88352108001709,-2.268569231033325,-0.0,-0.0,-1.0,0.07862617336256841,1.0
51.321929931640625,16.27092742919922,-2.289607286453247,-0.0,-0.0,-1.0,0.04717717923802575,1.0
51.39853286743164,16.163286209106445,-2.4894285202026367,-0.0,-0.0,-1.0,0.06466437171061162,1.0
51.34622573852539,15.922143936157227,-2.484041213989258,-0.0,-0.0,-1.0,0.058638672644408016,1.0
51.32109451293945,16.53160858154297,-2.4778318405151367,-0.0,-0.0,-1.0,0.047293539420247346,1.0
51.25708770751953,16.825828552246094,-2.468625068664551,-0.0,-0.0,-1.0,0.05169834390029138,1.0
51.15811538696289,15.65510082244873,-2.4615368843078613,-0.0,-0.0,-1.0,0.03566451085180484,1.0
51.114524841308594,17.551668167114258,-2.1967275142669678,-0.0,-0.0,-1.0,0.09871005915077868,2.0
51.41600799560547,17.274642944335938,-2.0698132514953613,0.3385961071319949,0.8003193570939809,-0.4948147157226998,0.09015774220689997,5.0
51.143096923828125,17.43251609802246,-2.0399227142333984,-0.0,-0.0,-1.0,0.14017792612361812,2.0
51.100379943847656,17.582313537597656,-2.034144878387451,-0.0,-0.0,-1.0,0.13926125993249927,1.0
51.68768310546875,15.86929988861084,-2.3976404666900635,-0.0,-0.0,-1.0,0.0700797204975285,1.0
51.19635009765625,17.192035675048828,-2.3442318439483643,-0.0,-0.0,-1.0,0.0559387795182186,1.0
51.11511993408203,17.426986694335938,-2.3358795642852783,-0.0,-0.0,-1.0,0.09335332691498037,1.0
51.31509017944336,17.14935302734375,-2.2791266441345215,-0.0,-0.0,-1.0,0.08663794577937044,1.0
51.3417854309082,17.305673599243164,-2.281981945037842,-0.0,-0.0,-1.0,0.05991696383941519,1.0
51.012733459472656,17.579120635986328,-2.245894432067871,-0.0,-0.0,-1.0,0.1218692278606525,2.0
49.77722930908203,17.238483428955078,-2.2528560161590576,-0.0,-0.0,-1.0,0.005341123460359362,1.0
51.205169677734375,17.50620460510254,-2.145090103149414,-0.0,-0.0,-1.0,0.08719410912496887,2.0
51.509422302246094,17.223041534423828,-2.185771942138672,-0.0,-0.0,-1.0,0.056876979300706274,2.0
51.171234130859375,17.544540405273438,-1.9569194316864014,0.6328173569952881,0.7275962221866211,-0.264850769576483,0.13988576237216577,3.0
50.643951416015625,17.21790313720703,-2.285663604736328,-0.0,-0.0,-1.0,0.03398558627095467,1.0
50.69906997680664,16.965709686279297,-2.2991890907287598,-0.0,-0.0,-1.0,0.020579889475594228,1.0
50.668670654296875,17.51349639892578,-2.2799839973449707,-0.0,-0.0,-1.0,0.04270712006109454,2.0
51.2999382019043,17.5479736328125,-1.9579882621765137,-0.0,-0.0,-1.0,0.1604639948887139,1.0
51.21432876586914,17.571815490722656,-2.0133023262023926,0.28862814622899163,-0.3145782271452519,-0.9042866427248418,0.16949288763694842,6.0
51.273094177246094,15.895700454711914,-2.26436710357666,-0.0,-0.0,-1.0,0.05700529632879862,1.0
51.32012939453125,16.345706939697266,-2.289337158203125,-0.0,-0.0,-1.0,0.04841428249497317,2.0
51.355201721191406,16.117795944213867,-2.285188674926758,-0.0,-0.0,-1.0,0.05126200307726404,1.0
50.963706970214844,15.690069198608398,-2.304945468902588,-0.0,-0.0,-1.0,0.02134438580503714,1.0
50.83274459838867,16.080629348754883,-2.312459945678711,-0.0,-0.0,-1.0,0.008792522038016521,1.0
50.93262481689453,15.911574363708496,-2.3157896995544434,-0.0,-0.0,-1.0,0.010409616551095983,1.0
51.27573013305664,17.4150333404541,-2.1186180114746094,-0.4839583623971636,0.15753644489034313,-0.8607941519301623,0.10663320674853562,3.0
51.43689727783203,17.259389877319336,-2.131391763687134,-0.0,-0.0,-1.0,0.0979466677685222,2.0
51.12525939941406,17.601333618164062,-2.103264093399048,-0.0,-0.0,-1.0,0.09586793319025208,1.0
51.17411804199219,17.404172897338867,-2.0989134311676025,-0.0,-0.0,-1.0,0.12340761923129093,1.0
51.179237365722656,17.533979415893555,-2.1370630264282227,0.34550241610138616,0.5436444885726934,-0.7649044061270918,0.1157409114468448,3.0
51.545631408691406,17.5760498046875,-1.9030749797821045,-0.0,-0.0,-1.0,0.06854915016679768,1.0
50.46686553955078,15.76172924041748,-2.275632619857788,-0.0,-0.0,-1.0,0.006143501614638547,2.0
49.95701599121094,16.100566864013672,-2.194687604904175,-0.0,-0.0,-1.0,0.029019197449346314,1.0
51.37479782104492,17.323549270629883,-1.9558219909667969,-0.0,-0.0,-1.0,0.1379801213097893,1.0
51.49821090698242,15.672221183776855,-2.3154778480529785,-0.0,-0.0,-1.0,0.061630557943550615,1.0
51.4932861328125,16.06499481201172,-2.336883544921875,-0.0,-0.0,-1.0,0.06881747562202033,1.0
51.30699920654297,16.534122467041016,-2.331510066986084,-0.0,-0.0,-1.0,0.03343262605199275,2.0
51.485496520996094,16.300342559814453,-2.349320888519287,-0.0,-0.0,-1.0,0.04559687574748866,1.0
50.716392517089844,17.511327743530273,-2.2890429496765137,-0.0,-0.0,-1.0,0.04270712006109455,2.0
51.53986358642578,16.73377227783203,-2.208427906036377,-0.0,-0.0,-1.0,0.09938855980704786,1.0
51.100364685058594,17.496715545654297,-2.1801493167877197,-0.0,-0.0,-1.0,0.13219138638510888,1.0
51.275386810302734,17.39181900024414,-2.122673511505127,-0.4839583623971636,0.15753644489034313,-0.8607941519301623,0.10467938205269232,3.0
50.763797760009766,15.8587646484375,-2.292595624923706,-0.0,-0.0,-1.0,0.006556957048105765,1.0
49.920501708984375,16.267759323120117,-2.153468132019043,-0.0,-0.0,-1.0,0.029019197449346338,2.0
50.59349060058594,16.08732795715332,-2.273810625076294,-0.0,-0.0,-1.0,0.00833180942805008,1.0
51.60246276855469,17.609935760498047,-1.8823134899139404,-0.0,-0.0,-1.0,0.06686367085717321,2.0
50.9843864440918,16.388399124145508,-2.336536169052124,-0.0,-0.0,-1.0,0.012155095286014078,1.0
50.75918197631836,15.898148536682129,-2.2596709728240967,-0.0,-0.0,-1.0,0.006556957048105855,1.0
50.82027053833008,15.773469924926758,-2.265092134475708,-0.0,-0.0,-1.0,0.006347157260347498,2.0
49.95343780517578,16.300840377807617,-2.1166257858276367,-0.0,-0.0,-1.0,0.029019197449346338,1.0
50.02851867675781,16.155393600463867,-2.123220205307007,-0.0,-0.0,-1.0,0.028329649456457127,1.0
50.763031005859375,16.02366065979004,-2.267963171005249,-0.0,-0.0,-1.0,0.010016425145677651,1.0
50.799957275390625,16.207077026367188,-2.2868192195892334,-0.0,-0.0,-1.0,0.006852517315434147,1.0
50.13886642456055,17.577234268188477,-2.2428979873657227,-0.0,-0.0,-1.0,0.020856657794572457,1.0
51.53345489501953,17.482755661010742,-1.8639178276062012,-0.0,-0.0,-1.0,0.05982996587004795,1.0
49.76862335205078,15.680307388305664,-2.2009048461914062,-0.0,-0.0,-1.0,0.024517514993386558,1.0
51.29374694824219,17.421537399291992,-2.0546622276306152,0.2980131509906514,0.2086413665798018,-0.9314810475733449,0.22027948373015455,6.0
50.160438537597656,15.98752212524414,-2.2224783897399902,-0.0,-0.0,-1.0,0.01653834906551263,2.0
50.378456115722656,15.770545959472656,-2.262143135070801,-0.0,-0.0,-1.0,0.004831798263150973,2.0
50.01113510131836,16.18009376525879,-2.1986145973205566,-0.0,-0.0,-1.0,0.028329649456457127,1.0
51.33143997192383,17.4294376373291,-2.0311317443847656,0.5173103236650582,-0.7189338452655655,-0.46424579175391634,0.17886121284119663,4.0
51.574493408203125,17.24557876586914,-2.0670509338378906,0.03992112721909521,0.9482171521052961,-0.31510400831293556,0.07139771112435339,4.0
51.44188690185547,15.764793395996094,-2.2746493816375732,-0.0,-0.0,-1.0,0.062107165918750214,1.0
51.445831298828125,16.146686553955078,-2.30196475982666,-0.0,-0.0,-1.0,0.06449392853800771,1.0
51.30241012573242,16.552335739135742,-2.296938180923462,-0.0,-0.0,-1.0,0.07223794458046362,2.0
51.259132385253906,16.78156089782715,-2.3044662475585938,-0.0,-0.0,-1.0,0.09965200640676984,1.0
50.75039291381836,17.52173614501953,-2.243809700012207,-0.0,-0.0,-1.0,0.04709769928876203,2.0
50.84856414794922,17.455669403076172,-2.261845588684082,-0.0,-0.0,-1.0,0.045633470432433376,1.0
51.48415756225586,17.515289306640625,-1.8788843154907227,-0.0,-0.0,-1.0,0.07482020149437602,1.0
51.61293029785156,17.395326614379883,-1.895340919494629,-0.46273796038848736,0.7479433282533756,0.4758722073590413,0.07920978483596826,4.0
51.08513259887695,15.862899780273438,-2.329176187515259,-0.09733524330062086,-0.2720018798061515,-0.9573613882925973,0.0338022703541731,3.0
51.088932037353516,16.25704574584961,-2.355529546737671,-0.0,-0.0,-1.0,0.029699575826083586,2.0
50.9583854675293,16.738832473754883,-2.354431390762329,-0.0,-0.0,-1.0,0.05926734558689972,1.0
51.05933380126953,16.533605575561523,-2.3668744564056396,-0.0,-0.0,-1.0,0.03402738614081534,1.0
50.60994338989258,17.584123611450195,-2.331357717514038,-0.0,-0.0,-1.0,0.04281274548973873,2.0
51.2449836730957,17.507205963134766,-1.9937000274658203,-0.0,-0.0,-1.0,0.1816594490421463,2.0
51.426124572753906,17.30722999572754,-2.019636631011963,0.12449414237944605,0.7863125070084146,-0.6051560541177357,0.07981153112208209,5.0
51.11488342285156,15.850363731384277,-2.328639268875122,-0.0,-0.0,-1.0,0.03839353856685034,2.0
51.10748291015625,16.23784828186035,-2.350646734237671,-0.0,-0.0,-1.0,0.028954200602769684,2.0
51.057403564453125,16.62125587463379,-2.362840414047241,-0.0,-0.0,-1.0,0.04834540009942823,2.0
50.654701232910156,17.5672550201416,-2.3234703540802,-0.0,-0.0,-1.0,0.04281274548973876,2.0
51.53057861328125,17.239887237548828,-2.0744411945343018,0.04427970164267396,0.9433873681075666,-0.32872417270032744,0.07139771112435338,5.0
51.20985794067383,17.58632469177246,-2.0208287239074707,0.28862814622899163,-0.3145782271452519,-0.9042866427248418,0.16949288763694842,6.0
51.303123474121094,17.39690399169922,-2.0284101963043213,0.8729044074555097,-0.4512824273229121,-0.18542401741491363,0.18300660909733862,7.0
51.46013641357422,16.714826583862305,-2.2905731201171875,-0.0,-0.0,-1.0,0.11885156121954382,1.0
51.594032287597656,16.562074661254883,-2.319632053375244,-0.0,-0.0,-1.0,0.096352216789479,1.0
51.33840560913086,17.087854385375977,-2.2859246730804443,-0.0,-0.0,-1.0,0.05133400118372247,2.0
51.49889373779297,16.90076446533203,-2.318560838699341,-0.0,-0.0,-1.0,0.07578884975084575,1.0
51.035980224609375,17.534408569335938,-2.2365357875823975,-0.0,-0.0,-1.0,0.1583156978211927,1.0
51.19739532470703,17.340639114379883,-2.266646385192871,-0.0,-0.0,-1.0,0.09457082811631964,2.0
51.35331726074219,17.500699996948242,-1.8945519924163818,-0.0,-0.0,-1.0,0.16268230669466532,1.0
51.509071350097656,16.676692962646484,-1.9978606700897217,-0.0,-0.0,-1.0,0.11510617463239947,1.0
51.62955093383789,17.137380599975586,-2.0746049880981445,-0.0,-0.0,-1.0,0.12334089904944393,1.0
51.32674026489258,17.35895347595215,-2.000743865966797,-0.0,-0.0,-1.0,0.11967543775836828,2.0
51.41864776611328,17.31422996520996,-2.0250802040100098,0.12449414237944605,0.7863125070084146,-0.6051560541177357,0.10618829330635514,5.0
51.237815856933594,17.561010360717773,-1.993260383605957,0.5658944358460772,-0.23549345339479474,-0.7901305720491038,0.1334608975401726,3.0
51.69290542602539,17.339082717895508,-1.9289571046829224,-0.9201051415498028,-0.2781212732768887,-0.27578086562424825,0.10977007384572281,3.0
51.633567810058594,17.435226440429688,-1.9192804098129272,-0.0,-0.0,-1.0,0.09134729918975873,2.0
51.40434265136719,17.512659072875977,-1.897503137588501,-0.0,-0.0,-1.0,0.15985348681527028,1.0
51.63532257080078,16.45726203918457,-2.2670202255249023,-0.0,-0.0,-1.0,0.06682979328195605,1.0
51.42730712890625,17.035499572753906,-2.2881436347961426,-0.0,-0.0,-1.0,0.07806636714000818,2.0
50.69445037841797,15.814905166625977,-2.2817063331604004,-0.0,-0.0,-1.0,0.005384053118281713,2.0
51.44733428955078,17.017723083496094,-2.2636451721191406,0.7833174627707573,0.026596343564512622,-0.6210526443284674,0.07806636714000824,3.0
51.220802307128906,17.267940521240234,-2.2553534507751465,-0.0,-0.0,-1.0,0.10887828465375538,1.0
51.364959716796875,17.111724853515625,-2.2608375549316406,-0.0,-0.0,-1.0,0.08661328535099681,2.0
51.33135986328125,17.19165802001953,-2.2254586219787598,-0.0,-0.0,-1.0,0.12962388022425725,2.0
51.70460510253906,17.00879669189453,-2.2617342472076416,-0.0,-0.0,-1.0,0.06537870225385815,1.0
51.17079162597656,17.413793563842773,-2.223092794418335,-0.0,-0.0,-1.0,0.07350486809405105,2.0
51.257041931152344,17.36734390258789,-2.230942964553833,-0.0,-0.0,-1.0,0.11111550963141852,1.0
50.18689727783203,15.862467765808105,-2.2319462299346924,-0.0,-0.0,-1.0,0.006125631116191594,1.0
50.676666259765625,15.67889404296875,-2.29598069190979,-0.0,-0.0,-1.0,0.005062964947985848,2.0
49.993003845214844,16.022296905517578,-2.215346097946167,-0.0,-0.0,-1.0,0.026744009433623567,1.0
50.29249954223633,15.969423294067383,-2.259617805480957,-0.0,-0.0,-1.0,0.005900049973438087,1.0
50.63147735595703,15.944257736206055,-2.3132708072662354,-0.0,-0.0,-1.0,0.00815968325779162,1.0
51.05210876464844,15.83304214477539,-2.317335605621338,-0.0,-0.0,-1.0,0.0342032137239917,2.0
51.125274658203125,15.643343925476074,-2.311525821685791,-0.0,-0.0,-1.0,0.03506795630844559,1.0
49.860008239746094,16.41773223876953,-2.1752216815948486,-0.0,-0.0,-1.0,0.02901919744934635,1.0
50.006710052490234,16.276832580566406,-2.1851015090942383,-0.0,-0.0,-1.0,0.027266009589097834,1.0
50.97701644897461,16.14012336730957,-2.33481502532959,-0.0,-0.0,-1.0,0.011497805381510934,1.0
50.818702697753906,16.604808807373047,-2.355273723602295,-0.0,-0.0,-1.0,0.012582457731970286,1.0
50.9926643371582,16.462791442871094,-2.3699378967285156,-0.0,-0.0,-1.0,0.02552465549457403,1.0
49.74155044555664,16.501853942871094,-2.1643168926239014,-0.0,-0.0,-1.0,0.022384977688169428,1.0
51.5778923034668,16.89102554321289,-2.187507152557373,-0.0,-0.0,-1.0,0.13991911811995147,1.0
51.190673828125,17.4262752532959,-2.174419403076172,-0.0,-0.0,-1.0,0.09912420269920724,1.0
51.44981384277344,17.223308563232422,-2.197262763977051,-0.0,-0.0,-1.0,0.08818960957261007,1.0
51.08421325683594,17.55205535888672,-2.169382095336914,-0.0,-0.0,-1.0,0.09871005915077877,2.0
49.96427917480469,15.930547714233398,-2.216794967651367,-0.0,-0.0,-1.0,0.024517514993386565,1.0
50.29784393310547,15.773704528808594,-2.262721538543701,-0.0,-0.0,-1.0,0.0041982954713923526,1.0
51.465782165527344,17.302066802978516,-2.0278217792510986,0.22728616005016522,0.7374059091252764,0.6360609456937086,0.07645415826414183,3.0
51.5322151184082,17.265769958496094,-2.034287691116333,-0.7518085401684188,0.5677495442508772,-0.3353272639269759,0.07444281035490403,3.0
51.2805290222168,17.38152313232422,-2.007603406906128,-0.733629418533388,0.19853009380846154,-0.6499028220547793,0.1545648339665663,3.0
51.186912536621094,17.57342529296875,-2.0142970085144043,-0.03892966233302946,-0.23129310239614806,-0.9721049234391324,0.15744899345966748,5.0
51.47099685668945,17.2215576171875,-2.0685300827026367,-0.0,-0.0,-1.0,0.0849292941975476,2.0
51.22355270385742,17.48508644104004,-2.0487265586853027,0.7837710008632501,0.1457942133248638,-0.6036945134476566,0.16735681373457703,4.0
51.37753677368164,16.090076446533203,-2.3374075889587402,-0.0,-0.0,-1.0,0.044212332864721725,1.0
51.383399963378906,15.813068389892578,-2.311089038848877,-0.0,-0.0,-1.0,0.058382445725736594,1.0
50.66017532348633,17.142133712768555,-2.3089733123779297,-0.0,-0.0,-1.0,0.02644535013741344,1.0
50.9099235534668,16.938735961914062,-2.33450984954834,-0.0,-0.0,-1.0,0.0577966181308121,1.0
51.165733337402344,16.604232788085938,-2.348299264907837,-0.0,-0.0,-1.0,0.05092619239934062,1.0
51.31390380859375,16.368305206298828,-2.3528990745544434,-0.0,-0.0,-1.0,0.04857166092391446,1.0
51.36623001098633,17.56275177001953,-1.8884520530700684,-0.0,-0.0,-1.0,0.16903028451273316,1.0
51.61456298828125,17.407718658447266,-1.9141943454742432,-0.6158311764262866,0.598166502844978,0.512785332293763,0.09134729918975877,4.0
49.802513122558594,16.326574325561523,-2.1652212142944336,-0.0,-0.0,-1.0,0.02901919744934633,1.0
49.95417785644531,15.955316543579102,-2.159513473510742,-0.0,-0.0,-1.0,0.02674400943362356,1.0
50.19391632080078,16.005887985229492,-2.1992530822753906,-0.0,-0.0,-1.0,0.014879918280125873,2.0
50.66400909423828,15.995635986328125,-2.262631416320801,-0.0,-0.0,-1.0,0.008387244671752742,1.0
50.850765228271484,15.759897232055664,-2.256314277648926,-0.0,-0.0,-1.0,0.02059224292491914,2.0
50.99208068847656,15.725065231323242,-2.2715325355529785,-0.0,-0.0,-1.0,0.021415655066686783,1.0
51.42353820800781,17.426586151123047,-1.8536852598190308,-0.0,-0.0,-1.0,0.11102184827715689,1.0
51.5986442565918,17.3680419921875,-1.8671213388442993,-0.4578594824374677,0.7436350882576714,0.48720791234759286,0.11551959323799625,3.0
50.878379821777344,15.83607292175293,-2.2587199211120605,-0.0,-0.0,-1.0,0.0065531793983574955,1.0
50.75664138793945,16.48518943786621,-2.3140716552734375,-0.0,-0.0,-1.0,0.008811635886825278,1.0
50.63752365112305,16.61713981628418,-2.311066150665283,-0.0,-0.0,-1.0,0.010606170522029659,1.0
50.73706817626953,16.094615936279297,-2.277139186859131,-0.0,-0.0,-1.0,0.007603512201887658,1.0
50.03180694580078,16.056087493896484,-2.186500072479248,-0.0,-0.0,-1.0,0.026744009433623567,2.0
51.474342346191406,17.598094940185547,-1.8706669807434082,-0.0,-0.0,-1.0,0.09817562776860168,1.0
51.20991516113281,17.620418548583984,-1.8553199768066406,-0.0,-0.0,-1.0,0.16204575981343852,1.0
51.3548583984375,17.23245620727539,-2.067629814147949,-0.0,-0.0,-1.0,0.0732851681036896,1.0
51.18547821044922,17.362361907958984,-2.068263530731201,-0.0,-0.0,-1.0,0.15832432561333182,1.0
51.59416198730469,17.02637481689453,-2.064885139465332,-0.0,-0.0,-1.0,0.10821985483980319,1.0
51.67100524902344,15.986715316772461,-2.105473518371582,-0.0,-0.0,-1.0,0.06272742920719508,1.0
51.32510757446289,16.70833969116211,-2.0644099712371826,-0.0,-0.0,-1.0,0.11999412026434517,1.0
51.16864013671875,16.931346893310547,-2.080904722213745,-0.0,-0.0,-1.0,0.16438573504042503,1.0
50.89057922363281,17.17409896850586,-2.094078779220581,-0.0,-0.0,-1.0,0.07320354683310076,1.0
51.28515625,16.338714599609375,-2.2950470447540283,-0.0,-0.0,-1.0,0.04850032230392823,2.0
51.123939514160156,16.547325134277344,-2.304380416870117,-0.0,-0.0,-1.0,0.03429173436389277,1.0
51.448978424072266,15.927055358886719,-2.2660744190216064,-0.0,-0.0,-1.0,0.06668166616278458,1.0
51.31836700439453,16.162622451782227,-2.2800910472869873,-0.0,-0.0,-1.0,0.05121069500214074,1.0
51.033687591552734,16.606849670410156,-2.303999662399292,0.2574263254461723,-0.7973402032869079,-0.5458757067223946,0.03164970234677393,3.0
49.93632888793945,16.05582046508789,-2.174314260482788,-0.0,-0.0,-1.0,0.029019197449346314,1.0
50.74896240234375,15.762216567993164,-2.2900278568267822,-0.0,-0.0,-1.0,0.005646899856583873,1.0
50.468048095703125,15.801471710205078,-2.2671918869018555,-0.0,-0.0,-1.0,0.006143501614638547,2.0
51.462486267089844,16.789318084716797,-2.3113322257995605,-0.0,-0.0,-1.0,0.08280430788349426,1.0
51.231910705566406,16.875783920288086,-2.3065924644470215,-0.0,-0.0,-1.0,0.09185261616644351,1.0
51.043235778808594,17.061134338378906,-2.316129207611084,-0.0,-0.0,-1.0,0.07504604398919873,1.0
50.78672790527344,17.190155029296875,-2.3151488304138184,-0.0,-0.0,-1.0,0.03419604003498715,1.0
51.547828674316406,17.28702735900879,-1.948271632194519,-0.0,-0.0,-1.0,0.14051880532603434,1.0
51.25827407836914,17.395090103149414,-1.941968560218811,-0.0,-0.0,-1.0,0.18153188681613946,1.0
51.195980072021484,17.601219177246094,-1.9594494104385376,-0.0,-0.0,-1.0,0.14810391518581742,1.0
51.571632385253906,16.275897979736328,-2.300584316253662,-0.0,-0.0,-1.0,0.05864669352321681,1.0
51.38490295410156,16.453227996826172,-2.3015522956848145,-0.0,-0.0,-1.0,0.037817543916087826,1.0
51.221710205078125,16.698528289794922,-2.3117289543151855,-0.0,-0.0,-1.0,0.09560687240943032,1.0
51.05769348144531,16.891498565673828,-2.3169548511505127,-0.0,-0.0,-1.0,0.07493682241299475,1.0
50.14556121826172,15.806249618530273,-2.168438673019409,-0.0,-0.0,-1.0,0.007065212622756627,1.0
51.41393280029297,17.299461364746094,-2.0434608459472656,0.6817555366479877,0.5367140535012418,-0.4971392290134432,0.10741902338438986,5.0
51.29886245727539,17.348918914794922,-2.0382585525512695,0.6724237941760505,0.40860135918122553,-0.617163811561517,0.15206798985782402,4.0
51.208526611328125,17.525964736938477,-2.047539234161377,0.8755069251021879,0.3320169192058302,-0.35107319672567067,0.15458266300139845,3.0
51.367332458496094,17.283308029174805,-2.0722732543945312,0.233708651388875,0.8681094380997253,0.43791125784589285,0.07909503490469517,4.0
51.13043975830078,17.412033081054688,-2.0579891204833984,-0.0,-0.0,-1.0,0.12706539135145606,2.0
51.48100280761719,17.137895584106445,-2.0870249271392822,-0.0,-0.0,-1.0,0.11803470205481477,1.0
51.45989990234375,17.224639892578125,-2.091838836669922,-0.0,-0.0,-1.0,0.10237088096265282,2.0
51.3806266784668,17.297334671020508,-2.089327335357666,0.09593553388212252,0.7307805569681783,0.6758373701535242,0.09096876887989963,3.0
51.46754837036133,16.94502067565918,-2.254720687866211,-0.0,-0.0,-1.0,0.08639627874239915,1.0
51.470611572265625,17.250329971313477,-1.9028432369232178,-0.0,-0.0,-1.0,0.13349942447171695,1.0
51.261932373046875,17.497844696044922,-1.8886656761169434,-0.0,-0.0,-1.0,0.15258832612090623,1.0
51.15795135498047,17.566486358642578,-2.080498218536377,-0.0,-0.0,-1.0,0.14603553134393338,1.0
51.28685760498047,17.39519500732422,-2.063127040863037,0.659061566222085,-0.6455437079248133,-0.38589010493607495,0.15467775986851462,4.0
51.42808532714844,17.240461349487305,-1.8234505653381348,-0.0,-0.0,-1.0,0.1374936413950328,1.0
51.37696838378906,17.391178131103516,-1.9038721323013306,-0.0,-0.0,-1.0,0.20769142375057598,1.0
51.433624267578125,16.07366371154785,-2.333009719848633,-0.0,-0.0,-1.0,0.07041907417816391,1.0
51.39448547363281,15.896915435791016,-2.321488380432129,-0.0,-0.0,-1.0,0.0786261733625684,1.0
51.449073791503906,16.354732513427734,-2.34637451171875,-0.0,-0.0,-1.0,0.04524429131223338,1.0
51.080989837646484,15.789412498474121,-2.2880444526672363,-0.0,-0.0,-1.0,0.03517357603330454,1.0
51.10371398925781,16.28319549560547,-2.3126068115234375,-0.0,-0.0,-1.0,0.013400047717493774,1.0
51.128440856933594,16.081069946289062,-2.3062472343444824,-0.0,-0.0,-1.0,0.038562814389352766,1.0
51.018245697021484,17.520050048828125,-2.1463615894317627,-0.0,-0.0,-1.0,0.14340752673439125,1.0
51.304588317871094,17.29817771911621,-2.162097215652466,0.7787848475492478,0.6265976120969292,0.029488874887331554,0.08056617323355612,3.0
49.730926513671875,16.171791076660156,-2.1906204223632812,-0.0,-0.0,-1.0,0.02901919744934633,1.0
49.97418212890625,16.236919403076172,-2.211705207824707,-0.0,-0.0,-1.0,0.02901919744934633,1.0
51.27980422973633,16.45757293701172,-2.3127689361572266,-0.0,-0.0,-1.0,0.038422718521181086,1.0
50.86353302001953,16.913982391357422,-2.3321194648742676,-0.0,-0.0,-1.0,0.05268985171728197,1.0
51.10087966918945,16.71832275390625,-2.327348232269287,-0.0,-0.0,-1.0,0.05210302038315704,1.0
51.26243591308594,17.52393341064453,-1.8358428478240967,-0.0,-0.0,-1.0,0.1944872119069085,2.0
51.294315338134766,17.31203842163086,-2.185314178466797,0.645051047687038,0.7639526866757106,0.016894922279138216,0.09243574997445478,6.0
51.00947952270508,17.554683685302734,-2.197531223297119,-0.0,-0.0,-1.0,0.11827143929541084,2.0
49.76776123046875,16.271987915039062,-2.100935935974121,-0.0,-0.0,-1.0,0.02901919744934636,1.0
51.26581573486328,16.721805572509766,-2.220669746398926,-0.0,-0.0,-1.0,0.10141420953659569,1.0
50.74407958984375,17.112258911132812,-2.238917350769043,-0.0,-0.0,-1.0,0.0302270323422886,1.0
51.04005432128906,16.907184600830078,-2.23030948638916,-0.0,-0.0,-1.0,0.1160509460006439,1.0
50.59181213378906,17.271541595458984,-2.2493295669555664,-0.0,-0.0,-1.0,0.028476473704807263,1.0
49.766258239746094,16.3139705657959,-2.003174066543579,-0.0,-0.0,-1.0,0.02901919744934634,1.0
49.893943786621094,16.258237838745117,-2.0049846172332764,-0.0,-0.0,-1.0,0.02901919744934632,1.0
51.15068435668945,17.207796096801758,-2.2253613471984863,-0.0,-0.0,-1.0,0.1201297727988063,1.0
50.95530319213867,17.3884334564209,-2.2303314208984375,-0.0,-0.0,-1.0,0.09875632448138504,1.0
50.751869201660156,17.5399227142334,-2.2323951721191406,-0.0,-0.0,-1.0,0.06480138591266654,2.0
51.40439987182617,16.922229766845703,-2.250753164291382,-0.0,-0.0,-1.0,0.05101662923752898,1.0
51.13713073730469,17.15753173828125,-2.261258363723755,-0.0,-0.0,-1.0,0.07903420437393051,1.0
50.913047790527344,17.298309326171875,-2.2647783756256104,-0.0,-0.0,-1.0,0.03977021756241424,1.0
50.74745178222656,17.366931915283203,-2.2640321254730225,-0.0,-0.0,-1.0,0.039197138350223926,1.0
51.68019104003906,17.212175369262695,-2.0591845512390137,-0.0,-0.0,-1.0,0.1146510382458011,2.0
51.41903305053711,17.28620719909668,-2.0538463592529297,0.6817555366479877,0.5367140535012418,-0.4971392290134432,0.06444211615946453,5.0
51.318748474121094,17.426618576049805,-2.0638060569763184,0.6643166947105328,-0.6429387177710579,-0.3811995990551149,0.1774204851863357,5.0
51.51609802246094,17.132320404052734,-2.14988374710083,-0.0,-0.0,-1.0,0.061251707606342305,2.0
51.26103973388672,17.32439422607422,-2.151571750640869,0.2920021971317699,0.9544361640545536,-0.06153312616021302,0.10182466934775156,3.0
51.34539031982422,17.277063369750977,-2.0333051681518555,0.1070448329748378,0.9650145675680583,-0.23934971927040619,0.0907640006350725,4.0
51.215911865234375,17.470294952392578,-2.047252655029297,0.8652391542997798,-0.4655085327550345,-0.18618005209704142,0.16735681373457703,3.0
51.5203857421875,17.14664077758789,-2.225222587585449,-0.0,-0.0,-1.0,0.04474773199500673,2.0
51.31555938720703,17.2802734375,-2.214570999145508,0.8606819268145882,0.5030024118996558,0.0788365047288156,0.10655772654681275,3.0
51.15399169921875,17.45635986328125,-2.211355686187744,-0.0,-0.0,-1.0,0.0984184747691934,2.0
51.301300048828125,17.30741310119629,-2.2320573329925537,0.8606819268145882,0.5030024118996558,0.0788365047288156,0.08909073467892804,3.0
51.57720947265625,17.150598526000977,-2.1489827632904053,0.10494960094585067,0.4474634021507163,-0.8881227871173072,0.09357392472044763,3.0
51.288673400878906,17.31682014465332,-2.137918710708618,0.4886189312980054,0.8724657975899933,-0.007414311353863838,0.1069287339023497,4.0
51.511962890625,17.021678924560547,-2.238412618637085,-0.0,-0.0,-1.0,0.111120092196683,2.0
51.3382568359375,17.084075927734375,-2.227030038833618,-0.0,-0.0,-1.0,0.09012774005367688,1.0
51.17082214355469,17.342247009277344,-2.232344388961792,-0.0,-0.0,-1.0,0.14081050928230895,2.0
51.60871505737305,17.184677124023438,-2.0394065380096436,-0.0,-0.0,-1.0,0.15210436260514731,1.0
51.3597526550293,17.302364349365234,-2.0256154537200928,-0.0,-0.0,-1.0,0.1209605902797807,2.0
51.23017883300781,17.489227294921875,-2.0282862186431885,0.8453962170052404,0.17023494193441652,-0.5062857896660882,0.14910275440525075,5.0
51.4624137878418,17.22237777709961,-1.984006404876709,-0.0,-0.0,-1.0,0.10292183595479985,1.0
51.367122650146484,17.515762329101562,-1.9972238540649414,-0.0,-0.0,-1.0,0.11552502718315225,1.0
51.27763366699219,17.44667625427246,-2.038695812225342,-0.0,-0.0,-1.0,0.21213006641119148,2.0
51.48705291748047,17.135570526123047,-2.2119297981262207,-0.0,-0.0,-1.0,0.044041266289576386,2.0
51.41973876953125,17.260787963867188,-2.1241164207458496,-0.0,-0.0,-1.0,0.0813136478530145,2.0
51.269615173339844,17.31757926940918,-2.004438638687134,-0.0,-0.0,-1.0,0.14668035824938122,1.0
51.200164794921875,17.61172103881836,-2.022928476333618,-0.03892966233302946,-0.23129310239614806,-0.9721049234391324,0.13977886833140535,5.0
51.387550354003906,15.72706413269043,-2.3085782527923584,-0.0,-0.0,-1.0,0.06188565186243549,1.0
51.19349670410156,16.1038818359375,-2.296936273574829,-0.0,-0.0,-1.0,0.04022594095952146,1.0
51.197296142578125,17.08012580871582,-1.959883213043213,-0.0,-0.0,-1.0,0.18914353618447965,1.0
51.22092819213867,17.41107177734375,-1.9740605354309082,-0.0,-0.0,-1.0,0.18815613628896102,2.0
51.507442474365234,15.770912170410156,-2.272538423538208,-0.0,-0.0,-1.0,0.07694134299390122,1.0
50.6822624206543,17.41763687133789,-2.253495454788208,-0.0,-0.0,-1.0,0.039197138350223926,1.0
50.6699333190918,17.583335876464844,-2.260009527206421,-0.0,-0.0,-1.0,0.04933760212502466,1.0
50.04420471191406,17.630645751953125,-2.254065990447998,-0.0,-0.0,-1.0,0.02085665779457246,1.0
51.1580810546875,17.565532684326172,-1.9306766986846924,0.6328173569952881,0.7275962221866211,-0.264850769576483,0.11941368998462645,3.0
51.14004135131836,17.574138641357422,-1.9501373767852783,0.6328173569952881,0.7275962221866211,-0.264850769576483,0.12772032222144192,3.0
51.22405242919922,17.339736938476562,-1.9554331302642822,-0.0,-0.0,-1.0,0.18532335066559835,1.0
51.24440002441406,17.54824447631836,-1.835723638534546,-0.0,-0.0,-1.0,0.18990992467619663,2.0
51.254241943359375,17.33268165588379,-1.8341481685638428,-0.0,-0.0,-1.0,0.12625778102663723,1.0
51.14706802368164,17.532005310058594,-2.152996778488159,-0.0,-0.0,-1.0,0.08985932875775472,2.0
51.49207305908203,17.187807083129883,-2.1886708736419678,-0.0,-0.0,-1.0,0.05031199122586084,2.0
51.56232833862305,17.03318977355957,-2.193983793258667,-0.0,-0.0,-1.0,0.07591852333249785,1.0
50.69672775268555,15.677896499633789,-2.2792320251464844,-0.0,-0.0,-1.0,0.004527534372355708,2.0
50.67231750488281,15.858772277832031,-2.274442672729492,-0.0,-0.0,-1.0,0.004434756874888204,2.0
50.85737609863281,16.156911849975586,-2.307659149169922,-0.0,-0.0,-1.0,0.007984299000632985,1.0
51.049522399902344,16.448253631591797,-2.342291831970215,-0.0,-0.0,-1.0,0.027627118358637286,1.0
51.034202575683594,16.631240844726562,-2.339384078979492,-0.4295177601402567,-0.7521875753904249,-0.4997282713158936,0.032457662782120186,4.0
50.39216995239258,15.679027557373047,-2.2411375045776367,-0.0,-0.0,-1.0,0.0057889669104599795,1.0
50.688350677490234,16.054458618164062,-2.278120994567871,-0.0,-0.0,-1.0,0.007525222066078729,1.0
51.088741302490234,16.344449996948242,-2.3394060134887695,-0.0,-0.0,-1.0,0.013149169835157135,1.0
51.01544952392578,16.60678482055664,-2.3125057220458984,0.2574263254461723,-0.7973402032869079,-0.5458757067223946,0.03111133696547184,3.0
50.889034271240234,16.241973876953125,-2.397496223449707,-0.0,-0.0,-1.0,0.009933669280886646,1.0
50.926761627197266,16.491161346435547,-2.3843345642089844,-0.0,-0.0,-1.0,0.023929656545256275,1.0
51.09164047241211,17.57046890258789,-2.3309526443481445,-0.0,-0.0,-1.0,0.1211018418410316,1.0
50.012516021728516,15.919031143188477,-2.2385854721069336,-0.0,-0.0,-1.0,0.018479244845406452,1.0
51.315032958984375,17.0329532623291,-2.121035575866699,-0.0,-0.0,-1.0,0.14581975285095963,1.0
51.256675720214844,17.424510955810547,-2.106170654296875,-0.4839583623971636,0.15753644489034313,-0.8607941519301623,0.1468290130098998,3.0
51.42104721069336,17.473222732543945,-1.937680721282959,-0.0,-0.0,-1.0,0.1363489774935752,1.0
51.587562561035156,17.119953155517578,-1.9212603569030762,-0.0,-0.0,-1.0,0.1413712992235324,1.0
51.42373275756836,16.633113861083984,-2.3666458129882812,-0.0,-0.0,-1.0,0.08582521922994926,1.0
51.087947845458984,17.02404022216797,-2.410665512084961,-0.0,-0.0,-1.0,0.060410182023535354,1.0
51.488197326660156,17.493555068969727,-1.9854259490966797,-0.0,-0.0,-1.0,0.07975561841079226,1.0
51.35563278198242,16.664325714111328,-2.305878162384033,-0.0,-0.0,-1.0,0.08663870937151327,1.0
51.18912887573242,16.92011260986328,-2.3203158378601074,-0.0,-0.0,-1.0,0.09346237909890859,1.0
