x,y,z,nx,ny,nz,curvature,density
49.79526138305664,3.4174423217773438,-1.2366548776626587,-0.0,-0.0,-1.0,0.032682321316385696,1.0
50.71623611450195,2.5521793365478516,-1.3691306114196777,-0.0,-0.0,-1.0,0.05303992027027744,1.0
51.61237716674805,3.159409523010254,-1.450446605682373,-0.0,-0.0,-1.0,0.03738096372182144,1.0
50.967529296875,2.970304489135742,-1.3644695281982422,-0.0,-0.0,-1.0,0.014993969019592246,1.0
49.76975631713867,3.327944755554199,-1.1405868530273438,0.9772018757407044,0.08550497162388454,0.1943332032269508,0.03268232131638564,3.0
50.19580841064453,2.313314437866211,-1.1398332118988037,-0.0,-0.0,-1.0,0.04985840226497313,2.0
51.64698028564453,3.3352603912353516,-1.5590838193893433,-0.0,-0.0,-1.0,0.04059554346984799,1.0
50.71493911743164,2.9395666122436523,-1.2776494026184082,-0.0,-0.0,-1.0,0.02944591807685651,1.0
51.22026062011719,2.2228574752807617,-1.4374252557754517,-0.0,-0.0,-1.0,0.05377326554687034,1.0
51.63202667236328,2.6101064682006836,-1.402340292930603,-0.0,-0.0,-1.0,0.011736019717376159,1.0
50.726741790771484,2.776850700378418,-1.3033229112625122,-0.0,-0.0,-1.0,0.06315659008866702,2.0
49.84622573852539,3.0463600158691406,-1.1973470449447632,-0.0,-0.0,-1.0,0.030584738505287788,1.0
50.646278381347656,3.37380313873291,-1.424335241317749,-0.0,-0.0,-1.0,0.00966227782679356,1.0
51.01996612548828,3.506514549255371,-1.4249870777130127,-0.0,-0.0,-1.0,0.004770419416912842,1.0
51.56097412109375,3.4861679077148438,-1.4739367961883545,0.06485416178265942,0.4474539578269942,-0.8919522931886141,0.03867419103745598,3.0
50.53031539916992,2.443187713623047,-1.1153373718261719,-0.0,-0.0,-1.0,0.13009080287717725,2.0
50.90718078613281,3.4259910583496094,-1.4261093139648438,-0.08100667514043434,-0.053966109782483715,-0.9952515147326514,0.011291017392850407,3.0
51.5303840637207,3.514232635498047,-1.4620821475982666,-0.0,-0.0,-1.0,0.03625024989977522,2.0
50.20595169067383,2.273153305053711,-1.1458649635314941,-0.0,-0.0,-1.0,0.044219703471615315,2.0
50.51024627685547,2.442127227783203,-1.135366439819336,-0.0,-0.0,-1.0,0.13009080287717725,2.0
51.142967224121094,2.474705696105957,-1.456142544746399,-0.0,-0.0,-1.0,0.046519139729389807,2.0
50.26725387573242,2.922909736633301,-1.3222895860671997,-0.0,-0.0,-1.0,0.023122825130361936,1.0
50.51171112060547,2.726652145385742,-1.374062418937683,-0.0,-0.0,-1.0,0.07801608512674714,1.0
50.787376403808594,2.8844900131225586,-1.3483303785324097,-0.0,-0.0,-1.0,0.030574144220389617,1.0
51.49690628051758,2.699162483215332,-1.4235979318618774,-0.0,-0.0,-1.0,0.011691258057593239,1.0
50.05557632446289,1.7121410369873047,-1.1219807863235474,-0.0,-0.0,-1.0,0.02843024304375828,1.0
49.9156608581543,3.3193845748901367,-1.2244175672531128,0.0623563626765254,0.5978561590212772,-0.7991743846959054,0.032682321316385696,3.0
51.641197204589844,2.670419692993164,-1.4026519060134888,-0.0,-0.0,-1.0,0.015073120973308828,2.0
49.777618408203125,3.338937759399414,-1.1849581003189087,0.7807354840965662,-0.6246459218499602,-0.016418775493732097,0.03268232131638565,3.0
50.77851867675781,2.8291454315185547,-1.327252984046936,-0.0,-0.0,-1.0,0.025223166648173468,1.0
51.11976623535156,1.9852819442749023,-1.1025363206863403,0.040093010326992425,-0.6650524982852384,-0.7457196021612162,0.22778075852119803,5.0
50.93878173828125,2.471493721008301,-1.4357770681381226,-0.0,-0.0,-1.0,0.04666776961127521,1.0
50.14056396484375,1.8532075881958008,-1.1478854417800903,-0.0,-0.0,-1.0,0.029875320049417863,1.0
49.923004150390625,3.347153663635254,-1.2030707597732544,0.0623563626765254,0.5978561590212772,-0.7991743846959054,0.032682321316385585,3.0
51.14617919921875,2.002683639526367,-1.1359108686447144,-0.5057376855875024,0.5442694238467567,-0.6693281613992614,0.2277807585211981,5.0
49.912288665771484,3.2348804473876953,-1.3399490118026733,-0.0,-0.0,-1.0,0.03122693371474805,1.0
51.0816764831543,3.042156219482422,-1.3942073583602905,-0.0,-0.0,-1.0,0.012047815327121077,1.0
51.67691421508789,3.0117969512939453,-1.4175280332565308,-0.0,-0.0,-1.0,0.03408621413432879,2.0
50.02333068847656,2.2326889038085938,-1.2087491750717163,-0.0,-0.0,-1.0,0.051193002236380694,1.0
50.26763916015625,2.4445571899414062,-1.1580415964126587,0.01994721454383766,0.21235825261835986,-0.9769882707467984,0.03048177087664587,3.0
50.575252532958984,2.589996337890625,-1.1244724988937378,-0.7167207390853909,0.549330786178906,-0.42958941970322795,0.10422528854261826,3.0
51.69140625,1.711334228515625,-1.4016876220703125,-0.0,-0.0,-1.0,0.13962560730335463,2.0
50.40673828125,2.598562240600586,-1.179354190826416,-0.0,-0.0,-1.0,0.06967526239024348,1.0
50.986202239990234,2.2740163803100586,-1.2551836967468262,-0.0,-0.0,-1.0,0.06666122693672387,1.0
50.1285514831543,2.326779365539551,-1.1566789150238037,-0.0,-0.0,-1.0,0.04985840226497313,1.0
51.31808090209961,1.7524213790893555,-1.2921667098999023,-0.0,-0.0,-1.0,0.09503943345855792,1.0
50.5554084777832,2.5981645584106445,-1.0809199810028076,-0.0,-0.0,-1.0,0.07789446127397875,2.0
50.658172607421875,1.7028875350952148,-1.3530468940734863,-0.0,-0.0,-1.0,0.03872925327303639,1.0
50.98176574707031,1.6725263595581055,-1.3637895584106445,-0.0,-0.0,-1.0,0.07290214617620687,2.0
50.306373596191406,2.4320411682128906,-1.1599712371826172,0.01994721454383766,0.21235825261835986,-0.9769882707467984,0.028359958798820344,3.0
50.807865142822266,1.808420181274414,-1.3469165563583374,-0.0,-0.0,-1.0,0.06421168848855689,1.0
50.36458969116211,2.450526237487793,-1.1643978357315063,-0.0,-0.0,-1.0,0.04519238219298204,1.0
50.59261703491211,2.1734275817871094,-1.2429043054580688,-0.0,-0.0,-1.0,0.02620237585966532,1.0
51.702701568603516,3.183962821960449,-1.403245210647583,-0.0,-0.0,-1.0,0.03798500838886268,1.0
51.496036529541016,3.1676759719848633,-1.372460126876831,-0.0,-0.0,-1.0,0.03935510781843998,1.0
51.27495193481445,2.844099998474121,-1.4192249774932861,-0.0,-0.0,-1.0,0.023636127152067064,1.0
51.69043731689453,1.7376718521118164,-1.3741939067840576,-0.0,-0.0,-1.0,0.13962560730335463,2.0
49.789276123046875,2.307149887084961,-1.1069364547729492,-0.0,-0.0,-1.0,0.021915947277754026,2.0
50.95929718017578,2.1994004249572754,-1.1887930631637573,-0.5259051635364412,-0.8474185633319425,-0.07283912057497315,0.09353185383044468,4.0
51.147125244140625,1.907397985458374,-1.1045608520507812,0.28786247210553906,-0.24864150079946404,-0.9248311203854884,0.23828620763500083,3.0
51.327537536621094,1.98486328125,-1.135115385055542,-0.0,-0.0,-1.0,0.22921789589995253,1.0
50.230308532714844,2.3908348083496094,-1.3062193393707275,-0.0,-0.0,-1.0,0.03655075112054425,1.0
51.706573486328125,2.584108352661133,-1.406158208847046,-0.0,-0.0,-1.0,0.014319820002116302,2.0
51.588890075683594,2.9240522384643555,-1.391235589981079,-0.0,-0.0,-1.0,0.028566120998709005,1.0
49.726043701171875,2.434136390686035,-1.1211109161376953,-0.0,-0.0,-1.0,0.031820844664057574,1.0
50.18163299560547,2.6408376693725586,-1.1867668628692627,-0.0,-0.0,-1.0,0.03924723980350271,1.0
50.4942626953125,2.640528678894043,-1.2316291332244873,-0.0,-0.0,-1.0,0.07539463377019108,2.0
49.72116470336914,3.229180335998535,-1.122972011566162,-0.0,-0.0,-1.0,0.033417456122082904,1.0
50.0648193359375,2.298590660095215,-1.151235818862915,-0.0,-0.0,-1.0,0.05167165556026934,1.0
50.42151641845703,2.542901039123535,-1.203737735748291,-0.0,-0.0,-1.0,0.07367234359117322,1.0
51.70713806152344,2.6280784606933594,-1.3941211700439453,-0.0,-0.0,-1.0,0.014319820002116302,2.0
50.871795654296875,2.9034910202026367,-1.3749873638153076,-0.0,-0.0,-1.0,0.02904446351831306,1.0
51.51709747314453,3.026618003845215,-1.4792678356170654,-0.0,-0.0,-1.0,0.03501582345899499,1.0
51.30253982543945,3.0498266220092773,-1.444115161895752,-0.0,-0.0,-1.0,0.02420224098169719,1.0
51.64287567138672,3.0561389923095703,-1.499709129333496,-0.0,-0.0,-1.0,0.0351018436736499,1.0
49.86609649658203,3.276421546936035,-1.2094471454620361,-0.0,-0.0,-1.0,0.03227700740601561,1.0
51.086875915527344,1.9466285705566406,-1.1648634672164917,-0.0,-0.0,-1.0,0.12995852186823276,2.0
50.690650939941406,2.103154182434082,-1.2924165725708008,-0.0,-0.0,-1.0,0.01123418262079343,1.0
50.74427032470703,2.866551399230957,-1.2941761016845703,-0.0,-0.0,-1.0,0.035626837627411784,1.0
51.116703033447266,2.492979049682617,-1.3472497463226318,-0.0,-0.0,-1.0,0.05073715888042784,1.0
51.64695739746094,2.911648750305176,-1.4180831909179688,-0.0,-0.0,-1.0,0.03113168296183255,1.0
50.14429473876953,2.7249155044555664,-1.21364426612854,-0.0,-0.0,-1.0,0.024113423119658632,1.0
50.503562927246094,2.682950019836426,-1.2626185417175293,-0.0,-0.0,-1.0,0.07046426068501159,2.0
49.776611328125,3.2929182052612305,-1.1596457958221436,0.7877388216851194,0.40617147915928387,-0.463133110809084,0.03405715794915018,3.0
51.15837097167969,1.9576406478881836,-1.0934356451034546,0.1909327000195015,0.9556735261068563,0.22412678457014118,0.23828620763500075,7.0
51.18412780761719,1.9739818572998047,-1.0896542072296143,-0.645638436285512,0.7627381653125869,-0.037168545389727754,0.23828620763500077,4.0
51.11770248413086,1.9378643035888672,-1.1219098567962646,0.20887378558758365,-0.07976012710741016,-0.9746845970969901,0.23828620763500083,5.0
51.38130187988281,3.249908447265625,-1.5294511318206787,-0.0,-0.0,-1.0,0.0374464902946863,1.0
51.654945373535156,3.496776580810547,-1.553283452987671,-0.0,-0.0,-1.0,0.039824116950553275,1.0
49.769874572753906,3.292356491088867,-1.2716574668884277,-0.0,-0.0,-1.0,0.036524914382806056,1.0
50.33784484863281,3.2073822021484375,-1.3669371604919434,-0.0,-0.0,-1.0,0.015048182694073447,1.0
50.55406951904297,3.260040283203125,-1.3957281112670898,-0.0,-0.0,-1.0,0.009942009182781866,1.0
49.7733268737793,3.5432701110839844,-1.2479314804077148,0.46844922705081826,0.22063036091230778,-0.8554984310442632,0.032682321316385564,3.0
50.79421615600586,3.4049835205078125,-1.4205386638641357,-0.0,-0.0,-1.0,0.011406643395931651,1.0
50.52764892578125,3.2066774368286133,-1.3734313249588013,-0.0,-0.0,-1.0,0.010440337866818446,1.0
50.88572311401367,3.292231559753418,-1.4227794408798218,-0.0,-0.0,-1.0,0.015517819533735865,1.0
51.33134841918945,3.250086784362793,-1.500595211982727,-0.0,-0.0,-1.0,0.03225961577658352,1.0
51.59626770019531,3.287137985229492,-1.54159414768219,-0.0,-0.0,-1.0,0.04119689915621193,1.0
49.722312927246094,3.5620927810668945,-1.2104607820510864,-0.0,-0.0,-1.0,0.032682321316385696,2.0
50.439788818359375,3.575328826904297,-1.3223756551742554,-0.0,-0.0,-1.0,0.003062518971540046,1.0
51.35756301879883,3.375398635864258,-1.4929853677749634,-0.0,-0.0,-1.0,0.032259615776583504,1.0
49.87787628173828,2.828616142272949,-1.2118792533874512,-0.0,-0.0,-1.0,0.028724921504289347,1.0
50.29269027709961,2.772824287414551,-1.280271053314209,-0.0,-0.0,-1.0,0.028879385296297442,1.0
50.70381164550781,2.8236780166625977,-1.3383417129516602,-0.0,-0.0,-1.0,0.03801465032957644,1.0
51.10990905761719,2.8658370971679688,-1.398205041885376,-0.0,-0.0,-1.0,0.02270677827137256,2.0
51.48867416381836,2.8446836471557617,-1.461869716644287,-0.0,-0.0,-1.0,0.022657257809822806,1.0
49.77933883666992,3.203622817993164,-1.155710220336914,-0.0,-0.0,-1.0,0.033417456122082904,1.0
51.65778350830078,2.9885053634643555,-1.4751510620117188,-0.0,-0.0,-1.0,0.034086214134328816,1.0
51.05488204956055,1.8200616836547852,-1.3157036304473877,-0.0,-0.0,-1.0,0.12156967913888354,1.0
49.92953872680664,2.2340526580810547,-1.1136302947998047,-0.0,-0.0,-1.0,0.02697468952004676,1.0
50.159934997558594,2.127139091491699,-1.1567678451538086,-0.0,-0.0,-1.0,0.06830645199891973,2.0
50.96831130981445,2.199115753173828,-1.2604126930236816,-0.0,-0.0,-1.0,0.13169565738032268,1.0
50.489009857177734,2.55068302154541,-1.152667760848999,-0.0,-0.0,-1.0,0.04863290188584623,1.0
50.59573745727539,2.5046024322509766,-1.1728887557983398,-0.0,-0.0,-1.0,0.08617075440458057,2.0
50.396095275878906,3.131193161010742,-1.4089313745498657,-0.0,-0.0,-1.0,0.01701007461324983,1.0
50.332855224609375,3.1611948013305664,-1.3957010507583618,-0.0,-0.0,-1.0,0.012788725279449643,1.0
50.59299850463867,3.2928667068481445,-1.4111825227737427,-0.0,-0.0,-1.0,0.010013967168627291,1.0
50.8317756652832,3.350330352783203,-1.435726523399353,-0.0,-0.0,-1.0,0.013342223413778106,2.0
51.42032241821289,3.410128593444824,-1.5133968591690063,-0.0,-0.0,-1.0,0.03394802643951792,1.0
51.66880416870117,3.409848213195801,-1.5514205694198608,-0.0,-0.0,-1.0,0.0392177584814754,1.0
51.190093994140625,3.50607967376709,-1.4643832445144653,-0.0,-0.0,-1.0,0.011762642668458704,1.0
51.15742874145508,1.977330207824707,-1.1358603239059448,-0.9455759625714929,-0.32531953889519566,-0.007300453411373306,0.23828620763500083,6.0
49.75822448730469,3.5046873092651367,-1.2661515474319458,0.46844922705081826,0.22063036091230778,-0.8554984310442632,0.032682321316385564,3.0
50.171241760253906,3.3282251358032227,-1.3479059934616089,-0.0,-0.0,-1.0,0.01456488470897177,1.0
50.53780746459961,3.349900245666504,-1.3945099115371704,-0.0,-0.0,-1.0,0.010112418093015295,1.0
50.93132781982422,3.608144760131836,-1.4108506441116333,-0.0,-0.0,-1.0,0.005196916674537758,1.0
50.542049407958984,2.6849594116210938,-1.2984740734100342,-0.0,-0.0,-1.0,0.0956171378421289,1.0
51.00617218017578,2.5738277435302734,-1.3700034618377686,-0.0,-0.0,-1.0,0.04404325589412649,1.0
51.31772232055664,2.6696176528930664,-1.3928074836730957,-0.0,-0.0,-1.0,0.00993201806931406,2.0
50.812416076660156,2.8692569732666016,-1.3002209663391113,-0.0,-0.0,-1.0,0.029227292971162094,1.0
51.47879409790039,2.805497169494629,-1.3917925357818604,-0.0,-0.0,-1.0,0.022101271116973405,1.0
51.62192153930664,2.843770980834961,-1.4042649269104004,-0.0,-0.0,-1.0,0.024152166875525245,1.0
49.767608642578125,2.770599365234375,-1.2017302513122559,-0.0,-0.0,-1.0,0.027138348787303652,2.0
49.73310089111328,3.05739688873291,-1.1514716148376465,-0.0,-0.0,-1.0,0.033104938769698146,1.0
50.10775375366211,2.8852062225341797,-1.218571662902832,-0.0,-0.0,-1.0,0.022747747456892117,1.0
51.53469467163086,2.3136119842529297,-1.4460994005203247,-0.0,-0.0,-1.0,0.039459266104232414,1.0
51.6549072265625,2.348128318786621,-1.4498227834701538,-0.0,-0.0,-1.0,0.03765636196563897,1.0
51.25910949707031,2.263803482055664,-1.4331964254379272,-0.0,-0.0,-1.0,0.03886713347559634,1.0
49.77796173095703,2.7738819122314453,-1.2422434091567993,-0.0,-0.0,-1.0,0.027138348787303708,2.0
50.213226318359375,2.776888847351074,-1.2684720754623413,-0.0,-0.0,-1.0,0.024609426046458903,1.0
50.53876495361328,2.6322221755981445,-1.3158661127090454,-0.0,-0.0,-1.0,0.08512292490276369,1.0
50.99494552612305,2.3993759155273438,-1.3895214796066284,-0.0,-0.0,-1.0,0.0466702808480166,1.0
51.37002182006836,2.336186408996582,-1.4291127920150757,-0.0,-0.0,-1.0,0.038410823618703016,1.0
49.92116928100586,2.895771026611328,-1.2289355993270874,-0.0,-0.0,-1.0,0.030551544213886662,1.0
50.67901611328125,2.7796010971069336,-1.2994416952133179,-0.09528494215914204,-0.7791747171503234,-0.6195220253965489,0.0928439573346931,3.0
50.063655853271484,3.604128837585449,-1.3381826877593994,-0.0,-0.0,-1.0,0.02293400331444804,1.0
50.41654968261719,3.3994197845458984,-1.4034509658813477,-0.0,-0.0,-1.0,0.0036689760887859985,1.0
50.864376068115234,3.3468990325927734,-1.4458882808685303,-0.18690651897187716,0.5775746726935035,-0.7946530378906301,0.0137237095454003,3.0
51.25872039794922,3.121953010559082,-1.522580623626709,-0.0,-0.0,-1.0,0.022088086194399448,1.0
51.44928741455078,3.1013078689575195,-1.5424480438232422,-0.0,-0.0,-1.0,0.03578040433223199,1.0
50.525630950927734,3.6279373168945312,-1.3635783195495605,-0.0,-0.0,-1.0,0.002391577251343134,1.0
50.84202575683594,3.5021133422851562,-1.4122631549835205,-0.0,-0.0,-1.0,0.006370586980612901,1.0
51.47880554199219,3.356813430786133,-1.4930543899536133,-0.0,-0.0,-1.0,0.03867419103745597,1.0
50.26607894897461,1.8076906204223633,-1.2087671756744385,-0.0,-0.0,-1.0,0.020399416613764845,1.0
50.02702331542969,2.1700897216796875,-1.1335790157318115,-0.0,-0.0,-1.0,0.03960735736966776,1.0
51.176963806152344,1.8139524459838867,-1.2640581130981445,-0.0,-0.0,-1.0,0.09453607029747536,2.0
50.57398986816406,2.470071792602539,-1.1134092807769775,0.24880103638486908,0.16890920731719375,-0.9537126003033054,0.13119417047280182,3.0
50.95658493041992,2.2001047134399414,-1.1837587356567383,-0.5259051635364412,-0.8474185633319425,-0.07283912057497315,0.09353185383044461,4.0
50.96293640136719,3.327651023864746,-1.4520854949951172,-0.0,-0.0,-1.0,0.012455343938077368,1.0
51.16069030761719,3.155177116394043,-1.5063390731811523,-0.0,-0.0,-1.0,0.018454072531284678,1.0
51.44416809082031,3.2820920944213867,-1.5041613578796387,-0.0,-0.0,-1.0,0.038674191037455966,1.0
51.691162109375,3.186795234680176,-1.5481626987457275,-0.0,-0.0,-1.0,0.03798500838886269,1.0
50.332279205322266,1.7750883102416992,-1.2449383735656738,-0.0,-0.0,-1.0,0.020297413486678736,1.0
49.716896057128906,2.320551872253418,-1.1075432300567627,-0.0,-0.0,-1.0,0.03249465881618718,1.0
50.021209716796875,2.2497425079345703,-1.1385629177093506,-0.0,-0.0,-1.0,0.04977523493979917,1.0
51.237144470214844,1.6545190811157227,-1.332021713256836,-0.0,-0.0,-1.0,0.07685279361026137,1.0
50.54496383666992,2.556332588195801,-1.1169862747192383,-0.0,-0.0,-1.0,0.08003080634531698,2.0
50.93483352661133,2.215874671936035,-1.207104206085205,0.010893630169566971,-0.9984251540702589,-0.05503217732843914,0.08818034994728713,5.0
50.01652145385742,3.5649585723876953,-1.3298921585083008,-0.0,-0.0,-1.0,0.028627388448273203,1.0
50.337196350097656,3.4498367309570312,-1.377267599105835,-0.0,-0.0,-1.0,0.009040069922685481,1.0
50.73811340332031,3.441679000854492,-1.4090704917907715,-0.0,-0.0,-1.0,0.011053561014080556,1.0
50.86478042602539,3.425898551940918,-1.4226531982421875,-0.08100667514043434,-0.053966109782483715,-0.9952515147326514,0.010335427359796631,3.0
51.578575134277344,3.4860572814941406,-1.472712516784668,-0.0,-0.0,-1.0,0.039824116950553275,2.0
50.973236083984375,2.5331125259399414,-1.4353591203689575,-0.0,-0.0,-1.0,0.044215726490724236,1.0
51.10293197631836,2.4754152297973633,-1.4541300535202026,-0.0,-0.0,-1.0,0.0491095901143006,2.0
51.49443817138672,2.545193672180176,-1.4581483602523804,-0.0,-0.0,-1.0,0.009979027068605874,1.0
51.694122314453125,2.4448013305664062,-1.4919332265853882,-0.0,-0.0,-1.0,0.008191362104312616,1.0
49.855674743652344,1.6630868911743164,-1.1271389722824097,-0.9907049177298589,0.04023559742788149,-0.12994176651675604,0.023530930125377995,3.0
50.08551025390625,2.8716678619384766,-1.3293803930282593,-0.0,-0.0,-1.0,0.022836294682318337,2.0
50.30662155151367,2.7497034072875977,-1.3625725507736206,-0.0,-0.0,-1.0,0.03534106890414102,1.0
51.12635040283203,1.9640827178955078,-1.1092196702957153,0.05071952295617062,-0.1208440315289046,-0.991374929093398,0.23828620763500077,7.0
49.86060333251953,3.3617725372314453,-1.2138241529464722,-0.0,-0.0,-1.0,0.03268232131638563,2.0
50.55322265625,2.8360424041748047,-1.3509126901626587,-0.0,-0.0,-1.0,0.0401434555639198,1.0
50.92414093017578,2.6422080993652344,-1.4087163209915161,-0.0,-0.0,-1.0,0.016053077610881497,1.0
51.28763198852539,2.6633729934692383,-1.4207392930984497,-0.0,-0.0,-1.0,0.008966783026509563,2.0
49.8571662902832,1.7102928161621094,-1.1238938570022583,-0.9907049177298589,0.04023559742788149,-0.12994176651675604,0.023530930125378,3.0
49.85541915893555,2.8936948776245117,-1.291446328163147,-0.0,-0.0,-1.0,0.030841750799564062,1.0
49.75069046020508,3.3054847717285156,-1.1927133798599243,0.6549607607579497,-0.37513883932079056,-0.6559704666373462,0.034057157949150124,3.0
50.10590744018555,2.8794384002685547,-1.2984789609909058,-0.0,-0.0,-1.0,0.02268785897324747,2.0
50.433082580566406,2.720325469970703,-1.3432105779647827,-0.0,-0.0,-1.0,0.05001450833432948,1.0
50.654930114746094,2.8059682846069336,-1.3288992643356323,0.7933377076084158,0.04655866423938649,-0.6069988241099548,0.06273720247551218,3.0
50.99726104736328,2.4857988357543945,-1.417094349861145,-0.0,-0.0,-1.0,0.05243897429084425,1.0
51.39738464355469,2.431507110595703,-1.4472495317459106,-0.0,-0.0,-1.0,0.010127879128854976,1.0
50.076576232910156,1.770071029663086,-1.11558997631073,-0.0,-0.0,-1.0,0.028430243043758355,1.0
50.29615783691406,2.1088857650756836,-1.0519441366195679,-0.0,-0.0,-1.0,0.028996845972525515,1.0
51.16462326049805,1.9518194198608398,-1.111057162284851,-0.6843671597756469,0.3187078118232051,0.6557948774605356,0.23828620763500075,7.0
49.958274841308594,2.991011619567871,-1.2920233011245728,-0.0,-0.0,-1.0,0.02784301053153072,1.0
50.010467529296875,2.9572391510009766,-1.3005648851394653,-0.0,-0.0,-1.0,0.02477246280023249,1.0
50.26105880737305,2.8459339141845703,-1.330074667930603,-0.0,-0.0,-1.0,0.021679381590610048,1.0
50.647850036621094,2.847517967224121,-1.3349658250808716,-0.0,-0.0,-1.0,0.05725716598600126,2.0
50.903072357177734,2.5362491607666016,-1.418648600578308,-0.0,-0.0,-1.0,0.030847435780835264,1.0
51.13019943237305,2.5841588973999023,-1.4130066633224487,-0.0,-0.0,-1.0,0.04213367930429568,1.0
51.359920501708984,2.484757423400879,-1.4456323385238647,-0.0,-0.0,-1.0,0.01012787912885498,1.0
51.63190460205078,2.6874074935913086,-1.4056099653244019,-0.0,-0.0,-1.0,0.015073120973308828,2.0
51.653709411621094,2.4914817810058594,-1.4558621644973755,-0.0,-0.0,-1.0,0.008414198399603244,1.0
49.90200424194336,1.903472900390625,-1.1353801488876343,-0.0,-0.0,-1.0,0.023403909421714837,1.0
50.07933044433594,1.8495750427246094,-1.1480902433395386,-0.0,-0.0,-1.0,0.0298648150409742,1.0
49.88792037963867,3.352567672729492,-1.2017580270767212,0.2705602440245297,0.6060337239244676,-0.748010882153214,0.03268232131638565,4.0
49.93834686279297,3.1429195404052734,-1.2540644407272339,-0.0,-0.0,-1.0,0.030764640223929256,1.0
51.18791198730469,1.9117040634155273,-1.1566659212112427,-0.0,-0.0,-1.0,0.23828620763500077,1.0
49.75281524658203,3.544158935546875,-1.2589339017868042,0.46844922705081826,0.22063036091230778,-0.8554984310442632,0.032682321316385564,3.0
49.967994689941406,3.259671211242676,-1.3324397802352905,-0.0,-0.0,-1.0,0.03003871758915577,1.0
49.71349334716797,2.490389823913574,-1.1510168313980103,-0.0,-0.0,-1.0,0.026101038350685817,2.0
49.90751647949219,2.335780143737793,-1.1853834390640259,-0.0,-0.0,-1.0,0.024619844194036275,2.0
50.200706481933594,3.1572494506835938,-1.3582247495651245,-0.0,-0.0,-1.0,0.015249873955960442,1.0
50.17219543457031,2.384718894958496,-1.1723331212997437,-0.0,-0.0,-1.0,0.04812064000473905,1.0
50.367862701416016,1.980733871459961,-1.2676156759262085,-0.0,-0.0,-1.0,0.020646159556510172,1.0
50.52454376220703,3.055145263671875,-1.38528311252594,-0.0,-0.0,-1.0,0.016084922371139867,1.0
50.63348388671875,2.7342119216918945,-1.2787920236587524,-0.0,-0.0,-1.0,0.10641554291445875,2.0
50.60678482055664,2.4814491271972656,-1.15031898021698,-0.0,-0.0,-1.0,0.12219010520855371,2.0
50.73149108886719,1.7681198120117188,-1.3199814558029175,-0.0,-0.0,-1.0,0.056088431756946035,1.0
50.95750427246094,3.015329360961914,-1.3996630907058716,-0.0,-0.0,-1.0,0.014324472784177032,1.0
51.10332489013672,2.854537010192871,-1.4462031126022339,-0.0,-0.0,-1.0,0.02245788843279459,2.0
51.00472640991211,2.2523059844970703,-1.208882451057434,-0.0,-0.0,-1.0,0.08615449389511232,2.0
51.09550094604492,1.8858718872070312,-1.2970794439315796,-0.0,-0.0,-1.0,0.11014441433992879,1.0
51.43730163574219,2.8182287216186523,-1.463473916053772,-0.0,-0.0,-1.0,0.018668629909562317,1.0
50.68588638305664,1.9035377502441406,-1.3507192134857178,-0.0,-0.0,-1.0,0.010872661957883955,1.0
51.019775390625,2.021592140197754,-1.3188879489898682,-0.0,-0.0,-1.0,0.07014316424835806,1.0
51.26259231567383,1.673478126525879,-1.4072942733764648,-0.0,-0.0,-1.0,0.06112237465752713,1.0
49.717044830322266,2.6631669998168945,-1.1822509765625,-0.0,-0.0,-1.0,0.022405086830306786,1.0
49.84040832519531,2.5003366470336914,-1.2188198566436768,-0.0,-0.0,-1.0,0.026883786636761293,1.0
50.266204833984375,2.511354446411133,-1.2042477130889893,-0.0,-0.0,-1.0,0.0380747761480737,1.0
50.11681365966797,2.436025619506836,-1.22678804397583,-0.0,-0.0,-1.0,0.030989787856793682,1.0
50.642242431640625,2.518726348876953,-1.195906639099121,-0.0,-0.0,-1.0,0.08795084069789758,1.0
50.55110168457031,2.1871957778930664,-1.280885934829712,-0.0,-0.0,-1.0,0.04122927487664186,1.0
50.887054443359375,2.100672721862793,-1.29948091506958,-0.0,-0.0,-1.0,0.05770265970011684,1.0
50.5147705078125,1.6592931747436523,-1.3173727989196777,-0.0,-0.0,-1.0,0.016480733226430278,1.0
49.91801452636719,2.3043909072875977,-1.1679723262786865,-0.0,-0.0,-1.0,0.024275425490583893,2.0
50.58496856689453,2.4998388290405273,-1.1052732467651367,0.24880103638486908,0.16890920731719375,-0.9537126003033054,0.0776381104377909,3.0
50.20414733886719,2.1995086669921875,-1.1869041919708252,-0.0,-0.0,-1.0,0.0756536758911037,1.0
50.30928039550781,1.927337646484375,-1.253103494644165,-0.0,-0.0,-1.0,0.02567219817228037,1.0
50.9390983581543,2.210630416870117,-1.1756978034973145,-0.5259051635364412,-0.8474185633319425,-0.07283912057497315,0.08873419958636974,4.0
50.39486312866211,1.8479280471801758,-1.2715933322906494,-0.0,-0.0,-1.0,0.019556831888685202,2.0
51.190216064453125,1.860635757446289,-1.2641334533691406,-0.0,-0.0,-1.0,0.1311747430820147,2.0
49.712738037109375,2.491748809814453,-1.1528794765472412,-0.0,-0.0,-1.0,0.025932378269744594,2.0
50.272544860839844,2.4222536087036133,-1.1627893447875977,0.01994721454383766,0.21235825261835986,-0.9769882707467984,0.02949568884859174,3.0
50.030792236328125,2.3225555419921875,-1.1919279098510742,-0.0,-0.0,-1.0,0.040733956069410354,1.0
50.422393798828125,2.0128135681152344,-1.2706642150878906,-0.0,-0.0,-1.0,0.027597747177789927,1.0
51.07166290283203,2.219792366027832,-1.2198104858398438,-0.0,-0.0,-1.0,0.09815431405174531,1.0
50.625553131103516,1.7794504165649414,-1.3327841758728027,-0.0,-0.0,-1.0,0.03552654676041572,1.0
51.13113784790039,1.9667177200317383,-1.2880067825317383,-0.0,-0.0,-1.0,0.10622864848518955,2.0
50.96023941040039,1.7044878005981445,-1.3552665710449219,-0.0,-0.0,-1.0,0.06884218805981172,2.0
51.5476188659668,1.6481037139892578,-1.3816184997558594,-0.0,-0.0,-1.0,0.07798819383084689,1.0
50.236961364746094,2.3901824951171875,-1.1808065176010132,-0.0,-0.0,-1.0,0.03655075112054426,1.0
49.97581481933594,2.279817581176758,-1.2121285200119019,-0.0,-0.0,-1.0,0.03499987671714561,1.0
50.539241790771484,2.0666446685791016,-1.2720385789871216,-0.0,-0.0,-1.0,0.018131605584658112,1.0
50.93374252319336,2.0632200241088867,-1.2788923978805542,-0.0,-0.0,-1.0,0.08066222255480349,1.0
50.77704620361328,1.9538154602050781,-1.3062204122543335,-0.0,-0.0,-1.0,0.019254341428063107,1.0
51.204776763916016,1.652115821838379,-1.398978590965271,-0.0,-0.0,-1.0,0.09261497165061976,1.0
51.06855392456055,1.7027645111083984,-1.3814727067947388,-0.0,-0.0,-1.0,0.10089919648004715,1.0
49.89765930175781,2.099973678588867,-1.0366610288619995,-0.0,-0.0,-1.0,0.030320898006093888,1.0
49.969974517822266,1.8500757217407227,-1.1008771657943726,-0.0,-0.0,-1.0,0.032954245587861086,1.0
50.3582649230957,1.6772127151489258,-1.1460705995559692,-0.0,-0.0,-1.0,0.017211487384957525,1.0
50.20515441894531,1.7092409133911133,-1.136933445930481,-0.0,-0.0,-1.0,0.02529856634636677,1.0
51.63373565673828,3.1174850463867188,-1.4084179401397705,-0.0,-0.0,-1.0,0.03550569986950604,1.0
51.42346954345703,2.979525566101074,-1.4086682796478271,-0.0,-0.0,-1.0,0.023643091309159477,1.0
49.71573257446289,2.7437667846679688,-1.0216275453567505,-0.0,-0.0,-1.0,0.021305462846688907,1.0
49.87622833251953,3.521493911743164,-1.2588462829589844,-0.0,-0.0,-1.0,0.03051596039021186,1.0
49.87910461425781,3.2788496017456055,-1.3153176307678223,-0.0,-0.0,-1.0,0.03166301329492136,1.0
51.038673400878906,2.2462730407714844,-1.1894748210906982,-0.0,-0.0,-1.0,0.10423786390932926,2.0
50.386253356933594,1.8253440856933594,-1.2351527214050293,-0.0,-0.0,-1.0,0.01955683188868514,2.0
50.56382369995117,2.480297088623047,-1.1142504215240479,0.24880103638486908,0.16890920731719375,-0.9537126003033054,0.11580691736709908,3.0
50.107627868652344,2.264688491821289,-1.132030963897705,-0.0,-0.0,-1.0,0.051960320022013215,2.0
49.795162200927734,2.342714309692383,-1.1002216339111328,-0.0,-0.0,-1.0,0.0383010671052273,2.0
50.145111083984375,2.1170339584350586,-1.1637074947357178,-0.0,-0.0,-1.0,0.06004200577949177,2.0
49.94672775268555,2.600184440612793,-1.232611060142517,-0.0,-0.0,-1.0,0.013488649098565925,1.0
49.973384857177734,2.718151092529297,-1.2105268239974976,-0.0,-0.0,-1.0,0.02866965132436202,2.0
49.94953155517578,2.679030418395996,-1.216882586479187,-0.0,-0.0,-1.0,0.025071400716574793,2.0
51.140098571777344,1.9448351860046387,-1.1712452173233032,-0.0,-0.0,-1.0,0.23828620763500086,2.0
51.14448928833008,1.9649910926818848,-1.1704046726226807,-0.9395200717184338,0.19285985729463304,0.28303199515687727,0.23828620763500077,3.0
50.26093292236328,2.1870036125183105,-1.0551111698150635,-0.0,-0.0,-1.0,0.07534042497352017,1.0
51.08274841308594,1.9146089553833008,-1.1169559955596924,-0.20464301721554579,0.10017242010344372,-0.9736974487773589,0.13347525812818914,3.0
51.109222412109375,1.975827693939209,-1.120145559310913,-0.7649084533525001,0.1955853715090871,-0.6137274805983015,0.2277807585211981,5.0
51.117103576660156,1.9278955459594727,-1.0632888078689575,-0.0,-0.0,-1.0,0.23828620763500077,1.0
49.80862045288086,2.411287784576416,-1.1469252109527588,-0.0,-0.0,-1.0,0.01876718445286103,1.0
50.08815383911133,2.4572954177856445,-1.1891753673553467,-0.0,-0.0,-1.0,0.03292490984605419,1.0
50.528377532958984,2.649001121520996,-1.2528679370880127,-0.3674230127831664,-0.49475630574760315,-0.7875382705623428,0.09656949569252644,3.0
50.647804260253906,2.75167179107666,-1.2690021991729736,-0.0,-0.0,-1.0,0.10641554291445872,2.0
50.946556091308594,2.9352974891662598,-1.3119447231292725,-0.0,-0.0,-1.0,0.020348848638525673,2.0
51.558528900146484,2.800851821899414,-1.4132602214813232,-0.0,-0.0,-1.0,0.019921971905309623,1.0
51.68891143798828,3.0076308250427246,-1.4295847415924072,-0.0,-0.0,-1.0,0.03303203603201587,2.0
50.5989990234375,2.5651354789733887,-1.2810782194137573,-0.0,-0.0,-1.0,0.08613963094463781,1.0
50.568687438964844,2.7316908836364746,-1.2648555040359497,-0.0,-0.0,-1.0,0.10819216399898113,1.0
50.93199920654297,2.9580516815185547,-1.3040586709976196,-0.0,-0.0,-1.0,0.016616052842318534,2.0
51.62860107421875,2.9589624404907227,-1.4096382856369019,-0.0,-0.0,-1.0,0.031131682961832566,1.0
50.02991485595703,2.576305866241455,-1.1957954168319702,-0.0,-0.0,-1.0,0.016275637692011475,1.0
51.08990478515625,1.9605798721313477,-1.1674492359161377,-0.0,-0.0,-1.0,0.12995852186823276,2.0
51.16015625,1.801945686340332,-1.188817024230957,-0.0,-0.0,-1.0,0.1248532085034567,1.0
51.131591796875,2.0006589889526367,-1.2637295722961426,-0.0,-0.0,-1.0,0.10622864848518965,2.0
49.85284423828125,1.6787056922912598,-1.100722312927246,-0.9907049177298589,0.04023559742788149,-0.12994176651675604,0.023530930125377998,3.0
50.101722717285156,2.2739267349243164,-1.08988618850708,-0.0,-0.0,-1.0,0.05642175701961518,2.0
50.89453125,2.200470447540283,-1.2135281562805176,0.34634079020175373,-0.6083229942544487,-0.7141366757867341,0.07664084202545043,3.0
50.099082946777344,3.223073959350586,-1.2936197519302368,-0.0,-0.0,-1.0,0.020338243070781026,1.0
50.641780853271484,3.1628899574279785,-1.3946675062179565,-0.0,-0.0,-1.0,0.007835572253962555,1.0
50.88216018676758,3.385676383972168,-1.4218868017196655,-0.01440389108966002,0.2432439573027558,-0.9698581881683384,0.012691995390878019,4.0
51.093833923339844,1.891955852508545,-1.1216163635253906,-0.0,-0.0,-1.0,0.13347525812818914,2.0
50.903411865234375,2.1665396690368652,-1.180317997932434,-0.0,-0.0,-1.0,0.060505768904101594,2.0
51.169898986816406,1.9556219577789307,-1.0813381671905518,-0.645638436285512,0.7627381653125869,-0.037168545389727754,0.23828620763500075,4.0
51.156463623046875,1.8467555046081543,-1.068360686302185,-0.0,-0.0,-1.0,0.1978067338892108,1.0
49.72557067871094,3.5254664421081543,-1.2030445337295532,-0.0,-0.0,-1.0,0.03268232131638568,2.0
51.170684814453125,2.023590087890625,-1.1175273656845093,-0.0,-0.0,-1.0,0.19979940475386457,2.0
50.38810729980469,2.8163743019104004,-1.1978943347930908,-0.0,-0.0,-1.0,0.04894701563001612,1.0
51.04977035522461,2.0710301399230957,-1.2162574529647827,-0.0,-0.0,-1.0,0.07313050815468537,1.0
51.43519592285156,1.7289600372314453,-0.9954278469085693,-0.0,-0.0,-1.0,0.10490797487120311,1.0
51.55213928222656,3.1099367141723633,-1.4282894134521484,-0.0,-0.0,-1.0,0.037837458040370975,1.0
51.069053649902344,1.8536376953125,-1.09633207321167,-0.0,-0.0,-1.0,0.13347525812818917,1.0
