x,y,z,nx,ny,nz,curvature,density
55.33708572387695,8.875297546386719,-1.4925026893615723,-0.0,-0.0,-1.0,0.14445692912256697,2.0
54.25270080566406,8.831334114074707,-1.7272510528564453,-0.0,-0.0,-1.0,0.15682252280952225,2.0
54.79161071777344,9.327831268310547,-1.8296587467193604,-0.0,-0.0,-1.0,0.04774848501881697,1.0
54.52136993408203,7.681178092956543,-1.6533942222595215,-0.0,-0.0,-1.0,0.19789322805522114,1.0
54.56560516357422,8.017045974731445,-1.6456539630889893,-0.0,-0.0,-1.0,0.20840021186112215,1.0
55.34043502807617,8.892119407653809,-1.4970390796661377,0.05645736154900859,-0.2704191538638391,-0.9610858689786723,0.16574335518799918,3.0
54.96992874145508,8.80416488647461,-2.0051913261413574,-0.0,-0.0,-1.0,0.03421675695876979,2.0
55.530906677246094,8.11856746673584,-1.7409478425979614,-0.0,-0.0,-1.0,0.03659813158304031,1.0
54.4101448059082,8.002182960510254,-1.6001412868499756,-0.0,-0.0,-1.0,0.1373010182196455,1.0
55.639312744140625,9.196521759033203,-1.7645797729492188,-0.0,-0.0,-1.0,0.11525290987269583,1.0
54.36005401611328,7.840818405151367,-1.670819878578186,-0.0,-0.0,-1.0,0.14281707133149513,1.0
54.58723449707031,7.977388381958008,-1.6896859407424927,-0.0,-0.0,-1.0,0.25554234263807574,1.0
55.38882827758789,8.872064590454102,-1.6981521844863892,-0.0,-0.0,-1.0,0.09750181855653835,2.0
54.55792236328125,7.972787857055664,-1.559084177017212,0.24539261919662786,-0.7535103323859397,-0.6099218322305322,0.17114866019453312,3.0
54.39101028442383,7.8024797439575195,-1.5618610382080078,-0.0,-0.0,-1.0,0.12372314798418511,2.0
54.26317596435547,9.286413192749023,-1.9170074462890625,-0.0,-0.0,-1.0,0.08668843544241847,2.0
54.48204803466797,9.592449188232422,-1.9279828071594238,-0.0,-0.0,-1.0,0.092778405468718,2.0
54.16685104370117,9.059925079345703,-1.9159746170043945,-0.0,-0.0,-1.0,0.036660435135075005,2.0
53.74433517456055,9.032551765441895,-1.9772305488586426,-0.0,-0.0,-1.0,0.02515776779570574,1.0
54.40488815307617,9.586565017700195,-1.8268308639526367,-0.0,-0.0,-1.0,0.09124836068949439,1.0
54.1000862121582,8.588754653930664,-1.807483196258545,-0.0,-0.0,-1.0,0.13049970855639048,1.0
54.14544677734375,9.521331787109375,-1.8043556213378906,-0.0,-0.0,-1.0,0.12590722685909428,1.0
54.27540588378906,9.36324691772461,-1.71486234664917,-0.0,-0.0,-1.0,0.12866739880817857,1.0
53.78961944580078,8.834375381469727,-1.9006319046020508,-0.0,-0.0,-1.0,0.04005528929946599,1.0
54.23698806762695,9.17132568359375,-1.9517526626586914,-0.0,-0.0,-1.0,0.054857382913298953,1.0
54.29383850097656,9.522592544555664,-1.9613394737243652,-0.0,-0.0,-1.0,0.08027173124597635,1.0
54.19267272949219,8.763177871704102,-1.8805036544799805,-0.0,-0.0,-1.0,0.15950937494925688,2.0
54.743553161621094,8.250429153442383,-1.9414653778076172,0.8248008339423948,0.08894124780674552,-0.558384310996028,0.05653072984494664,4.0
54.28137969970703,9.374574661254883,-1.8757195472717285,-0.0,-0.0,-1.0,0.13543991798584853,1.0
54.34710693359375,8.9352388381958,-1.7980067729949951,-0.0,-0.0,-1.0,0.10401294914906431,1.0
54.522239685058594,7.941718101501465,-1.5214157104492188,0.6388047672623078,-0.20244683177846903,-0.7422558518636339,0.13636165584257695,5.0
54.29499816894531,9.1826171875,-1.9500904083251953,-0.0,-0.0,-1.0,0.05172710663869679,1.0
54.47466278076172,9.40439510345459,-1.9783754348754883,-0.0,-0.0,-1.0,0.09256912535927746,2.0
54.07073211669922,9.112930297851562,-1.920384407043457,-0.0,-0.0,-1.0,0.041804789601783694,1.0
54.38506317138672,7.804633140563965,-1.5839731693267822,0.9233863007312397,-0.26836105718067904,-0.2744814795405057,0.13666689399576026,3.0
54.480079650878906,7.774218559265137,-1.5687003135681152,-0.22547586739907047,-0.9397916465833387,-0.2568117875659405,0.12655350673246515,4.0
54.72461700439453,8.11051082611084,-1.951439619064331,-0.0,-0.0,-1.0,0.09093340968645668,1.0
54.89252471923828,8.45034122467041,-1.9877994060516357,-0.0,-0.0,-1.0,0.014545770499454429,2.0
54.19062805175781,8.699287414550781,-1.8870584964752197,0.6711702625713423,-0.22422051345433236,-0.7065802431332135,0.14728162873480063,3.0
54.90480422973633,8.783493995666504,-2.000284433364868,-0.0,-0.0,-1.0,0.0109263137763375,1.0
54.12374496459961,9.364570617675781,-1.8984816074371338,-0.0,-0.0,-1.0,0.11654990253458977,2.0
54.677879333496094,9.340593338012695,-1.9837305545806885,-0.0,-0.0,-1.0,0.03682386833681739,1.0
54.51105499267578,9.598552703857422,-1.9667689800262451,-0.0,-0.0,-1.0,0.08472442792482064,2.0
54.91658020019531,7.728885650634766,-1.9668128490447998,-0.0,-0.0,-1.0,0.07494749328758023,1.0
54.67456817626953,8.185789108276367,-1.941054105758667,-0.0,-0.0,-1.0,0.0910834601768268,1.0
54.72386932373047,8.28001594543457,-1.9515702724456787,-0.0,-0.0,-1.0,0.05653072984494666,2.0
54.86604690551758,8.347611427307129,-1.9761207103729248,-0.0,-0.0,-1.0,0.021265314426456582,1.0
54.27156066894531,8.732210159301758,-1.8929154872894287,-0.0,-0.0,-1.0,0.13959146725878574,1.0
54.908409118652344,8.662012100219727,-1.9922230243682861,-0.0,-0.0,-1.0,0.011823302322150557,2.0
54.478607177734375,9.419234275817871,-1.9475610256195068,-0.0,-0.0,-1.0,0.09256912535927746,2.0
54.11891174316406,9.24918270111084,-1.8846056461334229,-0.0,-0.0,-1.0,0.051562231097425845,1.0
54.256309509277344,8.771318435668945,-1.713815450668335,-0.0,-0.0,-1.0,0.16031921014612197,2.0
55.35932159423828,9.415243148803711,-1.9158775806427002,-0.0,-0.0,-1.0,0.10907085815271403,1.0
53.80169677734375,8.714045524597168,-1.937730312347412,-0.0,-0.0,-1.0,0.033279310979031314,1.0
54.03301239013672,8.867338180541992,-1.983449935913086,-0.0,-0.0,-1.0,0.05954866855950736,1.0
53.97748947143555,8.97602653503418,-1.9768357276916504,-0.0,-0.0,-1.0,0.03757840540104258,2.0
54.058692932128906,9.155948638916016,-1.9969873428344727,-0.0,-0.0,-1.0,0.03683916539326966,1.0
53.9229736328125,9.626571655273438,-1.988156795501709,-0.0,-0.0,-1.0,0.06397764785186996,2.0
54.05292510986328,9.350957870483398,-2.0022196769714355,-0.0,-0.0,-1.0,0.05363943045338619,1.0
54.4639778137207,7.930391311645508,-1.638832688331604,0.9624551144037212,-0.21899250674824108,-0.1603821522060413,0.21129150858016277,4.0
55.42103576660156,8.947988510131836,-1.4748878479003906,-0.0,-0.0,-1.0,0.17621880810708782,1.0
54.97021484375,7.783123016357422,-1.9514706134796143,-0.0,-0.0,-1.0,0.07142085890676715,1.0
55.28910827636719,7.840608596801758,-2.001532554626465,-0.0,-0.0,-1.0,0.03666348202957541,1.0
54.74659729003906,8.215243339538574,-1.9277746677398682,0.8842546230160921,-0.10091529576731142,-0.45597134203244066,0.05653072984494662,3.0
54.8375358581543,8.271050453186035,-1.9431111812591553,-0.0,-0.0,-1.0,0.025120721095916634,1.0
54.22294616699219,8.711566925048828,-1.8602566719055176,0.6711702625713423,-0.22422051345433236,-0.7065802431332135,0.15665275769365197,3.0
54.92588806152344,8.642454147338867,-1.9664723873138428,-0.0,-0.0,-1.0,0.011823302322150567,2.0
54.59214782714844,9.560032844543457,-1.941683292388916,-0.0,-0.0,-1.0,0.06788803023367872,1.0
54.00153350830078,8.474365234375,-1.8998169898986816,-0.0,-0.0,-1.0,0.06285973264442428,2.0
54.15155792236328,8.417144775390625,-1.9232683181762695,-0.0,-0.0,-1.0,0.07354508051391523,1.0
54.11265563964844,8.84481430053711,-1.925246000289917,-0.0,-0.0,-1.0,0.0941814983627415,2.0
54.297088623046875,8.778037071228027,-1.9541537761688232,-0.0,-0.0,-1.0,0.2184575009969771,1.0
54.132354736328125,9.36366081237793,-1.9397614002227783,-0.8445757828483451,0.5139244146701349,-0.1502446106589653,0.09467539254594241,4.0
54.159217834472656,9.110773086547852,-1.9385056495666504,-0.0,-0.0,-1.0,0.04264025232931026,1.0
53.88187789916992,9.527809143066406,-1.9021799564361572,-0.0,-0.0,-1.0,0.06375722952837964,1.0
54.678009033203125,7.639316558837891,-1.570744514465332,-0.0,-0.0,-1.0,0.20588054729100996,1.0
54.51564025878906,7.952862739562988,-1.5514798164367676,0.1483832413883404,-0.8768851413187668,-0.45722517713863486,0.17325512173721747,5.0
55.43956756591797,8.918678283691406,-1.7108995914459229,-0.0,-0.0,-1.0,0.11531590433796092,2.0
54.50027084350586,7.799449920654297,-1.5819278955459595,0.5664803477294355,-0.6897367984725975,-0.4509580517843194,0.14204953619725336,3.0
54.52525329589844,7.986279487609863,-1.5888959169387817,-0.0,-0.0,-1.0,0.20199299351735214,2.0
53.729652404785156,8.978652000427246,-2.0068843364715576,-0.0,-0.0,-1.0,0.025157767795705836,1.0
53.786048889160156,9.261911392211914,-2.0172767639160156,-0.0,-0.0,-1.0,0.028394241769193845,1.0
54.45146179199219,7.928635597229004,-1.8836688995361328,-0.0,-0.0,-1.0,0.1539708823376884,1.0
54.90771484375,7.8100175857543945,-1.9695608615875244,-0.0,-0.0,-1.0,0.03768921227814562,1.0
55.22254180908203,7.841788291931152,-2.0267789363861084,-0.0,-0.0,-1.0,0.03439623007310355,1.0
54.9718132019043,8.686256408691406,-1.967522382736206,-0.0,-0.0,-1.0,0.018008532009190652,1.0
55.51195526123047,8.372239112854004,-2.072235107421875,-0.0,-0.0,-1.0,0.04822210202306903,1.0
55.15517807006836,8.820512771606445,-2.000373125076294,-0.0,-0.0,-1.0,0.0816059791790315,1.0
55.010231018066406,9.162031173706055,-1.9700539112091064,-0.0,-0.0,-1.0,0.058562878395597276,1.0
54.27447509765625,8.720236778259277,-1.8371648788452148,-0.0,-0.0,-1.0,0.13858061230671492,1.0
54.26630401611328,8.827919006347656,-1.834141492843628,-0.0,-0.0,-1.0,0.11148152352223098,1.0
53.793861389160156,7.663647651672363,-1.9315612316131592,-0.0,-0.0,-1.0,0.13394778211724961,1.0
53.98137664794922,8.507352828979492,-1.9455602169036865,-0.0,-0.0,-1.0,0.05576368413571889,1.0
54.170936584472656,8.74393081665039,-1.978886365890503,-0.0,-0.0,-1.0,0.1196587997956243,1.0
54.10136795043945,8.909496307373047,-1.9611845016479492,-0.0,-0.0,-1.0,0.056370861364964026,2.0
54.110591888427734,9.324575424194336,-1.9556756019592285,-0.8772623539181864,0.44006702431565353,-0.1917075285634044,0.06464517515220262,4.0
54.26288986206055,9.482467651367188,-1.9850850105285645,-0.0,-0.0,-1.0,0.08735276610988105,1.0
54.487945556640625,7.665335655212402,-1.4277095794677734,-0.0,-0.0,-1.0,0.1677083411846586,1.0
54.55510711669922,7.910941123962402,-1.4362726211547852,-0.0,-0.0,-1.0,0.12525710931835,2.0
54.53163528442383,8.006220817565918,-1.956012487411499,-0.0,-0.0,-1.0,0.15253095355588075,1.0
54.692691802978516,8.47512435913086,-1.978773832321167,-0.0,-0.0,-1.0,0.01759056615737772,1.0
54.69696044921875,8.687223434448242,-1.9753363132476807,-0.0,-0.0,-1.0,0.019466719354852516,1.0
53.88610076904297,7.960400581359863,-1.8230633735656738,-0.0,-0.0,-1.0,0.056554739469981824,1.0
54.184043884277344,8.121119499206543,-1.8803551197052002,-0.0,-0.0,-1.0,0.11316340276132453,2.0
54.32337188720703,8.725214004516602,-1.8952455520629883,-0.0,-0.0,-1.0,0.22066137975994232,1.0
54.39040756225586,9.403888702392578,-1.8978726863861084,-0.0,-0.0,-1.0,0.0855830131678641,1.0
54.60648727416992,9.396356582641602,-1.9445810317993164,-0.0,-0.0,-1.0,0.04410035753505473,1.0
55.38392639160156,8.915473937988281,-1.5010554790496826,-0.25905867191077003,0.32607294004674303,-0.9091562254514353,0.2052245111351998,3.0
55.36873245239258,7.839627265930176,-1.9954864978790283,-0.0,-0.0,-1.0,0.036663482029575416,1.0
55.46567916870117,7.88371467590332,-2.0144541263580322,-0.0,-0.0,-1.0,0.03564798553278741,1.0
55.62015914916992,8.262989044189453,-2.0355544090270996,-0.0,-0.0,-1.0,0.05814617019849755,2.0
54.439781188964844,7.8458356857299805,-1.8009049892425537,-0.0,-0.0,-1.0,0.18147016477835112,2.0
54.24277114868164,8.712496757507324,-1.7288742065429688,-0.0,-0.0,-1.0,0.15669126346037496,1.0
55.70815658569336,9.023833274841309,-2.0353965759277344,-0.0,-0.0,-1.0,0.17011675990386227,1.0
54.90791702270508,9.20860481262207,-1.8576056957244873,-0.0,-0.0,-1.0,0.03688421264721108,1.0
55.35805130004883,9.470982551574707,-1.9500691890716553,-0.0,-0.0,-1.0,0.08875484151928265,1.0
55.59952163696289,9.230025291442871,-2.007445812225342,-0.0,-0.0,-1.0,0.21423985873713056,1.0
54.45271301269531,7.871984481811523,-1.7654889822006226,-0.0,-0.0,-1.0,0.18881708900453856,2.0
55.48067092895508,7.771132469177246,-1.9935089349746704,-0.0,-0.0,-1.0,0.036663482029575416,1.0
55.614078521728516,8.233659744262695,-2.0053000450134277,-0.0,-0.0,-1.0,0.0417439981457889,2.0
53.72993087768555,9.496853828430176,-2.037731170654297,-0.0,-0.0,-1.0,0.04958715326646888,1.0
54.725337982177734,9.314966201782227,-1.7708631753921509,-0.0,-0.0,-1.0,0.05011339166862308,1.0
55.46772384643555,9.500967025756836,-1.934470534324646,-0.0,-0.0,-1.0,0.14435431944374458,1.0
54.23927307128906,8.731988906860352,-1.682576060295105,-0.0,-0.0,-1.0,0.1566912634603749,1.0
53.717857360839844,8.62971305847168,-1.9096531867980957,-0.0,-0.0,-1.0,0.02180098094394578,1.0
53.98488998413086,8.762211799621582,-1.9675519466400146,-0.0,-0.0,-1.0,0.05393832037045197,2.0
55.41716766357422,8.792946815490723,-1.802330732345581,-0.0,-0.0,-1.0,0.09145320431124998,1.0
54.1069221496582,9.105050086975098,-1.976651668548584,-0.0,-0.0,-1.0,0.03707509092947514,2.0
54.21663284301758,9.461030960083008,-1.9840621948242188,-0.0,-0.0,-1.0,0.10086353986458274,1.0
54.339237213134766,9.591708183288574,-2.0087733268737793,-0.0,-0.0,-1.0,0.07103223581100075,1.0
54.46190643310547,7.910086631774902,-1.628446340560913,0.9893030514543658,-0.13232722261035615,-0.061392007128858735,0.12643590532266605,3.0
55.40196228027344,8.94815444946289,-1.793182611465454,-0.0,-0.0,-1.0,0.16992696957523462,1.0
53.802032470703125,9.029495239257812,-2.038740873336792,-0.0,-0.0,-1.0,0.015132214688022772,1.0
55.051170349121094,7.771671295166016,-1.994997501373291,-0.0,-0.0,-1.0,0.012907978238640644,1.0
55.126678466796875,7.833808898925781,-2.008464813232422,-0.0,-0.0,-1.0,0.026106085077423735,1.0
54.57841110229492,8.378660202026367,-1.8323261737823486,-0.0,-0.0,-1.0,0.08504293784533686,1.0
55.539276123046875,8.326204299926758,-2.074003219604492,-0.0,-0.0,-1.0,0.04475436131126456,1.0
54.2972297668457,8.742721557617188,-1.735701560974121,-0.0,-0.0,-1.0,0.13753725042762213,1.0
54.375850677490234,8.775001525878906,-1.752634048461914,-0.0,-0.0,-1.0,0.22640437777783454,1.0
55.21836853027344,8.588882446289062,-1.975409746170044,-0.0,-0.0,-1.0,0.08080584262040713,1.0
55.65861892700195,8.765188217163086,-2.074862480163574,-0.0,-0.0,-1.0,0.13436168297819856,1.0
53.84292984008789,9.236841201782227,-2.030121326446533,-0.0,-0.0,-1.0,0.03302762654062675,2.0
53.94390106201172,9.325109481811523,-2.050062894821167,-0.0,-0.0,-1.0,0.04678869123642593,1.0
55.50077438354492,9.015738487243652,-2.01891827583313,-0.0,-0.0,-1.0,0.22266576421602502,1.0
53.85948181152344,9.612326622009277,-2.000452756881714,-0.0,-0.0,-1.0,0.06199513727087954,1.0
53.96239471435547,9.610003471374512,-2.0297679901123047,-0.0,-0.0,-1.0,0.06748099387829522,2.0
55.46388626098633,9.58113956451416,-1.976534128189087,-0.0,-0.0,-1.0,0.10294157558650165,1.0
55.65718460083008,9.384021759033203,-2.0375165939331055,-0.0,-0.0,-1.0,0.1790305308507267,2.0
54.57279968261719,7.936542510986328,-1.380582332611084,-0.0,-0.0,-1.0,0.1280135730035557,2.0
55.40460205078125,8.90489387512207,-1.5107414722442627,-0.0,-0.0,-1.0,0.11072708838269994,2.0
54.01713562011719,7.972167015075684,-1.8549805879592896,-0.0,-0.0,-1.0,0.09140992810010798,1.0
54.321372985839844,7.794618606567383,-1.952682614326477,-0.0,-0.0,-1.0,0.23651088249397403,1.0
54.575828552246094,8.115989685058594,-1.978275179862976,-0.0,-0.0,-1.0,0.11099249234488406,2.0
54.589202880859375,8.270933151245117,-1.9637664556503296,-0.0,-0.0,-1.0,0.08578089671083808,1.0
54.832889556884766,8.758880615234375,-1.9736205339431763,-0.0,-0.0,-1.0,0.01375247355374252,1.0
54.509368896484375,7.778362274169922,-1.5382457971572876,0.5664803477294355,-0.6897367984725975,-0.4509580517843194,0.12302381047094511,3.0
54.50850296020508,7.894216537475586,-1.5268436670303345,0.6997118785233957,-0.12190657750072563,-0.703947493365322,0.12476380128654853,3.0
54.633792877197266,7.896781921386719,-1.554751992225647,-0.0,-0.0,-1.0,0.09727623082497436,1.0
55.60425567626953,8.117897033691406,-1.758193850517273,-0.0,-0.0,-1.0,0.04352239515535852,1.0
55.498191833496094,8.899856567382812,-1.6704648733139038,-0.0,-0.0,-1.0,0.16332558641444903,1.0
54.79710006713867,9.146855354309082,-1.923948884010315,-0.0,-0.0,-1.0,0.019236402328736333,1.0
54.755584716796875,9.627612113952637,-1.8659735918045044,-0.0,-0.0,-1.0,0.05883643132102666,1.0
54.38130187988281,7.8253679275512695,-1.616899013519287,-0.0,-0.0,-1.0,0.15129305655206804,2.0
54.40608596801758,7.920876502990723,-1.6099278926849365,-0.0,-0.0,-1.0,0.12779300544947342,1.0
54.53022003173828,7.958944320678711,-1.6338891983032227,-0.0,-0.0,-1.0,0.1802551795334038,2.0
55.347496032714844,8.918264389038086,-1.7187306880950928,-0.0,-0.0,-1.0,0.12366841634398182,1.0
55.67905807495117,9.062170028686523,-1.7886748313903809,-0.0,-0.0,-1.0,0.12038532059086236,1.0
54.404258728027344,7.7861433029174805,-1.6902145147323608,-0.0,-0.0,-1.0,0.14714261653090158,1.0
54.387672424316406,8.0424165725708,-1.6371484994888306,-0.0,-0.0,-1.0,0.1975602812925303,2.0
54.459590911865234,7.935977935791016,-1.6720949411392212,0.45205050089269144,-0.8666618109744507,-0.21106314230853362,0.21546655418952593,4.0
55.40150833129883,8.911450386047363,-1.6942838430404663,-0.42529861362507465,0.22307164992682435,-0.877131762192838,0.11531590433796092,3.0
54.551902770996094,7.914444446563721,-1.4002835750579834,0.659497462183355,-0.7402433772577922,0.1307778261009567,0.11734490346880887,3.0
54.57971954345703,8.060651779174805,-1.464107871055603,-0.0,-0.0,-1.0,0.16492855980574267,1.0
54.53240966796875,8.121421813964844,-1.5786888599395752,-0.0,-0.0,-1.0,0.1968104742171151,1.0
54.49958801269531,7.964858055114746,-1.6273574829101562,-0.0,-0.0,-1.0,0.16802304816159724,2.0
54.4874382019043,7.887155532836914,-1.6820882558822632,-0.0,-0.0,-1.0,0.12852664505261213,1.0
54.44599151611328,8.068439483642578,-1.683066964149475,-0.0,-0.0,-1.0,0.22050645213319287,1.0
54.24341583251953,8.783374786376953,-1.6833940744400024,-0.0,-0.0,-1.0,0.16031921014612202,2.0
55.6041259765625,9.022660255432129,-1.4505524635314941,-0.0,-0.0,-1.0,0.1203853205908624,1.0
54.28927230834961,8.823408126831055,-1.7079129219055176,-0.0,-0.0,-1.0,0.14075293520401083,2.0
54.48954772949219,7.953291893005371,-1.6773366928100586,0.48292695578264705,-0.8687665559279764,-0.1096641540319701,0.21580802263211055,3.0
54.35663604736328,8.037060737609863,-1.6611547470092773,-0.0,-0.0,-1.0,0.2212244827361632,2.0
54.53880310058594,7.947165012359619,-1.515607476234436,-0.1543449936630121,-0.9709325689331221,-0.18294143739484753,0.13188445108351046,4.0
54.58759307861328,8.013370513916016,-1.5236808061599731,-0.0,-0.0,-1.0,0.14582913058028818,1.0
55.45256805419922,8.967641830444336,-1.6661211252212524,-0.0,-0.0,-1.0,0.16332558641444905,1.0
54.97114562988281,7.685245990753174,-1.9891934394836426,-0.0,-0.0,-1.0,0.069729586535573,2.0
54.74647521972656,7.941396236419678,-1.9567592144012451,-0.0,-0.0,-1.0,0.05442105072053391,1.0
54.87320327758789,7.971335411071777,-1.9794323444366455,-0.0,-0.0,-1.0,0.011929702929366971,1.0
54.729007720947266,8.21080493927002,-1.9609034061431885,0.8842546230160921,-0.10091529576731142,-0.45597134203244066,0.05944945178921297,3.0
55.00153350830078,8.431962966918945,-2.0142691135406494,-0.0,-0.0,-1.0,0.009054115749821316,1.0
54.1652946472168,9.026266098022461,-1.8888094425201416,-0.0,-0.0,-1.0,0.050313376234082254,2.0
54.59602737426758,8.690947532653809,-1.9521739482879639,-0.0,-0.0,-1.0,0.02139679458047383,2.0
54.283084869384766,9.221548080444336,-1.9160685539245605,-0.0,-0.0,-1.0,0.07930308098702188,1.0
54.41533279418945,7.995163440704346,-1.6610628366470337,-0.0,-0.0,-1.0,0.22122448273616313,1.0
53.80588150024414,8.522775650024414,-1.9128551483154297,-0.0,-0.0,-1.0,0.04822651180733089,1.0
54.01179504394531,9.08093547821045,-1.949706792831421,-0.0,-0.0,-1.0,0.03364501665286608,1.0
54.09149932861328,8.874967575073242,-1.9655137062072754,0.6790425563166643,-0.10294480823405619,-0.726844944378499,0.05732302132554331,3.0
54.119876861572266,9.31995677947998,-1.9704320430755615,-0.8055001528558435,0.182248453389422,-0.5638749905665046,0.06464517515220258,3.0
54.117469787597656,9.140939712524414,-1.969825267791748,-0.0,-0.0,-1.0,0.04314435644880021,2.0
55.45048904418945,9.020310401916504,-1.564049243927002,-0.0,-0.0,-1.0,0.18260093986384396,1.0
54.43119812011719,7.771341323852539,-1.415621280670166,-0.0,-0.0,-1.0,0.1216943268151335,1.0
53.869102478027344,9.323677062988281,-2.0323052406311035,-0.0,-0.0,-1.0,0.04109999412812011,1.0
53.73475646972656,9.54699420928955,-2.00640869140625,-0.0,-0.0,-1.0,0.0637572295283796,1.0
53.79694366455078,9.186725616455078,-2.0175795555114746,-0.0,-0.0,-1.0,0.03480084483463347,1.0
54.48556137084961,7.885797023773193,-1.5481891632080078,-0.0,-0.0,-1.0,0.13181315543898106,2.0
54.46208953857422,7.797253608703613,-1.5454306602478027,-0.0,-0.0,-1.0,0.12568291360723274,2.0
54.15143585205078,8.084755897521973,-1.869775414466858,-0.0,-0.0,-1.0,0.12419179547219372,2.0
54.204994201660156,8.719544410705566,-1.8798404932022095,0.6258200171410825,0.06844626630033662,-0.7769584382546334,0.14728162873480058,4.0
54.56140899658203,8.143149375915527,-1.9478732347488403,-0.0,-0.0,-1.0,0.13533232167726222,2.0
54.72779083251953,7.830936431884766,-1.9811750650405884,-0.0,-0.0,-1.0,0.06456263401064584,1.0
54.314697265625,9.292234420776367,-1.9046708345413208,-0.0,-0.0,-1.0,0.09903932211728926,1.0
54.303245544433594,9.103110313415527,-1.9007521867752075,-0.0,-0.0,-1.0,0.0477228866937028,1.0
54.596343994140625,8.696162223815918,-1.9544097185134888,-0.0,-0.0,-1.0,0.02139679458047389,2.0
54.680625915527344,8.302623748779297,-1.9701839685440063,-0.0,-0.0,-1.0,0.05653072984494666,1.0
54.87388229370117,7.6665143966674805,-2.0102858543395996,-0.0,-0.0,-1.0,0.07050142454351173,1.0
54.53271484375,9.441635131835938,-1.9477380514144897,-0.0,-0.0,-1.0,0.08190163128882917,1.0
54.691741943359375,8.914913177490234,-1.973495364189148,-0.0,-0.0,-1.0,0.02067136119322804,1.0
53.90913391113281,7.908601760864258,-1.8244258165359497,-0.0,-0.0,-1.0,0.07173087320584584,1.0
54.34904479980469,8.56904411315918,-1.851949691772461,-0.0,-0.0,-1.0,0.1622238927744839,1.0
54.49296569824219,8.145645141601562,-1.836529016494751,-0.0,-0.0,-1.0,0.11452201479629558,1.0
54.99295425415039,8.806533813476562,-1.9703185558319092,-0.0,-0.0,-1.0,0.03574106678960602,2.0
54.75942611694336,8.519068717956543,-1.9095661640167236,-0.0,-0.0,-1.0,0.015108763483779172,1.0
54.872440338134766,8.078239440917969,-1.8888673782348633,-0.0,-0.0,-1.0,0.057673432497649856,1.0
54.661190032958984,7.886165618896484,-1.840207815170288,-0.0,-0.0,-1.0,0.17575449245932664,1.0
55.149452209472656,8.521709442138672,-1.969151258468628,-0.0,-0.0,-1.0,0.041364038968858964,1.0
55.56722640991211,8.607767105102539,-2.0404043197631836,-0.0,-0.0,-1.0,0.11998235057054972,1.0
55.60265350341797,8.070204734802246,-2.000946283340454,-0.0,-0.0,-1.0,0.03036058378712262,1.0
55.62960433959961,8.960283279418945,-1.3688608407974243,-0.0,-0.0,-1.0,0.11643550358392454,1.0
55.37963104248047,9.585304260253906,-1.9339873790740967,-0.0,-0.0,-1.0,0.08376752634088538,1.0
54.25751495361328,9.397748947143555,-1.836137056350708,-0.0,-0.0,-1.0,0.1354399179858485,1.0
54.4114990234375,8.049306869506836,-1.7204926013946533,-0.0,-0.0,-1.0,0.19259380479587626,1.0
55.556785583496094,8.998926162719727,-1.8387082815170288,-0.0,-0.0,-1.0,0.1371796513774399,1.0
54.463409423828125,7.936802387237549,-1.6618107557296753,0.39554123424834875,-0.8109351606329739,-0.43119751536675827,0.21937631613197256,5.0
55.11262130737305,7.682383060455322,-2.0150935649871826,-0.0,-0.0,-1.0,0.04901233702811429,1.0
54.376258850097656,9.322872161865234,-1.844078540802002,-0.0,-0.0,-1.0,0.09437106418438303,1.0
54.11980056762695,7.71164608001709,-1.8895370960235596,-0.0,-0.0,-1.0,0.1357262287775767,1.0
54.14311218261719,9.185903549194336,-1.9204297065734863,-0.0,-0.0,-1.0,0.05633810297598045,1.0
55.687381744384766,9.355034828186035,-2.0160999298095703,-0.0,-0.0,-1.0,0.1790305308507267,2.0
54.61339569091797,8.000694274902344,-1.6173077821731567,-0.0,-0.0,-1.0,0.18978503709352676,1.0
54.20131301879883,9.386083602905273,-1.895065426826477,-0.0,-0.0,-1.0,0.13565228518420339,1.0
54.55513381958008,8.046011924743652,-1.7299309968948364,-0.0,-0.0,-1.0,0.2498626857504359,1.0
53.98400115966797,9.43123722076416,-2.048586845397949,-0.0,-0.0,-1.0,0.05127139530574739,1.0
54.059688568115234,9.544965744018555,-2.056924819946289,-0.0,-0.0,-1.0,0.08361667452895981,1.0
54.570701599121094,8.258139610290527,-1.4420580863952637,-0.0,-0.0,-1.0,0.18778262635369738,1.0
54.12471008300781,8.996288299560547,-1.8027585744857788,-0.0,-0.0,-1.0,0.054989061737863436,1.0
54.18110656738281,8.823949813842773,-1.7771663665771484,-0.0,-0.0,-1.0,0.15635393057787877,1.0
54.472843170166016,8.006732940673828,-1.5207407474517822,-0.0,-0.0,-1.0,0.1469179767533793,1.0
54.46535110473633,8.03076171875,-1.7465648651123047,-0.0,-0.0,-1.0,0.20415433632334828,1.0
53.988040924072266,9.463783264160156,-1.8741436004638672,-0.0,-0.0,-1.0,0.07539833080901176,1.0
54.25171661376953,9.281421661376953,-1.8705706596374512,-0.0,-0.0,-1.0,0.082436468729381,2.0
54.90708923339844,9.241365432739258,-1.907707691192627,-0.0,-0.0,-1.0,0.020283206908531467,1.0
54.66468048095703,8.298763275146484,-1.8769421577453613,-0.0,-0.0,-1.0,0.14924564474671484,1.0
54.879241943359375,8.351186752319336,-1.897111415863037,-0.0,-0.0,-1.0,0.021265314426456582,1.0
53.972991943359375,8.81973648071289,-1.8908576965332031,-0.0,-0.0,-1.0,0.04966010283084908,1.0
54.789710998535156,8.99934196472168,-1.9648704528808594,-0.0,-0.0,-1.0,0.02657145660400344,1.0
55.66679382324219,8.932853698730469,-2.015361785888672,-0.0,-0.0,-1.0,0.17204445023759574,1.0
54.04042053222656,9.474212646484375,-1.9702301025390625,-0.0,-0.0,-1.0,0.08598076377352626,1.0
54.52198791503906,9.211544036865234,-1.9045917987823486,-0.0,-0.0,-1.0,0.058129894780478836,1.0
54.892887115478516,8.073348999023438,-1.9469571113586426,-0.0,-0.0,-1.0,0.016733601244975325,1.0
54.82082748413086,8.192901611328125,-1.9502201080322266,-0.0,-0.0,-1.0,0.03422686814271704,1.0
53.870323181152344,9.246212005615234,-2.02024245262146,-0.0,-0.0,-1.0,0.02860188929705471,2.0
54.10597229003906,8.525364875793457,-1.9376575946807861,-0.0,-0.0,-1.0,0.08892810217509524,1.0
54.153770446777344,9.479484558105469,-1.9527146816253662,-0.0,-0.0,-1.0,0.08103212764326875,1.0
54.11212921142578,8.840977668762207,-1.9414265155792236,0.8864117353581303,0.4431065412110903,-0.13390604375954138,0.0734573865654105,3.0
54.0812873840332,9.260978698730469,-1.9809973239898682,-0.0,-0.0,-1.0,0.029339790778545215,1.0
53.962440490722656,8.979533195495605,-1.9590742588043213,-0.0,-0.0,-1.0,0.03283532559244772,2.0
54.369956970214844,9.525239944458008,-1.93894624710083,-0.0,-0.0,-1.0,0.10204589238998404,1.0
54.726646423339844,8.375184059143066,-1.9534635543823242,-0.0,-0.0,-1.0,0.0241464446436341,1.0
54.901702880859375,8.481481552124023,-1.9765195846557617,-0.0,-0.0,-1.0,0.013998257933048855,2.0
54.974586486816406,7.849536895751953,-1.9705018997192383,-0.0,-0.0,-1.0,0.014586757329540153,1.0
54.611183166503906,8.077985763549805,-1.6060922145843506,-0.0,-0.0,-1.0,0.2015131694309033,1.0
54.498626708984375,7.956514835357666,-1.53759765625,-0.1543449936630121,-0.9709325689331221,-0.18294143739484753,0.17452645444112797,4.0
53.99358367919922,9.038172721862793,-1.983445167541504,-0.0,-0.0,-1.0,0.032462405363471974,1.0
54.12661361694336,9.34886360168457,-1.970712661743164,-0.8772623539181864,0.44006702431565353,-0.1917075285634044,0.09113049103030393,4.0
54.449134826660156,9.610666275024414,-1.9976701736450195,-0.0,-0.0,-1.0,0.09484453434777014,1.0
53.97110366821289,8.44686222076416,-1.9185962677001953,-0.0,-0.0,-1.0,0.03226784546197909,2.0
54.06308364868164,8.291524887084961,-1.91796875,-0.0,-0.0,-1.0,0.03226936482039455,1.0
54.03287124633789,8.772279739379883,-1.9664125442504883,-0.0,-0.0,-1.0,0.06341408605194346,2.0
54.42470169067383,8.15890884399414,-1.9688396453857422,-0.0,-0.0,-1.0,0.14598575302493394,1.0
54.537696838378906,7.838109016418457,-1.9543781280517578,-0.0,-0.0,-1.0,0.16355627766854272,1.0
54.66490936279297,7.682645797729492,-1.9607276916503906,-0.0,-0.0,-1.0,0.09899445891791155,1.0
54.95594024658203,7.692305564880371,-1.961247444152832,-0.0,-0.0,-1.0,0.069729586535573,2.0
55.274696350097656,7.660618782043457,-1.88438081741333,-0.0,-0.0,-1.0,0.06688760996851097,1.0
55.64335632324219,8.104573249816895,-1.996147632598877,-0.0,-0.0,-1.0,0.034445647938756124,1.0
55.33979034423828,8.980682373046875,-2.0714449882507324,-0.0,-0.0,-1.0,0.15347514920004737,1.0
55.68778991699219,8.865986824035645,-2.1053738594055176,-0.0,-0.0,-1.0,0.1343616829781986,1.0
55.2490348815918,9.24280834197998,-2.0948338508605957,-0.0,-0.0,-1.0,0.08563449953626641,1.0
54.012367248535156,7.967745780944824,-1.74379301071167,-0.0,-0.0,-1.0,0.09877077968701074,1.0
54.117042541503906,9.446390151977539,-1.9962396621704102,-0.0,-0.0,-1.0,0.09988516289451836,1.0
53.93000411987305,9.605815887451172,-2.016857147216797,-0.33447510003242314,0.7228343556728216,-0.6046791725513266,0.06397764785186998,3.0
