x,y,z,nx,ny,nz,curvature,density
58.384193420410156,20.876110076904297,-2.6759140491485596,-0.0,-0.0,-1.0,0.14453518094605308,1.0
58.75141143798828,20.93735122680664,-2.9139790534973145,-0.0,-0.0,-1.0,0.08560589089065071,1.0
58.43568801879883,20.83155632019043,-2.85469388961792,0.1282533554922698,-0.5126941540136145,-0.8489380314517884,0.2233857232137179,3.0
59.23666000366211,22.024526596069336,-3.0640997886657715,-0.0,-0.0,-1.0,0.10407327563582769,1.0
58.493186950683594,20.822092056274414,-2.860045909881592,-0.0,-0.0,-1.0,0.2192843709023411,1.0
59.121978759765625,22.02031707763672,-3.066283702850342,-0.0,-0.0,-1.0,0.08672351339167683,1.0
58.33922576904297,20.760082244873047,-2.921875,-0.0,-0.0,-1.0,0.191608698665175,1.0
58.422325134277344,22.05329704284668,-2.9924941062927246,-0.0,-0.0,-1.0,0.030344908588441175,1.0
59.783531188964844,22.19920539855957,-2.8634088039398193,-0.0,-0.0,-1.0,0.08664974034214083,1.0
58.47807312011719,20.79643440246582,-2.756903886795044,-0.0,-0.0,-1.0,0.15096908105819956,2.0
59.31908416748047,21.98545265197754,-3.0351364612579346,-0.0,-0.0,-1.0,0.10065105042575113,2.0
59.15569305419922,22.01473617553711,-3.0263774394989014,-0.0,-0.0,-1.0,0.10039370588996847,1.0
58.52600860595703,20.848896026611328,-2.7754180431365967,-0.0,-0.0,-1.0,0.1966399004858775,2.0
59.959983825683594,22.72867774963379,-3.08353328704834,-0.0,-0.0,-1.0,0.12197998334646372,1.0
59.60899353027344,22.179943084716797,-2.953049659729004,-0.0,-0.0,-1.0,0.06558956411110049,2.0
59.89165115356445,22.63749885559082,-3.0838866233825684,-0.0,-0.0,-1.0,0.14855959389168405,1.0
58.979766845703125,20.672883987426758,-2.6792478561401367,-0.0,-0.0,-1.0,0.076112669770156,2.0
59.28277587890625,21.27569580078125,-2.8057632446289062,-0.0,-0.0,-1.0,0.21546124395000535,1.0
59.61211013793945,22.117097854614258,-2.9667840003967285,0.9793490975978938,0.13957154778273223,0.1462707355684101,0.0679281509181531,5.0
59.67435836791992,22.20529556274414,-2.8987934589385986,-0.0,-0.0,-1.0,0.05892248120066897,1.0
58.73011016845703,22.824016571044922,-2.776756525039673,-0.0,-0.0,-1.0,0.17059525283682994,1.0
59.284942626953125,21.76980209350586,-3.0819358825683594,-0.0,-0.0,-1.0,0.11065292207383333,1.0
58.66722106933594,22.484725952148438,-3.0302014350891113,-0.0,-0.0,-1.0,0.1407916439437068,1.0
58.55558776855469,20.723438262939453,-2.878474235534668,-0.0,-0.0,-1.0,0.11029697740981999,2.0
59.71730041503906,22.417621612548828,-2.8487300872802734,-0.0,-0.0,-1.0,0.10985161808234518,1.0
58.607574462890625,22.79994773864746,-2.6472344398498535,-0.0,-0.0,-1.0,0.18187929711795298,2.0
59.776390075683594,22.714771270751953,-3.113241195678711,-0.0,-0.0,-1.0,0.15529275378767154,1.0
59.5478401184082,22.2127685546875,-2.973395824432373,-0.0,-0.0,-1.0,0.13184890104652572,1.0
58.36370086669922,23.10756492614746,-2.8231186866760254,-0.0,-0.0,-1.0,0.1805769280682776,1.0
60.093475341796875,22.786645889282227,-2.862607002258301,-0.0,-0.0,-1.0,0.08320088131742641,1.0
59.73916244506836,22.01188850402832,-2.640317678451538,-0.0,-0.0,-1.0,0.1418897880133492,2.0
59.395355224609375,22.25292205810547,-2.99863338470459,-0.0,-0.0,-1.0,0.15541771537298965,1.0
58.23899459838867,22.291059494018555,-2.794398784637451,-0.0,-0.0,-1.0,0.04502749937947667,2.0
59.506805419921875,22.016094207763672,-3.093480348587036,-0.0,-0.0,-1.0,0.11270835713498452,1.0
58.42927169799805,22.76477813720703,-2.870373010635376,-0.0,-0.0,-1.0,0.18168778399986688,1.0
59.13947677612305,21.983928680419922,-3.179159164428711,-0.0,-0.0,-1.0,0.10432281667308549,1.0
58.24443054199219,22.218280792236328,-2.97159481048584,-0.0,-0.0,-1.0,0.04102216579364339,1.0
58.32737350463867,20.851776123046875,-2.847349166870117,-0.0,-0.0,-1.0,0.1903241201588497,1.0
59.62378692626953,21.973461151123047,-3.058295726776123,-0.0,-0.0,-1.0,0.11326483145401152,2.0
58.46116256713867,20.86638641357422,-2.871880054473877,-0.0,-0.0,-1.0,0.3095403123260322,2.0
59.10980987548828,22.074756622314453,-3.0709621906280518,-0.0,-0.0,-1.0,0.09199752234940524,1.0
59.338409423828125,22.215492248535156,-3.0152359008789062,-0.0,-0.0,-1.0,0.10703997226238315,1.0
58.4171257019043,20.88238525390625,-2.817941188812256,-0.0,-0.0,-1.0,0.19741324067608743,1.0
59.504364013671875,22.116901397705078,-2.9717087745666504,-0.0,-0.0,-1.0,0.08205148096019561,1.0
59.52180480957031,21.960683822631836,-2.9778337478637695,-0.0,-0.0,-1.0,0.10566444660757401,1.0
59.40016174316406,21.994598388671875,-3.008697509765625,-0.0,-0.0,-1.0,0.1241441852763084,2.0
58.6455078125,21.01050567626953,-2.8325490951538086,-0.0,-0.0,-1.0,0.14943888549113662,1.0
58.46890640258789,20.770769119262695,-2.8661139011383057,-0.0,-0.0,-1.0,0.14977542935016036,1.0
58.51103210449219,20.730066299438477,-2.916771650314331,-0.0,-0.0,-1.0,0.14074272218684855,1.0
58.576087951660156,20.775501251220703,-2.7456815242767334,-0.30401398613046887,0.6845314514476417,-0.662564855856427,0.15160663523609905,3.0
59.452457427978516,22.361366271972656,-3.0476090908050537,-0.0,-0.0,-1.0,0.18337793121785773,2.0
59.46941375732422,22.13694190979004,-3.116334915161133,-0.0,-0.0,-1.0,0.14152308731416594,1.0
57.823219299316406,22.93424415588379,-3.031810760498047,-0.0,-0.0,-1.0,0.09993566908895926,1.0
58.259437561035156,22.92240333557129,-3.074378490447998,-0.0,-0.0,-1.0,0.13503213184850568,2.0
59.59823989868164,22.838653564453125,-3.2006454467773438,-0.0,-0.0,-1.0,0.06023542827027763,1.0
59.407020568847656,22.987640380859375,-3.1965980529785156,-0.0,-0.0,-1.0,0.027734284481954672,1.0
58.40456008911133,20.732210159301758,-2.9149599075317383,-0.0,-0.0,-1.0,0.1788154219457307,1.0
59.501705169677734,22.030981063842773,-3.1750917434692383,-0.0,-0.0,-1.0,0.13520628676697563,1.0
59.571876525878906,22.49738311767578,-3.236924171447754,-0.0,-0.0,-1.0,0.09767958740639036,1.0
59.88717269897461,22.632844924926758,-3.283778667449951,-0.0,-0.0,-1.0,0.11593946268993396,1.0
58.55176544189453,22.715322494506836,-3.1628222465515137,-0.0,-0.0,-1.0,0.1576596982852025,1.0
58.02959442138672,22.903276443481445,-3.134108543395996,-0.0,-0.0,-1.0,0.09014298444105835,1.0
60.155181884765625,22.962255477905273,-3.0959677696228027,-0.0,-0.0,-1.0,0.0896183761572784,1.0
59.60847854614258,22.10675621032715,-2.9674158096313477,0.9800847583851958,0.12959725414582465,0.15046068622366074,0.07013630141271626,4.0
58.469993591308594,20.75454330444336,-2.7337727546691895,-0.0,-0.0,-1.0,0.13033738490697622,2.0
58.32132339477539,23.041133880615234,-2.8905014991760254,-0.0,-0.0,-1.0,0.1482777145411045,1.0
58.506629943847656,20.754077911376953,-2.7944679260253906,-0.0,-0.0,-1.0,0.10531006903670392,2.0
58.51996612548828,20.918136596679688,-2.795940399169922,-0.5399513898919319,-0.542669117086801,-0.6433993518134773,0.25366552541244347,3.0
58.52322769165039,20.776750564575195,-2.8238353729248047,-0.907155849028353,0.1599646350426101,-0.3892037783852215,0.14205304613320743,3.0
59.44277572631836,20.647581100463867,-2.7633352279663086,-0.0,-0.0,-1.0,0.07848045092558048,1.0
58.603759765625,21.04462432861328,-2.678116798400879,-0.0,-0.0,-1.0,0.12449842970919983,1.0
59.82063674926758,22.611801147460938,-2.8702263832092285,-0.0,-0.0,-1.0,0.09151843875021094,1.0
58.48357009887695,20.946304321289062,-2.789154052734375,-0.0,-0.0,-1.0,0.20293535567848855,2.0
59.4809684753418,20.861570358276367,-2.895209312438965,-0.0,-0.0,-1.0,0.05481402839021963,1.0
59.24446487426758,21.268463134765625,-2.860555648803711,-0.0,-0.0,-1.0,0.21099033882890234,1.0
59.5260124206543,22.443588256835938,-2.862766742706299,-0.0,-0.0,-1.0,0.11984206512768956,2.0
59.718868255615234,22.576169967651367,-2.8800878524780273,-0.0,-0.0,-1.0,0.11180111988468847,1.0
58.38946533203125,20.929664611816406,-2.7750818729400635,-0.0,-0.0,-1.0,0.15505742427387056,1.0
59.55060577392578,22.36917495727539,-2.919393301010132,-0.0,-0.0,-1.0,0.1327582387464942,1.0
59.65509033203125,22.511035919189453,-2.9327456951141357,-0.0,-0.0,-1.0,0.12692943001547902,1.0
58.63014221191406,20.745574951171875,-2.698413610458374,-0.0,-0.0,-1.0,0.11704460832910803,1.0
59.54261016845703,22.266674041748047,-2.8942840099334717,-0.0,-0.0,-1.0,0.10605803577996856,2.0
59.51731872558594,22.41183090209961,-2.899545431137085,-0.0,-0.0,-1.0,0.15255527297896693,2.0
58.545440673828125,20.7777042388916,-2.7293431758880615,-0.16407151340024212,0.8889420968089351,-0.42762423576252984,0.15813502360699358,3.0
59.6102294921875,22.085355758666992,-2.9388763904571533,0.9800847583851958,0.12959725414582465,0.15046068622366074,0.07543851886589394,4.0
59.552734375,22.298969268798828,-2.945063352584839,-0.0,-0.0,-1.0,0.11363517203399008,2.0
58.957489013671875,20.750532150268555,-2.92429780960083,-0.0,-0.0,-1.0,0.10010343536196953,1.0
58.94654846191406,21.23336410522461,-2.9653730392456055,-0.0,-0.0,-1.0,0.04996849887340315,1.0
58.768409729003906,21.484359741210938,-2.9646077156066895,-0.0,-0.0,-1.0,0.01833963305708301,1.0
58.974159240722656,21.713224411010742,-3.0116782188415527,-0.0,-0.0,-1.0,0.014985482516197818,1.0
57.740013122558594,22.418142318725586,-2.916135311126709,-0.0,-0.0,-1.0,0.04560983183286208,1.0
58.49537658691406,22.25634765625,-2.9988551139831543,-0.0,-0.0,-1.0,0.04854312927980967,1.0
58.83196258544922,22.03336524963379,-3.0221195220947266,-0.0,-0.0,-1.0,0.01950619448357079,1.0
58.57562255859375,22.409725189208984,-3.0231947898864746,-0.0,-0.0,-1.0,0.06855065195754208,1.0
58.59544372558594,20.69686508178711,-2.866946220397949,-0.00810736262087734,-0.6071012190874204,-0.7945831488610249,0.13039521229183554,4.0
59.01423263549805,21.0703067779541,-2.955684185028076,-0.0,-0.0,-1.0,0.08528223269978301,1.0
59.40168762207031,21.344573974609375,-3.032442569732666,-0.0,-0.0,-1.0,0.11495725983523877,1.0
59.60072326660156,21.540769577026367,-3.0763673782348633,-0.0,-0.0,-1.0,0.06255574334177434,2.0
59.460693359375,21.84591293334961,-3.081204891204834,-0.0,-0.0,-1.0,0.14941895183114504,2.0
59.64039611816406,21.65736198425293,-3.091373920440674,-0.0,-0.0,-1.0,0.06475258821812434,2.0
59.27454376220703,22.245054244995117,-3.087726593017578,-0.0,-0.0,-1.0,0.10855550152165899,1.0
58.400978088378906,22.826902389526367,-3.013728618621826,-0.0,-0.0,-1.0,0.16875746476749554,2.0
59.12222671508789,22.70818328857422,-3.1051788330078125,-0.0,-0.0,-1.0,0.05393517190292261,2.0
59.35487365722656,22.535430908203125,-3.123373508453369,-0.0,-0.0,-1.0,0.13817750798337422,1.0
59.609588623046875,22.351085662841797,-2.8887767791748047,-0.0,-0.0,-1.0,0.08481359241998655,1.0
59.70948028564453,22.369871139526367,-2.903386116027832,-0.0,-0.0,-1.0,0.13390710848052348,2.0
58.05540466308594,22.965377807617188,-2.740960121154785,-0.0,-0.0,-1.0,0.11740399696616446,1.0
58.69701385498047,22.769479751586914,-2.5788400173187256,-0.0,-0.0,-1.0,0.16654446774956516,1.0
58.62041473388672,20.713958740234375,-2.8707494735717773,-0.6256306299877921,0.779727625759854,-0.024721335885823186,0.14565195657320087,4.0
59.13108825683594,21.120471954345703,-2.98673152923584,-0.0,-0.0,-1.0,0.07352351710973626,1.0
59.443603515625,21.450214385986328,-3.0651297569274902,-0.0,-0.0,-1.0,0.058721679654408936,1.0
59.294403076171875,21.968021392822266,-3.088503360748291,-0.0,-0.0,-1.0,0.15088441313392403,2.0
59.45394515991211,21.773427963256836,-3.095820903778076,-0.0,-0.0,-1.0,0.10262565522953555,1.0
59.18528747558594,22.26097869873047,-3.0985116958618164,-0.0,-0.0,-1.0,0.13163754083912718,2.0
58.865570068359375,22.730730056762695,-3.09291934967041,-0.0,-0.0,-1.0,0.12004412263675661,1.0
59.07228088378906,22.553752899169922,-3.108327865600586,-0.0,-0.0,-1.0,0.038054224206790395,1.0
58.26203536987305,22.88744354248047,-3.0140957832336426,-0.0,-0.0,-1.0,0.10176014984553883,1.0
58.572303771972656,20.697568893432617,-2.9555130004882812,-0.0,-0.0,-1.0,0.1748887986486162,1.0
58.400821685791016,21.26935577392578,-2.9786806106567383,-0.0,-0.0,-1.0,0.08470020136020863,1.0
58.50598907470703,21.084558486938477,-2.979349136352539,-0.0,-0.0,-1.0,0.1460267284058006,1.0
58.21501922607422,21.437658309936523,-2.96323299407959,-0.0,-0.0,-1.0,0.0322097951575118,1.0
57.80112075805664,21.924671173095703,-2.9403953552246094,-0.0,-0.0,-1.0,0.02478493056199641,1.0
58.93760299682617,20.959932327270508,-2.960636615753174,-0.0,-0.0,-1.0,0.05906654709832505,1.0
58.73468780517578,21.80780601501465,-3.017831325531006,-0.0,-0.0,-1.0,0.012971155221853208,1.0
58.68904113769531,20.674697875976562,-2.8882765769958496,-0.0,-0.0,-1.0,0.20154849356091015,1.0
58.696502685546875,21.090274810791016,-2.9332451820373535,-0.0,-0.0,-1.0,0.07319850977709123,1.0
58.709983825683594,21.477325439453125,-2.977262020111084,-0.0,-0.0,-1.0,0.030352427451644227,1.0
57.90691375732422,22.07992935180664,-2.908463954925537,-0.0,-0.0,-1.0,0.030013846693297326,1.0
58.347434997558594,21.98180389404297,-2.9717726707458496,-0.0,-0.0,-1.0,0.0211414475554906,1.0
58.658782958984375,21.79090118408203,-3.0030903816223145,-0.0,-0.0,-1.0,0.007848920421452221,1.0
57.815696716308594,22.134395599365234,-2.899324893951416,-0.0,-0.0,-1.0,0.03209391068980337,1.0
59.724327087402344,22.348237991333008,-2.8699629306793213,-0.5499346365185156,-0.32999920329018934,-0.7672499080385011,0.07335102357790782,4.0
58.71528625488281,22.779098510742188,-2.755192995071411,-0.0,-0.0,-1.0,0.16387648930186266,1.0
58.69586181640625,20.795345306396484,-2.7971203327178955,-0.0,-0.0,-1.0,0.2030827195779572,1.0
59.23188781738281,21.157026290893555,-2.9325978755950928,-0.0,-0.0,-1.0,0.17930322513294208,1.0
59.624168395996094,21.556339263916016,-3.045968770980835,-0.0,-0.0,-1.0,0.05967630673293055,2.0
59.313079833984375,22.09624481201172,-3.0459682941436768,-0.0,-0.0,-1.0,0.14759353634394556,1.0
59.48662567138672,21.872329711914062,-3.0537965297698975,-0.0,-0.0,-1.0,0.1302799983160355,2.0
59.32257843017578,22.368268966674805,-3.077380418777466,-0.0,-0.0,-1.0,0.1534350574092937,1.0
58.348876953125,22.93923568725586,-2.9650981426239014,-0.0,-0.0,-1.0,0.10423882061422464,1.0
58.75660705566406,22.806306838989258,-3.02351450920105,-0.0,-0.0,-1.0,0.20460983616044096,1.0
59.126976013183594,22.695514678955078,-3.078169584274292,-0.0,-0.0,-1.0,0.048623871135419015,2.0
57.915565490722656,23.103172302246094,-2.9063007831573486,-0.0,-0.0,-1.0,0.09477888175656254,2.0
58.24678039550781,23.018753051757812,-2.9559333324432373,-0.0,-0.0,-1.0,0.11036201855158206,1.0
59.371463775634766,21.276554107666016,-2.9848997592926025,-0.0,-0.0,-1.0,0.1645811856545212,1.0
59.45207214355469,21.517608642578125,-3.027003526687622,-0.0,-0.0,-1.0,0.0549092258394895,1.0
59.22808837890625,21.9663028717041,-3.0346453189849854,-0.0,-0.0,-1.0,0.1457454968702533,1.0
59.39227294921875,21.82933807373047,-3.05047345161438,-0.0,-0.0,-1.0,0.11677618851645497,1.0
59.12798309326172,22.268054962158203,-3.050575017929077,-0.0,-0.0,-1.0,0.1044934355978541,1.0
59.020294189453125,22.525497436523438,-3.0604660511016846,-0.0,-0.0,-1.0,0.0380542242067904,1.0
58.678340911865234,20.748218536376953,-2.7940752506256104,-0.0,-0.0,-1.0,0.18909995504828253,2.0
59.15624237060547,21.112838745117188,-2.9255831241607666,-0.0,-0.0,-1.0,0.09621622618256358,1.0
58.40116882324219,22.83127212524414,-2.980412721633911,-0.0,-0.0,-1.0,0.16867194334189253,2.0
58.77960968017578,22.706069946289062,-3.036569833755493,-0.0,-0.0,-1.0,0.1680161452374177,1.0
58.915000915527344,22.600143432617188,-3.049421548843384,-0.0,-0.0,-1.0,0.12213520840038014,1.0
57.93022918701172,22.982547760009766,-2.910585641860962,-0.0,-0.0,-1.0,0.11405232458577044,1.0
58.26776123046875,22.962669372558594,-2.9714930057525635,-0.0,-0.0,-1.0,0.1324637840894169,1.0
59.8474235534668,23.06648826599121,-3.1015515327453613,-0.0,-0.0,-1.0,0.027950918677264295,1.0
59.345733642578125,21.326711654663086,-2.8081178665161133,-0.0,-0.0,-1.0,0.2002171904000744,1.0
59.50775146484375,21.023231506347656,-2.80775785446167,-0.0,-0.0,-1.0,0.09753905367158199,1.0
59.696746826171875,22.094100952148438,-2.960392475128174,-0.0,-0.0,-1.0,0.060325669988767705,1.0
60.013648986816406,22.085432052612305,-3.020841121673584,-0.0,-0.0,-1.0,0.09876351455387863,1.0
59.64912414550781,22.37444496154785,-2.982900619506836,-0.0,-0.0,-1.0,0.14531560936427393,2.0
58.707435607910156,22.79049301147461,-2.8506360054016113,-0.0,-0.0,-1.0,0.1723648590651632,1.0
58.98537826538086,22.965578079223633,-2.9247097969055176,-0.0,-0.0,-1.0,0.06984261510332877,1.0
59.7911376953125,22.86319351196289,-3.0668039321899414,-0.0,-0.0,-1.0,0.0805944395027278,2.0
59.96002197265625,22.657997131347656,-3.0753626823425293,-0.0,-0.0,-1.0,0.17121522013838894,1.0
58.48261260986328,23.13718605041504,-2.8498611450195312,-0.0,-0.0,-1.0,0.16764490846007402,1.0
59.76884460449219,23.109020233154297,-3.0915703773498535,-0.0,-0.0,-1.0,0.019292554671094857,1.0
59.340755462646484,20.637605667114258,-2.750568389892578,-0.0,-0.0,-1.0,0.07593202219937767,1.0
59.40034103393555,21.24378204345703,-2.8265881538391113,-0.0,-0.0,-1.0,0.20021719040007435,1.0
59.60348129272461,22.161251068115234,-2.970083713531494,0.8865442722545194,0.14031055257512895,-0.44085394652738036,0.07569994439517175,3.0
59.919647216796875,21.978981018066406,-3.014181613922119,-0.0,-0.0,-1.0,0.06816990455279401,1.0
60.12425994873047,21.869842529296875,-3.044006824493408,-0.0,-0.0,-1.0,0.13277690330774064,1.0
59.61089324951172,22.36067771911621,-2.994507312774658,-0.0,-0.0,-1.0,0.13695724197982814,2.0
59.75313186645508,22.51731300354004,-3.041665554046631,-0.0,-0.0,-1.0,0.10112679932884801,1.0
58.501502990722656,23.076309204101562,-2.8560619354248047,-0.0,-0.0,-1.0,0.2113679165248655,1.0
58.67597198486328,22.944034576416016,-2.8748130798339844,-0.0,-0.0,-1.0,0.1889314799030995,1.0
59.608482360839844,22.962188720703125,-3.0650134086608887,-0.0,-0.0,-1.0,0.02323073611093105,1.0
59.796051025390625,22.781190872192383,-3.081413745880127,-0.0,-0.0,-1.0,0.11650367588592657,1.0
59.468238830566406,23.120460510253906,-3.055868625640869,-0.0,-0.0,-1.0,0.020672852281690714,1.0
59.78168487548828,22.144126892089844,-2.914217710494995,-0.0,-0.0,-1.0,0.08687753076777002,1.0
59.65480041503906,22.36408233642578,-2.913463830947876,-0.0,-0.0,-1.0,0.08738846515808943,1.0
59.88922882080078,22.851228713989258,-3.0211260318756104,-0.0,-0.0,-1.0,0.09593776246353408,1.0
60.05924987792969,22.80093002319336,-3.0505383014678955,-0.0,-0.0,-1.0,0.09070855013920287,1.0
59.88732147216797,23.136449813842773,-3.0557925701141357,-0.0,-0.0,-1.0,0.0409408792686909,1.0
59.322601318359375,21.31073760986328,-2.722219705581665,-0.0,-0.0,-1.0,0.20798594392142694,1.0
58.612667083740234,22.786760330200195,-2.7480971813201904,-0.0,-0.0,-1.0,0.17741062862259566,1.0
58.603816986083984,20.738746643066406,-2.783771514892578,-0.0,-0.0,-1.0,0.1327801929740404,1.0
58.54767608642578,20.880462646484375,-2.787419319152832,-0.1030232726997406,-0.2909146282351133,-0.9511860408779452,0.22980874344689298,3.0
58.99604415893555,20.858238220214844,-2.8952693939208984,-0.0,-0.0,-1.0,0.10020830276314814,1.0
59.27777099609375,20.82952308654785,-2.9613828659057617,-0.0,-0.0,-1.0,0.05408378230842321,1.0
59.07963562011719,21.166635513305664,-2.9540929794311523,0.8215867991405685,-0.0294770907043295,-0.5693208520698713,0.08894080391207759,3.0
59.23469543457031,21.394359588623047,-3.021042823791504,-0.0,-0.0,-1.0,0.15055692527249948,1.0
59.12019729614258,21.918781280517578,-3.0615978240966797,-0.0,-0.0,-1.0,0.0970198163905295,1.0
59.21493911743164,21.70842933654785,-3.056868553161621,-0.0,-0.0,-1.0,0.0717936294889313,1.0
58.971588134765625,22.159543991088867,-3.058267593383789,-0.0,-0.0,-1.0,0.05352679383559255,1.0
58.672515869140625,22.699438095092773,-3.0621681213378906,-0.0,-0.0,-1.0,0.13664537213719993,1.0
58.86608123779297,22.494110107421875,-3.079284191131592,-0.0,-0.0,-1.0,0.04964401359083614,1.0
57.81782913208008,23.050350189208984,-2.9114980697631836,-0.0,-0.0,-1.0,0.10820074016043617,2.0
58.201637268066406,22.93606948852539,-2.984910011291504,-0.0,-0.0,-1.0,0.12629509552185508,1.0
58.43801498413086,22.775983810424805,-3.017343044281006,-0.0,-0.0,-1.0,0.15412637725724596,1.0
59.7698860168457,22.08943748474121,-2.6288318634033203,-0.0,-0.0,-1.0,0.12863320587833132,1.0
58.55110168457031,20.77658462524414,-2.8844733238220215,-0.0,-0.0,-1.0,0.1951812206207284,2.0
58.76707077026367,21.06279182434082,-2.98294734954834,-0.0,-0.0,-1.0,0.055114466443035845,1.0
58.588768005371094,21.506298065185547,-2.998035430908203,-0.0,-0.0,-1.0,0.019491094002895663,1.0
58.69209289550781,21.35688018798828,-3.0042505264282227,-0.0,-0.0,-1.0,0.02597721319357581,1.0
58.50859832763672,21.85141372680664,-3.0281991958618164,-0.0,-0.0,-1.0,0.01400303608500253,1.0
58.636112213134766,21.60262680053711,-3.024970054626465,-0.0,-0.0,-1.0,0.005799492701166998,1.0
57.717254638671875,22.36524200439453,-2.899785041809082,-0.0,-0.0,-1.0,0.043567746609756,1.0
58.16504669189453,22.396530151367188,-3.0223898887634277,-0.0,-0.0,-1.0,0.05131422560842308,1.0
58.3207893371582,22.217174530029297,-3.0349349975585938,-0.0,-0.0,-1.0,0.052003584919915254,1.0
58.11357879638672,22.42756462097168,-3.0138816833496094,-0.0,-0.0,-1.0,0.05067067491832993,1.0
60.160789489746094,23.077098846435547,-3.0435380935668945,-0.0,-0.0,-1.0,0.08841266258518257,2.0
57.964969635009766,21.442550659179688,-2.8207931518554688,-0.0,-0.0,-1.0,0.026975329593212784,1.0
59.751258850097656,22.238855361938477,-2.8323893547058105,-0.0,-0.0,-1.0,0.04754509314483496,1.0
60.14155578613281,22.350276947021484,-2.938473701477051,-0.0,-0.0,-1.0,0.07356088181634597,1.0
58.632102966308594,22.750904083251953,-2.6456551551818848,-0.0,-0.0,-1.0,0.17741062862259566,2.0
59.72875213623047,22.482702255249023,-2.860346794128418,-0.0,-0.0,-1.0,0.16948687756917502,1.0
58.47771453857422,20.84334945678711,-2.977147102355957,-0.0,-0.0,-1.0,0.15054170619530363,1.0
58.5203857421875,20.642614364624023,-2.958451747894287,-0.0,-0.0,-1.0,0.1324625299215099,1.0
59.848575592041016,20.664793014526367,-2.825207233428955,-0.0,-0.0,-1.0,0.06761729068577381,1.0
58.34849166870117,21.084529876708984,-2.977773666381836,-0.0,-0.0,-1.0,0.17091813754929477,1.0
58.00816345214844,21.550617218017578,-2.9564294815063477,-0.0,-0.0,-1.0,0.022841338402611315,1.0
58.18829345703125,21.336505889892578,-2.972292900085449,-0.0,-0.0,-1.0,0.04833700378717043,1.0
59.22712326049805,21.32312774658203,-2.75313663482666,-0.0,-0.0,-1.0,0.21546124395000535,1.0
57.82769775390625,21.787437438964844,-2.945878028869629,-0.0,-0.0,-1.0,0.021117404790040106,1.0
60.01019287109375,21.939308166503906,-3.0513319969177246,-0.0,-0.0,-1.0,0.09894506393633264,1.0
59.61846923828125,22.21070098876953,-2.991487503051758,-0.0,-0.0,-1.0,0.11131927833669256,1.0
59.802345275878906,22.04594612121582,-3.013363838195801,-0.0,-0.0,-1.0,0.0813605466672325,2.0
59.6964225769043,22.679027557373047,-3.086972236633301,-0.0,-0.0,-1.0,0.15287614449905365,1.0
58.72822189331055,23.11866569519043,-2.916071891784668,-0.0,-0.0,-1.0,0.17816748956392,1.0
59.47731018066406,22.97382926940918,-3.0800814628601074,-0.0,-0.0,-1.0,0.02345572695610256,1.0
59.8504753112793,22.01727294921875,-2.761469841003418,-0.0,-0.0,-1.0,0.27926038267421077,1.0
58.750389099121094,22.750282287597656,-2.5713953971862793,-0.0,-0.0,-1.0,0.1665444677495652,1.0
59.76894760131836,22.02099609375,-2.6458969116210938,-0.0,-0.0,-1.0,0.17522353678352073,2.0
59.807106018066406,21.9785099029541,-2.654193878173828,-0.0,-0.0,-1.0,0.17678523053534578,1.0
60.10826110839844,22.85300064086914,-2.8775691986083984,-0.0,-0.0,-1.0,0.07198018992794092,1.0
58.543312072753906,22.90920639038086,-2.6828773021698,-0.0,-0.0,-1.0,0.1164301836555327,1.0
59.057899475097656,22.906444549560547,-3.0736427307128906,-0.0,-0.0,-1.0,0.041474011984103644,1.0
58.607643127441406,22.919017791748047,-2.9961066246032715,-0.0,-0.0,-1.0,0.21869554976643157,2.0
58.29487991333008,23.0036563873291,-2.960371971130371,-0.0,-0.0,-1.0,0.0882945231799066,1.0
57.90375900268555,23.082962036132812,-2.9118194580078125,-0.0,-0.0,-1.0,0.0947788817565625,2.0
59.428829193115234,22.63486099243164,-3.084223747253418,-0.0,-0.0,-1.0,0.12498883958677016,1.0
59.22704315185547,22.771808624267578,-3.075697422027588,-0.0,-0.0,-1.0,0.053271060285658964,1.0
60.06215286254883,21.929996490478516,-3.0625057220458984,-0.0,-0.0,-1.0,0.09425632404229767,1.0
59.81057357788086,22.013572692871094,-3.02986478805542,0.7032715635053708,0.45652500624313325,-0.5449715833320288,0.07675761384136404,3.0
59.490108489990234,22.17093276977539,-2.99990177154541,-0.0,-0.0,-1.0,0.1186263626931015,1.0
58.334693908691406,22.32281494140625,-2.8183040618896484,-0.0,-0.0,-1.0,0.08152455353259966,1.0
59.18098449707031,21.3773193359375,-2.7796130180358887,-0.0,-0.0,-1.0,0.17995328572456887,1.0
60.11452102661133,22.446151733398438,-3.314382314682007,-0.0,-0.0,-1.0,0.11852279850187634,1.0
60.04228210449219,22.268306732177734,-3.275392770767212,-0.0,-0.0,-1.0,0.07069766050068771,1.0
59.55647277832031,22.305397033691406,-3.13775372505188,-0.0,-0.0,-1.0,0.1356920899100186,1.0
58.45988464355469,22.72301483154297,-2.8738973140716553,-0.0,-0.0,-1.0,0.17187919563824716,1.0
59.20696258544922,22.45225715637207,-3.246835231781006,-0.0,-0.0,-1.0,0.07746287425657357,1.0
59.1059684753418,22.662246704101562,-3.243577003479004,-0.0,-0.0,-1.0,0.03421689889437463,1.0
58.78599548339844,22.874475479125977,-3.1853394508361816,-0.0,-0.0,-1.0,0.09529596954943467,1.0
59.37300109863281,21.839454650878906,-3.2252650260925293,-0.0,-0.0,-1.0,0.15115110678041405,1.0
59.2475700378418,22.118385314941406,-3.2218594551086426,-0.0,-0.0,-1.0,0.11613612004886424,1.0
59.43212890625,21.742874145507812,-3.230950355529785,-0.0,-0.0,-1.0,0.09712425891293103,1.0
58.57793426513672,22.903064727783203,-3.1356892585754395,-0.0,-0.0,-1.0,0.12893263789776946,1.0
58.269622802734375,22.961772918701172,-3.0649046897888184,-0.0,-0.0,-1.0,0.12155546031625057,2.0
59.23936462402344,21.98739242553711,-3.205665111541748,-0.0,-0.0,-1.0,0.1443113553666612,1.0
59.439064025878906,21.64621925354004,-3.222930431365967,-0.0,-0.0,-1.0,0.07127916455789217,1.0
58.217830657958984,22.267005920410156,-2.970287799835205,-0.0,-0.0,-1.0,0.04102216579364342,1.0
59.151710510253906,20.811519622802734,-3.0644688606262207,-0.0,-0.0,-1.0,0.060115268868184885,1.0
58.638919830322266,20.7653751373291,-2.9220738410949707,-0.0,-0.0,-1.0,0.2543785804422635,1.0
58.39427947998047,20.83586311340332,-2.8635506629943848,-0.0,-0.0,-1.0,0.24781867598240148,2.0
59.246192932128906,23.121723175048828,-3.111997604370117,-0.0,-0.0,-1.0,0.03627803282494349,1.0
59.4975700378418,22.77853012084961,-3.1213889122009277,-0.0,-0.0,-1.0,0.050612813029131745,1.0
59.19823455810547,23.06770133972168,-3.0962815284729004,-0.0,-0.0,-1.0,0.035412091685121334,1.0
58.61454391479492,22.980770111083984,-2.9722161293029785,-0.0,-0.0,-1.0,0.23576884019915395,1.0
58.30364227294922,23.11892318725586,-2.9294848442077637,-0.0,-0.0,-1.0,0.11753075377294729,1.0
59.4571533203125,22.368074417114258,-3.067176342010498,-0.0,-0.0,-1.0,0.18266429185432356,2.0
58.57585144042969,22.808349609375,-2.9438300132751465,-0.0,-0.0,-1.0,0.21659631920839623,2.0
59.58890914916992,21.955745697021484,-3.049393653869629,-0.0,-0.0,-1.0,0.10163515893729347,2.0
59.43330383300781,22.096464157104492,-3.0328269004821777,-0.0,-0.0,-1.0,0.09894803566107897,1.0
58.262821197509766,22.26449203491211,-2.8182315826416016,-0.0,-0.0,-1.0,0.04502749937947663,2.0
57.78453063964844,22.560699462890625,-2.7603116035461426,-0.0,-0.0,-1.0,0.05267282241374228,1.0
58.432228088378906,22.511219024658203,-3.0717854499816895,-0.0,-0.0,-1.0,0.08524606516505097,1.0
58.27830505371094,22.575756072998047,-3.047515392303467,-0.0,-0.0,-1.0,0.08739917550531355,1.0
57.77483367919922,22.782108306884766,-2.9691267013549805,-0.0,-0.0,-1.0,0.06975076367092975,1.0
58.46672058105469,22.305984497070312,-3.0574793815612793,-0.0,-0.0,-1.0,0.06177566976797156,1.0
58.143287658691406,22.57854461669922,-3.020571231842041,-0.0,-0.0,-1.0,0.07365314944542983,1.0
58.467811584472656,22.673866271972656,-2.8967278003692627,-0.0,-0.0,-1.0,0.18103950099134225,1.0
59.61482238769531,21.815448760986328,-2.9315340518951416,-0.0,-0.0,-1.0,0.047210834550505426,1.0
59.64744567871094,22.043867111206055,-2.9514782428741455,-0.0,-0.0,-1.0,0.06340987368820342,1.0
60.20555877685547,22.663013458251953,-3.0465805530548096,-0.0,-0.0,-1.0,0.122897418914451,1.0
60.137611389160156,23.088924407958984,-3.0729448795318604,-0.0,-0.0,-1.0,0.0667380036317444,2.0
58.55469512939453,22.340805053710938,-2.8972818851470947,-0.0,-0.0,-1.0,0.1191683725757059,1.0
57.76184844970703,21.728973388671875,-2.7653186321258545,-0.0,-0.0,-1.0,0.02311126783672285,1.0
58.230194091796875,22.71951675415039,-2.917444944381714,-0.0,-0.0,-1.0,0.10053468851952316,1.0
58.64725112915039,22.857078552246094,-2.5971131324768066,-0.0,-0.0,-1.0,0.24209064107684544,2.0
58.43597412109375,20.909297943115234,-2.664902687072754,-0.0,-0.0,-1.0,0.18679664606325747,1.0
59.61418914794922,22.30224609375,-2.9055466651916504,-0.0,-0.0,-1.0,0.09018534426171115,1.0
59.563194274902344,22.484085083007812,-2.9191551208496094,-0.0,-0.0,-1.0,0.07816374678165362,1.0
58.390296936035156,23.097061157226562,-2.878699779510498,-0.0,-0.0,-1.0,0.13693851547866448,2.0
59.04143524169922,20.70488739013672,-2.890939712524414,-0.0005240908254142266,0.969405269176453,-0.2454651694675544,0.0916138990966981,3.0
59.19761657714844,21.24905776977539,-2.9879446029663086,-0.0,-0.0,-1.0,0.15748639550302326,1.0
59.48241424560547,21.907150268554688,-3.114354133605957,-0.0,-0.0,-1.0,0.13855160367189429,1.0
59.85429382324219,21.728734970092773,-3.113557815551758,-0.0,-0.0,-1.0,0.03201725760934062,1.0
59.058998107910156,22.191757202148438,-3.1293697357177734,-0.0,-0.0,-1.0,0.06449683909471371,1.0
59.28465270996094,22.027557373046875,-3.1191654205322266,-0.0,-0.0,-1.0,0.15437351179440226,1.0
58.53961944580078,20.773672103881836,-2.8633065223693848,-0.800438405117713,0.47218901895534615,-0.36923690226005207,0.13896955439806538,3.0
58.72853088378906,20.718704223632812,-2.869137763977051,-0.0,-0.0,-1.0,0.21672313271648677,1.0
58.713104248046875,20.81496810913086,-2.9247677326202393,-0.0,-0.0,-1.0,0.1975680170218588,1.0
58.96440887451172,20.90520477294922,-2.9590208530426025,-0.0,-0.0,-1.0,0.06333076762340407,1.0
59.054447174072266,21.183067321777344,-2.99129319190979,-0.0,-0.0,-1.0,0.06375289123950909,2.0
59.36177062988281,21.420196533203125,-3.0435802936553955,-0.0,-0.0,-1.0,0.12017014875068965,1.0
59.52290725708008,21.605342864990234,-3.0760104656219482,-0.0,-0.0,-1.0,0.07632948329921131,1.0
59.358795166015625,21.97698974609375,-3.089282751083374,-0.0,-0.0,-1.0,0.17486145541339,1.0
59.53694152832031,21.79314613342285,-3.093005895614624,-0.0,-0.0,-1.0,0.11410788329407658,2.0
59.196929931640625,22.29871940612793,-3.099015951156616,-0.0,-0.0,-1.0,0.0877192843947328,2.0
58.93193817138672,22.69715690612793,-3.104719877243042,-0.0,-0.0,-1.0,0.10357418945294596,1.0
59.25370788574219,22.57563018798828,-3.128415822982788,-0.0,-0.0,-1.0,0.088450638392484,1.0
59.11518478393555,21.27228355407715,-2.923424243927002,-0.0,-0.0,-1.0,0.13750958108769207,1.0
59.79906463623047,21.72175407409668,-3.031546115875244,-0.0,-0.0,-1.0,0.03339514361848407,1.0
59.44336700439453,22.01482391357422,-3.012570858001709,-0.0,-0.0,-1.0,0.12478143799029184,2.0
59.70962142944336,21.875587463378906,-3.0323915481567383,-0.0,-0.0,-1.0,0.056941405639750566,1.0
59.436973571777344,22.442800521850586,-3.0425925254821777,-0.0,-0.0,-1.0,0.2197499011328628,1.0
58.16636276245117,23.071569442749023,-2.9484286308288574,-0.0,-0.0,-1.0,0.08376945704334955,1.0
58.57698059082031,22.886245727539062,-2.9798336029052734,-0.0,-0.0,-1.0,0.21339376316064465,2.0
59.28743362426758,23.07494354248047,-3.0722336769104004,-0.0,-0.0,-1.0,0.038126004004006765,1.0
59.48192596435547,22.843868255615234,-3.0767769813537598,-0.0,-0.0,-1.0,0.03546289465244953,1.0
58.63603973388672,20.72918701171875,-2.8319106101989746,-0.23568487909842228,0.933250948835238,-0.27110017385182555,0.13326129538530096,3.0
58.840675354003906,20.923398971557617,-2.8683390617370605,-0.0,-0.0,-1.0,0.061528559467738685,1.0
57.86184310913086,23.054616928100586,-2.9136900901794434,-0.0,-0.0,-1.0,0.10820074016043618,2.0
58.59617614746094,22.843143463134766,-2.658365249633789,-0.0,-0.0,-1.0,0.18560900049873919,2.0
58.624656677246094,22.85257339477539,-2.69922137260437,-0.0,-0.0,-1.0,0.18187929711795295,1.0
58.432743072509766,20.85926055908203,-2.7305908203125,-0.0,-0.0,-1.0,0.1645764315920496,1.0
58.60478973388672,20.786895751953125,-2.7470788955688477,-0.0,-0.0,-1.0,0.16971768754037983,2.0
59.0333366394043,20.676002502441406,-2.7939791679382324,-0.0,-0.0,-1.0,0.084649981770245,1.0
59.755043029785156,22.022891998291016,-2.9960975646972656,-0.0,-0.0,-1.0,0.11901578375822727,1.0
57.72257614135742,22.575572967529297,-2.7850050926208496,-0.0,-0.0,-1.0,0.05267282241374229,1.0
59.50294494628906,22.280609130859375,-2.9852166175842285,-0.0,-0.0,-1.0,0.1779247304142767,1.0
58.57463836669922,22.834693908691406,-2.9148879051208496,-0.0,-0.0,-1.0,0.26673486559040016,2.0
59.75615692138672,22.69252586364746,-3.0522851943969727,-0.0,-0.0,-1.0,0.13993863070552057,1.0
58.157928466796875,23.09287452697754,-2.8854293823242188,-0.0,-0.0,-1.0,0.09118247250575161,1.0
58.71781921386719,23.02434539794922,-2.9495339393615723,-0.0,-0.0,-1.0,0.1949091357447825,1.0
59.52469253540039,23.075288772583008,-3.0557303428649902,-0.0,-0.0,-1.0,0.02308532504916176,1.0
59.714027404785156,22.896434783935547,-3.064293384552002,-0.0,-0.0,-1.0,0.02410053405108289,1.0
59.712425231933594,22.311912536621094,-2.8836867809295654,-0.3808547440527608,0.4333693293991339,-0.8167868071098181,0.060242405584703486,3.0
58.58010482788086,22.813323974609375,-2.795053243637085,-0.0,-0.0,-1.0,0.1600595036513729,1.0
59.68073272705078,22.457603454589844,-2.893787145614624,-0.0,-0.0,-1.0,0.12147561479293242,2.0
59.97666931152344,21.636981964111328,-3.020461082458496,-0.0,-0.0,-1.0,0.025626438183988683,1.0
59.51712417602539,22.062837600708008,-2.9847583770751953,-0.0,-0.0,-1.0,0.10996039042400346,1.0
59.67505645751953,21.94297218322754,-2.9988255500793457,-0.0,-0.0,-1.0,0.07536580966368375,1.0
59.90483093261719,21.755653381347656,-3.018493175506592,-0.0,-0.0,-1.0,0.06334179882613894,2.0
57.99000549316406,23.10458755493164,-2.8503289222717285,-0.0,-0.0,-1.0,0.09456946798933541,1.0
58.206886291503906,22.978914260864258,-2.870163917541504,-0.0,-0.0,-1.0,0.15630454588643528,1.0
58.723533630371094,22.866058349609375,-2.933626174926758,-0.0,-0.0,-1.0,0.2324410060208765,1.0
59.592350006103516,22.316139221191406,-3.014647960662842,-0.0,-0.0,-1.0,0.11441460577830889,1.0
59.84161376953125,22.564823150634766,-3.069377899169922,-0.0,-0.0,-1.0,0.13704499617055346,1.0
59.21720504760742,23.006067276000977,-3.0146522521972656,-0.0,-0.0,-1.0,0.0423771180763967,1.0
59.58776092529297,22.853519439697266,-3.0553317070007324,-0.0,-0.0,-1.0,0.04658146490520565,1.0
59.7996826171875,22.653974533081055,-3.070164203643799,-0.0,-0.0,-1.0,0.142851867435536,2.0
58.5234375,20.72294044494629,-2.742586135864258,-0.0,-0.0,-1.0,0.10907485439239419,1.0
58.681182861328125,20.65845489501953,-2.761213779449463,-0.0,-0.0,-1.0,0.110989899315394,1.0
58.760772705078125,22.676593780517578,-2.6746582984924316,-0.0,-0.0,-1.0,0.12844267627770153,1.0
60.20857238769531,22.886531829833984,-3.0196433067321777,-0.0,-0.0,-1.0,0.11717004181916955,1.0
58.45281219482422,23.105594635009766,-2.902162551879883,-0.0,-0.0,-1.0,0.08737764453656677,1.0
59.40675354003906,22.540834426879883,-2.9245543479919434,-0.0,-0.0,-1.0,0.10182585421079154,1.0
59.382774353027344,22.33279037475586,-2.9039902687072754,-0.0,-0.0,-1.0,0.11069736419200804,1.0
58.314697265625,20.985435485839844,-2.6981282234191895,-0.0,-0.0,-1.0,0.16272353078174914,2.0
58.55425262451172,20.825231552124023,-2.703284502029419,-0.0,-0.0,-1.0,0.15491652901554842,1.0
59.46144485473633,22.16859245300293,-2.958487033843994,-0.0,-0.0,-1.0,0.09190027819012192,1.0
59.96134948730469,21.590715408325195,-2.9462828636169434,-0.0,-0.0,-1.0,0.05518124380254114,1.0
59.611602783203125,21.924755096435547,-2.9491257667541504,-0.0,-0.0,-1.0,0.07873709048996236,1.0
59.04222869873047,20.980236053466797,-2.836223840713501,-0.0,-0.0,-1.0,0.07352494066030982,1.0
58.21537780761719,21.183177947998047,-2.797184705734253,-0.0,-0.0,-1.0,0.08809575606288048,1.0
60.135658264160156,22.982038497924805,-3.0436058044433594,-0.0,-0.0,-1.0,0.08841266258518257,1.0
59.60124969482422,22.129457473754883,-2.925351142883301,0.9800847583851958,0.12959725414582465,0.15046068622366074,0.05727599011863633,4.0
59.531333923339844,22.246408462524414,-2.9327940940856934,-0.0,-0.0,-1.0,0.10073792507303458,2.0
58.79802703857422,20.643211364746094,-2.7285547256469727,-0.0,-0.0,-1.0,0.06463129776768747,1.0
58.5159912109375,20.774904251098633,-2.7238645553588867,-0.0,-0.0,-1.0,0.12761930037531305,2.0
58.02367401123047,22.98085594177246,-2.917921543121338,-0.0,-0.0,-1.0,0.09477888175656252,1.0
58.60511016845703,22.72852325439453,-2.6478893756866455,-0.0,-0.0,-1.0,0.15416687491641198,2.0
59.512718200683594,22.42397117614746,-3.233609676361084,-0.0,-0.0,-1.0,0.13435610074906437,1.0
59.359947204589844,22.064529418945312,-3.184950351715088,-0.0,-0.0,-1.0,0.16300555358780125,1.0
59.39371871948242,22.218971252441406,-3.2031397819519043,-0.0,-0.0,-1.0,0.13740721994610314,1.0
59.74542999267578,22.320112228393555,-2.894725799560547,-0.3808547440527608,0.4333693293991339,-0.8167868071098181,0.058992589324909035,3.0
59.689292907714844,22.439926147460938,-2.9010910987854004,-0.0,-0.0,-1.0,0.11849675465769727,2.0
58.40592575073242,23.112808227539062,-2.860656261444092,-0.0,-0.0,-1.0,0.15374014678407164,2.0
59.77473449707031,22.606121063232422,-3.0842747688293457,-0.0,-0.0,-1.0,0.1784792448038273,1.0
59.71541213989258,21.503509521484375,-3.016819477081299,-0.0,-0.0,-1.0,0.04335133900832491,1.0
59.54750061035156,21.844703674316406,-3.0165977478027344,-0.0,-0.0,-1.0,0.09205043622265685,1.0
59.511112213134766,22.278568267822266,-3.03678560256958,-0.0,-0.0,-1.0,0.15204938870485465,1.0
59.59306716918945,22.740116119384766,-3.0724048614501953,-0.0,-0.0,-1.0,0.09021302921265238,1.0
59.04682922363281,20.973949432373047,-2.91567325592041,-0.0,-0.0,-1.0,0.07352494066030985,1.0
58.51959228515625,22.82415008544922,-2.9613165855407715,-0.0,-0.0,-1.0,0.23613498170620634,1.0
58.592262268066406,20.691747665405273,-2.851193904876709,-0.5410799537367538,0.8258042341301784,0.1589963853579752,0.09948928553700805,3.0
58.94042205810547,20.877517700195312,-2.7343127727508545,-0.0,-0.0,-1.0,0.07894156586593415,1.0
58.378814697265625,21.050369262695312,-2.6733415126800537,-0.0,-0.0,-1.0,0.20718455913574427,1.0
59.535030364990234,22.41728973388672,-2.979609251022339,-0.0,-0.0,-1.0,0.18360548399278898,1.0
58.490272521972656,20.943073272705078,-2.861114740371704,-0.0,-0.0,-1.0,0.2635105853936244,1.0
58.9981575012207,20.70146942138672,-2.904345750808716,-0.0,-0.0,-1.0,0.09610533153844318,2.0
59.23744201660156,21.30926513671875,-2.9351766109466553,-0.0,-0.0,-1.0,0.20238246248604436,2.0
58.385257720947266,20.984027862548828,-2.6352949142456055,-0.0,-0.0,-1.0,0.15712022211599258,1.0
58.99934005737305,20.65990447998047,-2.677272319793701,-0.0,-0.0,-1.0,0.07611266977015596,2.0
59.73199462890625,22.531024932861328,-2.8061604499816895,-0.0,-0.0,-1.0,0.12243116573696615,1.0
59.76915740966797,22.382015228271484,-2.8041234016418457,-0.0,-0.0,-1.0,0.09824294017132643,1.0
58.651756286621094,22.900222778320312,-2.6046595573425293,-0.0,-0.0,-1.0,0.1863653923159872,2.0
59.28514862060547,23.011816024780273,-3.064213275909424,-0.0,-0.0,-1.0,0.03983312689694687,1.0
58.666351318359375,20.74601936340332,-2.8003177642822266,0.15114847857353667,0.8048880267043675,-0.5738548613481067,0.1446574090934227,3.0
59.909019470214844,21.534366607666016,-3.0848982334136963,-0.0,-0.0,-1.0,0.02506559493553374,1.0
59.664974212646484,21.64609718322754,-3.0741655826568604,-0.0,-0.0,-1.0,0.07101656542133972,2.0
59.57512283325195,21.808916091918945,-3.0807621479034424,-0.0,-0.0,-1.0,0.09678351928370779,2.0
59.35990905761719,21.91866683959961,-3.0724093914031982,-0.0,-0.0,-1.0,0.15169384583031983,1.0
59.083927154541016,20.879703521728516,-2.9600188732147217,-0.0,-0.0,-1.0,0.08927419195267572,1.0
59.21582794189453,21.112918853759766,-2.9909250736236572,-0.0,-0.0,-1.0,0.08162938849944773,2.0
59.02220916748047,21.120601654052734,-2.933257579803467,-0.0,-0.0,-1.0,0.051758472762624706,1.0
58.99649429321289,21.294198989868164,-2.9331841468811035,-0.0,-0.0,-1.0,0.08302385786742264,1.0
59.05970764160156,20.709503173828125,-2.8727498054504395,-0.0,-0.0,-1.0,0.10326153350868414,2.0
59.24285125732422,21.283945083618164,-2.9084925651550293,-0.0,-0.0,-1.0,0.21546124395000535,2.0
59.3717041015625,21.0955867767334,-2.9184975624084473,-0.0,-0.0,-1.0,0.12296877020092718,1.0
59.2871208190918,21.45197296142578,-2.9179935455322266,-0.0,-0.0,-1.0,0.13010772891565572,1.0
59.87603759765625,21.736379623413086,-2.9935669898986816,-0.0,-0.0,-1.0,0.06414881563687358,2.0
59.56902313232422,22.289186477661133,-2.973207473754883,-0.0,-0.0,-1.0,0.12463583065385979,2.0
59.843849182128906,22.001489639282227,-2.9970455169677734,-0.0,-0.0,-1.0,0.07111568323247625,2.0
58.7976188659668,23.043468475341797,-2.9054198265075684,-0.0,-0.0,-1.0,0.19950089975557078,1.0
59.846134185791016,22.785953521728516,-3.019299030303955,-0.0,-0.0,-1.0,0.13131386935152786,1.0
58.610313415527344,20.920984268188477,-2.886920213699341,-0.0,-0.0,-1.0,0.15643202815163418,1.0
59.082855224609375,21.033935546875,-2.9461143016815186,-0.0,-0.0,-1.0,0.06333071112138679,1.0
59.08323669433594,21.20282745361328,-2.950770139694214,-0.0,-0.0,-1.0,0.12478967558706507,2.0
59.60585403442383,21.48565673828125,-3.0207607746124268,-0.0,-0.0,-1.0,0.08400379175404013,1.0
58.085227966308594,23.12609100341797,-2.8879711627960205,-0.0,-0.0,-1.0,0.08629797238867205,1.0
59.4755973815918,21.919485092163086,-3.0176069736480713,-0.0,-0.0,-1.0,0.1086448243435068,1.0
59.75288391113281,21.64120864868164,-3.042638063430786,-0.0,-0.0,-1.0,0.03693083154523081,1.0
59.78520202636719,22.83211326599121,-3.081540822982788,-0.0,-0.0,-1.0,0.08635782218580586,2.0
59.844051361083984,22.657100677490234,-3.0832393169403076,-0.0,-0.0,-1.0,0.142851867435536,2.0
59.04169845581055,20.9196834564209,-2.986582040786743,-0.0,-0.0,-1.0,0.07721927148788593,1.0
59.242835998535156,21.24137306213379,-3.020538091659546,-0.0,-0.0,-1.0,0.17526828138476466,1.0
59.31746292114258,21.98692512512207,-3.052556276321411,0.7380531268572599,-0.6631116446385117,-0.12474184815461964,0.10562995652844362,3.0
59.51205062866211,21.717975616455078,-3.0677497386932373,-0.0,-0.0,-1.0,0.09734430218819261,1.0
59.58273696899414,21.459209442138672,-3.068338632583618,-0.0,-0.0,-1.0,0.08082088073009862,1.0
59.50590515136719,22.473812103271484,-3.090984582901001,-0.0,-0.0,-1.0,0.23176618836979493,1.0
59.54912567138672,22.638216018676758,-3.101585626602173,-0.0,-0.0,-1.0,0.12556788604963748,1.0
59.25992202758789,21.03717803955078,-2.8314287662506104,-0.0,-0.0,-1.0,0.07820742087738125,1.0
59.343284606933594,20.862751007080078,-2.8373734951019287,-0.0,-0.0,-1.0,0.07585645478231336,1.0
59.63803482055664,22.003231048583984,-2.897911310195923,-0.0,-0.0,-1.0,0.07397178155918231,1.0
59.49739456176758,22.392871856689453,-3.048539161682129,-0.0,-0.0,-1.0,0.19815441763791106,1.0
59.41671371459961,22.575454711914062,-3.036630630493164,-0.0,-0.0,-1.0,0.1584026111689925,2.0
59.08317947387695,20.758956909179688,-2.950568199157715,-0.0,-0.0,-1.0,0.10614868158917307,1.0
59.25690841674805,21.089244842529297,-2.986330986022949,-0.0,-0.0,-1.0,0.09564389554343876,2.0
59.39923095703125,21.495914459228516,-3.0175256729125977,-0.0,-0.0,-1.0,0.059012340451475916,1.0
59.34442901611328,21.86212730407715,-3.0121097564697266,-0.0,-0.0,-1.0,0.07194876585622957,1.0
58.238346099853516,22.83841896057129,-2.823545455932617,-0.0,-0.0,-1.0,0.17586303036576612,1.0
58.56136703491211,22.638782501220703,-2.8794240951538086,-0.0,-0.0,-1.0,0.2067908320309068,1.0
59.487464904785156,22.196765899658203,-3.043598175048828,-0.0,-0.0,-1.0,0.1327342373551149,1.0
58.33794403076172,23.066997528076172,-2.605520725250244,-0.0,-0.0,-1.0,0.12209660622849582,1.0
58.48626708984375,22.92058563232422,-2.612614154815674,-0.0,-0.0,-1.0,0.14555413167415698,1.0
59.511409759521484,22.920942306518555,-3.062870979309082,-0.0,-0.0,-1.0,0.023455726956102558,1.0
59.408626556396484,22.54590606689453,-3.053168296813965,-0.0,-0.0,-1.0,0.1826941465875721,2.0
59.183353424072266,22.133028030395508,-3.022831916809082,-0.0,-0.0,-1.0,0.09751004476988578,1.0
59.25242233276367,21.818700790405273,-3.043473243713379,-0.0,-0.0,-1.0,0.11216475033313955,1.0
58.913883209228516,21.386863708496094,-2.994037628173828,-0.0,-0.0,-1.0,0.04123717605403702,1.0
58.60980987548828,20.958892822265625,-2.951117515563965,-0.0,-0.0,-1.0,0.10565159571606865,1.0
58.3752555847168,20.66644287109375,-2.917189598083496,-0.0,-0.0,-1.0,0.13827717471490344,1.0
58.39006042480469,20.801164627075195,-2.6893253326416016,-0.0,-0.0,-1.0,0.12960581525956635,1.0
58.312198638916016,21.016454696655273,-2.7080249786376953,-0.0,-0.0,-1.0,0.17011720989617463,2.0
