x,y,z,nx,ny,nz,curvature,density
40.407875061035156,-8.751801490783691,-0.3378034830093384,-0.0,-0.0,-1.0,0.17133778787920936,2.0
40.90739440917969,-8.635529518127441,-0.37703514099121094,-0.0,-0.0,-1.0,0.1103500921604785,1.0
39.78025436401367,-8.583402633666992,-0.4517018795013428,-0.0,-0.0,-1.0,0.08212852768058936,1.0
39.98386764526367,-8.613256454467773,-0.46783721446990967,-0.0,-0.0,-1.0,0.039022924309574165,1.0
40.02463150024414,-10.150154113769531,-0.4260135889053345,-0.0,-0.0,-1.0,0.10845566851741491,2.0
40.37021255493164,-10.12548828125,-0.4517437219619751,-0.0,-0.0,-1.0,0.1901637609727203,1.0
39.98046112060547,-9.303218841552734,-0.3962407112121582,-0.0,-0.0,-1.0,0.1938391231643638,1.0
39.95354461669922,-8.990283966064453,-0.3847007751464844,-0.5260786478343532,0.1501524262559,-0.8370755671874824,0.1983458736030567,3.0
40.180870056152344,-9.021249771118164,-0.4036257266998291,-0.0,-0.0,-1.0,0.13381125880267145,2.0
40.18678283691406,-8.69145393371582,-0.39451515674591064,-0.0,-0.0,-1.0,0.2275495084715588,1.0
40.350425720214844,-10.224627494812012,0.013821959495544434,0.2763025758033578,-0.957025145384729,0.08808948691965361,0.22791521723721736,3.0
39.78862380981445,-9.099041938781738,0.08960545063018799,-0.0,-0.0,-1.0,0.11007390861490077,1.0
40.42912292480469,-10.284380912780762,-0.0888129472732544,0.371962503322588,-0.7879285922431137,0.4907264305575748,0.22424563037140588,4.0
39.77155685424805,-9.066252708435059,-0.013998270034790039,-0.5093988303021724,0.2791652612373345,-0.8139899192281621,0.09127083143105191,5.0
40.62786865234375,-9.242255210876465,-0.0794607400894165,0.08357420847565562,-0.8476271444925403,-0.523969059770794,0.13249938096656835,6.0
41.02698516845703,-8.981476783752441,-0.10325706005096436,-0.0,-0.0,-1.0,0.15526408322808738,2.0
40.28789520263672,-8.58597469329834,-0.04034626483917236,0.3028851974960458,-0.7535974839858646,-0.583396425484383,0.20747437416073014,5.0
41.18220520019531,-8.794726371765137,-0.11100637912750244,0.7009561604829453,0.22675093982229202,0.6761985450817791,0.1610117349840474,4.0
41.297874450683594,-9.692048072814941,-0.39123833179473877,-0.0,-0.0,-1.0,0.1613808167027142,1.0
39.845340728759766,-10.280789375305176,-0.3056938648223877,-0.0,-0.0,-1.0,0.0787067112466659,1.0
39.77936553955078,-9.117152214050293,-0.256339430809021,-0.0,-0.0,-1.0,0.13206116431116136,1.0
40.134334564208984,-9.28574275970459,-0.2888098955154419,-0.9150156419530726,0.23066783980072253,-0.3309663467225543,0.20656040116540964,4.0
40.61497497558594,-9.115544319152832,-0.31846189498901367,-0.0,-0.0,-1.0,0.1546439638399086,1.0
41.114837646484375,-9.250807762145996,-0.36143946647644043,-0.0,-0.0,-1.0,0.042880026897070336,1.0
41.25582504272461,-9.32660961151123,-0.37498486042022705,-0.0,-0.0,-1.0,0.06319369384347595,2.0
40.258541107177734,-8.812634468078613,-0.28052687644958496,-0.3315595945781565,-0.42971769431423396,-0.8398874558156154,0.188982624611353,5.0
39.86214828491211,-8.372166633605957,-0.2346130609512329,-0.5989337824083335,0.7781962210572784,-0.18891523448948982,0.1238363225263539,3.0
40.37613296508789,-8.505915641784668,-0.27824652194976807,-0.0,-0.0,-1.0,0.20007856509116723,2.0
40.48286056518555,-8.528840065002441,-0.2872025966644287,-0.0,-0.0,-1.0,0.2427909934284623,1.0
40.865814208984375,-8.429387092590332,-0.31313836574554443,-0.0,-0.0,-1.0,0.17394970568393522,2.0
39.84347915649414,-9.075821876525879,0.13744008541107178,-0.0,-0.0,-1.0,0.15102491267117826,1.0
41.168731689453125,-8.871376991271973,0.06176137924194336,-0.0,-0.0,-1.0,0.24684527528631311,1.0
41.203678131103516,-8.790278434753418,0.06173050403594971,0.11769728805874986,0.12504388611805559,-0.9851453572585673,0.2254138513961726,3.0
40.439701080322266,-10.222580909729004,0.03312420845031738,0.32351561174686233,-0.828405809802832,-0.45725426541582714,0.21260395148646768,4.0
41.10667419433594,-8.870903968811035,0.03446483612060547,-0.0,-0.0,-1.0,0.18576742266593335,1.0
41.166419982910156,-8.7500638961792,0.034282565116882324,0.6440792503442265,0.16513256307449864,0.7469224564092753,0.2657226292029401,5.0
40.4359245300293,-10.21371841430664,-0.10403144359588623,-0.33861557922567087,-0.9235079327762163,-0.1802015194305064,0.18657689084709608,3.0
39.76782989501953,-9.111587524414062,-0.013634324073791504,-0.1306250754625785,-0.5901156580462414,-0.7966809899759422,0.09444919663229097,6.0
40.664798736572266,-9.266096115112305,-0.06103634834289551,-0.2539636240468808,-0.511075652045208,-0.8211602496148603,0.1331757741623008,4.0
40.240230560302734,-8.591682434082031,-0.0045441389083862305,-0.08853119258897658,-0.6125533186587487,-0.7854557019583773,0.21906918196745395,6.0
39.980499267578125,-9.004491806030273,-0.4041895866394043,0.4365388741336871,0.8863796354938955,0.15415885687109285,0.1461036149733261,4.0
39.734439849853516,-8.811153411865234,-0.3781251907348633,-0.0,-0.0,-1.0,0.050316426909018545,1.0
39.99491882324219,-8.500640869140625,-0.3635382652282715,-0.0,-0.0,-1.0,0.12215149341098107,1.0
39.95387268066406,-8.924678802490234,-0.4016075134277344,-0.0,-0.0,-1.0,0.12142733820243659,2.0
40.7311897277832,-8.570783615112305,-0.38902103900909424,-0.0,-0.0,-1.0,0.07113139925356832,1.0
39.97066879272461,-10.100427627563477,-0.4393688440322876,-0.0,-0.0,-1.0,0.09860357363718633,1.0
40.05668258666992,-9.100601196289062,-0.35172832012176514,-0.0,-0.0,-1.0,0.14777951009722678,2.0
40.715518951416016,-9.038549423217773,-0.3543323278427124,-0.16567083616826134,0.580137249577149,-0.7974922856657422,0.1388109698278757,3.0
40.85192108154297,-9.06425666809082,-0.3585083484649658,-0.0,-0.0,-1.0,0.15408392174354885,2.0
39.75408935546875,-8.948259353637695,-0.3351895809173584,-0.0,-0.0,-1.0,0.13282488588168376,1.0
39.90012741088867,-8.399656295776367,-0.28803694248199463,-0.0,-0.0,-1.0,0.12383632252635392,1.0
40.31637191772461,-8.806997299194336,-0.3287777900695801,-0.7129193351859915,-0.5940279981978899,-0.3726617217732076,0.24223123013618247,5.0
40.56531524658203,-8.939001083374023,-0.3435404300689697,-0.0,-0.0,-1.0,0.11128727482006913,1.0
41.157081604003906,-8.543231964111328,-0.3175785541534424,-0.0,-0.0,-1.0,0.11975784114422612,2.0
41.33942794799805,-8.49624252319336,-0.31654834747314453,-0.5238527802537744,-0.42585585719172536,-0.7377161063145441,0.0680111263363034,4.0
39.86787033081055,-8.908480644226074,-0.3926258087158203,-0.32848942615109633,0.0535136253200172,-0.9429904500110445,0.08346117999515108,4.0
40.65327835083008,-8.584794044494629,-0.37878596782684326,-0.0,-0.0,-1.0,0.08048575345790376,1.0
39.729427337646484,-10.23275089263916,-0.4070669412612915,-0.19407757346720167,-0.7689049486476347,-0.609195432863922,0.09914329766213842,3.0
39.7704963684082,-8.986628532409668,-0.2936737537384033,-0.8118826366262483,0.5672253181323643,-0.13821006770293257,0.13730461120825496,3.0
40.21823501586914,-8.784111976623535,-0.2790031433105469,-0.5540587494225814,-0.7654792630458365,-0.3272008557982211,0.13378383017098927,3.0
40.15326690673828,-9.153304100036621,-0.31195640563964844,-0.8864330047910105,0.08456846700255484,-0.45506560231028,0.14536416374396874,3.0
40.28581619262695,-8.832234382629395,-0.28403234481811523,-0.3200916260841249,0.2122297706850717,-0.9233091981269236,0.22434032873935206,6.0
40.56135559082031,-9.02999210357666,-0.3049008846282959,-0.0,-0.0,-1.0,0.07668889190772242,1.0
40.98526382446289,-9.6452054977417,-0.36556243896484375,-0.0,-0.0,-1.0,0.027871582440771682,1.0
40.88117599487305,-9.080195426940918,-0.31320464611053467,-0.0,-0.0,-1.0,0.1605333051386321,2.0
41.33827590942383,-8.734572410583496,-0.28846275806427,-0.2602863381589153,0.805964416439853,-0.5316694288753023,0.08459801591009168,3.0
41.348541259765625,-8.953631401062012,-0.30826377868652344,0.7248522623708344,-0.4878192571431727,-0.4864376322779376,0.12262663915451089,4.0
41.59792709350586,-8.430188179016113,-0.2653268575668335,-0.9700414064911674,-0.00087527822562305,-0.24293806531843742,0.19104758998804494,4.0
39.74976348876953,-10.256879806518555,-0.3830909729003906,0.8456221197406032,0.23788854898981357,-0.4778412590651104,0.10037506506182392,3.0
39.85874938964844,-8.37099838256836,-0.2190248966217041,-0.0,-0.0,-1.0,0.17558670315940436,2.0
40.040218353271484,-9.02281379699707,-0.28899168968200684,-0.0,-0.0,-1.0,0.19029379121934284,1.0
39.936683654785156,-9.38092041015625,-0.31499361991882324,-0.0,-0.0,-1.0,0.24361523370999077,1.0
40.21273422241211,-8.642524719238281,-0.2653353214263916,-0.0,-0.0,-1.0,0.15217106188781143,2.0
40.4554557800293,-8.891716003417969,-0.3030688762664795,-0.0,-0.0,-1.0,0.15940170015537336,2.0
40.71074295043945,-9.006046295166016,-0.3296957015991211,-0.0,-0.0,-1.0,0.15570072016894593,2.0
40.84397506713867,-9.08360481262207,-0.34530723094940186,0.5474983818688605,-0.6132904794096578,-0.5693156503350774,0.16286381018144072,3.0
39.93402099609375,-8.451639175415039,-0.19151687622070312,-0.0,-0.0,-1.0,0.06938485129599187,1.0
40.17644500732422,-9.376762390136719,-0.2904627323150635,-0.0,-0.0,-1.0,0.23029106499049043,2.0
40.28355026245117,-8.970766067504883,-0.2620459794998169,-0.0,-0.0,-1.0,0.1520609415336761,2.0
40.38002395629883,-9.184286117553711,-0.28783512115478516,-0.0,-0.0,-1.0,0.1830388196184472,1.0
40.716495513916016,-9.166913986206055,-0.3105776309967041,-0.0,-0.0,-1.0,0.21415737683545696,1.0
40.952301025390625,-9.569730758666992,-0.3633692264556885,-0.0,-0.0,-1.0,0.02868469094552845,1.0
41.24723434448242,-8.686187744140625,-0.308047890663147,0.15250531610781623,0.07799769132069749,-0.9852200204560889,0.1330340674996726,3.0
41.187538146972656,-9.04722785949707,-0.33509254455566406,-0.0,-0.0,-1.0,0.15953033554562304,2.0
41.4376335144043,-8.54593276977539,-0.3104933500289917,-0.9772036827362963,-0.21005365412584243,0.030828960978287013,0.07661460471177094,4.0
39.739158630371094,-9.111934661865234,-0.12397170066833496,-0.6281002840398404,0.033595908196673026,-0.7774068099402733,0.10122451035816457,4.0
39.81163024902344,-10.329158782958984,-0.23687493801116943,-0.6102322894581769,0.7711023523941379,-0.1817077737326032,0.09933966308729471,3.0
40.23723602294922,-8.667787551879883,-0.11588418483734131,-0.0,-0.0,-1.0,0.18922052484933216,2.0
40.21269226074219,-9.36153793334961,-0.17583882808685303,-0.0,-0.0,-1.0,0.17914234689244293,2.0
40.589195251464844,-9.318115234375,-0.1964874267578125,-0.0,-0.0,-1.0,0.22169135021669018,1.0
40.88411331176758,-9.009538650512695,-0.18904531002044678,0.7071498972776948,0.16399452396793998,-0.6877825374990808,0.17492036183387868,5.0
40.83607482910156,-9.167280197143555,-0.19967103004455566,-0.0,-0.0,-1.0,0.2007785214221818,1.0
41.16634750366211,-8.860910415649414,-0.19547700881958008,-0.0,-0.0,-1.0,0.18869180327780283,2.0
41.437408447265625,-9.786571502685547,-0.29561150074005127,-0.0,-0.0,-1.0,0.08112703386056667,1.0
40.57019805908203,-9.288599014282227,-0.14883732795715332,-0.0,-0.0,-1.0,0.22167950335847833,2.0
40.81733703613281,-9.161638259887695,-0.15119504928588867,-0.0,-0.0,-1.0,0.2087453474536088,1.0
40.96348190307617,-9.952821731567383,-0.23341143131256104,-0.0,-0.0,-1.0,0.049023566874427396,1.0
41.479835510253906,-9.923660278320312,-0.26149308681488037,-0.0,-0.0,-1.0,0.08225688831950274,1.0
41.66151809692383,-9.908737182617188,-0.2713632583618164,-0.0,-0.0,-1.0,0.08001939114341548,1.0
40.147987365722656,-8.717504501342773,-0.07190918922424316,-0.0,-0.0,-1.0,0.1423020717285389,2.0
40.20663833618164,-8.637598037719727,-0.06760990619659424,-0.0,-0.0,-1.0,0.15997587149026554,1.0
41.20476150512695,-8.894533157348633,-0.14932870864868164,-0.0,-0.0,-1.0,0.15207146048245743,1.0
40.41802978515625,-9.768329620361328,-0.2463170289993286,0.8167533749279287,-0.5397875300958815,-0.20382185088166133,0.20417996136672698,3.0
40.879905700683594,-10.032678604125977,-0.3054516315460205,-0.9708243487740438,0.16199373869988615,-0.17679963927985498,0.031447847739860174,3.0
40.96787643432617,-10.124788284301758,-0.32138609886169434,-0.0,-0.0,-1.0,0.043793840203951696,2.0
41.043792724609375,-10.278385162353516,-0.34314465522766113,-0.0,-0.0,-1.0,0.10461977326973664,2.0
41.63599395751953,-9.959917068481445,-0.3517570495605469,-0.0,-0.0,-1.0,0.07206012232761298,1.0
39.78509521484375,-9.156171798706055,-0.14074456691741943,-0.3562513004055248,-0.7651813706735281,-0.5362671730896399,0.11180582484850797,4.0
39.93698501586914,-9.541515350341797,-0.1917715072631836,-0.0,-0.0,-1.0,0.177793998472791,1.0
40.16301345825195,-8.717023849487305,-0.1160820722579956,0.9361964922722412,0.14528868914266893,0.3200426919402413,0.16538936328806866,3.0
40.17618942260742,-9.327617645263672,-0.18316984176635742,-0.0,-0.0,-1.0,0.20123998461806147,1.0
40.64210510253906,-9.308847427368164,-0.2113415002822876,-0.0,-0.0,-1.0,0.16664218217453677,1.0
41.156341552734375,-8.855613708496094,-0.19858312606811523,-0.0,-0.0,-1.0,0.15838302701278137,2.0
40.9715576171875,-9.03001594543457,-0.2040194272994995,-0.0,-0.0,-1.0,0.27851830910086817,1.0
41.5820426940918,-8.781610488891602,-0.22256195545196533,-0.5574932579175776,0.6294820256821048,-0.5412519253726491,0.06611115550499133,4.0
41.36134338378906,-9.182180404663086,-0.24846875667572021,-0.0,-0.0,-1.0,0.061891881461415214,1.0
39.83695983886719,-8.445064544677734,-0.23834228515625,-0.0,-0.0,-1.0,0.14428136901762986,1.0
39.87017822265625,-9.111085891723633,-0.33348751068115234,-0.0,-0.0,-1.0,0.23880268467451854,2.0
39.82577896118164,-10.16720962524414,-0.47946715354919434,-0.0,-0.0,-1.0,0.10935158793114529,2.0
40.26375961303711,-8.86660385131836,-0.32018017768859863,-0.0,-0.0,-1.0,0.18320817933361255,1.0
40.17550277709961,-9.156444549560547,-0.355853796005249,-0.8864330047910105,0.08456846700255484,-0.45506560231028,0.1572751195884635,3.0
40.60799789428711,-8.865264892578125,-0.3402252197265625,-0.0,-0.0,-1.0,0.10995375919038515,1.0
40.610469818115234,-9.023698806762695,-0.36232125759124756,-0.0,-0.0,-1.0,0.08530580021458989,1.0
41.03144836425781,-8.620193481445312,-0.3335700035095215,-0.0,-0.0,-1.0,0.09761467963019407,2.0
41.269012451171875,-8.530189514160156,-0.33783483505249023,-0.0,-0.0,-1.0,0.10471364822135852,2.0
39.717384338378906,-9.147748947143555,0.07067430019378662,-0.0,-0.0,-1.0,0.0911311601528503,2.0
40.356266021728516,-10.053573608398438,-0.054886579513549805,-0.0,-0.0,-1.0,0.12064474777504522,1.0
40.405208587646484,-10.208406448364258,-0.07353639602661133,-0.707601803503029,-0.042431032750202886,-0.7053362993204108,0.2512268013735141,3.0
40.607608795166016,-9.303060531616211,0.010176420211791992,-0.0,-0.0,-1.0,0.181369270790404,2.0
41.14981460571289,-8.81515884399414,0.029390811920166016,0.7625784164959772,-0.4742796812288581,-0.43992379188666364,0.26658567397841043,3.0
39.82178497314453,-9.57300090789795,-0.4487473964691162,-0.0,-0.0,-1.0,0.14124572166664515,1.0
40.04403305053711,-9.086803436279297,-0.38480234146118164,0.8861483918862285,0.4359828323927678,-0.1570350197129006,0.12869508268481172,3.0
39.7298698425293,-9.103567123413086,-0.005617499351501465,-0.4434917293025309,-0.8949995380830162,-0.04786348160590427,0.0912708314310519,4.0
39.837547302246094,-8.39742374420166,-0.2606598138809204,-0.0,-0.0,-1.0,0.12383632252635395,2.0
40.12486267089844,-8.748302459716797,-0.16110682487487793,-0.0,-0.0,-1.0,0.14550470940030927,1.0
39.994956970214844,-9.019429206848145,-0.3707236051559448,-0.11673713380374381,-0.37333483004926293,-0.9203225229577807,0.25158222374373695,6.0
40.14823532104492,-9.34830093383789,-0.06141471862792969,-0.0,-0.0,-1.0,0.2161030597984572,1.0
40.36608123779297,-8.683149337768555,-0.3421285152435303,-0.4867411865006267,-0.4280208517634811,-0.7614992894413143,0.16521542347530385,3.0
40.493263244628906,-9.10256290435791,-0.23276114463806152,-0.0,-0.0,-1.0,0.1427464219982273,2.0
40.557647705078125,-9.305475234985352,-0.08266270160675049,-0.0,-0.0,-1.0,0.14858314079147736,2.0
40.3897705078125,-10.170493125915527,-0.17937827110290527,-0.0,-0.0,-1.0,0.20139360217425176,1.0
40.690834045410156,-8.721113204956055,-0.3721020221710205,-0.0,-0.0,-1.0,0.10918384239475244,1.0
40.671630859375,-9.17863941192627,-0.07465314865112305,0.7158808645874691,-0.6716750924681646,-0.1907017511072741,0.1515812184431632,3.0
41.17292022705078,-8.777566909790039,-0.061305880546569824,0.6370899743626875,-0.7238684018870288,0.2648223957977667,0.16029852589050086,5.0
41.14414978027344,-8.802145957946777,-0.062157392501831055,0.6843107133041053,-0.6503161481011421,0.32986020550548406,0.1714764102948358,5.0
41.46443557739258,-9.75796127319336,-0.20385515689849854,-0.0,-0.0,-1.0,0.08038276910859625,1.0
40.14653778076172,-8.673900604248047,0.022932767868041992,-0.0,-0.0,-1.0,0.18562845971552858,1.0
40.242557525634766,-8.632156372070312,0.021999001502990723,0.8905856951153593,0.2841160501169109,0.3551551628821655,0.2286444669509027,3.0
40.11262512207031,-8.691398620605469,-0.3459845781326294,-0.0,-0.0,-1.0,0.23315100976067077,1.0
40.0302734375,-9.021968841552734,-0.40369129180908203,-0.09490100908749269,-0.9951727473213268,-0.02500002926194094,0.1819243611457529,3.0
39.94772720336914,-9.30490493774414,-0.45298826694488525,-0.0,-0.0,-1.0,0.2278140756893874,1.0
40.42085647583008,-8.734817504882812,-0.3662700653076172,-0.0,-0.0,-1.0,0.146530470533127,2.0
40.441829681396484,-8.8858642578125,-0.3949606418609619,-0.0,-0.0,-1.0,0.18333607835356683,1.0
40.81657028198242,-8.593600273132324,-0.35981619358062744,-0.0,-0.0,-1.0,0.10253013907392208,1.0
40.66756057739258,-8.923192024230957,-0.4120243787765503,-0.0,-0.0,-1.0,0.08114469891064517,2.0
40.95600891113281,-10.269824981689453,-0.29835402965545654,-0.0,-0.0,-1.0,0.042590062670295525,1.0
41.2092399597168,-8.53052806854248,-0.3708263635635376,-0.0,-0.0,-1.0,0.08935171964058397,1.0
41.53850555419922,-9.985661506652832,-0.28473377227783203,-0.0,-0.0,-1.0,0.06533617123409136,1.0
39.7115478515625,-9.10225772857666,-0.08249533176422119,-0.0,-0.0,-1.0,0.10332793425427665,1.0
40.174930572509766,-8.594437599182129,-0.020890474319458008,-0.25771875113721654,-0.7111874522250361,0.6540592122353571,0.1886004539952914,3.0
40.163352966308594,-9.792049407958984,-0.19798791408538818,-0.0,-0.0,-1.0,0.19738002912251174,1.0
40.25773239135742,-8.649799346923828,-0.03197646141052246,0.9969867392423907,-0.07373915795541264,0.02408273985351719,0.17556044395560744,3.0
40.56684112548828,-9.357630729675293,-0.14814186096191406,-0.0,-0.0,-1.0,0.14184924240035543,1.0
40.93724060058594,-9.065067291259766,-0.12101602554321289,-0.0,-0.0,-1.0,0.13184058752744954,2.0
40.67673110961914,-9.248799324035645,-0.13652348518371582,-0.420815820549178,-0.845029204358372,0.32990860697620283,0.19955751215793707,3.0
41.00057601928711,-9.832340240478516,-0.23616504669189453,-0.0,-0.0,-1.0,0.04996279356675266,2.0
41.158966064453125,-8.807836532592773,-0.09431660175323486,0.7744691191352526,-0.2169474549799854,0.5942485887939264,0.13893240516141414,6.0
41.430809020996094,-9.760405540466309,-0.2464810609817505,-0.0,-0.0,-1.0,0.08038276910859624,1.0
39.77131652832031,-8.496155738830566,-0.47079896926879883,-0.0,-0.0,-1.0,0.1437306252349479,2.0
39.76530075073242,-8.990127563476562,-0.27751362323760986,-0.8118826366262483,0.5672253181323643,-0.13821006770293257,0.14528501221610615,3.0
39.812076568603516,-9.192509651184082,-0.31658315658569336,-0.0,-0.0,-1.0,0.14695720970935144,1.0
40.17012405395508,-9.09205436706543,-0.3114532232284546,-0.0,-0.0,-1.0,0.17617521345903178,2.0
40.06055450439453,-9.257179260253906,-0.3375736474990845,-0.7750858535119701,0.28257352288663007,-0.5651496473050833,0.19782508935545537,5.0
39.76700973510742,-10.126564025878906,-0.4889354705810547,-0.025377301052246965,-0.40048807148355214,-0.915950488394809,0.1166375291156085,3.0
40.52910614013672,-9.141560554504395,-0.3368394374847412,-0.0,-0.0,-1.0,0.12170126721436714,1.0
40.54888916015625,-9.354496002197266,-0.37680327892303467,-0.0,-0.0,-1.0,0.16530020825750355,1.0
41.21379470825195,-8.831320762634277,-0.3196214437484741,-0.3434782475200642,0.5561974305172271,-0.7567477200273417,0.18922040372747104,3.0
40.89505386352539,-9.190733909606934,-0.3652951717376709,-0.0,-0.0,-1.0,0.11280627256415725,1.0
41.00143814086914,-9.398444175720215,-0.4090958833694458,-0.0,-0.0,-1.0,0.04534307193216372,1.0
41.52457046508789,-8.624903678894043,-0.3043276071548462,0.11752769818977651,0.8501264098934084,-0.5132955555622492,0.1183993268692964,4.0
41.369232177734375,-8.767989158630371,-0.3187648057937622,-0.0,-0.0,-1.0,0.07314142078353876,2.0
41.232513427734375,-9.055668830871582,-0.3612314462661743,-0.0,-0.0,-1.0,0.11118730232072938,2.0
40.12742614746094,-9.410371780395508,-0.053198814392089844,-0.0,-0.0,-1.0,0.21550325426610747,1.0
39.825904846191406,-10.295747756958008,-0.17654216289520264,-0.7218433214156212,-0.48364963126508104,-0.4950002560654033,0.13590458383599274,5.0
40.840309143066406,-8.560494422912598,-0.24730515480041504,-0.0,-0.0,-1.0,0.13748469476458997,1.0
40.61344528198242,-9.26359748840332,-0.05049633979797363,0.9253066278266024,-0.2834627376488858,0.25190577775184175,0.15571820258538246,3.0
40.439273834228516,-9.4332275390625,-0.06849586963653564,-0.0,-0.0,-1.0,0.13484699790393126,1.0
40.3039436340332,-9.897148132324219,-0.1322866678237915,-0.0,-0.0,-1.0,0.10355569988381047,1.0
41.12840270996094,-8.711851119995117,-0.1429656744003296,-0.0,-0.0,-1.0,0.14795117244424186,1.0
41.56992721557617,-8.371150970458984,-0.2628394365310669,-0.0,-0.0,-1.0,0.17704082003535226,1.0
41.49436569213867,-9.653043746948242,-0.152260422706604,-0.0,-0.0,-1.0,0.0803973498431309,1.0
39.817543029785156,-8.51500129699707,-0.4700183868408203,-0.0,-0.0,-1.0,0.11558311681214721,2.0
39.974796295166016,-8.401670455932617,-0.45390355587005615,-0.0,-0.0,-1.0,0.08168244545776301,1.0
39.95138931274414,-9.971860885620117,-0.49861884117126465,-0.0,-0.0,-1.0,0.03352924098359338,1.0
40.07783126831055,-9.998538970947266,-0.5110131502151489,-0.0,-0.0,-1.0,0.059101407088354006,2.0
41.042823791503906,-9.259725570678711,-0.4336923360824585,-0.0,-0.0,-1.0,0.0449664747792928,1.0
40.21577453613281,-8.695435523986816,-0.12552285194396973,-0.0,-0.0,-1.0,0.18971324097013312,2.0
39.83210372924805,-9.05317211151123,-0.16821694374084473,-0.0,-0.0,-1.0,0.1402733478539801,2.0
39.750205993652344,-9.097434043884277,-0.029866814613342285,-0.4947117953954176,0.3049704448544762,-0.8137894489743065,0.09444919663229097,5.0
40.291568756103516,-8.77830696105957,-0.146858811378479,-0.0,-0.0,-1.0,0.12918478793392418,1.0
40.17259216308594,-9.133851051330566,-0.34598541259765625,-0.8864330047910105,0.08456846700255484,-0.45506560231028,0.16445166345276901,3.0
40.08243942260742,-9.28102970123291,-0.3693763017654419,-0.7441520475944304,0.17632269245996404,-0.6443198260062198,0.2763679335369061,3.0
39.7373161315918,-10.326934814453125,-0.22970211505889893,-0.0,-0.0,-1.0,0.06960001824495984,2.0
40.955169677734375,-8.567666053771973,-0.29330527782440186,-0.0,-0.0,-1.0,0.10933973099885928,2.0
40.69459533691406,-9.063913345336914,-0.36843669414520264,-0.0,-0.0,-1.0,0.11127293542353588,2.0
40.60523223876953,-9.180651664733887,-0.23626530170440674,0.9595713981892037,0.26078610774242056,0.10589304880763262,0.15112596107096626,5.0
40.31298065185547,-9.6638765335083,-0.15138638019561768,-0.0,-0.0,-1.0,0.17593528508310582,1.0
40.322181701660156,-9.997249603271484,-0.20574116706848145,-0.0,-0.0,-1.0,0.11153042460082249,1.0
39.93215560913086,-10.30642318725586,-0.2355579137802124,-0.0,-0.0,-1.0,0.12088893644777286,2.0
41.499755859375,-8.428873062133789,-0.3169229030609131,-0.7440034606711666,0.5580759370083417,0.3674372042153445,0.13126379037985753,4.0
41.19774627685547,-8.710381507873535,-0.1992279291152954,-0.0,-0.0,-1.0,0.17960245346772916,2.0
41.06144332885742,-8.996649742126465,-0.2408447265625,-0.0,-0.0,-1.0,0.14572239806304263,1.0
41.102294921875,-9.78230094909668,-0.22062838077545166,-0.0,-0.0,-1.0,0.0628271093408359,1.0
41.08176040649414,-9.88277530670166,-0.23517167568206787,-0.0,-0.0,-1.0,0.06303038352423687,2.0
41.46342468261719,-10.125706672668457,-0.30096352100372314,-0.0,-0.0,-1.0,0.07372563314811066,1.0
40.33162307739258,-8.668237686157227,0.007881760597229004,-0.0,-0.0,-1.0,0.20281029581716975,1.0
40.49013137817383,-10.295631408691406,0.06411600112915039,-0.0,-0.0,-1.0,0.2354465500997489,2.0
40.43295669555664,-10.338906288146973,0.06154441833496094,0.32337246562206806,-0.7554128083722569,-0.5698962514569159,0.21613942742389988,4.0
40.22589111328125,-8.812326431274414,-0.44441211223602295,-0.0,-0.0,-1.0,0.15677859701077582,1.0
39.985294342041016,-9.052311897277832,-0.47593390941619873,-0.0,-0.0,-1.0,0.11664849869021796,2.0
39.808746337890625,-9.324546813964844,-0.522720217704773,-0.0,-0.0,-1.0,0.10057376123085324,1.0
40.766212463378906,-8.652261734008789,-0.46882617473602295,-0.0,-0.0,-1.0,0.06566852164124432,1.0
40.6901969909668,-8.776771545410156,-0.48735952377319336,-0.0,-0.0,-1.0,0.05051500487511335,1.0
39.75532150268555,-10.328699111938477,-0.4479578733444214,-0.0,-0.0,-1.0,0.08749444402724978,1.0
40.066307067871094,-10.225992202758789,-0.4509204626083374,-0.0,-0.0,-1.0,0.10317022018513347,2.0
39.92856979370117,-10.296329498291016,-0.45421361923217773,-0.0,-0.0,-1.0,0.09149481434545423,1.0
40.073238372802734,-8.520880699157715,-0.3626314401626587,-0.0,-0.0,-1.0,0.13850791588043923,1.0
40.457618713378906,-8.464275360107422,-0.3908921480178833,-0.0,-0.0,-1.0,0.1648769987705084,1.0
40.257755279541016,-8.720020294189453,-0.2994391918182373,-0.0,-0.0,-1.0,0.2120641930723815,2.0
40.08527374267578,-8.967657089233398,-0.3330155611038208,-0.0,-0.0,-1.0,0.2316242250983115,1.0
40.005950927734375,-9.388917922973633,-0.28251945972442627,-0.0,-0.0,-1.0,0.21151837309431776,2.0
40.832847595214844,-8.485137939453125,-0.4402660131454468,-0.0,-0.0,-1.0,0.12446397172708369,1.0
40.49540710449219,-8.848320007324219,-0.349306583404541,-0.0,-0.0,-1.0,0.13827654713476784,1.0
40.453208923339844,-9.307577133178711,-0.169012188911438,-0.0,-0.0,-1.0,0.12096132157349887,1.0
40.15896987915039,-9.417048454284668,-0.3007822036743164,-0.9205636203875724,0.3881527917476823,0.043589345916238656,0.22977526531142695,3.0
41.60093307495117,-8.469481468200684,-0.2771732807159424,0.07121034961142696,0.5153961626371321,-0.8539882210236492,0.20624140604774718,4.0
41.2981071472168,-8.863374710083008,-0.3114060163497925,-0.0,-0.0,-1.0,0.11212654935196378,1.0
40.86740493774414,-9.211639404296875,-0.3286411762237549,-0.0,-0.0,-1.0,0.22320849620908448,1.0
40.70579147338867,-9.275946617126465,-0.32427072525024414,-0.0,-0.0,-1.0,0.19012032564502637,2.0
40.389312744140625,-9.660205841064453,-0.2255614995956421,0.24608594544836637,-0.2901218704546669,-0.9248086330353265,0.27674300273520097,4.0
40.272605895996094,-10.253795623779297,-0.17161941528320312,-0.0,-0.0,-1.0,0.06338493314354468,1.0
41.55792236328125,-8.63498592376709,-0.30134129524230957,0.11752769818977651,0.8501264098934084,-0.5132955555622492,0.12206412005342122,4.0
41.407859802246094,-8.915487289428711,-0.3337414264678955,-0.0,-0.0,-1.0,0.10590973223475754,2.0
41.204586029052734,-9.33415412902832,-0.38743162155151367,-0.0,-0.0,-1.0,0.051228152833454874,1.0
41.0167350769043,-9.593381881713867,-0.4158538579940796,-0.0,-0.0,-1.0,0.10662844462425179,1.0
41.52083206176758,-10.166622161865234,-0.26333391666412354,-0.0,-0.0,-1.0,0.04451642666151604,1.0
39.73613357543945,-9.117973327636719,0.04867839813232422,-0.0,-0.0,-1.0,0.0911311601528503,2.0
41.1158332824707,-8.804627418518066,-0.01734769344329834,-0.0,-0.0,-1.0,0.20739504599769684,2.0
40.66969299316406,-9.304155349731445,-0.053125858306884766,-0.9753441159403079,-0.16022200232091727,-0.15176549500098802,0.13635295668915098,4.0
40.028709411621094,-8.716375350952148,-0.4277392625808716,-0.0,-0.0,-1.0,0.04603859989981601,1.0
39.75762939453125,-8.882551193237305,-0.4395613670349121,-0.0,-0.0,-1.0,0.07726875998915969,2.0
40.14922332763672,-8.939722061157227,-0.4973616600036621,-0.0,-0.0,-1.0,0.13830458353585395,1.0
40.01763916015625,-9.197364807128906,-0.41783607006073,-0.0,-0.0,-1.0,0.23018055360323897,2.0
40.241554260253906,-9.361063957214355,-0.35394394397735596,-0.8173896349956083,-0.018371874672874253,0.5757922010784362,0.17524968925644402,3.0
40.07133483886719,-9.68789291381836,-0.4078632593154907,-0.0,-0.0,-1.0,0.16357943499618782,1.0
39.75365447998047,-10.144721984863281,-0.48062610626220703,-0.025377301052246965,-0.40048807148355214,-0.915950488394809,0.12340986428354202,3.0
40.090763092041016,-9.98564338684082,-0.4745371341705322,0.2755622759425079,0.8714400323623632,-0.4057803618630012,0.062196951433203085,3.0
39.91386413574219,-10.124649047851562,-0.48939061164855957,-0.0,-0.0,-1.0,0.0570910685802929,2.0
39.917152404785156,-8.409360885620117,-0.3383371829986572,-0.0,-0.0,-1.0,0.11196534426651247,1.0
39.731624603271484,-9.079177856445312,-0.1245269775390625,-0.43911375896595484,-0.17621346383992728,-0.8809812267286539,0.10122451035816457,4.0
40.094268798828125,-9.311966896057129,-0.3286176919937134,-0.0,-0.0,-1.0,0.28728552294063364,2.0
40.279605865478516,-9.490377426147461,-0.25243043899536133,-0.0,-0.0,-1.0,0.1837847500318226,2.0
40.057212829589844,-9.487273216247559,-0.10628485679626465,-0.0,-0.0,-1.0,0.2289858686255035,1.0
40.3348388671875,-9.736095428466797,-0.17519724369049072,-0.0,-0.0,-1.0,0.15907393770192738,2.0
40.28562545776367,-9.825666427612305,-0.1872023344039917,-0.0,-0.0,-1.0,0.13153449570629527,1.0
39.87824630737305,-10.312336921691895,-0.2445305585861206,-0.0,-0.0,-1.0,0.0885392924252489,2.0
40.4108772277832,-10.268352508544922,0.0056105852127075195,-0.0,-0.0,-1.0,0.23422445179139864,2.0
41.580841064453125,-8.81293773651123,-0.259989857673645,-0.5524274051403114,0.6340056773150979,-0.5411661142220253,0.05967753273277003,5.0
41.560638427734375,-8.828632354736328,-0.25850653648376465,0.2568677123621056,-0.9328914873855692,-0.2524528690852995,0.05792631135920682,4.0
40.9674186706543,-8.60390853881836,-0.38942861557006836,-0.0,-0.0,-1.0,0.1254833069783371,2.0
41.61871337890625,-8.986833572387695,-0.287295937538147,-0.0,-0.0,-1.0,0.06404439744376271,1.0
41.553443908691406,-8.969125747680664,-0.2743358612060547,-0.0,-0.0,-1.0,0.07254992157476862,1.0
41.61522674560547,-8.509599685668945,-0.23004794120788574,-0.6726721150401269,0.20700168277658476,-0.7103960367112873,0.15003918379412068,3.0
41.373111724853516,-8.716652870178223,-0.08207619190216064,-0.0,-0.0,-1.0,0.10915376284827698,1.0
40.641075134277344,-10.259291648864746,-0.014256596565246582,-0.0,-0.0,-1.0,0.22070217061845301,1.0
40.12028503417969,-9.206550598144531,-0.39438021183013916,-0.0,-0.0,-1.0,0.22012789808284688,1.0
40.17338943481445,-9.775668144226074,-0.5247082710266113,-0.0,-0.0,-1.0,0.11394720312750033,1.0
40.09272766113281,-9.870500564575195,-0.5379084348678589,-0.0,-0.0,-1.0,0.0897672881953943,1.0
40.22312927246094,-9.012770652770996,-0.36387574672698975,-0.0,-0.0,-1.0,0.1646417336219174,1.0
39.74879455566406,-8.945687294006348,-0.05791330337524414,-0.0,-0.0,-1.0,0.0863506249895633,1.0
40.1695556640625,-9.153091430664062,-0.2590566873550415,-0.1673755261614559,-0.1398921353514098,-0.975917836556438,0.1416059688726683,3.0
39.83615493774414,-9.055774688720703,-0.3313347101211548,-0.0,-0.0,-1.0,0.24361028841151633,1.0
40.90218734741211,-9.91901969909668,-0.33985257148742676,-0.0,-0.0,-1.0,0.047762222403587865,2.0
40.397457122802734,-9.62788200378418,-0.24122655391693115,-0.0,-0.0,-1.0,0.2283648795703852,2.0
40.312294006347656,-9.590593338012695,-0.2269824743270874,-0.0,-0.0,-1.0,0.15093591599456763,1.0
40.4559211730957,-10.133298873901367,-0.054857850074768066,-0.0,-0.0,-1.0,0.31250011901820096,1.0
41.26966857910156,-8.527589797973633,-0.3471560478210449,-0.0,-0.0,-1.0,0.10471364822135854,2.0
41.082366943359375,-8.506268501281738,-0.3175276517868042,-0.0,-0.0,-1.0,0.13127695256324626,2.0
41.65068054199219,-8.411020278930664,-0.2900329828262329,-0.0,-0.0,-1.0,0.20620370384643522,2.0
41.65756607055664,-8.479741096496582,-0.29693901538848877,0.6371058452163529,0.5031060700083143,-0.5839352912026692,0.2019035901929376,4.0
40.56278610229492,-8.692422866821289,-0.38368499279022217,-0.0,-0.0,-1.0,0.11518524763409531,1.0
40.341976165771484,-8.672712326049805,-0.33258724212646484,-0.4867411865006267,-0.4280208517634811,-0.7614992894413143,0.2113753825867363,3.0
40.626583099365234,-8.808198928833008,-0.3942960500717163,-0.0,-0.0,-1.0,0.10338045338624048,1.0
40.275184631347656,-8.570920944213867,-0.030216097831726074,-0.12950865329135552,-0.8304862878135495,-0.5417748928072706,0.22611616551283426,7.0
41.07477569580078,-9.054866790771484,-0.16651630401611328,-0.0,-0.0,-1.0,0.13443581289925938,1.0
40.5255012512207,-10.225212097167969,-0.008806705474853516,-0.0,-0.0,-1.0,0.2563242205801017,2.0
40.406280517578125,-8.505805969238281,-0.38962626457214355,-0.0,-0.0,-1.0,0.1617244874416813,1.0
40.23216247558594,-8.628096580505371,-0.37579524517059326,-0.0,-0.0,-1.0,0.27193917988697885,1.0
41.534217834472656,-8.5100736618042,-0.2483837604522705,-0.2719745435638079,0.9463795505856551,-0.17434332188687995,0.1283599894315277,3.0
40.834747314453125,-8.944624900817871,-0.2027956247329712,-0.0,-0.0,-1.0,0.189306061885108,1.0
40.325435638427734,-8.8489351272583,-0.4211716651916504,0.15848131238240334,0.5638166408317675,-0.8105519533914731,0.2301233867277612,3.0
41.60560607910156,-8.845781326293945,-0.29601550102233887,-0.0,-0.0,-1.0,0.06911797151972356,1.0
41.27653121948242,-8.981016159057617,-0.2669566869735718,-0.0,-0.0,-1.0,0.23225564555919306,2.0
40.890533447265625,-9.004753112792969,-0.2176973819732666,-0.6543986037928684,0.28094979257704417,-0.7020182913606029,0.17927480356281186,5.0
40.20269775390625,-8.581522941589355,-0.07352232933044434,-0.0,-0.0,-1.0,0.2045322325248106,1.0
41.25872039794922,-9.157794952392578,-0.3666267395019531,-0.0,-0.0,-1.0,0.06298214066532025,1.0
41.36126708984375,-8.824224472045898,-0.3662678003311157,-0.0,-0.0,-1.0,0.09516843645185907,1.0
41.133636474609375,-8.625930786132812,-0.335129976272583,-0.0,-0.0,-1.0,0.16674408045164235,1.0
41.04998779296875,-8.379572868347168,-0.31838178634643555,-0.2508362038755646,-0.9674757613715514,-0.03273912008337356,0.12031449638014781,4.0
40.89728546142578,-9.024619102478027,-0.3232537508010864,-0.0,-0.0,-1.0,0.16152520102832318,1.0
40.50325012207031,-8.477422714233398,-0.26189732551574707,-0.6790172881964109,-0.5392516891131413,-0.4981396773185373,0.19453629182748872,3.0
40.42110061645508,-9.141316413879395,-0.2773151397705078,-0.0,-0.0,-1.0,0.1477172106623225,2.0
40.458866119384766,-8.906490325927734,-0.27230143547058105,-0.0,-0.0,-1.0,0.14547849136739133,2.0
40.21661376953125,-8.547286987304688,-0.2334458827972412,-0.0,-0.0,-1.0,0.10324978377463716,1.0
40.139156341552734,-9.183079719543457,-0.24954438209533691,-0.1673755261614559,-0.1398921353514098,-0.975917836556438,0.15235125738432193,3.0
39.85197448730469,-9.014719009399414,-0.2127770185470581,-0.0,-0.0,-1.0,0.19636710776805016,2.0
41.2166748046875,-8.836177825927734,-0.17310261726379395,-0.0,-0.0,-1.0,0.20538776928471097,1.0
39.75228500366211,-10.234946250915527,-0.3199852705001831,-0.0,-0.0,-1.0,0.06838883872102103,1.0
40.4009895324707,-8.654313087463379,-0.46596014499664307,-0.0,-0.0,-1.0,0.14517967987776417,1.0
40.30503845214844,-9.403855323791504,-0.41988515853881836,-0.0,-0.0,-1.0,0.18038811587331907,2.0
40.23173522949219,-10.177691459655762,-0.37448811531066895,-0.40766656326934464,0.9097016685855631,-0.0790623005281514,0.14960547097511212,3.0
40.49498748779297,-8.90006160736084,-0.46428680419921875,-0.0,-0.0,-1.0,0.10666485923992512,1.0
40.42631530761719,-9.766911506652832,-0.4153507947921753,-0.0,-0.0,-1.0,0.21330661463114345,2.0
40.55754089355469,-10.136323928833008,-0.05615067481994629,-0.0,-0.0,-1.0,0.269759651054311,1.0
40.741607666015625,-9.131927490234375,-0.14321696758270264,-0.0,-0.0,-1.0,0.2035573611825985,2.0
40.54232406616211,-9.784954071044922,-0.07793283462524414,-0.0,-0.0,-1.0,0.10800968557376393,1.0
41.107521057128906,-8.79256820678711,-0.20571506023406982,-0.0,-0.0,-1.0,0.22493466842333845,2.0
41.094879150390625,-8.944568634033203,-0.19425737857818604,-0.0,-0.0,-1.0,0.14026524151219813,1.0
41.357147216796875,-8.68557357788086,-0.24004137516021729,-0.0,-0.0,-1.0,0.1532632973807407,1.0
39.87085723876953,-9.181774139404297,-0.18311262130737305,-0.0,-0.0,-1.0,0.12703591040610931,1.0
40.639129638671875,-9.220542907714844,-0.22408819198608398,-0.0,-0.0,-1.0,0.19244262750519758,2.0
40.88788604736328,-8.952646255493164,-0.2359086275100708,-0.0,-0.0,-1.0,0.22465821335950514,2.0
40.06395721435547,-10.238882064819336,-0.4545358419418335,-0.0,-0.0,-1.0,0.12125875080800927,2.0
40.21147155761719,-10.133798599243164,-0.4702763557434082,-0.0,-0.0,-1.0,0.06639043951518575,1.0
41.20168685913086,-8.745142936706543,0.010412931442260742,0.45980861595282685,-0.7103365964783646,0.532914586401122,0.19669285316003524,3.0
39.793270111083984,-9.142148971557617,-0.20892107486724854,-0.0,-0.0,-1.0,0.17109540825838568,2.0
40.15351486206055,-9.329177856445312,-0.23502123355865479,0.6402946014458133,0.6103502422551577,-0.46636402641972513,0.22668464623179657,3.0
40.251380920410156,-9.263790130615234,-0.24434077739715576,-0.7762171728730721,-0.6258845196320587,0.0758648048958304,0.24794537270930497,3.0
40.49807357788086,-9.119205474853516,-0.2674744129180908,0.9889970844870346,0.1267523668268956,0.07627977700495352,0.16619778110728506,3.0
41.17198181152344,-9.359550476074219,-0.31848275661468506,0.5849879703562187,-0.8092658784748264,-0.05364524652640729,0.05589535188029415,3.0
40.53362274169922,-8.49664306640625,-0.2824918031692505,-0.0,-0.0,-1.0,0.15689614295510904,2.0
40.97718811035156,-8.594173431396484,-0.3172973394393921,-0.6372329219041257,0.15412959970632267,-0.7551014963141706,0.14018115226593703,3.0
41.356651306152344,-9.06890869140625,-0.33941853046417236,-0.0,-0.0,-1.0,0.11646534632702968,1.0
41.069313049316406,-8.456792831420898,-0.3276273012161255,-0.0,-0.0,-1.0,0.14413889725668552,1.0
41.38318634033203,-8.507631301879883,-0.35264432430267334,-0.0,-0.0,-1.0,0.05769683725563549,2.0
40.07524871826172,-10.246586799621582,-0.39765357971191406,-0.0,-0.0,-1.0,0.12259629683818579,1.0
40.387184143066406,-10.318329811096191,-0.42187023162841797,-0.0,-0.0,-1.0,0.07775342398070291,1.0
40.0505485534668,-9.403975486755371,-0.3982722759246826,-0.0,-0.0,-1.0,0.22451396522636233,1.0
40.27908706665039,-9.766997337341309,-0.4150736331939697,-0.0,-0.0,-1.0,0.2426317981877554,2.0
40.46577453613281,-10.168892860412598,-0.42848098278045654,-0.0,-0.0,-1.0,0.1196011176222115,2.0
39.984710693359375,-9.126448631286621,-0.3939870595932007,-0.0,-0.0,-1.0,0.2118575175330424,1.0
40.1253662109375,-8.480818748474121,-0.4072157144546509,-0.0,-0.0,-1.0,0.10564021021447886,1.0
40.281585693359375,-8.832501411437988,-0.4183140993118286,0.15848131238240334,0.5638166408317675,-0.8105519533914731,0.25351975279016525,3.0
40.22677993774414,-8.433148384094238,-0.41537654399871826,-0.0,-0.0,-1.0,0.19763905381401464,1.0
39.89714050292969,-10.311776161193848,-0.10823643207550049,-0.0,-0.0,-1.0,0.1447247587602573,2.0
40.46153259277344,-10.28528118133545,-0.1550360918045044,-0.0,-0.0,-1.0,0.18317055620760556,1.0
39.77802658081055,-9.057969093322754,-0.12016177177429199,-0.0,-0.0,-1.0,0.12096859166053096,2.0
40.225311279296875,-9.203007698059082,-0.15447819232940674,-0.0,-0.0,-1.0,0.18749838188851606,2.0
40.644256591796875,-9.243817329406738,-0.18832361698150635,0.4916755968781008,-0.695938979975341,-0.5233775344676587,0.16083815946343855,3.0
40.25035858154297,-8.676514625549316,-0.16585206985473633,-0.0,-0.0,-1.0,0.18540954313589297,2.0
40.912864685058594,-8.456006050109863,-0.2246164083480835,-0.0,-0.0,-1.0,0.14804595886792662,1.0
41.430503845214844,-8.818955421447754,-0.2609676122665405,0.600093158352013,-0.3599131757778486,-0.7143883448101669,0.06721974643801717,4.0
40.088134765625,-10.008267402648926,-0.3905768394470215,-0.0,-0.0,-1.0,0.06636794715334668,1.0
40.03068542480469,-9.58027172088623,-0.3708360195159912,-0.0,-0.0,-1.0,0.2008758269714333,1.0
40.17582702636719,-9.064322471618652,-0.3591231107711792,-0.0,-0.0,-1.0,0.12045573088826429,2.0
40.227962493896484,-9.353240013122559,-0.37298905849456787,-0.8173896349956083,-0.018371874672874253,0.5757922010784362,0.1418093228104587,3.0
40.32609176635742,-8.77275562286377,-0.3565422296524048,-0.0,-0.0,-1.0,0.22487298422016222,2.0
40.72881317138672,-8.871150016784668,-0.3828166723251343,-0.0,-0.0,-1.0,0.07830196957918789,1.0
40.86486053466797,-8.705044746398926,-0.38438165187835693,-0.0,-0.0,-1.0,0.09285633629309144,1.0
40.13263702392578,-10.095568656921387,-0.2921314239501953,-0.0,-0.0,-1.0,0.1275097675961796,1.0
40.35235595703125,-10.197859764099121,-0.30575454235076904,-0.0,-0.0,-1.0,0.13917380196529572,1.0
40.326416015625,-9.135137557983398,-0.2470608949661255,-0.032047729521018836,-0.3652389243597382,-0.9303620108135807,0.1893592454371236,3.0
40.52458190917969,-9.552977561950684,-0.27699530124664307,-0.0,-0.0,-1.0,0.17949424533707437,1.0
40.49345779418945,-9.637516975402832,-0.28040432929992676,-0.0,-0.0,-1.0,0.25410342987929,1.0
40.53855895996094,-9.01081371307373,-0.2484341859817505,-0.0,-0.0,-1.0,0.12943103416674784,1.0
40.49297332763672,-9.185016632080078,-0.2560138702392578,0.6071538089060935,-0.5482681556185945,-0.5751228406744141,0.08953193796832709,4.0
41.11700439453125,-10.353869438171387,-0.34240710735321045,-0.0,-0.0,-1.0,0.09633196755929545,1.0
40.79692077636719,-8.9096097946167,-0.25291335582733154,-0.0,-0.0,-1.0,0.12717550906115413,1.0
40.807403564453125,-9.034912109375,-0.25995445251464844,-0.0,-0.0,-1.0,0.16360301382691458,1.0
39.99815368652344,-8.942158699035645,-0.22435081005096436,-0.0,-0.0,-1.0,0.16937663050813803,1.0
40.51318359375,-8.439474105834961,-0.21717894077301025,-0.0,-0.0,-1.0,0.12393810285530972,1.0
39.89628219604492,-9.087858200073242,0.14379727840423584,-0.0,-0.0,-1.0,0.15102491267117824,1.0
40.30091094970703,-8.569770812988281,0.027229905128479004,-0.0,-0.0,-1.0,0.1929428499129024,2.0
40.443607330322266,-10.188390731811523,-0.011513113975524902,0.3504622181288827,-0.672037450628925,-0.6523357253871341,0.28300500908670245,3.0
41.13334274291992,-8.744202613830566,-0.024119973182678223,-0.0,-0.0,-1.0,0.21363696071350508,2.0
40.93352508544922,-8.986764907836914,-0.15895366668701172,-0.0,-0.0,-1.0,0.2023456544077087,2.0
40.93836212158203,-8.898588180541992,-0.15974938869476318,-0.0,-0.0,-1.0,0.10562240566517257,2.0
41.59355163574219,-8.539812088012695,-0.21832740306854248,-0.6726721150401269,0.20700168277658476,-0.7103960367112873,0.13565720428450864,3.0
41.6878547668457,-8.69572639465332,-0.22580289840698242,-0.22155385981812512,-0.30124187097576394,-0.9274520054270793,0.09219949648547843,3.0
41.641014099121094,-9.033458709716797,-0.2201777696609497,-0.0,-0.0,-1.0,0.05984384914923249,1.0
39.7985954284668,-9.07689094543457,-0.03305816650390625,-0.0,-0.0,-1.0,0.09444919663229097,2.0
40.25465393066406,-8.560799598693848,-0.06776511669158936,-0.5397145867214566,-0.8418404122990812,0.00358958217625847,0.19485872624139222,4.0
40.38243865966797,-9.413451194763184,-0.08076703548431396,-0.0,-0.0,-1.0,0.1506603940191819,1.0
40.45277404785156,-10.274139404296875,-0.08957064151763916,0.371962503322588,-0.7879285922431137,0.4907264305575748,0.23972624248290275,4.0
40.95417404174805,-8.950457572937012,-0.12492775917053223,-0.0,-0.0,-1.0,0.12353205006151564,2.0
40.621803283691406,-9.240431785583496,-0.09927225112915039,-0.13411047127361528,-0.08528054188245307,-0.9872900337140065,0.13820029617290375,5.0
41.21769714355469,-8.781171798706055,-0.14554834365844727,-0.0,-0.0,-1.0,0.15836896959390168,2.0
39.807064056396484,-9.137537002563477,-0.1771690845489502,-0.14824177170226205,-0.9480752898101473,-0.2813851843540802,0.12344227981736976,4.0
39.99284362792969,-9.340829849243164,-0.19631552696228027,-0.0,-0.0,-1.0,0.20345584418741156,1.0
39.84010314941406,-10.300018310546875,-0.20883429050445557,-0.500073332706206,0.8022887819929321,-0.32597449624841146,0.10179963959460003,3.0
40.18547058105469,-8.598678588867188,-0.19279909133911133,-0.0,-0.0,-1.0,0.08585781884926708,2.0
40.39810562133789,-9.00613784790039,-0.21892285346984863,-0.0,-0.0,-1.0,0.09198412944041477,1.0
40.26185989379883,-9.35830307006836,-0.2172030210494995,-0.0,-0.0,-1.0,0.19123127611346,1.0
40.329498291015625,-9.896635055541992,-0.23569250106811523,-0.0,-0.0,-1.0,0.10571011372346187,1.0
40.3763427734375,-10.258501052856445,-0.24831676483154297,-0.0,-0.0,-1.0,0.07168151472940479,1.0
40.46384048461914,-8.535343170166016,-0.21252799034118652,-0.0,-0.0,-1.0,0.20144651353568482,1.0
40.57863235473633,-9.159614562988281,-0.2364199161529541,-0.48648987237560964,-0.6379902269991815,-0.5969054148937633,0.10776735810112617,4.0
40.83768844604492,-9.242134094238281,-0.25817394256591797,-0.0,-0.0,-1.0,0.18913839960204318,1.0
41.53099060058594,-8.64511489868164,-0.29680490493774414,0.11752769818977651,0.8501264098934084,-0.5132955555622492,0.10399858430608022,4.0
41.377891540527344,-8.937784194946289,-0.2920675277709961,0.4343475629976024,0.10933210583752555,-0.8940853903018303,0.1175408213901689,3.0
40.352378845214844,-8.610420227050781,-0.08090686798095703,-0.0,-0.0,-1.0,0.2159418755488182,1.0
40.401451110839844,-9.91685676574707,-0.08090579509735107,-0.0,-0.0,-1.0,0.11472381443339016,2.0
40.45833969116211,-10.268170356750488,-0.08500552177429199,0.371962503322588,-0.7879285922431137,0.4907264305575748,0.23972624248290275,4.0
40.65767288208008,-9.227445602416992,-0.10613775253295898,0.4229327020516913,-0.7347349256863155,0.5303701712125024,0.16569764443184848,4.0
41.22332000732422,-8.781750679016113,-0.1587979793548584,-0.0,-0.0,-1.0,0.17872204262593283,2.0
39.808345794677734,-10.252790451049805,-0.4175527095794678,-0.0,-0.0,-1.0,0.10246926665524987,2.0
39.97454833984375,-9.054330825805664,-0.3850860595703125,0.49071744308759446,0.07043927881022485,-0.8684668669847279,0.25322823302232816,3.0
40.16495895385742,-9.445369720458984,-0.4246821403503418,-0.0,-0.0,-1.0,0.2054349300226865,2.0
40.28596496582031,-9.80190372467041,-0.4546997547149658,-0.0,-0.0,-1.0,0.21321025149244427,2.0
40.195064544677734,-10.040385246276855,-0.45427417755126953,-0.0,-0.0,-1.0,0.0842226601897318,2.0
40.27842712402344,-8.538536071777344,-0.4017817974090576,-0.0,-0.0,-1.0,0.17607038859194546,1.0
40.36960220336914,-9.740742683410645,-0.4621717929840088,-0.0,-0.0,-1.0,0.14915148866560538,1.0
39.78059005737305,-9.137717247009277,0.02576625347137451,-0.0,-0.0,-1.0,0.11775641605384095,2.0
39.92524337768555,-10.343050956726074,-0.028158903121948242,-0.0,-0.0,-1.0,0.1447247587602572,1.0
40.25804901123047,-8.638833045959473,-0.011506199836730957,0.8992838813513648,-0.20824646138317374,0.38460617787941287,0.21544586915247893,5.0
40.43056106567383,-9.938410758972168,-0.06932246685028076,-0.0,-0.0,-1.0,0.14119161022875432,2.0
40.43055725097656,-10.278651237487793,-0.08020186424255371,0.371962503322588,-0.7879285922431137,0.4907264305575748,0.23972624248290264,4.0
40.67909240722656,-9.276395797729492,-0.07595884799957275,-0.6708488804342819,-0.22804422802245905,-0.7056611153278262,0.10770229445817302,4.0
41.19344711303711,-8.839015007019043,-0.11947870254516602,0.9207938836024258,0.16622722965358067,0.35285568160659936,0.15973434977582093,3.0
39.756202697753906,-9.073775291442871,-0.1399911642074585,-0.061377722688044395,0.044883493939405064,-0.9971049328578316,0.10108935167663613,5.0
39.827972412109375,-10.322010040283203,-0.130426287651062,-0.0,-0.0,-1.0,0.14610712397584835,2.0
39.82661056518555,-9.163411140441895,-0.14843904972076416,-0.24157128455503923,-0.7970614455704296,-0.5534766178110918,0.12391293763484335,3.0
40.038230895996094,-9.372520446777344,-0.17491066455841064,-0.0,-0.0,-1.0,0.2181262913174043,1.0
40.221824645996094,-9.514105796813965,-0.19857442378997803,-0.0,-0.0,-1.0,0.12118976218669307,1.0
40.3452033996582,-10.20630931854248,-0.20498335361480713,-0.0,-0.0,-1.0,0.101605855251616,1.0
40.43736267089844,-8.501518249511719,-0.24786794185638428,-0.0,-0.0,-1.0,0.21970177987503567,1.0
40.35597610473633,-8.833897590637207,-0.22979533672332764,-0.0,-0.0,-1.0,0.16809344688226271,1.0
40.41949462890625,-9.247847557067871,-0.23130381107330322,-0.0,-0.0,-1.0,0.13382906732652833,1.0
