x,y,z,nx,ny,nz,curvature,density
53.982521057128906,9.849325180053711,-2.0065860748291016,-0.0,-0.0,-1.0,0.028991888174600536,1.0
53.830352783203125,11.619205474853516,-1.9542722702026367,-0.0,-0.0,-1.0,0.08063703986048235,1.0
53.86480712890625,9.871382713317871,-2.0338146686553955,-0.0,-0.0,-1.0,0.08521561120589947,2.0
55.593772888183594,11.196043014526367,-2.0879721641540527,-0.0,-0.0,-1.0,0.07289923260151171,1.0
53.71290588378906,10.89187240600586,-1.7190039157867432,-0.0,-0.0,-1.0,0.04199005318443731,1.0
54.996360778808594,9.99724006652832,-1.8618011474609375,-0.0,-0.0,-1.0,0.06458089300326926,2.0
55.145782470703125,10.626485824584961,-1.888023853302002,-0.10251602965961286,0.48883252253744797,-0.8663332087439016,0.07353375126679505,4.0
53.85344696044922,10.11927604675293,-2.040328025817871,-0.0,-0.0,-1.0,0.09664613493751503,2.0
55.447898864746094,10.906429290771484,-1.9068537950515747,-0.0,-0.0,-1.0,0.10823325279847104,1.0
53.71415710449219,10.06403923034668,-1.8202309608459473,-0.0,-0.0,-1.0,0.10981634678092582,2.0
54.38750076293945,11.44764518737793,-1.947303295135498,-0.0,-0.0,-1.0,0.010532621863395087,1.0
53.82725524902344,11.376100540161133,-1.7956907749176025,-0.0,-0.0,-1.0,0.07758980034657234,1.0
53.863067626953125,9.9994478225708,-1.9683210849761963,-0.0,-0.0,-1.0,0.11314873441633748,2.0
55.288421630859375,9.687677383422852,-1.9250237941741943,0.41612040679043966,0.2018378687543987,-0.8866257845276331,0.01999310206575203,3.0
55.49525451660156,10.926895141601562,-1.923710584640503,-0.0,-0.0,-1.0,0.10694364841544034,1.0
53.83356857299805,11.404973983764648,-1.8611998558044434,-0.0,-0.0,-1.0,0.07758980034657235,1.0
55.02424240112305,10.040868759155273,-1.9025675058364868,0.79297038305557,-0.4298824264928622,-0.4317395870073892,0.0687286865733417,3.0
55.124298095703125,10.629627227783203,-1.8843907117843628,-0.10251602965961286,0.48883252253744797,-0.8663332087439016,0.07694674956498918,4.0
55.3438720703125,10.86837387084961,-1.9311062097549438,0.8830008143626766,-0.0007221329716736121,-0.46937089850013175,0.08713974295309251,4.0
55.62141036987305,11.039833068847656,-2.0013132095336914,-0.0,-0.0,-1.0,0.08192224369835051,2.0
54.580535888671875,9.755888938903809,-1.942635416984558,-0.0,-0.0,-1.0,0.14803253768367797,1.0
54.900230407714844,9.946349143981934,-1.9608635902404785,-0.0,-0.0,-1.0,0.05213866054870209,1.0
53.812808990478516,10.553885459899902,-1.9315953254699707,-0.0,-0.0,-1.0,0.08841932662524504,1.0
55.21608352661133,10.657276153564453,-1.965134620666504,-0.0,-0.0,-1.0,0.048413890122838824,1.0
54.584800720214844,9.887136459350586,-1.8408641815185547,-0.0,-0.0,-1.0,0.14193552224049488,1.0
54.162147521972656,11.543462753295898,-1.986063003540039,-0.0,-0.0,-1.0,0.022857107239484455,2.0
54.369380950927734,9.71035385131836,-1.7093791961669922,-0.0,-0.0,-1.0,0.18194161352604257,1.0
54.42764663696289,9.877355575561523,-1.707784652709961,-0.0,-0.0,-1.0,0.1737218442672195,1.0
54.70037841796875,10.118440628051758,-1.7199525833129883,-0.0,-0.0,-1.0,0.10053933715643787,1.0
53.847373962402344,11.612831115722656,-1.6015563011169434,-0.0,-0.0,-1.0,0.07523203162291153,1.0
54.22533416748047,9.843160629272461,-1.9572439193725586,-0.0,-0.0,-1.0,0.07847411535585021,1.0
54.4566764831543,9.911888122558594,-1.982994556427002,-0.0,-0.0,-1.0,0.03751552398864036,2.0
54.19516372680664,10.439191818237305,-1.9604830741882324,-0.0,-0.0,-1.0,0.021870349757859484,1.0
53.7392578125,11.62409782409668,-1.9250826835632324,-0.0,-0.0,-1.0,0.07758980034657238,1.0
54.545440673828125,9.713668823242188,-1.8929743766784668,-0.0,-0.0,-1.0,0.20724154902075714,2.0
54.74322509765625,9.890901565551758,-1.9076166152954102,-0.0,-0.0,-1.0,0.06432146250695281,1.0
55.20549011230469,10.765531539916992,-1.9338855743408203,-0.0,-0.0,-1.0,0.05629308015155408,1.0
54.923370361328125,9.933145523071289,-1.86911940574646,-0.0,-0.0,-1.0,0.06631260985590995,1.0
55.09947967529297,10.255045890808105,-1.8913171291351318,-0.0,-0.0,-1.0,0.08426668568420548,1.0
54.972747802734375,10.075225830078125,-1.875713586807251,-0.0,-0.0,-1.0,0.06966286308791671,1.0
55.32642364501953,11.014642715454102,-1.9231078624725342,-0.0,-0.0,-1.0,0.07643732202235427,1.0
54.70404815673828,9.900943756103516,-2.020500659942627,-0.0,-0.0,-1.0,0.0355907005117712,1.0
54.618919372558594,9.643470764160156,-2.0028061866760254,-0.0,-0.0,-1.0,0.09177285640670935,1.0
54.91831970214844,11.423314094543457,-2.0909862518310547,-0.0,-0.0,-1.0,0.036149468829958245,1.0
55.633033752441406,10.856558799743652,-2.163540840148926,-0.0,-0.0,-1.0,0.08342415952374312,1.0
55.10599136352539,10.322372436523438,-1.7559254169464111,-0.0,-0.0,-1.0,0.08715350443538407,1.0
54.520748138427734,10.086591720581055,-1.9858863353729248,-0.0,-0.0,-1.0,0.02884594340388309,2.0
54.495967864990234,10.410791397094727,-1.994189977645874,-0.0,-0.0,-1.0,0.02968893106958703,1.0
54.04975128173828,11.4022216796875,-1.9639666080474854,-0.0,-0.0,-1.0,0.029083950745462533,1.0
54.781951904296875,11.62611198425293,-2.088541269302368,-0.0,-0.0,-1.0,0.029343833801707842,1.0
53.720367431640625,11.56591796875,-1.9191324710845947,-0.0,-0.0,-1.0,0.0775898003465723,1.0
54.43733215332031,9.640560150146484,-1.9483435153961182,-0.0,-0.0,-1.0,0.20578482140683865,1.0
54.386505126953125,10.071759223937988,-1.9551079273223877,-0.0,-0.0,-1.0,0.01306868881049504,1.0
54.488887786865234,10.04835319519043,-1.9707000255584717,-0.0,-0.0,-1.0,0.07274621396117752,2.0
53.911495208740234,10.591886520385742,-1.8975675106048584,-0.512946971304905,0.7387197191125026,-0.43723972969467245,0.09236953147412184,3.0
54.33927917480469,10.343154907226562,-1.9572570323944092,-0.0,-0.0,-1.0,0.012789770639453827,1.0
53.77849578857422,11.42855453491211,-1.9085705280303955,-0.0,-0.0,-1.0,0.07758980034657234,1.0
54.02505874633789,11.483291625976562,-1.9506700038909912,-0.0,-0.0,-1.0,0.0844877232101708,1.0
54.768943786621094,9.66784954071045,-1.8298470973968506,-0.0,-0.0,-1.0,0.08871480774579733,1.0
54.98277282714844,9.712310791015625,-1.8663203716278076,-0.0,-0.0,-1.0,0.0387394184132198,1.0
55.01806640625,10.010885238647461,-1.8840563297271729,-0.5527754458384121,-0.35236397019770266,-0.755168152787614,0.06284121531264446,3.0
55.09443664550781,10.353780746459961,-1.9106543064117432,-0.0,-0.0,-1.0,0.10589826567851156,1.0
55.659820556640625,10.909226417541504,-2.0272181034088135,-0.0,-0.0,-1.0,0.0819222436983505,1.0
55.61430740356445,11.021591186523438,-2.024836301803589,-0.0,-0.0,-1.0,0.08192224369835052,2.0
53.85823059082031,10.018930435180664,-1.9902944564819336,-0.0,-0.0,-1.0,0.11314873441633747,2.0
53.759666442871094,10.23204517364502,-1.9803667068481445,-0.0,-0.0,-1.0,0.12071336551808924,1.0
55.059200286865234,10.418187141418457,-1.7881191968917847,-0.0,-0.0,-1.0,0.10732081431211417,1.0
54.54878234863281,9.91147232055664,-1.9461750984191895,-0.0,-0.0,-1.0,0.14704611370429915,1.0
54.54480743408203,10.145185470581055,-1.9533884525299072,-0.0,-0.0,-1.0,0.052217953241497805,1.0
54.472625732421875,10.430030822753906,-1.951936960220337,-0.0,-0.0,-1.0,0.026634040212952653,1.0
55.647308349609375,11.489700317382812,-2.1774938106536865,-0.0,-0.0,-1.0,0.0980321323997401,1.0
54.81101989746094,11.586761474609375,-2.0495223999023438,-0.0,-0.0,-1.0,0.028825381682562098,1.0
53.72077178955078,9.989639282226562,-1.8199493885040283,-0.0,-0.0,-1.0,0.1098113634260183,1.0
53.761512756347656,11.574531555175781,-1.8835232257843018,-0.0,-0.0,-1.0,0.0775898003465723,2.0
54.13344955444336,11.437721252441406,-1.936643362045288,-0.0,-0.0,-1.0,0.024335721841283738,1.0
54.28641128540039,9.674564361572266,-1.9727575778961182,-0.0,-0.0,-1.0,0.10766375103734058,2.0
53.95699691772461,10.094196319580078,-1.92885160446167,-0.0,-0.0,-1.0,0.06024827674621169,2.0
53.922752380371094,10.41066837310791,-1.9318172931671143,-0.0,-0.0,-1.0,0.036972773292964174,1.0
53.787086486816406,11.516019821166992,-1.9434421062469482,-0.0,-0.0,-1.0,0.07758980034657238,1.0
53.78300857543945,9.736210823059082,-2.0171265602111816,-0.0,-0.0,-1.0,0.08760649192480938,2.0
53.76887512207031,10.066791534423828,-2.0159223079681396,-0.0,-0.0,-1.0,0.1014672574226615,1.0
55.66287612915039,10.979247093200684,-2.0988399982452393,-0.0,-0.0,-1.0,0.08192224369835047,1.0
54.57551574707031,9.697042465209961,-1.8846068382263184,-0.0,-0.0,-1.0,0.1962066409496655,2.0
54.9020881652832,9.864408493041992,-1.9462664127349854,-0.0,-0.0,-1.0,0.03591895664682201,1.0
54.953269958496094,10.16308879852295,-1.9560737609863281,-0.0,-0.0,-1.0,0.07426280725573953,1.0
55.16863250732422,10.12721061706543,-1.9973530769348145,-0.0,-0.0,-1.0,0.06449653903878932,1.0
55.28358840942383,10.894302368164062,-2.0239131450653076,-0.0,-0.0,-1.0,0.0758817345456406,1.0
54.32738494873047,9.691304206848145,-1.996002197265625,-0.0,-0.0,-1.0,0.12271401815419482,2.0
54.14629364013672,10.036577224731445,-1.954413652420044,-0.0,-0.0,-1.0,0.019495925531733665,1.0
54.20341491699219,10.134407043457031,-1.9657232761383057,-0.0,-0.0,-1.0,0.017481571248766817,1.0
54.12321090698242,10.28807258605957,-1.9476649761199951,-0.0,-0.0,-1.0,0.02644259345984091,2.0
53.98212814331055,10.523316383361816,-1.916468858718872,-0.0,-0.0,-1.0,0.0648448008195648,1.0
54.13460159301758,11.36677360534668,-1.9496307373046875,-0.0,-0.0,-1.0,0.022677575365316907,1.0
54.362117767333984,11.503835678100586,-1.9997804164886475,-0.0,-0.0,-1.0,0.010532621863395078,1.0
53.793087005615234,11.593313217163086,-1.8771140575408936,-0.0,-0.0,-1.0,0.07758980034657234,2.0
55.60959243774414,11.256534576416016,-2.1640734672546387,-0.0,-0.0,-1.0,0.08129638350424287,1.0
54.61698913574219,9.669556617736816,-1.9438297748565674,-0.0,-0.0,-1.0,0.14026518603327096,1.0
54.39988327026367,10.18709945678711,-1.8923382759094238,-0.0,-0.0,-1.0,0.010673149060254308,1.0
54.66852569580078,10.073862075805664,-1.9519157409667969,-0.0,-0.0,-1.0,0.09612940821351099,1.0
54.62700271606445,10.330818176269531,-1.9415972232818604,-0.0,-0.0,-1.0,0.055233397054467934,1.0
55.12812805175781,10.929181098937988,-2.0534842014312744,-0.0,-0.0,-1.0,0.06389811119604716,1.0
55.337249755859375,11.017772674560547,-2.1007792949676514,-0.0,-0.0,-1.0,0.06462575457851892,1.0
53.79634094238281,11.431581497192383,-1.7587549686431885,-0.0,-0.0,-1.0,0.07758980034657238,1.0
55.133216857910156,11.204819679260254,-2.056519031524658,-0.0,-0.0,-1.0,0.036370084200377115,1.0
55.549522399902344,11.190155029296875,-2.1498734951019287,-0.0,-0.0,-1.0,0.08129638350424286,1.0
54.85845184326172,11.606330871582031,-1.998807668685913,-0.0,-0.0,-1.0,0.029693622735264845,1.0
55.02694320678711,9.866065979003906,-1.87056565284729,-0.0,-0.0,-1.0,0.03725327767643722,1.0
55.27163314819336,9.714189529418945,-1.9268677234649658,-0.0,-0.0,-1.0,0.0216038319346652,2.0
55.051029205322266,10.060548782348633,-1.8729639053344727,0.7610887657028004,-0.06513663705382142,-0.6453689713910225,0.060129047253451064,3.0
55.21411895751953,10.21894645690918,-1.9071266651153564,-0.0,-0.0,-1.0,0.05666715158601599,1.0
55.29328155517578,10.565022468566895,-1.9215524196624756,-0.0,-0.0,-1.0,0.047039788127637254,1.0
55.33518981933594,10.833335876464844,-1.9293479919433594,0.9052325581491957,-0.41333241753469624,0.09854099797336291,0.06953589001142893,5.0
53.729393005371094,9.870695114135742,-2.019298553466797,-0.0,-0.0,-1.0,0.08908108814126162,1.0
53.792423248291016,9.872519493103027,-2.035417079925537,-0.0,-0.0,-1.0,0.08908108814126166,1.0
55.59275817871094,9.802011489868164,-1.956569790840149,-0.0,-0.0,-1.0,0.016493144958128977,1.0
53.79397201538086,10.150146484375,-2.0235390663146973,-0.0,-0.0,-1.0,0.08582663884687111,1.0
55.50364303588867,10.166945457458496,-1.9291812181472778,-0.0,-0.0,-1.0,0.04071727122566558,1.0
53.81639862060547,10.498750686645508,-2.0155935287475586,-0.0,-0.0,-1.0,0.06192214130915997,1.0
55.43971252441406,10.691532135009766,-1.9070481061935425,-0.0,-0.0,-1.0,0.06420700941050483,2.0
55.55263137817383,10.863513946533203,-1.9319041967391968,-0.0,-0.0,-1.0,0.10259562553702634,1.0
53.88345718383789,11.565908432006836,-2.0027575492858887,-0.0,-0.0,-1.0,0.08448772321017078,1.0
55.1639404296875,10.55728530883789,-1.8442152738571167,-0.0,-0.0,-1.0,0.10621526051725856,1.0
54.27351760864258,10.020733833312988,-1.96968674659729,-0.0,-0.0,-1.0,0.012148435786149879,1.0
54.383934020996094,9.880752563476562,-2.005720853805542,-0.0,-0.0,-1.0,0.03480048817605012,1.0
53.743385314941406,10.096630096435547,-1.8262150287628174,-0.0,-0.0,-1.0,0.1098163467809258,2.0
54.30026626586914,10.30947494506836,-1.9635272026062012,-0.0,-0.0,-1.0,0.01309810467959191,2.0
54.36315155029297,10.124334335327148,-1.9885649681091309,-0.0,-0.0,-1.0,0.010970991064727448,1.0
54.351104736328125,11.18392562866211,-1.944727897644043,-0.0,-0.0,-1.0,0.017340969777835995,1.0
54.4999885559082,11.211427688598633,-1.9846827983856201,-0.0,-0.0,-1.0,0.012593867940421083,1.0
54.45872497558594,11.385162353515625,-1.968569040298462,-0.0,-0.0,-1.0,0.0120638737190389,1.0
54.987937927246094,11.459263801574707,-2.1130001544952393,-0.0,-0.0,-1.0,0.04402137190741148,1.0
55.23340606689453,10.362133026123047,-1.7132925987243652,-0.0,-0.0,-1.0,0.08038919725772606,1.0
55.591346740722656,10.918306350708008,-1.7892825603485107,-0.0,-0.0,-1.0,0.09351272049809396,1.0
53.730560302734375,11.330438613891602,-1.7707836627960205,-0.0,-0.0,-1.0,0.07682080940835274,1.0
53.927642822265625,10.00477409362793,-1.9864249229431152,-0.0,-0.0,-1.0,0.11363058176792021,1.0
54.036338806152344,9.940861701965332,-2.0230259895324707,-0.0,-0.0,-1.0,0.026451852397573274,2.0
55.46174240112305,9.879830360412598,-1.960280418395996,-0.0,-0.0,-1.0,0.01692696088382488,1.0
55.702842712402344,9.758916854858398,-2.0294697284698486,-0.0,-0.0,-1.0,0.01649314495812915,1.0
54.03810501098633,10.3130464553833,-1.9943244457244873,-0.0,-0.0,-1.0,0.03170023285306672,2.0
55.362022399902344,10.28272819519043,-1.9143552780151367,-0.0,-0.0,-1.0,0.0638022751026385,1.0
53.91775894165039,10.571064949035645,-1.940093994140625,-0.4351854175822659,0.7961963527245208,-0.42033917284964006,0.06429828989081085,4.0
53.998077392578125,10.568798065185547,-1.9638402462005615,-0.0,-0.0,-1.0,0.06640506437280284,1.0
55.44383239746094,10.75926685333252,-1.9161527156829834,-0.0,-0.0,-1.0,0.06936703279510945,1.0
54.26010513305664,11.272626876831055,-1.9975030422210693,-0.0,-0.0,-1.0,0.023761808504060997,1.0
55.67076873779297,10.9156494140625,-1.9715921878814697,-0.0,-0.0,-1.0,0.08192224369835051,1.0
53.74937438964844,11.385673522949219,-1.8369431495666504,-0.0,-0.0,-1.0,0.07029019091565447,1.0
54.2598762512207,11.44646167755127,-1.9881436824798584,-0.0,-0.0,-1.0,0.021240501805156218,1.0
54.48497772216797,11.618850708007812,-2.048527240753174,-0.0,-0.0,-1.0,0.008120513818326729,1.0
54.94601821899414,11.628711700439453,-2.1899359226226807,-0.0,-0.0,-1.0,0.030492354129911168,1.0
53.78836441040039,10.04100227355957,-1.5182523727416992,-0.0,-0.0,-1.0,0.14418154877231257,1.0
55.16252136230469,9.641331672668457,-1.9766825437545776,-0.0,-0.0,-1.0,0.02746667066701079,1.0
53.80364990234375,10.041386604309082,-1.566938042640686,-0.0,-0.0,-1.0,0.1441815487723126,1.0
54.9531364440918,9.873186111450195,-1.897922396659851,-0.0,-0.0,-1.0,0.05309601768584924,1.0
55.18480682373047,10.030084609985352,-1.9489191770553589,-0.0,-0.0,-1.0,0.027760791465482652,1.0
55.48485565185547,10.089251518249512,-2.0284347534179688,-0.0,-0.0,-1.0,0.03214964656257651,1.0
55.24043655395508,10.378381729125977,-1.936484932899475,-0.0,-0.0,-1.0,0.11752241424969351,1.0
55.2516975402832,10.711819648742676,-1.9152640104293823,-0.0,-0.0,-1.0,0.05290330889716856,2.0
55.60857009887695,10.86294174194336,-2.008641242980957,-0.0,-0.0,-1.0,0.09195632357224198,1.0
54.45582962036133,10.673076629638672,-1.8098942041397095,-0.0,-0.0,-1.0,0.026019885755235804,1.0
54.91641616821289,11.022002220153809,-1.8734530210494995,-0.0,-0.0,-1.0,0.03915506995246614,1.0
54.748233795166016,10.29411506652832,-1.8112343549728394,-0.0,-0.0,-1.0,0.04823678879176185,1.0
55.12160873413086,11.14428997039795,-1.899603247642517,-0.0,-0.0,-1.0,0.047578343039941004,1.0
55.09489059448242,10.841401100158691,-1.8776077032089233,-0.0,-0.0,-1.0,0.048384075024720204,1.0
54.85036087036133,10.414167404174805,-1.8281251192092896,-0.0,-0.0,-1.0,0.06068091748361602,1.0
53.777645111083984,9.783888816833496,-2.026434898376465,-0.0,-0.0,-1.0,0.08908108814126167,2.0
53.83212661743164,9.942193984985352,-2.0861477851867676,-0.0,-0.0,-1.0,0.08463717504665229,1.0
53.80525207519531,11.043709754943848,-1.7046561241149902,-0.0,-0.0,-1.0,0.03760521820258866,1.0
55.17443084716797,10.724004745483398,-1.8408458232879639,-0.0,-0.0,-1.0,0.04477900300440868,1.0
55.38483428955078,10.922160148620605,-1.8753230571746826,-0.0,-0.0,-1.0,0.07125462865111043,1.0
55.494720458984375,9.932260513305664,-1.873419165611267,-0.0,-0.0,-1.0,0.027961836142432427,1.0
55.07505798339844,10.475629806518555,-1.845664620399475,-0.0,-0.0,-1.0,0.11359164965147656,2.0
55.46004867553711,10.66992473602295,-1.899023175239563,-0.0,-0.0,-1.0,0.061444243208468675,2.0
55.34855651855469,10.891610145568848,-1.89517080783844,-0.0,-0.0,-1.0,0.08713974295309249,2.0
55.340614318847656,10.415202140808105,-1.9201288223266602,-0.0,-0.0,-1.0,0.06847727971604828,1.0
55.32158660888672,10.852527618408203,-1.938171148300171,0.9052325581491957,-0.41333241753469624,0.09854099797336291,0.06953589001142892,5.0
53.76227569580078,10.141478538513184,-1.6888811588287354,-0.0,-0.0,-1.0,0.11464305468275152,1.0
55.059356689453125,10.09550952911377,-1.8666718006134033,-0.0,-0.0,-1.0,0.06351086418337798,2.0
55.157466888427734,10.484270095825195,-1.8979418277740479,-0.0,-0.0,-1.0,0.11813276568347401,1.0
55.27850341796875,10.294133186340332,-1.905982255935669,-0.0,-0.0,-1.0,0.065752756212374,1.0
55.12547302246094,10.601625442504883,-1.8990068435668945,-0.10251602965961286,0.48883252253744797,-0.8663332087439016,0.0802798033838163,4.0
55.268821716308594,10.730535507202148,-1.9249858856201172,-0.0,-0.0,-1.0,0.049192589297700366,2.0
55.079776763916016,10.508245468139648,-1.8671557903289795,0.46069784404343933,-0.5338607218337589,-0.7090488179080937,0.10613964297667074,3.0
53.731666564941406,11.123636245727539,-1.7051167488098145,-0.0,-0.0,-1.0,0.05403417357244668,1.0
55.31550598144531,10.823400497436523,-1.9165351390838623,-0.24736721432366202,-0.5439616165927241,-0.8018199429744696,0.05480857521820394,3.0
55.65447998046875,10.649271965026855,-1.9564416408538818,-0.0,-0.0,-1.0,0.07702690283003133,1.0
54.47688674926758,9.709457397460938,-1.9681308269500732,0.17513730593251778,-0.8859761091458235,-0.42938707257383457,0.16567184064573215,3.0
54.468955993652344,10.073277473449707,-1.981947660446167,-0.0,-0.0,-1.0,0.027834440584895283,2.0
53.90089416503906,10.699441909790039,-1.9126131534576416,-0.0,-0.0,-1.0,0.0938858174045002,1.0
54.1038818359375,10.48362922668457,-1.937373399734497,-0.9068254376980875,-0.12262862880029045,-0.40327390808510316,0.048371489015449465,3.0
54.31224060058594,10.262307167053223,-1.9631516933441162,-0.0,-0.0,-1.0,0.013087952474786349,2.0
53.742347717285156,10.78406047821045,-1.889436960220337,-0.0,-0.0,-1.0,0.08279854434701196,1.0
53.71159362792969,11.38483715057373,-1.9155352115631104,-0.0,-0.0,-1.0,0.08519278367294086,1.0
54.143409729003906,11.625649452209473,-2.003168821334839,0.030615328290298695,-0.3369684816266169,-0.941018035992897,0.022857107239484406,3.0
55.1162109375,10.37177562713623,-1.7682212591171265,-0.0,-0.0,-1.0,0.0939315728387513,1.0
53.90998077392578,10.110478401184082,-1.9352946281433105,-0.0,-0.0,-1.0,0.10937553383334435,1.0
54.27824783325195,9.834264755249023,-2.0029220581054688,-0.0,-0.0,-1.0,0.01909038126013617,1.0
53.89678192138672,10.564157485961914,-1.938887357711792,-0.0,-0.0,-1.0,0.06429828989081085,2.0
54.02949523925781,10.327980041503906,-1.9606308937072754,-0.0,-0.0,-1.0,0.033006088628012145,2.0
53.97789001464844,11.51530647277832,-1.9744620323181152,-0.0,-0.0,-1.0,0.08448772321017078,1.0
54.12262725830078,11.628397941589355,-2.004829168319702,-0.0,-0.0,-1.0,0.025321413618532802,2.0
53.87910842895508,9.869400978088379,-2.0377719402313232,-0.0,-0.0,-1.0,0.07005029893614609,2.0
53.87921905517578,10.159029006958008,-2.0410447120666504,-0.0,-0.0,-1.0,0.07300474461319041,2.0
53.723426818847656,9.74380111694336,-2.005476236343384,-0.0,-0.0,-1.0,0.08908108814126157,1.0
55.28412628173828,9.6573486328125,-1.9339439868927002,-0.0,-0.0,-1.0,0.019993102065752024,2.0
54.473838806152344,9.894754409790039,-1.8984878063201904,-0.0,-0.0,-1.0,0.140808979854153,1.0
53.9368782043457,10.592485427856445,-1.9263336658477783,-0.512946971304905,0.7387197191125026,-0.43723972969467245,0.06429828989081084,3.0
54.34760284423828,9.667463302612305,-1.8680145740509033,-0.0,-0.0,-1.0,0.18853626223193937,1.0
53.92683792114258,10.306907653808594,-1.8985261917114258,-0.0,-0.0,-1.0,0.03647492059489319,1.0
53.75360870361328,10.727245330810547,-1.926114559173584,-0.0,-0.0,-1.0,0.08279854434701193,1.0
55.191864013671875,10.841100692749023,-1.9690970182418823,-0.0,-0.0,-1.0,0.0695012307679492,1.0
54.02960968017578,9.966049194335938,-2.030015468597412,-0.0,-0.0,-1.0,0.027139046551239263,2.0
55.43074035644531,10.227599143981934,-1.9296965599060059,-0.0,-0.0,-1.0,0.05365170077049188,1.0
55.2607536315918,10.825789451599121,-1.8878579139709473,-0.0,-0.0,-1.0,0.052066470345810356,1.0
55.158565521240234,10.329702377319336,-1.8943121433258057,-0.0,-0.0,-1.0,0.09708545799249663,1.0
55.13105773925781,10.635526657104492,-1.8797714710235596,-0.10251602965961286,0.48883252253744797,-0.8663332087439016,0.07353375126679502,4.0
54.82627868652344,9.857677459716797,-1.8743255138397217,-0.0,-0.0,-1.0,0.06907529390640176,1.0
54.60443878173828,10.068321228027344,-1.9599748849868774,-0.0,-0.0,-1.0,0.09818578220344594,1.0
54.62133026123047,10.482816696166992,-1.981958031654358,-0.0,-0.0,-1.0,0.040595731480659224,1.0
54.42755889892578,10.268444061279297,-1.9503494501113892,-0.0,-0.0,-1.0,0.0074608348063764495,1.0
54.4451904296875,10.371238708496094,-1.957288384437561,-0.0,-0.0,-1.0,0.028378574780177662,1.0
53.82329559326172,10.716025352478027,-1.9067813158035278,-0.0,-0.0,-1.0,0.08279854434701195,2.0
54.15622329711914,11.585996627807617,-1.9885526895523071,0.8566902746183782,0.08958706846782798,-0.5079920575536874,0.022857107239484427,3.0
54.55425262451172,9.715935707092285,-1.9855921268463135,-0.0,-0.0,-1.0,0.14744887091658707,2.0
54.5103759765625,9.824945449829102,-1.9849226474761963,-0.0,-0.0,-1.0,0.05163434771536693,1.0
53.9705924987793,10.146050453186035,-1.937647819519043,-0.0,-0.0,-1.0,0.07736378836192838,2.0
54.11980056762695,10.242500305175781,-1.958184003829956,-0.4568371805776684,0.23238342400934242,-0.8586604303725315,0.025719683884205084,3.0
53.7728271484375,11.428470611572266,-1.9721643924713135,-0.0,-0.0,-1.0,0.07758980034657238,1.0
54.54975128173828,9.983518600463867,-1.960158348083496,-0.0,-0.0,-1.0,0.08340365435706555,2.0
54.53486633300781,10.627423286437988,-2.0021378993988037,-0.0,-0.0,-1.0,0.03241655850924112,1.0
54.8404541015625,10.31201457977295,-2.0073680877685547,-0.0,-0.0,-1.0,0.03435390060501719,1.0
54.7481803894043,10.888978958129883,-2.0380871295928955,-0.0,-0.0,-1.0,0.03128627852115028,1.0
54.74831008911133,10.752896308898926,-2.0289859771728516,-0.0,-0.0,-1.0,0.03833908572288583,1.0
55.20549011230469,10.525260925292969,-1.7660244703292847,-0.0,-0.0,-1.0,0.09238746611957059,1.0
54.47031784057617,9.688482284545898,-1.927531123161316,-0.0,-0.0,-1.0,0.20578482140683865,2.0
53.82564926147461,10.754112243652344,-1.9036527872085571,-0.0,-0.0,-1.0,0.08279854434701191,2.0
54.05278396606445,10.559558868408203,-1.917502760887146,-0.0,-0.0,-1.0,0.061933841201870725,1.0
54.37168884277344,10.287503242492676,-1.937008023262024,-0.0,-0.0,-1.0,0.0072530354432016496,1.0
54.53037643432617,10.018901824951172,-1.9427021741867065,-0.0,-0.0,-1.0,0.15663802248689732,2.0
53.71697998046875,10.182706832885742,-1.6903117895126343,-0.0,-0.0,-1.0,0.11909684362444198,1.0
55.240596771240234,10.51792049407959,-1.8221665620803833,-0.0,-0.0,-1.0,0.09238746611957059,1.0
55.5536003112793,9.993820190429688,-1.8405407667160034,-0.0,-0.0,-1.0,0.03418775516920066,1.0
55.05223083496094,10.518357276916504,-1.8926669359207153,-0.0,-0.0,-1.0,0.09839034079127283,2.0
55.12690734863281,10.707889556884766,-1.9047752618789673,-0.0,-0.0,-1.0,0.05008812058031067,1.0
53.83319854736328,10.682144165039062,-2.038724899291992,-0.0,-0.0,-1.0,0.10034250334700419,1.0
54.035064697265625,10.315689086914062,-2.057750701904297,-0.0,-0.0,-1.0,0.03217573390542054,1.0
54.80268478393555,10.345071792602539,-1.9325653314590454,-0.0,-0.0,-1.0,0.049898720487780344,1.0
54.9814338684082,10.535680770874023,-1.8143680095672607,-0.0,-0.0,-1.0,0.09668590318741922,1.0
54.58714294433594,9.915624618530273,-1.7264654636383057,-0.0,-0.0,-1.0,0.18279386165748282,1.0
53.962242126464844,10.11465835571289,-1.9448070526123047,-0.9668762941350078,0.2550770000163201,0.009271240608905808,0.07237942344662658,3.0
53.80379867553711,9.678930282592773,-1.9784717559814453,-0.0,-0.0,-1.0,0.08648416517029646,1.0
53.75975799560547,10.822635650634766,-1.717590570449829,-0.0,-0.0,-1.0,0.06146127913429577,1.0
55.33550262451172,10.609594345092773,-1.8544526100158691,-0.0,-0.0,-1.0,0.049117273164624824,1.0
53.85267639160156,10.188352584838867,-2.002176523208618,-0.0,-0.0,-1.0,0.10506755298728032,1.0
55.322288513183594,10.817700386047363,-1.966038703918457,0.8143053221092045,0.3725587185691962,-0.4450919496044644,0.06953589001142887,3.0
55.38723373413086,10.679414749145508,-1.8568971157073975,-0.0,-0.0,-1.0,0.044392253103462724,1.0
54.097984313964844,10.213541984558105,-1.9544141292572021,-0.0,-0.0,-1.0,0.02812525255541682,2.0
54.035438537597656,11.55807113647461,-1.9635465145111084,-0.0,-0.0,-1.0,0.08448772321017078,1.0
54.11884307861328,10.445633888244629,-1.9594624042510986,-0.0,-0.0,-1.0,0.027537841593875647,2.0
54.41572570800781,9.797533988952637,-1.985990285873413,-0.0,-0.0,-1.0,0.10376904363627511,1.0
53.972320556640625,10.073233604431152,-1.9901936054229736,-0.0,-0.0,-1.0,0.04279123646908887,1.0
53.8646125793457,9.797039985656738,-1.9694883823394775,-0.0,-0.0,-1.0,0.09167904599503207,1.0
54.36181640625,10.408576965332031,-1.9601044654846191,-0.0,-0.0,-1.0,0.019137845288308905,1.0
54.553768157958984,10.077652931213379,-1.9743642807006836,-0.0,-0.0,-1.0,0.09742124726951794,2.0
54.517215728759766,9.71395206451416,-1.9609556198120117,0.09851873032478017,-0.9927975124289972,0.06817007473949745,0.20724154902075717,3.0
54.47095489501953,9.880642890930176,-1.970566749572754,-0.0,-0.0,-1.0,0.03824515490288654,2.0
54.60655212402344,10.217972755432129,-1.956345558166504,-0.0,-0.0,-1.0,0.06048586026287275,1.0
54.9417724609375,10.474303245544434,-1.987112045288086,-0.0,-0.0,-1.0,0.06885581946032354,1.0
55.45330047607422,11.616045951843262,-1.704195499420166,-0.0,-0.0,-1.0,0.06522602276883303,1.0
55.4166374206543,11.491830825805664,-1.9796051979064941,-0.0,-0.0,-1.0,0.07417947974192957,1.0
53.928924560546875,10.688928604125977,-2.115490436553955,-0.0,-0.0,-1.0,0.09236953147412183,1.0
53.771183013916016,9.675902366638184,-2.055628776550293,-0.0,-0.0,-1.0,0.09933810611327021,1.0
53.91604995727539,9.998035430908203,-2.0555429458618164,-0.0,-0.0,-1.0,0.09313935734052071,1.0
53.933536529541016,10.410476684570312,-2.025930404663086,-0.0,-0.0,-1.0,0.058117348157413526,1.0
54.040679931640625,10.619438171386719,-2.028658866882324,-0.0,-0.0,-1.0,0.06304547082867203,1.0
53.72151565551758,10.86260986328125,-1.9529638290405273,-0.0,-0.0,-1.0,0.061106615256224524,1.0
54.1212272644043,10.499850273132324,-1.9813098907470703,-0.0,-0.0,-1.0,0.04837148901544947,2.0
53.75829315185547,10.641738891601562,-1.9681024551391602,-0.0,-0.0,-1.0,0.09581773025284818,1.0
