x,y,z,nx,ny,nz,curvature,density
27.01441192626953,-21.755651473999023,0.6506993770599365,-0.0,-0.0,-1.0,0.1026559731869723,1.0
27.344654083251953,-21.83689308166504,0.6406896114349365,-0.0,-0.0,-1.0,0.056418696892410115,2.0
25.931560516357422,-21.416154861450195,0.68312668800354,-0.2451216926791898,0.37675082168218355,-0.8932940020731632,0.14172593287360172,3.0
26.849706649780273,-21.49021339416504,0.6602108478546143,-0.0,-0.0,-1.0,0.1342716582989482,1.0
25.399066925048828,-21.035131454467773,0.7022850513458252,-0.722140489234199,-0.6637816452949116,0.19469730655089165,0.2036095808306526,3.0
27.440446853637695,-21.122610092163086,0.6530423164367676,-0.9595972411020356,0.2658832017512126,-0.09208288600975405,0.1607371195904,3.0
26.988746643066406,-21.720623016357422,0.5955049991607666,-0.0,-0.0,-1.0,0.1396572432863183,2.0
27.303070068359375,-21.860332489013672,0.58138108253479,-0.0,-0.0,-1.0,0.07753921690918715,2.0
25.581602096557617,-21.303081512451172,0.6504943370819092,-0.0,-0.0,-1.0,0.15750239365578694,1.0
26.859689712524414,-21.283218383789062,0.6107022762298584,-0.5318584919448537,-0.7843378414974062,-0.31928152928306985,0.17480471887556268,4.0
25.35651969909668,-21.076316833496094,0.6627206802368164,0.8281670100019098,-0.29116820153506223,-0.47891594456578096,0.24387354564207073,5.0
27.418367385864258,-21.107467651367188,0.5963685512542725,-0.0,-0.0,-1.0,0.16980035215200853,2.0
25.572895050048828,-21.858028411865234,0.6357688903808594,-0.0,-0.0,-1.0,0.08892023513003128,2.0
26.924110412597656,-21.665264129638672,0.6159889698028564,-0.0,-0.0,-1.0,0.1538942346245381,2.0
27.101402282714844,-21.812740325927734,0.609220027923584,-0.5337135088666712,-0.3439994932659157,-0.7725375324772374,0.06117017944066821,3.0
27.656658172607422,-21.748722076416016,0.5994119644165039,-0.0,-0.0,-1.0,0.18156985175290852,2.0
25.46342658996582,-21.142189025878906,0.653170108795166,-0.0,-0.0,-1.0,0.20926418181559778,2.0
26.7257022857666,-21.290081024169922,0.628169059753418,-0.6173602493742649,-0.016818868251234822,-0.7865007617054751,0.22071798861069458,5.0
25.29953956604004,-20.993621826171875,0.658949613571167,-0.0,-0.0,-1.0,0.19971143678548015,1.0
25.375457763671875,-21.76384162902832,0.8057936429977417,-0.0,-0.0,-1.0,0.13344587600567798,1.0
26.010501861572266,-21.490949630737305,0.7956377267837524,-0.0,-0.0,-1.0,0.17437073016176433,2.0
26.355804443359375,-21.765840530395508,0.7814327478408813,-0.0,-0.0,-1.0,0.14306060093916884,1.0
26.786155700683594,-21.780912399291992,0.7697962522506714,-0.0,-0.0,-1.0,0.13984434902399923,2.0
27.111011505126953,-21.823720932006836,0.7601386308670044,-0.0,-0.0,-1.0,0.051615182421764785,1.0
27.62075424194336,-21.710519790649414,0.748181939125061,-0.0,-0.0,-1.0,0.18170135301310794,2.0
25.41705322265625,-21.087430953979492,0.817872166633606,-0.0,-0.0,-1.0,0.20705083499423346,2.0
26.17792510986328,-21.380373001098633,0.793610692024231,-0.0,-0.0,-1.0,0.20733154685242464,2.0
26.806411743164062,-21.738401412963867,0.7404763698577881,0.43715170617423005,0.4268825516588196,-0.7916247045653734,0.16798784229184685,4.0
27.196046829223633,-21.834741592407227,0.7417562007904053,-0.6473756099010571,-0.02780890139031818,-0.7616636296349578,0.037621184598769036,3.0
27.474018096923828,-21.840394973754883,0.7433304786682129,-0.6127361133130472,-0.49699409011028767,-0.6144520565816898,0.052725119694210634,3.0
25.25429916381836,-21.23076820373535,0.7333767414093018,-0.0,-0.0,-1.0,0.20486603502499878,2.0
25.536453247070312,-21.240938186645508,0.7361423969268799,-0.0,-0.0,-1.0,0.2304338734194473,2.0
26.66460609436035,-21.22026252746582,0.746340274810791,-0.0,-0.0,-1.0,0.24730721875747505,2.0
27.527538299560547,-20.843063354492188,0.4687190055847168,-0.0,-0.0,-1.0,0.04907387148855327,1.0
27.300594329833984,-20.439617156982422,0.47307920455932617,-0.0,-0.0,-1.0,0.04242263280323895,1.0
26.945335388183594,-21.6701717376709,0.5738162994384766,-0.0,-0.0,-1.0,0.16632676145965758,2.0
27.133991241455078,-21.762422561645508,0.5712361335754395,-0.0,-0.0,-1.0,0.1274667345608914,2.0
26.720497131347656,-21.241796493530273,0.5833392143249512,-0.0,-0.0,-1.0,0.1990042842508995,2.0
26.85715103149414,-21.264738082885742,0.5824973583221436,0.2344812277559004,0.8288521764468533,-0.5079592733964013,0.23670645875844135,8.0
27.476097106933594,-21.114328384399414,0.5835156440734863,0.74720116627165,0.12847309582016686,-0.6520621755420783,0.20119579523197115,6.0
26.661605834960938,-21.703372955322266,0.7141091823577881,0.48094087311560857,0.8164835146324988,-0.3194535128937508,0.2001153019668246,3.0
26.084638595581055,-21.264469146728516,0.727867603302002,-0.24505875022385343,0.80506019424679,-0.5402076383929085,0.18804741289188562,3.0
26.762651443481445,-21.79392433166504,0.8295060396194458,-0.0,-0.0,-1.0,0.11547537370237655,2.0
25.470808029174805,-21.191011428833008,0.864639163017273,-0.0,-0.0,-1.0,0.26169765262632355,2.0
27.095359802246094,-21.82677459716797,0.9497442245483398,-0.0,-0.0,-1.0,0.09636033587196259,2.0
27.160764694213867,-21.75151824951172,0.9640891551971436,-0.0,-0.0,-1.0,0.18916440759391456,1.0
25.32097816467285,-21.771928787231445,0.7836514711380005,-0.0,-0.0,-1.0,0.12333594542726913,1.0
25.548038482666016,-21.83000373840332,0.780124306678772,-0.0,-0.0,-1.0,0.10505965206333802,1.0
26.58707046508789,-21.75164222717285,0.7697159051895142,-0.0,-0.0,-1.0,0.18421858550116774,2.0
26.881786346435547,-21.795576095581055,0.7650619745254517,-0.0,-0.0,-1.0,0.17935074950750726,1.0
27.291475296020508,-21.790727615356445,0.7597595453262329,-0.26712362470475576,0.9634984829206702,-0.017766331477253434,0.03878138235262528,3.0
27.553138732910156,-21.75950050354004,0.7568246126174927,-0.0,-0.0,-1.0,0.17056246816230952,1.0
26.272541046142578,-21.231271743774414,0.7840520143508911,-0.0,-0.0,-1.0,0.16795347576913633,1.0
25.39365577697754,-21.82501792907715,0.7458724975585938,-0.0,-0.0,-1.0,0.09567117511439537,1.0
26.805063247680664,-21.73685646057129,0.7417747974395752,0.43715170617423005,0.4268825516588196,-0.7916247045653734,0.16798784229184685,4.0
27.27149200439453,-21.796667098999023,0.7381076812744141,-0.0,-0.0,-1.0,0.04052435765104696,2.0
27.563552856445312,-21.7015438079834,0.7381198406219482,-0.0,-0.0,-1.0,0.1800446525014063,1.0
26.2606143951416,-21.333276748657227,0.7514698505401611,-0.0,-0.0,-1.0,0.16166534374532718,2.0
25.56265640258789,-21.073457717895508,0.7582039833068848,-0.0,-0.0,-1.0,0.23448211110098446,1.0
25.768598556518555,-21.842639923095703,0.488805890083313,-0.0,-0.0,-1.0,0.08900836049474829,1.0
25.774845123291016,-21.38811492919922,0.4998488426208496,-0.0,-0.0,-1.0,0.11785388163757614,1.0
27.033843994140625,-21.786529541015625,0.48355352878570557,-0.0,-0.0,-1.0,0.09892563116313335,1.0
26.879486083984375,-21.319400787353516,0.4960753917694092,-0.0,-0.0,-1.0,0.16270707182992825,2.0
27.579126358032227,-21.130268096923828,0.49683308601379395,-0.0,-0.0,-1.0,0.17199507605651812,2.0
25.614723205566406,-21.319046020507812,0.6082034111022949,-0.0,-0.0,-1.0,0.17226467681236596,2.0
25.233386993408203,-21.820131301879883,0.7889920473098755,-0.0,-0.0,-1.0,0.12670248333591716,1.0
25.462230682373047,-21.238828659057617,0.7976387739181519,0.23215825128212822,-0.965770540147743,0.11571434718461183,0.21428852746337995,3.0
26.27122688293457,-21.38328742980957,0.7955642938613892,-0.0,-0.0,-1.0,0.19403124556814277,1.0
26.942440032958984,-21.847917556762695,0.7879167795181274,-0.0,-0.0,-1.0,0.1464058477706879,2.0
25.46624755859375,-21.195789337158203,0.8234674334526062,-0.6535819245879002,-0.7401192857920735,0.15828490341977314,0.2685723008047991,3.0
25.355375289916992,-21.848217010498047,0.8114607334136963,-0.0,-0.0,-1.0,0.09567117511439528,1.0
26.296669006347656,-21.31978988647461,0.8161133527755737,-0.0,-0.0,-1.0,0.19283719145636796,2.0
26.647525787353516,-20.58617401123047,0.8283132910728455,-0.0,-0.0,-1.0,0.24239996244265555,2.0
26.403669357299805,-21.41153335571289,0.813666582107544,-0.0,-0.0,-1.0,0.16165345783306292,1.0
26.673336029052734,-21.786571502685547,0.8046349287033081,0.49302669828063045,0.2446102505109204,-0.8349194572696726,0.15450480882542664,5.0
26.98240089416504,-21.860984802246094,0.8012121915817261,0.4225056603853358,0.6598073222541279,-0.6214042681235697,0.1113365662682427,3.0
25.51482391357422,-21.03500747680664,0.9130488634109497,-0.0,-0.0,-1.0,0.20651022781906503,2.0
25.36564064025879,-20.990779876708984,0.9131340980529785,-0.0,-0.0,-1.0,0.15624733082879244,2.0
26.602630615234375,-21.758358001708984,0.9074372053146362,-0.0,-0.0,-1.0,0.15173049740901823,1.0
27.146568298339844,-21.74013900756836,0.9088973999023438,-0.0,-0.0,-1.0,0.18074128945315088,1.0
26.87147331237793,-21.7550048828125,0.9081007242202759,-0.0,-0.0,-1.0,0.16096205167947997,1.0
27.295316696166992,-21.790592193603516,0.9086209535598755,-0.0,-0.0,-1.0,0.08034935830499852,1.0
27.10771369934082,-19.412961959838867,0.5343963503837585,-0.0,-0.0,-1.0,0.11169640729344966,1.0
27.19188690185547,-19.52605438232422,0.5323374271392822,-0.0,-0.0,-1.0,0.14317388414766075,1.0
27.216394424438477,-19.937589645385742,0.5233115553855896,-0.0,-0.0,-1.0,0.0895056393178018,1.0
26.968992233276367,-20.495141983032227,0.5095881819725037,-0.0,-0.0,-1.0,0.05215557902262475,1.0
27.055049896240234,-20.612276077270508,0.5074166059494019,-0.0,-0.0,-1.0,0.020942801834799282,1.0
27.064632415771484,-20.97300148010254,0.4993910789489746,-0.0,-0.0,-1.0,0.036199047324699495,1.0
27.445682525634766,-21.040616989135742,0.49977755546569824,-0.0,-0.0,-1.0,0.14117662301595546,1.0
27.551841735839844,-21.367189407348633,0.4929412603378296,-0.0,-0.0,-1.0,0.14004387648251485,1.0
26.32740020751953,-20.546188354492188,0.840823233127594,-0.0,-0.0,-1.0,0.20958866713090768,1.0
25.388765335083008,-21.10974884033203,0.8244328498840332,0.6280467957498529,-0.6906417807923715,0.3585681984954669,0.27147709931705144,3.0
26.02373695373535,-21.192089080810547,0.8334908485412598,-0.0,-0.0,-1.0,0.1574132447056316,1.0
25.236427307128906,-21.775936126708984,0.8192858695983887,-0.0,-0.0,-1.0,0.1287161446635167,1.0
26.663759231567383,-21.761943817138672,0.8402352929115295,0.15831237784954355,-0.9054087740605992,0.3939189547022409,0.13238949589805232,4.0
26.368865966796875,-21.689456939697266,0.8363010883331299,-0.0,-0.0,-1.0,0.1759299174223222,1.0
27.17622184753418,-21.750865936279297,0.8476473689079285,-0.0,-0.0,-1.0,0.18624234351113889,1.0
25.96016502380371,-20.825979232788086,0.670628547668457,-0.0,-0.0,-1.0,0.13617207428410336,1.0
26.62810707092285,-21.696943283081055,0.6801098585128784,-0.0,-0.0,-1.0,0.13037969201306202,2.0
25.25947380065918,-20.738304138183594,0.6317271590232849,-0.0,-0.0,-1.0,0.18042471760103213,1.0
25.42572021484375,-21.234779357910156,0.6161371469497681,-0.0,-0.0,-1.0,0.19260614694312345,1.0
25.94205093383789,-21.23923110961914,0.5885528326034546,-0.0,-0.0,-1.0,0.1814722249706871,1.0
25.506515502929688,-19.883155822753906,0.4997570514678955,-0.0,-0.0,-1.0,0.13801795716445392,1.0
26.161468505859375,-20.251216888427734,0.46161818504333496,-0.0,-0.0,-1.0,0.1377768614925448,1.0
26.77263832092285,-21.81903839111328,0.8432308435440063,-0.0,-0.0,-1.0,0.12072687787322632,2.0
26.886943817138672,-21.765605926513672,0.8290728330612183,-0.05714454883300973,0.9916405939609695,0.11568678812814806,0.20628792763006526,3.0
27.438434600830078,-21.822879791259766,0.7646476030349731,-0.6127361133130472,-0.49699409011028767,-0.6144520565816898,0.05821279786547762,3.0
25.38344955444336,-19.72265625,0.9793916940689087,-0.0,-0.0,-1.0,0.054162598454796665,1.0
25.382387161254883,-20.332786560058594,0.9808574318885803,-0.0,-0.0,-1.0,0.1831988605531021,1.0
25.327117919921875,-21.25261688232422,0.9866704344749451,-0.0,-0.0,-1.0,0.22894238517717624,1.0
26.2581787109375,-21.582378387451172,0.9245094656944275,-0.0,-0.0,-1.0,0.13333995782022365,2.0
26.608428955078125,-21.833515167236328,0.9013272523880005,-0.0,-0.0,-1.0,0.13147063492654643,2.0
25.251731872558594,-21.183149337768555,0.894996702671051,-0.0,-0.0,-1.0,0.17668825154540435,2.0
25.529741287231445,-21.11182975769043,0.8776130676269531,-0.0,-0.0,-1.0,0.20514587556942002,2.0
26.27108383178711,-21.34437370300293,0.8302615880966187,-0.0,-0.0,-1.0,0.18618056573801076,2.0
26.117042541503906,-21.46074104309082,0.8398129940032959,-0.5351310283325781,0.8445949894818782,-0.017148943344231428,0.17562889134869372,3.0
26.388460159301758,-21.340803146362305,0.8228158950805664,-0.0,-0.0,-1.0,0.13945465429370937,2.0
26.681201934814453,-21.859769821166992,0.8032583594322205,0.8899345825657936,0.42841107526415245,0.15646210194312035,0.11142817042625923,3.0
26.672935485839844,-20.703733444213867,0.8058702945709229,-0.0,-0.0,-1.0,0.22526614827336755,1.0
27.337779998779297,-21.85954475402832,0.761384129524231,-0.0,-0.0,-1.0,0.029742848136176194,2.0
25.23846435546875,-21.193540573120117,0.6826833486557007,-0.7426622956712675,-0.6600357206118191,0.11316166358232646,0.2448472338337461,3.0
25.300968170166016,-19.912076950073242,0.6929203271865845,-0.532545593735791,0.2411620374318501,-0.8113174855100269,0.15999837239694803,5.0
26.031005859375,-21.34844398498535,0.6411226987838745,0.7881834768315881,0.4838958457541328,0.38027834189125437,0.16723277269150785,3.0
26.240488052368164,-21.238431930541992,0.631517767906189,-0.0,-0.0,-1.0,0.22664443501444403,2.0
26.554845809936523,-20.78689956665039,0.6198486089706421,-0.0,-0.0,-1.0,0.20646702983567394,2.0
26.827482223510742,-21.237443923950195,0.60112464427948,-0.2241655588679352,0.385431801067063,-0.8950933632552669,0.23418297628968457,4.0
27.128108978271484,-21.78829002380371,0.5798821449279785,-0.7054208655362776,-0.0751590206616926,-0.7047925397443027,0.12127625400949779,3.0
25.279464721679688,-19.973438262939453,0.5439146757125854,-0.9682872016577264,-0.15154983914817877,-0.19862663809270542,0.1630742230419945,3.0
27.57988739013672,-21.001991271972656,0.4857689142227173,-0.0,-0.0,-1.0,0.11541801071217611,1.0
25.713909149169922,-20.070964813232422,0.5128570795059204,-0.0,-0.0,-1.0,0.1940397659851755,2.0
25.98200035095215,-20.206382751464844,0.5094668865203857,-0.0,-0.0,-1.0,0.15921635866512418,1.0
25.55511474609375,-21.86021614074707,0.6771454811096191,-0.0,-0.0,-1.0,0.08709844622318531,2.0
27.37641716003418,-21.83570671081543,0.6649515628814697,-0.0,-0.0,-1.0,0.06133479114604422,2.0
26.044836044311523,-21.376354217529297,0.6839098930358887,0.369154437149059,0.9275299376706531,-0.05842273750720532,0.16064441078630107,5.0
26.20801544189453,-21.401399612426758,0.6824510097503662,-0.0,-0.0,-1.0,0.20817269865885019,2.0
27.580659866333008,-21.721633911132812,0.6651351451873779,-0.0,-0.0,-1.0,0.2121484303494836,2.0
25.40826416015625,-21.08609390258789,0.6925909519195557,-0.4071658186682995,-0.7280804556343728,-0.5514660880157704,0.20096792155953885,6.0
26.637033462524414,-21.122695922851562,0.6848475933074951,-0.0,-0.0,-1.0,0.24073364834241281,1.0
26.413158416748047,-20.59899139404297,0.6964805126190186,-0.0,-0.0,-1.0,0.19251128639526313,2.0
25.415447235107422,-21.090045928955078,0.6970502138137817,-0.29000537491029266,-0.9129330446170429,-0.2871413215986107,0.20649076145757253,5.0
26.55428123474121,-21.836002349853516,0.8635036945343018,0.34020464712588466,-0.7242303329824965,-0.5997926498899554,0.1713253621768264,3.0
26.54308319091797,-21.85604476928711,0.9846947193145752,-0.0,-0.0,-1.0,0.07177098563742525,2.0
27.18441390991211,-21.836997985839844,1.0515475273132324,-0.0,-0.0,-1.0,0.09733637615818845,2.0
25.294557571411133,-21.167165756225586,0.5921484231948853,-0.0,-0.0,-1.0,0.17930062450802914,2.0
26.9613094329834,-21.609373092651367,0.5748957991600037,-0.0,-0.0,-1.0,0.14204012147211412,1.0
27.167627334594727,-21.70123863220215,0.5715584754943848,-0.0,-0.0,-1.0,0.0975716857781159,1.0
26.618932723999023,-21.160608291625977,0.5871335864067078,-0.0,-0.0,-1.0,0.20487043891138043,1.0
26.788230895996094,-21.169048309326172,0.5860786437988281,-0.0,-0.0,-1.0,0.16330806049633703,1.0
27.47472381591797,-21.124366760253906,0.5831944942474365,0.74720116627165,0.12847309582016686,-0.6520621755420783,0.1991028880705813,6.0
25.237045288085938,-20.05916404724121,0.6172279119491577,-0.8874730581518895,0.3819431801033855,-0.2578972241553719,0.07914848176196981,5.0
26.696619033813477,-21.833255767822266,0.8772295713424683,-0.0,-0.0,-1.0,0.0866955032738206,2.0
25.23481559753418,-21.135942459106445,0.7120749950408936,-0.0,-0.0,-1.0,0.23577027074624235,2.0
25.361068725585938,-21.123088836669922,0.7123509645462036,-0.8205589383502014,0.5200734163944009,-0.23707945978816122,0.2375856575103516,3.0
26.942493438720703,-21.76706314086914,0.699705183506012,-0.0,-0.0,-1.0,0.1667698618977103,2.0
27.336040496826172,-21.836883544921875,0.6979870200157166,-0.0,-0.0,-1.0,0.05407774999786875,1.0
27.687633514404297,-21.823209762573242,0.6978492140769958,0.7110200915840843,0.31174475685155195,-0.6302901204519454,0.14098722905961028,3.0
25.33163833618164,-20.25775718688965,0.7284609079360962,-0.0,-0.0,-1.0,0.17857719178795153,1.0
26.573163986206055,-20.722476959228516,0.7198003530502319,-0.0,-0.0,-1.0,0.17483865340250598,1.0
26.87788200378418,-21.221433639526367,0.7101414203643799,-0.0,-0.0,-1.0,0.1996473613974918,1.0
25.37683868408203,-19.846811294555664,0.7361181974411011,-0.0,-0.0,-1.0,0.19969246365342838,1.0
25.387496948242188,-20.954713821411133,0.6156504154205322,-0.0,-0.0,-1.0,0.17603894547319968,1.0
26.46802520751953,-21.744356155395508,0.6112748980522156,-0.0,-0.0,-1.0,0.099139454700799,1.0
26.92877197265625,-21.44036865234375,0.6211066246032715,-0.0,-0.0,-1.0,0.09413506697205706,1.0
27.167564392089844,-21.793682098388672,0.6166214346885681,-0.5523393136335469,0.06350945168090924,-0.8311966266546159,0.05466923061899808,3.0
26.568161010742188,-20.77958106994629,0.6301261186599731,-0.0,-0.0,-1.0,0.20003823901020987,2.0
26.69129180908203,-21.098825454711914,0.6253214478492737,-0.0,-0.0,-1.0,0.23303085902736326,1.0
25.511062622070312,-20.649120330810547,0.6207385659217834,-0.0,-0.0,-1.0,0.1951693275170583,1.0
27.040462493896484,-21.73448944091797,0.5965098738670349,-0.0,-0.0,-1.0,0.11127121366805183,1.0
26.575294494628906,-20.598743438720703,0.6219692826271057,-0.0,-0.0,-1.0,0.1650151958734531,2.0
26.6141357421875,-20.98181915283203,0.6134542226791382,-0.0,-0.0,-1.0,0.15859168922993458,1.0
26.921878814697266,-21.26517105102539,0.6070433855056763,-0.7400047133534969,-0.27166211105637017,-0.6152988880462934,0.20837755081986015,3.0
27.20077133178711,-21.78380584716797,0.5953096747398376,-0.055947876666968495,0.9362978769577057,0.34672196454933585,0.1302377406476736,3.0
27.599685668945312,-21.113853454589844,0.6100279688835144,-0.0,-0.0,-1.0,0.16441243017154494,2.0
26.69556999206543,-21.113353729248047,0.5671316385269165,-0.0,-0.0,-1.0,0.19172803317697193,1.0
26.688983917236328,-20.49466323852539,0.5798186659812927,-0.0,-0.0,-1.0,0.10026086740620313,2.0
26.84633445739746,-21.152576446533203,0.567761242389679,-0.0,-0.0,-1.0,0.1408733795157917,1.0
27.079936981201172,-21.59710693359375,0.5607572793960571,-0.0,-0.0,-1.0,0.0719431458955766,1.0
27.407115936279297,-21.820735931396484,0.5591251254081726,-0.0,-0.0,-1.0,0.12284814943236674,1.0
26.963855743408203,-20.058242797851562,0.5914698243141174,-0.0,-0.0,-1.0,0.1705905671842605,2.0
27.626625061035156,-21.03287124633789,0.5775228142738342,-0.0,-0.0,-1.0,0.14404233167021793,1.0
26.62628173828125,-21.82210922241211,1.063924789428711,-0.0,-0.0,-1.0,0.09486682473573002,2.0
27.484039306640625,-21.30874252319336,1.0457651615142822,-0.0,-0.0,-1.0,0.18918722317387116,1.0
25.217220306396484,-21.15667152404785,0.7682759761810303,-0.0,-0.0,-1.0,0.17644704444798193,1.0
25.990449905395508,-21.30843734741211,0.7462326288223267,-0.0,-0.0,-1.0,0.19699962966613066,1.0
26.431034088134766,-21.173614501953125,0.7406431436538696,-0.0,-0.0,-1.0,0.16720524913725288,1.0
26.29280662536621,-21.247644424438477,0.7413536906242371,-0.0,-0.0,-1.0,0.19388691269572197,1.0
26.655353546142578,-21.808042526245117,0.7138193845748901,-0.0,-0.0,-1.0,0.1592545110164469,2.0
26.623146057128906,-20.384136199951172,0.7627524137496948,-0.0,-0.0,-1.0,0.15757348281779004,1.0
26.66960906982422,-21.33521270751953,0.7295722961425781,-0.0,-0.0,-1.0,0.2128971565229236,2.0
26.911968231201172,-21.840749740600586,0.7064740657806396,-0.0,-0.0,-1.0,0.1147087036624696,1.0
27.42761993408203,-21.064651489257812,0.7204499244689941,-0.0,-0.0,-1.0,0.060989966118775045,1.0
27.70806312561035,-21.73967742919922,0.6899771690368652,-0.0,-0.0,-1.0,0.1210401998237644,1.0
25.40613555908203,-21.21906089782715,0.7578644752502441,-0.0,-0.0,-1.0,0.24956978712894642,2.0
25.97231674194336,-21.25840187072754,0.7514017224311829,-0.0,-0.0,-1.0,0.22478737348767702,2.0
26.259788513183594,-21.313234329223633,0.7469105124473572,0.3578913356935698,-0.19307845009124908,-0.9135833316922068,0.2120526180913752,3.0
26.736644744873047,-20.144853591918945,0.7757897973060608,-0.0,-0.0,-1.0,0.12614165245873052,1.0
27.63082504272461,-21.66718292236328,0.7205624580383301,-0.0,-0.0,-1.0,0.15021802833238904,2.0
25.588281631469727,-21.253658294677734,0.537839949131012,-0.0,-0.0,-1.0,0.15945712907289278,1.0
25.725717544555664,-21.201005935668945,0.5373237133026123,-0.0,-0.0,-1.0,0.13416719184075754,2.0
26.492759704589844,-20.38593101501465,0.5592671632766724,-0.425257440698917,0.8990571997720807,-0.10417418426938632,0.046658237312190674,3.0
26.47317123413086,-21.054161071777344,0.5276916027069092,-0.0,-0.0,-1.0,0.2340191036467461,1.0
26.576065063476562,-21.133007049560547,0.5215091109275818,-0.0,-0.0,-1.0,0.1243520535594329,1.0
26.862709045410156,-20.977041244506836,0.5223513841629028,-0.0,-0.0,-1.0,0.06705097183474475,1.0
26.972198486328125,-21.046422958374023,0.5163956880569458,-0.0,-0.0,-1.0,0.05493410404655308,1.0
27.38870620727539,-21.118083953857422,0.5028170347213745,-0.0,-0.0,-1.0,0.1629820419130138,2.0
27.536823272705078,-21.491811752319336,0.4808027148246765,-0.0,-0.0,-1.0,0.09763471418351315,1.0
26.416545867919922,-21.774593353271484,1.405212640762329,-0.0,-0.0,-1.0,0.0404086366663383,2.0
27.32003402709961,-20.026649475097656,0.42428141832351685,-0.14979446896838908,-0.6803541819441211,-0.7174118790329753,0.056838410481344366,3.0
27.339130401611328,-20.234909057617188,0.4169690012931824,-0.0,-0.0,-1.0,0.019375552497456004,1.0
27.352636337280273,-20.5384464263916,0.4060984253883362,-0.0,-0.0,-1.0,0.047273623707084766,1.0
27.69107437133789,-20.65949058532715,0.40522778034210205,-0.0,-0.0,-1.0,0.028019306693645864,1.0
26.618497848510742,-20.542591094970703,1.2367274761199951,-0.0,-0.0,-1.0,0.1081544282352464,1.0
27.603778839111328,-20.59745216369629,0.4014101028442383,-0.0,-0.0,-1.0,0.011886851531890527,1.0
27.306215286254883,-20.018747329711914,0.41967278718948364,-0.14979446896838908,-0.6803541819441211,-0.7174118790329753,0.05683841048134448,3.0
27.358612060546875,-20.32109832763672,0.40898680686950684,-0.0,-0.0,-1.0,0.042312064726828996,1.0
27.66094970703125,-20.551435470581055,0.4037853479385376,-0.0,-0.0,-1.0,0.012243007019215197,1.0
25.378036499023438,-20.040664672851562,1.2185934782028198,0.405527941564222,0.31255044858350495,-0.8589873722592987,0.1301409177379186,3.0
25.269941329956055,-19.49077033996582,1.163299798965454,0.5146380845925188,-0.5480640880132754,-0.6593734884851835,0.08978517615968845,3.0
27.63738250732422,-21.2255916595459,1.0858101844787598,-0.0,-0.0,-1.0,0.17817204837765085,1.0
27.300928115844727,-20.118019104003906,0.41665107011795044,-0.0,-0.0,-1.0,0.0355671562780154,1.0
27.51583480834961,-20.474960327148438,0.3970201015472412,-0.0,-0.0,-1.0,0.041957895386943236,1.0
26.579137802124023,-20.46409797668457,1.1592953205108643,0.17384838196038555,-0.9289176416848233,0.32693845759785123,0.12002635648627544,4.0
27.188514709472656,-19.835317611694336,0.45472896099090576,-0.0,-0.0,-1.0,0.11025446296322812,1.0
27.303730010986328,-20.046550750732422,0.44655895233154297,-0.14979446896838908,-0.6803541819441211,-0.7174118790329753,0.056838410481344526,3.0
27.450733184814453,-20.485694885253906,0.42844492197036743,-0.0,-0.0,-1.0,0.044667469006225445,2.0
27.325729370117188,-20.493953704833984,0.42704808712005615,-0.0,-0.0,-1.0,0.044147626836776345,1.0
25.2738094329834,-19.498842239379883,1.1730281114578247,0.5146380845925188,-0.5480640880132754,-0.6593734884851835,0.05118896509635411,3.0
25.297687530517578,-20.340824127197266,1.1617454290390015,-0.10366963730702093,-0.3693849447627019,-0.923475700212673,0.13323060988746743,4.0
26.62008285522461,-20.48126792907715,1.1487913131713867,-0.2562476416375387,-0.9666110091574401,0.0005505731871262104,0.1408046969463374,4.0
25.7022705078125,-20.18682861328125,0.9112808108329773,-0.0,-0.0,-1.0,0.09595504258306424,2.0
26.89937973022461,-20.166481018066406,0.9189754724502563,-0.03492895597446535,0.7486821562366207,-0.6620083058145257,0.1521679467856099,4.0
26.58810043334961,-20.53337860107422,0.9108176827430725,-0.0,-0.0,-1.0,0.1898364969675765,1.0
25.461130142211914,-21.135536193847656,0.8936705589294434,-0.0,-0.0,-1.0,0.21764590613115362,2.0
26.224143981933594,-21.406349182128906,0.8935878276824951,-0.0,-0.0,-1.0,0.2152957591160277,1.0
25.912330627441406,-21.410091400146484,0.8917102813720703,-0.0,-0.0,-1.0,0.19613905665693956,1.0
27.54593849182129,-21.017780303955078,0.9075322151184082,-0.8839479876854425,-0.2977848796657346,0.3604998204012329,0.18715008292115823,3.0
26.379016876220703,-21.726680755615234,0.8888655304908752,-0.0,-0.0,-1.0,0.1509903200617737,1.0
27.167705535888672,-21.855052947998047,0.890753984451294,-0.0,-0.0,-1.0,0.07792268792640127,1.0
26.829072952270508,-21.847637176513672,0.8891562223434448,-0.0,-0.0,-1.0,0.09715623631379082,2.0
26.591062545776367,-21.809532165527344,0.8885760307312012,-0.0,-0.0,-1.0,0.18293096613120868,2.0
27.68018913269043,-19.642953872680664,0.36182886362075806,-0.0,-0.0,-1.0,0.03607006132974756,1.0
25.25925064086914,-20.327449798583984,1.0067028999328613,-0.0,-0.0,-1.0,0.09259396953402362,1.0
26.399120330810547,-20.665510177612305,1.0041817426681519,-0.7409356021861339,0.047249757722471496,-0.669911855252793,0.18075997048903245,4.0
26.425382614135742,-21.042057037353516,0.9991706013679504,-0.0,-0.0,-1.0,0.14182846024379225,1.0
27.643306732177734,-21.108192443847656,0.9991106986999512,-0.0,-0.0,-1.0,0.12038431803366231,1.0
26.544588088989258,-21.830820083618164,0.9885943531990051,-0.0,-0.0,-1.0,0.09921105465467808,2.0
27.369550704956055,-19.804136276245117,0.5901781916618347,-0.0,-0.0,-1.0,0.06967134460213528,1.0
25.530765533447266,-20.05266761779785,0.6218960881233215,0.9074214561051176,-0.42021258011813567,-0.002772816353004631,0.14134090438648086,3.0
26.777114868164062,-20.76085090637207,0.5513511896133423,-0.0,-0.0,-1.0,0.06893320649380966,1.0
26.736190795898438,-20.693180084228516,0.5562694072723389,-0.0,-0.0,-1.0,0.09805461368605892,1.0
26.894325256347656,-21.352439880371094,0.5144383311271667,-0.0,-0.0,-1.0,0.1474493141172921,2.0
26.68315315246582,-21.302059173583984,0.5230056047439575,-0.0,-0.0,-1.0,0.15226230076129577,2.0
25.792190551757812,-21.448564529418945,0.5378140211105347,-0.0,-0.0,-1.0,0.1225227169634221,2.0
27.258216857910156,-21.588878631591797,0.4907746911048889,-0.0,-0.0,-1.0,0.05314812255678492,2.0
27.056915283203125,-21.418689727783203,0.5061999559402466,-0.0,-0.0,-1.0,0.04801062603544921,1.0
26.054725646972656,-21.567108154296875,0.5244163274765015,-0.0,-0.0,-1.0,0.16128388709699212,2.0
25.915319442749023,-21.52791976928711,0.5302098393440247,-0.0,-0.0,-1.0,0.2351360634692702,1.0
27.32096290588379,-21.829959869384766,0.47505760192871094,-0.0,-0.0,-1.0,0.09464819308194221,1.0
27.17150115966797,-21.821199417114258,0.4797999858856201,-0.0,-0.0,-1.0,0.09960252514597635,1.0
25.375791549682617,-20.159975051879883,0.8853924870491028,-0.0,-0.0,-1.0,0.2676851305161252,1.0
25.23800277709961,-20.76888656616211,0.8753072023391724,-0.0,-0.0,-1.0,0.172646787720289,1.0
25.38663101196289,-21.492305755615234,0.8685811758041382,-0.0,-0.0,-1.0,0.17674276771992398,1.0
25.269817352294922,-21.40359115600586,0.8677499890327454,-0.0,-0.0,-1.0,0.12466380717695748,1.0
25.258220672607422,-19.87798309326172,0.783200204372406,-0.0,-0.0,-1.0,0.16323673039589517,1.0
25.249773025512695,-20.26642417907715,0.7702507376670837,-0.0,-0.0,-1.0,0.21982675769959836,1.0
25.242036819458008,-20.40643882751465,0.7656152248382568,-0.0,-0.0,-1.0,0.12190266723813664,2.0
26.434146881103516,-20.820472717285156,0.7465991377830505,-0.0,-0.0,-1.0,0.2009890640586361,2.0
25.260173797607422,-21.038774490356445,0.7444829344749451,-0.0,-0.0,-1.0,0.20672404583461093,2.0
27.579761505126953,-21.127531051635742,0.7325525283813477,-0.6671395945897715,0.20389229639696457,-0.7164863521383835,0.13613964264179582,3.0
26.78849220275879,-21.193384170532227,0.7330588102340698,-0.0,-0.0,-1.0,0.19515801569803043,2.0
26.526844024658203,-21.22642707824707,0.7329484224319458,-0.0,-0.0,-1.0,0.2323061415186007,1.0
26.108022689819336,-21.360841751098633,0.7301801443099976,-0.0,-0.0,-1.0,0.1946631051719493,1.0
25.5317325592041,-21.272939682006836,0.7354941368103027,-0.9213302438232117,0.12847651095425616,0.3669391883537141,0.19135603223108716,3.0
25.3431339263916,-21.374616622924805,0.7329714894294739,-0.0,-0.0,-1.0,0.2083611744632353,2.0
26.794994354248047,-21.77692222595215,0.7140458226203918,0.43715170617423005,0.4268825516588196,-0.7916247045653734,0.14683850774122106,4.0
26.690868377685547,-21.75860595703125,0.7149994373321533,-0.0,-0.0,-1.0,0.20560529188875543,2.0
26.529691696166992,-21.776540756225586,1.4289922714233398,-0.0,-0.0,-1.0,0.04582097373464193,1.0
25.26956558227539,-19.936243057250977,0.5637925863265991,-0.8000086391619019,0.1029744031543096,-0.5910858225007054,0.15402002720271157,3.0
27.101707458496094,-19.78506851196289,0.6058835983276367,-0.0,-0.0,-1.0,0.17610308974695563,1.0
26.94001007080078,-20.099815368652344,0.5924206972122192,-0.0,-0.0,-1.0,0.14027187940536864,2.0
26.296707153320312,-20.226947784423828,0.5754958391189575,-0.0,-0.0,-1.0,0.1789814539525519,2.0
26.54840660095215,-20.579072952270508,0.5690525770187378,-0.0,-0.0,-1.0,0.14009261179392635,1.0
26.151607513427734,-21.050092697143555,0.5458345413208008,-0.0,-0.0,-1.0,0.14662439222142312,1.0
26.724300384521484,-21.223241806030273,0.5514122247695923,-0.0,-0.0,-1.0,0.12967892966877034,2.0
26.5603084564209,-21.28289794921875,0.5462735891342163,-0.0,-0.0,-1.0,0.10283458723608822,1.0
25.93091583251953,-21.31940460205078,0.5326701402664185,-0.0,-0.0,-1.0,0.1615522451516092,1.0
25.773418426513672,-21.468843460083008,0.5246725082397461,-0.0,-0.0,-1.0,0.09948417843717205,2.0
27.555156707763672,-21.168846130371094,0.5690735578536987,-0.742266818801446,0.5501638615345251,-0.3825698565854364,0.20787124138036375,5.0
26.919248580932617,-21.545867919921875,0.5445666313171387,-0.0,-0.0,-1.0,0.09826385225381717,1.0
27.358474731445312,-21.79763412475586,0.544557511806488,-0.0,-0.0,-1.0,0.13571432503210298,1.0
27.020313262939453,-21.728864669799805,0.5404592752456665,-0.0,-0.0,-1.0,0.11608718465394152,1.0
25.253013610839844,-20.03786277770996,0.5772609710693359,-0.9531922012723457,0.10674507310866671,-0.2828959469497671,0.1253517740308593,4.0
27.138965606689453,-19.56565284729004,0.5968588590621948,-0.0,-0.0,-1.0,0.17822756059202033,2.0
27.003433227539062,-19.707008361816406,0.5908147096633911,-0.0,-0.0,-1.0,0.15936005541297132,1.0
27.076772689819336,-20.11434555053711,0.5728424787521362,-0.0,-0.0,-1.0,0.13012594761090307,1.0
26.89594268798828,-20.21993637084961,0.5684386491775513,-0.0,-0.0,-1.0,0.16522791623421224,1.0
26.471227645874023,-20.395893096923828,0.561188817024231,-0.0,-0.0,-1.0,0.04838491648777973,2.0
26.54093360900879,-20.52912139892578,0.5552856922149658,0.04381104137224236,0.766576496543052,0.6406567470975857,0.13259915810341252,3.0
26.02703094482422,-21.007144927978516,0.5348556041717529,-0.0,-0.0,-1.0,0.12549682253296413,1.0
27.10802459716797,-20.989151000976562,0.5342756509780884,-0.0,-0.0,-1.0,0.035545059623595915,2.0
26.729028701782227,-21.11477279663086,0.529335618019104,-0.0,-0.0,-1.0,0.09700082907012339,1.0
27.562469482421875,-21.1517333984375,0.5262286067008972,0.32062383997260513,0.8546149760393464,0.4084526851062298,0.20204793664210027,5.0
27.323881149291992,-21.146202087402344,0.5269546508789062,-0.0,-0.0,-1.0,0.14862845341906272,1.0
26.96417236328125,-21.270530700683594,0.5221140384674072,-0.0,-0.0,-1.0,0.11459955842345391,1.0
27.640344619750977,-21.552284240722656,0.5083028078079224,-0.0,-0.0,-1.0,0.14822317255313633,2.0
25.3642578125,-20.064239501953125,1.2035106420516968,0.405527941564222,0.31255044858350495,-0.8589873722592987,0.10566754980726639,3.0
25.25235366821289,-19.868274688720703,0.7054864764213562,0.171811807377339,0.15994088520761454,-0.9720594714752471,0.11766937222664654,3.0
25.242156982421875,-20.25899314880371,0.6843439340591431,-0.0,-0.0,-1.0,0.12919056112083196,2.0
26.964624404907227,-19.92641258239746,0.6471564769744873,-0.0,-0.0,-1.0,0.15647207385522469,1.0
26.5726375579834,-20.673316955566406,0.6185236573219299,-0.0,-0.0,-1.0,0.20747688422674068,1.0
26.458660125732422,-20.709156036376953,0.6202750205993652,0.2052982197711155,0.7076499000697024,-0.6760800691413335,0.20788533373150866,5.0
26.126310348510742,-21.149141311645508,0.6067243814468384,-0.7879333715057176,-0.4796538345300987,-0.3861258876172449,0.2472384965702034,3.0
26.618688583374023,-21.24562644958496,0.5851501226425171,-0.0,-0.0,-1.0,0.2293664065287485,2.0
25.768051147460938,-21.702871322631836,0.5876953601837158,0.7404319854750275,0.45397755990565836,-0.49564589172877527,0.06237192903055663,3.0
25.681251525878906,-21.73758316040039,0.5885985493659973,-0.0,-0.0,-1.0,0.0992693954658555,1.0
27.4761962890625,-21.136001586914062,0.5625567436218262,0.7824040429291802,0.1468768047427933,-0.605203368989814,0.20142340279052562,5.0
27.257122039794922,-21.20916175842285,0.5658560395240784,-0.0,-0.0,-1.0,0.1114483438570157,2.0
26.869962692260742,-21.278573989868164,0.5749577283859253,0.7865861394109016,-0.5022732549647314,-0.35917102142821605,0.20814538251817546,6.0
27.590877532958984,-21.258771896362305,0.5517892241477966,-0.0,-0.0,-1.0,0.17878959190863478,2.0
27.60566520690918,-21.57593536376953,0.5335047245025635,-0.0,-0.0,-1.0,0.16451423571798585,2.0
25.246503829956055,-19.99458122253418,0.7891764640808105,-0.0,-0.0,-1.0,0.11390387197955235,1.0
25.299457550048828,-20.307476043701172,0.7676291465759277,-0.0,-0.0,-1.0,0.1892541332148084,1.0
26.32737922668457,-20.196577072143555,0.7259714603424072,-0.0,-0.0,-1.0,0.21009152419561877,2.0
25.341033935546875,-21.05443000793457,0.7187439203262329,-0.0,-0.0,-1.0,0.1997061845853108,1.0
26.543216705322266,-20.659578323364258,0.6835947036743164,0.09670300820902625,0.9931223791137096,0.06600354768382044,0.25820986533156753,3.0
26.468843460083008,-20.693422317504883,0.6853855848312378,0.12349196886149374,0.1684619523006419,-0.9779418716129133,0.12972326827916927,3.0
25.95429039001465,-21.16792869567871,0.6811108589172363,-0.0,-0.0,-1.0,0.2524813251684917,1.0
25.51252555847168,-21.295072555541992,0.6950175762176514,-0.0,-0.0,-1.0,0.20782686026224206,2.0
26.562236785888672,-21.118690490722656,0.6513853073120117,-0.0,-0.0,-1.0,0.2210286319006676,1.0
26.09336280822754,-21.20939826965332,0.6710225343704224,-0.0,-0.0,-1.0,0.19567454959490213,1.0
25.347332000732422,-21.788373947143555,0.6711870431900024,-0.0,-0.0,-1.0,0.11970512464952224,1.0
26.759288787841797,-21.3184814453125,0.6262322664260864,-0.0,-0.0,-1.0,0.17122177245718911,2.0
26.440479278564453,-21.65107536315918,0.6219576597213745,-0.0,-0.0,-1.0,0.13386370717545165,2.0
27.513160705566406,-21.16769790649414,0.5900694131851196,-0.4001885701722892,0.40404428706180806,-0.8225553612956235,0.2113619229343002,3.0
26.990142822265625,-21.76515007019043,0.581072211265564,-0.0,-0.0,-1.0,0.11939412953290077,2.0
26.831331253051758,-21.77499771118164,0.5902066230773926,-0.0,-0.0,-1.0,0.13255847901109893,1.0
27.586193084716797,-21.81307601928711,0.5389444828033447,-0.0,-0.0,-1.0,0.18275262462039635,2.0
27.336854934692383,-21.860332489013672,0.5520462989807129,-0.0,-0.0,-1.0,0.11221846822104825,2.0
27.046735763549805,-19.721654891967773,0.7191320657730103,-0.0,-0.0,-1.0,0.16864491065772802,2.0
26.574155807495117,-20.827516555786133,1.2379201650619507,-0.0,-0.0,-1.0,0.12497730651528233,1.0
27.353445053100586,-20.189714431762695,0.4727693796157837,-0.0,-0.0,-1.0,0.02291524217630864,1.0
27.39975929260254,-20.449085235595703,0.4643746018409729,-0.0,-0.0,-1.0,0.04400914909361744,1.0
27.6023006439209,-20.58684730529785,0.4676086902618408,-0.0,-0.0,-1.0,0.05034249808412851,1.0
27.434566497802734,-20.51036834716797,0.46342599391937256,-0.0,-0.0,-1.0,0.04654650735062034,2.0
26.90587615966797,-20.215023040771484,0.9844315052032471,-0.0,-0.0,-1.0,0.07862817259587024,1.0
25.261932373046875,-20.379745483398438,0.937993049621582,-0.0,-0.0,-1.0,0.13034991369504556,1.0
26.335399627685547,-20.403610229492188,0.966371476650238,-0.0,-0.0,-1.0,0.13649071312564448,1.0
26.555072784423828,-20.648744583129883,0.9706855416297913,-0.0,-0.0,-1.0,0.14585849944895496,2.0
25.36899757385254,-21.28566551208496,0.9322068691253662,-0.0,-0.0,-1.0,0.24978150496076298,2.0
26.155593872070312,-21.429912567138672,0.9528056979179382,-0.8508493718044642,0.3547156256856348,-0.38759795070974934,0.21985947896262228,4.0
27.558866500854492,-21.09731101989746,0.9983170032501221,-0.0,-0.0,-1.0,0.20346806287127128,2.0
27.707544326782227,-21.339256286621094,1.0016002655029297,-0.0,-0.0,-1.0,0.1341919060921569,1.0
27.688106536865234,-19.414989471435547,0.48024314641952515,-0.0,-0.0,-1.0,0.05019019297498659,1.0
27.50076675415039,-19.44344711303711,0.4989693760871887,-0.0,-0.0,-1.0,0.06458828480147956,1.0
25.679777145385742,-20.11964225769043,0.6280883550643921,-0.0,-0.0,-1.0,0.1945046255556164,1.0
25.611026763916016,-20.142494201660156,0.6328665018081665,-0.0,-0.0,-1.0,0.177967860404809,1.0
27.62075424194336,-20.03995132446289,0.42417722940444946,-0.0,-0.0,-1.0,0.019001628910453944,1.0
25.534788131713867,-20.45615005493164,0.6100090742111206,-0.0,-0.0,-1.0,0.155542929597762,1.0
25.62545394897461,-20.786962509155273,0.5685427188873291,-0.0,-0.0,-1.0,0.09740348958493056,1.0
25.632129669189453,-21.333629608154297,0.5141326189041138,-0.0,-0.0,-1.0,0.12646255153280306,1.0
25.542966842651367,-21.414474487304688,0.5155298709869385,-0.0,-0.0,-1.0,0.07653433017059205,1.0
25.47201156616211,-21.44864273071289,0.5195918083190918,-0.0,-0.0,-1.0,0.08252904223128443,1.0
25.76936149597168,-20.335960388183594,1.1300621032714844,-0.0,-0.0,-1.0,0.15062473309874894,1.0
25.738285064697266,-20.686437606811523,1.1108529567718506,-0.0,-0.0,-1.0,0.11758840357260712,1.0
26.993572235107422,-20.855735778808594,0.9486513733863831,-0.0,-0.0,-1.0,0.07724369298798839,1.0
25.758270263671875,-21.67823028564453,1.043364405632019,-0.0,-0.0,-1.0,0.0797510598789807,1.0
26.654769897460938,-21.30942726135254,0.6672755479812622,-0.0,-0.0,-1.0,0.22742805618572937,1.0
26.44342041015625,-21.030038833618164,0.6656688451766968,-0.25297800296421247,-0.03816474503280999,-0.9667189779107574,0.20004217238953642,5.0
26.80847930908203,-21.787790298461914,0.6617571711540222,-0.0,-0.0,-1.0,0.16022205835079414,1.0
26.524272918701172,-21.595584869384766,0.655684232711792,-0.0,-0.0,-1.0,0.1677787215526319,1.0
26.15099334716797,-21.077625274658203,0.6531994938850403,-0.0,-0.0,-1.0,0.17680615706533057,2.0
26.0386962890625,-21.063814163208008,0.6490657925605774,-0.0,-0.0,-1.0,0.23871032616053287,1.0
26.66691017150879,-20.0895938873291,0.6959207057952881,-0.0,-0.0,-1.0,0.1313068077789171,1.0
26.377241134643555,-20.60230255126953,0.672902524471283,-0.0,-0.0,-1.0,0.18118967729895613,2.0
26.476512908935547,-20.638086318969727,0.8141044974327087,-0.0,-0.0,-1.0,0.20677688455793108,2.0
26.24074935913086,-21.282264709472656,0.7926901578903198,-0.0,-0.0,-1.0,0.16763454585971888,2.0
26.279842376708984,-21.7905330657959,0.793609619140625,-0.0,-0.0,-1.0,0.13890993918795042,1.0
26.026277542114258,-21.39839744567871,0.7751277685165405,-0.0,-0.0,-1.0,0.20341643250997476,1.0
27.56486701965332,-21.1425724029541,0.44574975967407227,-0.0,-0.0,-1.0,0.15378881397880678,1.0
27.253429412841797,-20.95524024963379,0.43996500968933105,-0.0,-0.0,-1.0,0.032075764145206104,2.0
27.623275756835938,-21.672266006469727,0.42510199546813965,-0.0,-0.0,-1.0,0.12755874710643345,1.0
27.363222122192383,-21.38131332397461,0.4263056516647339,-0.0,-0.0,-1.0,0.058636280505209984,1.0
26.99144744873047,-21.056921005249023,0.4235323667526245,-0.0,-0.0,-1.0,0.04431229247075497,1.0
25.302263259887695,-20.97797393798828,0.875124454498291,-0.0,-0.0,-1.0,0.17562695142325058,1.0
25.328378677368164,-21.15475082397461,0.8726921081542969,0.2233923828874585,-0.015294682558070984,-0.9746085962853553,0.22735056167882925,4.0
27.44997787475586,-21.806724548339844,0.9171431064605713,-0.0,-0.0,-1.0,0.09613055284636182,1.0
27.200481414794922,-21.621231079101562,0.9085640907287598,-0.0,-0.0,-1.0,0.22726952164890662,1.0
26.995044708251953,-21.682842254638672,0.8976552486419678,-0.0,-0.0,-1.0,0.17868738652891275,1.0
26.635690689086914,-21.239429473876953,0.8886654376983643,-0.0,-0.0,-1.0,0.16049954398767705,1.0
25.284313201904297,-20.906448364257812,0.5737349987030029,-0.0,-0.0,-1.0,0.12375669471173599,2.0
27.615970611572266,-21.175525665283203,0.620368480682373,-0.0,-0.0,-1.0,0.2209749604617324,1.0
26.30136489868164,-21.725399017333984,1.485124945640564,-0.0,-0.0,-1.0,0.053948147287879465,1.0
25.360795974731445,-20.33867645263672,0.8680660724639893,-0.0,-0.0,-1.0,0.2571095564864321,1.0
25.273149490356445,-21.106971740722656,0.8723741769790649,-0.0,-0.0,-1.0,0.1834301824553271,1.0
26.375072479248047,-21.245269775390625,0.8337060213088989,-0.0,-0.0,-1.0,0.24526648795517877,1.0
26.1530704498291,-21.43787384033203,0.8417882323265076,-0.42261022100216167,0.37378479019011035,-0.8256424963184971,0.1852993770582705,5.0
26.692523956298828,-20.539936065673828,0.8216217756271362,-0.0,-0.0,-1.0,0.2044750852361446,1.0
26.83968162536621,-21.767059326171875,0.8181854486465454,-0.05714454883300973,0.9916405939609695,0.11568678812814806,0.16158060631365095,3.0
27.283737182617188,-21.763179779052734,0.802695095539093,-0.0,-0.0,-1.0,0.0572383727223404,2.0
25.26852035522461,-20.085617065429688,0.6672927737236023,-0.0,-0.0,-1.0,0.10489810648907709,1.0
25.255020141601562,-20.446670532226562,0.6799004077911377,-0.0,-0.0,-1.0,0.10504782774426898,2.0
25.351207733154297,-21.150108337402344,0.6872091889381409,-0.882116676877273,0.4503581136717949,-0.13801354217966996,0.23396771421847604,3.0
25.721508026123047,-20.23436737060547,0.607906699180603,-0.0,-0.0,-1.0,0.17083297520218263,1.0
26.160503387451172,-21.24691390991211,0.576085090637207,-0.0,-0.0,-1.0,0.20234021746058525,1.0
26.909770965576172,-21.241962432861328,0.47063183784484863,-0.0,-0.0,-1.0,0.11926805198921732,1.0
27.31534767150879,-21.567554473876953,0.4233030676841736,-0.0,-0.0,-1.0,0.05467862976435719,1.0
27.207908630371094,-21.661819458007812,0.4411492943763733,-0.0,-0.0,-1.0,0.07862776600442901,1.0
27.137157440185547,-21.811201095581055,0.9161551594734192,-0.0,-0.0,-1.0,0.0741159048572083,2.0
27.581201553344727,-21.83568000793457,0.8598484396934509,-0.0,-0.0,-1.0,0.10604552627169767,1.0
25.94882583618164,-21.44395637512207,0.8278381824493408,-0.0,-0.0,-1.0,0.16654053167470365,1.0
26.11178970336914,-21.52347755432129,0.8177632093429565,-0.0,-0.0,-1.0,0.16038568092988031,2.0
26.61365509033203,-21.84727668762207,0.7873684167861938,-0.0,-0.0,-1.0,0.15827857934320688,1.0
26.40201759338379,-20.801713943481445,0.7911131381988525,-0.0,-0.0,-1.0,0.16882005808332273,1.0
25.253604888916016,-20.31934356689453,1.1076304912567139,-0.0,-0.0,-1.0,0.10168838371030377,1.0
27.270034790039062,-21.827869415283203,0.9794601202011108,-0.0,-0.0,-1.0,0.08013275582362961,2.0
25.8902645111084,-21.826744079589844,0.6537748575210571,-0.0,-0.0,-1.0,0.16900865581435245,1.0
25.611251831054688,-21.140201568603516,0.6745179891586304,-0.0,-0.0,-1.0,0.240748321621199,2.0
26.01280403137207,-21.32275390625,0.6461586356163025,-0.0,-0.0,-1.0,0.20989115163602418,2.0
26.42273712158203,-20.805919647216797,0.6184007525444031,-0.0,-0.0,-1.0,0.1752758376258162,1.0
26.88315773010254,-21.18484878540039,0.5854037404060364,-0.0,-0.0,-1.0,0.18149719474522072,1.0
27.29106903076172,-21.60385513305664,0.5559773445129395,-0.0,-0.0,-1.0,0.0624048622989781,1.0
25.292112350463867,-20.3909912109375,1.170424222946167,-0.649923173330209,0.018739232978201265,-0.7597688529518566,0.13902592854249035,3.0
25.234394073486328,-19.565776824951172,1.164428949356079,0.8322186600157516,-0.478781943486451,-0.279606781950874,0.0511889650963541,6.0
25.388545989990234,-21.38318634033203,0.6495352983474731,-0.0,-0.0,-1.0,0.17550048216805325,1.0
25.258085250854492,-21.067657470703125,0.6579993367195129,-0.0,-0.0,-1.0,0.16695676856796346,1.0
25.828821182250977,-21.361373901367188,0.6413253545761108,-0.0,-0.0,-1.0,0.18553817757897764,2.0
25.902204513549805,-21.4180908203125,0.6388185620307922,0.9162167721744664,0.18105584267639568,-0.3574431538286094,0.15118326022297934,3.0
26.133472442626953,-21.18655014038086,0.6385793685913086,-0.9418991429494633,-0.14350260219876462,0.3036988766414025,0.23128743366390753,4.0
26.63542366027832,-21.477333068847656,0.6230787038803101,-0.0,-0.0,-1.0,0.1470082240999103,1.0
26.290630340576172,-20.797863006591797,0.6427295804023743,-0.0,-0.0,-1.0,0.19005832499876146,1.0
25.268476486206055,-21.2460880279541,0.8604767322540283,-0.0,-0.0,-1.0,0.20366180265629122,2.0
25.34451675415039,-20.271474838256836,0.8735302686691284,-0.3640871988960064,0.5984692453301557,-0.7136351126409167,0.2426650339315912,3.0
25.595731735229492,-21.13606834411621,0.8619424104690552,-0.0,-0.0,-1.0,0.16297613385118248,1.0
25.408203125,-19.802146911621094,0.8798096776008606,-0.0,-0.0,-1.0,0.11215071279142425,1.0
26.16066551208496,-21.649200439453125,0.8549157977104187,-0.0,-0.0,-1.0,0.25494093173423804,1.0
26.34314727783203,-21.53329849243164,0.8563671708106995,-0.0,-0.0,-1.0,0.13775405429959142,1.0
26.764850616455078,-20.598304748535156,0.868508517742157,-0.0,-0.0,-1.0,0.17047713607575588,1.0
27.695913314819336,-21.18729591369629,0.8595871925354004,-0.0,-0.0,-1.0,0.10916890769218864,1.0
25.258686065673828,-20.155418395996094,0.5387533903121948,-0.0,-0.0,-1.0,0.11084371573802518,1.0
25.37674331665039,-19.961280822753906,0.53826904296875,-0.0,-0.0,-1.0,0.15554936367432204,1.0
25.87603759765625,-20.186614990234375,0.509941577911377,-0.0,-0.0,-1.0,0.13974903942661562,1.0
26.06367301940918,-20.340003967285156,0.4975391626358032,-0.0,-0.0,-1.0,0.11132911733916107,1.0
26.27452850341797,-20.240631103515625,0.4903597831726074,-0.0,-0.0,-1.0,0.2030881939519316,2.0
26.19520378112793,-20.329147338867188,0.4917885661125183,-0.0,-0.0,-1.0,0.21338840897000902,1.0
26.477519989013672,-21.774402618408203,1.3754338026046753,-0.0,-0.0,-1.0,0.03553188429816154,2.0
25.246124267578125,-21.20478057861328,1.0952190160751343,-0.0,-0.0,-1.0,0.16948089331243357,1.0
25.234806060791016,-19.658777236938477,1.100532054901123,0.4161424774743474,-0.44905491655942104,-0.7906801631224374,0.05281039698640899,3.0
26.635913848876953,-20.561649322509766,0.994106113910675,-0.0,-0.0,-1.0,0.1433028806684271,2.0
26.69734764099121,-21.861085891723633,0.9858688116073608,-0.0,-0.0,-1.0,0.1197248899268764,2.0
27.550643920898438,-21.011390686035156,0.924347996711731,0.013893539383163582,0.9478910006926775,-0.31829172211862955,0.2068588058584972,4.0
27.401325225830078,-21.813570022583008,0.9333616495132446,-0.6312025526886114,0.7737109675931251,0.054356932451080905,0.07149130803835893,3.0
25.428466796875,-21.040668487548828,0.9193215370178223,-0.0,-0.0,-1.0,0.21047786572776989,2.0
25.964527130126953,-21.516796112060547,0.8784389495849609,-0.0,-0.0,-1.0,0.22749329178738414,1.0
26.16592788696289,-21.426067352294922,0.865917444229126,-0.0,-0.0,-1.0,0.20685706835565276,2.0
26.611875534057617,-20.59227752685547,0.8448454141616821,-0.0,-0.0,-1.0,0.24238897645954796,2.0
26.543439865112305,-20.706722259521484,0.8482376337051392,0.6607107269015171,-0.4690191587304382,-0.5860736848733792,0.1810843344947861,3.0
27.057092666625977,-21.861190795898438,0.8012303113937378,-0.0,-0.0,-1.0,0.07890925333692676,1.0
