x,y,z,nx,ny,nz,curvature,density
33.212528228759766,-15.300704956054688,0.03745770454406738,-0.0,-0.0,-1.0,0.03166540759298035,1.0
33.483463287353516,-15.214879989624023,0.024239540100097656,-0.0,-0.0,-1.0,0.07426376451922434,2.0
32.62608337402344,-15.078659057617188,0.08827042579650879,0.2616388660827032,0.5930022372235852,-0.7615073541357167,0.03876377891912177,3.0
31.997276306152344,-14.861896514892578,0.14033865928649902,-0.15771715979863088,-0.797059014969587,0.5829427280280324,0.07661650128574678,3.0
32.37726593017578,-14.761978149414062,0.12210512161254883,-0.0,-0.0,-1.0,0.027161934430701584,2.0
33.040321350097656,-14.867673873901367,0.07316851615905762,-0.0,-0.0,-1.0,0.05743827926120992,1.0
32.9808349609375,-15.486865997314453,0.055739402770996094,-0.0,-0.0,-1.0,0.10770911029539314,2.0
33.7090950012207,-15.59109115600586,0.0005948543548583984,-0.0,-0.0,-1.0,0.08348728541433627,1.0
33.07509231567383,-15.384235382080078,0.05536794662475586,-0.0,-0.0,-1.0,0.06511478753737157,1.0
33.400611877441406,-15.276765823364258,0.03958392143249512,-0.0,-0.0,-1.0,0.04929816831599747,2.0
32.61085891723633,-15.050172805786133,0.10522246360778809,0.5338344514164107,0.6245452415387519,-0.5700561549112871,0.03876377891912175,3.0
32.824363708496094,-15.271862030029297,0.07844853401184082,-0.0,-0.0,-1.0,0.020870080630704658,1.0
33.39128112792969,-15.236124038696289,0.042563438415527344,-0.0,-0.0,-1.0,0.07912305621060851,2.0
31.838462829589844,-14.885913848876953,0.16410374641418457,-0.0,-0.0,-1.0,0.09911121502402048,2.0
32.10737228393555,-14.812711715698242,0.15140891075134277,-0.0,-0.0,-1.0,0.13207416120521004,2.0
33.08528137207031,-14.907495498657227,0.0820302963256836,0.45931431888905044,0.4437810622877199,-0.7694730178624006,0.058852272384737885,3.0
32.33451843261719,-14.533069610595703,0.15305256843566895,-0.0,-0.0,-1.0,0.08853640913496959,2.0
33.53821563720703,-14.417200088500977,0.07915043830871582,-0.32711321153276823,0.8495512033427874,-0.4138353534191343,0.21614945447478243,3.0
31.847566604614258,-15.14157485961914,0.4021979570388794,0.2650609934256822,0.356608190658583,-0.8958645367015048,0.12422547572356933,3.0
32.13768768310547,-15.199739456176758,0.38152289390563965,-0.0,-0.0,-1.0,0.07580428633733244,2.0
33.256248474121094,-15.560270309448242,0.04649949073791504,-0.0,-0.0,-1.0,0.12723410523117357,2.0
31.887508392333984,-14.957319259643555,0.1314232349395752,-0.31133988336614365,0.1604203776338649,-0.9366604397888085,0.0982908144731584,4.0
32.6579704284668,-15.088626861572266,0.09146404266357422,-0.0,-0.0,-1.0,0.039815185062849125,2.0
33.5080451965332,-15.288297653198242,0.04365110397338867,-0.0,-0.0,-1.0,0.052118081234206165,1.0
31.92726707458496,-14.797321319580078,0.13521385192871094,-0.0,-0.0,-1.0,0.04377781449473514,2.0
32.24528884887695,-14.665254592895508,0.12542593479156494,-0.0,-0.0,-1.0,0.07400377159187353,1.0
33.081153869628906,-14.910989761352539,0.07755124568939209,0.45931431888905044,0.4437810622877199,-0.7694730178624006,0.05885227238473786,3.0
32.39310073852539,-14.459857940673828,0.12580156326293945,-0.0,-0.0,-1.0,0.11083559304081628,2.0
31.726818084716797,-15.28471565246582,0.23041033744812012,-0.0,-0.0,-1.0,0.13699926175395147,1.0
31.765583038330078,-14.937004089355469,0.24247241020202637,0.1446283291032827,-0.38125268386621636,-0.9130876395317152,0.16087235493369376,3.0
31.943021774291992,-14.411789894104004,-0.0021622180938720703,-0.0,-0.0,-1.0,0.040358616368789776,1.0
32.50245666503906,-14.413588523864746,0.01439368724822998,-0.5060275859646686,0.7399818573300312,-0.44312857396603017,0.07708605938440197,3.0
32.319576263427734,-14.476449012756348,0.007198691368103027,-0.0,-0.0,-1.0,0.06928746654399585,2.0
32.62931823730469,-14.43055248260498,0.01762235164642334,-0.0,-0.0,-1.0,0.04314827336548955,1.0
32.776912689208984,-14.619488716125488,0.016427159309387207,-0.0,-0.0,-1.0,0.036987604816132814,2.0
32.91764831542969,-14.82068157196045,0.01460719108581543,-0.0,-0.0,-1.0,0.05922851569229114,2.0
32.97102355957031,-15.052420616149902,0.0093156099319458,-0.0,-0.0,-1.0,0.04238685931878528,1.0
33.305057525634766,-14.855484962463379,0.024584054946899414,-0.0,-0.0,-1.0,0.07708856733706135,1.0
31.73177146911621,-14.397530555725098,0.023446202278137207,-0.0,-0.0,-1.0,0.03819658389491775,1.0
31.982484817504883,-14.539040565490723,0.027379989624023438,-0.0,-0.0,-1.0,0.06508582304326697,1.0
32.436737060546875,-14.486838340759277,0.04271984100341797,0.3475823444357629,0.6933073051184372,-0.6312776683092384,0.09724297101491919,4.0
32.47584915161133,-14.83202075958252,0.034349799156188965,-0.0,-0.0,-1.0,0.032173022993224415,1.0
32.66553497314453,-14.959881782531738,0.036453962326049805,-0.0,-0.0,-1.0,0.026485256632055188,1.0
32.900325775146484,-15.112799644470215,0.03910720348358154,-0.0,-0.0,-1.0,0.027692009512888513,2.0
32.871219635009766,-15.48122501373291,0.027815580368041992,-0.0,-0.0,-1.0,0.05423421645144854,2.0
33.03371810913086,-15.059914588928223,0.07630300521850586,-0.0,-0.0,-1.0,0.04888048820919973,1.0
32.40129089355469,-14.960904121398926,0.0634993314743042,-0.007920893643056561,0.7958438798477365,-0.6054500626416658,0.041342106677467426,3.0
32.1344108581543,-14.8878755569458,0.058887362480163574,-0.0,-0.0,-1.0,0.05623597454230445,1.0
33.280067443847656,-15.380309104919434,0.07206666469573975,-0.0,-0.0,-1.0,0.0221630110806138,1.0
32.70191955566406,-15.1965913772583,0.06369268894195557,0.709112927572894,-0.5440994420563181,0.44845808399782816,0.036712145244157224,6.0
32.57142639160156,-15.0950345993042,0.0636134147644043,0.9732148803407081,-0.198000765641173,-0.11682676700538362,0.024490311962978833,4.0
33.572940826416016,-15.735377311706543,0.06756484508514404,-0.0,-0.0,-1.0,0.10393626850435483,1.0
33.338260650634766,-15.60278034210205,0.06629204750061035,-0.0,-0.0,-1.0,0.09955319423982192,1.0
33.25095748901367,-15.006012916564941,0.08337545394897461,-0.0,-0.0,-1.0,0.09678922350250503,1.0
33.65744400024414,-14.690366744995117,0.025213003158569336,-0.0,-0.0,-1.0,0.14476250834276863,2.0
31.795944213867188,-14.915287017822266,0.2856050729751587,-0.0,-0.0,-1.0,0.1909930155885527,1.0
31.733230590820312,-15.216009140014648,0.283244788646698,-0.0,-0.0,-1.0,0.1901395027168193,1.0
32.2058219909668,-14.950445175170898,0.2664499282836914,-0.0,-0.0,-1.0,0.13344733931567485,2.0
32.042564392089844,-14.961013793945312,0.2736436724662781,-0.0,-0.0,-1.0,0.1697149070354501,2.0
31.91542625427246,-14.661933898925781,0.10439097881317139,-0.0,-0.0,-1.0,0.04848447090275595,1.0
32.605262756347656,-14.406723022460938,0.06732547283172607,-0.0,-0.0,-1.0,0.052095158938927154,1.0
32.34601974487305,-14.613040924072266,0.0793219804763794,0.3821883460446137,-0.916652063856939,-0.11696607189478819,0.08209645021843463,3.0
33.21787643432617,-14.504058837890625,0.028433680534362793,-0.0,-0.0,-1.0,0.13928602617993346,1.0
33.70762634277344,-14.538505554199219,-0.0020102262496948242,-0.0,-0.0,-1.0,0.13286055659738377,1.0
33.18220520019531,-14.669536590576172,0.027679085731506348,-0.0,-0.0,-1.0,0.09243341535364542,1.0
33.630428314208984,-15.150245666503906,-0.008064031600952148,-0.0,-0.0,-1.0,0.08414842047574195,1.0
33.271888732910156,-15.264520645141602,0.011704802513122559,-0.0,-0.0,-1.0,0.04331246617349727,2.0
31.715457916259766,-14.797179222106934,0.13203811645507812,-0.0,-0.0,-1.0,0.13538224015613692,2.0
32.116004943847656,-14.834729194641113,0.08095550537109375,-0.0,-0.0,-1.0,0.055979255244392186,1.0
32.6842041015625,-14.399992942810059,-0.00048470497131347656,-0.0,-0.0,-1.0,0.02909956876882885,1.0
32.40458297729492,-14.63337230682373,0.04004716873168945,-0.0,-0.0,-1.0,0.054400059135746595,1.0
33.01700210571289,-14.5014066696167,-0.042203307151794434,-0.0,-0.0,-1.0,0.10745277765213156,1.0
33.205379486083984,-14.43904972076416,-0.06802868843078613,-0.0,-0.0,-1.0,0.1378818811735616,1.0
32.05245590209961,-15.235998153686523,0.35087084770202637,-0.0,-0.0,-1.0,0.06826463755889155,2.0
32.615623474121094,-15.835759162902832,0.1626279354095459,0.4673412970964529,0.8464234108506601,-0.25526363155008946,0.1253065693833739,5.0
31.945537567138672,-15.015116691589355,0.22304773330688477,-0.0,-0.0,-1.0,0.12746902062804993,2.0
33.393577575683594,-14.975865364074707,0.11716890335083008,0.08657708066529214,0.3103721032633249,-0.9466644424606723,0.1495189164548093,3.0
33.638179779052734,-14.828185081481934,0.10027670860290527,-0.0,-0.0,-1.0,0.1261200720658394,1.0
33.59791564941406,-14.402289390563965,0.10879707336425781,0.6264854959110363,0.734037038306781,0.26211743514484587,0.18475733330807811,7.0
31.926849365234375,-14.781134605407715,0.09192514419555664,0.6522185793238353,-0.7141837201710303,-0.2540719162510205,0.05249129453843103,5.0
32.193851470947266,-14.579977989196777,0.08420336246490479,-0.0,-0.0,-1.0,0.05808242238794907,2.0
32.68663024902344,-14.599556922912598,0.05820322036743164,-0.0,-0.0,-1.0,0.045410541074334024,1.0
33.035858154296875,-14.61546802520752,0.03931093215942383,0.01609595834130359,-0.4959323773116505,-0.8682119541097613,0.09436718643845159,4.0
33.503211975097656,-14.666342735290527,0.01269543170928955,-0.9397308919774896,-0.24443040203364133,0.23908080061950676,0.15124201609107674,3.0
33.615455627441406,-15.471880912780762,-0.006734728813171387,-0.0,-0.0,-1.0,0.032513943035106414,2.0
33.43693542480469,-15.29744815826416,-0.011433959007263184,-0.0,-0.0,-1.0,0.020758794561969846,2.0
32.8315544128418,-14.649947166442871,-0.023845553398132324,-0.0,-0.0,-1.0,0.04802673896864622,1.0
32.9556884765625,-14.613774299621582,-0.008230805397033691,-0.0,-0.0,-1.0,0.04868432290249886,1.0
33.55499267578125,-14.538359642028809,0.058097243309020996,-0.0,-0.0,-1.0,0.11830581139181094,2.0
32.59347152709961,-14.383522987365723,-0.0283433198928833,-0.0,-0.0,-1.0,0.050692537047162124,2.0
32.45507049560547,-15.837035179138184,0.1792389154434204,0.6737776388124954,0.10908182282993686,-0.7308384564076776,0.11267410072550918,3.0
32.6357421875,-15.87024211883545,0.1709122657775879,0.829654657038891,0.3875013437380397,-0.4018903565089528,0.12677930772853682,3.0
31.72104835510254,-14.945185661315918,0.23883450031280518,-0.0,-0.0,-1.0,0.1606698770553695,2.0
32.05051803588867,-15.037972450256348,0.22307193279266357,-0.1698547117479039,-0.029208337318317,-0.9850361668122323,0.19254062618304038,4.0
33.544315338134766,-14.55109691619873,0.1785670518875122,-0.0,-0.0,-1.0,0.15694581512819747,2.0
32.53087615966797,-15.84875774383545,0.2064371109008789,-0.0,-0.0,-1.0,0.1858796228463388,2.0
31.76051902770996,-14.98165225982666,0.2603127956390381,-0.0,-0.0,-1.0,0.15773406033913578,2.0
32.11522674560547,-15.070439338684082,0.24783718585968018,0.518295278460114,-0.8526333536943453,-0.06622966475746378,0.12605951969573012,4.0
33.59587860107422,-14.427247047424316,0.2302989959716797,0.7498788901791035,-0.6102960402854675,-0.2553828366896164,0.18545367472299054,4.0
32.75738525390625,-16.044525146484375,0.155448317527771,-0.0,-0.0,-1.0,0.06635086631871913,1.0
32.84765625,-16.133609771728516,0.14906716346740723,-0.0,-0.0,-1.0,0.04108446652128232,2.0
32.38920593261719,-15.803587913513184,0.17616868019104004,0.4938934393126035,-0.764501289712936,-0.4142548112348545,0.10341595347399812,4.0
32.569915771484375,-15.834380149841309,0.1696460247039795,-0.01777434020045323,0.9528290065681604,-0.30298672755216693,0.1361935211716764,3.0
31.93238067626953,-15.048558235168457,0.2200709581375122,0.6215894667225111,-0.46275131216940113,-0.6320504393995163,0.17905414170096512,5.0
31.927490234375,-14.943572044372559,0.22449254989624023,-0.0,-0.0,-1.0,0.12078122843634294,1.0
32.18684005737305,-15.015063285827637,0.21442532539367676,-0.1721740589756327,0.7551600829808544,-0.6325261595287618,0.1849617572109613,6.0
33.586822509765625,-14.412070274353027,0.19630277156829834,0.7498788901791035,-0.6102960402854675,-0.2553828366896164,0.2171621467355895,4.0
33.047237396240234,-15.998486518859863,0.080849289894104,-0.0,-0.0,-1.0,0.024221176187135502,1.0
33.10279846191406,-15.634612083435059,0.09662950038909912,-0.5076012933627004,-0.0697035006532713,-0.8587679249792652,0.24681116497053235,3.0
31.884042739868164,-14.968073844909668,0.14583849906921387,-0.31133988336614365,0.1604203776338649,-0.9366604397888085,0.0946271155135918,4.0
32.357452392578125,-15.033013343811035,0.1362628936767578,-0.0,-0.0,-1.0,0.04848662345107862,1.0
32.61312484741211,-15.201031684875488,0.1246333122253418,-0.0,-0.0,-1.0,0.031314487711380685,1.0
31.88930892944336,-14.85611629486084,0.15086662769317627,-0.0,-0.0,-1.0,0.0713595086611175,2.0
32.14818572998047,-14.823565483093262,0.14890408515930176,0.01823689248701937,0.2894374360560695,-0.9570231900856455,0.14444611578098218,3.0
33.57740783691406,-14.420369148254395,0.14371466636657715,0.6452564851601456,0.6712163539288882,0.3648460971110762,0.21963583556631286,5.0
32.5553092956543,-15.780540466308594,0.14442873001098633,-0.0,-0.0,-1.0,0.13784991149303213,2.0
32.868263244628906,-16.091096878051758,0.12522196769714355,-0.0,-0.0,-1.0,0.055341216377292446,1.0
32.35732650756836,-15.624107360839844,0.15464770793914795,-0.0,-0.0,-1.0,0.0599168445341782,1.0
31.79143524169922,-14.920089721679688,0.19433283805847168,-0.0,-0.0,-1.0,0.16449211337107744,1.0
32.166507720947266,-15.036556243896484,0.18368792533874512,-0.2863454663448254,0.35762527327618815,-0.8888815656868444,0.1402425121739889,5.0
33.58076095581055,-14.430133819580078,0.1855531930923462,0.7689504360493936,-0.6132731354549759,-0.18058595800523908,0.23182858818790983,5.0
32.85953903198242,-15.98763656616211,0.042244911193847656,-0.0,-0.0,-1.0,0.0428515643331547,1.0
33.29555892944336,-16.067699432373047,0.03599441051483154,-0.0,-0.0,-1.0,0.02348921649090852,1.0
32.82585144042969,-15.493459701538086,0.06689488887786865,-0.0,-0.0,-1.0,0.04943823875338124,2.0
31.722070693969727,-14.715869903564453,0.10751700401306152,-0.5296850383462873,0.0995055086308501,-0.8423374703194723,0.11689139824258622,3.0
32.02366256713867,-14.813959121704102,0.10253477096557617,-0.0,-0.0,-1.0,0.05096741912120902,2.0
32.481781005859375,-15.084583282470703,0.08832430839538574,-0.0,-0.0,-1.0,0.020349652201951698,1.0
32.730369567871094,-15.184759140014648,0.08256101608276367,0.8651740071046216,0.004272928770324829,0.5014535666542372,0.03503430433107603,6.0
32.379642486572266,-14.557207107543945,0.11461389064788818,-0.7259896059567661,-0.3830925757298332,-0.5711209770822827,0.10361103101376781,4.0
33.492984771728516,-14.659992218017578,-0.021010994911193848,-0.476035062672646,-0.8791706587683149,-0.021203109845898134,0.12376911480503718,3.0
32.802268981933594,-14.550857543945312,-0.038245558738708496,-0.0,-0.0,-1.0,0.025645128822129607,1.0
33.396018981933594,-14.709012985229492,-0.03954052925109863,-0.0,-0.0,-1.0,0.0900767760756363,2.0
33.464351654052734,-14.61338996887207,-0.033591628074645996,-0.0,-0.0,-1.0,0.1098803345632866,1.0
33.3587760925293,-14.43458080291748,-0.06498146057128906,-0.0,-0.0,-1.0,0.059430090442862425,1.0
32.94495391845703,-14.423813819885254,-0.04237937927246094,-0.0,-0.0,-1.0,0.10495099404142424,2.0
33.492164611816406,-14.550440788269043,-0.041982054710388184,-0.0,-0.0,-1.0,0.11643157534943296,1.0
33.5710563659668,-14.542593955993652,-0.04052555561065674,-0.0,-0.0,-1.0,0.14025809389530342,1.0
31.782899856567383,-14.954442977905273,0.3348362445831299,-0.0,-0.0,-1.0,0.15507005217358166,2.0
32.059181213378906,-15.01319694519043,0.32179129123687744,-0.0,-0.0,-1.0,0.19007170919364985,2.0
32.24989318847656,-15.593160629272461,0.28329408168792725,-0.0,-0.0,-1.0,0.06756609281985387,1.0
31.888887405395508,-15.20103645324707,0.390610933303833,-0.9940763225964315,-0.0016305697401826035,-0.10867201155531038,0.11201057594550014,3.0
31.787216186523438,-15.253509521484375,0.41604942083358765,-0.0,-0.0,-1.0,0.0687767483358691,1.0
31.934938430786133,-15.271102905273438,0.40984129905700684,-0.0,-0.0,-1.0,0.04800866425133751,2.0
33.69124221801758,-15.668497085571289,0.32185304164886475,-0.0,-0.0,-1.0,0.16507936323426287,1.0
31.73978614807129,-15.022209167480469,0.3228607773780823,-0.0,-0.0,-1.0,0.15666316952796913,1.0
32.11411666870117,-15.13093376159668,0.3070533275604248,-0.0,-0.0,-1.0,0.1157049505678483,2.0
32.189762115478516,-15.242517471313477,0.2986903190612793,-0.0,-0.0,-1.0,0.12153941067191051,2.0
32.141944885253906,-15.654211044311523,0.2764091491699219,-0.0,-0.0,-1.0,0.0617917133914436,1.0
31.86473274230957,-14.997039794921875,0.13590335845947266,-0.31133988336614365,0.1604203776338649,-0.9366604397888085,0.09598669954904454,4.0
32.20685958862305,-14.846031188964844,0.14048361778259277,-0.6976431798252173,0.2065102385548883,-0.6860375463597911,0.11021287958200698,6.0
32.036678314208984,-14.919174194335938,0.138383150100708,-0.0,-0.0,-1.0,0.10325552068176855,2.0
32.46812057495117,-15.156246185302734,0.11406445503234863,-0.25773565987600894,-0.306943930833074,-0.9161646975042311,0.02965511747670384,4.0
32.664337158203125,-15.387245178222656,0.09404826164245605,-0.0,-0.0,-1.0,0.025456753430149297,1.0
32.78108596801758,-15.830963134765625,0.060448408126831055,-0.0,-0.0,-1.0,0.03819928514245823,1.0
32.80907440185547,-15.493120193481445,0.08364605903625488,-0.4359112315579845,0.778047285413695,-0.4523536446874074,0.08385347121387061,3.0
33.032596588134766,-15.70761489868164,0.06368136405944824,-0.0,-0.0,-1.0,0.12733255884087602,1.0
33.23982620239258,-14.547199249267578,0.14112281799316406,-0.0,-0.0,-1.0,0.1663102393604344,1.0
33.20146942138672,-15.610771179199219,0.06675124168395996,-0.018888551041718375,0.3342794239880017,-0.9422847177672969,0.19474343206229516,3.0
32.009281158447266,-15.095178604125977,0.21238279342651367,-0.8066092012299163,-0.5811919387280168,0.10769181421447854,0.12287446346407266,4.0
32.16584014892578,-15.237220764160156,0.20268523693084717,-0.0,-0.0,-1.0,0.09703082947691283,1.0
32.26032257080078,-15.680047988891602,0.1737116575241089,-0.0,-0.0,-1.0,0.05774948594793715,1.0
32.43986511230469,-15.86898422241211,0.16045212745666504,0.9774674811584093,0.16726227247903197,0.12876589409849437,0.11267410072550918,5.0
32.65937805175781,-16.043548583984375,0.14759135246276855,0.7341947843027472,0.6685463046580865,0.11833789431395007,0.07129973401226172,3.0
32.818702697753906,-16.194181442260742,0.1365196704864502,0.3183095575311756,-0.5115251781316599,-0.7981359644331791,0.03904923768676101,3.0
33.701881408691406,-14.478435516357422,0.242223858833313,-0.6060782949043979,0.2119628842976638,-0.766642573906506,0.16725308398560665,5.0
31.732925415039062,-14.715653419494629,0.10071682929992676,-0.5296850383462873,0.0995055086308501,-0.8423374703194723,0.11575285062947586,3.0
31.890941619873047,-14.806044578552246,0.09128272533416748,-0.20261998497323294,0.27196053671771714,-0.9407351424060111,0.05669562578630559,4.0
32.294273376464844,-14.629881858825684,0.10024762153625488,-0.13695642837425617,0.7263375751820164,-0.6735552416882195,0.07688532205544374,3.0
32.337738037109375,-14.904107093811035,0.07677066326141357,-0.0,-0.0,-1.0,0.030551154330108177,2.0
32.55534362792969,-15.002964973449707,0.06514334678649902,-0.0,-0.0,-1.0,0.016933284808982547,1.0
32.741146087646484,-15.190728187561035,0.046201348304748535,-0.24206618177540934,0.9434223061981687,-0.22662373178553835,0.039364779209398355,3.0
33.030941009521484,-14.448480606079102,0.10367381572723389,-0.0,-0.0,-1.0,0.1631672639036505,2.0
33.08976364135742,-14.949837684631348,0.06028568744659424,-0.7711783579351179,0.18337166113230807,-0.6096382321886264,0.05707673833274885,4.0
33.06890106201172,-15.439875602722168,0.01911783218383789,-0.0,-0.0,-1.0,0.07720606134038935,2.0
31.905107498168945,-14.804987907409668,0.0866239070892334,-0.20261998497323294,0.27196053671771714,-0.9407351424060111,0.058101250593616406,4.0
32.29669189453125,-14.622027397155762,0.10822582244873047,-0.13695642837425617,0.7263375751820164,-0.6735552416882195,0.07688532205544372,3.0
32.410789489746094,-14.942056655883789,0.08814942836761475,-0.007920893643056561,0.7958438798477365,-0.6054500626416658,0.0457649121799284,3.0
32.56306457519531,-15.091108322143555,0.08068394660949707,0.9732148803407081,-0.198000765641173,-0.11682676700538362,0.024490311962978822,4.0
32.685829162597656,-15.241389274597168,0.07229208946228027,-0.0,-0.0,-1.0,0.043736724816712605,2.0
32.850799560546875,-15.601446151733398,0.049527883529663086,-0.0,-0.0,-1.0,0.10231254284451358,1.0
32.858551025390625,-15.907427787780762,0.02758502960205078,-0.0,-0.0,-1.0,0.04371633227399649,1.0
33.163455963134766,-14.68214225769043,0.12122213840484619,-0.0,-0.0,-1.0,0.1023010911699027,1.0
33.052398681640625,-15.576446533203125,0.054781198501586914,-0.0,-0.0,-1.0,0.10264025278318682,1.0
31.83793067932129,-14.825133323669434,0.11271774768829346,-0.0,-0.0,-1.0,0.048816475445773166,2.0
32.30213165283203,-14.687446594238281,0.13365161418914795,-0.0,-0.0,-1.0,0.0732128343956398,2.0
32.26439666748047,-14.895394325256348,0.11788320541381836,-0.0,-0.0,-1.0,0.09090515971758999,1.0
32.51192092895508,-15.16299057006836,0.1041100025177002,-0.25773565987600894,-0.306943930833074,-0.9161646975042311,0.028805545699132896,4.0
32.66609573364258,-15.547825813293457,0.07933318614959717,-0.0,-0.0,-1.0,0.01694469266183981,1.0
32.772003173828125,-15.513751983642578,0.08388316631317139,-0.0,-0.0,-1.0,0.08061153196221855,2.0
32.79759979248047,-15.887164115905762,0.05699288845062256,-0.0,-0.0,-1.0,0.03349288992646169,2.0
31.858503341674805,-14.668062210083008,0.08795595169067383,-0.0,-0.0,-1.0,0.04045328434243284,1.0
32.42327117919922,-14.499263763427734,0.10859024524688721,-0.0,-0.0,-1.0,0.10137600216289253,1.0
32.333038330078125,-14.728464126586914,0.08823931217193604,-0.0,-0.0,-1.0,0.03825311380122908,2.0
32.60762023925781,-14.961088180541992,0.07106101512908936,-0.0,-0.0,-1.0,0.02511917481993258,1.0
33.132957458496094,-14.52700138092041,0.1122293472290039,-0.0,-0.0,-1.0,0.18854205882471248,1.0
33.14996337890625,-14.940897941589355,0.07661688327789307,-0.0,-0.0,-1.0,0.061900673768747486,1.0
32.819801330566406,-15.17495346069336,0.054360151290893555,-0.0,-0.0,-1.0,0.031615335995315644,1.0
33.086273193359375,-15.445672035217285,0.03254508972167969,-0.0,-0.0,-1.0,0.08331027026439328,2.0
31.745433807373047,-14.930828094482422,0.15341532230377197,-0.954577018991299,0.1486594033472991,-0.2582307042357864,0.10630739785598178,3.0
32.19902038574219,-14.979089736938477,0.1516958475112915,-0.0,-0.0,-1.0,0.09915920870473856,2.0
31.930849075317383,-15.059402465820312,0.14364397525787354,-0.0,-0.0,-1.0,0.19912529652610125,1.0
32.63175964355469,-15.258295059204102,0.12878990173339844,-0.0,-0.0,-1.0,0.03532575243051698,2.0
32.40024948120117,-15.292598724365234,0.12540054321289062,-0.0,-0.0,-1.0,0.04172147912283917,1.0
32.6688232421875,-15.727216720581055,0.08795857429504395,-0.0,-0.0,-1.0,0.054461089925298134,2.0
32.88981628417969,-15.811647415161133,0.08041465282440186,-0.0,-0.0,-1.0,0.09992501511239688,1.0
32.8101806640625,-16.018274307250977,0.06238687038421631,-0.0,-0.0,-1.0,0.03829810134827222,1.0
33.10516357421875,-14.440576553344727,0.20029151439666748,-0.0,-0.0,-1.0,0.19541930480697808,1.0
32.279239654541016,-15.534997940063477,0.19927537441253662,-0.0,-0.0,-1.0,0.05776300353042194,1.0
32.417518615722656,-15.79568099975586,0.1806272268295288,0.30485541021513524,-0.8016823621242296,-0.5141678413917745,0.1108297897937465,3.0
32.65985107421875,-15.98563003540039,0.168837308883667,-0.0,-0.0,-1.0,0.10022008413209232,2.0
32.14493942260742,-15.020990371704102,0.23755133152008057,-0.5718137269848841,0.4833975448414184,-0.6628392529663172,0.15081917155745017,4.0
31.919635772705078,-15.059885025024414,0.23023474216461182,0.389126880358586,-0.8179896949776019,-0.42364269130110627,0.16897373833150436,3.0
32.265220642089844,-15.152545928955078,0.2293379306793213,-0.0,-0.0,-1.0,0.09763305386153967,1.0
32.2813835144043,-15.350200653076172,0.2139725685119629,-0.0,-0.0,-1.0,0.057163555938835556,1.0
32.215660095214844,-14.894103050231934,0.1384333372116089,-0.8294447157660559,0.027706786734686455,-0.5579012434621426,0.13879797991601495,6.0
31.92182731628418,-14.884703636169434,0.12957417964935303,-0.6159382600018722,-0.6541431560394358,-0.4389952064346863,0.06719073375132464,4.0
32.6673698425293,-15.205896377563477,0.12629008293151855,-0.0,-0.0,-1.0,0.043736724816712605,2.0
32.47954177856445,-15.190604209899902,0.12203836441040039,-0.25773565987600894,-0.306943930833074,-0.9161646975042311,0.025088331251394584,4.0
32.72651290893555,-15.303890228271484,0.1197437047958374,-0.0,-0.0,-1.0,0.024387146549599833,2.0
32.672489166259766,-15.698434829711914,0.0850139856338501,-0.0,-0.0,-1.0,0.043495177330572225,2.0
33.11274337768555,-15.705810546875,0.0959862470626831,-0.0,-0.0,-1.0,0.19153964143092753,2.0
32.82937240600586,-15.883062362670898,0.07361888885498047,-0.0,-0.0,-1.0,0.03349288992646168,2.0
32.20551300048828,-15.051468849182129,0.19571328163146973,0.24904770974795953,-0.19766247556434488,-0.9481058928321622,0.15029822845534116,9.0
31.90105438232422,-15.03614330291748,0.1888357400894165,0.4236158251678312,-0.6117993488366408,-0.6680203510600857,0.14163033135339,3.0
32.314674377441406,-15.324151992797852,0.17677581310272217,-0.0,-0.0,-1.0,0.043208493623532566,1.0
32.48740768432617,-15.790059089660645,0.14337623119354248,-0.0,-0.0,-1.0,0.12021163804432553,1.0
32.78603744506836,-16.102951049804688,0.12440955638885498,0.34373060029400654,0.9390367688791238,-0.007695525620574957,0.057516438561391464,3.0
32.70922088623047,-16.04111099243164,0.12788569927215576,-0.0,-0.0,-1.0,0.08188744459694117,1.0
32.144771575927734,-14.367772102355957,-0.03998589515686035,-0.0,-0.0,-1.0,0.04913703733640279,1.0
32.08463668823242,-15.181187629699707,0.29059433937072754,-0.0,-0.0,-1.0,0.14255220407411268,2.0
31.87514305114746,-15.134117126464844,0.29954659938812256,-0.0,-0.0,-1.0,0.0910331771280228,1.0
31.94038963317871,-14.873934745788574,0.08548295497894287,0.1288145063127832,-0.9744904982839343,-0.18378000902634514,0.040767684919861304,3.0
31.895153045654297,-14.815201759338379,0.09019935131072998,-0.20261998497323294,0.27196053671771714,-0.9407351424060111,0.05669562578630554,4.0
31.77046775817871,-15.611316680908203,0.4555075168609619,0.24523260381466377,-0.9266049978624553,-0.28506867236264216,0.10689072993846022,3.0
33.175559997558594,-14.476802825927734,0.14795207977294922,-0.0,-0.0,-1.0,0.2036433970968429,1.0
32.30747985839844,-14.687347412109375,0.09924030303955078,-0.8573077906389193,-0.49687626844220306,-0.1346748898969939,0.04973139297708141,3.0
32.059783935546875,-14.78422737121582,0.08063042163848877,0.6324009437021294,-0.5824378499715773,-0.5107202730704375,0.06837615016897705,4.0
31.714719772338867,-14.654573440551758,0.08079075813293457,-0.0,-0.0,-1.0,0.09712650686666055,2.0
32.575584411621094,-15.051336288452148,0.070914626121521,0.7907555110119003,-0.276201177115837,-0.5462770648344432,0.018685586575781638,5.0
33.3480339050293,-15.061698913574219,0.09217417240142822,-0.0,-0.0,-1.0,0.1405480596630496,1.0
32.791873931884766,-15.237821578979492,0.058420777320861816,-0.0,-0.0,-1.0,0.025530784662109413,1.0
33.13957595825195,-15.584932327270508,0.03244209289550781,-0.0,-0.0,-1.0,0.16493384663861774,2.0
32.909889221191406,-15.495706558227539,0.035331010818481445,-0.0,-0.0,-1.0,0.06812153555581225,2.0
33.3484001159668,-15.84507942199707,0.0109330415725708,-0.0,-0.0,-1.0,0.044520838604723216,1.0
31.85843276977539,-15.462638854980469,0.4217681288719177,-0.33341065234422707,-0.2752501325729152,-0.9017065495059852,0.014875268937233338,3.0
32.99140548706055,-14.456182479858398,0.09849786758422852,-0.0,-0.0,-1.0,0.14186063058697249,2.0
32.397640228271484,-14.578817367553711,0.08143103122711182,-0.0,-0.0,-1.0,0.0985906402727085,2.0
32.06085205078125,-14.687736511230469,0.06605696678161621,-0.0883694821031769,-0.33622230059013686,-0.9376275375748584,0.05986572371126873,3.0
31.81279754638672,-14.70984935760498,0.06087923049926758,-0.0,-0.0,-1.0,0.047309148757045165,1.0
33.08679962158203,-14.755403518676758,0.06416022777557373,-0.0,-0.0,-1.0,0.05577052214868561,1.0
32.64846420288086,-14.893017768859863,0.04695403575897217,-0.0,-0.0,-1.0,0.02562168565329115,1.0
33.213722229003906,-15.164525032043457,0.01710522174835205,-0.0,-0.0,-1.0,0.05034031941040431,1.0
32.88270950317383,-15.148104667663574,0.018540024757385254,-0.0,-0.0,-1.0,0.03103363146289399,2.0
33.49693298339844,-15.231732368469238,0.00904858112335205,-0.0,-0.0,-1.0,0.0619995575345591,2.0
33.39238357543945,-15.316731452941895,-0.0005861520767211914,-0.0,-0.0,-1.0,0.02023474124929271,2.0
32.17533874511719,-15.350165367126465,0.381777286529541,-0.0,-0.0,-1.0,0.09928428949294613,2.0
31.96343231201172,-15.238282203674316,0.3902449607849121,-0.0,-0.0,-1.0,0.06325495168369293,2.0
32.482017517089844,-14.561365127563477,0.08332312107086182,0.13540295329156174,-0.5267104223447469,-0.8391913793845484,0.07984366339054243,3.0
32.25339889526367,-14.602792739868164,0.08492827415466309,-0.0,-0.0,-1.0,0.07877778446692696,1.0
31.87701416015625,-14.747492790222168,0.07703220844268799,-0.0,-0.0,-1.0,0.04663343593622123,2.0
32.70314407348633,-14.72931957244873,0.0547337532043457,-0.0,-0.0,-1.0,0.05978871257801419,2.0
32.54383850097656,-14.757624626159668,0.05641281604766846,-0.0,-0.0,-1.0,0.02327420506689739,1.0
33.615604400634766,-14.437920570373535,0.05769932270050049,-0.17997522697367668,0.9831383289610763,-0.03237196014139264,0.20587010841975345,3.0
33.156455993652344,-14.826664924621582,0.026285529136657715,-0.0,-0.0,-1.0,0.05019820980490373,2.0
32.88439178466797,-14.935189247131348,0.02229893207550049,-0.0,-0.0,-1.0,0.039756032627529705,1.0
33.421295166015625,-15.102106094360352,-0.019111156463623047,-0.0,-0.0,-1.0,0.11643985657406733,2.0
33.35763168334961,-15.219549179077148,-0.03155374526977539,-0.0,-0.0,-1.0,0.0548223261177608,1.0
32.031959533691406,-15.232589721679688,0.3741457462310791,-0.0,-0.0,-1.0,0.08811047063967203,2.0
31.822996139526367,-15.160155296325684,0.387532114982605,-0.0,-0.0,-1.0,0.12422547572356936,2.0
32.21070861816406,-15.34577751159668,0.35783642530441284,-0.5378686337627091,-0.16977801638544077,-0.8257558706824077,0.09552674140420395,3.0
32.598960876464844,-15.937987327575684,0.2898511290550232,-0.0,-0.0,-1.0,0.13846817366808412,1.0
33.102115631103516,-15.675821304321289,0.29533982276916504,-0.0,-0.0,-1.0,0.1368773741465843,2.0
32.29429244995117,-16.30297088623047,0.2670201063156128,-0.0,-0.0,-1.0,0.10565792039875957,1.0
31.96624183654785,-14.72030258178711,0.08714902400970459,-0.0,-0.0,-1.0,0.05025560366724819,2.0
31.71331787109375,-14.673528671264648,0.11802279949188232,-0.9319575648432796,-0.27595397072138184,-0.23516909527930552,0.10668046256259982,4.0
32.027137756347656,-14.720632553100586,0.08103060722351074,0.49563727248889466,-0.5581813622150407,-0.6654151042736633,0.06209283521606303,4.0
33.07860565185547,-16.26756477355957,0.09998118877410889,-0.0,-0.0,-1.0,0.0324566701360026,2.0
32.12881088256836,-14.592082977294922,0.09006154537200928,-0.0,-0.0,-1.0,0.07014533653793921,1.0
32.53365707397461,-14.49852180480957,0.06016850471496582,-0.0,-0.0,-1.0,0.06842164832043567,2.0
32.23530197143555,-14.546445846557617,0.08584630489349365,-0.0,-0.0,-1.0,0.06235497187360981,1.0
31.98264503479004,-15.096065521240234,0.3593543767929077,-0.9330285329247705,-0.3042800373096246,0.19201931059949007,0.1297334386159149,3.0
32.9766960144043,-14.523611068725586,0.00360715389251709,-0.1506583187911469,-0.40049653601778773,-0.9038277466513064,0.1055818979111259,3.0
32.22576904296875,-15.193904876708984,0.3228505849838257,-0.0,-0.0,-1.0,0.09753385322073783,1.0
33.618404388427734,-14.489824295043945,0.23400413990020752,0.13723414834966016,-0.8844333195323927,-0.4460319403671182,0.1359903793168004,3.0
32.2851448059082,-15.699148178100586,0.2582521438598633,-0.0,-0.0,-1.0,0.06742921844238643,1.0
32.64730453491211,-15.94345474243164,0.18923795223236084,-0.0,-0.0,-1.0,0.13885367675435648,2.0
33.25197982788086,-16.019657135009766,0.10669267177581787,-0.0,-0.0,-1.0,0.02354825481018793,1.0
32.946144104003906,-16.158493041992188,0.12885665893554688,-0.0,-0.0,-1.0,0.04244303684017788,1.0
33.51200866699219,-15.151203155517578,-0.010130643844604492,-0.0,-0.0,-1.0,0.10220230582212929,2.0
31.99392318725586,-14.39065933227539,0.02941155433654785,-0.0,-0.0,-1.0,0.03884170816194661,1.0
32.57124710083008,-14.470394134521484,0.04746544361114502,0.169339929654296,-0.7057375017162058,-0.6879379091866119,0.052095158938927126,5.0
32.257232666015625,-14.473211288452148,0.031310319900512695,0.3148496100517355,0.0025244408628281997,-0.9491382145128288,0.0519198379012614,4.0
33.0661735534668,-14.636568069458008,0.04599952697753906,-0.3679737529425629,-0.8210552081175262,-0.4364214274854653,0.07401645385461834,5.0
32.82390213012695,-14.674076080322266,0.029749512672424316,-0.010374214294374835,0.3338450814013591,-0.9425708659309887,0.04942968600639112,3.0
32.06760787963867,-15.12445068359375,0.24848401546478271,-0.0,-0.0,-1.0,0.1433015265367296,1.0
31.84642791748047,-15.06977653503418,0.24308562278747559,-0.0,-0.0,-1.0,0.1381241124412928,1.0
33.2816047668457,-14.93986988067627,0.011150717735290527,-0.0,-0.0,-1.0,0.1022052849551114,1.0
32.29610061645508,-15.297079086303711,0.24109959602355957,-0.0,-0.0,-1.0,0.0548692662435349,1.0
33.47644805908203,-15.108868598937988,-0.005409717559814453,-0.0,-0.0,-1.0,0.12457230692007949,1.0
33.070743560791016,-15.630781173706055,0.24127531051635742,-0.0,-0.0,-1.0,0.19882307099067095,1.0
32.46904373168945,-15.879597663879395,0.1857684850692749,0.7237798766050664,-0.022456558774860424,-0.6896654211931652,0.114239509882165,4.0
32.730350494384766,-16.108409881591797,0.17322826385498047,-0.0,-0.0,-1.0,0.07590480420608423,1.0
32.500823974609375,-15.75515079498291,0.5415865182876587,-0.0,-0.0,-1.0,0.07795558447827627,2.0
33.6788330078125,-15.595218658447266,0.47345393896102905,-0.0,-0.0,-1.0,0.1390064231406574,1.0
32.56188201904297,-15.080789566040039,0.049199819564819336,0.9732148803407081,-0.198000765641173,-0.11682676700538362,0.019035566475030796,4.0
32.37135696411133,-14.960880279541016,0.06392228603363037,-0.007920893643056561,0.7958438798477365,-0.6054500626416658,0.06014681171752445,3.0
32.06542205810547,-14.780750274658203,0.0849006175994873,0.6324009437021294,-0.5824378499715773,-0.5107202730704375,0.06837615016897707,4.0
31.82539939880371,-14.848316192626953,0.07292807102203369,-0.0,-0.0,-1.0,0.04724208868030847,2.0
31.718551635742188,-14.805744171142578,0.07677853107452393,-0.0,-0.0,-1.0,0.04953638799697386,1.0
31.9611759185791,-15.168416976928711,0.35023730993270874,0.3694967615481262,-0.6416080642183962,-0.6721690524974869,0.12686914670014487,3.0
31.773744583129883,-15.153301239013672,0.34858548641204834,-0.0,-0.0,-1.0,0.184394667158688,1.0
32.85456085205078,-14.714189529418945,0.14344120025634766,-0.0,-0.0,-1.0,0.0646944255227441,1.0
32.67862319946289,-14.808258056640625,0.15712463855743408,-0.0,-0.0,-1.0,0.03547723942879496,1.0
33.14190673828125,-14.823539733886719,0.12334918975830078,-0.0,-0.0,-1.0,0.05650574738697902,1.0
33.44841766357422,-14.959978103637695,0.1021268367767334,-0.0,-0.0,-1.0,0.16579813999179852,2.0
32.825035095214844,-16.224605560302734,0.15854394435882568,0.17936303453906785,-0.5521102733286816,-0.8142500524567777,0.039858343871153515,3.0
31.734981536865234,-14.465377807617188,0.028558850288391113,-0.0,-0.0,-1.0,0.03829434078605922,1.0
31.84083366394043,-15.052827835083008,0.18469727039337158,-0.0,-0.0,-1.0,0.11095677522405113,1.0
31.99740982055664,-15.084213256835938,0.1767411231994629,-0.0,-0.0,-1.0,0.21242898307500685,2.0
33.671714782714844,-15.711618423461914,0.08877098560333252,-0.0,-0.0,-1.0,0.16457363697097604,1.0
33.580413818359375,-14.371376037597656,0.1045076847076416,0.6403833668650706,0.0695596171910012,-0.7648990803359602,0.13635981695871977,4.0
31.950027465820312,-15.14317512512207,0.32001471519470215,0.3694967615481262,-0.6416080642183962,-0.6721690524974869,0.1355162408435911,3.0
32.13463592529297,-15.130430221557617,0.30544954538345337,-0.07630745909386422,-0.06037212623090941,-0.9952549311915002,0.1195851264735434,3.0
33.616844177246094,-14.491710662841797,0.17828893661499023,-0.0,-0.0,-1.0,0.1682583034375944,2.0
31.832008361816406,-14.965872764587402,0.23596620559692383,-0.0,-0.0,-1.0,0.1456696925020662,1.0
32.09544372558594,-15.0226411819458,0.21647262573242188,-0.1698547117479039,-0.029208337318317,-0.9850361668122323,0.18927956626273337,4.0
33.579627990722656,-14.503064155578613,0.10612964630126953,-0.0,-0.0,-1.0,0.16534657510368947,2.0
32.105743408203125,-14.641563415527344,0.05145084857940674,-0.0,-0.0,-1.0,0.06471531873591611,1.0
32.302833557128906,-14.494260787963867,0.03793632984161377,0.267630277550733,-0.8425093698402795,-0.4674954505334278,0.0782350854814694,4.0
32.545101165771484,-14.464485168457031,0.018738985061645508,0.4197867314467573,-0.7345161556693447,-0.5331651875000607,0.05914719389099245,3.0
32.908565521240234,-14.650848388671875,-0.013825058937072754,-0.0,-0.0,-1.0,0.06872085881220502,1.0
33.474300384521484,-14.481863021850586,-0.05783069133758545,-0.0,-0.0,-1.0,0.10484298983232847,2.0
33.66008758544922,-14.381391525268555,-0.07177841663360596,-0.0,-0.0,-1.0,0.19823113138617784,1.0
31.924354553222656,-15.414509773254395,0.43551111221313477,-0.0,-0.0,-1.0,0.012563015758227795,1.0
32.20376968383789,-15.28855037689209,0.4384404420852661,-0.0,-0.0,-1.0,0.1034222709533433,1.0
32.4806022644043,-15.363280296325684,0.4344198703765869,-0.0,-0.0,-1.0,0.07765018749079558,1.0
32.7298469543457,-15.28596305847168,0.11171865463256836,-0.0,-0.0,-1.0,0.027932541942584186,2.0
32.82460021972656,-15.201408386230469,0.1135793924331665,-0.0,-0.0,-1.0,0.028927520393895484,1.0
33.22098922729492,-15.784318923950195,0.08005869388580322,-0.0,-0.0,-1.0,0.1087199044989216,1.0
31.73120880126953,-15.487478256225586,0.1212310791015625,-0.0,-0.0,-1.0,0.10408590205807505,1.0
31.87079620361328,-14.951335906982422,0.14278101921081543,-0.6704394556940882,0.31455481097963306,-0.6719867611331208,0.08132061491615493,5.0
32.11901092529297,-15.043188095092773,0.1341184377670288,-0.0,-0.0,-1.0,0.06066573932056522,1.0
32.37651443481445,-14.953100204467773,0.13326406478881836,-0.0,-0.0,-1.0,0.060146811717524444,1.0
33.67817687988281,-14.572286605834961,0.12311291694641113,-0.0,-0.0,-1.0,0.17241927688785086,2.0
31.969318389892578,-15.066039085388184,0.34218060970306396,-0.0,-0.0,-1.0,0.12978400369160306,2.0
33.6513671875,-14.502245903015137,0.2687767744064331,0.047616280461414376,-0.9254978911535735,-0.37574771230881476,0.09696289210570483,3.0
32.017276763916016,-15.103006362915039,0.22262787818908691,-0.9791084015391301,0.06910037034580205,-0.19123774955160555,0.10736249333644844,5.0
32.13618469238281,-15.055196762084961,0.2158886194229126,-0.7184202763365511,-0.0680120301664559,-0.6922764406659744,0.10565953934687422,6.0
32.720218658447266,-15.938488006591797,0.1483466625213623,-0.0,-0.0,-1.0,0.08037261782278383,1.0
33.61801528930664,-14.443466186523438,0.1310873031616211,0.3437914262686536,0.9313077808462951,-0.12030491494246617,0.21172870485698347,6.0
33.59673309326172,-14.52630615234375,0.1300966739654541,0.864330627265509,0.4794204180909702,-0.1519494306941986,0.18181044219768364,3.0
32.02772903442383,-14.658241271972656,0.058602094650268555,0.49377667067419,-0.288920106813976,-0.8201888632360924,0.05971023401272139,4.0
32.27909469604492,-14.510576248168945,0.03861689567565918,0.12761538243189854,-0.08875068681745155,-0.9878449421625798,0.07030355071659114,4.0
32.57421875,-14.442435264587402,0.011287569999694824,0.4197867314467573,-0.7345161556693447,-0.5331651875000607,0.052095158938927175,3.0
31.726593017578125,-14.789653778076172,0.13775503635406494,-0.0,-0.0,-1.0,0.13538224015613695,2.0
32.11927032470703,-14.778576850891113,0.10512721538543701,-0.0,-0.0,-1.0,0.10298547238656643,1.0
32.360626220703125,-14.544181823730469,0.10217642784118652,-0.05938412534516022,-0.5285680765061895,-0.8468112624165656,0.12196212260527596,4.0
32.46265411376953,-14.577947616577148,0.090606689453125,-0.29982475803965386,-0.6653529358083199,-0.6836743269113682,0.0846934427030566,4.0
32.91410446166992,-14.702016830444336,0.04104650020599365,-0.0,-0.0,-1.0,0.05877667747827296,2.0
33.304718017578125,-14.603938102722168,0.013012528419494629,-0.0,-0.0,-1.0,0.11523213298618014,2.0
33.39807891845703,-14.963467597961426,-0.022229909896850586,-0.0,-0.0,-1.0,0.14314406620105397,2.0
33.6834602355957,-14.388911247253418,-0.006167173385620117,-0.0,-0.0,-1.0,0.20529490552718718,1.0
32.49580383300781,-15.822324752807617,0.5857146978378296,-0.0,-0.0,-1.0,0.07795558447827634,2.0
31.90426254272461,-14.624795913696289,0.06010270118713379,-0.0,-0.0,-1.0,0.05248325929208521,2.0
32.26213073730469,-14.505069732666016,0.032770395278930664,0.12761538243189854,-0.08875068681745155,-0.9878449421625798,0.07030355071659113,4.0
32.61791229248047,-14.368433952331543,0.006246209144592285,-0.0,-0.0,-1.0,0.04777677535850068,2.0
32.49833679199219,-15.769767761230469,0.4595738649368286,-0.0,-0.0,-1.0,0.07795558447827626,2.0
31.820247650146484,-15.451557159423828,0.4325045347213745,-0.0,-0.0,-1.0,0.03160980609151851,2.0
32.12871170043945,-15.311678886413574,0.39619171619415283,-0.0,-0.0,-1.0,0.08250287810159669,1.0
33.618839263916016,-14.583779335021973,0.21226274967193604,0.4553949006005608,0.7763217755909169,-0.4358210472778607,0.15764974758398623,7.0
32.980438232421875,-14.790474891662598,0.030879497528076172,-0.0,-0.0,-1.0,0.06326804960282281,1.0
33.55813217163086,-14.497721672058105,-0.016745328903198242,-0.0,-0.0,-1.0,0.15962628519951383,1.0
33.448638916015625,-14.748117446899414,-0.02350783348083496,-0.0,-0.0,-1.0,0.052286024035393744,1.0
31.9561710357666,-14.966652870178223,0.13656151294708252,-0.0,-0.0,-1.0,0.09354610041124038,1.0
32.23112106323242,-14.829622268676758,0.11698746681213379,-0.6731266774145279,0.6460908614668837,-0.3598153344173342,0.10750240205599526,5.0
32.207969665527344,-14.902515411376953,0.11319828033447266,-0.8932743965680852,0.43071011642089974,0.12864543539752357,0.10959489494482196,3.0
32.43460464477539,-14.574166297912598,0.11525511741638184,-0.0,-0.0,-1.0,0.08136825429376875,2.0
32.6527214050293,-14.830078125,0.06702268123626709,-0.0,-0.0,-1.0,0.0328063901123811,1.0
33.01649475097656,-14.643683433532715,0.03885340690612793,0.8084980201870203,-0.5515189508343553,-0.20532364263338126,0.06843911081254303,3.0
32.93985366821289,-14.728314399719238,0.041101813316345215,-0.0,-0.0,-1.0,0.057756903929126295,2.0
33.28383255004883,-14.433890342712402,0.02308809757232666,-0.0,-0.0,-1.0,0.09474483725397821,1.0
32.51564407348633,-15.756646156311035,0.4851405620574951,-0.0,-0.0,-1.0,0.07795558447827629,2.0
33.69446563720703,-15.688371658325195,0.014104962348937988,-0.0,-0.0,-1.0,0.09652568797748258,2.0
33.692996978759766,-16.173534393310547,-0.03292500972747803,-0.0,-0.0,-1.0,0.09772545389141024,1.0
32.00082015991211,-15.075965881347656,0.2476024627685547,-0.9762536671156742,-0.12718528746304059,-0.17536442083884166,0.16674316503798617,6.0
32.22513961791992,-15.062292098999023,0.2270183563232422,0.11372797721902818,-0.7992398522227868,-0.5901538831665571,0.18457554469792503,6.0
32.61973190307617,-15.294363021850586,0.16419744491577148,-0.0,-0.0,-1.0,0.03344181195902303,2.0
32.9444465637207,-15.768350601196289,0.08388471603393555,-0.0,-0.0,-1.0,0.12763662448180044,1.0
32.98545837402344,-15.964828491210938,0.06012773513793945,-0.0,-0.0,-1.0,0.032799321879830784,1.0
33.136409759521484,-15.63979721069336,0.07718336582183838,-0.0,-0.0,-1.0,0.25429041266446234,2.0
33.63276290893555,-14.38370132446289,0.14392125606536865,-0.7090328298934246,-0.14953906245898152,-0.6891375152552724,0.16180472543556998,5.0
33.61223220825195,-14.671676635742188,0.11950910091400146,-0.0,-0.0,-1.0,0.1228723038736091,2.0
33.412391662597656,-15.002761840820312,0.11007130146026611,-0.8098326589895903,-0.4759776908016581,-0.34295233239179285,0.15752359733024915,3.0
33.565589904785156,-15.35789680480957,0.059642910957336426,-0.0,-0.0,-1.0,0.07289663895207096,1.0
31.785367965698242,-14.608423233032227,0.04076063632965088,0.6923273557218407,0.07039582390574839,-0.7181415323568432,0.028396756842851634,3.0
31.96817398071289,-14.656156539916992,0.011027932167053223,-0.0,-0.0,-1.0,0.061854757376246225,1.0
32.240821838378906,-14.415548324584961,0.006064891815185547,-0.0,-0.0,-1.0,0.05145485502049787,2.0
31.90652847290039,-15.186771392822266,0.33132636547088623,-0.0,-0.0,-1.0,0.13987261572053933,2.0
32.106231689453125,-15.185323715209961,0.3103139400482178,0.2235909958435845,-0.8754512028684109,-0.4284766714465644,0.1270369764621142,3.0
33.16459655761719,-15.514545440673828,0.16155362129211426,-0.0,-0.0,-1.0,0.24493185047714913,1.0
33.675750732421875,-14.423219680786133,0.2034541368484497,0.8787160722122314,-0.29614877740762646,-0.3743714279640962,0.22364487848399636,5.0
33.062347412109375,-14.620636940002441,0.02260267734527588,-0.3679737529425629,-0.8210552081175262,-0.4364214274854653,0.07550144593884119,5.0
32.80363845825195,-14.933538436889648,0.021309852600097656,-0.0,-0.0,-1.0,0.027318201231103664,1.0
33.25187683105469,-14.72675609588623,-0.01633131504058838,-0.0,-0.0,-1.0,0.04836951798856459,1.0
33.08536911010742,-14.905538558959961,-0.013820648193359375,-0.0,-0.0,-1.0,0.058852272384737885,1.0
33.52897262573242,-14.678775787353516,-0.050134897232055664,-0.0,-0.0,-1.0,0.11978941370627035,2.0
32.116336822509766,-14.896469116210938,0.11679995059967041,-0.0,-0.0,-1.0,0.06991751403008147,2.0
31.962068557739258,-15.170635223388672,0.1015082597732544,-0.0,-0.0,-1.0,0.16780232970787637,1.0
31.930496215820312,-15.521907806396484,0.42243945598602295,-0.0,-0.0,-1.0,0.043698247476586814,1.0
32.49306106567383,-14.592047691345215,0.1043626070022583,0.13540295329156174,-0.5267104223447469,-0.8391913793845484,0.0749876886282417,3.0
32.40269470214844,-14.822531700134277,0.08850455284118652,-0.0,-0.0,-1.0,0.03221571767643617,1.0
32.15917205810547,-15.44418716430664,0.4068632125854492,-0.0,-0.0,-1.0,0.041260559165503405,2.0
32.784175872802734,-14.761641502380371,0.04454171657562256,-0.0,-0.0,-1.0,0.06468272604970474,1.0
33.17642593383789,-15.530344009399414,0.2894805669784546,-0.0,-0.0,-1.0,0.17379175654128512,1.0
31.811635971069336,-14.604024887084961,0.06651556491851807,0.6923273557218407,0.07039582390574839,-0.7181415323568432,0.027899343214024038,3.0
32.21882629394531,-14.465799331665039,0.01867985725402832,-0.0,-0.0,-1.0,0.06579692260440104,2.0
32.03364944458008,-14.633153915405273,0.027370572090148926,-0.0,-0.0,-1.0,0.08284483897460426,2.0
33.420326232910156,-15.022211074829102,0.11832821369171143,-0.0,-0.0,-1.0,0.15997438560251434,2.0
33.15802001953125,-15.684921264648438,0.08775150775909424,-0.0,-0.0,-1.0,0.20244923021180034,1.0
33.106895446777344,-15.90536880493164,0.07165050506591797,-0.0,-0.0,-1.0,0.03061451262834419,1.0
33.6970329284668,-15.710187911987305,0.011460065841674805,-0.0,-0.0,-1.0,0.09652568797748262,2.0
33.67173767089844,-16.072208404541016,-0.021883606910705566,-0.0,-0.0,-1.0,0.10159414428315464,1.0
32.13868713378906,-15.059502601623535,0.2899543046951294,0.2997398555933665,-0.9506691482070311,0.07990112399826167,0.14337233053804224,3.0
32.03180694580078,-15.086793899536133,0.3011573553085327,-0.0,-0.0,-1.0,0.15210094056041826,2.0
32.5247802734375,-15.719599723815918,0.5263780355453491,-0.0,-0.0,-1.0,0.17253211153194356,2.0
31.964305877685547,-16.135648727416992,0.0737619400024414,-0.0,-0.0,-1.0,0.055241758108194004,1.0
33.07666778564453,-15.663257598876953,0.11439990997314453,-0.72473138262083,0.2670781561082591,-0.6351642949460496,0.22162591217324137,3.0
33.33954620361328,-15.85179328918457,0.07301139831542969,-0.0,-0.0,-1.0,0.03564214848134749,1.0
33.18484878540039,-15.573500633239746,0.0803062915802002,-0.0,-0.0,-1.0,0.25697282098245233,2.0
33.60651779174805,-15.800010681152344,0.006453990936279297,-0.0,-0.0,-1.0,0.10385006922773286,1.0
32.94307327270508,-14.484561920166016,0.010690689086914062,-0.0,-0.0,-1.0,0.10741233949342979,2.0
31.826217651367188,-15.625003814697266,0.39675045013427734,-0.0,-0.0,-1.0,0.10343992353214387,2.0
32.43376541137695,-15.766892433166504,0.2723686695098877,-0.0,-0.0,-1.0,0.11129347320676894,1.0
