x,y,z,nx,ny,nz,curvature,density
-2.0963335037231445,35.79271697998047,-1.1974124908447266,-0.0,-0.0,-1.0,0.09483525414376945,1.0
-2.019778251647949,36.22272491455078,-0.9092533588409424,-0.0,-0.0,-1.0,0.1335729004565305,2.0
-2.174398422241211,36.283565521240234,-0.6884894371032715,-0.4951954953505973,0.12240131885734452,-0.860115886684149,0.1165426299374951,4.0
-2.2082252502441406,36.29563522338867,-0.6440694332122803,-0.706179797767021,0.49688365385875416,-0.504397390708658,0.08983774775131594,3.0
-1.4935626983642578,36.058021545410156,-1.5897209644317627,-0.0,-0.0,-1.0,0.17859920207927363,2.0
-2.244936943054199,36.214046478271484,-1.7489211559295654,-0.0,-0.0,-1.0,0.03585084138625686,2.0
-2.247354507446289,36.27193832397461,-0.49904894828796387,-0.40220154367947286,0.9154220745506463,-0.015373473493007467,0.0726652308214386,3.0
-1.469893455505371,36.13433074951172,-1.6374106407165527,0.7454871747749846,-0.5081995800129613,-0.43125637284643303,0.13610486027822158,5.0
-2.275524139404297,36.29402160644531,-0.605842113494873,-0.0,-0.0,-1.0,0.07663381428962729,2.0
-1.5654230117797852,36.15867614746094,-1.446678638458252,0.21609363910858645,-0.8208473244558909,0.5286900879252544,0.14184803844219684,6.0
-2.257735252380371,36.2225341796875,-1.802602767944336,-0.0,-0.0,-1.0,0.03585084138625672,2.0
-1.4528779983520508,36.13840103149414,-1.618093490600586,0.3929687685010207,-0.8063833641739651,-0.44195182652215564,0.14845476744402616,4.0
-2.178807258605957,36.298805236816406,-0.6821331977844238,-0.6656776703208603,0.4570373486321266,-0.5899068580644813,0.07148695290804631,4.0
-1.3363666534423828,36.12153244018555,-1.7135672569274902,0.43646636646391124,0.0976037663070499,-0.8944107645531046,0.0828238449611768,3.0
-2.160109519958496,36.251129150390625,-0.8505203723907471,0.5716774577536696,0.698199361697162,-0.43093217055817096,0.2167221464311976,3.0
-1.6174659729003906,36.241981506347656,-1.4307889938354492,-0.0,-0.0,-1.0,0.090869859275376,1.0
-1.9371671676635742,36.20384216308594,-0.992884635925293,-0.0,-0.0,-1.0,0.059677644778185365,1.0
-2.0378761291503906,36.30100631713867,-0.23826098442077637,-0.0,-0.0,-1.0,0.06366532643236608,1.0
-1.7842626571655273,36.04955291748047,-1.2315542697906494,-0.0,-0.0,-1.0,0.1392457064909415,2.0
-2.1079559326171875,36.143489837646484,-0.8287477493286133,-0.0,-0.0,-1.0,0.1555662425839351,1.0
-2.2082815170288086,36.301055908203125,-0.5413541793823242,-0.2642419185527808,0.028657669450584223,-0.9640305734058472,0.061235570282201425,3.0
-2.1133480072021484,36.293060302734375,-0.7145969867706299,-0.0,-0.0,-1.0,0.13147458373199297,2.0
-2.0440168380737305,36.26650619506836,-0.7812776565551758,-0.0,-0.0,-1.0,0.1387293110670322,1.0
-2.1280593872070312,36.131988525390625,-0.9387149810791016,-0.0,-0.0,-1.0,0.12189533141523577,1.0
-1.6469311714172363,36.178955078125,-1.3093750476837158,-0.0,-0.0,-1.0,0.10888937329317926,2.0
-2.282334804534912,36.303306579589844,-0.24491286277770996,-0.9663348535283776,0.051038556958298,-0.25217457556205614,0.051834174116949516,3.0
-1.5778729915618896,36.13920974731445,-1.5242164134979248,0.6705193348576137,-0.7287943137929173,-0.13879002040930136,0.19333059021881158,6.0
-1.7030847072601318,36.1580810546875,-1.3311359882354736,-0.0,-0.0,-1.0,0.1427099122083374,2.0
-2.2741849422454834,36.30088424682617,-0.39220428466796875,-0.7872144416467336,-0.48822609462281036,-0.37673426097473517,0.046654671446606684,3.0
-1.503575325012207,36.1346435546875,-1.592210292816162,0.2208859233640589,0.6103278627374304,-0.760729458366092,0.19628129823717938,3.0
-1.7754244804382324,36.20780944824219,-1.1477570533752441,0.6762824121911817,-0.28353777306464806,0.6798885424879704,0.131946182937017,6.0
-1.7976913452148438,36.00193786621094,-1.4957301616668701,-0.0,-0.0,-1.0,0.10121465622966881,1.0
-2.2204675674438477,36.16607666015625,-0.06009721755981445,-0.0,-0.0,-1.0,0.06762808497186928,1.0
-2.2030601501464844,36.18845748901367,-0.4048581123352051,-0.0,-0.0,-1.0,0.04773701662727812,2.0
-2.187626838684082,36.237247467041016,-0.12317776679992676,-0.0,-0.0,-1.0,0.062959829638947,1.0
-2.063084363937378,36.30240249633789,-0.6641335487365723,-0.0,-0.0,-1.0,0.08017488085279917,1.0
-2.046398162841797,36.278690338134766,-0.9086184501647949,-0.0,-0.0,-1.0,0.1427861140480715,1.0
-1.7485504150390625,36.23250198364258,-1.2437431812286377,-0.752424465421217,-0.13267399473952723,0.6451782970276138,0.09702090070084575,4.0
-2.20822811126709,36.2947998046875,-1.2813489437103271,-0.0,-0.0,-1.0,0.0680649312756247,2.0
-1.9045238494873047,36.16596984863281,-1.0846006870269775,-0.501091466501835,-0.5996714620042253,-0.6239402854895296,0.13256543832165826,4.0
-1.598505973815918,36.19382858276367,-1.5002150535583496,-0.0,-0.0,-1.0,0.18232442780245023,1.0
-2.208338737487793,36.262908935546875,-1.5565762519836426,-0.0,-0.0,-1.0,0.029427977230712787,2.0
-1.8498268127441406,36.184226989746094,-1.1695928573608398,-0.44888505047795263,-0.8900255784526301,0.07972879754183926,0.1215924789773492,7.0
-2.217867851257324,36.24409484863281,-1.2067127227783203,0.7911835270677485,0.5626074814011958,0.23979459620275123,0.05708109997482098,3.0
-1.6033039093017578,36.182281494140625,-1.4344232082366943,-0.36595476642439867,-0.6217479471332316,-0.6924641500950616,0.09086985927537602,5.0
-2.227818489074707,36.25025177001953,-1.4935309886932373,0.6693641790356599,0.7137868545315087,-0.20605805522214218,0.037199607339612965,4.0
-2.209840774536133,36.28248977661133,-0.46073389053344727,-0.5657244448206216,-0.6988016947541058,-0.4377579741605958,0.04453988376187999,3.0
-2.195317268371582,36.27040481567383,-0.8031144142150879,-0.0,-0.0,-1.0,0.14920322233119582,1.0
-1.6961126327514648,36.200172424316406,-1.247434139251709,0.8088561694273783,-0.1634729192957783,0.5648259040059904,0.16834717957007503,8.0
-2.2433853149414062,36.25932693481445,-1.3058052062988281,0.938224255081904,0.34047937552674046,0.06171743689531476,0.06994063428906262,4.0
-2.1960878372192383,36.16918182373047,-2.021369218826294,-0.0,-0.0,-1.0,0.11275213076650302,1.0
-1.957620620727539,36.15058135986328,-1.059821367263794,-0.0,-0.0,-1.0,0.11999009839185917,2.0
-1.9715242385864258,36.17597579956055,-0.9510579109191895,0.3484206036123032,0.25149502974399257,-0.9029691761032085,0.06802520320664572,3.0
-1.612264633178711,36.134010314941406,-1.4716756343841553,-0.0,-0.0,-1.0,0.14014040772645386,2.0
-2.2440948486328125,36.278411865234375,-1.689854383468628,-0.0,-0.0,-1.0,0.02551155361045792,2.0
-2.0341577529907227,36.23863220214844,-0.8319594860076904,0.44972294209613506,0.4492586544391065,-0.7719559163345795,0.16813601989772856,3.0
-2.2372875213623047,36.15674591064453,-0.8367156982421875,-0.34569521382013285,0.9317222427891648,0.11130355535103773,0.19050271483798445,4.0
-2.251443862915039,36.29742431640625,-0.8538753986358643,-0.0,-0.0,-1.0,0.14714168951054904,1.0
-2.17159366607666,36.23826599121094,-1.9075534343719482,-0.0,-0.0,-1.0,0.030527412628166942,2.0
-1.869826316833496,36.237571716308594,-1.0739328861236572,-0.151914419526079,0.22614638805719398,-0.9621745269485882,0.11395418611737625,5.0
-1.8708715438842773,36.20356750488281,-1.0263500213623047,-0.0,-0.0,-1.0,0.07280384546108787,1.0
-2.1024551391601562,36.011573791503906,-1.0277597904205322,-0.0,-0.0,-1.0,0.15112268786684976,1.0
-1.5552196502685547,36.14954376220703,-1.5467479228973389,0.6797092990520462,-0.5724076612943052,-0.45863355532904476,0.15065920828645968,7.0
-2.0235109329223633,36.231109619140625,-0.9119119644165039,-0.0,-0.0,-1.0,0.13182283107049664,2.0
-1.3389883041381836,36.19193649291992,-1.7396197319030762,0.6197963938126089,0.46738265526059214,0.6304013672085773,0.08189687258561174,3.0
-1.7945432662963867,36.23888397216797,-1.1457445621490479,-0.45038635369202407,-0.7111052857026602,0.5398901786972431,0.08897896369891224,4.0
-1.846604347229004,36.20045471191406,-1.1483283042907715,-0.15423473413926977,-0.9818802978761259,-0.11010325802481433,0.11847923719553613,9.0
-1.3269834518432617,36.17440414428711,-1.7384240627288818,0.6197963938126089,0.46738265526059214,0.6304013672085773,0.07883801483349061,3.0
-1.7938156127929688,36.205039978027344,-1.1729071140289307,0.5675315280298245,-0.7597431403806849,0.3173299943853824,0.08840715468563425,7.0
-1.4673500061035156,36.117881774902344,-1.595139741897583,0.7004172529220333,-0.18440128836717667,0.6895011505847383,0.17930073762094956,5.0
-1.8794727325439453,36.13597869873047,-1.0490539073944092,-0.01707502607959623,-0.854873977470344,-0.518554651052726,0.10331194078072514,4.0
-0.615565299987793,36.07704162597656,-2.042725086212158,-0.0,-0.0,-1.0,0.07127551973608036,1.0
-1.4779634475708008,36.14128494262695,-1.6401309967041016,0.6144052802103279,0.46310803456373645,-0.6387778173764188,0.13610486027822163,3.0
-1.876485824584961,36.185325622558594,-1.1256401538848877,-0.6367792761732038,-0.32675419286394225,-0.6983866056004825,0.13798539007605598,5.0
-1.824005126953125,36.25429916381836,-1.126563549041748,-0.5594935429834986,-0.800095864162651,-0.2163644691477613,0.10880301201539709,3.0
-1.1616840362548828,36.18661880493164,-1.9488880634307861,-0.0,-0.0,-1.0,0.09296717581704421,1.0
-1.5803461074829102,36.17376708984375,-1.4521162509918213,0.21609363910858645,-0.8208473244558909,0.5286900879252544,0.16255093820716002,6.0
-1.9548091888427734,36.18234634399414,-0.9428339004516602,0.3484206036123032,0.25149502974399257,-0.9029691761032085,0.058273551470821895,3.0
-0.8962821960449219,35.69515609741211,-1.9435086250305176,-0.0,-0.0,-1.0,0.08584104193140484,1.0
-0.9440946578979492,35.87189483642578,-1.9921135902404785,-0.0,-0.0,-1.0,0.08112242685144923,1.0
-1.4829511642456055,36.09669494628906,-1.6166677474975586,0.8347531204387469,0.047915014112876644,0.5485356682480532,0.16902785647889154,5.0
-1.8080806732177734,36.18526840209961,-1.1506438255310059,0.19138872586333927,-0.9487435363875802,-0.251507570015687,0.09348215920841804,9.0
-1.3524370193481445,36.135009765625,-1.7199387550354004,0.43646636646391124,0.0976037663070499,-0.8944107645531046,0.09701154622232143,3.0
-2.1674299240112305,36.25359344482422,-1.9257936477661133,0.9774978533691496,-0.015156112372845372,0.2104001875390006,0.03052741262816688,3.0
-1.6915102005004883,36.181373596191406,-1.2784209251403809,0.9161864132734797,-0.2594114485277535,0.305463838294829,0.1292915198421705,4.0
-2.018979072570801,36.2359619140625,-0.8246707916259766,0.44972294209613506,0.4492586544391065,-0.7719559163345795,0.12744135782604238,3.0
-2.276212692260742,36.27431869506836,-1.5832767486572266,-0.0,-0.0,-1.0,0.028750680526547227,1.0
-1.6310968399047852,36.16667938232422,-1.4191598892211914,0.35615168346315684,-0.8537227332755505,-0.37988613169591035,0.13913407875694392,4.0
-2.1178150177001953,36.05502700805664,-1.003124713897705,-0.0,-0.0,-1.0,0.1277588538878716,1.0
-2.2744035720825195,36.29407501220703,-1.0730788707733154,-0.0,-0.0,-1.0,0.040344410435315656,2.0
-1.8563604354858398,36.20750427246094,-1.1321806907653809,-0.17789848739031922,-0.9783002937114954,-0.1062104679786251,0.13401576230259163,8.0
-1.8586673736572266,36.28371810913086,-1.1457195281982422,-0.0,-0.0,-1.0,0.11113321565018479,2.0
-2.217637062072754,36.2633056640625,-0.7416672706604004,-0.276935240457041,0.9147392034867923,-0.29420921501093283,0.18607266755032387,4.0
-2.0994739532470703,36.247623443603516,-0.2476177215576172,-0.0,-0.0,-1.0,0.06555773152536938,1.0
-1.829446792602539,36.060997009277344,-1.2426323890686035,-0.0,-0.0,-1.0,0.1254266980526045,2.0
-2.273432731628418,36.23065948486328,-0.28635311126708984,-0.0,-0.0,-1.0,0.040947975554011924,2.0
-2.1917171478271484,35.90389633178711,-1.1033411026000977,-0.0,-0.0,-1.0,0.1959164688791224,2.0
-1.8710908889770508,36.21272659301758,-1.076512336730957,-0.151914419526079,0.22614638805719398,-0.9621745269485882,0.13553473972423288,5.0
-2.2639122009277344,36.229759216308594,-1.369753122329712,0.9240840674369595,-0.14173601603779476,-0.35493596333268185,0.06199039063063996,3.0
-1.7054805755615234,36.173583984375,-1.2584292888641357,0.7346297758325465,-0.10802253104682459,0.6698135749941623,0.15160462896664306,7.0
-2.1317272186279297,36.23551559448242,-0.7123303413391113,-0.0,-0.0,-1.0,0.1578265247310541,2.0
-2.2498817443847656,36.30172348022461,-0.10659289360046387,0.6027301092280285,-0.7463134971114386,-0.2823695795571182,0.06762808497186927,3.0
-2.224867820739746,36.24239730834961,-1.469292163848877,0.33888042180063915,0.9370189694363823,0.08459025142769572,0.04287978963704881,4.0
-1.6103200912475586,36.142757415771484,-1.3503170013427734,0.17281453577815983,-0.9194357352861812,-0.35323231010559947,0.0805387029487965,3.0
-2.230900764465332,36.111793518066406,-0.7914035320281982,-0.0,-0.0,-1.0,0.1753313316784428,1.0
-2.0549135208129883,36.202796936035156,-0.7760429382324219,-0.0,-0.0,-1.0,0.14059071853213423,2.0
-2.241816520690918,36.284217834472656,-0.15281009674072266,-0.0,-0.0,-1.0,0.06762808497186915,1.0
-2.219435691833496,36.236473083496094,-1.6426188945770264,-0.0999376613900189,0.4407681978605372,-0.8920402791301902,0.02763008082292261,3.0
-1.4772653579711914,36.091148376464844,-1.4968409538269043,-0.0,-0.0,-1.0,0.1341069961418433,2.0
-1.4540815353393555,36.15030288696289,-1.5009572505950928,-0.0,-0.0,-1.0,0.1737738492632976,2.0
-2.0797605514526367,36.150577545166016,-0.9202766418457031,-0.0,-0.0,-1.0,0.11894609006714438,1.0
-2.200015068054199,36.26918029785156,-0.26610803604125977,-0.7533503767166758,-0.14081592266346546,-0.6423660061252302,0.05722888768572856,5.0
-1.376185417175293,36.01966094970703,-1.6778173446655273,-0.0,-0.0,-1.0,0.12341063008732717,1.0
-1.620985984802246,36.085670471191406,-1.9623892307281494,-0.0,-0.0,-1.0,0.14711409792469446,1.0
-1.7731447219848633,35.85199737548828,-1.954270601272583,-0.0,-0.0,-1.0,0.13385574906387465,1.0
-1.1782121658325195,35.980247497558594,-1.8751046657562256,-0.0,-0.0,-1.0,0.1435720780668212,1.0
-1.8322296142578125,35.877601623535156,-1.3128492832183838,-0.0,-0.0,-1.0,0.042448194123982305,1.0
-2.1271286010742188,36.20212936401367,-0.146126389503479,-0.0,-0.0,-1.0,0.062959829638947,1.0
-2.1765289306640625,36.25476837158203,-0.459531307220459,-0.5657244448206216,-0.6988016947541058,-0.4377579741605958,0.04270117256847733,3.0
-1.9722137451171875,36.069801330566406,-1.2067523002624512,-0.0,-0.0,-1.0,0.13480351723168163,1.0
-2.2149696350097656,36.12788391113281,-0.7244675159454346,-0.0,-0.0,-1.0,0.1621844387538285,1.0
-2.2660865783691406,36.2368049621582,-0.27812492847442627,-0.0,-0.0,-1.0,0.04094797555401191,2.0
-2.185150146484375,36.253448486328125,-0.5953534841537476,-0.0,-0.0,-1.0,0.07594983024825167,2.0
-2.1627769470214844,36.184226989746094,-0.8056586980819702,0.39826904093838617,0.4113033831610716,-0.8198849297494587,0.23189557672613417,5.0
-2.218547821044922,36.00465393066406,-0.8448275327682495,-0.0,-0.0,-1.0,0.11963033667370024,1.0
-1.8560028076171875,36.154457092285156,-1.0784367322921753,-0.15020574674088927,-0.7860392522835353,-0.599650337709863,0.13124499808042242,4.0
-2.171100616455078,35.85980987548828,-1.1039255857467651,-0.0,-0.0,-1.0,0.09553317740876623,2.0
-1.3566131591796875,36.100791931152344,-1.7257107496261597,0.43646636646391124,0.0976037663070499,-0.8944107645531046,0.11085418847143409,3.0
-1.5031967163085938,36.188846588134766,-1.460054636001587,-0.0,-0.0,-1.0,0.18540777888448345,1.0
-2.2036209106445312,36.217308044433594,-1.5094084739685059,0.42886605600247085,0.6279860655851276,-0.6493900272099945,0.03378309058054346,3.0
-1.8792991638183594,36.21814727783203,-1.080427885055542,0.05119893021125725,0.2425595369143283,-0.9687845687236811,0.1232061112819827,6.0
-2.2024803161621094,36.27592468261719,-0.6715295314788818,-0.8535036068528444,0.516090591233756,-0.07198676773669911,0.09901676917660938,6.0
-2.1404495239257812,36.19272994995117,-0.7869205474853516,-0.5640579075622267,0.5222151416955292,-0.6396327248510982,0.22575366225921686,5.0
-1.5958404541015625,36.2000617980957,-1.3819327354431152,-0.0,-0.0,-1.0,0.07879600860511103,1.0
-2.273914337158203,36.26495361328125,-1.437730073928833,-0.0,-0.0,-1.0,0.0489234842573486,2.0
-2.087779998779297,36.28870391845703,-0.8503881692886353,-0.9458335123437563,-0.036421892214226446,-0.32260256151340255,0.17314597981055074,3.0
-1.4478263854980469,36.214447021484375,-1.4991569519042969,-0.0,-0.0,-1.0,0.14184840611294783,1.0
-2.0944995880126953,36.18418884277344,-0.8801060914993286,-0.0,-0.0,-1.0,0.17144150540915748,2.0
-2.2607154846191406,36.259368896484375,-0.559532880783081,-0.05649712985642311,0.924667336697067,-0.37656127092883457,0.07495884033998816,3.0
-1.5761375427246094,36.16328430175781,-1.4307756423950195,-0.5625115400721805,-0.781206033934934,-0.2707358488070508,0.11729368338670149,4.0
-2.229351043701172,36.277191162109375,-0.22910118103027344,-0.7122333525953818,-0.5868716094903272,-0.38510435653855635,0.06345372567811441,5.0
-1.30169677734375,36.167449951171875,-1.7581294775009155,0.6197963938126089,0.46738265526059214,0.6304013672085773,0.07883801483349066,3.0
-2.2711048126220703,36.27229690551758,-0.6278502941131592,-0.0,-0.0,-1.0,0.07970306778345569,2.0
-2.265474319458008,36.27947235107422,-1.6495583057403564,0.4174751805287754,0.8868192499988184,0.19815673461681574,0.02763008082292255,3.0
-1.4049301147460938,36.14317321777344,-1.5728888511657715,-0.0,-0.0,-1.0,0.1312661159595863,2.0
-2.2079029083251953,36.28968048095703,-0.4747169017791748,0.5317139023586296,0.31123926011229575,-0.7876613796570887,0.0466361812616485,4.0
-2.192178726196289,36.28583526611328,-0.7400100231170654,-0.574390824829522,0.6823239291294252,-0.45222697408386053,0.14717417708312047,3.0
-2.243143081665039,36.15758514404297,-0.6818403005599976,-0.0,-0.0,-1.0,0.12736740143641329,1.0
-2.164520263671875,36.12890625,-0.7686607837677002,-0.0,-0.0,-1.0,0.18399791576327174,1.0
-1.883188247680664,35.846290588378906,-1.3989313840866089,-0.0,-0.0,-1.0,0.039364187054369046,1.0
-2.142078399658203,36.27842330932617,-0.9179679155349731,-0.0,-0.0,-1.0,0.14041800157784237,1.0
-2.101165771484375,35.78728103637695,-0.9118987321853638,-0.0,-0.0,-1.0,0.09281519217958299,1.0
-1.8217277526855469,35.888553619384766,-1.3950155973434448,-0.0,-0.0,-1.0,0.056064503710650915,1.0
-1.7231941223144531,36.21553039550781,-1.1868213415145874,0.8105758633581422,-0.5844693597863401,0.036909852507802696,0.18735329966800154,4.0
-2.025157928466797,35.69010543823242,-1.3284651041030884,0.9011011681897533,-0.4181312070989975,-0.11481715175441742,0.07204166550645634,3.0
-2.080841064453125,36.243621826171875,-0.8656425476074219,0.6028673154959283,0.33742485566644115,-0.722976809230569,0.18688318420194755,3.0
-2.2675952911376953,36.27803039550781,-0.08178150653839111,0.6027301092280285,-0.7463134971114386,-0.2823695795571182,0.06762808497186906,3.0
-2.2597503662109375,36.19683837890625,-1.1636110544204712,-0.0,-0.0,-1.0,0.047719053561934774,2.0
-2.2469425201416016,36.27157211303711,-0.5316336154937744,-0.6153883929873053,0.7877368322643908,-0.027709364311819647,0.0826814668482244,4.0
-1.567281723022461,36.106380462646484,-1.40024733543396,-0.0,-0.0,-1.0,0.10186404586207518,1.0
-2.195171356201172,36.2156867980957,-1.3830313682556152,-0.0,-0.0,-1.0,0.059320196188673416,2.0
-2.198671340942383,36.178558349609375,-0.8371989727020264,-0.45335404890491215,0.810808790469104,0.3702150883466946,0.2010455042871239,3.0
-1.6061897277832031,36.061790466308594,-1.6103498935699463,-0.0,-0.0,-1.0,0.1254924446853362,1.0
-2.256471633911133,36.27538299560547,0.00023376941680908203,-0.0,-0.0,-1.0,0.06762808497186922,1.0
-2.264280319213867,36.222103118896484,-0.4530702829360962,-0.0,-0.0,-1.0,0.04468503074997708,1.0
-1.9907188415527344,36.176246643066406,-0.9583889245986938,0.4036169550048578,-0.029936716839382996,-0.9144381589902539,0.0705677921613208,4.0
-2.248342514038086,36.16046142578125,-0.8151779174804688,-0.18436501473785416,0.9483286529200257,-0.25822917610448337,0.1749532724901483,3.0
-2.0097732543945312,36.111572265625,-0.9730855226516724,-0.0,-0.0,-1.0,0.060599989970550994,2.0
-1.674703598022461,35.84568405151367,-1.5600874423980713,-0.0,-0.0,-1.0,0.086376807011332,1.0
-1.9283275604248047,35.816558837890625,-1.3266183137893677,-0.0,-0.0,-1.0,0.03813054176500357,1.0
-2.244091033935547,36.248443603515625,-0.5888547897338867,-0.0,-0.0,-1.0,0.10282246527457423,2.0
-1.598104476928711,36.25282287597656,-1.3269470930099487,-0.0,-0.0,-1.0,0.08654227965492965,1.0
-2.0152587890625,35.719459533691406,-1.357674479484558,-0.0,-0.0,-1.0,0.11524724745554997,2.0
-2.200450897216797,36.30390167236328,-1.3832134008407593,-0.0,-0.0,-1.0,0.05750852852006762,2.0
-2.1019763946533203,35.64409637451172,-1.3646529912948608,-0.0,-0.0,-1.0,0.11129955582065153,1.0
-1.720224380493164,36.213226318359375,-1.2099242210388184,-0.1723618822289076,-0.8687470910387612,0.464295028366876,0.16884771097168974,7.0
-2.2662525177001953,36.3088493347168,-1.1528570652008057,-0.0,-0.0,-1.0,0.06216221152983429,1.0
-1.8574600219726562,36.181671142578125,-1.1140551567077637,-0.4713415248234929,-0.7006502762900804,-0.5356550730756674,0.13798539007605606,7.0
-1.5450725555419922,36.16859817504883,-1.5215401649475098,0.7297912459257555,-0.6668914916072078,-0.15053396889754403,0.1588643301871965,7.0
-2.0973281860351562,36.267982482910156,-0.8200545310974121,0.5728456264763455,0.5815733456970805,0.5775987636773711,0.1347551198751953,3.0
-2.2147655487060547,36.234519958496094,-0.8332433700561523,-0.0,-0.0,-1.0,0.19548508789877614,2.0
-1.826019287109375,36.20551300048828,-1.2156765460968018,-0.0,-0.0,-1.0,0.1136946941649412,2.0
-1.4662971496582031,36.22875213623047,-1.6279253959655762,-0.0,-0.0,-1.0,0.09407606323517487,1.0
-1.5688648223876953,36.250205993652344,-1.4655498266220093,-0.0,-0.0,-1.0,0.13703327214623937,1.0
-1.7362499237060547,36.19451141357422,-1.2405422925949097,-0.7308838289658753,-0.5309570272185807,0.42882801191548636,0.1405987170782821,8.0
-1.6996936798095703,36.24443054199219,-1.2120115756988525,0.8105758633581422,-0.5844693597863401,0.036909852507802696,0.11741591459053234,4.0
-2.1593589782714844,35.752464294433594,-1.217151403427124,-0.0,-0.0,-1.0,0.13940745939428395,1.0
-2.104541778564453,35.69416046142578,-1.391923427581787,-0.0,-0.0,-1.0,0.11129955582065153,1.0
-1.9954338073730469,35.77246856689453,-1.4169492721557617,-0.0,-0.0,-1.0,0.0980182833709227,1.0
-1.6128854751586914,36.271366119384766,-1.2403876781463623,-0.0,-0.0,-1.0,0.11630426596842486,1.0
-2.081979751586914,35.840980529785156,-1.2025542259216309,-0.0,-0.0,-1.0,0.09653237614292381,1.0
-1.776458740234375,36.152183532714844,-1.1283379793167114,-0.0,-0.0,-1.0,0.10785308936973612,1.0
-2.1649112701416016,35.795284271240234,-1.1030343770980835,-0.0,-0.0,-1.0,0.08161591772689274,1.0
-2.225982666015625,36.29627990722656,-0.25290393829345703,-0.6930174382605346,-0.5925961165009597,-0.4105565405334413,0.05722888768572852,6.0
-2.263096809387207,36.18790817260742,-1.0283137559890747,-0.0,-0.0,-1.0,0.07494373278994196,1.0
-1.8650293350219727,36.11289978027344,-1.0090934038162231,-0.0,-0.0,-1.0,0.09155571782246602,2.0
-2.219532012939453,36.1795768737793,-1.3077569007873535,-0.0,-0.0,-1.0,0.06856376444368267,2.0
-1.6985893249511719,36.12784957885742,-1.2107038497924805,-0.0,-0.0,-1.0,0.1719744253755655,2.0
-1.5975761413574219,36.141788482666016,-1.3415601253509521,0.17281453577815983,-0.9194357352861812,-0.35323231010559947,0.07649874008605581,3.0
-2.1911354064941406,36.214111328125,-1.364363431930542,-0.0,-0.0,-1.0,0.06199039063063996,2.0
-2.1626644134521484,36.140174865722656,-1.1012701988220215,-0.0,-0.0,-1.0,0.1286205767584416,2.0
-2.2077503204345703,36.208404541015625,-0.32065343856811523,-0.0,-0.0,-1.0,0.056630645913867086,1.0
-2.205747604370117,35.97081756591797,-1.0050952434539795,-0.0,-0.0,-1.0,0.1372878864602414,1.0
-2.2324256896972656,36.119476318359375,-0.9626245498657227,-0.0,-0.0,-1.0,0.14817909573041516,1.0
-2.276132583618164,36.253204345703125,-1.768294334411621,0.8560332228731558,0.5169117403687307,-0.003061699914725233,0.03747948415178736,3.0
-1.5724067687988281,36.18225860595703,-1.5694212913513184,0.7114267572376141,-0.09233285746591915,-0.6966682226989769,0.09308623473248993,4.0
-2.210470199584961,36.279808044433594,-1.62221097946167,-0.0999376613900189,0.4407681978605372,-0.8920402791301902,0.026003001681625917,3.0
-2.044679641723633,35.78315734863281,-1.1858043670654297,-0.0,-0.0,-1.0,0.07834500663003205,1.0
-2.011089324951172,36.17149353027344,-1.2059755325317383,-0.0,-0.0,-1.0,0.12901927872679841,1.0
-2.1842212677001953,36.259151458740234,-0.5491948127746582,0.4025395919403207,0.7546682585659154,-0.5181097339691745,0.08704637980257482,4.0
-2.2574939727783203,36.28478240966797,-0.07806563377380371,0.6027301092280285,-0.7463134971114386,-0.2823695795571182,0.06762808497186909,3.0
-1.71380615234375,36.15695571899414,-1.2334296703338623,0.502275640370793,0.48588719645204964,0.7152851273541742,0.17483135921638937,6.0
-2.261770248413086,36.196529388427734,-1.2740085124969482,0.8559839811372572,-0.5166085195172623,-0.020175767608544393,0.06702394091728645,3.0
-1.8152179718017578,36.12446594238281,-1.1987543106079102,-0.0,-0.0,-1.0,0.12367361662348163,1.0
-2.202360153198242,36.23466873168945,-1.2357635498046875,0.817430771333655,0.5080208977583123,0.27151740555202813,0.09002699194208597,3.0
-1.5997438430786133,36.08651351928711,-1.5580031871795654,-0.0,-0.0,-1.0,0.1352077815881273,2.0
-1.7403497695922852,36.11958694458008,-1.3518202304840088,-0.0,-0.0,-1.0,0.15061239437924195,1.0
-1.7006464004516602,36.128761291503906,-1.2767741680145264,-0.7956484513654628,-0.28919174860949715,0.5322703019856759,0.17824132175802404,4.0
-2.2313108444213867,36.227298736572266,-1.3248322010040283,0.9638818423225,-0.18821598044009552,-0.1884317880506266,0.06856376444368265,5.0
-1.7177371978759766,36.22331619262695,-1.2187490463256836,-0.1723618822289076,-0.8687470910387612,0.464295028366876,0.11741591459053233,7.0
-2.2137680053710938,36.266048431396484,-1.2601318359375,0.05541229890298852,-0.5997555630781715,-0.7982623263608719,0.06369857185480751,3.0
-1.7670097351074219,36.218685150146484,-1.3061153888702393,-0.0,-0.0,-1.0,0.1271848501912449,1.0
-2.2512168884277344,36.26128005981445,-1.349287748336792,0.8869403302103039,0.25584883390509094,-0.38454937893051183,0.0670089236429614,5.0
-1.6455698013305664,36.11419677734375,-1.2892656326293945,-0.0,-0.0,-1.0,0.1304710996646117,1.0
-2.17714786529541,36.15980911254883,-1.3347892761230469,-0.0,-0.0,-1.0,0.0685637644436827,1.0
-2.153390884399414,36.27504348754883,-0.5426790714263916,-0.0,-0.0,-1.0,0.05889234015395222,2.0
-1.820643424987793,36.17605209350586,-1.1374928951263428,-0.2519160237554951,-0.9665652934349589,-0.04785238240895316,0.12412497393930395,8.0
-2.2578134536743164,36.195167541503906,-1.1709849834442139,-0.0,-0.0,-1.0,0.04771905356193477,2.0
-2.1373043060302734,36.22880554199219,-0.7759790420532227,-0.6160951266129895,-0.06597605141200276,-0.7849037874821382,0.20136998666301356,4.0
-2.2536792755126953,36.168724060058594,-0.7810237407684326,-0.0,-0.0,-1.0,0.18929094498381513,2.0
-1.7627191543579102,36.13080978393555,-1.2819764614105225,-0.0,-0.0,-1.0,0.19656606140600394,2.0
-2.260967254638672,36.19968032836914,-1.3206214904785156,0.7751699556419313,0.26447106795182357,0.5737304193491124,0.06856376444368267,5.0
-1.6987247467041016,36.16743087768555,-1.2563390731811523,0.7346297758325465,-0.10802253104682459,0.6698135749941623,0.15342359113394327,7.0
-2.2440805435180664,36.22647476196289,-1.290262222290039,0.9269197148988803,-0.3220918453043817,0.19255307143797157,0.06994063428906257,5.0
-2.13189697265625,36.280311584472656,-0.7981841564178467,-0.0,-0.0,-1.0,0.12944922107919857,2.0
-1.8648929595947266,36.2353630065918,-1.0750007629394531,-0.151914419526079,0.22614638805719398,-0.9621745269485882,0.11395418611737625,5.0
-2.1788463592529297,36.213401794433594,-0.7645366191864014,0.10445843849430132,0.46843077625651486,-0.8773032785092344,0.16712100771833527,4.0
-1.597696304321289,36.13569259643555,-1.4749929904937744,0.4583577075336461,-0.7921889953363317,0.40292034896802376,0.1401404077264539,5.0
-2.261296272277832,36.30582809448242,-0.42554306983947754,-0.7872144416467336,-0.48822609462281036,-0.37673426097473517,0.04579890040657634,3.0
-2.163519859313965,36.24263381958008,-0.8688087463378906,0.5716774577536696,0.698199361697162,-0.43093217055817096,0.1973927124992207,3.0
-1.9269495010375977,36.210174560546875,-1.0837745666503906,-0.1505648108638084,0.09986291519779546,-0.9835434082427391,0.0999916391158827,5.0
-1.82232666015625,36.18181610107422,-1.1992356777191162,0.37325609169789414,-0.914818999144055,-0.15422739320718165,0.11595594419952995,4.0
-2.2483558654785156,36.266231536865234,-0.7491400241851807,0.20848165318975384,0.8174396042448615,-0.5369617246091861,0.18264839983168762,3.0
-1.895148754119873,36.125152587890625,-1.1508519649505615,-0.0,-0.0,-1.0,0.13959142408313027,1.0
-2.1892638206481934,36.21908950805664,-1.5641076564788818,-0.0,-0.0,-1.0,0.02408306568113534,2.0
-1.4502615928649902,36.140907287597656,-1.4935319423675537,-0.0,-0.0,-1.0,0.1447743589780672,2.0
-2.1564278602600098,36.22369384765625,-0.656029224395752,-0.0,-0.0,-1.0,0.1452736136875663,2.0
-1.617785930633545,36.15155792236328,-1.3768765926361084,0.3965594645205372,-0.81676840522064,-0.4190822870660572,0.09298511168315907,5.0
-2.248161792755127,36.25202941894531,-1.4387340545654297,0.3297731393500465,0.940553083197249,-0.08129928813564863,0.04831816270864214,4.0
-2.268451690673828,36.24068832397461,-1.7338621616363525,0.7654385940333112,0.6405080122798024,0.062074511433309595,0.03747948415178736,3.0
-2.1382312774658203,36.19393539428711,-0.8760991096496582,-0.06178656700473228,0.1296275827982002,-0.9896358471254291,0.19023175985004795,3.0
-1.5553865432739258,36.154754638671875,-1.5100972652435303,0.7297912459257555,-0.6668914916072078,-0.15053396889754403,0.20910026624471856,7.0
-2.2331972122192383,36.22354507446289,-0.7879917621612549,-0.0,-0.0,-1.0,0.18752559540738792,2.0
-2.0267586708068848,35.98524475097656,-1.888735294342041,-0.0,-0.0,-1.0,0.06884050611196214,1.0
-1.8109893798828125,36.190711975097656,-1.1384210586547852,-0.21818529548585014,-0.3191442250132165,-0.9222484158156445,0.11198647199027362,8.0
-2.2732434272766113,36.262474060058594,-1.1945900917053223,-0.0,-0.0,-1.0,0.05708109997482098,2.0
-2.0000510215759277,35.85295104980469,-1.8677115440368652,-0.0,-0.0,-1.0,0.09621462504638205,1.0
-2.1459803581237793,36.10573959350586,-1.9360647201538086,-0.0,-0.0,-1.0,0.06507968775121534,1.0
-2.280526638031006,36.27073287963867,-1.25083327293396,-0.0,-0.0,-1.0,0.0636985718548075,1.0
-1.7699456214904785,36.196990966796875,-1.1786179542541504,0.4217725156569169,-0.8998199118146978,0.11149919882324476,0.09286852610993143,4.0
-1.558743953704834,36.15764617919922,-1.4881727695465088,0.6048220488018727,-0.7597194996862354,0.2387814295115954,0.20059055041976956,7.0
-2.1503119468688965,36.23076248168945,-0.870521068572998,0.8444977058167162,0.4597003065780228,-0.2747712739759647,0.206279551834935,4.0
-2.2905831336975098,36.307098388671875,-0.2125377655029297,-0.0,-0.0,-1.0,0.06762808497186926,2.0
-1.5720086097717285,36.16735076904297,-1.5549652576446533,0.6797092990520462,-0.5724076612943052,-0.45863355532904476,0.14539172936939745,7.0
-2.0125575065612793,36.21510314941406,-0.9697921276092529,-0.0,-0.0,-1.0,0.06517730857730762,2.0
-1.9320275783538818,36.1797981262207,-1.065159797668457,-0.4105265256067352,-0.14915993767663713,-0.8995661647514114,0.08531681685103204,4.0
-1.8879330158233643,36.22999954223633,-1.0709376335144043,0.05119893021125725,0.2425595369143283,-0.9687845687236811,0.12320611128198262,6.0
-2.1608428955078125,36.23146057128906,-1.9579906463623047,-0.0,-0.0,-1.0,0.07635225066774756,2.0
-1.71881103515625,36.12992858886719,-1.3047759532928467,0.0014110161517892391,-0.8833235971334398,-0.46876159375599485,0.13839367618826892,4.0
-2.2668604850769043,36.24884796142578,-1.3850517272949219,0.9240840674369595,-0.14173601603779476,-0.35493596333268185,0.05750852852006767,3.0
-2.1912522315979004,36.21925354003906,-0.7936320304870605,0.2928626444818456,0.9349546012186744,0.20022828253553365,0.25564421820940175,6.0
-1.5406615734100342,36.18290328979492,-1.5322000980377197,0.7974217216283926,-0.36554729206967684,-0.48009767249564694,0.1897252074296081,6.0
-2.2438533306121826,36.26408386230469,-1.6262404918670654,0.39142650386036903,0.3397971838816075,-0.8551743482482259,0.02600300168162592,4.0
-2.0049855709075928,36.120506286621094,-1.021899938583374,-0.0,-0.0,-1.0,0.12708337432168285,2.0
-2.250380754470825,36.29635238647461,-1.084503173828125,-0.0,-0.0,-1.0,0.04092596362741154,2.0
-1.6656372547149658,36.19163513183594,-1.3367230892181396,-0.0,-0.0,-1.0,0.13312589389096605,2.0
-2.2413671016693115,36.16810607910156,-0.8706033229827881,-0.0,-0.0,-1.0,0.24178136195782007,2.0
-2.005023241043091,36.27022171020508,-0.8746826648712158,-0.0,-0.0,-1.0,0.14578582802065532,1.0
-2.2776830196380615,36.30779266357422,-0.3938477039337158,-0.7872144416467336,-0.48822609462281036,-0.37673426097473517,0.046654671446606684,3.0
-1.476588249206543,36.182044982910156,-1.6036157608032227,-0.0,-0.0,-1.0,0.17005583434035126,1.0
-1.837167739868164,36.176551818847656,-1.1455297470092773,-0.15423473413926977,-0.9818802978761259,-0.11010325802481433,0.1257367464378657,9.0
-2.2413840293884277,36.280517578125,-1.2145781517028809,-0.3190719073183513,-0.3923103616855258,-0.8627199418550618,0.05708109997482098,3.0
-2.1385602951049805,36.281837463378906,-0.7075388431549072,-0.406705294900003,0.08175482642468854,-0.9098939231891652,0.12227126092736193,4.0
-2.2177844047546387,36.2813606262207,-0.7142386436462402,-0.3334300610931217,0.9427203249030086,0.01013821356074867,0.13759730533557724,5.0
-1.8371267318725586,35.94628143310547,-1.4871437549591064,-0.0,-0.0,-1.0,0.06822793346762801,1.0
-1.7218713760375977,36.09390640258789,-1.1605689525604248,-0.0,-0.0,-1.0,0.15873633653145164,2.0
-1.6968698501586914,36.07278060913086,-1.1516764163970947,-0.0,-0.0,-1.0,0.155432726602397,2.0
-1.9416675567626953,35.99201202392578,-1.242466926574707,-0.0,-0.0,-1.0,0.10035024125448283,1.0
-1.5601310729980469,36.079891204833984,-1.53305983543396,-0.0,-0.0,-1.0,0.14856527747973444,2.0
-2.2350950241088867,36.212493896484375,-1.5348498821258545,-0.0,-0.0,-1.0,0.03250181257919707,2.0
-1.4974689483642578,36.08673095703125,-1.4846651554107666,-0.0,-0.0,-1.0,0.15232902375243673,2.0
-2.1828689575195312,36.27943801879883,-1.4195725917816162,-0.0,-0.0,-1.0,0.054860512463612426,2.0
-2.0403528213500977,35.65568161010742,-1.322355031967163,-0.0,-0.0,-1.0,0.07101262247835723,2.0
-2.2020559310913086,36.29369354248047,-0.2455155849456787,-0.6930174382605346,-0.5925961165009597,-0.4105565405334413,0.06555773152536938,6.0
-2.205381393432617,36.23902130126953,-1.4596850872039795,0.33888042180063915,0.9370189694363823,0.08459025142769572,0.04650366368578482,4.0
-2.196343421936035,36.284278869628906,-0.27273106575012207,0.19992421292039683,0.7764708216866403,-0.5975980021364145,0.05722888768572859,4.0
-2.1813392639160156,36.14838790893555,-1.7592670917510986,-0.0,-0.0,-1.0,0.0305274126281669,1.0
-2.139141082763672,36.128448486328125,-1.2774338722229004,-0.0,-0.0,-1.0,0.07055095458098526,1.0
-2.115560531616211,36.23518753051758,-0.0690464973449707,-0.0,-0.0,-1.0,0.06295982963894699,1.0
-2.179703712463379,36.13016891479492,-1.6395673751831055,-0.0,-0.0,-1.0,0.02491898832084188,1.0
-1.344717025756836,36.05271530151367,-1.622633934020996,-0.0,-0.0,-1.0,0.12033266322258643,1.0
-2.2075490951538086,36.21883010864258,-0.4087791442871094,-0.0,-0.0,-1.0,0.047737016627278195,2.0
-1.6257190704345703,36.08762741088867,-1.3786756992340088,-0.0,-0.0,-1.0,0.09048983954744197,1.0
-1.5544390678405762,36.258995056152344,-1.7446568012237549,-0.0,-0.0,-1.0,0.07509047121579733,1.0
-1.746508002281189,36.12239074707031,-1.6484572887420654,-0.0,-0.0,-1.0,0.12324789603902923,1.0
-1.6549766063690186,36.21851348876953,-1.1369824409484863,-0.0,-0.0,-1.0,0.19209618775405096,1.0
-2.1606247425079346,36.138484954833984,-1.0878386497497559,-0.0,-0.0,-1.0,0.14507115277114913,2.0
-2.0222184658050537,35.9011344909668,-1.0621891021728516,-0.0,-0.0,-1.0,0.09496112060269137,1.0
-1.4085369110107422,36.128440856933594,-1.5541653633117676,-0.0,-0.0,-1.0,0.14625957498293268,2.0
-2.2167654037475586,36.273250579833984,-0.21540307998657227,0.14406411312089054,-0.8256624751156012,-0.5454603638181881,0.06345372567811448,4.0
-2.168480157852173,36.26042175292969,-0.40062856674194336,-0.0,-0.0,-1.0,0.04773701662727814,1.0
-2.1833384037017822,36.21456527709961,-0.6504745483398438,0.0655260018154399,-0.6525325134553054,-0.754922288695853,0.12948390178887567,3.0
-1.5175713300704956,35.74768829345703,-1.8818488121032715,-0.0,-0.0,-1.0,0.16106247338882365,1.0
-2.2085049152374268,36.23892593383789,-0.6737155914306641,0.6452208432929397,-0.060062157905873735,-0.761631538585449,0.14233066169504416,3.0
-2.049220561981201,36.2310905456543,-0.8451237678527832,0.5663884995752764,0.14487922163127276,-0.8113039373061024,0.16813601989772858,4.0
-2.148979425430298,36.22446823120117,-0.8038015365600586,0.2579206272423718,0.2754140891065456,-0.9260799261211276,0.2068964012034286,5.0
-1.632866382598877,36.261756896972656,-1.0135393142700195,-0.0,-0.0,-1.0,0.15130490752596493,1.0
-2.003127098083496,36.03394317626953,-0.9486818313598633,-0.0,-0.0,-1.0,0.08595951867786422,1.0
-1.2269887924194336,35.837772369384766,-1.8940234184265137,-0.0,-0.0,-1.0,0.13215027688667025,1.0
-1.5801939964294434,35.842864990234375,-1.8707385063171387,-0.0,-0.0,-1.0,0.17602199330883875,1.0
-2.0151658058166504,36.10890197753906,-1.9117579460144043,-0.0,-0.0,-1.0,0.10300483893139546,1.0
-2.203442335128784,36.00552749633789,-1.8720784187316895,-0.0,-0.0,-1.0,0.03479044003135315,1.0
-0.5824894905090332,36.21354293823242,-1.7478680610656738,-0.0,-0.0,-1.0,0.07762957818491648,1.0
-1.7648892402648926,36.17436218261719,-1.3834528923034668,-0.0,-0.0,-1.0,0.110993245334173,1.0
-1.4345545768737793,36.157989501953125,-1.9390673637390137,-0.0,-0.0,-1.0,0.19357986312929637,1.0
-1.6262145042419434,36.230316162109375,-1.939511775970459,-0.0,-0.0,-1.0,0.13912623656267867,1.0
-2.067615509033203,36.196868896484375,-0.7979693412780762,-0.0,-0.0,-1.0,0.15603817450400725,2.0
-1.8798375129699707,36.14398956298828,-1.0583410263061523,-0.11584479878767166,-0.8017267823250502,-0.5863566739592596,0.11071051911044875,4.0
-2.276235342025757,36.28749465942383,-0.2714862823486328,-0.0,-0.0,-1.0,0.040947975554011876,2.0
-1.8135178089141846,36.12841033935547,-1.4948201179504395,-0.0,-0.0,-1.0,0.08645963531171179,1.0
-1.6534494161605835,36.148719787597656,-1.406297206878662,0.40999144054277187,-0.8102412582181867,-0.4188270790704345,0.1283417319739996,3.0
