x,y,z,nx,ny,nz,curvature,density
28.34718132019043,-24.295068740844727,1.0074725151062012,0.07189057915504225,0.595762646388079,-0.7999366311136309,0.19339321582160254,4.0
29.275005340576172,-23.29132652282715,0.9009737968444824,-0.0,-0.0,-1.0,0.16995124249467336,1.0
28.150365829467773,-24.228342056274414,1.1402530670166016,-0.0,-0.0,-1.0,0.162252830210305,2.0
28.920578002929688,-22.483793258666992,0.5370175838470459,-0.0,-0.0,-1.0,0.08239540404442691,1.0
28.59814453125,-23.500930786132812,0.8394618034362793,-0.0,-0.0,-1.0,0.12971115952661474,1.0
29.329132080078125,-22.67998504638672,0.8319549560546875,-0.0,-0.0,-1.0,0.251922983370002,1.0
27.9814395904541,-23.145946502685547,0.9219131469726562,-0.0,-0.0,-1.0,0.18824916265312916,1.0
28.163549423217773,-24.348785400390625,0.7811985015869141,-0.0,-0.0,-1.0,0.10274138364716973,2.0
28.619014739990234,-23.41669273376465,0.8976380825042725,-0.0,-0.0,-1.0,0.22189222610672757,2.0
27.994678497314453,-23.166715621948242,0.9764308929443359,0.44406744435617845,0.8336253294336484,-0.32844012390329763,0.19012628028789302,3.0
28.441631317138672,-22.872472763061523,0.9484729766845703,-0.0,-0.0,-1.0,0.15390015723065534,1.0
29.522380828857422,-22.642324447631836,0.6916208267211914,-0.0,-0.0,-1.0,0.13369397784874337,1.0
28.901203155517578,-22.672332763671875,0.6400656700134277,-0.0,-0.0,-1.0,0.1735683457784267,1.0
29.093521118164062,-22.466049194335938,0.6953749656677246,-0.0,-0.0,-1.0,0.07074104696134101,1.0
28.28316879272461,-22.40750503540039,0.42047739028930664,-0.0,-0.0,-1.0,0.1158178944275808,1.0
28.44306182861328,-24.173198699951172,0.8707035779953003,-0.6328033571740379,-0.20145585744207947,-0.7476466067946432,0.17414638932214108,3.0
27.791149139404297,-24.30992889404297,1.1056478023529053,-0.8351244667607577,-0.5003520951084244,0.22850581160699351,0.23574162425514583,4.0
28.13300132751465,-24.28399085998535,0.8825585842132568,-0.8172295821241324,-0.45991187696347546,0.3472994032951232,0.12512125454400744,3.0
28.771995544433594,-22.64459991455078,0.5516722202301025,-0.0,-0.0,-1.0,0.13283950951888596,1.0
27.789527893066406,-24.198949813842773,1.0057640075683594,-0.0,-0.0,-1.0,0.2689390922479196,2.0
27.97481918334961,-24.24019432067871,0.992722749710083,-0.0,-0.0,-1.0,0.18662903324167127,2.0
28.268959045410156,-24.307119369506836,0.9719833135604858,0.9000852710955707,0.43504173244260747,0.024190820369458334,0.14411076359425612,3.0
28.830421447753906,-22.963708877563477,0.6019008159637451,-0.0,-0.0,-1.0,0.15301891853069724,1.0
28.69207000732422,-23.083585739135742,0.6095221042633057,-0.0,-0.0,-1.0,0.22635986422526413,1.0
28.883350372314453,-22.53095054626465,0.6066915988922119,-0.0,-0.0,-1.0,0.10742639420275372,2.0
27.991172790527344,-24.317934036254883,1.1580723524093628,-0.24969374126829647,-0.9560794154427378,-0.15350956627557089,0.10062499119911981,3.0
28.255191802978516,-24.359148025512695,1.1375539302825928,-0.0,-0.0,-1.0,0.08844276682298306,2.0
28.485382080078125,-24.228300094604492,1.120980978012085,-0.0,-0.0,-1.0,0.2015807565008474,2.0
28.996545791625977,-22.57073211669922,0.6274917125701904,-0.0,-0.0,-1.0,0.10216741656799426,1.0
29.20883560180664,-22.44402313232422,0.6076376438140869,-0.0,-0.0,-1.0,0.14776682438013125,2.0
28.78780746459961,-22.640844345092773,0.91816246509552,-0.0,-0.0,-1.0,0.18207431896696094,1.0
29.505451202392578,-24.11263084411621,0.8400071859359741,-0.0,-0.0,-1.0,0.04930451155462087,1.0
27.795547485351562,-24.335590362548828,1.1840648651123047,0.35704952701431625,0.9338704386779436,-0.020040933668837965,0.2122047732535135,4.0
28.126541137695312,-24.252361297607422,0.9092426300048828,-0.6703263931939438,-0.7025864421511255,0.23881963464719766,0.16715509955688515,4.0
27.81240463256836,-24.052589416503906,0.9290904998779297,-0.0,-0.0,-1.0,0.19212382273062026,1.0
28.630584716796875,-23.2852783203125,0.9154946804046631,-0.0,-0.0,-1.0,0.2441886043866496,1.0
28.28545379638672,-24.344390869140625,1.0479137897491455,-0.0,-0.0,-1.0,0.09368475055907596,2.0
27.83687400817871,-24.258224487304688,1.0717542171478271,0.42367479593055457,0.6395875096584724,-0.6414261335353248,0.2175033744503369,3.0
28.414060592651367,-24.26580810546875,1.0437562465667725,-0.17412051714791116,0.767270742689108,0.6172338721436536,0.1939544520733751,3.0
28.50045394897461,-22.671815872192383,0.6138665676116943,-0.0,-0.0,-1.0,0.2413719333740191,1.0
29.615144729614258,-23.820390701293945,0.6419790983200073,-0.0,-0.0,-1.0,0.05758449781836625,1.0
29.27276039123535,-23.233720779418945,0.66582190990448,-0.0,-0.0,-1.0,0.12815287447731855,1.0
29.556535720825195,-23.221155166625977,0.6567364931106567,-0.0,-0.0,-1.0,0.20531845427596848,1.0
28.330860137939453,-23.003156661987305,0.7004448175430298,-0.0,-0.0,-1.0,0.17640134720136436,1.0
28.839317321777344,-22.513105392456055,0.6949588060379028,-0.0,-0.0,-1.0,0.16954110396821823,1.0
29.030569076538086,-22.61663246154785,0.6867088079452515,-0.0,-0.0,-1.0,0.11286538231656759,1.0
28.29242706298828,-24.201406478881836,0.7135248184204102,-0.0,-0.0,-1.0,0.12512326628286113,1.0
29.641786575317383,-24.343374252319336,0.713353157043457,-0.0,-0.0,-1.0,0.04763884837795692,1.0
28.227781295776367,-22.87392234802246,0.7323074340820312,-0.0,-0.0,-1.0,0.2077404902523052,1.0
28.8953857421875,-22.98679542541504,0.7325570583343506,-0.0,-0.0,-1.0,0.2358594684342026,1.0
29.574541091918945,-23.149099349975586,0.7310819625854492,-0.0,-0.0,-1.0,0.22910835067235386,1.0
28.83889389038086,-22.600019454956055,0.7380375862121582,-0.0,-0.0,-1.0,0.19993344237244348,1.0
28.344669342041016,-24.155332565307617,0.7843012809753418,-0.0,-0.0,-1.0,0.1848152932238366,1.0
28.78679084777832,-23.1335506439209,0.7953712940216064,-0.0,-0.0,-1.0,0.26471890129628084,2.0
28.151782989501953,-23.020845413208008,0.8056950569152832,-0.0,-0.0,-1.0,0.19719842806184917,1.0
28.61168098449707,-22.71697425842285,0.8047523498535156,-0.0,-0.0,-1.0,0.18141123057319275,2.0
29.41866683959961,-23.220481872558594,0.6467664241790771,-0.0,-0.0,-1.0,0.21314085762555152,2.0
28.160537719726562,-22.971179962158203,0.6708972454071045,-0.0,-0.0,-1.0,0.23076347233413172,1.0
27.892526626586914,-24.170753479003906,0.9007644653320312,-0.0,-0.0,-1.0,0.2226966958965854,1.0
28.06466293334961,-24.149700164794922,0.8968219757080078,-0.0,-0.0,-1.0,0.15328761868325366,2.0
28.160995483398438,-22.9182071685791,0.7224112749099731,-0.0,-0.0,-1.0,0.1829658576823173,1.0
28.307025909423828,-22.955862045288086,0.719222903251648,-0.0,-0.0,-1.0,0.18133508760429617,2.0
28.034486770629883,-22.83614158630371,0.7262328863143921,-0.0,-0.0,-1.0,0.20981451613828883,1.0
28.87059211730957,-22.732019424438477,0.7149134874343872,-0.0,-0.0,-1.0,0.15994942956911715,1.0
28.18089485168457,-22.821317672729492,0.7119600772857666,-0.0,-0.0,-1.0,0.2512033660319022,1.0
28.288509368896484,-22.946462631225586,0.7085731029510498,-0.0,-0.0,-1.0,0.17231431572595518,2.0
28.924619674682617,-22.634904861450195,0.7091820240020752,-0.0,-0.0,-1.0,0.1260168095056272,1.0
27.794157028198242,-24.241718292236328,1.0599976778030396,0.3635574278328961,0.31693020021533846,-0.8760029936358632,0.1660344427140557,3.0
28.398893356323242,-24.282535552978516,1.060271143913269,-0.17412051714791116,0.767270742689108,0.6172338721436536,0.1940142806411509,3.0
28.186443328857422,-22.965059280395508,0.7673068046569824,-0.0,-0.0,-1.0,0.21668483992836432,1.0
28.476791381835938,-22.91440773010254,0.7673234939575195,-0.0,-0.0,-1.0,0.204332715736871,1.0
28.914310455322266,-23.0588436126709,0.7634307146072388,-0.0,-0.0,-1.0,0.23015822909685502,2.0
28.773696899414062,-22.69620704650879,0.7701174020767212,-0.4485383559595121,0.3843061367662645,-0.8069213942367168,0.18329738115773347,4.0
27.930723190307617,-22.84728240966797,0.7753299474716187,-0.0,-0.0,-1.0,0.16250445398844338,1.0
27.95839500427246,-24.199806213378906,0.7479041814804077,-0.0,-0.0,-1.0,0.22819902251190355,1.0
28.31574058532715,-22.935504913330078,0.7709038257598877,-0.0,-0.0,-1.0,0.2500037938313059,1.0
28.741474151611328,-22.675434112548828,0.7731715440750122,-0.0,-0.0,-1.0,0.1527992132550713,2.0
28.966123580932617,-23.138954162597656,0.7621973156929016,-0.0,-0.0,-1.0,0.26672374034559554,1.0
27.721878051757812,-24.219219207763672,1.1114366054534912,-0.0,-0.0,-1.0,0.1617074208768925,1.0
27.993932723999023,-24.35769271850586,1.1137983798980713,-0.0,-0.0,-1.0,0.11623281643548437,1.0
27.77690887451172,-24.32961654663086,1.1398801803588867,-0.774034114973163,-0.6156944578524562,-0.1476195225147483,0.24896535875291634,5.0
27.79741096496582,-22.852222442626953,0.8968048095703125,-0.0,-0.0,-1.0,0.18092024003333587,1.0
28.21783447265625,-22.893333435058594,0.8970333337783813,-0.8007524435528255,-0.5989209038559108,-0.00944854849158366,0.2302427028928588,3.0
28.379684448242188,-23.050193786621094,0.8953704237937927,-0.0,-0.0,-1.0,0.20898355271475424,1.0
27.922210693359375,-24.02521514892578,0.8826197385787964,0.5509721368414949,-0.2002477175750114,-0.8101423060366096,0.19850277079639725,3.0
28.796615600585938,-23.17728042602539,0.8944337368011475,-0.0,-0.0,-1.0,0.28641267404494575,1.0
28.36979866027832,-24.136829376220703,0.8818950653076172,-0.0,-0.0,-1.0,0.1944741614265192,1.0
27.983768463134766,-24.20635223388672,0.8804727792739868,-0.0,-0.0,-1.0,0.15414313916322567,2.0
28.509504318237305,-24.192848205566406,0.8813884258270264,-0.0,-0.0,-1.0,0.17866381604222506,1.0
28.49193000793457,-22.564434051513672,0.8620632290840149,-0.0,-0.0,-1.0,0.2119130767994935,1.0
28.061843872070312,-22.84048080444336,0.8547353744506836,-0.0,-0.0,-1.0,0.2038117064429613,1.0
28.649682998657227,-23.106765747070312,0.8614126443862915,-0.0,-0.0,-1.0,0.24069814862795366,1.0
28.715421676635742,-23.26944351196289,0.8614516258239746,-0.0,-0.0,-1.0,0.2577746401470152,2.0
27.741989135742188,-24.020816802978516,0.8443078398704529,-0.0,-0.0,-1.0,0.14629876786984053,1.0
28.328514099121094,-24.176795959472656,0.851453423500061,-0.0,-0.0,-1.0,0.19604987145279135,2.0
27.778553009033203,-24.2371826171875,0.8436883091926575,-0.0,-0.0,-1.0,0.21610931094456923,1.0
29.341331481933594,-22.6195011138916,0.7297636270523071,-0.0,-0.0,-1.0,0.12994464104746403,2.0
29.21242332458496,-22.566320419311523,0.7275375723838806,-0.0,-0.0,-1.0,0.08817128245732767,1.0
28.613475799560547,-22.619306564331055,0.7153481245040894,-0.0,-0.0,-1.0,0.17620985787235138,1.0
28.288175582885742,-22.614816665649414,0.708875834941864,-0.0,-0.0,-1.0,0.17244770667360965,1.0
28.002445220947266,-22.53721809387207,0.7035806775093079,-0.0,-0.0,-1.0,0.19558091036973213,1.0
29.534011840820312,-22.693132400512695,0.7331092357635498,-0.0,-0.0,-1.0,0.18850887843812292,1.0
29.619911193847656,-23.66249656677246,0.7289198040962219,-0.0,-0.0,-1.0,0.08966253429332068,1.0
29.290658950805664,-23.663686752319336,0.7225086092948914,-0.0,-0.0,-1.0,0.08379410981138409,1.0
28.330156326293945,-24.257150650024414,1.1725656986236572,-0.0,-0.0,-1.0,0.17375634794080527,2.0
29.021869659423828,-22.485759735107422,0.5842504501342773,-0.0,-0.0,-1.0,0.10938829358766708,1.0
28.86651611328125,-23.10448455810547,0.611526608467102,-0.0,-0.0,-1.0,0.18288784823205648,1.0
29.148242950439453,-22.464881896972656,0.5686995983123779,-0.0,-0.0,-1.0,0.0953007438084834,1.0
29.04831314086914,-23.044818878173828,0.5888264179229736,-0.0,-0.0,-1.0,0.16554655842877183,1.0
27.964282989501953,-22.88880157470703,0.8113964200019836,-0.0,-0.0,-1.0,0.20071767792344594,1.0
29.014846801757812,-22.611194610595703,0.738453209400177,-0.0,-0.0,-1.0,0.11236535966971431,1.0
28.885746002197266,-22.83419418334961,0.7479410171508789,-0.0,-0.0,-1.0,0.1867611459307233,1.0
29.25630760192871,-23.021343231201172,0.7228636741638184,-0.0,-0.0,-1.0,0.13922632808727242,1.0
29.458179473876953,-23.280155181884766,0.709600567817688,-0.0,-0.0,-1.0,0.19376348273891453,2.0
28.923824310302734,-23.204355239868164,0.6572516560554504,-0.0,-0.0,-1.0,0.16622373960840325,1.0
29.054012298583984,-22.718225479125977,0.6496084332466125,-0.0,-0.0,-1.0,0.07024025986227486,1.0
27.763769149780273,-24.217586517333984,1.1719318628311157,-0.0,-0.0,-1.0,0.15977565267891444,1.0
28.748090744018555,-23.1124267578125,0.6253488063812256,-0.0,-0.0,-1.0,0.19329707558102194,1.0
29.098430633544922,-23.146934509277344,0.6200129985809326,-0.0,-0.0,-1.0,0.12878174865883757,2.0
29.554414749145508,-23.124156951904297,0.6138596534729004,-0.0,-0.0,-1.0,0.18960483734473046,1.0
28.580459594726562,-22.474300384521484,0.6395261287689209,-0.0,-0.0,-1.0,0.17019281784959672,1.0
28.81973648071289,-22.616432189941406,0.6337549686431885,-0.0,-0.0,-1.0,0.1533551638883435,1.0
28.32161521911621,-24.219303131103516,0.781661868095398,-0.27579445445854317,0.15472059008235936,-0.948682748812521,0.1677679108328501,3.0
28.232898712158203,-22.886821746826172,0.8030461072921753,-0.0,-0.0,-1.0,0.19870830688830335,1.0
28.736825942993164,-23.1822509765625,0.784245491027832,-0.0,-0.0,-1.0,0.24265192350879836,1.0
29.37012481689453,-23.279193878173828,0.7639281749725342,-0.0,-0.0,-1.0,0.15997539459562715,1.0
28.57237434387207,-22.700069427490234,0.7958860397338867,-0.0,-0.0,-1.0,0.24610620812049866,2.0
28.062408447265625,-24.346229553222656,0.9480516910552979,-0.6572195835135561,-0.3007174223306863,-0.6911088560806146,0.1322070673133684,3.0
28.252710342407227,-24.27212142944336,0.9471662044525146,-0.7393053470883066,0.12583508727799608,0.6615082271418685,0.17641898011150928,3.0
28.027286529541016,-24.23616600036621,1.0215656757354736,-0.0,-0.0,-1.0,0.21304943576823265,2.0
28.323612213134766,-24.27729606628418,1.0176464319229126,0.09867259642184889,0.5897081311717111,-0.8015659915099561,0.18404794517407475,3.0
28.114795684814453,-24.281879425048828,0.8425149917602539,-0.42208798307426465,-0.8949302296457199,0.14471219233554025,0.17516613446796295,3.0
28.36823272705078,-24.194286346435547,0.843049168586731,-0.0,-0.0,-1.0,0.20254642572146614,2.0
28.69651222229004,-23.201160430908203,0.8559861183166504,-0.0,-0.0,-1.0,0.2474214769561667,2.0
28.805580139160156,-23.24871826171875,0.8549754619598389,-0.3261343360375921,-0.3074320731880544,-0.8939361919245769,0.2606808903979933,5.0
28.168893814086914,-22.96651840209961,0.860630989074707,-0.0,-0.0,-1.0,0.22850516248565864,1.0
28.579870223999023,-22.701213836669922,0.8633171319961548,-0.0,-0.0,-1.0,0.18194827327806262,2.0
28.342863082885742,-22.907161712646484,0.6760432124137878,-0.0,-0.0,-1.0,0.1624550662711908,1.0
28.625852584838867,-22.981266021728516,0.6741045713424683,-0.0,-0.0,-1.0,0.17860225713678976,1.0
29.30666160583496,-23.08859634399414,0.6706425547599792,-0.0,-0.0,-1.0,0.1447971858465622,2.0
28.824445724487305,-22.655210494995117,0.6800316572189331,-0.0,-0.0,-1.0,0.1763808782444921,1.0
29.654287338256836,-23.152557373046875,0.6685991883277893,-0.0,-0.0,-1.0,0.21151876669880737,1.0
29.08287811279297,-22.52402114868164,0.682062566280365,-0.0,-0.0,-1.0,0.09045054977725693,1.0
29.67156219482422,-22.501684188842773,0.6812106370925903,-0.0,-0.0,-1.0,0.21409627797157613,1.0
28.391830444335938,-22.836576461791992,0.6072726845741272,-0.0,-0.0,-1.0,0.11929837241991738,1.0
28.675338745117188,-22.643917083740234,0.613189697265625,-0.0,-0.0,-1.0,0.211235359210111,2.0
28.767047882080078,-22.744657516479492,0.6120008826255798,-0.0,-0.0,-1.0,0.24210371564370586,1.0
29.063941955566406,-22.530038833618164,0.6183940768241882,-0.0,-0.0,-1.0,0.09045054977725693,2.0
29.70220947265625,-22.468080520629883,0.6244161128997803,-0.0,-0.0,-1.0,0.2591379113360561,1.0
28.694965362548828,-22.660877227783203,0.5739290714263916,-0.8690602467008213,0.11053690111841072,-0.48219900569728114,0.1878174970778256,3.0
28.71103286743164,-22.62267303466797,0.5537285804748535,-0.0,-0.0,-1.0,0.18074253136145824,2.0
27.965545654296875,-24.30568504333496,1.1234681606292725,-0.24091649123292866,-0.957198603640846,-0.16040597694608852,0.14551088741303697,3.0
28.196395874023438,-24.36179542541504,1.1122442483901978,-0.0,-0.0,-1.0,0.08853185415857602,1.0
27.847129821777344,-24.305334091186523,0.9628910422325134,-0.0,-0.0,-1.0,0.20254265258498463,2.0
28.102188110351562,-23.009746551513672,0.9841431975364685,-0.0,-0.0,-1.0,0.22441925137166682,1.0
28.028654098510742,-24.273038864135742,0.9571128487586975,-0.0,-0.0,-1.0,0.17396700512442445,2.0
28.188949584960938,-23.069581985473633,0.9796261787414551,-0.0,-0.0,-1.0,0.2416809853800846,1.0
28.778270721435547,-23.241331100463867,0.9543206095695496,-0.0,-0.0,-1.0,0.2347300759772099,2.0
29.123939514160156,-23.172592163085938,0.943382740020752,-0.0,-0.0,-1.0,0.18142290582325948,1.0
29.54281234741211,-22.573490142822266,0.9422823786735535,-0.0,-0.0,-1.0,0.12670985584446073,1.0
28.156558990478516,-22.882150650024414,0.6379655599594116,-0.0,-0.0,-1.0,0.1701726255271471,1.0
28.51398468017578,-22.773427963256836,0.6320360898971558,-0.0,-0.0,-1.0,0.18032020222017964,1.0
28.871841430664062,-22.50016975402832,0.631822407245636,-0.0,-0.0,-1.0,0.13197608957211096,2.0
29.074073791503906,-22.520015716552734,0.6253902912139893,-0.0,-0.0,-1.0,0.09045054977725693,2.0
29.546451568603516,-23.224105834960938,0.5861872434616089,-0.0,-0.0,-1.0,0.24435505414960632,1.0
28.105066299438477,-22.996749877929688,0.6733728647232056,-0.0,-0.0,-1.0,0.1552565309191182,2.0
28.50931167602539,-22.891508102416992,0.6706575155258179,-0.0,-0.0,-1.0,0.17916752837604843,2.0
28.878517150878906,-22.606069564819336,0.6739215850830078,-0.0,-0.0,-1.0,0.14310562387298784,2.0
29.173721313476562,-22.365039825439453,0.6768649220466614,-0.0,-0.0,-1.0,0.11291160216854437,1.0
29.47051429748535,-23.2783145904541,0.6429795026779175,-0.0,-0.0,-1.0,0.19706009177371506,2.0
29.495941162109375,-23.91299819946289,0.6222109794616699,-0.0,-0.0,-1.0,0.04691273818360278,1.0
29.54226303100586,-22.545516967773438,0.6651418209075928,-0.0,-0.0,-1.0,0.2441047795077736,1.0
28.17621612548828,-22.90833282470703,1.2110472917556763,0.4965691817961899,-0.023480492949262265,-0.8676794996662778,0.2098528616859959,3.0
28.71368980407715,-22.752193450927734,1.1778829097747803,-0.0,-0.0,-1.0,0.1483852094501782,2.0
28.26409149169922,-23.040639877319336,1.0355538129806519,-0.0,-0.0,-1.0,0.17929324078118627,1.0
27.902450561523438,-24.197101593017578,1.0181713104248047,-0.0,-0.0,-1.0,0.20162154730280454,2.0
28.76107406616211,-23.169458389282227,1.0228713750839233,-0.0,-0.0,-1.0,0.18909104692971418,1.0
28.11261749267578,-24.321531295776367,1.011305570602417,-0.0,-0.0,-1.0,0.13197833163655262,1.0
28.438350677490234,-24.309717178344727,1.0049883127212524,0.06238269150206237,0.6795776601506506,0.73094637534167,0.17277493156523982,4.0
28.1864013671875,-22.840744018554688,1.0690559148788452,-0.0,-0.0,-1.0,0.14158974544736594,2.0
28.206985473632812,-23.170032501220703,1.0613014698028564,-0.0,-0.0,-1.0,0.17379935848796704,2.0
27.911964416503906,-24.189298629760742,1.046355128288269,-0.0,-0.0,-1.0,0.1546610898705323,2.0
27.939311981201172,-24.336530685424805,1.0424100160598755,-0.0,-0.0,-1.0,0.14887312584687915,1.0
29.11037826538086,-22.54686164855957,1.051973819732666,-0.0,-0.0,-1.0,0.11561736770614203,1.0
28.954038619995117,-22.704750061035156,1.0524972677230835,-0.0,-0.0,-1.0,0.16496375154402904,1.0
29.648639678955078,-22.363845825195312,1.0420933961868286,-0.0,-0.0,-1.0,0.18046915497989321,1.0
27.978527069091797,-24.30170249938965,1.0802059173583984,-0.9425427493096309,-0.15313950441882532,-0.2969199520244453,0.1610434620024801,3.0
28.126182556152344,-23.036462783813477,1.097487211227417,-0.0,-0.0,-1.0,0.18456025209989874,1.0
28.231449127197266,-23.179168701171875,1.0942492485046387,-0.0,-0.0,-1.0,0.15620258592990585,2.0
29.665096282958984,-22.389896392822266,0.891166090965271,-0.0,-0.0,-1.0,0.16529341478825035,1.0
28.629444122314453,-22.677989959716797,0.8822548389434814,-0.0,-0.0,-1.0,0.23419725368327513,2.0
28.243120193481445,-22.973384857177734,0.8753423690795898,-0.0,-0.0,-1.0,0.22077488567340653,1.0
28.06585121154785,-22.906471252441406,0.8758604526519775,-0.0,-0.0,-1.0,0.2368347081314007,1.0
28.80188751220703,-23.013458251953125,0.8766961097717285,-0.0,-0.0,-1.0,0.1561543050236546,1.0
29.60259246826172,-23.238479614257812,0.8750977516174316,-0.0,-0.0,-1.0,0.0731652082202112,2.0
28.737159729003906,-23.85021209716797,0.8609614372253418,-0.0,-0.0,-1.0,0.1077687119632675,1.0
29.63413429260254,-22.44236183166504,0.9787100553512573,-0.0,-0.0,-1.0,0.18046915497989327,1.0
28.799957275390625,-22.956418991088867,0.9722915291786194,-0.0,-0.0,-1.0,0.1300982064072826,1.0
28.367923736572266,-22.890783309936523,0.9736496210098267,-0.0,-0.0,-1.0,0.24225899506956577,1.0
28.101028442382812,-22.93648338317871,0.9731858968734741,-0.0,-0.0,-1.0,0.2560562534253344,1.0
28.774425506591797,-23.210296630859375,0.9686201810836792,-0.420859618786689,0.33608155213358126,-0.8425712857617487,0.20269524919127757,3.0
28.60849380493164,-23.216278076171875,0.9687182307243347,-0.0,-0.0,-1.0,0.2560605793615563,2.0
28.034427642822266,-24.25929832458496,0.9541546106338501,-0.0,-0.0,-1.0,0.1657248807605848,2.0
29.316635131835938,-22.395967483520508,0.6881850957870483,-0.0,-0.0,-1.0,0.1557959027794161,1.0
28.930200576782227,-22.747089385986328,0.6776355504989624,-0.0,-0.0,-1.0,0.1334525103790717,1.0
28.67677116394043,-22.805835723876953,0.6761863827705383,-0.0,-0.0,-1.0,0.1956586687927531,1.0
28.065502166748047,-22.9855899810791,0.6716415882110596,-0.25412797953539423,-0.8218311129238962,0.509914298532144,0.1667476166097158,3.0
29.092411041259766,-23.135759353637695,0.6651111841201782,-0.0,-0.0,-1.0,0.1645693155252198,2.0
28.611413955688477,-23.202234268188477,0.6637164354324341,-0.0,-0.0,-1.0,0.16444483334381552,1.0
28.249101638793945,-23.06211280822754,0.6688320636749268,-0.0,-0.0,-1.0,0.18379169121549105,1.0
28.872018814086914,-22.672658920288086,0.542568564414978,-0.0,-0.0,-1.0,0.14153113069883283,1.0
29.615570068359375,-22.697006225585938,0.5543688535690308,-0.0,-0.0,-1.0,0.17466889860970572,1.0
28.277812957763672,-22.921586990356445,1.224401831626892,-0.0,-0.0,-1.0,0.15078761623054884,1.0
27.714250564575195,-23.016178131103516,1.221220850944519,-0.0,-0.0,-1.0,0.14239505434468075,1.0
27.97087860107422,-23.21851348876953,1.1241129636764526,-0.0,-0.0,-1.0,0.25669990034010765,1.0
28.27825355529785,-23.10243034362793,1.0808500051498413,-0.0,-0.0,-1.0,0.16015458107239414,1.0
29.1151065826416,-22.688371658325195,1.05305814743042,-0.0,-0.0,-1.0,0.17661383046283716,1.0
28.76612663269043,-23.29336929321289,1.0547900199890137,-0.5486657035788259,0.359480375667042,-0.7548111056593126,0.228033531799418,3.0
27.73790740966797,-24.358205795288086,1.0764355659484863,-0.2585892221380737,0.9327970401343321,-0.25104042724361225,0.2055003773344046,3.0
28.241207122802734,-23.130308151245117,1.021498680114746,-0.0,-0.0,-1.0,0.23566596982542265,2.0
28.80046272277832,-23.170835494995117,0.9713548421859741,-0.0,-0.0,-1.0,0.22134007380905305,2.0
28.67552375793457,-23.30116081237793,0.9769753217697144,-0.0,-0.0,-1.0,0.2360699267413802,2.0
29.5572452545166,-23.269241333007812,0.898200511932373,-0.0,-0.0,-1.0,0.07297348491502102,1.0
28.19939422607422,-24.310911178588867,0.9767948389053345,-0.8061499303221337,-0.2918665824027109,0.5147195235447951,0.10630897482302154,3.0
29.197851181030273,-22.642881393432617,1.047515869140625,-0.0,-0.0,-1.0,0.16762801005646807,1.0
28.674781799316406,-22.827774047851562,1.026775598526001,-0.0,-0.0,-1.0,0.18338505867690832,1.0
28.385356903076172,-23.12254524230957,1.0145020484924316,-0.0,-0.0,-1.0,0.17056367064718397,2.0
28.263591766357422,-23.099437713623047,1.0102133750915527,-0.0,-0.0,-1.0,0.21799816794755708,2.0
28.812114715576172,-23.16631317138672,1.0300891399383545,-0.0,-0.0,-1.0,0.18378510058283576,1.0
28.573503494262695,-23.2657470703125,1.020650029182434,-0.0,-0.0,-1.0,0.1737053330064704,1.0
29.308929443359375,-23.32491683959961,1.048353910446167,-0.0,-0.0,-1.0,0.11853826352743675,2.0
28.323328018188477,-24.343297958374023,1.0054727792739868,-0.0,-0.0,-1.0,0.08654299833130179,2.0
28.0242919921875,-23.234642028808594,1.2594621181488037,-0.0,-0.0,-1.0,0.16934252352897597,1.0
29.032514572143555,-23.364364624023438,0.6962255835533142,-0.0,-0.0,-1.0,0.11450127847507324,1.0
28.533414840698242,-24.24764633178711,0.9495300650596619,-0.0,-0.0,-1.0,0.1695804537057021,2.0
28.37557601928711,-24.208959579467773,0.9384920001029968,-0.0,-0.0,-1.0,0.15871538870550442,1.0
28.771181106567383,-22.48206329345703,0.8542681932449341,-0.0,-0.0,-1.0,0.13834027423541403,1.0
28.57196617126465,-22.890483856201172,0.8487317562103271,-0.0,-0.0,-1.0,0.1981194353709149,1.0
28.476318359375,-22.700973510742188,0.8525487184524536,0.2653455044403923,0.3420803108439027,-0.9014282135623516,0.19929290522882878,3.0
28.308696746826172,-22.85184097290039,0.8509446382522583,-0.0,-0.0,-1.0,0.19387906007274053,1.0
29.282020568847656,-22.370426177978516,0.4988596439361572,-0.0,-0.0,-1.0,0.1513252129088229,1.0
29.34096336364746,-22.447559356689453,0.7326799035072327,-0.0,-0.0,-1.0,0.1331997544040314,2.0
29.642654418945312,-22.429306030273438,0.7223891019821167,-0.0,-0.0,-1.0,0.2169991066604496,1.0
29.47105598449707,-23.138259887695312,0.7289904952049255,-0.0,-0.0,-1.0,0.2565398085961369,2.0
28.224624633789062,-24.333974838256836,0.8731045722961426,-0.0,-0.0,-1.0,0.15283327291748147,2.0
28.192214965820312,-23.04463005065918,0.8276079297065735,-0.0,-0.0,-1.0,0.21280370451718936,1.0
28.91250228881836,-22.575162887573242,0.6374268531799316,0.10619013767155411,0.9724306536692717,0.20761088233917113,0.13438744356279353,3.0
28.152454376220703,-24.329700469970703,0.9493162035942078,-0.0,-0.0,-1.0,0.12133974313968804,1.0
28.594562530517578,-22.741191864013672,0.8935261964797974,-0.0,-0.0,-1.0,0.22442589983124134,2.0
29.19363021850586,-23.320941925048828,0.8569125533103943,-0.0,-0.0,-1.0,0.1721383150031493,1.0
27.93764877319336,-24.242774963378906,1.0238566398620605,-0.0,-0.0,-1.0,0.21607213759966504,2.0
28.21133804321289,-24.29547119140625,1.004256248474121,-0.8061499303221337,-0.2918665824027109,0.5147195235447951,0.1134885781933894,3.0
28.381454467773438,-24.200416564941406,0.9904448986053467,-0.0,-0.0,-1.0,0.13216628228904076,1.0
29.63384246826172,-23.192607879638672,0.8842694163322449,-0.0,-0.0,-1.0,0.12249185446380763,1.0
28.759857177734375,-22.791345596313477,0.8366173505783081,-0.0,-0.0,-1.0,0.23938932498601936,1.0
28.973012924194336,-23.07672882080078,0.8324430584907532,-0.0,-0.0,-1.0,0.23968627815086838,1.0
29.64525032043457,-22.555191040039062,0.8377574682235718,-0.0,-0.0,-1.0,0.13619433702672581,1.0
27.915109634399414,-24.06891441345215,0.8885917663574219,0.6266911456156568,-0.1580364181421641,-0.7630745039298135,0.2039284656619675,4.0
28.657909393310547,-22.755199432373047,0.8360969424247742,-0.9400748469910559,-0.2920648821253914,0.17594711331483776,0.2307770268473236,3.0
28.799734115600586,-23.17198944091797,0.8242496252059937,-0.5686796273161745,-0.4345224350981555,-0.6984223184233919,0.18875304503318935,4.0
28.98664093017578,-22.981752395629883,0.8105758428573608,0.14448034435318868,-0.9894972744745991,-0.004535846439653222,0.2406198321399603,3.0
29.56241798400879,-23.19713020324707,0.76621413230896,-0.0,-0.0,-1.0,0.1527419321731216,1.0
28.681297302246094,-22.73305320739746,0.6812657117843628,-0.0,-0.0,-1.0,0.1283456615822938,1.0
28.825057983398438,-23.16663932800293,0.6668459177017212,-0.0,-0.0,-1.0,0.1977372608088983,1.0
29.22469139099121,-22.447643280029297,0.6468198299407959,-0.0,-0.0,-1.0,0.14776682438013122,2.0
28.935962677001953,-22.58367919921875,0.6653168201446533,0.10619013767155411,0.9724306536692717,0.20761088233917113,0.13438744356279353,3.0
27.933225631713867,-23.34969139099121,1.1020209789276123,-0.0,-0.0,-1.0,0.2114243921594689,1.0
28.450557708740234,-24.309545516967773,1.0738391876220703,0.840347487315325,-0.3516501374257016,-0.41250246230938437,0.17125115049755138,4.0
28.086706161499023,-24.3210391998291,0.9139845371246338,-0.0,-0.0,-1.0,0.11262699663246775,2.0
28.621063232421875,-23.410099029541016,0.8771408200263977,-0.0,-0.0,-1.0,0.21041477293766053,2.0
28.669620513916016,-22.768505096435547,0.8765819072723389,-0.8373417850321272,0.3992543880029782,0.37343629804771034,0.23458364468141038,3.0
28.898921966552734,-23.096874237060547,0.8570466041564941,-0.0,-0.0,-1.0,0.16494552870851048,1.0
28.760854721069336,-23.253767013549805,0.8670326471328735,-0.07830034667970001,-0.12375904757509243,-0.9892182539021126,0.21827487718247296,5.0
29.396465301513672,-23.864635467529297,0.8143187761306763,-0.0,-0.0,-1.0,0.05226194344732714,2.0
29.491914749145508,-22.567951202392578,0.8131960034370422,-0.0,-0.0,-1.0,0.20750014855289942,1.0
29.599905014038086,-23.23269271850586,0.8014664053916931,-0.0,-0.0,-1.0,0.12992171722068604,1.0
27.765480041503906,-24.273271560668945,1.2688912153244019,-0.7583971893506507,-0.5760854405751995,-0.3048922241420912,0.22356650128148858,3.0
27.788818359375,-24.252971649169922,1.001127004623413,0.21019325004164838,-0.8811544892145938,-0.42353932966596813,0.19162486217658936,3.0
27.93473243713379,-23.072723388671875,1.034285545349121,-0.0,-0.0,-1.0,0.1564046601838343,1.0
28.016855239868164,-23.19143295288086,1.0252948999404907,-0.8851971896606446,-0.18942452698395404,-0.4249050293816277,0.24310464782357236,4.0
28.183115005493164,-24.264297485351562,0.9777302742004395,-0.7423051015350962,-0.08877214732814716,0.6641555857581266,0.1485540992494964,4.0
28.431865692138672,-24.230918884277344,0.9642506837844849,-0.0,-0.0,-1.0,0.15536498296102835,1.0
29.27398681640625,-23.34949493408203,0.9439629316329956,-0.0,-0.0,-1.0,0.22204579178772146,1.0
27.870121002197266,-24.099048614501953,0.8458718061447144,0.7803528133854211,0.02447416251735126,-0.6248603860147741,0.29199713295492086,3.0
28.030996322631836,-24.355581283569336,0.8269832134246826,-0.0,-0.0,-1.0,0.15924789216279917,1.0
28.585304260253906,-22.749736785888672,0.8834360837936401,-0.0,-0.0,-1.0,0.1861769219343483,2.0
28.783945083618164,-23.2368221282959,0.8513990640640259,-0.26597759221751827,-0.26678013585123583,-0.9263283864555637,0.24087322773703276,4.0
29.321048736572266,-23.88661003112793,0.797045111656189,-0.0,-0.0,-1.0,0.04964651814451851,1.0
29.492761611938477,-22.530120849609375,0.8554399013519287,-0.0,-0.0,-1.0,0.23048228958349362,1.0
29.466161727905273,-23.222118377685547,0.8230593204498291,-0.0,-0.0,-1.0,0.07978424125983567,1.0
27.744882583618164,-22.83560562133789,0.9373531937599182,-0.0,-0.0,-1.0,0.1679158698327816,2.0
27.748262405395508,-24.20319366455078,0.8673683404922485,-0.0,-0.0,-1.0,0.2171048265707309,1.0
27.817922592163086,-24.272998809814453,0.8607875108718872,-0.0505123833972882,-0.6000224542175122,-0.7983868445548928,0.22161421307408868,3.0
28.513917922973633,-22.865861892700195,0.9013985991477966,-0.0,-0.0,-1.0,0.1468388065884248,1.0
28.759166717529297,-23.309114456176758,0.867577075958252,-0.0,-0.0,-1.0,0.25680762468482965,1.0
29.10435676574707,-22.851667404174805,0.8744663596153259,-0.0,-0.0,-1.0,0.18191401984296945,1.0
29.066551208496094,-23.31642723083496,0.8527865409851074,-0.0,-0.0,-1.0,0.17135366946001906,1.0
29.2778377532959,-23.481761932373047,0.8343707323074341,-0.0,-0.0,-1.0,0.24166975465406915,1.0
29.458864212036133,-22.654964447021484,0.8672451376914978,-0.0,-0.0,-1.0,0.18148882770475377,1.0
29.40171241760254,-23.304594039916992,0.8373323678970337,-0.0,-0.0,-1.0,0.14862081233431915,1.0
27.974050521850586,-22.774147033691406,0.9583007097244263,-0.0,-0.0,-1.0,0.17759457722714858,1.0
27.91180992126465,-23.069034576416016,0.94481360912323,-0.0,-0.0,-1.0,0.2059684551518126,2.0
27.71088218688965,-24.313915252685547,0.8855396509170532,-0.0,-0.0,-1.0,0.1763947525607445,2.0
28.255468368530273,-23.050371170043945,0.9332845211029053,-0.0,-0.0,-1.0,0.2275113171545427,2.0
28.154983520507812,-24.23044204711914,0.8742047548294067,-0.0,-0.0,-1.0,0.16646007635749674,1.0
28.90447425842285,-22.728858947753906,0.9255361557006836,-0.0,-0.0,-1.0,0.18325146284455915,1.0
28.89179801940918,-23.288681030273438,0.896491527557373,-0.0,-0.0,-1.0,0.2622666959347004,2.0
28.997745513916016,-23.219589233398438,0.8959980010986328,-0.0,-0.0,-1.0,0.15508393827461517,1.0
29.578001022338867,-23.205245971679688,0.8733500242233276,-0.796902038058782,-0.59512978504758,-0.10376743558063341,0.12921738215977233,3.0
29.154150009155273,-23.163490295410156,0.6479247808456421,-0.0,-0.0,-1.0,0.11477704481006454,1.0
28.73217010498047,-22.620878219604492,0.7093888521194458,-0.0,-0.0,-1.0,0.1452512744028278,1.0
29.17289924621582,-22.43235206604004,0.6959933042526245,-0.0,-0.0,-1.0,0.1266769690188753,2.0
28.97819709777832,-23.09272575378418,0.6630897521972656,-0.0,-0.0,-1.0,0.23980546023598345,1.0
29.612201690673828,-22.493885040283203,0.665147066116333,-0.0,-0.0,-1.0,0.251019602085928,1.0
28.152057647705078,-22.836788177490234,1.2448968887329102,-0.0,-0.0,-1.0,0.2128584426815456,1.0
27.840620040893555,-23.002365112304688,1.0170108079910278,-0.0,-0.0,-1.0,0.16495216449836853,1.0
28.18045425415039,-22.992530822753906,1.007747769355774,-0.30773129840374136,0.6593947188157685,-0.6859300640594647,0.2593037269051019,3.0
28.058073043823242,-23.250551223754883,0.9970020651817322,-0.34200737288893207,0.2950652687067702,-0.8921700757661695,0.25545241383018663,5.0
28.355117797851562,-23.09886932373047,0.9966630935668945,0.4416258412576532,-0.10712304981439263,-0.8907812686243091,0.17250800198852928,3.0
27.861543655395508,-24.234066009521484,0.9477939605712891,-0.025030361671982033,-0.5505522295469386,-0.8344253852415234,0.2697752953997583,3.0
28.718338012695312,-23.37434959411621,0.9703468680381775,-0.0,-0.0,-1.0,0.18698153585225466,1.0
29.535968780517578,-22.6146297454834,0.9850078821182251,-0.0,-0.0,-1.0,0.12420535458527876,1.0
29.367958068847656,-23.27146339416504,0.9550489187240601,-0.0,-0.0,-1.0,0.12503818627529537,2.0
29.657468795776367,-23.178787231445312,0.9502713084220886,-0.7349073621433758,-0.6781154080192672,-0.008406097449362316,0.12543830462118225,3.0
29.174381256103516,-22.459951400756836,0.7354540824890137,-0.0,-0.0,-1.0,0.1266769690188753,2.0
28.77686309814453,-22.69680404663086,0.7395559549331665,-0.7186013552502093,0.6898416813952019,-0.08792352837780858,0.18829745027702788,3.0
28.694551467895508,-23.197776794433594,0.7066088914871216,-0.0,-0.0,-1.0,0.1898213907581114,1.0
29.559566497802734,-22.595584869384766,0.7039152383804321,-0.0,-0.0,-1.0,0.1602456001868571,1.0
29.039810180664062,-23.057987213134766,0.6985585689544678,-0.0,-0.0,-1.0,0.24206388721174982,1.0
28.767221450805664,-23.208093643188477,0.7019948959350586,-0.0,-0.0,-1.0,0.20187588780841106,1.0
29.526376724243164,-22.768064498901367,0.6931213140487671,-0.0,-0.0,-1.0,0.10554798289232462,1.0
29.273147583007812,-23.315914154052734,0.6667368412017822,-0.0,-0.0,-1.0,0.13380677198030447,1.0
29.180404663085938,-23.33462905883789,0.6704074144363403,-0.0,-0.0,-1.0,0.12277897254452233,1.0
28.537147521972656,-22.65198516845703,0.818324089050293,-0.0,-0.0,-1.0,0.27593467283249323,1.0
27.915361404418945,-23.180076599121094,0.8072479963302612,-0.0,-0.0,-1.0,0.11960111766561989,1.0
29.010889053344727,-22.87229347229004,0.779143214225769,-0.0,-0.0,-1.0,0.19893909922464953,1.0
28.8742618560791,-23.03753662109375,0.7735170125961304,-0.0,-0.0,-1.0,0.24872896244096945,2.0
29.060461044311523,-23.122432708740234,0.7582118511199951,-0.0,-0.0,-1.0,0.22935785530453606,1.0
29.437429428100586,-23.28038787841797,0.7279715538024902,-0.0,-0.0,-1.0,0.17485584743539997,2.0
29.376232147216797,-23.428054809570312,0.7201244831085205,-0.0,-0.0,-1.0,0.24774671876945645,1.0
29.680259704589844,-24.184234619140625,0.649323582649231,-0.0,-0.0,-1.0,0.04344906331505362,1.0
27.712238311767578,-24.32178497314453,1.2037279605865479,-0.5483693890056964,0.7833013838135142,-0.29279678160347494,0.20834207247298464,4.0
27.814462661743164,-23.087547302246094,0.8865619897842407,-0.0,-0.0,-1.0,0.19549331453490684,1.0
28.0888671875,-23.001678466796875,0.8818520903587341,-0.0,-0.0,-1.0,0.3005493796276478,2.0
27.847036361694336,-23.30245590209961,0.8698300123214722,-0.0,-0.0,-1.0,0.12227586467771534,1.0
28.15148162841797,-24.302806854248047,0.7859971523284912,-0.3720003164623652,-0.15445291932916747,-0.9152923359575333,0.14308775279312286,5.0
27.756961822509766,-24.255104064941406,1.255752682685852,-0.7583971893506507,-0.5760854405751995,-0.3048922241420912,0.2235665012814886,3.0
28.036643981933594,-22.96352767944336,0.6928173303604126,-0.0,-0.0,-1.0,0.2058564796668319,2.0
28.123218536376953,-22.937931060791016,1.0837266445159912,-0.0,-0.0,-1.0,0.15329398952668546,1.0
28.029747009277344,-23.197628021240234,1.077845573425293,-0.0,-0.0,-1.0,0.26010725497700793,1.0
28.038755416870117,-24.21078872680664,1.031247854232788,-0.7128509744323651,0.5070249853039356,-0.48452982625259694,0.17007996827948405,3.0
27.784482955932617,-24.274646759033203,1.044069528579712,-0.9634617770597897,0.2653261258435498,0.036653118416378916,0.19541167593720082,3.0
28.37413787841797,-24.298616409301758,1.0063694715499878,0.7729025591862366,0.6224516074585082,0.12318940853695694,0.17578773061792624,6.0
27.838890075683594,-22.727874755859375,0.8406846523284912,-0.0,-0.0,-1.0,0.17669129349148785,1.0
28.805835723876953,-22.66547393798828,0.7485756874084473,-0.7186013552502093,0.6898416813952019,-0.08792352837780858,0.18146136888697312,3.0
27.776958465576172,-24.106021881103516,0.7304025888442993,-0.0,-0.0,-1.0,0.2568695962877702,1.0
29.150821685791016,-23.018497467041016,0.6850271224975586,-0.0,-0.0,-1.0,0.114601099681911,1.0
29.432600021362305,-23.222444534301758,0.6396775245666504,-0.0,-0.0,-1.0,0.18364374415805093,2.0
28.11144256591797,-22.8756103515625,1.1731352806091309,-0.0,-0.0,-1.0,0.1743589120825396,2.0
27.894580841064453,-24.350852966308594,1.1113860607147217,-0.0,-0.0,-1.0,0.13237515742392814,1.0
28.443302154541016,-24.282508850097656,1.072765588760376,0.4750052746002296,0.861532723732754,-0.1792522106965007,0.20893176936792573,7.0
28.574846267700195,-24.342628479003906,1.0592823028564453,-0.0,-0.0,-1.0,0.20911600963565413,1.0
28.233701705932617,-22.913955688476562,0.8595008850097656,-0.0,-0.0,-1.0,0.17094740107187417,2.0
28.10047721862793,-22.944398880004883,0.8702239990234375,-0.0,-0.0,-1.0,0.21069345563080877,1.0
28.143089294433594,-24.272491455078125,1.1390962600708008,-0.9816638565095994,0.15904072625938964,0.10508149320211738,0.16299492563202825,3.0
28.04311180114746,-24.332679748535156,1.1429226398468018,-0.0,-0.0,-1.0,0.1559268891998856,1.0
28.422014236450195,-24.278356552124023,1.1172298192977905,-0.13994674985396827,0.9302402526706637,0.3392167146774025,0.1721252119055133,5.0
27.73769760131836,-22.372337341308594,0.6705952882766724,-0.0,-0.0,-1.0,0.17536565099068172,1.0
27.957130432128906,-22.461305618286133,0.957450270652771,-0.0,-0.0,-1.0,0.18214413133080157,1.0
27.944351196289062,-22.764665603637695,0.7700730562210083,-0.0,-0.0,-1.0,0.17388610165176502,1.0
27.91486358642578,-23.200347900390625,0.9078489542007446,-0.0,-0.0,-1.0,0.15765254013685415,2.0
28.08639907836914,-23.0045166015625,0.9006367921829224,-0.28767661926520005,-0.9406754172966696,-0.1799219887114477,0.2796312015135193,3.0
27.830856323242188,-24.24298095703125,0.837409496307373,-0.0,-0.0,-1.0,0.20242064918161645,2.0
27.710773468017578,-24.333345413208008,0.8448340892791748,-0.0,-0.0,-1.0,0.1914139217295711,2.0
28.64173698425293,-22.498714447021484,0.5170698165893555,-0.0,-0.0,-1.0,0.1792266643112599,1.0
28.73946762084961,-23.07955551147461,0.8099464178085327,-0.0,-0.0,-1.0,0.2588976038359263,1.0
28.606321334838867,-23.33576202392578,0.8087863922119141,-0.0,-0.0,-1.0,0.2363464447120852,1.0
28.347164154052734,-24.20632553100586,0.7763509750366211,-0.8024313138318893,0.06664417068064397,-0.5930114173406084,0.18481529322383666,4.0
29.294469833374023,-22.64859962463379,0.7656114101409912,-0.0,-0.0,-1.0,0.09232285595815512,1.0
29.637006759643555,-22.524826049804688,0.7268606424331665,-0.0,-0.0,-1.0,0.13418988009756658,2.0
29.381105422973633,-22.994558334350586,0.7302484512329102,-0.0,-0.0,-1.0,0.1091030304036189,1.0
29.369640350341797,-23.36256217956543,0.706193208694458,-0.0,-0.0,-1.0,0.15858683698115125,1.0
28.015609741210938,-22.97402572631836,1.2535624504089355,-0.0,-0.0,-1.0,0.15203808628824922,1.0
29.070959091186523,-23.288898468017578,1.1256864070892334,-0.0,-0.0,-1.0,0.11700452530538344,1.0
29.666601181030273,-22.68350601196289,1.0865517854690552,-0.0,-0.0,-1.0,0.17322276823980579,1.0
27.73580551147461,-24.168771743774414,0.7690002918243408,-0.0,-0.0,-1.0,0.14204152503843515,2.0
28.0362548828125,-24.170928955078125,0.8906295299530029,-0.0,-0.0,-1.0,0.10914850053837231,2.0
28.626644134521484,-22.797271728515625,0.5432438850402832,-0.0,-0.0,-1.0,0.15051412520312096,1.0
28.440990447998047,-24.178966522216797,0.8156766891479492,0.4466577449377686,0.7032678848424613,-0.5530923440405937,0.23297916170437052,3.0
28.857343673706055,-23.20227813720703,0.8085892200469971,-0.0,-0.0,-1.0,0.24200425848341794,1.0
29.37329864501953,-22.690086364746094,0.740639328956604,-0.0,-0.0,-1.0,0.12550647087618672,1.0
29.335304260253906,-23.268430709838867,0.7106304168701172,-0.0,-0.0,-1.0,0.21099018218079812,1.0
29.560813903808594,-22.51279067993164,0.7137043476104736,-0.0,-0.0,-1.0,0.2094720750700713,1.0
29.529577255249023,-23.157743453979492,0.6795549392700195,-0.0,-0.0,-1.0,0.24915215141952538,1.0
27.743881225585938,-23.01300811767578,1.0348408222198486,-0.0,-0.0,-1.0,0.20769497222827282,1.0
28.173213958740234,-23.00396728515625,0.9543255567550659,-0.8932694294939842,0.00600394162334957,-0.44948156693737257,0.2680053140485985,3.0
28.032943725585938,-23.190752029418945,0.9671597480773926,-0.1778640699164623,-0.5934535943290515,-0.7849695561043633,0.2133684131762617,4.0
28.649070739746094,-22.6464900970459,0.8872750997543335,-0.0,-0.0,-1.0,0.223056173096798,2.0
28.332582473754883,-22.920618057250977,0.929862380027771,-0.0,-0.0,-1.0,0.2201236963530851,1.0
28.517475128173828,-24.253725051879883,1.1651673316955566,0.579188577309248,-0.07149332663737544,-0.8120525205679809,0.20696589409484228,3.0
28.724388122558594,-22.67474937438965,0.8705902099609375,-0.0,-0.0,-1.0,0.19290590136692887,1.0
28.946922302246094,-22.987529754638672,0.8057520389556885,0.14448034435318868,-0.9894972744745991,-0.004535846439653222,0.19954299353132707,3.0
28.772310256958008,-23.171016693115234,0.8272686004638672,-0.04198906463942938,0.7746320660916791,-0.6310167039256906,0.2784860115421878,3.0
29.344066619873047,-22.418174743652344,0.7633373737335205,-0.0,-0.0,-1.0,0.12219431546055619,2.0
29.641498565673828,-23.289093017578125,1.0215234756469727,-0.0,-0.0,-1.0,0.09314081517210943,2.0
27.769081115722656,-24.172962188720703,0.7808780670166016,-0.0,-0.0,-1.0,0.15986607404389372,2.0
27.907562255859375,-22.371057510375977,0.8083263635635376,-0.0,-0.0,-1.0,0.16577034896546963,1.0
27.816871643066406,-23.177104949951172,0.8888330459594727,-0.0,-0.0,-1.0,0.23840818276165032,1.0
28.14099884033203,-24.23030662536621,0.70646071434021,-0.0,-0.0,-1.0,0.13654412730601717,1.0
28.10128402709961,-22.449575424194336,0.9110875129699707,-0.0,-0.0,-1.0,0.1493289240618746,1.0
28.183067321777344,-22.747352600097656,0.863918662071228,-0.0,-0.0,-1.0,0.31838227779300843,1.0
28.70151710510254,-22.783187866210938,0.7552061080932617,-0.0,-0.0,-1.0,0.16581622795065776,1.0
28.787342071533203,-23.026493072509766,0.7133548259735107,-0.0,-0.0,-1.0,0.3064577761080755,1.0
28.823863983154297,-23.223526000976562,0.6859753131866455,-0.0,-0.0,-1.0,0.15246668511983666,1.0
29.192533493041992,-22.58552360534668,0.6714661121368408,-0.0,-0.0,-1.0,0.07762246003589884,1.0
29.419239044189453,-23.845247268676758,0.8762475252151489,-0.0,-0.0,-1.0,0.06515894908434662,2.0
29.49733543395996,-22.502588272094727,0.6135237216949463,-0.0,-0.0,-1.0,0.18836703442610817,1.0
27.823253631591797,-24.214542388916016,1.1114333868026733,-0.0,-0.0,-1.0,0.17423376528422121,2.0
28.103015899658203,-24.181432723999023,1.0699609518051147,-0.0,-0.0,-1.0,0.17685806146273667,1.0
28.34651756286621,-24.275005340576172,1.0221513509750366,0.07189057915504225,0.595762646388079,-0.7999366311136309,0.15707743968569016,4.0
28.236112594604492,-23.088001251220703,1.141641616821289,-0.0,-0.0,-1.0,0.13533723403647957,1.0
28.485727310180664,-24.228343963623047,1.0035260915756226,-0.0,-0.0,-1.0,0.19533316452179528,2.0
28.83060073852539,-23.317514419555664,1.0203657150268555,-0.0,-0.0,-1.0,0.24040629130648936,1.0
28.875282287597656,-23.98916244506836,0.9587244987487793,-0.0,-0.0,-1.0,0.14193678642372565,1.0
29.063701629638672,-22.991561889648438,1.0036250352859497,-0.0,-0.0,-1.0,0.17239507999533057,1.0
29.261781692504883,-23.232444763183594,0.950406551361084,-0.0,-0.0,-1.0,0.13739800507550454,1.0
29.569318771362305,-23.19780921936035,0.8973755836486816,-0.0,-0.0,-1.0,0.11015968324154361,2.0
28.081588745117188,-24.2861270904541,1.4129539728164673,-0.0,-0.0,-1.0,0.07529795047899612,1.0
27.74498748779297,-24.1705379486084,0.6237671375274658,-0.0,-0.0,-1.0,0.2019491303328926,1.0
27.93044662475586,-24.136690139770508,0.9183551073074341,-0.0,-0.0,-1.0,0.14716682241956874,1.0
27.86867332458496,-24.333250045776367,0.9115122556686401,-0.0,-0.0,-1.0,0.15413259460282042,2.0
27.998653411865234,-23.26534652709961,0.9818150997161865,-0.0,-0.0,-1.0,0.24810355460258807,2.0
28.303176879882812,-24.27013397216797,0.8345944881439209,-0.0,-0.0,-1.0,0.18681016392834618,1.0
28.166568756103516,-23.02243995666504,0.9672850370407104,-0.8932694294939842,0.00600394162334957,-0.44948156693737257,0.2160820451922418,3.0
28.079999923706055,-23.254783630371094,0.9662967920303345,-0.7919735873752912,0.16389639980498277,-0.5881460762692184,0.19121594929205918,3.0
28.47089385986328,-24.204193115234375,0.8077495098114014,-0.0,-0.0,-1.0,0.2056705953650452,2.0
28.46026611328125,-22.82584571838379,0.7683520317077637,-0.0,-0.0,-1.0,0.12213817610400504,1.0
28.694416046142578,-23.166702270507812,0.8463842868804932,-0.0,-0.0,-1.0,0.23250674911366553,2.0
28.82622528076172,-23.33846092224121,0.8059167861938477,-0.0,-0.0,-1.0,0.19887973594507685,1.0
28.687435150146484,-22.733612060546875,0.8792215585708618,-0.0,-0.0,-1.0,0.1904111915941001,2.0
28.90082550048828,-23.167268753051758,0.8027660846710205,-0.0,-0.0,-1.0,0.1898768684471705,1.0
29.04540252685547,-23.1773681640625,0.7711974382400513,-0.0,-0.0,-1.0,0.24487258544701915,1.0
29.158361434936523,-22.404211044311523,0.6415125131607056,-0.0,-0.0,-1.0,0.11661056646023293,1.0
29.411457061767578,-22.6484317779541,0.7258437871932983,-0.0,-0.0,-1.0,0.1489740541815583,1.0
29.50223731994629,-23.25843048095703,0.6668698787689209,-0.0,-0.0,-1.0,0.2083829695582277,2.0
29.611291885375977,-22.53933334350586,0.6873488426208496,-0.0,-0.0,-1.0,0.1760063466577232,2.0
27.741188049316406,-23.100658416748047,1.0471935272216797,-0.0,-0.0,-1.0,0.21465863115708164,2.0
28.481353759765625,-24.275991439819336,1.1413644552230835,0.5241862997221136,0.3817629217913286,-0.7612396434297066,0.20653604166533032,5.0
28.06637191772461,-22.89124298095703,1.1482869386672974,-0.0,-0.0,-1.0,0.1661380032091537,1.0
29.639020919799805,-23.26470375061035,0.9830710887908936,-0.0,-0.0,-1.0,0.08641177570113431,2.0
27.788320541381836,-24.289447784423828,0.7977755069732666,-0.0,-0.0,-1.0,0.20085730935896282,1.0
28.098403930664062,-24.14586067199707,0.5968379974365234,-0.0,-0.0,-1.0,0.15460107805128961,1.0
28.389976501464844,-24.281213760375977,0.8518931865692139,-0.2191120125855924,0.8232535327621617,-0.5236826775207593,0.23308544237799497,4.0
27.837787628173828,-23.110231399536133,0.7889025211334229,-0.0,-0.0,-1.0,0.19802793018196777,1.0
28.59339141845703,-23.078094482421875,0.6289005279541016,-0.0,-0.0,-1.0,0.1745546644470282,1.0
29.096406936645508,-24.172578811645508,0.7327537536621094,-0.0,-0.0,-1.0,0.08875364118358932,1.0
28.50292205810547,-22.904090881347656,0.6693719625473022,-0.0,-0.0,-1.0,0.17775900121741675,2.0
29.117223739624023,-23.228496551513672,0.8154685497283936,-0.0,-0.0,-1.0,0.14269087492675436,1.0
29.148548126220703,-22.534669876098633,0.557976484298706,-0.0,-0.0,-1.0,0.0985872619984516,1.0
29.538162231445312,-23.24705696105957,0.7274532318115234,-0.0,-0.0,-1.0,0.20938543209748361,1.0
29.654098510742188,-22.897197723388672,0.7302677631378174,-0.0,-0.0,-1.0,0.10076165487420333,1.0
27.801509857177734,-24.230127334594727,0.9598989486694336,-0.6707521890203111,-0.5416833591307256,-0.5066267258695641,0.18413795443604644,3.0
