x,y,z,nx,ny,nz,curvature,density
51.37569046020508,28.246915817260742,-2.9723620414733887,-0.0,-0.0,-1.0,0.04260815731751815,1.0
51.45333480834961,28.332120895385742,-3.026156425476074,-0.0,-0.0,-1.0,0.030617220688381012,1.0
51.42200469970703,29.188405990600586,-2.9935288429260254,-0.0,-0.0,-1.0,0.007163952421250615,2.0
50.63011932373047,28.07827377319336,-2.7186102867126465,-0.0,-0.0,-1.0,0.08700424009937453,2.0
51.70931625366211,28.764694213867188,-3.0552616119384766,-0.0,-0.0,-1.0,0.015479500777613429,1.0
51.132164001464844,27.82884979248047,-2.8064746856689453,-0.0,-0.0,-1.0,0.060969592845794285,2.0
50.36539077758789,27.776798248291016,-2.770054817199707,-0.0,-0.0,-1.0,0.09232675632393743,1.0
49.91272735595703,27.928390502929688,-2.7967867851257324,-0.0,-0.0,-1.0,0.15099876046913438,1.0
49.75747299194336,27.908157348632812,-2.362921953201294,-0.0,-0.0,-1.0,0.2305061545048827,2.0
51.6910514831543,28.45895767211914,-2.7991764545440674,-0.0,-0.0,-1.0,0.020328670441390497,1.0
49.75131607055664,29.556453704833984,-2.9141721725463867,-0.0,-0.0,-1.0,0.038902367781497374,1.0
50.24156951904297,27.85979461669922,-2.28116512298584,-0.0,-0.0,-1.0,0.11936718772224342,1.0
49.808109283447266,29.155139923095703,-0.8193845748901367,-0.0,-0.0,-1.0,0.09003280486943203,1.0
50.19673156738281,27.882741928100586,-2.7027788162231445,-0.0,-0.0,-1.0,0.08625563528796387,1.0
50.21928405761719,27.770679473876953,-2.7750244140625,-0.0,-0.0,-1.0,0.08004899968651524,1.0
50.03217315673828,29.540019989013672,-2.8792028427124023,-0.0,-0.0,-1.0,0.007997622468195327,2.0
50.190635681152344,29.35052490234375,-2.8870649337768555,-0.0,-0.0,-1.0,0.011314676244560869,1.0
50.78730773925781,29.26468276977539,-2.9643306732177734,-0.0,-0.0,-1.0,0.018997399863165353,1.0
50.980621337890625,29.208559036254883,-2.9873046875,-0.0,-0.0,-1.0,0.009213925018236355,1.0
49.98764419555664,27.839271545410156,-2.4733762741088867,-0.0,-0.0,-1.0,0.16161849407522955,1.0
50.08830261230469,28.935691833496094,-2.607353687286377,-0.0,-0.0,-1.0,0.10661012627932155,1.0
50.267608642578125,27.735986709594727,-2.81169056892395,-0.0,-0.0,-1.0,0.08536981150316916,1.0
50.06755065917969,27.76728057861328,-2.785355806350708,-0.0,-0.0,-1.0,0.07057517685862044,2.0
50.442169189453125,28.600337982177734,-2.9280130863189697,-0.0,-0.0,-1.0,0.0757595048577405,1.0
51.19387435913086,27.943466186523438,-2.7925002574920654,-0.0,-0.0,-1.0,0.04981320615804769,2.0
49.98065948486328,27.766944885253906,-2.5642497539520264,-0.0,-0.0,-1.0,0.09728056504165207,2.0
50.84916687011719,27.90540313720703,-2.7126734256744385,-0.0,-0.0,-1.0,0.07304703304790397,2.0
51.576629638671875,29.230987548828125,-2.9771459102630615,-0.0,-0.0,-1.0,0.011838981758283572,1.0
49.71037292480469,28.94691276550293,-1.5182623863220215,-0.0,-0.0,-1.0,0.09059347807276016,1.0
51.149436950683594,28.95380401611328,-3.0382392406463623,-0.0,-0.0,-1.0,0.011522603034473555,1.0
49.994102478027344,27.91471290588379,-2.735799551010132,-0.0,-0.0,-1.0,0.1604118697421853,1.0
50.27286148071289,27.921161651611328,-2.775925397872925,-0.0,-0.0,-1.0,0.07420505606727036,1.0
50.798927307128906,27.807910919189453,-2.8353288173675537,-0.0,-0.0,-1.0,0.10479966782018679,1.0
50.07695770263672,29.123863220214844,-2.91288161277771,-0.0,-0.0,-1.0,0.04166134691573018,1.0
50.50627136230469,29.08955955505371,-2.9673397541046143,-0.0,-0.0,-1.0,0.02253488696213439,2.0
50.67989730834961,29.119356155395508,-2.9954874515533447,-0.0,-0.0,-1.0,0.014828795410207435,1.0
49.73588180541992,29.30331039428711,-2.8912904262542725,-0.0,-0.0,-1.0,0.07753732900616375,1.0
49.965843200683594,27.821422576904297,-2.6765944957733154,-0.0,-0.0,-1.0,0.10263341833115941,1.0
50.076332092285156,27.765087127685547,-2.685746431350708,-0.0,-0.0,-1.0,0.0841692450104446,1.0
50.77186584472656,27.928077697753906,-2.8120248317718506,-0.0,-0.0,-1.0,0.10469170059863196,1.0
50.83372497558594,27.69969940185547,-2.7916924953460693,-0.0,-0.0,-1.0,0.11338090346743447,1.0
50.23604202270508,28.095760345458984,-2.753472089767456,-0.0,-0.0,-1.0,0.12303717459906795,1.0
50.17878723144531,28.679378509521484,-2.823169469833374,-0.0,-0.0,-1.0,0.10089726720399762,1.0
50.83726119995117,28.604839324951172,-2.9111244678497314,-0.0,-0.0,-1.0,0.01928432062285662,1.0
50.02027130126953,29.532901763916016,-2.9169204235076904,-0.0,-0.0,-1.0,0.007997622468195329,2.0
50.962493896484375,29.348102569580078,-3.029620885848999,-0.0,-0.0,-1.0,0.0210200054307496,2.0
50.14482116699219,28.29682731628418,-2.5012259483337402,-0.0,-0.0,-1.0,0.15530024626525413,1.0
50.72164535522461,28.046859741210938,-2.649174690246582,-0.0,-0.0,-1.0,0.12788932582175236,2.0
50.72399139404297,29.543115615844727,-2.917571544647217,-0.0,-0.0,-1.0,0.02328043381487338,1.0
49.96861267089844,27.65110206604004,-2.476656436920166,-0.0,-0.0,-1.0,0.17671210344993513,1.0
50.0590934753418,27.88052749633789,-2.8394558429718018,-0.0,-0.0,-1.0,0.10408626182245997,1.0
50.15868377685547,28.334964752197266,-2.3119609355926514,-0.0,-0.0,-1.0,0.17865742189828382,1.0
50.198429107666016,28.2889404296875,-2.3086869716644287,-0.0,-0.0,-1.0,0.1317532362340466,1.0
49.906150817871094,29.00054168701172,-1.136791467666626,-0.0,-0.0,-1.0,0.0933948220926132,1.0
50.25236511230469,28.247406005859375,-2.416961669921875,-0.0,-0.0,-1.0,0.16372134472726482,2.0
50.040931701660156,27.72727394104004,-2.6704185009002686,-0.0,-0.0,-1.0,0.08039909697613737,1.0
49.99311828613281,27.876901626586914,-2.6954874992370605,-0.0,-0.0,-1.0,0.08853875527464793,1.0
50.393035888671875,27.874004364013672,-2.7602005004882812,-0.0,-0.0,-1.0,0.08437086059325341,2.0
50.70912170410156,27.83966827392578,-2.8052635192871094,-0.0,-0.0,-1.0,0.10259711399376575,1.0
51.080116271972656,27.737167358398438,-2.8461575508117676,-0.0,-0.0,-1.0,0.060969592845794264,1.0
51.53562927246094,27.750104904174805,-2.9274988174438477,-0.0,-0.0,-1.0,0.03202004403907476,1.0
50.082374572753906,28.86159896850586,-2.92805814743042,-0.0,-0.0,-1.0,0.0767840289266239,1.0
50.42615509033203,28.709121704101562,-2.948521137237549,-0.0,-0.0,-1.0,0.07376368048260724,1.0
50.928401947021484,27.71193504333496,-2.7574334144592285,-0.0,-0.0,-1.0,0.08486122000859271,1.0
50.50469207763672,27.853313446044922,-2.7158732414245605,-0.0,-0.0,-1.0,0.10022218094292908,1.0
50.80751037597656,27.87254524230957,-2.771735668182373,-0.0,-0.0,-1.0,0.07712662139607754,1.0
51.1697998046875,28.053157806396484,-2.873897075653076,-0.0,-0.0,-1.0,0.045139224621183825,1.0
50.55364227294922,28.17641830444336,-2.7959275245666504,-0.0,-0.0,-1.0,0.08945876495895157,1.0
50.88101577758789,28.248416900634766,-2.8673176765441895,-0.0,-0.0,-1.0,0.06814336225142038,1.0
51.18830490112305,28.160385131835938,-2.90057373046875,-0.0,-0.0,-1.0,0.03493841139018055,1.0
50.3766975402832,28.799623489379883,-2.9069457054138184,-0.0,-0.0,-1.0,0.1177927675601368,1.0
50.0705680847168,29.066051483154297,-2.919017791748047,-0.0,-0.0,-1.0,0.04469816649810926,1.0
50.41123580932617,28.999610900878906,-2.9579691886901855,-0.0,-0.0,-1.0,0.03096855163743341,1.0
50.8997917175293,28.948322296142578,-3.0262060165405273,-0.0,-0.0,-1.0,0.013117318891423695,1.0
49.9393310546875,27.732357025146484,-2.5942792892456055,-0.0,-0.0,-1.0,0.10379895085113558,2.0
51.27129364013672,27.933605194091797,-2.7521889209747314,-0.0,-0.0,-1.0,0.04286846366530981,1.0
51.351531982421875,28.55707550048828,-2.906536817550659,-0.0,-0.0,-1.0,0.021210052123189063,1.0
50.105953216552734,29.347553253173828,-2.8880274295806885,-0.0,-0.0,-1.0,0.007997622468195359,1.0
50.4737663269043,29.13515853881836,-2.895447015762329,0.3175090762627352,0.08210151700700206,-0.9446943036749685,0.021019954141077272,3.0
50.90312576293945,29.344581604003906,-3.012890100479126,-0.0,-0.0,-1.0,0.019953474649258868,1.0
51.189781188964844,29.210765838623047,-3.0287973880767822,-0.0,-0.0,-1.0,0.00561232750009822,2.0
51.50330352783203,29.028480529785156,-3.0392801761627197,-0.0,-0.0,-1.0,0.006166259231061512,1.0
50.42320251464844,29.539058685302734,-2.9822580814361572,-0.0,-0.0,-1.0,0.02323523397746388,1.0
50.93669891357422,29.39862060546875,-3.0308315753936768,-0.0,-0.0,-1.0,0.01995347464925886,1.0
50.513580322265625,27.651256561279297,-2.5590083599090576,-0.0,-0.0,-1.0,0.12321196121188338,1.0
50.6833610534668,27.64505386352539,-2.5862362384796143,-0.0,-0.0,-1.0,0.11093481847772613,1.0
50.67584228515625,28.085163116455078,-2.6852777004241943,-0.0,-0.0,-1.0,0.0917916409272647,2.0
50.35175323486328,27.759700775146484,-2.8366928100585938,-0.0,-0.0,-1.0,0.08471139552015018,1.0
49.990081787109375,27.93569564819336,-2.8242740631103516,-0.0,-0.0,-1.0,0.13364138451043675,1.0
50.21855545043945,27.89254379272461,-2.8501553535461426,-0.0,-0.0,-1.0,0.06559901599263925,2.0
51.401004791259766,28.4840145111084,-2.899343967437744,-0.0,-0.0,-1.0,0.025845904860534494,1.0
51.44356155395508,28.96674919128418,-3.036343574523926,-0.0,-0.0,-1.0,0.011207166487323493,1.0
51.11891555786133,29.154251098632812,-3.038031578063965,-0.0,-0.0,-1.0,0.006301039947478727,1.0
50.74613952636719,28.20025634765625,-2.7222466468811035,-0.0,-0.0,-1.0,0.11598257724462936,1.0
51.38864517211914,27.941390991210938,-2.75185489654541,-0.0,-0.0,-1.0,0.029855083217038336,1.0
51.35098648071289,28.491840362548828,-2.8936305046081543,-0.0,-0.0,-1.0,0.026942366686282488,1.0
51.25522232055664,27.97248077392578,-2.8814878463745117,-0.0,-0.0,-1.0,0.03717637175443982,1.0
51.52589416503906,28.310232162475586,-2.999662399291992,-0.0,-0.0,-1.0,0.031469036109436195,1.0
50.381187438964844,28.605581283569336,-2.5127577781677246,-0.0,-0.0,-1.0,0.07746279760599109,1.0
51.1522331237793,27.825008392333984,-2.830946922302246,-0.0,-0.0,-1.0,0.060969592845794285,2.0
51.64460372924805,28.2471866607666,-3.008938789367676,-0.0,-0.0,-1.0,0.032062273811701916,2.0
51.26679992675781,28.102619171142578,-2.962900161743164,-0.0,-0.0,-1.0,0.03262302360103109,1.0
51.25943374633789,27.94219970703125,-2.9212160110473633,-0.0,-0.0,-1.0,0.03727571704685355,1.0
50.99635696411133,27.729963302612305,-2.8617405891418457,-0.0,-0.0,-1.0,0.08332401955096709,1.0
51.117942810058594,29.35310935974121,-3.029292583465576,-0.0,-0.0,-1.0,0.007469662184243916,1.0
50.96044921875,29.30504608154297,-3.0162477493286133,-0.0,-0.0,-1.0,0.0210200054307496,2.0
50.481571197509766,29.058019638061523,-2.9541053771972656,-0.0,-0.0,-1.0,0.02298243369823169,2.0
50.142452239990234,28.941591262817383,-2.925901412963867,-0.0,-0.0,-1.0,0.08747052383278195,1.0
49.77101516723633,28.936134338378906,-2.92612886428833,-0.0,-0.0,-1.0,0.09462110365664544,1.0
51.31563186645508,29.279987335205078,-3.0141334533691406,-0.0,-0.0,-1.0,0.005869824816856151,2.0
50.47575759887695,28.879501342773438,-2.9110193252563477,-0.0,-0.0,-1.0,0.03888700233326675,1.0
50.29050064086914,28.711036682128906,-2.870166301727295,-0.0,-0.0,-1.0,0.11558143722344658,1.0
50.75453567504883,28.275184631347656,-2.766752243041992,-0.0,-0.0,-1.0,0.08751587529578572,1.0
50.16067123413086,28.149227142333984,-2.7348499298095703,-0.0,-0.0,-1.0,0.14550406109663414,1.0
50.689456939697266,28.153596878051758,-2.737071990966797,-0.0,-0.0,-1.0,0.11598257724462932,1.0
50.098567962646484,27.85436248779297,-2.663895606994629,-0.0,-0.0,-1.0,0.09118487041582203,2.0
49.951942443847656,27.720914840698242,-2.632208824157715,-0.0,-0.0,-1.0,0.10379895085113557,2.0
51.424293518066406,29.248483657836914,-3.022704839706421,-0.0,-0.0,-1.0,0.006632959518609228,1.0
51.13559341430664,29.231515884399414,-3.0147225856781006,-0.0,-0.0,-1.0,0.007260267121051038,2.0
50.852882385253906,29.282899856567383,-3.02409291267395,-0.0,-0.0,-1.0,0.01731240064026659,1.0
51.60708236694336,29.191259384155273,-3.012112855911255,-0.0,-0.0,-1.0,0.011473739251353395,2.0
50.59024429321289,29.083250045776367,-2.9744279384613037,-0.0,-0.0,-1.0,0.019462493801481493,2.0
50.47333908081055,28.79279136657715,-2.9042179584503174,-0.0,-0.0,-1.0,0.08307716791790301,1.0
49.862579345703125,28.84659194946289,-2.917154550552368,-0.0,-0.0,-1.0,0.08572219857205277,1.0
50.23127746582031,28.31785774230957,-2.7895944118499756,-0.0,-0.0,-1.0,0.16531941835600023,1.0
50.64640808105469,28.279621124267578,-2.7820627689361572,-0.0,-0.0,-1.0,0.0875551774307761,1.0
50.575843811035156,28.101545333862305,-2.7389166355133057,-0.0,-0.0,-1.0,0.0968017759690302,1.0
50.0604248046875,27.87704086303711,-2.683734655380249,-0.0,-0.0,-1.0,0.08796935001066944,2.0
49.735355377197266,27.6487979888916,-2.630060911178589,-0.0,-0.0,-1.0,0.16959385608551286,1.0
51.496482849121094,28.601627349853516,-3.0072460174560547,-0.0,-0.0,-1.0,0.01636428408371304,1.0
51.33150100708008,28.34333038330078,-2.9384255409240723,-0.0,-0.0,-1.0,0.035936496844509204,1.0
50.87629699707031,27.986995697021484,-2.8361620903015137,-0.0,-0.0,-1.0,0.08130672639648716,1.0
50.4406852722168,27.93203353881836,-2.8100428581237793,-0.0,-0.0,-1.0,0.03919508079376517,1.0
51.063148498535156,27.762435913085938,-2.787914276123047,-0.0,-0.0,-1.0,0.07435648549657095,1.0
50.81470489501953,27.78203582763672,-2.7843737602233887,-0.0,-0.0,-1.0,0.10479966782018682,1.0
50.44712829589844,27.855850219726562,-2.791505813598633,-0.0,-0.0,-1.0,0.08761492396953495,1.0
50.0446891784668,27.866844177246094,-2.784543514251709,-0.0,-0.0,-1.0,0.13070323935746977,1.0
49.72359085083008,27.72867202758789,-2.7445859909057617,-0.0,-0.0,-1.0,0.1438463400949726,1.0
50.240867614746094,28.256088256835938,-2.2565622329711914,-0.0,-0.0,-1.0,0.15405647493552796,1.0
51.6601448059082,29.505069732666016,-3.061772346496582,-0.0,-0.0,-1.0,0.01364905047222281,2.0
51.22883605957031,29.435840606689453,-3.026520252227783,-0.0,-0.0,-1.0,0.004605183001353396,1.0
50.65443801879883,29.048614501953125,-2.914090633392334,-0.0,-0.0,-1.0,0.018136620757771397,1.0
50.94763946533203,28.634483337402344,-2.827540397644043,-0.0,-0.0,-1.0,0.017426158622499858,1.0
50.06265640258789,29.193653106689453,-2.930964469909668,-0.0,-0.0,-1.0,0.042384315219728644,2.0
50.76546859741211,28.00171661376953,-2.672106981277466,-0.0,-0.0,-1.0,0.09676604830928748,1.0
50.36833190917969,28.253501892089844,-2.717413902282715,-0.0,-0.0,-1.0,0.16699722671164957,2.0
50.077850341796875,27.683208465576172,-2.5741117000579834,-0.0,-0.0,-1.0,0.11117763214045792,1.0
49.76649475097656,28.823360443115234,-0.9608969688415527,-0.0,-0.0,-1.0,0.09357327409143401,1.0
51.64994430541992,27.763063430786133,-2.9596054553985596,-0.0,-0.0,-1.0,0.044753639622798824,1.0
49.76344299316406,27.9515380859375,-2.372861385345459,-0.0,-0.0,-1.0,0.2305061545048827,2.0
51.66384506225586,29.513355255126953,-3.051128625869751,-0.0,-0.0,-1.0,0.013649050472222812,2.0
51.435096740722656,29.499794006347656,-3.0382325649261475,-0.0,-0.0,-1.0,0.012876713047741344,1.0
51.178958892822266,29.578678131103516,-3.047593832015991,-0.0,-0.0,-1.0,0.012849433554831848,1.0
50.77276611328125,29.359275817871094,-2.9804375171661377,-0.0,-0.0,-1.0,0.024184013303775634,1.0
50.64948272705078,28.86225128173828,-2.8554489612579346,-0.0,-0.0,-1.0,0.02758186229182791,1.0
50.16917419433594,29.153507232666016,-2.9136149883270264,-0.0,-0.0,-1.0,0.04933344945292189,1.0
50.08473587036133,29.17334747314453,-2.9166066646575928,-0.0,-0.0,-1.0,0.042437518072719525,2.0
50.660072326660156,27.740768432617188,-2.5826776027679443,-0.0,-0.0,-1.0,0.11688951767075956,1.0
50.326534271240234,28.253925323486328,-2.6970646381378174,-0.0,-0.0,-1.0,0.15719037391404994,2.0
50.13006591796875,27.6588191986084,-2.5459177494049072,-0.0,-0.0,-1.0,0.13883884645376107,1.0
50.019779205322266,27.654197692871094,-2.541860342025757,-0.0,-0.0,-1.0,0.1093993496745375,1.0
51.60369110107422,29.636608123779297,-2.909534454345703,-0.0,-0.0,-1.0,0.013133003977794938,1.0
50.7323112487793,29.511924743652344,-2.7748398780822754,-0.0,-0.0,-1.0,0.02328043381487339,1.0
49.7823486328125,28.715164184570312,-2.4999256134033203,-0.0,-0.0,-1.0,0.08372591727523625,1.0
50.2386360168457,28.23077392578125,-2.4501352310180664,-0.0,-0.0,-1.0,0.1560432082621713,2.0
50.132389068603516,28.24264144897461,-2.3178224563598633,-0.0,-0.0,-1.0,0.12941060838557872,1.0
51.442481994628906,29.41727066040039,-3.031461715698242,-0.0,-0.0,-1.0,0.0137396115232831,1.0
51.15340042114258,29.464933395385742,-3.0152101516723633,-0.0,-0.0,-1.0,0.0050879811158555995,2.0
51.464576721191406,29.20517349243164,-2.987009048461914,-0.0,-0.0,-1.0,0.006632959518609227,2.0
50.47641372680664,29.585716247558594,-2.9839768409729004,-0.0,-0.0,-1.0,0.021964189169255206,1.0
50.47498321533203,29.175369262695312,-2.891543388366699,0.9984971669631542,-0.025508484410793307,-0.0485048944913772,0.020653527748778933,3.0
50.046913146972656,29.385028839111328,-2.904299259185791,-0.0,-0.0,-1.0,0.007997622468195329,1.0
50.23902893066406,28.709430694580078,-2.7671079635620117,-0.0,-0.0,-1.0,0.10502480563024442,1.0
50.68101119995117,28.048860549926758,-2.6598734855651855,0.18829235054145213,-0.5449544584560787,-0.8170499549822009,0.11298483172670876,3.0
49.78940963745117,28.316726684570312,-2.6415762901306152,-0.0,-0.0,-1.0,0.20524776867183814,1.0
49.9691047668457,27.803852081298828,-2.5414156913757324,-0.0,-0.0,-1.0,0.13057038396434903,2.0
51.608482360839844,29.14345932006836,-3.0171661376953125,-0.0,-0.0,-1.0,0.01147373925135339,2.0
51.3502082824707,29.244749069213867,-3.0096001625061035,-0.0,-0.0,-1.0,0.006456997736134257,2.0
51.12834930419922,29.452533721923828,-3.029232978820801,-0.0,-0.0,-1.0,0.008658525904858997,2.0
50.48828125,29.116710662841797,-2.892171859741211,-0.0,-0.0,-1.0,0.022107570102201077,2.0
50.21248245239258,29.2880916595459,-2.9017696380615234,-0.0,-0.0,-1.0,0.011314676244560864,1.0
50.43231964111328,28.784835815429688,-2.8159422874450684,-0.0,-0.0,-1.0,0.12587456062104047,1.0
50.97674560546875,27.96692657470703,-2.704268455505371,-0.0,-0.0,-1.0,0.06009459505745798,1.0
50.62603759765625,28.075580596923828,-2.6875314712524414,-0.0,-0.0,-1.0,0.07720462629185927,2.0
49.725502014160156,27.757381439208984,-2.526017665863037,-0.0,-0.0,-1.0,0.1684978844814063,1.0
51.63140869140625,28.271026611328125,-3.0479278564453125,-0.0,-0.0,-1.0,0.0320622738117019,2.0
51.67347717285156,28.169189453125,-3.036375045776367,-0.0,-0.0,-1.0,0.03549623084094906,1.0
50.39356994628906,28.846994400024414,-2.9681830406188965,-0.0,-0.0,-1.0,0.039162360084054576,1.0
51.57939910888672,27.90155792236328,-2.9735984802246094,-0.0,-0.0,-1.0,0.044700034903463894,1.0
51.08230209350586,27.816328048706055,-2.8793630599975586,-0.0,-0.0,-1.0,0.0609695928457943,1.0
50.60368728637695,27.877197265625,-2.816702365875244,-0.0,-0.0,-1.0,0.07640761337917105,1.0
50.396278381347656,27.902414321899414,-2.7901105880737305,-0.0,-0.0,-1.0,0.04387831460707344,2.0
50.099552154541016,27.837024688720703,-2.7339234352111816,-0.0,-0.0,-1.0,0.06759014512810171,1.0
49.83336639404297,27.83810043334961,-2.6956186294555664,-0.0,-0.0,-1.0,0.10189979858702948,1.0
51.696250915527344,29.344270706176758,-3.019500732421875,-0.0,-0.0,-1.0,0.013649050472222804,1.0
51.497501373291016,29.593687057495117,-3.031569480895996,-0.0,-0.0,-1.0,0.01313300397779493,1.0
50.72544860839844,28.133926391601562,-2.6751251220703125,-0.0,-0.0,-1.0,0.12304072474166153,1.0
50.08892059326172,28.305438995361328,-2.6113672256469727,-0.0,-0.0,-1.0,0.1411383782969239,1.0
49.885353088378906,27.746807098388672,-2.487466812133789,-0.0,-0.0,-1.0,0.16959385608551278,1.0
51.49683380126953,29.217437744140625,-3.0551905632019043,-0.0,-0.0,-1.0,0.0066329595186092275,1.0
51.343017578125,29.352474212646484,-3.056112289428711,-0.0,-0.0,-1.0,0.005282173822936172,1.0
51.669654846191406,29.052597045898438,-3.052753448486328,-0.0,-0.0,-1.0,0.006080203386477817,1.0
50.990089416503906,29.453311920166016,-3.0237088203430176,-0.0,-0.0,-1.0,0.022285550374426227,1.0
50.37915802001953,29.254077911376953,-2.90484619140625,-0.0,-0.0,-1.0,0.014737671775090678,1.0
51.22712326049805,27.911155700683594,-2.7986621856689453,-0.0,-0.0,-1.0,0.04981320615804769,2.0
50.83662033081055,27.917919158935547,-2.741086959838867,-0.0,-0.0,-1.0,0.06914691224763592,2.0
50.11819839477539,28.243974685668945,-2.6922435760498047,-0.0,-0.0,-1.0,0.17115916051788918,1.0
50.404563903808594,28.844234466552734,-1.106029987335205,-0.0,-0.0,-1.0,0.09056549302606849,1.0
49.764923095703125,29.078845977783203,-2.9097440242767334,-0.0,-0.0,-1.0,0.0958655922600094,1.0
50.02998733520508,28.852893829345703,-2.9237024784088135,-0.0,-0.0,-1.0,0.08069828258080737,1.0
50.254512786865234,27.878644943237305,-2.8391201496124268,-0.0,-0.0,-1.0,0.07420505606727038,2.0
51.09709930419922,28.9541015625,-3.0612144470214844,-0.0,-0.0,-1.0,0.010795982235590838,1.0
50.62717056274414,29.102493286132812,-3.000387191772461,-0.0,-0.0,-1.0,0.018136620757771414,2.0
49.893402099609375,29.389402389526367,-2.915987014770508,-0.0,-0.0,-1.0,0.039876955823944335,1.0
49.99066925048828,29.186325073242188,-2.906576633453369,-0.0,-0.0,-1.0,0.041132762079102915,1.0
50.11008834838867,27.917518615722656,-2.7770943641662598,-0.0,-0.0,-1.0,0.0973710914282205,1.0
49.926307678222656,27.905393600463867,-2.7447280883789062,-0.0,-0.0,-1.0,0.09875858536119517,1.0
49.90428924560547,28.319011688232422,-1.8247623443603516,-0.0,-0.0,-1.0,0.1627789076670242,1.0
50.474063873291016,29.195756912231445,-2.9211902618408203,-0.0,-0.0,-1.0,0.01639790620771976,2.0
50.0849494934082,29.352794647216797,-2.9478564262390137,-0.0,-0.0,-1.0,0.007997622468195346,1.0
50.48750305175781,29.283946990966797,-2.9366025924682617,-0.0,-0.0,-1.0,0.027806670163451966,1.0
50.0620231628418,29.433490753173828,-2.8841969966888428,-0.0,-0.0,-1.0,0.007997622468195329,1.0
51.49181365966797,29.276874542236328,-2.9975459575653076,-0.0,-0.0,-1.0,0.013335591048991945,1.0
51.569007873535156,29.480724334716797,-3.0266001224517822,-0.0,-0.0,-1.0,0.01364905047222281,1.0
50.04070281982422,28.79281997680664,-2.6008567810058594,-0.0,-0.0,-1.0,0.07345377104397784,1.0
49.98335266113281,27.705163955688477,-2.448810577392578,-0.0,-0.0,-1.0,0.1799877515897957,1.0
50.16904830932617,28.25358772277832,-2.5338621139526367,-0.0,-0.0,-1.0,0.14888440780066467,1.0
50.2821044921875,28.330711364746094,-2.559523820877075,-0.0,-0.0,-1.0,0.19665767737631504,1.0
49.727867126464844,28.7072696685791,-2.5618903636932373,-0.0,-0.0,-1.0,0.09931284021939833,1.0
50.30593490600586,28.617597579956055,-1.5839356184005737,-0.0,-0.0,-1.0,0.08855448146725382,1.0
50.197383880615234,28.117124557495117,-2.466860771179199,-0.0,-0.0,-1.0,0.08600878032490084,1.0
50.0850944519043,27.809850692749023,-2.799652099609375,-0.0,-0.0,-1.0,0.06784360459463945,2.0
50.32099151611328,28.02694320678711,-2.7686309814453125,-0.0,-0.0,-1.0,0.03860659812586696,1.0
49.86210632324219,29.26647186279297,-2.8862462043762207,-0.0,-0.0,-1.0,0.0674094142118774,1.0
49.84804153442383,29.119426727294922,-2.896127939224243,-0.0,-0.0,-1.0,0.08708091632754762,1.0
49.763633728027344,28.294795989990234,-1.7459518909454346,-0.0,-0.0,-1.0,0.10012641576520111,1.0
51.18092346191406,29.238849639892578,-2.997620105743408,0.12133056456640695,0.7544138149337616,-0.6450881257154603,0.00561232750009822,3.0
50.42752456665039,29.196529388427734,-2.8472228050231934,-0.0,-0.0,-1.0,0.01760916455675317,1.0
50.93955993652344,27.653278350830078,-2.8628382682800293,-0.0,-0.0,-1.0,0.09330852469976243,1.0
50.9463005065918,28.03377914428711,-2.9274792671203613,-0.0,-0.0,-1.0,0.058241626092362775,1.0
50.7122802734375,28.227096557617188,-2.9491829872131348,-0.0,-0.0,-1.0,0.09425318890626432,1.0
50.103782653808594,28.30016326904297,-2.9180026054382324,-0.0,-0.0,-1.0,0.1047913640099824,1.0
50.50419998168945,28.325925827026367,-2.9536919593811035,-0.0,-0.0,-1.0,0.061176009563970214,1.0
50.17491149902344,28.693008422851562,-3.004976749420166,-0.0,-0.0,-1.0,0.0737310365563918,1.0
50.506107330322266,27.80034637451172,-2.9102025032043457,-0.0,-0.0,-1.0,0.0839510447414612,1.0
