x,y,z,nx,ny,nz,curvature,density
26.713788986206055,12.922807693481445,-1.13523530960083,-0.0,-0.0,-1.0,0.1415428863651523,1.0
27.53509521484375,11.298247337341309,-1.1646909713745117,-0.19012407170150059,0.9177837022207284,0.3486056702029625,0.10238217216669046,5.0
26.960268020629883,11.946269989013672,-1.1528167724609375,-0.0,-0.0,-1.0,0.051067751252768384,2.0
27.329345703125,11.037132263183594,-1.1511101722717285,-0.0,-0.0,-1.0,0.03751784075281725,1.0
25.990720748901367,10.656432151794434,-0.47725558280944824,-0.7006768821114584,-0.13461345294146163,-0.7006647737411541,0.1947536265205934,3.0
25.94905662536621,10.651447296142578,-0.5832400321960449,0.3117347394533461,0.9472048680873957,-0.0749959338197309,0.18283163849341152,5.0
25.985841751098633,10.772505760192871,-0.5940890312194824,0.7894003828923747,-0.2537408197838862,-0.5589835702994977,0.20047487132363614,3.0
26.052902221679688,10.689288139343262,0.024153709411621094,-0.0,-0.0,-1.0,0.2310784746515431,1.0
27.224199295043945,12.269474983215332,-0.9897890090942383,-0.0,-0.0,-1.0,0.24393892542927964,2.0
27.189109802246094,12.46096420288086,-1.0019807815551758,-0.34225024854217106,-0.47950434362499567,-0.8080472460305675,0.1255002072827106,5.0
26.770946502685547,12.97198486328125,-0.9776411056518555,-0.45125130096210114,-0.6319855697753451,-0.6300527779287571,0.19766439074719344,3.0
27.6747989654541,10.823053359985352,-1.1176981925964355,0.9598786060907123,-0.08495336663663249,-0.26723769768962785,0.12275545903315807,5.0
27.68561553955078,11.172039031982422,-1.1588096618652344,-0.0,-0.0,-1.0,0.06899430327890774,1.0
27.091087341308594,12.113277435302734,-1.156294822692871,0.4498143609831372,0.8572568437236348,0.25055487331585385,0.1420560920594157,3.0
27.326885223388672,11.937265396118164,-1.1794886589050293,-0.0,-0.0,-1.0,0.07550944777462117,2.0
27.554763793945312,11.754904747009277,-1.2008047103881836,0.08146707029240176,0.18287036407595958,-0.9797558606105393,0.08059468234582004,4.0
26.95012664794922,12.237761497497559,-1.1450018882751465,0.6291460666774709,-0.06891670442517145,-0.7742258808871227,0.08900369612183515,6.0
26.91764259338379,12.875256538391113,-1.2164602279663086,-0.0,-0.0,-1.0,0.2391013253801278,2.0
27.23516082763672,12.80495834350586,-1.2662954330444336,-0.0,-0.0,-1.0,0.09483691822351276,2.0
27.569917678833008,10.678092002868652,-1.081690788269043,-0.0,-0.0,-1.0,0.10460766997242434,2.0
25.91705894470215,10.81128215789795,-1.0321507453918457,-0.0,-0.0,-1.0,0.16667094567923388,1.0
25.989242553710938,10.991518020629883,-1.0761752128601074,-0.0,-0.0,-1.0,0.06362290153678142,2.0
25.295394897460938,10.957948684692383,-0.9397516250610352,-0.0,-0.0,-1.0,0.1377637076207152,1.0
25.55799674987793,10.927753448486328,-0.9839510917663574,-0.0,-0.0,-1.0,0.14812995658269906,2.0
27.249893188476562,12.218864440917969,-1.0358166694641113,-0.0,-0.0,-1.0,0.19215483206963957,2.0
27.111995697021484,12.570890426635742,-1.07442045211792,-0.0,-0.0,-1.0,0.22882938095477312,1.0
26.862579345703125,13.044602394104004,-1.1179461479187012,-0.0,-0.0,-1.0,0.2796503772715339,2.0
27.025218963623047,12.907829284667969,-1.1200432777404785,-0.0,-0.0,-1.0,0.1441200640782805,1.0
26.072460174560547,10.784811019897461,-0.5902218818664551,0.5956768492219261,-0.8028686679037266,0.023895468179854704,0.164369680117974,4.0
25.34720230102539,11.41084098815918,-0.5752792358398438,-0.0,-0.0,-1.0,0.16152981159498972,1.0
27.58939552307129,11.935087203979492,-1.1276369094848633,0.7231165771571918,-0.31478282814322917,-0.6148285833845213,0.15394375762670987,3.0
27.69961929321289,11.902755737304688,-1.1424942016601562,-0.0,-0.0,-1.0,0.12960894200164658,1.0
27.047943115234375,12.189810752868652,-1.0713386535644531,0.3981431030411633,0.3123333396660966,-0.8625137415912727,0.20570595383434293,4.0
27.220314025878906,12.101546287536621,-1.0878548622131348,-0.0,-0.0,-1.0,0.2054592993390468,2.0
26.975540161132812,12.285513877868652,-1.0741510391235352,-0.4705787908758735,0.0878988281239922,-0.8779689046841177,0.23912757586736316,3.0
26.99724578857422,12.642021179199219,-1.1371922492980957,-0.0,-0.0,-1.0,0.18182735468014447,2.0
26.834129333496094,12.778698921203613,-1.1314711570739746,-0.5985015540753306,-0.35640107458378917,-0.7174776399337718,0.17009659339282746,3.0
26.754627227783203,12.969752311706543,-1.149942398071289,-0.0,-0.0,-1.0,0.17428212138186927,1.0
25.944473266601562,10.704113960266113,-0.6330618858337402,0.10546027127509018,0.9859705177034195,-0.12938419301535908,0.27072991181007705,6.0
25.252962112426758,11.342623710632324,-0.6118206977844238,0.431190248324994,0.05613596622956785,-0.9005130332454402,0.13237896252045908,3.0
26.71257781982422,10.741582870483398,-1.0961360931396484,-0.0,-0.0,-1.0,0.02668484410745043,2.0
26.53949737548828,11.238561630249023,-1.1521077156066895,-0.0,-0.0,-1.0,0.028606739825972925,1.0
26.435190200805664,11.835675239562988,-1.2411718368530273,-0.0,-0.0,-1.0,0.04345335130555046,2.0
26.258872985839844,12.012428283691406,-1.2410192489624023,0.9865700363112287,-0.16325785263483392,0.005141692904415379,0.0631349454545887,4.0
26.040021896362305,12.55323314666748,-1.3015809059143066,-0.0,-0.0,-1.0,0.02196595707240291,1.0
25.870391845703125,12.67546558380127,-1.293665885925293,-0.0,-0.0,-1.0,0.03700521995962444,1.0
25.509323120117188,12.866924285888672,-1.2645130157470703,-0.0,-0.0,-1.0,0.022316111817767343,1.0
26.08797836303711,11.158302307128906,-1.0526208877563477,-0.07390433572603343,0.8293085404532581,-0.5538822021803744,0.04738015286348754,4.0
25.55038833618164,11.160902976989746,-0.952366828918457,-0.1297783233224194,0.806425845254907,-0.5769184889570883,0.2637956665227767,5.0
25.251209259033203,11.789286613464355,-1.0131616592407227,0.11951074858547732,0.8962184628633117,-0.4272114790071322,0.10944547071362344,7.0
27.638629913330078,11.9491548538208,-1.141706943511963,-0.0,-0.0,-1.0,0.14343882215256973,2.0
27.28380584716797,12.10882568359375,-1.1249570846557617,0.3758343071253396,0.9133274353866361,0.15678510566276987,0.11192616156638285,3.0
27.475624084472656,12.038105010986328,-1.1375322341918945,0.4044747459759149,0.7964825100970164,-0.44946166797322706,0.11794764583117275,6.0
27.171714782714844,12.174704551696777,-1.1235237121582031,0.2201264494740992,-0.5458965815569636,-0.8084189931504259,0.13184128410281543,3.0
27.138168334960938,12.515336990356445,-1.1995148658752441,-0.0,-0.0,-1.0,0.1937855062143021,1.0
27.282718658447266,12.787636756896973,-1.286421775817871,0.6843671106836189,0.6739433730798646,-0.27828400546256654,0.08368979537187736,3.0
27.111591339111328,13.0867919921875,-1.333674430847168,-0.0,-0.0,-1.0,0.206091075857761,2.0
27.032730102539062,12.232873916625977,-1.1163649559020996,0.0033922124149869263,0.8013440811405473,-0.5981940793053234,0.14822078393035498,3.0
25.993183135986328,10.655943870544434,-0.5891737937927246,0.4557785668954518,-0.8883897202538431,-0.05504182869442322,0.12612999306181577,8.0
25.687259674072266,10.800323486328125,-1.044936180114746,-0.0,-0.0,-1.0,0.07494259274950721,2.0
25.411312103271484,10.89645004272461,-0.9934096336364746,0.26035015838185255,-0.7404185129886148,0.6196758996881134,0.09591821017172501,3.0
25.25400161743164,10.969738006591797,-0.9672093391418457,-0.0,-0.0,-1.0,0.11049990049010004,2.0
26.027315139770508,10.750303268432617,-0.37671947479248047,-0.010374861466416599,-0.7723873477052964,-0.635067041621851,0.20376343606512057,5.0
27.337017059326172,12.4404296875,-1.0259919166564941,-0.0,-0.0,-1.0,0.18679005131790613,2.0
27.36150360107422,12.865142822265625,-1.0934362411499023,-0.0,-0.0,-1.0,0.25506923974663887,1.0
27.388160705566406,12.221792221069336,-1.0062580108642578,-0.985210375776835,0.1691856660426986,0.027142694548559675,0.17791399068174488,5.0
27.321670532226562,12.351284980773926,-1.0097756385803223,-0.0,-0.0,-1.0,0.0749581070547258,2.0
26.941627502441406,12.567532539367676,-0.9566779136657715,0.29455008862675147,-0.7099913127452836,-0.6396503584898564,0.2780553287220045,3.0
26.86294174194336,12.847887992858887,-0.9811220169067383,-0.3564949318507497,0.31751115779837663,-0.87869108806125,0.1569209773963955,10.0
26.589906692504883,12.839449882507324,-1.3186061382293701,-0.0,-0.0,-1.0,0.0690928873255481,2.0
26.67085838317871,13.033381462097168,-1.3628122806549072,-0.0,-0.0,-1.0,0.10201117374461413,2.0
26.913572311401367,11.216473579406738,-1.1718332767486572,-0.0,-0.0,-1.0,0.03054601077105648,2.0
26.8018741607666,11.4232759475708,-1.1735637187957764,-0.034848405485774114,0.04678653300655405,-0.998296854129234,0.02611294129156797,5.0
26.66297149658203,12.016376495361328,-1.2206485271453857,-0.0,-0.0,-1.0,0.15212186033409994,2.0
26.65377426147461,12.38182258605957,-1.2679250240325928,-0.0,-0.0,-1.0,0.08740146367916427,2.0
25.935813903808594,10.68455982208252,-0.8986589908599854,0.010954709216419127,-0.8093011530870758,-0.5872917826412295,0.19150097748725473,6.0
26.309974670410156,12.072867393493652,-1.1547563076019287,-0.0,-0.0,-1.0,0.17057172517115257,1.0
26.548065185546875,12.517420768737793,-1.264831304550171,-0.0,-0.0,-1.0,0.028818173839956517,2.0
26.404293060302734,12.858449935913086,-1.2837035655975342,-0.0,-0.0,-1.0,0.13967594952461362,1.0
25.718873977661133,11.140018463134766,-0.908789873123169,0.21982738829038626,0.21541565466713172,-0.9514578367335881,0.22604120779353282,3.0
25.449325561523438,11.158843040466309,-0.8543932437896729,0.15484597408890405,-0.02582819815876863,-0.9876009459737924,0.191501113543,3.0
27.509803771972656,12.056550979614258,-1.05051589012146,-0.0,-0.0,-1.0,0.22568790632046823,1.0
27.19757843017578,12.146881103515625,-1.0006635189056396,0.9806651258894635,0.1893169169281242,0.049548116301555256,0.20109527651983794,7.0
27.101978302001953,12.445344924926758,-1.0096046924591064,0.710677878191084,-0.20106579570980834,-0.6741731967717203,0.233057599582005,4.0
26.92165756225586,12.589123725891113,-0.9898393154144287,0.5805706157703661,-0.4767533415235649,-0.6600333411655299,0.22736047998031528,3.0
26.8570556640625,12.823046684265137,-1.0001075267791748,-0.06395076137808961,0.4449752924769955,-0.8932565640420308,0.14662539597851454,11.0
25.810264587402344,11.124187469482422,-0.656935453414917,-0.0,-0.0,-1.0,0.09090606835668277,2.0
27.516845703125,10.968868255615234,-1.1850802898406982,-0.0,-0.0,-1.0,0.08009849013033407,2.0
27.55262565612793,11.28925895690918,-1.2109620571136475,0.018957191161288075,0.9006083566007007,-0.4342179325226669,0.11051360015823027,4.0
27.486934661865234,11.660308837890625,-1.2211902141571045,-0.0,-0.0,-1.0,0.036056173256057436,2.0
27.4647159576416,12.784225463867188,-1.2958285808563232,-0.0,-0.0,-1.0,0.0610510470156807,2.0
27.43341064453125,10.840995788574219,-1.1612777709960938,-0.0,-0.0,-1.0,0.09536215706360705,2.0
27.25179672241211,11.365917205810547,-1.1563189029693604,-0.36595341368062884,-0.12057606065710771,-0.9227889859615297,0.04377848575679371,6.0
27.41425323486328,11.815696716308594,-1.2170898914337158,-0.0,-0.0,-1.0,0.08572312435194614,1.0
27.1337890625,11.999212265014648,-1.174898624420166,-0.0,-0.0,-1.0,0.14283287782331938,2.0
27.308452606201172,12.770401000976562,-1.2648770809173584,-0.0,-0.0,-1.0,0.07167829955409888,2.0
26.970413208007812,12.149730682373047,-1.1538336277008057,-0.0,-0.0,-1.0,0.08816316207342824,2.0
26.917509078979492,12.308794021606445,-1.155130386352539,0.6238873658549982,0.18677496929398926,-0.7588673570339827,0.08131388995411716,3.0
26.887914657592773,12.842178344726562,-1.1901233196258545,0.9537038270299453,-0.29965707480678444,-0.025586086583870935,0.17851226315584565,6.0
27.30083656311035,10.690980911254883,-1.126598596572876,-0.0,-0.0,-1.0,0.1455294603001598,2.0
26.617185592651367,12.012617111206055,-1.0756556987762451,-0.0,-0.0,-1.0,0.11604479538944046,2.0
26.329774856567383,12.954360008239746,-1.093308448791504,-0.0,-0.0,-1.0,0.13509566301443943,1.0
25.9692440032959,10.639847755432129,-0.8591439723968506,0.8072723866321926,-0.5619780785960495,-0.18025518843754815,0.07063661063990821,4.0
25.491397857666016,12.796062469482422,-1.2503376007080078,-0.0,-0.0,-1.0,0.026459692592596708,2.0
25.394412994384766,12.852991104125977,-1.2325849533081055,-0.0,-0.0,-1.0,0.022340629734355254,2.0
27.072002410888672,12.522953033447266,-0.8896417617797852,-0.0,-0.0,-1.0,0.22487767414907142,1.0
27.00323486328125,12.56556510925293,-0.8783197402954102,-0.0,-0.0,-1.0,0.2654528657997258,2.0
25.997520446777344,10.676898956298828,-0.6134037971496582,0.7755219209222078,-0.6287402165300471,-0.0570218404374856,0.1493696460683252,10.0
26.623218536376953,12.406682014465332,-1.3203749656677246,-0.0,-0.0,-1.0,0.056367803221309104,2.0
26.79877281188965,12.8032865524292,-1.3755922317504883,-0.0,-0.0,-1.0,0.19893711172992032,1.0
26.505313873291016,11.731464385986328,-1.2720551490783691,-0.0,-0.0,-1.0,0.03295714696986465,1.0
26.500396728515625,11.892070770263672,-1.2754015922546387,-0.0,-0.0,-1.0,0.05014653348726645,1.0
26.15729331970215,13.09216022491455,-1.2422266006469727,-0.970339821197296,0.2187715826599988,-0.10285730902196204,0.1259249357960356,6.0
26.430816650390625,11.584205627441406,-1.250936508178711,-0.0,-0.0,-1.0,0.029116941387047193,1.0
26.285259246826172,11.963705062866211,-1.2277464866638184,0.5281253759956399,-0.7831824365562656,0.3281902775818551,0.05042859558993929,3.0
26.14137840270996,12.049323081970215,-1.1972370147705078,0.34655759099962063,-0.8801134249058727,-0.32449683422337855,0.10378815383598207,4.0
27.191638946533203,12.727145195007324,-0.7682833671569824,-0.0,-0.0,-1.0,0.19545850582025834,1.0
25.9371337890625,10.772183418273926,-0.48632240295410156,0.8043924983796787,0.20862144192855578,-0.556264148150992,0.1488039534814285,3.0
25.52535629272461,12.647346496582031,-1.26674222946167,-0.0,-0.0,-1.0,0.03552928644771076,2.0
25.56224822998047,12.74758529663086,-1.2779755592346191,-0.0,-0.0,-1.0,0.03227498657970071,1.0
27.688251495361328,10.792165756225586,-1.092127799987793,0.9638425670500606,0.09993447809982546,-0.2470234928691299,0.168379631310412,5.0
27.21770477294922,12.153444290161133,-0.9857215881347656,0.9435464370400574,0.11420895567400793,-0.31092834478841835,0.1686302678616348,8.0
27.280723571777344,12.366098403930664,-0.9997172355651855,-0.05032014729028251,0.46209803253872483,-0.8854000740346271,0.07052842469196763,3.0
26.84729766845703,12.759002685546875,-0.913154125213623,0.8373723862134931,0.46203590559965996,-0.29211352030302,0.18726523168891876,6.0
26.090999603271484,10.826883316040039,-0.1275467872619629,0.10932209986242386,-0.2305073899521672,-0.9669100380382393,0.115975473394069,8.0
25.621023178100586,12.579219818115234,-1.2525622844696045,-0.0,-0.0,-1.0,0.03227123356718668,1.0
25.710712432861328,12.746872901916504,-1.2796471118927002,-0.7865751199920633,0.13570745890662242,-0.6023977641115368,0.05357600889423782,3.0
25.291458129882812,12.226919174194336,-1.162677526473999,-0.0,-0.0,-1.0,0.021282156426224472,1.0
27.46324348449707,12.326031684875488,-1.0066852569580078,-0.0,-0.0,-1.0,0.12527008839274156,2.0
27.327281951904297,12.138242721557617,-0.9755339622497559,0.16731837092841217,0.9712651634852553,0.16925881055301678,0.2118475246496709,4.0
27.392353057861328,12.246065139770508,-0.9906904697418213,-0.985210375776835,0.1691856660426986,0.027142694548559675,0.13628767178770015,5.0
25.229883193969727,12.100371360778809,-1.1444950103759766,-0.0,-0.0,-1.0,0.040751064513161475,1.0
26.069046020507812,10.662117004394531,-0.7036802768707275,-0.0,-0.0,-1.0,0.08433496092047381,2.0
26.7747802734375,13.01998519897461,-1.3535077571868896,-0.9891914881983682,0.002555125010120802,-0.14660719972798208,0.17162236542275316,4.0
26.473636627197266,12.2700834274292,-1.2866747379302979,0.42393046292770126,0.26067601752388814,-0.8673701496418873,0.03153303534611636,3.0
26.49236297607422,12.560315132141113,-1.2880504131317139,-0.0,-0.0,-1.0,0.03302282292379742,2.0
26.682514190673828,12.818879127502441,-1.3320200443267822,-0.7020310135632176,-0.4877323463582452,0.5189119523688793,0.15266167753592413,3.0
26.189105987548828,11.790826797485352,-1.225665807723999,-0.8738757670807843,0.4519028605936506,-0.17923433905434108,0.09241174319138083,3.0
26.235675811767578,12.064863204956055,-1.232013463973999,0.003445250340358508,-0.9064148028879421,-0.4223746386274933,0.06321086936341426,4.0
26.153766632080078,13.115386962890625,-1.203963041305542,-0.8675564611065661,-0.4763054217209957,-0.14310461918273495,0.09527802548009148,4.0
26.87271499633789,12.751564025878906,-0.7189340591430664,-0.37033732482037635,-0.14947268319676665,-0.9167923335318892,0.2181510240725131,4.0
25.273693084716797,11.78041934967041,-1.0037710666656494,-0.1869821381913371,0.8206961679224798,-0.5399032135065991,0.11284840695724023,10.0
26.41598892211914,12.200652122497559,-1.260892391204834,-0.0,-0.0,-1.0,0.027480307120565824,1.0
26.477394104003906,12.471930503845215,-1.2737689018249512,-0.23403205192255683,-0.831215865388329,-0.5042907730661434,0.028846330525032264,4.0
26.672401428222656,12.846879959106445,-1.319383144378662,-0.8971210348992176,-0.1340197279846255,-0.42096622341024376,0.15911542164687073,3.0
26.68817901611328,13.095436096191406,-1.323720932006836,-0.0,-0.0,-1.0,0.13958249713945778,1.0
26.103572845458984,11.750389099121094,-1.1919269561767578,-0.0,-0.0,-1.0,0.0772837959449125,1.0
26.21906280517578,12.048418998718262,-1.215470314025879,0.003445250340358508,-0.9064148028879421,-0.4223746386274933,0.09356511616795486,4.0
25.89177703857422,11.692764282226562,-1.1423282623291016,-0.0,-0.0,-1.0,0.09573587354680256,1.0
26.898239135742188,12.723864555358887,-0.7187604904174805,-0.47721980922430324,-0.7816693876457018,-0.4015647172019879,0.13447732677181176,5.0
25.224361419677734,11.326582908630371,-0.9902834892272949,-0.0,-0.0,-1.0,0.158059883182579,1.0
25.302059173583984,11.913949966430664,-0.9983353614807129,-0.6240648485929412,0.6337677940171729,-0.4570354997341848,0.10465231664274882,4.0
27.21895980834961,12.624149322509766,-1.2840497493743896,-0.0,-0.0,-1.0,0.1394271136170372,2.0
27.190933227539062,12.718467712402344,-1.2792298793792725,0.030413786202250007,0.9381729717503127,0.34482818429767437,0.17133328877214135,4.0
27.156780242919922,12.561235427856445,-1.2687971591949463,-0.10676789030405599,0.7913240738632535,-0.602002348603795,0.12348415520688888,3.0
26.89337921142578,11.301472663879395,-1.2010061740875244,-0.0,-0.0,-1.0,0.03180319386642046,1.0
26.93158721923828,11.587556838989258,-1.2093851566314697,-0.0,-0.0,-1.0,0.027093992068799862,1.0
26.857929229736328,12.100637435913086,-1.194828748703003,0.6129754898683186,-0.5405110069275513,-0.576288903425061,0.08242707966325995,5.0
26.90386199951172,12.377854347229004,-1.2083113193511963,-0.09859291930070661,-0.37319700037308273,-0.9224984743490354,0.10668260974650645,4.0
26.928142547607422,12.931787490844727,-1.2230970859527588,-0.0,-0.0,-1.0,0.21487527720477567,1.0
26.546863555908203,10.876130104064941,-1.1247947216033936,-0.0,-0.0,-1.0,0.035987092626933975,1.0
26.73702621459961,11.312653541564941,-1.165168046951294,-0.24032863060506357,-0.3595165604074012,-0.9016595766165445,0.043708266375112416,3.0
26.003093719482422,11.948467254638672,-0.9978303909301758,-0.473648811384642,-0.7438749932098147,0.4714942183643551,0.16764586666938994,10.0
25.93144989013672,10.698993682861328,-0.9866671562194824,0.9755076204111399,0.17265678348083174,0.13628836207779524,0.18385216711578622,3.0
25.598388671875,11.165390014648438,-0.9057981967926025,0.32128343819529664,0.9430658069739768,0.08604554641543781,0.22372867715734,4.0
26.0938777923584,12.49555492401123,-1.31425142288208,-0.0,-0.0,-1.0,0.023200615829680502,2.0
26.18511390686035,12.785780906677246,-1.3387789726257324,0.9434680324112168,0.07584536191965792,0.32266941735061133,0.035630751231010435,3.0
25.78851890563965,12.138297080993652,-1.2386879920959473,0.27090871268219685,-0.9487357791853496,0.16281551119731402,0.010820496597685197,4.0
25.906034469604492,12.302000999450684,-1.2675056457519531,-0.0,-0.0,-1.0,0.011328712666039447,1.0
26.857393264770508,12.85024356842041,-0.8483021259307861,0.6336449613692463,-0.7572136395950796,-0.15849784522995658,0.22185798200498752,4.0
26.03205680847168,10.725929260253906,-0.6805567741394043,0.46520713671292774,-0.8130451019962066,-0.3500571125849861,0.19771038617177636,7.0
27.22913360595703,12.602594375610352,-1.3671667575836182,-0.0,-0.0,-1.0,0.17090931965461428,1.0
27.042362213134766,13.003946304321289,-1.2925255298614502,0.5402672106993807,0.12550045900332973,-0.8320823131355845,0.18161804741596665,3.0
26.78448486328125,12.160920143127441,-1.3128798007965088,-0.0,-0.0,-1.0,0.055461686362987435,1.0
26.886066436767578,12.424660682678223,-1.3080604076385498,-0.0,-0.0,-1.0,0.08933751247491999,1.0
26.881057739257812,12.87384033203125,-1.2680881023406982,-0.0,-0.0,-1.0,0.23022605751764647,1.0
26.352378845214844,11.77412223815918,-1.268890142440796,-0.0,-0.0,-1.0,0.07642364220123245,1.0
26.455883026123047,12.007615089416504,-1.2678797245025635,-0.0,-0.0,-1.0,0.08369477483228155,1.0
26.028884887695312,11.58594036102295,-1.2183783054351807,-0.0,-0.0,-1.0,0.03127373408078853,1.0
26.074058532714844,11.943931579589844,-1.1913249492645264,-0.6298082117959334,-0.30022692763616965,0.716383562260159,0.2278213253182384,3.0
25.907623291015625,11.516199111938477,-1.199554204940796,-0.0,-0.0,-1.0,0.03871763974783016,1.0
25.260780334472656,11.841255187988281,-1.025540828704834,-0.0,-0.0,-1.0,0.14734069376680195,2.0
25.963909149169922,10.71733283996582,-0.6593003273010254,0.718923272464281,0.05599656869532419,0.6928302191760974,0.21399729840383294,5.0
25.745182037353516,11.322040557861328,-0.5571033954620361,-0.9617787290448558,0.2589130096057359,-0.08913882326888871,0.13862150281065894,4.0
27.462135314941406,10.973023414611816,-1.152818202972412,-0.0,-0.0,-1.0,0.0686798067041857,2.0
27.60162353515625,11.234394073486328,-1.167487382888794,0.42101965328421426,0.8067272362988658,0.41464878844877157,0.12968694214566212,3.0
27.609943389892578,11.453201293945312,-1.1609950065612793,-0.0,-0.0,-1.0,0.04665905975410286,2.0
27.554767608642578,12.007035255432129,-1.1332132816314697,-0.0501501526392544,0.04141818254338518,-0.9978825062827098,0.1253725568533776,3.0
27.616268157958984,13.122259140014648,-1.1173357963562012,-0.0,-0.0,-1.0,0.07371277970872687,1.0
27.224979400634766,10.76602840423584,-1.1196012496948242,0.9451859485999831,-0.3180132405138259,0.07410196641820746,0.11093773510329516,4.0
27.309402465820312,12.184340476989746,-1.0840954780578613,0.9280206144155393,-0.11163026949025948,0.35541021672616074,0.18861717410985573,3.0
27.224044799804688,12.525864601135254,-1.059617042541504,-0.0,-0.0,-1.0,0.17939954907410233,2.0
27.070289611816406,12.42173957824707,-1.0346922874450684,0.5980373009423656,-0.49208774381941855,-0.632614447404013,0.16428885966192167,4.0
27.083240509033203,12.614727973937988,-1.0320868492126465,-0.0,-0.0,-1.0,0.18326924571055664,2.0
26.877685546875,12.85540771484375,-0.989478349685669,0.31428347495979886,0.9491659228139829,0.017605349637931565,0.17497411401765614,11.0
26.781044006347656,13.043825149536133,-0.967963695526123,-0.0,-0.0,-1.0,0.12467716049640518,1.0
25.93926239013672,10.820195198059082,-0.8913407325744629,-0.0,-0.0,-1.0,0.14688954535775503,1.0
26.177898406982422,10.813650131225586,-0.2913782596588135,-0.0,-0.0,-1.0,0.1819833254803968,2.0
27.486862182617188,11.106861114501953,-1.186908483505249,0.8457307991931323,0.41039987908607484,0.34104450522223706,0.03967322871744983,3.0
27.575496673583984,11.359737396240234,-1.1851756572723389,-0.0,-0.0,-1.0,0.10705215147365095,2.0
27.54534149169922,12.057914733886719,-1.1362648010253906,-0.10913581446008064,-0.08265318393763166,-0.9905845875982057,0.10421534721564309,4.0
27.220748901367188,10.771696090698242,-1.1649060249328613,0.9557940500185649,-0.2672213091759143,-0.12268050322451204,0.08407203830837652,3.0
27.107757568359375,12.33514404296875,-1.0438265800476074,0.5170467977370352,0.8131833626100078,-0.2671992285246311,0.23135877429245577,5.0
27.239810943603516,12.535162925720215,-1.0555646419525146,-0.0,-0.0,-1.0,0.1918710019100484,2.0
26.905094146728516,10.74003791809082,-1.1135129928588867,-0.0,-0.0,-1.0,0.02809526157974396,1.0
26.58511734008789,10.710250854492188,-1.0613958835601807,-0.0,-0.0,-1.0,0.039355945290810886,2.0
26.786663055419922,12.937579154968262,-0.9543862342834473,-0.5178325903005223,-0.43875921464080314,-0.7343975490090071,0.18192257706735138,5.0
26.442943572998047,10.690863609313965,-1.0387661457061768,-0.0,-0.0,-1.0,0.036078226515164645,1.0
25.95571517944336,10.729462623596191,-0.9534711837768555,-0.0,-0.0,-1.0,0.20501639683472161,1.0
26.039058685302734,10.81435775756836,-0.31105947494506836,0.09263064829569978,-0.9037534474566663,-0.41791059953835746,0.20802859161712933,5.0
26.06008529663086,13.026042938232422,-1.3132672309875488,-0.0,-0.0,-1.0,0.10277062876398733,2.0
25.643646240234375,12.67017936706543,-1.2599115371704102,-0.9590906587630273,-0.18900022906070402,-0.21077006829363512,0.04858760222820705,3.0
25.696449279785156,12.90742301940918,-1.2513222694396973,-0.0,-0.0,-1.0,0.05969739844264293,1.0
27.56362533569336,10.951175689697266,-1.0591678619384766,-0.0,-0.0,-1.0,0.13787702572580007,1.0
27.39767837524414,10.829598426818848,-1.0431492328643799,-0.0,-0.0,-1.0,0.19511258915896917,1.0
25.52080535888672,12.644916534423828,-1.2381329536437988,0.4809770116189016,-0.8767308236529244,0.0020438079693113026,0.03552928644771074,3.0
25.294891357421875,12.56265926361084,-1.2012319564819336,-0.7521767814262479,-0.6540474749249924,-0.08032428043556789,0.030316917009912545,4.0
26.812294006347656,12.765653610229492,-0.8088064193725586,-0.7199706787288505,-0.12987942854000928,-0.6817430276965349,0.23512044577964752,3.0
25.900196075439453,10.747753143310547,-0.8187003135681152,-0.0,-0.0,-1.0,0.17184242238388028,2.0
25.957645416259766,10.79311752319336,-0.8235430717468262,-0.0,-0.0,-1.0,0.19920061516826867,2.0
25.869487762451172,10.660231590270996,-0.8217310905456543,0.39714850193623885,0.755972847736432,-0.5203634507678941,0.13685766434868737,3.0
27.02975845336914,12.95414924621582,-1.3243451118469238,-0.0,-0.0,-1.0,0.13036868892289416,2.0
26.484451293945312,12.309722900390625,-1.2694759368896484,0.42393046292770126,0.26067601752388814,-0.8673701496418873,0.04102049831233615,3.0
26.59280014038086,12.546266555786133,-1.2720069885253906,-0.0,-0.0,-1.0,0.053814021129333436,2.0
26.820220947265625,12.736848831176758,-1.3001923561096191,-0.0,-0.0,-1.0,0.20075426499272017,2.0
26.284191131591797,12.147209167480469,-1.2456254959106445,-0.6789168932459883,-0.7328683739539505,-0.04444995526778473,0.03732042967121042,4.0
25.943336486816406,11.977075576782227,-1.197650671005249,-0.0,-0.0,-1.0,0.1150553693468413,2.0
25.617706298828125,11.972875595092773,-1.1396770477294922,0.8098752401801816,0.5779501881988914,0.10037766337168327,0.11395162261601124,3.0
27.040565490722656,12.446013450622559,-0.6720476150512695,-0.0,-0.0,-1.0,0.0978638177871736,1.0
25.95751953125,10.761916160583496,-0.6292788982391357,0.7738035313864845,-0.547735287572584,-0.3181417130173049,0.21877608937809012,5.0
27.205177307128906,11.793187141418457,-1.1820411682128906,-0.0,-0.0,-1.0,0.048064214046292915,2.0
27.252443313598633,11.888113975524902,-1.1818103790283203,-0.0,-0.0,-1.0,0.06943569359141143,1.0
27.151453018188477,12.485986709594727,-1.1186621189117432,-0.0,-0.0,-1.0,0.2208210861930884,1.0
27.204320907592773,13.120769500732422,-1.0805315971374512,-0.0,-0.0,-1.0,0.16085334221267686,1.0
26.905431747436523,11.40142822265625,-1.1678144931793213,-0.0,-0.0,-1.0,0.02797516377377726,2.0
26.979995727539062,11.612544059753418,-1.1615779399871826,-0.0,-0.0,-1.0,0.0348385168901057,1.0
27.12198257446289,12.093639373779297,-1.1445698738098145,0.5092873778720828,0.7966560171724854,0.3255235122737699,0.1394010900665857,4.0
26.999038696289062,12.36529541015625,-1.1035676002502441,0.8722094792121559,-0.35425318099650166,-0.33727630827901284,0.2132106415924962,4.0
26.904434204101562,12.804634094238281,-1.0548763275146484,0.814368651262446,0.3604100194730311,-0.45487175962509896,0.11943413756091342,6.0
26.66706657409668,11.211222648620605,-1.1473758220672607,-0.0,-0.0,-1.0,0.03719268293690434,2.0
26.70699691772461,11.42129135131836,-1.1351280212402344,-0.0,-0.0,-1.0,0.07396616451075516,2.0
26.508148193359375,12.039840698242188,-1.051589012145996,-0.7850718073575743,0.5477863477197541,-0.28912345900006875,0.22797393558676615,5.0
26.06639862060547,11.215801239013672,-1.0541741847991943,-0.0,-0.0,-1.0,0.05081742964523672,2.0
26.014266967773438,11.974283218383789,-0.9793491363525391,-0.7684752319381138,0.5872004346005968,-0.25424686330913154,0.198842879543193,6.0
25.664390563964844,11.240910530090332,-0.990187406539917,-0.82810599391245,0.3592974685346187,0.43028570967542945,0.27383713307016977,6.0
25.456357955932617,11.244298934936523,-0.9580802917480469,-0.4500865997310762,-0.8660964134894459,-0.21748345979231753,0.2315436986455692,3.0
25.29070281982422,11.113076210021973,-0.9452447891235352,-0.63241465559219,-0.7615630838258696,-0.14168053058145583,0.13420087807472114,3.0
26.048540115356445,10.758247375488281,-0.39891910552978516,-0.00930027445382758,-0.9386367773452616,-0.34478182247616385,0.1658091312497969,3.0
27.07037353515625,12.472134590148926,-1.1488361358642578,0.6186417200357074,-0.7306692815382978,-0.28879893221334635,0.2642035306578413,3.0
27.121536254882812,12.94624137878418,-1.104156732559204,-0.0,-0.0,-1.0,0.1611201517186212,1.0
26.710445404052734,11.762771606445312,-1.1796207427978516,-0.0,-0.0,-1.0,0.06409198760454783,1.0
26.874847412109375,12.106589317321777,-1.1625175476074219,0.41753951277600043,-0.5893660767391312,-0.6915984260102855,0.045440550011658955,5.0
26.88775634765625,12.369342803955078,-1.1342499256134033,0.45657057822983366,0.7282681053414898,-0.5110468411380628,0.1479777598744605,4.0
26.876720428466797,12.90546703338623,-1.0730900764465332,0.19823293688570423,0.3509750076401289,-0.9151613227981609,0.15628410138331578,6.0
26.33163833618164,11.460721969604492,-1.1633870601654053,-0.0,-0.0,-1.0,0.023924111339573135,2.0
26.53388214111328,11.542441368103027,-1.1813569068908691,-0.0,-0.0,-1.0,0.11172978557117656,1.0
25.83102798461914,11.395451545715332,-1.1028540134429932,-0.0,-0.0,-1.0,0.08091484873747758,1.0
26.127822875976562,11.921597480773926,-1.0792813301086426,-0.5608698664504636,0.4187119749554605,-0.714216546249621,0.2045167616174177,3.0
25.36529541015625,11.515366554260254,-1.0244624614715576,-0.0,-0.0,-1.0,0.05393872802859217,1.0
25.256847381591797,11.503556251525879,-1.01127290725708,-0.0,-0.0,-1.0,0.0986064797137158,2.0
25.22045135498047,11.9031400680542,-0.956204891204834,-0.5977911658956333,0.2949189501556908,-0.7454317774392263,0.11429048235881854,3.0
25.91765594482422,10.831035614013672,-0.4770658016204834,0.7524488007089855,0.6487689560521219,0.113664611795622,0.17578122856601514,3.0
27.64333152770996,12.981938362121582,-1.2863643169403076,0.3744626682226835,0.7815957397716004,-0.49888456548427396,0.21169502157673792,4.0
27.431745529174805,12.887474060058594,-1.264732837677002,-0.0,-0.0,-1.0,0.09757898478288216,1.0
27.44822883605957,13.11626148223877,-1.2441768646240234,-0.0,-0.0,-1.0,0.15784680672170842,1.0
26.984987258911133,12.725470542907715,-1.2161870002746582,-0.0,-0.0,-1.0,0.20450179924875925,2.0
27.082992553710938,12.950460433959961,-1.207153558731079,-0.0,-0.0,-1.0,0.21973873097504595,2.0
26.696550369262695,12.327292442321777,-1.2170946598052979,0.04771146618157661,0.6248380128007394,-0.7792952417113986,0.07113730060169068,4.0
26.927337646484375,12.558528900146484,-1.2253508567810059,-0.0,-0.0,-1.0,0.15277803327242087,1.0
26.901731491088867,12.969286918640137,-1.1787028312683105,-0.0,-0.0,-1.0,0.1997749433908536,1.0
26.30867576599121,11.99147891998291,-1.1991498470306396,-0.0,-0.0,-1.0,0.058920048101043246,2.0
26.2822265625,13.058307647705078,-1.0792109966278076,-0.0,-0.0,-1.0,0.039609362501808486,2.0
25.98645782470703,11.82534122467041,-1.172931432723999,-0.0,-0.0,-1.0,0.12707261099132275,2.0
25.517553329467773,11.955522537231445,-1.0927345752716064,-0.0,-0.0,-1.0,0.17098602269451638,1.0
25.790740966796875,11.351125717163086,-0.4878847599029541,-0.7765543402208521,0.574477026998494,0.2587266938974958,0.11595185451880484,4.0
27.293861389160156,12.932478904724121,-1.260009765625,-0.0,-0.0,-1.0,0.054242151401494826,1.0
27.528697967529297,13.003952980041504,-1.2858610153198242,-0.0,-0.0,-1.0,0.09544364888417568,2.0
26.971599578857422,12.778650283813477,-1.231224775314331,-0.0,-0.0,-1.0,0.21424437550768555,1.0
27.105365753173828,12.95222282409668,-1.2312216758728027,-0.0,-0.0,-1.0,0.27378323920078906,2.0
26.79949188232422,12.54783821105957,-1.2324559688568115,-0.0,-0.0,-1.0,0.09142252088108091,2.0
26.904827117919922,12.823260307312012,-1.2168865203857422,-0.021667427570972158,0.8098920289870758,-0.5861786621548533,0.24381867085374212,3.0
26.601760864257812,12.340217590332031,-1.228529453277588,-0.0,-0.0,-1.0,0.059717309090538066,2.0
26.856441497802734,12.768589973449707,-1.2160649299621582,-0.8687660264844572,-0.12266567917776207,-0.47979028999998125,0.23401794586256694,3.0
26.258625030517578,12.051706314086914,-1.214797019958496,-0.6664144590326292,-0.7245347934743148,0.17590082955284694,0.06006402330142772,6.0
26.343807220458984,12.170148849487305,-1.2125821113586426,-0.0,-0.0,-1.0,0.01777564101766012,2.0
25.948680877685547,11.963582038879395,-1.183415412902832,-0.0,-0.0,-1.0,0.22767886883732943,2.0
25.411907196044922,12.037125587463379,-1.1029479503631592,-0.0,-0.0,-1.0,0.07148072797692373,2.0
26.03789520263672,10.697173118591309,-0.5963051319122314,0.5933780826855887,-0.4633398124460295,-0.6581934891738546,0.2439748956069159,8.0
25.766559600830078,11.332062721252441,-0.5030684471130371,-0.6623048662562424,0.674404992697814,0.32638959842121607,0.11595185451880484,5.0
27.40033721923828,12.824105262756348,-1.233522891998291,-0.0,-0.0,-1.0,0.1142149763823235,2.0
26.964323043823242,12.624092102050781,-1.198610544204712,-0.0,-0.0,-1.0,0.22234537114952418,1.0
27.018035888671875,12.936022758483887,-1.1717052459716797,-0.0,-0.0,-1.0,0.22431767291474644,2.0
26.606863021850586,12.202705383300781,-1.2001917362213135,0.705943478779178,-0.5949511554485163,-0.3842875582160155,0.1188268966085556,3.0
26.76740264892578,12.445998191833496,-1.1931076049804688,-0.01768159797017808,-0.9379349832886366,-0.34636011348965456,0.08406992728875738,3.0
26.80276870727539,12.904208183288574,-1.1472055912017822,-0.0,-0.0,-1.0,0.22078621887757235,2.0
26.246782302856445,11.85152816772461,-1.1959805488586426,-0.0,-0.0,-1.0,0.0711856263943186,1.0
26.486644744873047,12.015703201293945,-1.206538200378418,-0.0,-0.0,-1.0,0.18535719119305785,2.0
25.919544219970703,11.764278411865234,-1.166175365447998,0.1656548387010069,-0.47491735864332735,-0.8642985461483719,0.13914495626252332,3.0
26.038156509399414,12.031167030334473,-1.1491053104400635,-0.20138887820661186,-0.9464443100132236,0.2523602341461019,0.14337317217841516,3.0
25.58576774597168,11.837350845336914,-1.116877794265747,-0.0,-0.0,-1.0,0.10277361052243707,1.0
25.992164611816406,10.749665260314941,-0.5270833969116211,0.44396698869634976,0.8782803951001733,-0.17752988630250102,0.18683595949854337,5.0
27.018077850341797,12.9756441116333,-1.3125619888305664,0.09685808301229526,0.5183922783459545,-0.8496398987256156,0.14865556374132388,3.0
26.806854248046875,12.872784614562988,-1.288789987564087,-0.0,-0.0,-1.0,0.2586041966923907,1.0
26.324050903320312,12.407212257385254,-1.25620698928833,-0.0,-0.0,-1.0,0.021043739530961194,2.0
26.46935272216797,12.687101364135742,-1.253352165222168,-0.0,-0.0,-1.0,0.06894566974836808,2.0
25.94332504272461,12.302045822143555,-1.2091343402862549,-0.0,-0.0,-1.0,0.012361996117145113,2.0
25.488224029541016,12.338911056518555,-1.1387507915496826,-0.0,-0.0,-1.0,0.011853651470779863,1.0
25.337764739990234,12.32093620300293,-1.1184628009796143,-0.0,-0.0,-1.0,0.011407565153169253,2.0
27.672893524169922,11.442214012145996,-1.1278059482574463,-0.0,-0.0,-1.0,0.051270862991312983,1.0
27.32578468322754,10.930753707885742,-1.1377739906311035,0.4562724226802199,0.8852113483620659,0.09064405679654847,0.07599598132357573,4.0
27.52239418029785,11.1126127243042,-1.142204761505127,-0.0,-0.0,-1.0,0.06416558897781256,2.0
27.608776092529297,11.388442993164062,-1.1255416870117188,-0.0,-0.0,-1.0,0.08597342656568288,1.0
27.15157127380371,10.866270065307617,-1.124753475189209,-0.0,-0.0,-1.0,0.05665694561451955,1.0
27.29752540588379,12.59698486328125,-0.9774198532104492,-0.0,-0.0,-1.0,0.18682532332614732,1.0
27.11756706237793,12.49082088470459,-0.9658277034759521,-0.0,-0.0,-1.0,0.16955593846787947,1.0
26.87033462524414,13.119709014892578,-1.2689032554626465,-0.0,-0.0,-1.0,0.14482605550169747,1.0
26.74605369567871,13.017148971557617,-1.2608542442321777,-0.0,-0.0,-1.0,0.13438777740039232,1.0
26.38849449157715,12.874810218811035,-1.2250523567199707,-0.0,-0.0,-1.0,0.12364005385732307,2.0
26.06043815612793,12.583612442016602,-1.207878589630127,-0.0,-0.0,-1.0,0.028230307849370386,1.0
25.94512176513672,12.938859939575195,-1.159651517868042,-0.0,-0.0,-1.0,0.1329878705037378,1.0
27.656314849853516,11.56100082397461,-1.1964995861053467,-0.6036413975858537,0.7640633569382251,0.22764940084456134,0.025818478985899476,3.0
27.563159942626953,11.461132049560547,-1.1914067268371582,-0.0,-0.0,-1.0,0.061806660560912205,2.0
27.409671783447266,12.643346786499023,-1.09702467918396,-0.0,-0.0,-1.0,0.219509047804264,1.0
27.470890045166016,12.710580825805664,-1.1005651950836182,-0.0,-0.0,-1.0,0.21898861870440317,1.0
26.919334411621094,11.061681747436523,-1.1389567852020264,0.40812982577201135,-0.6929264982904025,0.594376070583522,0.023542127201451588,3.0
27.099166870117188,11.333900451660156,-1.1426925659179688,-0.0,-0.0,-1.0,0.03247502446703382,2.0
27.19719696044922,11.582120895385742,-1.1383860111236572,-0.0,-0.0,-1.0,0.03346575697375814,1.0
26.565547943115234,11.033588409423828,-1.0981462001800537,0.7151804353793465,0.5470735303779426,-0.4350028703473377,0.025523818884955887,3.0
26.246288299560547,11.042285919189453,-1.0592825412750244,-0.0,-0.0,-1.0,0.09096059884459083,2.0
27.06853485107422,12.51613998413086,-1.0622518062591553,-0.0,-0.0,-1.0,0.22782654677601744,1.0
26.935462951660156,12.734195709228516,-1.0317540168762207,0.6301880406963005,0.11942163872795176,-0.7672036923574395,0.19267692313722867,4.0
27.706632614135742,10.95120620727539,-0.9864375591278076,-0.0,-0.0,-1.0,0.1372842961361883,1.0
26.865869522094727,12.925979614257812,-0.7712106704711914,-0.0,-0.0,-1.0,0.26695413426910114,1.0
26.416873931884766,11.239900588989258,-1.1453633308410645,-0.0,-0.0,-1.0,0.019931533586834263,1.0
26.776836395263672,11.539304733276367,-1.163386344909668,-0.0,-0.0,-1.0,0.023521908905531654,1.0
26.95124053955078,11.887712478637695,-1.1576669216156006,-0.0,-0.0,-1.0,0.07157757205682498,2.0
27.04363250732422,12.44140625,-1.1283750534057617,0.5800203219819475,-0.8143712906431346,-0.019386259675169718,0.23658415287143575,5.0
27.391277313232422,12.604806900024414,-1.1578726768493652,-0.0,-0.0,-1.0,0.19625534174086326,1.0
26.079998016357422,11.29854965209961,-1.1034562587738037,-0.0,-0.0,-1.0,0.06684606035225846,2.0
26.241073608398438,11.239948272705078,-1.125795841217041,0.2343294324603246,0.24038297823080168,-0.9419690763818694,0.045989919922049045,4.0
26.981101989746094,12.418476104736328,-1.1227340698242188,-0.6249130221253154,0.3160891797885418,-0.7138426613749084,0.19200686340638795,3.0
25.765438079833984,11.333847045898438,-1.0661609172821045,-0.0,-0.0,-1.0,0.05663670738735291,2.0
26.04644775390625,11.916227340698242,-1.0525829792022705,-0.8742996204844433,-0.3914120558994946,-0.2870483863694222,0.12770672637317132,8.0
26.84695053100586,12.92945671081543,-1.0705885887145996,0.1952554699121095,-0.13655097633564361,-0.9711998416037678,0.18672689074320564,7.0
25.239717483520508,11.466007232666016,-0.9986259937286377,0.13560541030026516,-0.3712500872758238,-0.9185774574824869,0.10732791448524341,3.0
25.233428955078125,11.912656784057617,-0.9628469944000244,-0.6615330321622375,0.536186633410631,-0.5242880329647146,0.11636255633241444,3.0
26.694026947021484,13.004947662353516,-1.342029094696045,-0.6735647678382499,-0.7068200347959086,-0.21613870994829962,0.11034197603430641,3.0
26.169246673583984,12.788724899291992,-1.2930760383605957,0.8058749329895474,-0.5367089655485651,0.2500181566984313,0.03610355067540551,4.0
26.417144775390625,13.056905746459961,-1.3027563095092773,-0.0,-0.0,-1.0,0.16166630665658813,1.0
25.312503814697266,12.644012451171875,-1.1988260746002197,-0.5600026179652158,-0.6890707222334947,-0.4599767468391358,0.035915001247118425,3.0
25.628999710083008,12.749004364013672,-1.229112148284912,-0.0,-0.0,-1.0,0.03797051617728406,2.0
25.90192413330078,13.025020599365234,-1.240497350692749,-0.0,-0.0,-1.0,0.13807823500684158,2.0
26.137832641601562,13.114208221435547,-1.2628772258758545,-0.9033317566338478,0.016000173542288977,-0.42864406201815425,0.10756677923199646,5.0
25.932769775390625,10.704813003540039,-0.46130990982055664,-0.2101625869816218,-0.3230156951671664,-0.9227635383503536,0.17034928055625392,3.0
25.836061477661133,11.76823616027832,-1.2175743579864502,0.8486095704200174,-0.15941962888095956,-0.5044275754942531,0.03434654231784058,4.0
26.07272720336914,11.902082443237305,-1.2270963191986084,-0.0,-0.0,-1.0,0.1472129070077998,1.0
26.303258895874023,12.130949020385742,-1.2270572185516357,-0.6789168932459883,-0.7328683739539505,-0.04444995526778473,0.03694167291276185,4.0
26.688644409179688,12.30810546875,-1.2478747367858887,0.04771146618157661,0.6248380128007394,-0.7792952417113986,0.051425214800868375,4.0
27.007478713989258,12.497282028198242,-1.261580228805542,-0.0,-0.0,-1.0,0.11940508691642314,1.0
25.281993865966797,11.90519905090332,-1.1512553691864014,-0.0,-0.0,-1.0,0.09956168367994021,1.0
25.545455932617188,11.851919174194336,-1.1815392971038818,-0.0,-0.0,-1.0,0.053982739459141116,1.0
27.164871215820312,13.027318954467773,-1.22727370262146,-0.0,-0.0,-1.0,0.23731302709400942,2.0
27.227313995361328,13.072858810424805,-1.4233803749084473,-0.0,-0.0,-1.0,0.17400379420327403,2.0
27.54562759399414,13.125146865844727,-1.4525279998779297,-0.0,-0.0,-1.0,0.10815149317925592,1.0
27.20986557006836,13.094156265258789,-1.4192485809326172,-0.0,-0.0,-1.0,0.1697668326304204,2.0
26.177597045898438,12.668024063110352,-1.3547983169555664,-0.0,-0.0,-1.0,0.029794156426236226,1.0
26.491756439208984,12.774410247802734,-1.376326322555542,-0.0,-0.0,-1.0,0.03259293676086661,1.0
25.3104190826416,12.652206420898438,-1.2673640251159668,-0.0,-0.0,-1.0,0.03535015320026661,2.0
25.679813385009766,12.662858963012695,-1.3038945198059082,-0.0,-0.0,-1.0,0.042062556077268026,2.0
25.937503814697266,12.693788528442383,-1.3270728588104248,-0.0,-0.0,-1.0,0.02992556436365006,1.0
26.641525268554688,12.94107437133789,-1.3744237422943115,-0.0,-0.0,-1.0,0.05381104750178146,1.0
26.773529052734375,13.06037712097168,-1.3758831024169922,-0.0,-0.0,-1.0,0.15085454252417704,2.0
26.193588256835938,11.47012710571289,-1.076673984527588,-0.0,-0.0,-1.0,0.02738813582039321,1.0
26.489212036132812,11.532306671142578,-1.1072728633880615,-0.0,-0.0,-1.0,0.107283009008444,1.0
25.380813598632812,11.697683334350586,-0.9625263214111328,-0.0,-0.0,-1.0,0.09149603896711363,1.0
25.541894912719727,11.947673797607422,-0.9611854553222656,-0.0,-0.0,-1.0,0.12805098341171606,2.0
26.92885971069336,11.789236068725586,-1.1410713195800781,-0.6629145336679202,0.7362046601621223,-0.13618744217958742,0.05456471114924964,5.0
26.345840454101562,12.050281524658203,-1.0494341850280762,-0.0,-0.0,-1.0,0.12170154136571566,1.0
27.12850570678711,12.290817260742188,-1.1278619766235352,-0.0,-0.0,-1.0,0.20112685096722424,2.0
27.325641632080078,12.615394592285156,-1.1286849975585938,-0.0,-0.0,-1.0,0.2174355406701468,2.0
27.18882179260254,12.883291244506836,-1.0915181636810303,-0.0,-0.0,-1.0,0.20621578450091177,1.0
26.268972396850586,11.585359573364258,-1.1639821529388428,-0.0,-0.0,-1.0,0.031431137612862,2.0
26.637859344482422,11.690967559814453,-1.185715913772583,-0.0,-0.0,-1.0,0.10072228003149733,2.0
26.90880012512207,11.942802429199219,-1.184147596359253,-0.0,-0.0,-1.0,0.033080805614391334,1.0
25.951725006103516,11.574861526489258,-1.1372978687286377,-0.5074539691372614,0.7082027417483415,-0.4908557280779874,0.08068556976388402,5.0
25.26481819152832,11.96272087097168,-1.0369267463684082,0.6046557582247908,0.6383041474220951,-0.47640238184685363,0.109745088532895,3.0
25.91967010498047,11.620393753051758,-1.1297245025634766,-0.0,-0.0,-1.0,0.09403583929389858,2.0
26.15536117553711,12.074047088623047,-1.1028118133544922,-0.0,-0.0,-1.0,0.1595457988832736,1.0
27.0111083984375,12.430826187133789,-1.143533706665039,0.6359801638395433,-0.7658419253017587,0.09494933729480702,0.23155137103581852,5.0
27.03586196899414,12.774908065795898,-1.1108825206756592,0.39942401614208667,-0.6933373973627475,-0.5997863859301722,0.16454755851990405,3.0
27.46253204345703,12.658954620361328,-1.1625685691833496,-0.0,-0.0,-1.0,0.12930514855086306,1.0
25.381345748901367,12.796623229980469,-1.2165782451629639,-0.0,-0.0,-1.0,0.032603503999424445,2.0
25.618927001953125,12.839248657226562,-1.2399601936340332,-0.040888127154154096,-0.18539240273218258,-0.9818135352840754,0.03355473571095526,3.0
25.814289093017578,13.042818069458008,-1.2421443462371826,-0.0,-0.0,-1.0,0.09995980746208154,2.0
26.218799591064453,13.047136306762695,-1.2901875972747803,-0.0,-0.0,-1.0,0.1820882100437929,1.0
26.464527130126953,12.992462158203125,-1.3254523277282715,0.5937394195542581,-0.4721192865378783,0.6515956422094441,0.11538637705077992,3.0
25.22061538696289,12.242542266845703,-1.1292645931243896,-0.0,-0.0,-1.0,0.02191032170936565,2.0
25.430978775024414,12.22064208984375,-1.1524169445037842,-0.0,-0.0,-1.0,0.012968285977655267,1.0
25.778945922851562,12.144790649414062,-1.1955945491790771,0.633090356592688,-0.7322609745027688,0.2509790142812721,0.011026145033714229,3.0
26.277610778808594,12.156444549560547,-1.2449071407318115,-0.6789168932459883,-0.7328683739539505,-0.04444995526778473,0.03583014285606521,4.0
26.59619903564453,12.45223617553711,-1.2458138465881348,-0.0,-0.0,-1.0,0.07789215218278797,1.0
26.894611358642578,12.669157028198242,-1.2541422843933105,-0.0,-0.0,-1.0,0.15396413817006735,2.0
27.222110748291016,12.899969100952148,-1.2650799751281738,-0.0,-0.0,-1.0,0.08205749305607417,2.0
27.667097091674805,12.95046615600586,-1.3087332248687744,0.3744626682226835,0.7815957397716004,-0.49888456548427396,0.17911113480122343,4.0
25.89760971069336,10.740531921386719,-0.45591020584106445,-0.0,-0.0,-1.0,0.1508446170841084,1.0
25.345115661621094,11.096744537353516,-0.9435842037200928,0.5424312743391563,-0.8254648923563201,-0.1561282296894694,0.15826133881080154,3.0
25.89599609375,10.92613410949707,-1.0127708911895752,-0.0,-0.0,-1.0,0.11331479959790867,1.0
26.264583587646484,10.836450576782227,-1.057023525238037,-0.0,-0.0,-1.0,0.08549139119938245,2.0
26.69567108154297,10.808662414550781,-1.1014723777770996,-0.0,-0.0,-1.0,0.028436580299493003,1.0
26.907642364501953,10.809162139892578,-1.1221439838409424,-0.5734766328282892,-0.7585714135323957,-0.30934440704721106,0.027069980739108244,3.0
27.232269287109375,10.895015716552734,-1.1457366943359375,0.4518637126407278,-0.872351873974274,-0.18660491197208542,0.0668731012990848,3.0
27.002538681030273,12.309919357299805,-0.9842450618743896,0.5067081255216531,-0.44116595520060864,-0.7406885144932834,0.28792350817238216,3.0
27.510622024536133,11.274681091308594,-1.1364009380340576,-0.0,-0.0,-1.0,0.10500962814364423,2.0
27.484039306640625,11.083948135375977,-1.1523356437683105,-0.6140508055603442,0.6800623268571317,0.4005706426841038,0.06016052429271356,3.0
27.189613342285156,12.488473892211914,-0.986173152923584,-0.24948815277038408,-0.6740479426151292,-0.6952805424312786,0.17708491798504017,4.0
25.45063018798828,12.701738357543945,-1.175978183746338,-0.0,-0.0,-1.0,0.029189272681976138,1.0
25.65177345275879,12.759302139282227,-1.1950397491455078,-0.0,-0.0,-1.0,0.03431523780671451,2.0
26.100109100341797,12.977071762084961,-1.228689432144165,-0.0,-0.0,-1.0,0.2272624278490164,1.0
