x,y,z,nx,ny,nz,curvature,density
14.847532272338867,-3.1396780014038086,0.7036880850791931,-0.04214527994494663,0.7092498461335458,-0.7036962634105027,0.19543941829899994,3.0
13.810644149780273,-3.985447406768799,0.1481090784072876,0.029775544965526812,-0.08596866867897139,-0.9958528028416508,0.05986175062269404,3.0
13.84829330444336,-4.174008846282959,0.14142847061157227,-0.6753209302052421,-0.5950085400991649,-0.435782604558496,0.061813356261229094,3.0
14.09658432006836,-2.6610159873962402,0.20927000045776367,-0.0,-0.0,-1.0,0.1556680521315707,1.0
14.073688507080078,-3.354945659637451,0.18162190914154053,-0.0,-0.0,-1.0,0.16101782053002633,2.0
14.63200569152832,-2.5755200386047363,0.229345440864563,-0.8021188023593215,-0.40403680999759295,-0.43972682777903915,0.18086581911776906,6.0
14.602346420288086,-2.8256630897521973,0.21875393390655518,-0.0,-0.0,-1.0,0.12329129219826152,1.0
14.877237319946289,-2.8906197547912598,0.2246636152267456,-0.0,-0.0,-1.0,0.10956304606561947,2.0
14.99666976928711,-3.2225871086120605,0.215065598487854,-0.0,-0.0,-1.0,0.1730941155610886,1.0
15.392841339111328,-4.189013957977295,0.18592166900634766,-0.8871824528777494,-0.4144281537359686,-0.20287089662348445,0.22363508957309888,3.0
15.511642456054688,-4.230676174163818,0.18748581409454346,0.4781809589382712,-0.14268045135520607,-0.8665940568166564,0.20685898641801317,3.0
13.83445930480957,-3.2686924934387207,0.35155153274536133,-0.0,-0.0,-1.0,0.2148500068681152,2.0
14.033750534057617,-2.7629895210266113,0.3736271858215332,-0.0,-0.0,-1.0,0.21055993300739653,2.0
14.856990814208984,-3.6568922996520996,0.36205077171325684,0.34016491331801624,0.8788265097800901,-0.3345919865374717,0.11318158866641084,4.0
15.394796371459961,-4.222921848297119,0.3527175188064575,-0.719293357712164,-0.684369581695841,-0.11939573359471654,0.16639081480225576,4.0
15.522878646850586,-2.45512056350708,0.42075157165527344,-0.0,-0.0,-1.0,0.0807983764774706,2.0
13.89842414855957,-2.875730037689209,0.25192689895629883,-0.0,-0.0,-1.0,0.22887105085526172,1.0
13.846466064453125,-3.276458263397217,0.23786044120788574,-0.9475386281206077,0.30469867925059113,-0.09658811046015164,0.1802580631234549,3.0
13.888933181762695,-4.217282772064209,0.20811891555786133,-0.0,-0.0,-1.0,0.05188479601569854,2.0
14.227964401245117,-4.082479000091553,0.2230360507965088,-0.0,-0.0,-1.0,0.13416518280922837,1.0
14.577951431274414,-2.4654178619384766,0.2859894037246704,0.732417598864623,-0.5056180988151914,-0.4559767527230867,0.25330354144777534,3.0
14.75399398803711,-3.318877696990967,0.2648301124572754,-0.0,-0.0,-1.0,0.12133522405849993,2.0
15.398815155029297,-4.2151618003845215,0.25346994400024414,-0.0,-0.0,-1.0,0.17029193615320182,1.0
15.493209838867188,-2.5933823585510254,0.3111696243286133,-0.0,-0.0,-1.0,0.14348444322286752,2.0
15.475740432739258,-3.4043030738830566,0.2842140197753906,-0.0,-0.0,-1.0,0.08894279851426795,2.0
15.491594314575195,-4.315064907073975,0.2525690793991089,-0.895982711455212,0.16244786788210133,-0.4133106228902484,0.11573778945156823,3.0
15.296501159667969,-2.4316868782043457,0.07990360260009766,0.04235438999182413,0.9403225249187052,-0.3376383490940144,0.029704041328064288,3.0
15.433479309082031,-2.7020249366760254,0.07678055763244629,0.7431502501154172,-0.2472291851788153,-0.6217760334310191,0.09575132914200099,3.0
13.827211380004883,-3.3198676109313965,0.28391385078430176,0.042254860699733034,-0.5341456469812363,-0.8443358067488564,0.2221071729216477,4.0
13.781545639038086,-3.610013008117676,0.2794070243835449,-0.0,-0.0,-1.0,0.16196084159569132,1.0
14.262046813964844,-3.0236263275146484,0.30302274227142334,-0.0,-0.0,-1.0,0.0987567604382738,1.0
14.366621017456055,-3.9501495361328125,0.2975788116455078,-0.0,-0.0,-1.0,0.1843116943955573,1.0
14.491945266723633,-2.523524284362793,0.31571710109710693,-0.9173014732266812,-0.30661689657693936,0.25405528128674354,0.21353076554463257,3.0
14.721887588500977,-3.260777473449707,0.3182481527328491,-0.0,-0.0,-1.0,0.12257199705578779,1.0
14.854097366333008,-3.6706700325012207,0.3189074993133545,-0.9495950998733261,0.29326377412974247,0.11074974076604978,0.11519134164022099,5.0
15.42338752746582,-4.25053071975708,0.33269500732421875,-0.4762638870422706,-0.8599795038961582,-0.18332474676896554,0.2171810289085367,6.0
15.341745376586914,-2.6493992805480957,0.10857737064361572,-0.0,-0.0,-1.0,0.10871593639922816,1.0
15.572444915771484,-3.648871898651123,0.11813914775848389,0.2129521813545988,0.8474376984534833,-0.48631339247051486,0.07370242054593669,3.0
14.70125961303711,-4.293438911437988,0.9454047679901123,-0.43067458608328524,-0.7219686553030451,-0.5415539323667623,0.20424879853291206,4.0
14.410942077636719,-2.567030429840088,0.32331132888793945,-0.0,-0.0,-1.0,0.1762706013243773,1.0
14.246635437011719,-3.3797292709350586,0.3037348985671997,0.7952862794263489,-0.48435803247012427,0.36457787938637387,0.21547015500365882,4.0
14.748558044433594,-3.116542339324951,0.32695841789245605,-0.0,-0.0,-1.0,0.15045288699544046,1.0
14.822181701660156,-3.1909074783325195,0.3283907175064087,0.8140279975573756,0.37833443013327595,-0.4407056593333677,0.2074889567862213,6.0
15.653709411621094,-2.474015712738037,0.37121903896331787,-0.6107870292097022,0.7398152815240564,-0.2821569672587707,0.16691136998155542,3.0
13.820825576782227,-3.058908700942993,0.35701870918273926,-0.0,-0.0,-1.0,0.2347631157338388,1.0
14.541118621826172,-2.886019468307495,0.38303911685943604,-0.0,-0.0,-1.0,0.14379326531760606,1.0
15.241376876831055,-4.244777679443359,0.41070556640625,-0.0,-0.0,-1.0,0.13759670747320965,1.0
15.356771469116211,-3.8830513954162598,0.414800763130188,-0.0,-0.0,-1.0,0.14902944521002473,1.0
15.697633743286133,-3.4135944843292236,0.42674708366394043,-0.0,-0.0,-1.0,0.13540712688075907,1.0
13.984617233276367,-3.2279157638549805,0.35611504316329956,-0.0,-0.0,-1.0,0.19778318809699125,1.0
13.71510124206543,-4.322629928588867,0.3472668528556824,-0.0,-0.0,-1.0,0.09309012526244258,1.0
14.610197067260742,-2.4830760955810547,0.37744152545928955,-0.0,-0.0,-1.0,0.1327775818085967,1.0
14.352108001708984,-3.4530184268951416,0.37026023864746094,-0.0,-0.0,-1.0,0.1375615319414985,1.0
14.91839599609375,-3.223562717437744,0.3909996747970581,-0.0,-0.0,-1.0,0.18492980571970513,1.0
15.398656845092773,-2.6716904640197754,0.4076122045516968,-0.0,-0.0,-1.0,0.1535954237040736,2.0
15.582586288452148,-3.642958164215088,0.416359543800354,-0.0,-0.0,-1.0,0.09714996281294709,1.0
14.378023147583008,-2.608180284500122,0.6714718341827393,-0.19452686630663385,-0.2684876740986759,-0.9434371559049411,0.10251117352726213,5.0
14.871698379516602,-3.1629750728607178,0.6787598133087158,0.37341839733978494,0.5441987635811512,-0.7512698624628391,0.20592187371110507,4.0
15.56104850769043,-4.331835746765137,0.6829604506492615,-0.0,-0.0,-1.0,0.09562368987693425,2.0
14.9029541015625,-3.5743961334228516,0.8044130802154541,-0.0,-0.0,-1.0,0.15239490081820192,2.0
15.335636138916016,-4.029128551483154,0.8083102107048035,-0.0,-0.0,-1.0,0.08285816451587018,1.0
15.455684661865234,-4.258991241455078,0.8081711530685425,-0.048038580035558026,-0.9164121774863531,0.39734244145684783,0.13596325334599688,4.0
13.882081985473633,-3.5902998447418213,0.47724050283432007,-0.0,-0.0,-1.0,0.17663886347565222,1.0
14.864404678344727,-3.161386489868164,0.5110140442848206,0.9380311198247308,-0.18271212428937356,-0.29447223617520485,0.19806282555718036,5.0
15.355825424194336,-3.936394214630127,0.527340292930603,0.5872702538865283,0.21960632755694653,-0.7790293382132687,0.11623087520570624,5.0
15.561408996582031,-4.314501762390137,0.5336029529571533,-0.1330878367578734,0.9659078232812146,-0.2220578857668769,0.11234153755390656,5.0
15.400880813598633,-4.2467803955078125,0.5282768607139587,-0.6313596388188635,0.024866952960210575,-0.7750913759815605,0.13298008895803995,5.0
14.52692985534668,-3.2796294689178467,0.15211844444274902,-0.0,-0.0,-1.0,0.12728781444036696,2.0
14.477621078491211,-3.5163304805755615,0.14897680282592773,-0.0,-0.0,-1.0,0.05825748893964326,2.0
14.12164306640625,-3.607548713684082,0.13122797012329102,-0.0,-0.0,-1.0,0.16502039904871918,1.0
14.027502059936523,-3.768815517425537,0.12601912021636963,-0.0,-0.0,-1.0,0.11032789181747461,1.0
14.550369262695312,-3.9947681427001953,0.15067899227142334,-0.0,-0.0,-1.0,0.0668590719288526,2.0
14.242111206054688,-4.087280750274658,0.1351717710494995,-0.0,-0.0,-1.0,0.06775956521860803,2.0
14.721805572509766,-2.4855329990386963,0.16316306591033936,-0.0,-0.0,-1.0,0.18709069437136447,2.0
15.256111145019531,-3.0043883323669434,0.18852102756500244,-0.5135207203154921,-0.4046153330829316,-0.7566920787485796,0.07464356094211755,4.0
15.07986831665039,-3.1203389167785645,0.17962265014648438,-0.0,-0.0,-1.0,0.06073568327523273,1.0
14.556354522705078,-3.435188055038452,0.15309679508209229,-0.0,-0.0,-1.0,0.20730850745122306,1.0
15.454914093017578,-4.114896774291992,0.1943972110748291,-0.0,-0.0,-1.0,0.224132854330268,1.0
15.450462341308594,-4.191989421844482,0.19380199909210205,-0.0,-0.0,-1.0,0.23867587651596936,2.0
14.009727478027344,-3.2765309810638428,0.9454702734947205,-0.0,-0.0,-1.0,0.04137729134025246,2.0
13.740921020507812,-2.7159132957458496,0.20918822288513184,-0.0,-0.0,-1.0,0.11298163458937455,1.0
13.923027038574219,-3.520721673965454,0.2189161777496338,-0.0,-0.0,-1.0,0.17139444249061098,1.0
13.806314468383789,-4.051593780517578,0.2139972448348999,-0.0,-0.0,-1.0,0.07169350665755653,1.0
13.745353698730469,-4.173704147338867,0.21126210689544678,-0.0,-0.0,-1.0,0.09897994271593122,1.0
14.535282135009766,-2.5049166679382324,0.24383556842803955,0.3227673504497189,-0.9462067998462936,0.022670011210944172,0.18242549939159308,6.0
14.421274185180664,-2.7733776569366455,0.23959612846374512,0.19292065896455315,-0.6679890656122512,-0.7187295928004869,0.25249782081938865,3.0
14.919757843017578,-3.207584857940674,0.26280081272125244,-0.0,-0.0,-1.0,0.15786477768217905,2.0
14.192276000976562,-3.438774824142456,0.230796217918396,0.7012652864964563,-0.6437839313482009,0.3062176475856634,0.23368133530649426,3.0
14.921802520751953,-3.6714296340942383,0.2634890079498291,-0.0,-0.0,-1.0,0.2176407470105611,2.0
13.78059196472168,-3.2726590633392334,1.026057481765747,-0.0,-0.0,-1.0,0.12492775921621632,2.0
14.248941421508789,-3.194347620010376,1.0304073095321655,-0.0,-0.0,-1.0,0.046417127348159594,2.0
15.527849197387695,-4.101572513580322,1.043778896331787,0.944407278708239,0.033224749176913565,-0.32709479966063315,0.217398452628889,6.0
15.462688446044922,-4.179412841796875,1.0432249307632446,-0.08203113295827219,0.07100467915897549,-0.994097192815226,0.12942770937628906,5.0
14.397794723510742,-2.429409980773926,0.4939391613006592,-0.0,-0.0,-1.0,0.17644440413943552,1.0
15.394674301147461,-3.272512674331665,0.5242919921875,-0.0,-0.0,-1.0,0.09109843779334191,1.0
14.815654754638672,-3.0413529872894287,0.5050013065338135,-0.0,-0.0,-1.0,0.16149106969710927,2.0
13.710905075073242,-3.090637683868408,0.46396446228027344,-0.0,-0.0,-1.0,0.16784839294197304,1.0
15.690162658691406,-3.6320624351501465,0.5316089391708374,-0.0,-0.0,-1.0,0.10172433672051276,1.0
13.857587814331055,-3.4808456897735596,0.4657386541366577,-0.0,-0.0,-1.0,0.19074712831014415,2.0
15.254100799560547,-3.8504340648651123,0.5131367444992065,-0.0,-0.0,-1.0,0.18652890611888912,2.0
15.398603439331055,-4.169172286987305,0.5145463943481445,-0.0,-0.0,-1.0,0.12950972173121664,1.0
15.430622100830078,-4.030994892120361,0.3692992329597473,-0.0,-0.0,-1.0,0.05178434733256459,2.0
14.55677604675293,-4.281402587890625,0.3245272636413574,-0.0,-0.0,-1.0,0.14504925810331756,1.0
15.668224334716797,-3.144714832305908,0.1379011869430542,-0.0,-0.0,-1.0,0.05730690606060507,2.0
15.45608139038086,-3.227778434753418,0.12192285060882568,-0.08290854602627051,0.2983840907325145,-0.9508381078782765,0.07960482620526614,3.0
15.60072135925293,-3.6609344482421875,0.10950124263763428,0.2129521813545988,0.8474376984534833,-0.48631339247051486,0.10892407315909618,3.0
15.467376708984375,-3.470111131668091,0.11105525493621826,0.8289313280977139,0.5496202286766931,-0.10387712706625915,0.1668752033628675,3.0
14.906303405761719,-2.9954161643981934,0.7053631544113159,-0.22694090590505425,0.9725830263865878,0.050794507692264394,0.15758591465987726,3.0
14.151750564575195,-3.3150763511657715,0.6781480312347412,-0.0,-0.0,-1.0,0.16952261036247124,1.0
15.446739196777344,-4.256463527679443,0.6999868154525757,-0.787995279232416,-0.4705432720700156,0.3970547430985683,0.18048644598762092,5.0
13.858566284179688,-3.4164767265319824,0.38458240032196045,-0.0,-0.0,-1.0,0.1705527497716322,1.0
15.40595817565918,-3.321760892868042,0.4545602798461914,-0.0,-0.0,-1.0,0.11423609359976415,2.0
15.427074432373047,-4.235743999481201,0.4315437078475952,-0.3316623247266678,-0.4644660652775852,-0.8211402904269528,0.24059875264208,4.0
13.928451538085938,-2.9260077476501465,1.1134321689605713,-0.0,-0.0,-1.0,0.12589145159466428,2.0
14.389598846435547,-2.4593799114227295,0.44180524349212646,-0.0,-0.0,-1.0,0.1741610327676912,1.0
14.313398361206055,-2.516819953918457,0.43663811683654785,-0.0,-0.0,-1.0,0.15778350323864088,2.0
14.335735321044922,-2.722740650177002,0.43178480863571167,-0.0,-0.0,-1.0,0.1168514326266697,2.0
13.936700820922852,-3.289005756378174,0.39579707384109497,-0.0,-0.0,-1.0,0.2679072322765398,2.0
13.71666145324707,-3.1303324699401855,0.39043766260147095,-0.0,-0.0,-1.0,0.17611060332462244,1.0
14.803470611572266,-3.1056103706359863,0.4422978162765503,-0.0,-0.0,-1.0,0.15730012499973114,2.0
14.149694442749023,-3.376124620437622,0.40304815769195557,-0.0,-0.0,-1.0,0.2041612564531111,2.0
15.398998260498047,-3.3586173057556152,0.4624508023262024,-0.0,-0.0,-1.0,0.11487910799230641,2.0
15.33979606628418,-4.174127101898193,0.43235790729522705,-0.0,-0.0,-1.0,0.2710107080451825,1.0
15.402776718139648,-4.240217208862305,0.4329882860183716,0.10613622085896099,-0.7122103613781868,-0.6938958882767148,0.19289504550032405,5.0
13.858552932739258,-2.885648727416992,1.0943738222122192,-0.0,-0.0,-1.0,0.1268180977040746,1.0
13.922683715820312,-2.9616987705230713,1.0925769805908203,0.61279142987122,0.32252240801697263,-0.7214332677409039,0.10378412098238443,3.0
14.500749588012695,-2.8705153465270996,0.2921149730682373,0.10124688304535198,-0.9930838236055408,-0.059443990163856264,0.14696944132017672,4.0
14.292537689208984,-2.9048328399658203,0.28732872009277344,-0.6327342761740944,0.7608655312441289,0.14398256533009318,0.1305992430937169,3.0
14.027002334594727,-3.126004219055176,0.2994180917739868,-0.0,-0.0,-1.0,0.1861101377430246,2.0
14.83612060546875,-3.146472692489624,0.33431804180145264,0.6187828045717557,-0.779375130998651,-0.09839840419004939,0.16700911731622703,11.0
15.466995239257812,-3.3939270973205566,0.3852384090423584,0.9534185809285924,0.28905573896508496,-0.08625421329684332,0.09134302465202143,6.0
15.689197540283203,-3.7244107723236084,0.4274500608444214,-0.0,-0.0,-1.0,0.05595517854463436,1.0
15.522438049316406,-4.2943434715271,0.4753650426864624,-0.9490052150156091,0.011029220243936844,-0.31506738671907725,0.15495409437494326,3.0
15.52226448059082,-4.114223957061768,1.0665549039840698,0.944407278708239,0.033224749176913565,-0.32709479966063315,0.21739845262888902,6.0
14.474262237548828,-2.87088942527771,0.2579689025878906,0.10124688304535198,-0.9930838236055408,-0.059443990163856264,0.18004066343735378,4.0
14.86595344543457,-3.129566192626953,0.2695552110671997,0.3035145929899965,0.7780112854930197,-0.55007029685997,0.21207975857063222,6.0
14.830795288085938,-3.222121477127075,0.26227229833602905,-0.0,-0.0,-1.0,0.21898192511325576,2.0
13.818906784057617,-3.858314275741577,0.16170692443847656,-0.02230862784250128,-0.37063988085732963,-0.9285086988509312,0.09100142075570027,4.0
14.03079605102539,-4.011298179626465,0.1671534776687622,-0.0,-0.0,-1.0,0.08662425732122635,1.0
15.429893493652344,-4.110884189605713,0.2530025243759155,-0.0,-0.0,-1.0,0.1807600959730203,1.0
14.684030532836914,-4.336853981018066,0.19190216064453125,-0.0,-0.0,-1.0,0.08882253829709844,2.0
13.871118545532227,-3.1459450721740723,0.8664509057998657,-0.0,-0.0,-1.0,0.1927478893634131,2.0
13.778303146362305,-4.126374244689941,0.8057910799980164,-0.5441802946874092,0.7442730210629641,-0.38720211387818343,0.14667119063868556,3.0
15.476808547973633,-4.2439284324646,0.8505873680114746,-0.8749840746079961,0.3791135488093625,0.3011242040945225,0.09890858969282824,3.0
14.95225715637207,-2.504244804382324,0.49078238010406494,-0.0,-0.0,-1.0,0.26670640230446113,1.0
14.412986755371094,-3.174203872680664,0.5078321695327759,-0.0,-0.0,-1.0,0.11590245623470204,1.0
13.964506149291992,-3.432432174682617,0.5029650926589966,-0.0,-0.0,-1.0,0.17700785594058321,2.0
13.756988525390625,-3.8640875816345215,0.5145562887191772,-0.0,-0.0,-1.0,0.03671299741046888,1.0
14.987600326538086,-3.9813075065612793,0.5702718496322632,-0.0,-0.0,-1.0,0.18743654730357015,1.0
15.612311363220215,-4.184244632720947,0.6048723459243774,-0.0,-0.0,-1.0,0.13795725763332833,1.0
15.226518630981445,-4.356060981750488,0.5961264371871948,-0.0,-0.0,-1.0,0.11077115338615588,1.0
15.656546592712402,-3.320050001144409,1.132470965385437,-0.0,-0.0,-1.0,0.17439666571147025,1.0
15.348020553588867,-3.8729074001312256,1.1548279523849487,-0.0,-0.0,-1.0,0.13766334327916535,1.0
14.636968612670898,-4.0798749923706055,1.1584230661392212,-0.0,-0.0,-1.0,0.07625072996222454,1.0
15.432942390441895,-4.104236602783203,0.3524566888809204,-0.0,-0.0,-1.0,0.14713805268370328,1.0
15.18069839477539,-3.9856460094451904,0.33283066749572754,-0.0,-0.0,-1.0,0.131841142093687,1.0
15.641623497009277,-3.003309488296509,0.8219712376594543,-0.0,-0.0,-1.0,0.12573411310331623,1.0
14.000299453735352,-2.8674445152282715,0.8073275089263916,-0.0,-0.0,-1.0,0.08183672909029509,1.0
14.309829711914062,-3.605415105819702,0.8694760799407959,-0.0,-0.0,-1.0,0.1766096759431389,1.0
13.909475326538086,-3.483952283859253,0.8585789203643799,-0.0,-0.0,-1.0,0.1467673261736984,2.0
15.487805366516113,-4.062808990478516,0.9098037481307983,-0.0,-0.0,-1.0,0.0957498720711978,1.0
14.811779022216797,-2.6263787746429443,0.2892082929611206,-0.0,-0.0,-1.0,0.23735964693945985,1.0
14.102434158325195,-3.272003173828125,0.8913076519966125,-0.0,-0.0,-1.0,0.04547535694243627,1.0
15.505199432373047,-4.193663597106934,0.9266717433929443,0.9537163024289436,0.2960705502321658,-0.05260649927990095,0.1810773179011272,3.0
14.894763946533203,-2.5765249729156494,0.44707584381103516,-0.0,-0.0,-1.0,0.223435389186512,1.0
14.628135681152344,-2.763808488845825,0.4423922896385193,-0.0,-0.0,-1.0,0.18436200083980855,1.0
14.877273559570312,-3.0585086345672607,0.46092212200164795,0.6131360203617255,-0.2110314405750785,0.7612686461583665,0.17778926737033762,3.0
13.873485565185547,-3.6259078979492188,0.4385732412338257,-0.0,-0.0,-1.0,0.20792433226155949,1.0
15.540058135986328,-4.11518669128418,1.078911542892456,0.587294325852103,0.7719586694209827,0.24323895150183059,0.21739845262888902,5.0
13.943984985351562,-3.151451587677002,1.0486940145492554,0.061151713279635166,0.9946534181115773,-0.08321686008208524,0.11063560734891514,3.0
15.442628860473633,-3.3707568645477295,0.3905980587005615,-0.0773903240446062,0.24830945071785596,-0.9655843590429929,0.0825017947963224,4.0
14.820783615112305,-3.1752123832702637,0.3522484302520752,0.8661908246320578,-0.48813876334263817,0.10692989780952658,0.17164628464995513,7.0
14.834800720214844,-3.0403692722320557,0.34701430797576904,-0.0,-0.0,-1.0,0.17380730119861268,2.0
14.305063247680664,-2.664591073989868,0.3052629232406616,-0.9798853056861547,-0.019858277830324067,-0.1985709860527594,0.10304974288430048,3.0
14.168750762939453,-3.3442349433898926,0.3284868001937866,-0.3713584417436514,-0.8177134335855788,-0.4398154707140373,0.2333070939143668,3.0
14.103919982910156,-3.487231969833374,0.3317131996154785,-0.0,-0.0,-1.0,0.17008138576272844,2.0
13.881172180175781,-3.2482666969299316,0.3104982376098633,-0.694838624813304,-0.5851169404474655,0.41813568547656094,0.2170043635078918,5.0
15.503220558166504,-4.181218147277832,0.9608395099639893,0.9676703688545085,0.21111793614214788,0.13799737055487407,0.17731908027693122,6.0
14.505117416381836,-2.5566911697387695,0.8835140466690063,-0.0,-0.0,-1.0,0.15003991287185106,1.0
14.705004692077637,-4.282742023468018,0.9548612236976624,-0.43067458608328524,-0.7219686553030451,-0.5415539323667623,0.16749719987849498,4.0
13.805641174316406,-3.209622859954834,0.8992041945457458,-0.0,-0.0,-1.0,0.1689253840241461,1.0
15.471020698547363,-3.3958005905151367,0.47422897815704346,-0.0,-0.0,-1.0,0.1026416463854439,1.0
14.873900413513184,-3.160930633544922,0.43931448459625244,0.29126957676342463,0.004759981115137249,-0.9566291738347932,0.23113670063748115,4.0
15.439805030822754,-4.246922016143799,0.4802679419517517,-0.032960278815654886,0.9485283607256414,-0.31497233040304035,0.2197607546428192,4.0
13.9469575881958,-2.8745365142822266,0.38583481311798096,-0.8716103139324675,-0.2081481116700501,-0.443812825698782,0.2480867859443885,3.0
14.200787544250488,-3.3958051204681396,0.40479743480682373,0.3765691964439392,-0.9075265719822031,0.18598699265216703,0.2075600472687156,3.0
13.962401390075684,-3.1587443351745605,0.3894893527030945,-0.0,-0.0,-1.0,0.23916292849251225,1.0
14.037166595458984,-3.3016762733459473,0.9481256008148193,0.12128360095366848,0.3459086893708518,-0.9303964030226315,0.038673668612003324,4.0
15.703357696533203,-3.4247729778289795,0.08601081371307373,-0.0,-0.0,-1.0,0.05424843570207971,1.0
15.597421646118164,-3.6682047843933105,0.09538722038269043,0.2129521813545988,0.8474376984534833,-0.48631339247051486,0.06765299559016136,3.0
15.51783561706543,-4.346543312072754,0.13664007186889648,-0.0,-0.0,-1.0,0.17347425362491933,1.0
14.845525741577148,-3.071030616760254,0.4830210208892822,0.6297100616160786,0.38996925458915954,0.6718550578619242,0.14509259190256157,5.0
15.475483894348145,-4.263482570648193,0.5964608788490295,-0.9885166595766377,0.06840101053599185,0.13474463068004242,0.12840783948484605,5.0
15.360313415527344,-4.151869773864746,0.5835574865341187,-0.0,-0.0,-1.0,0.07681344050874789,1.0
14.22348403930664,-3.3142943382263184,0.4729727506637573,-0.0,-0.0,-1.0,0.12847641373109994,2.0
14.327703475952148,-3.921586036682129,0.5211241245269775,0.46660473014204035,0.6301259272516632,-0.6206620188269178,0.07210501749397982,3.0
15.518115997314453,-4.090836048126221,1.052238941192627,0.4300012897606688,-0.000670103199921759,-0.9028280244685932,0.21739845262888907,7.0
14.656970024108887,-2.4262642860412598,0.2581557035446167,-0.0,-0.0,-1.0,0.19105056930505235,2.0
14.875375747680664,-3.071946382522583,0.3311275243759155,0.9949904515754854,0.0838673880519467,-0.054408294358079215,0.14974380119184658,3.0
14.589421272277832,-2.539308786392212,0.26410412788391113,0.5570214242173886,-0.7272917829361787,-0.4009660776628702,0.23823236536720196,8.0
14.372352600097656,-2.4836108684539795,0.2443782091140747,-0.0,-0.0,-1.0,0.16623232859245415,1.0
14.812980651855469,-3.639397382736206,0.37493324279785156,-0.0,-0.0,-1.0,0.06663315177219144,2.0
14.666374206542969,-3.2763099670410156,0.33470940589904785,-0.0,-0.0,-1.0,0.1702888619752095,1.0
14.211488723754883,-2.9031155109405518,0.2716040015220642,-0.0,-0.0,-1.0,0.14340192212029404,2.0
14.389130592346191,-3.889402389526367,0.3667103052139282,-0.0,-0.0,-1.0,0.0835999736846248,1.0
14.05166244506836,-3.4157843589782715,0.3051285743713379,-0.0,-0.0,-1.0,0.2408632070280195,1.0
13.885497093200684,-3.1936049461364746,0.2750948667526245,0.05786750171521326,0.4214133916340702,-0.905020500097489,0.23853444214648858,3.0
15.467744827270508,-3.3501858711242676,0.3948713541030884,-0.0773903240446062,0.24830945071785596,-0.9655843590429929,0.09250676114315905,4.0
15.524407386779785,-4.252653121948242,0.47089266777038574,-0.4837175353750154,-0.07073395375107355,-0.8723611945504347,0.17603072090098207,3.0
14.930320739746094,-3.317305088043213,0.35594964027404785,-0.0,-0.0,-1.0,0.1639923024253413,1.0
15.615280151367188,-2.4094271659851074,0.7570774555206299,0.8104424714473246,-0.11756908702183409,-0.5738993903561885,0.07289847321512881,3.0
15.435149192810059,-4.179103374481201,0.902174174785614,-0.0,-0.0,-1.0,0.12614401922513438,1.0
14.40863037109375,-2.532454252243042,0.7295928597450256,-0.0,-0.0,-1.0,0.10290158467353815,1.0
14.713242530822754,-3.233358860015869,0.8010910749435425,-0.0,-0.0,-1.0,0.10039952141232288,1.0
14.742444038391113,-4.333436489105225,0.8923238515853882,-0.1198415005873891,0.9413822738987591,-0.31533700881146975,0.19799150301306134,3.0
14.722241401672363,-4.196079254150391,0.8808444738388062,-0.0,-0.0,-1.0,0.18222230144183196,2.0
14.930976867675781,-3.0462074279785156,0.2259368896484375,-0.0,-0.0,-1.0,0.17803179791266113,2.0
14.863500595092773,-2.720658302307129,0.20032429695129395,0.3753805483867857,-0.9015523710250223,-0.21515753807848942,0.1868974108962447,4.0
14.640478134155273,-2.376646041870117,0.15990376472473145,-0.0,-0.0,-1.0,0.13932857031312007,1.0
15.0381498336792,-2.954585313796997,0.2289292812347412,0.5566608218473994,0.3470911545688413,-0.7547558942070255,0.17003396115588068,3.0
14.399369239807129,-2.406345844268799,0.611007571220398,-0.0,-0.0,-1.0,0.11786979659238449,1.0
13.89023494720459,-2.689249277114868,0.6068651676177979,-0.0,-0.0,-1.0,0.13962345537769963,1.0
15.690683364868164,-2.3820254802703857,0.6668405532836914,-0.0,-0.0,-1.0,0.06861264677999147,1.0
15.69198226928711,-4.154909133911133,0.17316102981567383,-0.0,-0.0,-1.0,0.1047457663108899,1.0
15.613759994506836,-3.8746538162231445,0.1676039695739746,-0.0,-0.0,-1.0,0.1195954060576801,2.0
15.584782600402832,-3.4546937942504883,0.1671077013015747,-0.0,-0.0,-1.0,0.13848166118328403,1.0
15.399505615234375,-3.741816520690918,0.1479487419128418,-0.0,-0.0,-1.0,0.02954739264929063,1.0
15.378738403320312,-4.301158905029297,0.6019974946975708,-0.6249531936310164,-0.5974762529436849,0.5024496322406531,0.14904713748928994,4.0
15.574634552001953,-4.214349746704102,1.0640841722488403,-0.0,-0.0,-1.0,0.14745358883034512,2.0
14.944704055786133,-3.2675371170043945,0.2902231216430664,-0.0,-0.0,-1.0,0.1255452908812002,1.0
14.766416549682617,-3.8808460235595703,0.2693924903869629,-0.0,-0.0,-1.0,0.16677774305448753,1.0
14.742859840393066,-3.4467554092407227,0.27273792028427124,-0.0,-0.0,-1.0,0.22615135491957244,1.0
14.847140312194824,-3.2204532623291016,0.28323590755462646,0.6326429177331555,0.5574286550276002,-0.5376209010038584,0.19705967995886642,3.0
14.555814743041992,-2.6911940574645996,0.26578187942504883,-0.0,-0.0,-1.0,0.11720640153437202,2.0
14.405893325805664,-4.057718276977539,0.23981690406799316,-0.0,-0.0,-1.0,0.23454497024614926,2.0
14.297331809997559,-3.54465913772583,0.2374281883239746,-0.0,-0.0,-1.0,0.1409720923033126,1.0
14.335482597351074,-3.243216037750244,0.2434801459312439,-0.0,-0.0,-1.0,0.1523115809207112,1.0
14.375754356384277,-3.029463768005371,0.24869000911712646,-0.0,-0.0,-1.0,0.10139237519917371,2.0
13.955414772033691,-3.4288387298583984,0.2122189998626709,-0.7013572196105351,-0.6166495579969513,-0.3575491198735411,0.2021415679361026,3.0
13.805907249450684,-4.164899826049805,0.19278788566589355,-0.0,-0.0,-1.0,0.05931423609114955,1.0
15.000835418701172,-3.188077449798584,0.7562768459320068,-0.0,-0.0,-1.0,0.09408208137526285,2.0
14.932461738586426,-3.7537126541137695,0.7568867206573486,-0.0,-0.0,-1.0,0.17964025104001488,1.0
14.281189918518066,-3.395113468170166,0.7240533232688904,-0.0,-0.0,-1.0,0.14420344652390046,1.0
13.71041202545166,-4.321279525756836,0.7037836313247681,-0.0,-0.0,-1.0,0.09925800218819951,1.0
15.001656532287598,-2.753385066986084,0.08094191551208496,-0.0,-0.0,-1.0,0.12065771057715699,2.0
14.69741439819336,-2.5042057037353516,0.08364951610565186,-0.0,-0.0,-1.0,0.15673518734664552,1.0
13.78184986114502,-2.5483999252319336,0.030394315719604492,-0.0,-0.0,-1.0,0.1840153738905207,2.0
14.810225486755371,-3.156419277191162,0.5197386145591736,-0.0,-0.0,-1.0,0.13791003237866795,1.0
14.449703216552734,-2.511838436126709,0.5481585264205933,0.3052964832315565,0.8868161815947739,0.3469165856342255,0.14185870409397214,4.0
14.125622749328613,-3.29941987991333,0.4944223165512085,-0.0,-0.0,-1.0,0.1420823926900362,1.0
13.775945663452148,-3.4075264930725098,0.4794921278953552,-0.0,-0.0,-1.0,0.18230985094297059,1.0
13.920794486999512,-3.2529520988464355,0.492035448551178,-0.0,-0.0,-1.0,0.22294142341027798,2.0
13.964786529541016,-3.061203956604004,1.0056371688842773,-0.0,-0.0,-1.0,0.11559972645588033,2.0
15.578055381774902,-4.295294284820557,0.2552933692932129,-0.0,-0.0,-1.0,0.19283158509188625,2.0
15.218907356262207,-4.212183475494385,0.22173166275024414,-0.0,-0.0,-1.0,0.14895047803208372,2.0
14.962567329406738,-4.191090106964111,0.1973358392715454,-0.0,-0.0,-1.0,0.10462282911750577,1.0
15.51289176940918,-4.313582897186279,0.7469950914382935,-0.0,-0.0,-1.0,0.127736208260384,2.0
15.705953598022461,-3.836602210998535,0.14352917671203613,-0.0,-0.0,-1.0,0.1085555891099961,1.0
15.50333309173584,-3.418206214904785,0.14089691638946533,-0.0,-0.0,-1.0,0.1701645473108448,2.0
15.512625694274902,-2.684170722961426,0.12235414981842041,-0.0,-0.0,-1.0,0.19240325323863877,1.0
15.478500366210938,-2.89957332611084,0.11476647853851318,0.6021122650191998,0.4979553349456344,-0.6241003963407087,0.07410049414231763,3.0
15.188072204589844,-2.667957305908203,0.09123742580413818,-0.0,-0.0,-1.0,0.06194984628065859,2.0
15.055665016174316,-2.4879188537597656,0.08144664764404297,-0.0,-0.0,-1.0,0.06589990828439954,2.0
14.842692375183105,-2.616548538208008,0.5673669576644897,-0.0,-0.0,-1.0,0.18450934765064872,1.0
14.242769241333008,-3.2856311798095703,0.528274655342102,-0.0,-0.0,-1.0,0.16660923605649514,1.0
13.750587463378906,-3.2639808654785156,1.0421847105026245,-0.645250104858511,-0.6284218505634427,-0.4344401914124643,0.09518164723805905,5.0
14.722665786743164,-2.580781936645508,0.2532731294631958,-0.0,-0.0,-1.0,0.18943938948878794,2.0
14.791582107543945,-3.0203075408935547,0.25576162338256836,0.8942622779233912,-0.15288142530361837,-0.4206212644177673,0.14320430253685307,3.0
14.568562507629395,-2.756467819213867,0.23852908611297607,-0.0,-0.0,-1.0,0.09531269284993603,1.0
14.502707481384277,-2.4402694702148438,0.23526954650878906,-0.0,-0.0,-1.0,0.2028582826519544,2.0
14.294502258300781,-3.116741180419922,0.21194517612457275,-0.3571154050847423,-0.5556234786433062,-0.7508336283301857,0.15395044912642578,3.0
14.258381843566895,-2.568143844604492,0.21304309368133545,0.31226434922526347,0.5568523445895576,-0.7696794414092368,0.21568971723160352,4.0
13.720202445983887,-3.116382598876953,0.16202008724212646,-0.0,-0.0,-1.0,0.12361086045650932,1.0
13.838111877441406,-3.232318878173828,0.8628298044204712,-0.0,-0.0,-1.0,0.21506252403916148,1.0
13.84262466430664,-3.381856918334961,0.5217918157577515,-0.0,-0.0,-1.0,0.1581721361996284,2.0
15.355432510375977,-2.917851448059082,0.17038214206695557,-0.24511631024274835,-0.2539201985003477,-0.9356508575566663,0.07377034718895899,3.0
15.07497501373291,-2.6899023056030273,0.16183972358703613,-0.0,-0.0,-1.0,0.11184860336665174,2.0
15.575952529907227,-4.322847366333008,0.2057018280029297,-0.5658083880558107,-0.23107005542833656,-0.7914969977770165,0.1604447143876466,3.0
14.652791023254395,-2.6657962799072266,0.828721821308136,-0.0,-0.0,-1.0,0.07578758915007693,1.0
13.900653839111328,-4.18535041809082,0.7869585156440735,-0.0,-0.0,-1.0,0.14412491162592372,1.0
14.982177734375,-3.0913848876953125,0.446824312210083,-0.0,-0.0,-1.0,0.18283130307860843,1.0
15.060245513916016,-3.5189857482910156,0.43547236919403076,-0.0,-0.0,-1.0,0.1747306056131952,1.0
14.821009635925293,-3.23370361328125,0.4377402067184448,-0.0,-0.0,-1.0,0.11799351313594214,2.0
14.439888954162598,-3.9623641967773438,0.40381890535354614,-0.0,-0.0,-1.0,0.07781216287227831,1.0
15.645275115966797,-4.351072311401367,0.7526825666427612,-0.0,-0.0,-1.0,0.11383884226489703,2.0
13.914836883544922,-2.7295188903808594,0.15073907375335693,-0.0,-0.0,-1.0,0.1579240896525572,1.0
15.155461311340332,-2.422464370727539,0.04678976535797119,-0.0,-0.0,-1.0,0.06076006823072102,2.0
14.786055564880371,-2.642545700073242,0.06954371929168701,-0.0,-0.0,-1.0,0.10740160674321095,1.0
14.086719512939453,-3.2519302368164062,0.10502195358276367,-0.0,-0.0,-1.0,0.13410674217401217,1.0
15.374244689941406,-2.5921688079833984,0.016490578651428223,-0.0,-0.0,-1.0,0.034937131163737534,2.0
14.23343276977539,-3.253633499145508,0.09095597267150879,-0.0,-0.0,-1.0,0.21427766095501388,1.0
13.742898941040039,-3.7127513885498047,0.11195993423461914,-0.0,-0.0,-1.0,0.09220932266862346,1.0
13.964834213256836,-3.8787193298339844,0.08145487308502197,-0.0,-0.0,-1.0,0.062156516417190444,1.0
14.968689918518066,-2.3880176544189453,0.7771399021148682,-0.0,-0.0,-1.0,0.10428297298811517,1.0
14.332601547241211,-3.281970977783203,0.8216311931610107,-0.0,-0.0,-1.0,0.1621460328008207,2.0
15.079083442687988,-3.624654769897461,0.7405664920806885,-0.0,-0.0,-1.0,0.20779954923029906,1.0
13.873109817504883,-4.145009994506836,0.8474603891372681,-0.0,-0.0,-1.0,0.1466711906386855,1.0
14.755180358886719,-4.123516082763672,0.7605513334274292,-0.0,-0.0,-1.0,0.22352884218731298,1.0
13.71172046661377,-2.7250938415527344,0.5429856777191162,-0.0,-0.0,-1.0,0.16160406265008473,1.0
14.060760498046875,-3.266885757446289,0.48230743408203125,-0.0,-0.0,-1.0,0.16823496102110091,1.0
15.015732765197754,-2.70050048828125,0.4054245948791504,-0.0,-0.0,-1.0,0.158353989453179,1.0
14.4909086227417,-3.389232635498047,0.4290347695350647,-0.0,-0.0,-1.0,0.16594892944221445,1.0
15.096858024597168,-2.940370559692383,0.38698244094848633,-0.0,-0.0,-1.0,0.13740724793991704,1.0
13.801714897155762,-2.740171432495117,0.20189416408538818,-0.0,-0.0,-1.0,0.1392756926867338,1.0
14.04418659210205,-3.162900924682617,0.15455198287963867,-0.0,-0.0,-1.0,0.25911937966016374,2.0
13.79670238494873,-3.3347911834716797,0.16998696327209473,-0.0,-0.0,-1.0,0.19784518311070515,2.0
14.617814064025879,-2.5695266723632812,0.12915563583374023,-0.0,-0.0,-1.0,0.2323295410581466,1.0
14.52298641204834,-2.9546642303466797,0.1177365779876709,-0.0,-0.0,-1.0,0.11349484250021721,1.0
14.290173530578613,-3.277772903442383,0.12357473373413086,-0.0,-0.0,-1.0,0.1373609619592455,1.0
14.150912284851074,-3.3043251037597656,0.13612759113311768,-0.0,-0.0,-1.0,0.15482084958656753,1.0
13.753320693969727,-3.8307018280029297,0.1473233699798584,-0.0,-0.0,-1.0,0.061910264316680244,1.0
15.123004913330078,-2.708831787109375,0.07047152519226074,-0.0,-0.0,-1.0,0.0731987676713663,2.0
15.572616577148438,-2.908468246459961,0.01646256446838379,-0.0,-0.0,-1.0,0.0953251382904124,1.0
14.295249938964844,-3.2882003784179688,0.8363479375839233,-0.1987920908560281,-0.613529722410934,-0.7642401352529523,0.14007796183973897,3.0
15.186205863952637,-3.003276824951172,0.7532360553741455,-0.0,-0.0,-1.0,0.2221635242688504,1.0
14.242607116699219,-2.504701614379883,0.3200916051864624,-0.0,-0.0,-1.0,0.1681273318394895,1.0
13.717819213867188,-3.0830631256103516,0.3179296851158142,-0.0,-0.0,-1.0,0.1362098281224821,1.0
13.81680965423584,-3.264354705810547,0.3042351007461548,-0.0,-0.0,-1.0,0.2149256178636948,1.0
14.579816818237305,-2.562997817993164,0.30011022090911865,0.62898825696212,-0.7522528700702922,-0.1961871353447048,0.1632642656340846,6.0
14.380889892578125,-2.7892112731933594,0.2992318868637085,0.5914253514348462,-0.03910959454396962,-0.8054107606027966,0.2226360071301083,5.0
14.151019096374512,-3.0816097259521484,0.29656195640563965,-0.0,-0.0,-1.0,0.19625790028467044,1.0
13.98962688446045,-3.372957229614258,0.29039931297302246,-0.14474446058779986,0.15313310722595364,-0.9775475909644868,0.27736952318180025,3.0
14.908151626586914,-2.6578426361083984,0.2785138487815857,-0.0,-0.0,-1.0,0.2425944023293023,1.0
14.831082344055176,-2.8702239990234375,0.27216410636901855,-0.0,-0.0,-1.0,0.22485185477716257,1.0
15.563302040100098,-2.540496826171875,0.24942386150360107,-0.22829065045060792,-0.957536673294485,0.1760877571353807,0.13892909732840503,4.0
15.120536804199219,-2.9753055572509766,0.25192224979400635,0.6726016372024656,-0.38322864495319076,-0.6330425288398125,0.12356870084276506,3.0
15.690339088439941,-3.210752487182617,0.21000325679779053,-0.0,-0.0,-1.0,0.10285481336977423,1.0
15.37564468383789,-3.5639514923095703,0.20975196361541748,-0.0,-0.0,-1.0,0.15857395322092657,1.0
15.244637489318848,-3.78173828125,0.20612680912017822,-0.0,-0.0,-1.0,0.06455896639340974,1.0
15.603789329528809,-3.8180694580078125,0.18518567085266113,-0.0,-0.0,-1.0,0.11510177725185981,2.0
14.016639709472656,-3.220539093017578,0.9816863536834717,-0.0,-0.0,-1.0,0.06885496781370391,2.0
15.602108001708984,-4.268764495849609,0.8878282308578491,-0.0,-0.0,-1.0,0.07941022253229016,1.0
13.799492835998535,-2.53420352935791,0.018766164779663086,-0.0,-0.0,-1.0,0.18401537389052067,2.0
13.952959060668945,-3.2053117752075195,0.6140952110290527,-0.0,-0.0,-1.0,0.21257817692586053,1.0
14.43923568725586,-2.5866689682006836,0.6141146421432495,-0.0,-0.0,-1.0,0.10444417571229751,2.0
14.211105346679688,-3.29805850982666,0.6004283428192139,-0.7125720367060193,0.6944027476193697,-0.10022932007803351,0.1547203162750544,6.0
13.730236053466797,-4.183093070983887,0.5914143323898315,-0.0,-0.0,-1.0,0.1018608499020228,2.0
14.975454330444336,-3.097956657409668,0.575065016746521,0.8523729291679487,0.4822797486131964,-0.20215497446079092,0.21192619501205873,3.0
14.948609352111816,-3.654881477355957,0.5580981373786926,-0.0,-0.0,-1.0,0.12998954947034327,1.0
15.37484073638916,-3.9679136276245117,0.529945969581604,-0.6510247529530131,-0.44367113609246306,-0.615891787606306,0.12635972511875615,3.0
15.610673904418945,-4.297696113586426,0.5092246532440186,-0.0,-0.0,-1.0,0.14480464992672587,2.0
13.845818519592285,-2.8298044204711914,0.5500212907791138,-0.0,-0.0,-1.0,0.13275212444733844,2.0
14.40380859375,-2.580569267272949,0.4771885871887207,0.0754984454317967,0.6191255530145079,-0.7816543573356844,0.16878370515562235,3.0
14.59284782409668,-3.340365409851074,0.4185723066329956,-0.0,-0.0,-1.0,0.139020506347139,1.0
14.309392929077148,-3.911074638366699,0.438079833984375,-0.0,-0.0,-1.0,0.06687078669432973,1.0
14.760875701904297,-3.051032066345215,0.40491247177124023,-0.10523692063654054,-0.08331210669008078,-0.9909512013281981,0.23732478202595383,3.0
15.410438537597656,-3.4165754318237305,0.29211562871932983,-0.0,-0.0,-1.0,0.1392637913111168,1.0
15.399323463439941,-4.309128761291504,0.2583073377609253,-0.0,-0.0,-1.0,0.17073635782573326,2.0
15.352728843688965,-4.272653579711914,0.4376051425933838,-0.7547436077823584,-0.42323210166778147,0.5012351490364003,0.1426710028049178,4.0
13.843727111816406,-3.4285430908203125,0.6572517156600952,-0.0,-0.0,-1.0,0.25399149581493935,1.0
14.204902648925781,-3.2116470336914062,0.6194794178009033,-0.0,-0.0,-1.0,0.1310353632306611,2.0
14.14684009552002,-3.317258834838867,0.623263955116272,-0.0,-0.0,-1.0,0.19555579618200256,1.0
14.366209030151367,-2.5740089416503906,0.6202091574668884,-0.0,-0.0,-1.0,0.11617390209363324,2.0
14.79772663116455,-2.963306427001953,0.5524351596832275,-0.0,-0.0,-1.0,0.18813875345266784,1.0
15.364832878112793,-2.6958980560302734,0.48749810457229614,-0.0,-0.0,-1.0,0.11725564225365351,1.0
13.770720481872559,-3.1765451431274414,0.3105841875076294,-0.0,-0.0,-1.0,0.16351055334452402,1.0
13.960282325744629,-3.3119192123413086,0.28309130668640137,-0.0,-0.0,-1.0,0.181918697798453,2.0
14.280534744262695,-2.8096017837524414,0.27804267406463623,-0.5350989268280752,-0.7002111911199982,-0.47262397985899424,0.1567943512676525,3.0
14.716607093811035,-2.8088884353637695,0.2307499647140503,-0.8219906338581134,0.42830874221755133,0.3753438679258733,0.15810267321090818,4.0
15.05489730834961,-2.8761510848999023,0.1892242431640625,-0.0,-0.0,-1.0,0.13101037056926385,1.0
15.2962064743042,-2.966477394104004,0.1567070484161377,-0.43813108805832934,0.039655948700455246,-0.8980359432725905,0.07042155386697166,3.0
15.567770004272461,-2.7367734909057617,0.13843035697937012,-0.0,-0.0,-1.0,0.19595863763577379,2.0
15.511404037475586,-2.9141454696655273,0.13488411903381348,0.378850086982626,-0.33536708746506866,-0.8625552319929743,0.06907004494851547,3.0
15.337724685668945,-4.31557559967041,0.722191572189331,-0.0,-0.0,-1.0,0.1442942754089196,1.0
14.35023307800293,-2.6388540267944336,0.866296648979187,-0.0,-0.0,-1.0,0.09147498712185187,1.0
13.991806983947754,-3.304523468017578,0.516176700592041,-0.0,-0.0,-1.0,0.2010270786615916,1.0
14.280130386352539,-3.953327178955078,0.4749276638031006,-0.0,-0.0,-1.0,0.0659841676382557,1.0
14.589204788208008,-3.369935989379883,0.48953932523727417,-0.0,-0.0,-1.0,0.18502824371958085,2.0
15.325495719909668,-4.273637771606445,0.4171764850616455,0.5519393024323753,-0.42891684844966027,-0.715117713070005,0.18847755212706138,3.0
14.704565048217773,-3.0408363342285156,0.5000663995742798,-0.0,-0.0,-1.0,0.19380906633979061,1.0
14.832792282104492,-3.4798240661621094,0.47450363636016846,-0.0,-0.0,-1.0,0.14368854106315196,1.0
15.375960350036621,-3.42889404296875,0.4540293216705322,-0.0,-0.0,-1.0,0.11153628876511258,2.0
15.63519287109375,-3.7391719818115234,0.4285043478012085,-0.0,-0.0,-1.0,0.11011343600296336,1.0
13.84304141998291,-3.0185985565185547,1.1247247457504272,-0.0,-0.0,-1.0,0.08120616130740815,1.0
13.917898178100586,-4.33799934387207,0.16606462001800537,-0.0,-0.0,-1.0,0.06567736567545199,1.0
13.899252891540527,-3.3708648681640625,0.22677958011627197,-0.0,-0.0,-1.0,0.21229266416368744,1.0
14.467305183410645,-4.2656402587890625,0.14682209491729736,-0.08993212180848631,-0.4329931056835225,-0.8968997624581921,0.13115378802446717,3.0
14.138794898986816,-3.3836898803710938,0.21609020233154297,-0.0,-0.0,-1.0,0.2202635038890126,2.0
14.400873184204102,-3.3385047912597656,0.20755255222320557,-0.0,-0.0,-1.0,0.11995075632779789,2.0
15.602666854858398,-3.796173095703125,0.12035703659057617,-0.0,-0.0,-1.0,0.09554014829686527,1.0
15.314943313598633,-3.246671676635742,0.16971027851104736,0.120736252628329,-0.9170318488832016,-0.38009912580157973,0.10371748072184889,3.0
15.426523208618164,-3.3627281188964844,0.15670299530029297,-0.0,-0.0,-1.0,0.16796110221618554,2.0
13.78557300567627,-2.9316577911376953,0.2585049867630005,-0.0,-0.0,-1.0,0.19877960169359,1.0
14.437650680541992,-2.720600128173828,0.2443927526473999,-0.0,-0.0,-1.0,0.18976904050768423,2.0
14.671696662902832,-3.0158233642578125,0.2154144048690796,-0.0,-0.0,-1.0,0.0954893466035163,1.0
14.6120023727417,-2.5376853942871094,0.24797147512435913,-0.4068466508812392,-0.8351928953403902,0.37003868749045005,0.19627577012818942,6.0
14.893388748168945,-2.8879833221435547,0.21293210983276367,-0.0,-0.0,-1.0,0.10320948827614004,2.0
15.175275802612305,-3.042255401611328,0.1895289421081543,0.9985290603097445,-0.020861073604540776,0.0500452927357258,0.09834492788718859,3.0
15.587382316589355,-2.7654428482055664,0.18558096885681152,-0.0,-0.0,-1.0,0.11560813654152924,1.0
13.72341251373291,-4.10515022277832,0.7956724166870117,-0.9880685756431984,0.05364978685137986,-0.1443682451137469,0.13224113864735934,5.0
13.858890533447266,-3.292417526245117,0.8118455410003662,0.658545541768564,0.7238316458389641,-0.2058774341660707,0.2043171652189693,3.0
15.396882057189941,-4.350557327270508,0.7100458145141602,-0.0,-0.0,-1.0,0.1781229801931147,2.0
15.555588722229004,-2.529407501220703,0.7518395781517029,-0.0,-0.0,-1.0,0.06765984657503371,1.0
13.939813613891602,-2.9338817596435547,0.09539973735809326,-0.0,-0.0,-1.0,0.1107730425341746,1.0
14.710907936096191,-2.424043655395508,0.10000765323638916,-0.0,-0.0,-1.0,0.1737257583895767,2.0
15.175572395324707,-2.6262807846069336,0.05981779098510742,-0.0,-0.0,-1.0,0.04684800965650588,1.0
15.310561180114746,-2.7252511978149414,0.04458630084991455,-0.0,-0.0,-1.0,0.06140256869559292,2.0
15.409989356994629,-2.3950271606445312,0.06572341918945312,-0.0,-0.0,-1.0,0.07453332764122521,1.0
15.58326244354248,-2.6619300842285156,0.03447258472442627,-0.0,-0.0,-1.0,0.1537833826006416,1.0
14.056955337524414,-3.2891502380371094,0.6236610412597656,-0.0,-0.0,-1.0,0.15110773210968487,1.0
15.514470100402832,-4.320557594299316,0.4984474182128906,0.3294757963843655,-0.6783830826641835,-0.6566902563247974,0.1405097272913327,3.0
15.315237045288086,-4.1423749923706055,0.51800137758255,-0.0,-0.0,-1.0,0.15072241481768617,1.0
15.601683616638184,-4.346829414367676,0.49217891693115234,-0.7048986854823187,-0.6564015794646235,0.2688025477588469,0.11216010566163935,3.0
14.334944725036621,-2.629364013671875,0.6393702030181885,0.23912913233016692,-0.6924361591483134,-0.6806977475906271,0.10332884195414016,3.0
15.467991828918457,-3.443629264831543,0.5410846471786499,-0.41942004592738347,-0.2141395844107625,-0.8821740550836084,0.11028856034012613,6.0
13.828792572021484,-2.7647552490234375,0.09281909465789795,-0.0,-0.0,-1.0,0.14561844603607976,1.0
14.703166961669922,-2.3744916915893555,0.08780133724212646,-0.0,-0.0,-1.0,0.17290201967227925,1.0
15.142614364624023,-2.49267578125,0.05487716197967529,-0.0,-0.0,-1.0,0.08105321294556679,1.0
15.322675704956055,-2.4757633209228516,0.04682481288909912,0.30027788654456006,0.4509111725036049,-0.8405428634898735,0.033621132022408455,3.0
15.601102828979492,-2.5710716247558594,0.02271103858947754,-0.0,-0.0,-1.0,0.14447138552558667,2.0
13.912049293518066,-3.062788963317871,0.6009423732757568,-0.0,-0.0,-1.0,0.11707540367770834,1.0
15.340779304504395,-4.066972732543945,0.46652185916900635,-0.0,-0.0,-1.0,0.04725772604828877,1.0
13.925395011901855,-2.760845184326172,0.6167007684707642,-0.0,-0.0,-1.0,0.16765155424075284,1.0
14.687212944030762,-3.2497215270996094,0.5495410561561584,-0.0,-0.0,-1.0,0.10748047440484011,1.0
14.330876350402832,-2.596743583679199,0.6047580242156982,0.6043667636122176,-0.543112541833217,-0.5828975741451976,0.11118553129837337,3.0
14.78561782836914,-2.6646432876586914,0.5764816403388977,-0.0,-0.0,-1.0,0.2623201621042923,1.0
14.871768951416016,-3.109246253967285,0.5470430850982666,-0.3521031669653045,0.9186154228504381,-0.1793573659326932,0.1866843778772064,5.0
13.750526428222656,-3.1732072830200195,1.1445884704589844,-0.7279026876365366,0.25859190469387894,-0.6350495289017215,0.11348842296254044,4.0
15.469810485839844,-4.151433944702148,1.0197327136993408,0.1318089495886452,0.8759822831503721,-0.463984310526767,0.1339402179459963,5.0
13.812553405761719,-3.3132429122924805,0.4281650185585022,-0.0,-0.0,-1.0,0.22366575018879767,2.0
14.324197769165039,-3.961209297180176,0.3613663911819458,-0.0,-0.0,-1.0,0.09416808144883287,2.0
13.916627883911133,-3.0547122955322266,0.4416869878768921,-0.0,-0.0,-1.0,0.2177989283831284,1.0
14.381869316101074,-2.7100391387939453,0.4458780288696289,0.2440022262859976,0.28251665515611796,-0.9277107594109685,0.11824667374620351,4.0
14.315984725952148,-2.5701608657836914,0.45839768648147583,-0.7555072240486053,-0.31278457086863054,0.5756514975546382,0.12183275484717099,4.0
14.682329177856445,-4.255096435546875,0.8829429149627686,-0.0,-0.0,-1.0,0.17908783706442075,2.0
13.961343765258789,-3.1801624298095703,0.9593245983123779,-0.0,-0.0,-1.0,0.09367149734990265,1.0
13.774557113647461,-3.2827625274658203,0.19355785846710205,-0.0,-0.0,-1.0,0.15517140555772493,2.0
13.942436218261719,-3.3949708938598633,0.17926692962646484,-0.7013572196105351,-0.6166495579969513,-0.3575491198735411,0.17271904091563836,3.0
13.88447093963623,-3.1092910766601562,0.2054218053817749,-0.0,-0.0,-1.0,0.25066087875515836,1.0
14.285249710083008,-2.811891555786133,0.21945619583129883,-0.8729304817456572,0.42302358753967984,0.24298851500503818,0.16238299618117355,4.0
14.462270736694336,-2.512453079223633,0.23996543884277344,0.5499267722255452,0.4979497197409929,-0.6705420358183819,0.17236520896773583,6.0
14.647584915161133,-2.557109832763672,0.23033654689788818,0.07533028745649802,-0.9247090008342435,0.3731469034681337,0.1812945057140099,9.0
15.596996307373047,-2.4804067611694336,0.3726082444190979,-0.0,-0.0,-1.0,0.16424012385874637,1.0
15.386219024658203,-4.203883171081543,0.7634139060974121,-0.0,-0.0,-1.0,0.11880427560582721,1.0
15.580643653869629,-4.361235618591309,0.7488038539886475,-0.0,-0.0,-1.0,0.10172626745348637,1.0
14.998912811279297,-4.134361267089844,0.1903238296508789,-0.0,-0.0,-1.0,0.04494992018510937,1.0
