x,y,z,nx,ny,nz,curvature,density
36.136295318603516,-18.055416107177734,0.8396466970443726,-0.0,-0.0,-1.0,0.16696895770837308,2.0
37.350608825683594,-16.987274169921875,0.056282997131347656,-0.0,-0.0,-1.0,0.23197233186715482,2.0
37.20740509033203,-16.678367614746094,0.07135772705078125,-0.43060159914454577,0.7409305500295624,-0.5153680072016985,0.15998309439167607,3.0
35.801883697509766,-17.56296157836914,0.0019011497497558594,-0.0,-0.0,-1.0,0.0655155988763065,1.0
37.496665954589844,-16.92204475402832,0.25397181510925293,-0.0,-0.0,-1.0,0.17127049961800414,2.0
37.285804748535156,-17.577579498291016,0.2678794860839844,-0.0,-0.0,-1.0,0.2426983837341429,1.0
35.72138214111328,-18.048492431640625,0.3350560665130615,-0.0,-0.0,-1.0,0.1620853377985881,2.0
37.30827713012695,-17.092586517333984,0.28101110458374023,-0.0,-0.0,-1.0,0.13363934262105362,1.0
36.035133361816406,-17.321273803710938,0.3973674774169922,-0.0,-0.0,-1.0,0.2531121146016279,2.0
35.82756805419922,-17.82046890258789,0.15883827209472656,-0.0,-0.0,-1.0,0.23902121233400278,2.0
35.818782806396484,-17.87155532836914,0.2097334861755371,-0.0,-0.0,-1.0,0.25290770908576793,2.0
36.00736618041992,-17.959915161132812,0.22530221939086914,-0.0,-0.0,-1.0,0.15409523134962508,2.0
37.55179214477539,-18.025989532470703,0.05241990089416504,-0.0,-0.0,-1.0,0.07392817209099364,1.0
36.99554443359375,-17.593685150146484,0.10698127746582031,-0.0,-0.0,-1.0,0.07699319477078982,1.0
37.17671585083008,-17.524484634399414,0.0852212905883789,-0.0,-0.0,-1.0,0.1647589306756756,2.0
37.07429885864258,-17.317888259887695,0.09284257888793945,-0.0,-0.0,-1.0,0.142040019536998,1.0
37.55552291870117,-16.910703659057617,0.03067326545715332,-0.0,-0.0,-1.0,0.1942647714001848,1.0
37.624229431152344,-18.308786392211914,0.0498042106628418,-0.0,-0.0,-1.0,0.07835899984567261,1.0
37.144195556640625,-17.674654006958008,0.12540817260742188,-0.0,-0.0,-1.0,0.18546090485139777,1.0
37.155067443847656,-17.454572677612305,0.13468694686889648,-0.0,-0.0,-1.0,0.24879468615462094,2.0
37.20168685913086,-17.32850456237793,0.13607168197631836,-0.0,-0.0,-1.0,0.19496871491451637,1.0
36.103538513183594,-18.02766990661621,0.20600271224975586,-0.0,-0.0,-1.0,0.19433631472852678,2.0
36.06555938720703,-18.067916870117188,0.37250328063964844,0.6212487463602897,-0.2731157643618483,-0.7344778923853407,0.1515180917469354,3.0
37.170711517333984,-17.620046615600586,0.25893354415893555,-0.0,-0.0,-1.0,0.2285045718447949,1.0
36.82706832885742,-18.079139709472656,0.05521821975708008,-0.0,-0.0,-1.0,0.18005451163771302,1.0
36.49229431152344,-17.584068298339844,0.10919570922851562,-0.0,-0.0,-1.0,0.1114773654081638,1.0
37.056278228759766,-17.047351837158203,0.02962350845336914,-0.0,-0.0,-1.0,0.14336492458604605,1.0
35.8054084777832,-18.096446990966797,0.20296144485473633,-0.0,-0.0,-1.0,0.21092809700796342,2.0
35.78936767578125,-18.305282592773438,0.567394495010376,-0.0,-0.0,-1.0,0.2141588015601713,1.0
36.64433670043945,-18.356464385986328,0.5524117946624756,-0.0,-0.0,-1.0,0.11546765439939423,1.0
36.3358039855957,-18.34395980834961,0.5658295154571533,-0.0,-0.0,-1.0,0.11004548779212532,1.0
36.3110237121582,-17.231613159179688,0.04044771194458008,-0.0,-0.0,-1.0,0.08367288962973046,1.0
35.737091064453125,-17.848140716552734,0.23427867889404297,-0.0,-0.0,-1.0,0.17138241374160124,1.0
37.38658142089844,-17.0726318359375,0.16309905052185059,-0.4583095896286535,-0.8861264952024289,0.06879065746651193,0.21633278078940646,3.0
35.7537727355957,-17.919506072998047,0.1785125732421875,-0.0,-0.0,-1.0,0.18414326729087413,1.0
37.352291107177734,-17.082836151123047,0.08535456657409668,-0.7168668309987417,0.2137262198267956,-0.6636437670711369,0.25691643081125415,3.0
35.950557708740234,-18.15464210510254,0.49847888946533203,-0.0,-0.0,-1.0,0.2164533470185839,2.0
35.876014709472656,-17.94196891784668,0.15252971649169922,-0.0,-0.0,-1.0,0.18762429393471627,2.0
37.23625946044922,-17.1502742767334,0.05346989631652832,0.1655380629834405,0.48820880643183634,-0.8568834874276033,0.1604965655186669,3.0
37.365447998046875,-16.725603103637695,0.0494081974029541,-0.0,-0.0,-1.0,0.1950484812969468,2.0
36.667327880859375,-16.931289672851562,-0.10610651969909668,-0.0,-0.0,-1.0,0.0721778189558883,1.0
36.51519775390625,-17.869976043701172,-0.09673857688903809,-0.0,-0.0,-1.0,0.1231036152760834,1.0
35.756797790527344,-18.264421463012695,0.3250002861022949,-0.0,-0.0,-1.0,0.1564445906301301,1.0
36.582763671875,-17.666624069213867,0.24956011772155762,-0.0,-0.0,-1.0,0.09174380133848531,1.0
36.66032409667969,-17.0451717376709,0.2462146282196045,-0.0,-0.0,-1.0,0.18758779571754944,1.0
36.57134246826172,-17.334291458129883,0.25293397903442383,-0.0,-0.0,-1.0,0.1538652140291524,1.0
36.56019592285156,-17.18889617919922,-0.02416253089904785,-0.0,-0.0,-1.0,0.12324602240205662,2.0
35.74512481689453,-18.198131561279297,0.3876357078552246,-0.0,-0.0,-1.0,0.22257863024967683,1.0
36.1170539855957,-18.1732177734375,0.36946821212768555,-0.0,-0.0,-1.0,0.19017852972124083,1.0
35.929962158203125,-18.12640380859375,0.48321592807769775,-0.0,-0.0,-1.0,0.2251259821700431,2.0
35.970611572265625,-18.154569625854492,0.3609321117401123,-0.0,-0.0,-1.0,0.1255254438892222,2.0
36.26988983154297,-18.121747970581055,0.3448352813720703,0.026238084949825866,0.6913298798231314,-0.722062712070011,0.2634188558798801,3.0
36.81615447998047,-18.087080001831055,0.3143649101257324,-0.0,-0.0,-1.0,0.2708375860786334,1.0
35.95177459716797,-18.31334114074707,0.4103529453277588,-0.0,-0.0,-1.0,0.09826940310357417,1.0
35.75312805175781,-18.1550350189209,0.4227628707885742,-0.0,-0.0,-1.0,0.21852571626556042,1.0
35.935630798339844,-18.165355682373047,0.29838788509368896,-0.0,-0.0,-1.0,0.09526348354205014,1.0
36.23493576049805,-18.090694427490234,0.2839101552963257,-0.0,-0.0,-1.0,0.25006628925948704,2.0
36.21891784667969,-17.873592376708984,0.29042959213256836,-0.28611618709442554,-0.9380920829025828,-0.19524541346224086,0.24158901052614618,3.0
37.657108306884766,-16.993724822998047,0.23087310791015625,-0.0,-0.0,-1.0,0.2541567126034605,2.0
36.009429931640625,-18.301185607910156,0.4296398162841797,-0.0,-0.0,-1.0,0.1841089684418284,1.0
35.83818054199219,-18.333452224731445,0.5139614343643188,0.28410507262456436,0.4956940102219436,-0.8207141743256777,0.2632176775681884,4.0
35.915313720703125,-18.086103439331055,0.5470559597015381,-0.0,-0.0,-1.0,0.2098540861310893,1.0
37.287078857421875,-17.915382385253906,0.09780848026275635,-0.0,-0.0,-1.0,0.09836403969439918,1.0
35.7216911315918,-17.519084930419922,0.1278374195098877,-0.0,-0.0,-1.0,0.11506719577383735,2.0
36.10203552246094,-16.991024017333984,0.14445579051971436,-0.0,-0.0,-1.0,0.13883454696157227,1.0
35.7611083984375,-18.25653076171875,0.458815336227417,-0.0,-0.0,-1.0,0.22683172176770686,1.0
36.031150817871094,-18.260845184326172,0.450498104095459,-0.0,-0.0,-1.0,0.18389897243767683,1.0
36.14244079589844,-18.2252140045166,0.8109877109527588,-0.0,-0.0,-1.0,0.20794538144607413,1.0
36.065521240234375,-18.089237213134766,0.3803989887237549,-0.0,-0.0,-1.0,0.15745072112803007,2.0
36.34502029418945,-18.210792541503906,0.3757326006889343,-0.0,-0.0,-1.0,0.18857366796761782,2.0
36.57158660888672,-18.300994873046875,0.37210625410079956,-0.0,-0.0,-1.0,0.13157413553460126,1.0
36.02947235107422,-18.021808624267578,0.812377393245697,-0.0,-0.0,-1.0,0.1967407670159563,1.0
35.81880187988281,-17.645069122314453,0.0025539398193359375,-0.0,-0.0,-1.0,0.06563962305734264,1.0
36.35391616821289,-17.09986114501953,0.032654762268066406,-0.0,-0.0,-1.0,0.12381962670722209,1.0
36.581939697265625,-17.028697967529297,0.04018425941467285,-0.0,-0.0,-1.0,0.16739215204913868,1.0
35.816558837890625,-17.686874389648438,0.04052174091339111,-0.0,-0.0,-1.0,0.07648166814135152,1.0
36.55145263671875,-17.120262145996094,0.07591819763183594,-0.0,-0.0,-1.0,0.10723664017878373,1.0
36.20499801635742,-17.562084197998047,0.05376636981964111,-0.0,-0.0,-1.0,0.0906428595760808,2.0
37.562564849853516,-16.968368530273438,0.1040339469909668,-0.0,-0.0,-1.0,0.23805632766019338,1.0
35.8205680847168,-18.08127784729004,0.6006947159767151,-0.8484612411610731,0.4410823070260486,-0.29250627459251144,0.22476545289024885,3.0
36.71282958984375,-18.345623016357422,0.5964703559875488,-0.0,-0.0,-1.0,0.1131524232452207,1.0
36.26959991455078,-16.459510803222656,-0.08339428901672363,-0.0,-0.0,-1.0,0.048809425856447056,1.0
35.88341522216797,-18.345378875732422,0.7968114018440247,-0.0,-0.0,-1.0,0.10920954276293617,1.0
37.54088592529297,-16.891904830932617,0.11358988285064697,-0.0,-0.0,-1.0,0.24575055427080547,1.0
36.940704345703125,-17.02113914489746,0.10954022407531738,-0.0,-0.0,-1.0,0.07958476862206951,1.0
37.31256103515625,-17.831384658813477,0.08175837993621826,-0.0,-0.0,-1.0,0.13262772276839066,1.0
36.438514709472656,-18.04703140258789,0.7608747482299805,-0.0,-0.0,-1.0,0.12576194082054018,1.0
35.970855712890625,-17.792179107666016,0.22855448722839355,-0.0,-0.0,-1.0,0.18914152795152728,1.0
36.08549499511719,-17.99557876586914,0.22104942798614502,-0.637601458745288,0.002706017382650539,-0.7703616405791545,0.1578353963181365,3.0
37.4627799987793,-17.009733200073242,0.11563825607299805,-0.0,-0.0,-1.0,0.27025291881762165,1.0
37.646263122558594,-16.665063858032227,0.10046005249023438,-0.0,-0.0,-1.0,0.15267590889488422,1.0
35.7972412109375,-17.91663932800293,0.2049769163131714,-0.0,-0.0,-1.0,0.18384350822462098,2.0
36.030799865722656,-17.866294860839844,0.18897175788879395,-0.0,-0.0,-1.0,0.22935011831737012,1.0
37.314510345458984,-17.180395126342773,0.10033738613128662,-0.0,-0.0,-1.0,0.30136629124825115,1.0
37.48429870605469,-16.795536041259766,0.08837604522705078,-0.0,-0.0,-1.0,0.26291022326365165,1.0
35.89866638183594,-17.790029525756836,0.08693146705627441,-0.0,-0.0,-1.0,0.16153475399219908,1.0
37.35567855834961,-16.76726531982422,-0.008021712303161621,-0.0,-0.0,-1.0,0.19080750119345255,2.0
37.34934997558594,-16.97435188293457,-0.008240938186645508,-0.0,-0.0,-1.0,0.16648472665847597,1.0
36.035526275634766,-18.116558074951172,0.7358205318450928,-0.0,-0.0,-1.0,0.1720282857470873,1.0
35.8932991027832,-18.201828002929688,0.41041100025177,-0.0,-0.0,-1.0,0.17865779785162403,1.0
36.074867248535156,-18.22922706604004,0.4046362638473511,-0.09017957283000194,0.2531073320868362,-0.9632259979299159,0.23704569357568436,3.0
35.99567413330078,-18.361804962158203,0.5317778587341309,-0.0,-0.0,-1.0,0.1536967475547662,1.0
35.713584899902344,-18.18573570251465,0.5439528226852417,-0.0,-0.0,-1.0,0.1387419796376889,2.0
35.84297561645508,-18.242029190063477,0.5387380123138428,-0.0,-0.0,-1.0,0.25191825986546645,2.0
37.03484344482422,-18.104660034179688,0.11697447299957275,-0.0,-0.0,-1.0,0.23809312637284993,1.0
37.10894012451172,-17.440765380859375,0.1708155870437622,-0.0,-0.0,-1.0,0.23767305158756222,1.0
37.15669250488281,-17.150463104248047,0.19549095630645752,-0.0,-0.0,-1.0,0.14782226838205464,2.0
36.514320373535156,-17.071308135986328,-0.04632699489593506,-0.0,-0.0,-1.0,0.12367037158667951,1.0
35.875091552734375,-18.214675903320312,0.5982162356376648,-0.0,-0.0,-1.0,0.20986324279776722,1.0
36.53826904296875,-17.18584442138672,0.0215151309967041,-0.0,-0.0,-1.0,0.09767111050992186,1.0
37.70604705810547,-17.01763916015625,-0.07121586799621582,-0.0,-0.0,-1.0,0.15393223192802596,1.0
37.443359375,-16.501319885253906,-0.049515366554260254,-0.0,-0.0,-1.0,0.24428338712734357,1.0
37.60253143310547,-17.068544387817383,-0.03986024856567383,-0.0,-0.0,-1.0,0.1398752201803607,1.0
37.376888275146484,-16.819232940673828,-0.02154219150543213,-0.0,-0.0,-1.0,0.18423986315281782,1.0
35.73320007324219,-18.14571762084961,0.5492724180221558,-0.0,-0.0,-1.0,0.18356563543692797,2.0
37.54373550415039,-17.066049575805664,-0.07073569297790527,-0.0,-0.0,-1.0,0.12600140264240528,1.0
36.83684158325195,-18.35573959350586,0.6442466378211975,-0.0,-0.0,-1.0,0.14469744607132087,1.0
37.18060302734375,-16.459495544433594,-0.11766695976257324,-0.0,-0.0,-1.0,0.2033343560019072,1.0
35.73298645019531,-17.176679611206055,0.05400395393371582,0.7588536701595067,0.5535596916015937,0.3430929540509321,0.04668723179561475,3.0
37.121307373046875,-16.436628341674805,0.03139603137969971,-0.0,-0.0,-1.0,0.12149021149979543,2.0
37.32352066040039,-16.791887283325195,0.0018520355224609375,-0.0,-0.0,-1.0,0.24342290366442926,2.0
37.53137969970703,-17.137767791748047,-0.027515888214111328,-0.0,-0.0,-1.0,0.14872696384618106,1.0
37.07999801635742,-16.588041305541992,0.061794161796569824,-0.0,-0.0,-1.0,0.19441619885692743,1.0
37.15279006958008,-16.833885192871094,0.04439711570739746,-0.0,-0.0,-1.0,0.19686132861619351,2.0
37.27642822265625,-16.914743423461914,0.033141136169433594,0.17289375097707246,-0.5376815359297882,-0.8252310687275789,0.21798000819388577,3.0
37.473350524902344,-17.206342697143555,0.006276249885559082,-0.0,-0.0,-1.0,0.15124421971185484,2.0
35.71730041503906,-18.00054931640625,0.10885584354400635,-0.0,-0.0,-1.0,0.12290165020202738,1.0
36.023216247558594,-17.767578125,0.1074533462524414,-0.0,-0.0,-1.0,0.16024973320734476,2.0
36.30288314819336,-17.887752532958984,0.08787322044372559,-0.0,-0.0,-1.0,0.11523736384315836,1.0
37.20041275024414,-16.8299503326416,0.10243368148803711,0.0415129788466794,0.9271100424081967,-0.37248307592848684,0.277391071733046,3.0
37.50099563598633,-17.101728439331055,0.07280826568603516,-0.0,-0.0,-1.0,0.17196686602706593,1.0
37.23582077026367,-16.831607818603516,0.03935420513153076,-0.0,-0.0,-1.0,0.24214519238389423,2.0
37.478515625,-17.238439559936523,0.005524277687072754,-0.0,-0.0,-1.0,0.14608972811081167,2.0
35.837486267089844,-18.237953186035156,0.5578522682189941,-0.0,-0.0,-1.0,0.2157447653505967,2.0
35.998374938964844,-18.16513442993164,0.5542162656784058,-0.0,-0.0,-1.0,0.14744011782733024,1.0
37.311798095703125,-17.610912322998047,0.5208173990249634,-0.0,-0.0,-1.0,0.15483988340292615,1.0
36.03886413574219,-17.395984649658203,0.005379796028137207,-0.0,-0.0,-1.0,0.08673627945413756,1.0
37.15696716308594,-16.82959747314453,0.016665101051330566,-0.0,-0.0,-1.0,0.1982461319004366,2.0
37.286224365234375,-16.875829696655273,0.009839177131652832,0.17289375097707246,-0.5376815359297882,-0.8252310687275789,0.22510867533942275,3.0
37.39659118652344,-17.186330795288086,-0.015035033226013184,-0.0,-0.0,-1.0,0.16730019216255068,1.0
35.822509765625,-18.244367599487305,0.6728780269622803,-0.0,-0.0,-1.0,0.20064562617268622,1.0
35.715415954589844,-18.32844352722168,0.3842703104019165,-0.0,-0.0,-1.0,0.20544495852102512,1.0
35.931148529052734,-18.173673629760742,0.38394612073898315,-0.0,-0.0,-1.0,0.15539953399383585,2.0
36.28730010986328,-18.17552947998047,0.3691897392272949,-0.0,-0.0,-1.0,0.24854792537333786,1.0
37.11456298828125,-17.42416000366211,0.37505602836608887,-0.0,-0.0,-1.0,0.23899178517049083,1.0
37.37510299682617,-17.379112243652344,0.3660776615142822,-0.0,-0.0,-1.0,0.15260112362086767,2.0
36.76661682128906,-17.365121841430664,-0.05563712120056152,-0.0,-0.0,-1.0,0.074680664687102,2.0
37.23211669921875,-16.765073776245117,-0.011022210121154785,-0.9517506723917697,0.29466070410573997,-0.08570721706906667,0.27086865243713365,4.0
35.878753662109375,-18.352842330932617,0.5211108326911926,-0.0,-0.0,-1.0,0.23015172475031676,2.0
37.12983703613281,-17.431161880493164,0.5511093139648438,0.201475463409004,-0.8067978424571403,-0.5554141509276033,0.22378962461929316,3.0
35.94624710083008,-17.277910232543945,-0.018274307250976562,-0.0,-0.0,-1.0,0.03793307902677533,2.0
36.002288818359375,-17.29831886291504,-0.01981985569000244,-0.0,-0.0,-1.0,0.06602079440533526,2.0
36.76218795776367,-17.362016677856445,-0.0256577730178833,-0.0,-0.0,-1.0,0.09401182427960916,2.0
37.08121109008789,-16.43412971496582,0.04677724838256836,-0.0,-0.0,-1.0,0.12183851440765316,2.0
37.213462829589844,-16.781801223754883,0.01856052875518799,-0.8226234965203726,0.5075450249082689,-0.2562979333967811,0.2376443444725072,4.0
37.41157913208008,-17.052284240722656,-0.004052162170410156,-0.0,-0.0,-1.0,0.1568634540820851,1.0
35.819854736328125,-18.309017181396484,0.5275802612304688,-0.0,-0.0,-1.0,0.2463835623335115,2.0
37.112586975097656,-17.4395751953125,0.5570731163024902,0.201475463409004,-0.8067978424571403,-0.5554141509276033,0.22378962461929314,3.0
37.2310676574707,-16.676158905029297,-0.10728132724761963,-0.0,-0.0,-1.0,0.2290331797395229,2.0
36.93629455566406,-16.888111114501953,-0.12152230739593506,-0.0,-0.0,-1.0,0.17389108443768092,1.0
37.39651870727539,-16.662033081054688,-0.10918247699737549,-0.0,-0.0,-1.0,0.20550717189538312,1.0
35.87435531616211,-18.1583309173584,0.37811434268951416,-0.0,-0.0,-1.0,0.15039398328676337,1.0
36.33906555175781,-18.00257682800293,0.37808239459991455,-0.0,-0.0,-1.0,0.18813129210058846,1.0
36.26918411254883,-18.252826690673828,0.3650935888290405,-0.0,-0.0,-1.0,0.19470521889617745,1.0
37.298057556152344,-17.252195358276367,0.40083539485931396,-0.0,-0.0,-1.0,0.13572054793120206,1.0
37.2877197265625,-17.367456436157227,0.3944118618965149,-0.0,-0.0,-1.0,0.2521443548689375,1.0
36.75837707519531,-17.994997024536133,0.369873046875,-0.0,-0.0,-1.0,0.23627528107348758,1.0
36.00885009765625,-18.283349990844727,0.9704315662384033,-0.0,-0.0,-1.0,0.1850773192985786,2.0
37.249481201171875,-16.499563217163086,-0.0441204309463501,-0.0,-0.0,-1.0,0.20900814928157888,1.0
37.3613395690918,-16.7343807220459,-0.06922733783721924,-0.0,-0.0,-1.0,0.17952825611954767,1.0
35.988243103027344,-18.037046432495117,0.4043727517127991,-0.0,-0.0,-1.0,0.19744419593391452,1.0
35.809364318847656,-18.223182678222656,0.39809662103652954,-0.0,-0.0,-1.0,0.20635692258950003,1.0
36.153743743896484,-18.04071617126465,0.3998534679412842,-0.0,-0.0,-1.0,0.2122293017127893,2.0
36.09357833862305,-18.297569274902344,0.38646066188812256,0.6546234686135147,0.7452241099273944,-0.12692178821358033,0.1500759249182867,3.0
37.22269821166992,-17.511215209960938,0.4009028673171997,-0.0,-0.0,-1.0,0.20568221991642793,1.0
36.344085693359375,-16.979930877685547,0.09260284900665283,-0.0,-0.0,-1.0,0.1963637005380362,1.0
36.128963470458984,-17.348419189453125,0.06283426284790039,-0.0,-0.0,-1.0,0.1618944824357354,1.0
35.75565719604492,-17.662017822265625,0.03870749473571777,-0.4788012456961153,-0.861430659443496,-0.16937114893213617,0.07169069181678456,3.0
37.247989654541016,-16.835521697998047,0.09386897087097168,0.2593301179158099,0.9261211569465031,-0.2739479742539498,0.2579785642425785,4.0
35.96885299682617,-17.837745666503906,0.02207040786743164,-0.0,-0.0,-1.0,0.14135764863280942,1.0
37.549556732177734,-17.15666389465332,0.0612105131149292,-0.0,-0.0,-1.0,0.19483315551718067,1.0
36.72321319580078,-17.560901641845703,0.038339853286743164,-0.0,-0.0,-1.0,0.07659979893762259,1.0
35.78900909423828,-18.187850952148438,0.5350350141525269,-0.0,-0.0,-1.0,0.22605098913293206,1.0
37.1441764831543,-17.43047332763672,0.5553107261657715,0.201475463409004,-0.8067978424571403,-0.5554141509276033,0.22378962461929316,3.0
35.842472076416016,-17.14960289001465,0.012050628662109375,-0.0,-0.0,-1.0,0.037127703736739716,1.0
36.32489776611328,-16.981197357177734,0.02956211566925049,-0.0,-0.0,-1.0,0.18700067370609386,1.0
36.274436950683594,-17.0030517578125,0.02741396427154541,-0.0,-0.0,-1.0,0.1772384110283009,1.0
37.392478942871094,-16.961673736572266,0.031546711921691895,-0.0,-0.0,-1.0,0.23743719096020513,1.0
37.539039611816406,-17.228858947753906,0.006966233253479004,-0.0,-0.0,-1.0,0.18755542552017285,1.0
35.7584228515625,-16.440397262573242,0.07484900951385498,-0.0,-0.0,-1.0,0.0396423318994843,1.0
37.21403121948242,-16.762788772583008,0.04987227916717529,-0.0,-0.0,-1.0,0.25243385232092047,2.0
35.71038055419922,-18.05023193359375,0.45717161893844604,-0.0,-0.0,-1.0,0.11579185233944149,1.0
37.33964157104492,-17.529592514038086,0.48539137840270996,-0.0,-0.0,-1.0,0.14878957630138032,1.0
36.2574462890625,-18.220672607421875,0.4487406015396118,-0.0,-0.0,-1.0,0.18816090494274337,2.0
35.93484878540039,-18.22727394104004,0.4479826092720032,-0.0,-0.0,-1.0,0.18982253822799372,1.0
36.26523971557617,-17.26015853881836,0.006045937538146973,-0.0,-0.0,-1.0,0.04489708676266093,2.0
36.161651611328125,-18.149463653564453,0.40006524324417114,-0.0,-0.0,-1.0,0.18972137113845924,1.0
36.00784683227539,-18.21259117126465,0.4031575322151184,-0.0,-0.0,-1.0,0.20417680212018285,2.0
36.47376251220703,-18.340782165527344,0.37559306621551514,-0.0,-0.0,-1.0,0.10944469741454586,1.0
36.094669342041016,-17.930461883544922,0.8749812841415405,-0.0,-0.0,-1.0,0.16745975941316824,2.0
35.83342742919922,-17.98421287536621,0.3923732042312622,-0.0,-0.0,-1.0,0.27332483026145216,1.0
36.07786178588867,-18.29104232788086,0.3437226414680481,-0.0,-0.0,-1.0,0.13249770476744216,2.0
37.34800338745117,-16.6729736328125,0.03595781326293945,-0.0,-0.0,-1.0,0.26244231906730126,1.0
37.56520080566406,-16.69853973388672,0.4201013445854187,-0.0,-0.0,-1.0,0.14152497631385838,1.0
37.70481491088867,-17.02368927001953,0.39825958013534546,-0.0,-0.0,-1.0,0.21130218186114264,1.0
36.68006134033203,-18.146198272705078,0.20699751377105713,-0.0,-0.0,-1.0,0.19421466219883032,1.0
36.04560852050781,-17.88452911376953,0.2479790449142456,-0.0,-0.0,-1.0,0.22430006146352566,2.0
35.92829132080078,-17.87938690185547,0.2525796890258789,-0.0,-0.0,-1.0,0.22859967556291122,1.0
35.91267395019531,-18.08350944519043,0.2399533987045288,-0.0,-0.0,-1.0,0.13783404723342957,1.0
36.09410858154297,-18.1695556640625,0.5113840699195862,-0.0,-0.0,-1.0,0.19568940800730003,1.0
36.03343200683594,-18.217662811279297,0.4115542769432068,0.24119455851034982,0.9577874167669853,-0.15642394071184426,0.20417680212018294,3.0
36.37368392944336,-18.352954864501953,0.37969911098480225,-0.0,-0.0,-1.0,0.13265090004027108,1.0
37.35615539550781,-16.949771881103516,0.19516587257385254,-0.49452032425688475,-0.029808270853537523,-0.8686547737079374,0.18046419166911437,3.0
37.16926574707031,-16.70883560180664,-0.0942692756652832,-0.0,-0.0,-1.0,0.2423427795287939,1.0
37.221351623535156,-16.906057357788086,-0.0735466480255127,-0.6053635013955727,-0.48680515917968636,-0.6297267408758602,0.18997247328704409,3.0
37.296791076660156,-16.801197052001953,-0.08159685134887695,-0.0,-0.0,-1.0,0.17559684607510037,1.0
35.71459197998047,-17.945852279663086,0.2734249234199524,-0.0,-0.0,-1.0,0.178096120721149,1.0
36.05320739746094,-18.007200241088867,0.24773192405700684,-0.6604571584853255,0.14214509865597727,-0.7372863166596622,0.1312018357895297,3.0
36.186920166015625,-17.873632431030273,0.23501455783843994,-0.0,-0.0,-1.0,0.2236544293025637,2.0
37.24473571777344,-17.059114456176758,0.1378270387649536,-0.0,-0.0,-1.0,0.24178367439090112,2.0
37.404354095458984,-16.647497177124023,0.11826503276824951,-0.0,-0.0,-1.0,0.20024029457155162,1.0
35.72545623779297,-17.994033813476562,0.3468015193939209,-0.0,-0.0,-1.0,0.1638606113649476,2.0
36.20298767089844,-18.230632781982422,0.31271523237228394,-0.0,-0.0,-1.0,0.1897579952322064,2.0
35.924354553222656,-17.989364624023438,0.33111709356307983,-0.0,-0.0,-1.0,0.19640629009112953,2.0
36.22534942626953,-18.039981842041016,0.3081890940666199,-0.0,-0.0,-1.0,0.2349248708089312,1.0
37.15800476074219,-17.141578674316406,0.22134482860565186,-0.0,-0.0,-1.0,0.1576089454073314,2.0
37.29207992553711,-17.134674072265625,0.21061575412750244,-0.0,-0.0,-1.0,0.2113834111049533,1.0
37.338932037353516,-16.906658172607422,0.20349156856536865,-0.49452032425688475,-0.029808270853537523,-0.8686547737079374,0.20230127605794612,3.0
37.67809295654297,-17.001224517822266,0.177978515625,-0.0,-0.0,-1.0,0.1987370193731075,1.0
35.97077941894531,-18.27774429321289,0.730350136756897,-0.0,-0.0,-1.0,0.2070776463068927,2.0
36.15424728393555,-18.233108520507812,0.7330073118209839,-0.0,-0.0,-1.0,0.16805874806461718,1.0
35.913551330566406,-18.070880889892578,0.32150930166244507,-0.0,-0.0,-1.0,0.15197562080036217,2.0
36.13932418823242,-17.764389038085938,0.3303449749946594,-0.0,-0.0,-1.0,0.20455430662649765,1.0
36.050167083740234,-18.016071319580078,0.3224540948867798,-0.0,-0.0,-1.0,0.14214175915377683,1.0
36.55083465576172,-17.882492065429688,0.3235361576080322,-0.0,-0.0,-1.0,0.14729030642970814,1.0
36.78364562988281,-17.83145523071289,0.3236185908317566,-0.0,-0.0,-1.0,0.17987490567791234,1.0
37.17792892456055,-18.344898223876953,0.3035954236984253,-0.0,-0.0,-1.0,0.15747302555130704,1.0
37.316036224365234,-17.97539520263672,0.3149636387825012,-0.0,-0.0,-1.0,0.11727304169099657,1.0
37.63897705078125,-17.25079345703125,0.3366888761520386,-0.0,-0.0,-1.0,0.12695045127042473,1.0
36.83830642700195,-16.474796295166016,-0.03215169906616211,-0.0,-0.0,-1.0,0.12605749591467755,2.0
37.18822479248047,-16.885047912597656,-0.05794262886047363,-0.0,-0.0,-1.0,0.16364461811614112,2.0
36.16651153564453,-17.939760208129883,0.8640488386154175,-0.0,-0.0,-1.0,0.22320120981794977,1.0
37.29468536376953,-16.891910552978516,0.022089362144470215,0.17289375097707246,-0.5376815359297882,-0.8252310687275789,0.19301941009914092,3.0
37.202293395996094,-16.996959686279297,0.02466762065887451,-0.0,-0.0,-1.0,0.18373736348669958,1.0
36.023704528808594,-18.21228790283203,0.9709569811820984,-0.0,-0.0,-1.0,0.17254525457970732,2.0
35.7174072265625,-18.022705078125,0.2916487455368042,-0.0,-0.0,-1.0,0.17607132895368774,2.0
36.02532958984375,-18.03856086730957,0.2666585445404053,-0.5526669405157463,-0.011632681226923028,-0.8333210267288576,0.15187644891549165,3.0
37.382911682128906,-16.734725952148438,0.15606725215911865,-0.0,-0.0,-1.0,0.20575214145661627,2.0
37.29975509643555,-16.99625587463379,0.1629018783569336,-0.0,-0.0,-1.0,0.19659738028563647,2.0
37.233985900878906,-17.289997100830078,0.16827964782714844,-0.4030866433723728,-0.17460070020650184,-0.898351686936799,0.177078255789568,3.0
37.25288391113281,-18.303924560546875,0.16649305820465088,-0.0,-0.0,-1.0,0.19761412909348894,1.0
37.7020378112793,-16.90228271484375,0.12978851795196533,-0.0,-0.0,-1.0,0.16063240796183142,2.0
35.98423385620117,-17.92755889892578,0.2051299810409546,-0.0,-0.0,-1.0,0.1341369324456387,2.0
36.29811477661133,-18.20438003540039,0.17946410179138184,-0.0,-0.0,-1.0,0.17731529245371547,1.0
37.3100471496582,-16.800764083862305,0.11480998992919922,-0.0,-0.0,-1.0,0.18922121401997077,1.0
37.24044418334961,-17.065797805786133,0.11801695823669434,-0.825541212732971,0.5642243884886616,-0.011512841264070223,0.23289158828647633,3.0
37.32924270629883,-17.48786163330078,0.10804998874664307,-0.0,-0.0,-1.0,0.1389232234236401,1.0
35.88166046142578,-17.96244239807129,0.31124091148376465,-0.0,-0.0,-1.0,0.1777702877125659,2.0
36.22354507446289,-17.963544845581055,0.2824310064315796,-0.0,-0.0,-1.0,0.261287262606155,1.0
36.169342041015625,-18.237815856933594,0.28632164001464844,-0.0,-0.0,-1.0,0.17956286049386325,2.0
37.22761154174805,-17.095783233642578,0.1991201639175415,-0.0,-0.0,-1.0,0.1930876869933066,2.0
37.36704635620117,-16.908462524414062,0.18754816055297852,-0.49452032425688475,-0.029808270853537523,-0.8686547737079374,0.16781937896654986,3.0
35.72105026245117,-18.150236129760742,0.2507869005203247,-0.0,-0.0,-1.0,0.23318756041367855,1.0
35.85771942138672,-17.8983211517334,0.25189530849456787,-0.0,-0.0,-1.0,0.24856339758458723,1.0
35.895240783691406,-18.023454666137695,0.24361419677734375,-0.0,-0.0,-1.0,0.17444328700187375,1.0
36.21273422241211,-17.922225952148438,0.2246612310409546,-0.0,-0.0,-1.0,0.20820515708201168,1.0
36.19409942626953,-18.085254669189453,0.21893084049224854,-0.0,-0.0,-1.0,0.21327493096715916,1.0
37.20569610595703,-17.272647857666016,0.17760121822357178,-0.4030866433723728,-0.17460070020650184,-0.898351686936799,0.1695425637050089,3.0
37.21583557128906,-17.405420303344727,0.17127275466918945,-0.0,-0.0,-1.0,0.25660815376665935,1.0
37.101322174072266,-18.300312042236328,0.14204680919647217,-0.0,-0.0,-1.0,0.1718412968027592,1.0
37.28607177734375,-17.076602935791016,0.1795889139175415,-0.0,-0.0,-1.0,0.1844097729497389,1.0
35.905189514160156,-17.5833797454834,0.06252610683441162,-0.0,-0.0,-1.0,0.06995509100603008,2.0
37.211753845214844,-16.80210304260254,-0.02042973041534424,-0.8265763475031225,0.5132329771978782,-0.23100530917058934,0.20659931978867552,3.0
35.84545135498047,-18.172266006469727,0.72557532787323,-0.0,-0.0,-1.0,0.13921511963747266,1.0
36.080299377441406,-18.152894973754883,0.7093712091445923,-0.0,-0.0,-1.0,0.2103884419399724,2.0
36.0616569519043,-18.267955780029297,0.3956962823867798,-0.05531257224693772,0.24245142007096862,-0.9685854780333009,0.1818367793457871,3.0
36.3421745300293,-18.210630416870117,0.3611406087875366,-0.0,-0.0,-1.0,0.18969131904915798,2.0
36.92285919189453,-18.11253547668457,0.2889624834060669,-0.0,-0.0,-1.0,0.25829360292438547,1.0
37.25823974609375,-17.26702880859375,0.2493048906326294,-0.0,-0.0,-1.0,0.1592832695462282,1.0
37.26690673828125,-17.52981948852539,0.24748635292053223,-0.0,-0.0,-1.0,0.19783146160117662,2.0
37.39167022705078,-16.828269958496094,0.23322224617004395,-0.0,-0.0,-1.0,0.23831578115468502,1.0
37.369598388671875,-17.094585418701172,0.23550403118133545,-0.0,-0.0,-1.0,0.22229540463243808,2.0
35.82305145263672,-17.27118682861328,0.06483578681945801,0.5405189649475522,0.5836414572453924,-0.6059718623141686,0.05173250917994386,3.0
35.805625915527344,-17.344890594482422,0.0627967119216919,-0.0,-0.0,-1.0,0.06530746286821167,1.0
37.25019454956055,-16.756446838378906,-0.06450915336608887,-0.0,-0.0,-1.0,0.24672427126455806,2.0
36.00462341308594,-18.06904411315918,0.6193684339523315,-0.3236845320781849,0.03536339449374893,-0.9455039682747005,0.18671236224997792,3.0
35.928688049316406,-18.280277252197266,0.620282769203186,-0.0,-0.0,-1.0,0.23267585010434394,1.0
36.90892791748047,-18.127748489379883,0.5417594909667969,-0.0,-0.0,-1.0,0.21053337910725,2.0
35.976837158203125,-17.805212020874023,0.13912928104400635,-0.0,-0.0,-1.0,0.20344147655091221,1.0
36.15380859375,-17.939912796020508,0.11474168300628662,-0.0,-0.0,-1.0,0.16988913334907943,1.0
36.22412872314453,-17.71045684814453,0.12351953983306885,-0.0,-0.0,-1.0,0.15325629254105097,1.0
36.54817581176758,-17.386024475097656,0.1152498722076416,-0.0,-0.0,-1.0,0.10982645652650504,1.0
37.1971549987793,-16.435619354248047,0.11324238777160645,-0.0,-0.0,-1.0,0.24194105882273656,1.0
37.243770599365234,-17.034461975097656,0.07282865047454834,-0.44048401212062704,0.897413351099326,-0.02496221814649709,0.1845696343237331,3.0
37.281463623046875,-17.436738967895508,0.04468429088592529,-0.0,-0.0,-1.0,0.1934336213837833,2.0
37.36037826538086,-16.763858795166016,0.07815277576446533,-0.0,-0.0,-1.0,0.2162223292968783,2.0
35.951866149902344,-18.1318302154541,0.697158932685852,-0.0,-0.0,-1.0,0.1847722259362503,1.0
36.227909088134766,-17.348552703857422,0.16354894638061523,-0.0,-0.0,-1.0,0.26133117678951234,1.0
36.27095413208008,-17.676179885864258,0.13834083080291748,-0.0,-0.0,-1.0,0.11010896674177378,1.0
36.1192512512207,-17.91095733642578,0.13767027854919434,-0.0,-0.0,-1.0,0.17996643848721394,1.0
36.68153381347656,-17.179019927978516,0.1295173168182373,-0.0,-0.0,-1.0,0.1980111739686554,2.0
37.26154327392578,-16.853862762451172,0.09087061882019043,0.5325971685463554,0.5046532808867081,-0.6794595809514249,0.19920770565076173,3.0
37.27322769165039,-17.12799835205078,0.07330334186553955,0.1655380629834405,0.48820880643183634,-0.8568834874276033,0.23954508525588286,3.0
37.23579025268555,-17.43799591064453,0.05827617645263672,-0.15988878933751158,0.9827839958184373,-0.09258073561671248,0.20795362489506292,4.0
36.924617767333984,-17.998788833618164,0.054146766662597656,-0.0,-0.0,-1.0,0.15099414451669138,1.0
37.346099853515625,-16.564672470092773,0.09922444820404053,-0.0,-0.0,-1.0,0.2016954678958774,1.0
37.42509460449219,-16.770427703857422,0.07902097702026367,-0.0,-0.0,-1.0,0.27666257522571885,1.0
37.36431884765625,-17.104148864746094,0.0654984712600708,-0.7168668309987417,0.2137262198267956,-0.6636437670711369,0.2550206588426378,3.0
36.01903533935547,-17.982227325439453,0.6835067272186279,-0.0,-0.0,-1.0,0.10710336612066189,1.0
37.02173614501953,-18.006010055541992,0.6092381477355957,-0.0,-0.0,-1.0,0.1537725619331366,1.0
35.94561004638672,-17.764150619506836,0.28285229206085205,-0.0,-0.0,-1.0,0.23467932679904102,1.0
35.82163619995117,-18.025936126708984,0.27677226066589355,-0.0,-0.0,-1.0,0.2914426404903204,1.0
35.7177734375,-18.215333938598633,0.27339231967926025,-0.0,-0.0,-1.0,0.20780424824725505,1.0
36.3476448059082,-17.76859474182129,0.2461796998977661,-0.0,-0.0,-1.0,0.14272952757090035,1.0
36.347930908203125,-17.953500747680664,0.2343308925628662,-0.0,-0.0,-1.0,0.1557439238281172,2.0
37.434165954589844,-16.77433967590332,0.20405399799346924,-0.0,-0.0,-1.0,0.23721912803969677,2.0
37.38269805908203,-17.068378448486328,0.1920166015625,-0.45117493816259396,-0.8405094355311635,-0.2999751055622182,0.25575671159473384,4.0
37.370609283447266,-17.396617889404297,0.1738041639328003,-0.0,-0.0,-1.0,0.2165261198964542,1.0
37.168792724609375,-18.214096069335938,0.14274966716766357,-0.0,-0.0,-1.0,0.20615385037067446,1.0
37.552459716796875,-17.04383087158203,0.17710721492767334,-0.0,-0.0,-1.0,0.17326119894648867,1.0
35.979774475097656,-18.03973960876465,0.7770019769668579,-0.0,-0.0,-1.0,0.13891856337142564,1.0
35.984657287597656,-18.273582458496094,0.7673348188400269,-0.0,-0.0,-1.0,0.19349550440372826,2.0
35.76124572753906,-17.214359283447266,0.05229389667510986,0.9811204983978523,0.18297756146211358,0.0626241137656161,0.0610327216037368,4.0
35.972694396972656,-17.27442169189453,0.02377796173095703,-0.0,-0.0,-1.0,0.07430001409259818,2.0
35.85045623779297,-17.96994400024414,0.4787646532058716,-0.0,-0.0,-1.0,0.1964269326489132,2.0
36.26520919799805,-18.060142517089844,0.43838369846343994,-0.0,-0.0,-1.0,0.17886433065209226,1.0
36.10634231567383,-18.248275756835938,0.4422018527984619,-0.0,-0.0,-1.0,0.1974887335671255,1.0
36.090904235839844,-17.880664825439453,0.25392770767211914,-0.0,-0.0,-1.0,0.2140558908359228,2.0
35.756019592285156,-17.916370391845703,0.2894819974899292,-0.0,-0.0,-1.0,0.17013982659149338,1.0
37.29094696044922,-16.804954528808594,0.17972266674041748,-0.0,-0.0,-1.0,0.22100413157706197,1.0
37.254661560058594,-16.87535858154297,0.18047940731048584,-0.0,-0.0,-1.0,0.19711921179758296,1.0
36.19719696044922,-17.76671600341797,0.25075244903564453,-0.0,-0.0,-1.0,0.2596879201841384,1.0
37.703521728515625,-16.863685607910156,0.1334749460220337,-0.0,-0.0,-1.0,0.1935738023312322,2.0
37.25484848022461,-17.11577606201172,0.1697911024093628,-0.0,-0.0,-1.0,0.23402859073477955,2.0
36.93766784667969,-17.609806060791016,0.18064355850219727,-0.0,-0.0,-1.0,0.09820534215726989,1.0
37.44050979614258,-17.390962600708008,0.13783347606658936,-0.0,-0.0,-1.0,0.20659502836189175,1.0
37.3912353515625,-17.50470542907715,0.5747861862182617,-0.0,-0.0,-1.0,0.16036249149148338,1.0
35.835899353027344,-17.925512313842773,0.0778660774230957,-0.0,-0.0,-1.0,0.1717068320402113,1.0
35.79023742675781,-17.11273956298828,0.040169477462768555,-0.0,-0.0,-1.0,0.03712770373673972,1.0
35.88236618041992,-17.387380599975586,0.0386505126953125,-0.0,-0.0,-1.0,0.06849566490887646,1.0
36.05038070678711,-16.971900939941406,-0.01908278465270996,0.9513800170270397,-0.2685142391288448,-0.1509177477524994,0.04544265315542496,3.0
36.15644454956055,-18.150354385375977,0.5216305255889893,-0.0,-0.0,-1.0,0.28456434516646517,1.0
37.384063720703125,-17.20732307434082,0.27315568923950195,-0.0,-0.0,-1.0,0.1887505349272015,1.0
37.46870040893555,-17.490074157714844,0.27663707733154297,-0.0,-0.0,-1.0,0.11778160025659022,1.0
37.4531364440918,-16.78659439086914,0.23628664016723633,-0.0,-0.0,-1.0,0.2707659287191036,2.0
37.534053802490234,-16.919031143188477,0.2317371368408203,-0.0,-0.0,-1.0,0.21914820088931616,2.0
35.83503723144531,-18.074913024902344,0.5683224201202393,-0.0,-0.0,-1.0,0.20946395123175163,2.0
35.81462097167969,-17.612031936645508,0.12127852439880371,-0.0,-0.0,-1.0,0.13529198700654196,1.0
35.85493469238281,-17.80485725402832,0.12641072273254395,-0.0,-0.0,-1.0,0.234128749589692,2.0
35.88777160644531,-17.12216567993164,0.0722346305847168,-0.0,-0.0,-1.0,0.06086207894337901,1.0
36.21330642700195,-17.286455154418945,0.02086496353149414,-0.0,-0.0,-1.0,0.04671976474695625,1.0
36.26080322265625,-17.514291763305664,0.02774524688720703,-0.0,-0.0,-1.0,0.04159617377273997,2.0
36.37964630126953,-17.03729820251465,-0.02990865707397461,-0.0,-0.0,-1.0,0.1878883166528659,2.0
36.502777099609375,-16.882678985595703,-0.06560540199279785,-0.0,-0.0,-1.0,0.15585941556866986,1.0
35.832420349121094,-18.048002243041992,0.6164929866790771,-0.0,-0.0,-1.0,0.18523102228981347,2.0
35.96454620361328,-17.96553611755371,0.5901830196380615,-0.0,-0.0,-1.0,0.14493507196203304,1.0
37.289634704589844,-17.394210815429688,0.3411586284637451,-0.0,-0.0,-1.0,0.24607415356716134,1.0
37.3892822265625,-16.784423828125,0.28045153617858887,-0.0,-0.0,-1.0,0.18598766147817694,2.0
37.43760681152344,-17.060001373291016,0.2934300899505615,-0.0,-0.0,-1.0,0.160634717868635,1.0
35.799903869628906,-18.117856979370117,0.4027876853942871,-0.0,-0.0,-1.0,0.25006461304735944,1.0
35.75901794433594,-17.696081161499023,0.38313722610473633,-0.0,-0.0,-1.0,0.1440141459323663,1.0
36.19422149658203,-17.87125587463379,0.31539392471313477,-0.0,-0.0,-1.0,0.21672225115365173,2.0
36.3941535949707,-16.8884220123291,0.2092456817626953,-0.0,-0.0,-1.0,0.11637432682984372,1.0
36.7454719543457,-17.091899871826172,0.1605701446533203,-0.0,-0.0,-1.0,0.21689407231521887,1.0
37.00603103637695,-17.45507049560547,0.13926410675048828,-0.0,-0.0,-1.0,0.16096830130207013,1.0
37.28166198730469,-17.462196350097656,0.08953094482421875,0.1042852971599368,0.14421947048482514,-0.9840352235206525,0.21694787120359044,3.0
37.27118682861328,-17.1367244720459,0.06793737411499023,0.1655380629834405,0.48820880643183634,-0.8568834874276033,0.24843435635805558,3.0
37.41307067871094,-17.26093864440918,0.051222801208496094,-0.0,-0.0,-1.0,0.16191414026054146,1.0
37.21923065185547,-16.690898895263672,0.04346132278442383,0.7504247726714198,0.6606105996917147,0.021361089298093758,0.2412446175352096,3.0
37.29132843017578,-16.7526912689209,0.03505516052246094,-0.0,-0.0,-1.0,0.2638299554041895,1.0
36.17464828491211,-18.115520477294922,0.8039060831069946,-0.0,-0.0,-1.0,0.23562476746482017,1.0
35.8906364440918,-18.322107315063477,0.8583093881607056,-0.0,-0.0,-1.0,0.1542518501466394,1.0
35.88219451904297,-17.87003517150879,0.09608697891235352,-0.6441040538583283,0.35789846657982216,-0.6760463411801589,0.20418829077809098,3.0
36.02356719970703,-17.461023330688477,0.040992021560668945,-0.0,-0.0,-1.0,0.07264280555435508,2.0
36.08182144165039,-17.594350814819336,0.03735852241516113,-0.0,-0.0,-1.0,0.09367822931876542,1.0
35.82795715332031,-17.20059585571289,0.06430554389953613,-0.0,-0.0,-1.0,0.059440110493930234,1.0
36.22499084472656,-17.20566177368164,-0.018517732620239258,-0.0,-0.0,-1.0,0.059937550520817104,2.0
36.33466339111328,-16.995155334472656,-0.05637550354003906,-0.0,-0.0,-1.0,0.13797995455773768,2.0
35.73711395263672,-17.54401206970215,0.10631656646728516,-0.0,-0.0,-1.0,0.07010669272716039,2.0
37.43837356567383,-17.456079483032227,0.25148701667785645,-0.0,-0.0,-1.0,0.15974000764910967,2.0
37.34672546386719,-17.146371841430664,0.24637556076049805,-0.9792080429269979,0.10721712266381155,0.17220945756482586,0.19591249553661383,3.0
37.4167366027832,-17.262292861938477,0.24228215217590332,-0.0,-0.0,-1.0,0.12911743026971262,1.0
37.15768814086914,-16.591035842895508,0.2388920783996582,-0.0,-0.0,-1.0,0.13066393265750317,1.0
37.30810546875,-16.777374267578125,0.22673869132995605,-0.0,-0.0,-1.0,0.25932098231562234,2.0
35.858211517333984,-18.167808532714844,0.568148136138916,-0.0,-0.0,-1.0,0.2192980008100069,1.0
35.74595260620117,-17.944210052490234,0.5746357440948486,-0.0,-0.0,-1.0,0.13758902413165536,1.0
36.00212860107422,-18.24298095703125,0.9976706504821777,-0.8568297597499025,0.18267195114792778,-0.48215528729936535,0.19317079144307056,3.0
35.860877990722656,-17.88686752319336,0.10748529434204102,-0.6441040538583283,0.35789846657982216,-0.6760463411801589,0.20997136234603794,3.0
36.14349365234375,-17.689651489257812,0.034594058990478516,-0.0,-0.0,-1.0,0.056853627187871736,1.0
36.0505485534668,-17.473464965820312,0.04406881332397461,-0.0,-0.0,-1.0,0.08585380882592779,2.0
36.19001388549805,-17.446136474609375,0.01112222671508789,-0.0,-0.0,-1.0,0.07006328094362517,1.0
37.41421127319336,-17.60347557067871,0.2152271270751953,-0.0,-0.0,-1.0,0.21060857852396137,1.0
36.333946228027344,-17.096107482910156,-0.04125213623046875,-0.0,-0.0,-1.0,0.10755560516228047,1.0
37.338592529296875,-17.15294075012207,0.20422029495239258,0.07145819742572673,-0.9842754893649631,0.161540976399265,0.21545644350543727,5.0
37.436439514160156,-17.314254760742188,0.19518828392028809,-0.0,-0.0,-1.0,0.11074123254351571,2.0
37.30882263183594,-16.752836227416992,0.18533563613891602,-0.0,-0.0,-1.0,0.19039541791411352,2.0
37.54894256591797,-16.834426879882812,0.14538049697875977,-0.0,-0.0,-1.0,0.23697635186643792,1.0
37.2364501953125,-16.554168701171875,0.18611693382263184,-0.0,-0.0,-1.0,0.18566565945513364,1.0
35.89203643798828,-18.15935516357422,0.5282487869262695,-0.0,-0.0,-1.0,0.23252207068093567,1.0
36.22752380371094,-18.24929428100586,0.46938347816467285,-0.0,-0.0,-1.0,0.17486872378075619,2.0
35.73430252075195,-17.891273498535156,0.5453610420227051,-0.0,-0.0,-1.0,0.13143399196545252,1.0
36.09697341918945,-17.893583297729492,0.8944036960601807,-0.0,-0.0,-1.0,0.22320120981794977,2.0
35.993412017822266,-17.8911190032959,0.026933670043945312,-0.0,-0.0,-1.0,0.16443394422292087,1.0
36.104347229003906,-17.678985595703125,-0.009308815002441406,-0.0,-0.0,-1.0,0.05883816879876098,1.0
36.041385650634766,-16.999652862548828,-0.026410818099975586,0.8700914610669669,-0.4623607262844522,-0.1707729725924583,0.04039254031880537,4.0
35.81322479248047,-18.077739715576172,0.2685072422027588,-0.0,-0.0,-1.0,0.2957491841268114,1.0
36.297691345214844,-18.115556716918945,0.3517732620239258,-0.0,-0.0,-1.0,0.23239112449681834,2.0
35.755340576171875,-17.669658660888672,0.07846426963806152,-0.4788012456961153,-0.861430659443496,-0.16937114893213617,0.07026708918494504,3.0
36.199012756347656,-17.823436737060547,0.36236071586608887,-0.0,-0.0,-1.0,0.17418798775564118,1.0
37.10376739501953,-17.73851776123047,0.1635901927947998,-0.0,-0.0,-1.0,0.13876329772368445,1.0
35.833553314208984,-17.30449867248535,0.04211902618408203,0.5405189649475522,0.5836414572453924,-0.6059718623141686,0.06336137974729406,3.0
37.245582580566406,-17.49810791015625,0.12249422073364258,-0.0,-0.0,-1.0,0.14501446855803754,2.0
37.35607147216797,-17.42486572265625,0.09514188766479492,-0.0,-0.0,-1.0,0.21509979419517025,1.0
35.94517135620117,-17.094064712524414,0.0031495094299316406,-0.0,-0.0,-1.0,0.05895224122179004,1.0
37.28392028808594,-16.957956314086914,0.08713746070861816,-0.0,-0.0,-1.0,0.17559174486692558,1.0
37.34617233276367,-17.114011764526367,0.0819239616394043,-0.7168668309987417,0.2137262198267956,-0.6636437670711369,0.2834557152768772,3.0
37.232704162597656,-16.657018661499023,0.08091259002685547,-0.0,-0.0,-1.0,0.1826149866789229,2.0
37.69465637207031,-16.75040626525879,-0.013239383697509766,-0.0,-0.0,-1.0,0.17479094917738053,1.0
36.03413772583008,-18.1529483795166,0.7885730266571045,-0.0,-0.0,-1.0,0.17678652790558572,1.0
35.720069885253906,-17.76769256591797,0.46355557441711426,-0.0,-0.0,-1.0,0.1371183524603685,1.0
35.91414260864258,-17.96124839782715,0.034173011779785156,-0.0,-0.0,-1.0,0.17951587196938282,1.0
35.740135192871094,-17.659114837646484,0.06782245635986328,-0.4788012456961153,-0.861430659443496,-0.16937114893213617,0.07026708918494504,3.0
35.907073974609375,-17.86393928527832,0.031325578689575195,-0.0,-0.0,-1.0,0.18992273287466233,1.0
35.79328536987305,-17.28103256225586,0.028801918029785156,0.5405189649475522,0.5836414572453924,-0.6059718623141686,0.06101360767002576,3.0
37.28306579589844,-17.488933563232422,0.011482000350952148,-0.0,-0.0,-1.0,0.21113925531692446,1.0
36.00665283203125,-17.05777359008789,-0.048207998275756836,-0.0,-0.0,-1.0,0.04459236948860992,2.0
36.041847229003906,-16.976606369018555,-0.06450557708740234,0.9513800170270397,-0.2685142391288448,-0.1509177477524994,0.03895606421393562,3.0
37.31637191772461,-17.09597396850586,-0.02300572395324707,-0.0,-0.0,-1.0,0.1945042187922821,1.0
37.231929779052734,-16.732027053833008,-0.02922987937927246,-0.9195245086012961,-0.19364258252218014,-0.3420193390960297,0.23437699326030859,3.0
37.3268928527832,-16.651166915893555,-0.0593266487121582,-0.0,-0.0,-1.0,0.22987915237096432,1.0
37.58123016357422,-16.41843032836914,-0.1417989730834961,-0.0,-0.0,-1.0,0.20483365918851268,1.0
36.098819732666016,-18.128578186035156,0.3411285877227783,-0.0,-0.0,-1.0,0.14087358254443916,2.0
36.0811767578125,-17.806533813476562,0.32953524589538574,-0.0,-0.0,-1.0,0.2174426315100328,1.0
36.89259338378906,-17.54510498046875,0.11242055892944336,-0.0,-0.0,-1.0,0.06889895010544923,1.0
37.35422134399414,-17.373376846313477,0.37852048873901367,-0.0,-0.0,-1.0,0.19021443609910207,2.0
36.36399841308594,-16.944129943847656,0.2032642364501953,-0.0,-0.0,-1.0,0.1528054500276543,1.0
36.696922302246094,-17.140785217285156,0.1346445083618164,-0.0,-0.0,-1.0,0.255168881952683,2.0
36.87431716918945,-17.138599395751953,0.09026432037353516,-0.0,-0.0,-1.0,0.10286242843817067,1.0
37.603614807128906,-17.04425621032715,0.3035304546356201,-0.0,-0.0,-1.0,0.15049278249662087,1.0
36.83674240112305,-16.48073387145996,0.04844784736633301,-0.0,-0.0,-1.0,0.11900020401964329,1.0
37.40070343017578,-16.789283752441406,0.32811808586120605,-0.0,-0.0,-1.0,0.2093232896681828,2.0
36.81025314331055,-16.37599754333496,0.04595828056335449,-0.0,-0.0,-1.0,0.11638002988499921,1.0
35.97633361816406,-18.040468215942383,0.7090821266174316,-0.0,-0.0,-1.0,0.1138895797686082,1.0
36.890525817871094,-17.61216163635254,0.037735939025878906,-0.0,-0.0,-1.0,0.06182921915168417,1.0
36.949363708496094,-17.436317443847656,0.008570671081542969,-0.0,-0.0,-1.0,0.05884556998690515,1.0
37.112308502197266,-17.357648849487305,-0.043914079666137695,-0.0,-0.0,-1.0,0.15097136845627773,1.0
37.20738220214844,-16.978853225708008,-0.10114908218383789,-0.0,-0.0,-1.0,0.16906281318083138,1.0
36.79880905151367,-16.524829864501953,-0.025482654571533203,-0.0,-0.0,-1.0,0.10263800532724851,2.0
37.0027961730957,-16.47736930847168,-0.08860182762145996,-0.0,-0.0,-1.0,0.10875265355831677,1.0
37.238243103027344,-16.695240020751953,-0.13521337509155273,-0.0,-0.0,-1.0,0.24058361519773,2.0
35.905189514160156,-18.110754013061523,0.3494110107421875,-0.0,-0.0,-1.0,0.12964433646450588,2.0
36.25856399536133,-17.958208084106445,0.24033808708190918,-0.0,-0.0,-1.0,0.2071285444006744,1.0
36.89947509765625,-18.071256637573242,0.402665376663208,-0.0,-0.0,-1.0,0.25697583733571033,2.0
35.86723709106445,-17.764238357543945,0.3415544033050537,-0.0,-0.0,-1.0,0.19412336894596993,1.0
36.227210998535156,-17.866498947143555,0.24419498443603516,0.19828872793689734,-0.9735157770108755,-0.11379196933034505,0.2509572362553226,3.0
37.34424591064453,-17.668413162231445,0.2677016258239746,-0.0,-0.0,-1.0,0.21288777162220673,1.0
36.61781311035156,-17.191137313842773,0.08566951751708984,-0.0,-0.0,-1.0,0.15528933505155287,2.0
37.40540313720703,-17.393192291259766,0.2336733341217041,-0.0,-0.0,-1.0,0.16078887560993516,1.0
37.51654052734375,-17.501249313354492,0.21350932121276855,-0.0,-0.0,-1.0,0.15542958301124238,1.0
36.33027267456055,-16.9482479095459,0.14818787574768066,-0.0,-0.0,-1.0,0.20930525126483115,1.0
36.560882568359375,-17.047874450683594,0.09030342102050781,-0.0,-0.0,-1.0,0.1641239827445524,1.0
37.38667297363281,-17.095394134521484,0.21607089042663574,-0.6310565983464318,-0.5655802237856725,-0.5309299201834254,0.27860402399962453,3.0
37.410743713378906,-16.704668045043945,0.17770648002624512,-0.0,-0.0,-1.0,0.18104424629861413,2.0
37.6770133972168,-16.77020835876465,0.1169900894165039,-0.0,-0.0,-1.0,0.19121006879854707,1.0
35.751548767089844,-18.159805297851562,0.6935381889343262,-0.0,-0.0,-1.0,0.1540693236287774,2.0
36.04560089111328,-18.032611846923828,0.765622615814209,-0.0,-0.0,-1.0,0.1804811044412557,1.0
37.16963577270508,-17.4149169921875,0.6386405229568481,-0.0,-0.0,-1.0,0.22503245550919446,1.0
35.92683410644531,-18.156917572021484,0.9485758543014526,-0.0,-0.0,-1.0,0.1545220428387086,1.0
