x,y,z,nx,ny,nz,curvature,density
19.058176040649414,30.481557846069336,-2.072371006011963,-0.0,-0.0,-1.0,0.027203315253940413,2.0
18.337366104125977,29.859149932861328,-1.8887052536010742,-0.0,-0.0,-1.0,0.06603747140939037,1.0
18.66338348388672,29.88399314880371,-1.9329862594604492,-0.0,-0.0,-1.0,0.2459989776852653,1.0
19.438199996948242,30.748233795166016,-2.1591758728027344,-0.6826214789826142,0.43386036478064877,-0.588041750476946,0.10940828136305107,3.0
18.033740997314453,31.041330337524414,-2.0349178314208984,-0.0,-0.0,-1.0,0.0978056521302201,1.0
19.684101104736328,31.258846282958984,-2.0314388275146484,-0.0,-0.0,-1.0,0.07968764749100618,1.0
19.48162841796875,31.29656219482422,-2.027981758117676,-0.0,-0.0,-1.0,0.11855740296588231,1.0
18.065532684326172,31.49243927001953,-1.9887752532958984,-0.0,-0.0,-1.0,0.13411620433495938,1.0
17.84493637084961,31.47675895690918,-1.9753799438476562,-0.0,-0.0,-1.0,0.14961315900869915,1.0
19.30278778076172,30.004762649536133,-2.124140501022339,-0.0,-0.0,-1.0,0.05530248008473292,1.0
19.560285568237305,31.00699234008789,-2.140881299972534,-0.0,-0.0,-1.0,0.12191906809098466,1.0
19.131855010986328,30.728092193603516,-2.0734260082244873,-0.0,-0.0,-1.0,0.09888588418638543,2.0
18.66736602783203,29.77538299560547,-1.885751485824585,-0.0,-0.0,-1.0,0.07476313437931484,1.0
18.372995376586914,29.788787841796875,-1.876310110092163,-0.0,-0.0,-1.0,0.057376435262475024,2.0
18.209096908569336,29.88060760498047,-1.8863160610198975,-0.0,-0.0,-1.0,0.09146510148742971,1.0
17.975685119628906,29.80353546142578,-1.8638641834259033,0.3550088177913695,-0.7021424152346913,-0.617223434437456,0.1530115873532243,3.0
18.096405029296875,29.847110748291016,-1.8761045932769775,-0.0,-0.0,-1.0,0.13071548484849818,1.0
19.45159912109375,30.882165908813477,-2.0451104640960693,-0.0,-0.0,-1.0,0.18617365525394694,1.0
18.838191986083984,30.765430450439453,-1.9946653842926025,-0.0,-0.0,-1.0,0.23514693903089284,1.0
18.687374114990234,31.194292068481445,-2.0604360103607178,-0.0,-0.0,-1.0,0.20434812606173886,1.0
18.26171112060547,31.121807098388672,-2.028874158859253,-0.0,-0.0,-1.0,0.05984753102501424,2.0
18.46564483642578,30.053455352783203,-1.8559706211090088,-0.0,-0.0,-1.0,0.1118529402500633,1.0
18.569015502929688,29.648466110229492,-1.9877715110778809,-0.5601371188736713,-0.8234479493336705,-0.09044270450442478,0.05459841091782334,3.0
18.32400894165039,31.583881378173828,-1.9037041664123535,-0.0,-0.0,-1.0,0.15505907061039115,1.0
18.002864837646484,31.230260848999023,-1.823349952697754,-0.0,-0.0,-1.0,0.056157745688622446,1.0
18.699359893798828,31.265071868896484,-1.7395734786987305,-0.0,-0.0,-1.0,0.20604310417453878,1.0
19.64502716064453,30.27926254272461,-1.6495261192321777,-0.0,-0.0,-1.0,0.10308766970117335,2.0
19.41118621826172,30.41024398803711,-1.9362304210662842,-0.0,-0.0,-1.0,0.19358501632184485,1.0
19.128490447998047,30.754981994628906,-1.9789340496063232,-0.0,-0.0,-1.0,0.14775324397748443,1.0
18.999404907226562,29.935192108154297,-1.8137919902801514,-0.0,-0.0,-1.0,0.10546742296564963,1.0
18.93842887878418,30.83254623413086,-1.979156732559204,-0.0,-0.0,-1.0,0.22377722955051071,1.0
18.843505859375,30.921173095703125,-1.9889333248138428,-0.0,-0.0,-1.0,0.1431867705622584,1.0
18.316659927368164,31.131118774414062,-1.9913804531097412,-0.0,-0.0,-1.0,0.04658121836517862,1.0
18.13650894165039,31.136749267578125,-1.9801104068756104,-0.0,-0.0,-1.0,0.11194509866286026,2.0
19.173038482666016,30.884979248046875,-2.1187827587127686,-0.0,-0.0,-1.0,0.06865863585351654,1.0
19.17749786376953,29.72385025024414,-1.8891069889068604,-0.0,-0.0,-1.0,0.1945803701844403,1.0
18.74230194091797,29.937213897705078,-1.888737440109253,-0.0,-0.0,-1.0,0.21594583704429668,2.0
18.966753005981445,30.646644592285156,-2.0515658855438232,-0.0,-0.0,-1.0,0.13493361946401228,2.0
18.29395294189453,29.69919204711914,-1.7991454601287842,-0.0,-0.0,-1.0,0.08830147411830794,1.0
18.332660675048828,30.03791046142578,-1.8708274364471436,-0.0,-0.0,-1.0,0.06407761034059985,1.0
18.24689483642578,31.043006896972656,-2.0671465396881104,-0.0,-0.0,-1.0,0.044132542900824585,1.0
18.166248321533203,31.149402618408203,-2.082059621810913,-0.0,-0.0,-1.0,0.10384078501840889,1.0
19.288494110107422,29.818115234375,-2.092524528503418,-0.0,-0.0,-1.0,0.10598482956498102,2.0
18.64947509765625,29.687969207763672,-2.0010881423950195,-0.0,-0.0,-1.0,0.06128827781326955,2.0
18.858104705810547,29.927715301513672,-2.073488235473633,-0.0,-0.0,-1.0,0.19526969431715213,2.0
19.679489135742188,31.2984561920166,-1.9657642841339111,-0.0,-0.0,-1.0,0.08532527088624309,1.0
18.101604461669922,31.538536071777344,-1.9095523357391357,-0.0,-0.0,-1.0,0.1872424714741535,1.0
17.79587745666504,31.481287002563477,-1.8781859874725342,-0.0,-0.0,-1.0,0.14961315900869904,1.0
19.67733383178711,30.300260543823242,-1.7509963512420654,-0.0,-0.0,-1.0,0.07847599457724995,1.0
19.320327758789062,30.524595260620117,-1.770961046218872,-0.0,-0.0,-1.0,0.19101462495587668,1.0
18.850162506103516,29.987401962280273,-1.6188628673553467,-0.0,-0.0,-1.0,0.1873184146052026,1.0
19.706174850463867,30.873729705810547,-1.9772629737854004,-0.0,-0.0,-1.0,0.13350665192807928,1.0
19.327857971191406,30.52117919921875,-1.8619384765625,-0.0,-0.0,-1.0,0.18377072313189588,1.0
19.414596557617188,30.53680419921875,-1.8740005493164062,-0.0,-0.0,-1.0,0.1494994219725938,1.0
19.51966094970703,30.968673706054688,-1.9796462059020996,-0.0,-0.0,-1.0,0.1758726245114545,1.0
19.106164932250977,30.82430648803711,-1.9075374603271484,-0.0,-0.0,-1.0,0.17287636963352168,1.0
18.841331481933594,29.982959747314453,-1.6951727867126465,-0.12386956677944214,0.9889294769591475,0.08169957176864777,0.1351638578456218,3.0
17.889999389648438,31.405628204345703,-1.931471347808838,-0.5519391842109497,-0.31937235237070993,-0.770301523738432,0.1530124145232212,3.0
19.663057327270508,30.230823516845703,-1.8469576835632324,-0.0,-0.0,-1.0,0.06791943734180073,1.0
19.281625747680664,30.681753158569336,-1.888625144958496,-0.0,-0.0,-1.0,0.1769246543194028,1.0
18.762466430664062,29.9317626953125,-1.6791365146636963,-0.0,-0.0,-1.0,0.15342893993600273,1.0
19.555362701416016,30.380109786987305,-1.9223740100860596,-0.0,-0.0,-1.0,0.0997948184074569,2.0
19.461545944213867,30.649127960205078,-1.9621117115020752,-0.0,-0.0,-1.0,0.19812094970334243,1.0
19.62877655029297,31.149253845214844,-2.0878379344940186,-0.0,-0.0,-1.0,0.1184257778963949,2.0
18.994831085205078,30.725994110107422,-1.910245656967163,-0.0,-0.0,-1.0,0.1540307085802934,2.0
19.291528701782227,30.983118057250977,-2.0052902698516846,-0.0,-0.0,-1.0,0.1432933388964805,1.0
18.873977661132812,30.762245178222656,-1.9006426334381104,-0.0,-0.0,-1.0,0.21412735333607655,1.0
18.89107894897461,30.89507484436035,-1.9305179119110107,-0.0,-0.0,-1.0,0.20837373109879914,1.0
17.890317916870117,31.49140167236328,-1.9248101711273193,-0.0,-0.0,-1.0,0.14961315900869906,1.0
18.8115177154541,29.982271194458008,-1.7320406436920166,-0.0,-0.0,-1.0,0.13516385784562174,2.0
18.490982055664062,30.125041961669922,-1.7152178287506104,-0.0,-0.0,-1.0,0.1581587165088972,1.0
18.875730514526367,29.686800003051758,-2.0855307579040527,-0.0,-0.0,-1.0,0.0490011435762951,1.0
19.21246337890625,29.809284210205078,-2.1184959411621094,-0.0,-0.0,-1.0,0.13180011548938203,2.0
19.446109771728516,29.711589813232422,-2.0802621841430664,-0.0,-0.0,-1.0,0.09774281671458245,1.0
19.580453872680664,29.98528289794922,-2.1715126037597656,-0.0,-0.0,-1.0,0.01186907524527958,1.0
19.001930236816406,30.48831558227539,-2.1419284343719482,-0.0,-0.0,-1.0,0.01799950106998958,1.0
19.253408432006836,30.611602783203125,-2.172792673110962,-0.0,-0.0,-1.0,0.06813981721654516,1.0
19.541715621948242,30.59352684020996,-2.1584737300872803,-0.0,-0.0,-1.0,0.08965207858522126,1.0
19.386783599853516,30.74289321899414,-2.210927724838257,-0.0,-0.0,-1.0,0.06816167511796738,2.0
17.862388610839844,29.879535675048828,-1.7840285301208496,-0.0,-0.0,-1.0,0.13867807688407016,1.0
18.095226287841797,29.807701110839844,-1.7564213275909424,-0.0,-0.0,-1.0,0.1763768051423686,1.0
17.838228225708008,30.000335693359375,-1.8063061237335205,-0.0,-0.0,-1.0,0.1241033091546337,2.0
17.747581481933594,30.859745025634766,-1.9606664180755615,-0.0,-0.0,-1.0,0.06223552144462475,1.0
18.665542602539062,29.953224182128906,-1.9973878860473633,-0.0,-0.0,-1.0,0.20282633633431782,1.0
18.6180477142334,30.392436981201172,-2.082094192504883,-0.0,-0.0,-1.0,0.06382228470207033,1.0
18.780433654785156,30.354686737060547,-2.0652215480804443,-0.0,-0.0,-1.0,0.1033197308723303,1.0
18.7627010345459,30.57185935974121,-2.1069679260253906,-0.0,-0.0,-1.0,0.11600063025297049,1.0
19.21872329711914,29.961910247802734,-2.1170125007629395,-0.0,-0.0,-1.0,0.07941814703920287,1.0
19.38960838317871,30.018657684326172,-2.115116596221924,-0.0,-0.0,-1.0,0.01673626359084145,1.0
19.611896514892578,30.253055572509766,-2.142679214477539,-0.0,-0.0,-1.0,0.12470299773883824,1.0
19.623775482177734,31.173133850097656,-2.1308372020721436,-0.8616417444959202,-0.4795617135787843,-0.16611462010132502,0.12072395330524555,3.0
19.590181350708008,31.62588882446289,-2.2144014835357666,-0.0,-0.0,-1.0,0.1252772456951751,1.0
18.75774383544922,31.541370391845703,-2.2069251537323,-0.0,-0.0,-1.0,0.05836516896015696,1.0
18.947803497314453,31.581096649169922,-2.1950159072875977,-0.0,-0.0,-1.0,0.055437930377765864,1.0
18.935955047607422,30.24665069580078,-2.1187539100646973,-0.0,-0.0,-1.0,0.0518950493499899,1.0
19.363004684448242,30.89603042602539,-2.1236722469329834,-0.0,-0.0,-1.0,0.09322086093501379,1.0
19.048036575317383,31.543598175048828,-2.23838210105896,-0.0,-0.0,-1.0,0.037099841145331464,1.0
19.691221237182617,31.446842193603516,-2.1840858459472656,-0.0,-0.0,-1.0,0.15592657051951536,2.0
19.340301513671875,31.141433715820312,-2.1919333934783936,-0.0,-0.0,-1.0,0.07994628329082726,1.0
19.383649826049805,30.742618560791016,-2.164666175842285,0.12227338541563945,-0.9709583408119772,-0.20564318521811326,0.11831617954602457,5.0
19.500076293945312,30.822406768798828,-2.160607099533081,-0.0,-0.0,-1.0,0.07978370751308905,2.0
19.406578063964844,30.434085845947266,-2.144554853439331,-0.0,-0.0,-1.0,0.16681475989183042,1.0
19.200353622436523,29.82801055908203,-2.1248533725738525,-0.0,-0.0,-1.0,0.13180011548938197,2.0
19.59158706665039,30.036396026611328,-2.1069469451904297,-0.0,-0.0,-1.0,0.12464114538696892,1.0
19.415279388427734,30.570556640625,-2.150505542755127,-0.0,-0.0,-1.0,0.10656020377630386,1.0
19.45093536376953,30.391925811767578,-2.1376471519470215,-0.0,-0.0,-1.0,0.1581203010740879,1.0
19.022342681884766,30.984455108642578,-2.016201972961426,-0.0,-0.0,-1.0,0.12469056651368327,1.0
18.50064468383789,30.957523345947266,-2.0515832901000977,-0.0,-0.0,-1.0,0.05184501565524355,2.0
19.547624588012695,30.418460845947266,-1.944090485572815,-0.0,-0.0,-1.0,0.11327658191846769,2.0
18.38498878479004,30.875057220458984,-2.0547986030578613,-0.0,-0.0,-1.0,0.021099002001176724,1.0
18.64984130859375,30.266986846923828,-1.9990440607070923,-0.0,-0.0,-1.0,0.042488233589040574,1.0
18.740955352783203,29.841537475585938,-1.9670463800430298,-0.0,-0.0,-1.0,0.12294844619125599,2.0
18.588584899902344,29.714839935302734,-1.9705651998519897,-0.0,-0.0,-1.0,0.06113076772351965,1.0
19.093461990356445,31.334888458251953,-0.2686169147491455,-0.0,-0.0,-1.0,0.07888304346923458,1.0
18.512460708618164,31.290714263916016,-0.29474496841430664,-0.0,-0.0,-1.0,0.05997092479985986,1.0
18.40361213684082,31.077411651611328,-0.2966783046722412,-0.0,-0.0,-1.0,0.061721096175808274,1.0
18.97663688659668,30.12813949584961,-0.2564127445220947,-0.0,-0.0,-1.0,0.11485339851678454,1.0
18.75531005859375,30.47739028930664,-0.27161622047424316,-0.0,-0.0,-1.0,0.0742237054396903,1.0
18.746021270751953,30.067829132080078,-0.26689958572387695,-0.0,-0.0,-1.0,0.07958696626619943,1.0
18.663188934326172,29.869537353515625,-1.5497756004333496,-0.0,-0.0,-1.0,0.16635356861836553,1.0
19.617767333984375,31.242958068847656,-2.091848611831665,-0.0,-0.0,-1.0,0.12072395330524555,1.0
19.48160743713379,31.063678741455078,-2.099571704864502,-0.0,-0.0,-1.0,0.14143686499346178,2.0
19.249364852905273,30.665882110595703,-2.1100118160247803,-0.0,-0.0,-1.0,0.1467214582550896,2.0
19.2283878326416,30.40130615234375,-2.103468179702759,-0.0,-0.0,-1.0,0.05091666817282799,1.0
19.205848693847656,29.74199676513672,-2.084728956222534,-0.0,-0.0,-1.0,0.18168232932298126,1.0
19.0756893157959,30.09671401977539,-2.109445333480835,-0.0,-0.0,-1.0,0.075108158625505,1.0
17.891651153564453,31.139232635498047,-1.9382933378219604,-0.0,-0.0,-1.0,0.07042572552699095,1.0
18.388731002807617,30.064773559570312,-1.8514958620071411,-0.0,-0.0,-1.0,0.08282596708968015,1.0
18.43964385986328,29.711627960205078,-1.8338104486465454,-0.0,-0.0,-1.0,0.05625842463137212,1.0
18.00969696044922,31.247039794921875,-1.9676706790924072,-0.0,-0.0,-1.0,0.09957157570922277,1.0
17.83436393737793,31.024158477783203,-1.981510877609253,-0.0,-0.0,-1.0,0.11074923513708539,1.0
18.441097259521484,30.01995849609375,-1.8950965404510498,-0.0,-0.0,-1.0,0.10170574848833064,1.0
18.027856826782227,31.32717514038086,-1.9543498754501343,-0.0,-0.0,-1.0,0.07594187272900023,2.0
17.827335357666016,31.341659545898438,-1.9761210680007935,-0.0,-0.0,-1.0,0.1499083321083471,2.0
18.666141510009766,29.987781524658203,-1.8371373414993286,0.3238625688452657,0.31049629691713393,-0.8937030189619439,0.1652278569317648,3.0
18.231433868408203,30.288742065429688,-1.894483208656311,-0.0,-0.0,-1.0,0.04534246485090089,1.0
18.352447509765625,29.764965057373047,-1.8628982305526733,0.14358654455815675,-0.5766447074964575,-0.8042784253840042,0.06834232364030045,3.0
18.165924072265625,29.705753326416016,-1.880928635597229,-0.0,-0.0,-1.0,0.12917270761945115,2.0
18.01852798461914,29.747821807861328,-1.6766639947891235,-0.0,-0.0,-1.0,0.14919333838955262,1.0
18.019569396972656,29.78252410888672,-1.7371588945388794,-0.0,-0.0,-1.0,0.1546141950930498,1.0
18.675979614257812,30.00326919555664,-1.6656805276870728,-0.0,-0.0,-1.0,0.15937957293104893,1.0
18.393081665039062,31.0286922454834,-2.0283584594726562,-0.0,-0.0,-1.0,0.04988991052561623,2.0
18.3496036529541,30.778200149536133,-2.0216217041015625,-0.0,-0.0,-1.0,0.029818656823935384,1.0
18.599699020385742,30.073837280273438,-1.9553810358047485,-0.0,-0.0,-1.0,0.10423436486687855,2.0
19.282520294189453,29.643268585205078,-1.846331000328064,-0.0,-0.0,-1.0,0.13734173329283264,1.0
18.551952362060547,29.77356719970703,-1.9475497007369995,-0.0,-0.0,-1.0,0.06113076772351967,2.0
17.869211196899414,31.389177322387695,-1.9097554683685303,-0.0,-0.0,-1.0,0.14681317391533935,2.0
18.03215980529785,29.800548553466797,-1.8028626441955566,-0.0,-0.0,-1.0,0.15461419509304983,1.0
17.819232940673828,29.803466796875,-1.8289387226104736,-0.0,-0.0,-1.0,0.14731199181515953,1.0
19.668350219726562,31.41597557067871,-2.200852155685425,-0.0,-0.0,-1.0,0.15592657051951536,2.0
19.527286529541016,30.985233306884766,-2.1853702068328857,-0.0,-0.0,-1.0,0.0719389081586317,1.0
19.432987213134766,30.480358123779297,-2.158966064453125,-0.0,-0.0,-1.0,0.1603563814866824,2.0
19.528757095336914,30.241029739379883,-2.1275668144226074,-0.0,-0.0,-1.0,0.11148195894073512,1.0
19.429006576538086,30.113954544067383,-2.131709337234497,-0.0,-0.0,-1.0,0.014089671036809243,2.0
18.4736385345459,30.994916915893555,-2.0558934211730957,-0.0,-0.0,-1.0,0.045848218303579755,2.0
18.428936004638672,30.74588394165039,-2.0407769680023193,-0.0,-0.0,-1.0,0.02911091098878141,1.0
18.49424171447754,30.273807525634766,-1.9944260120391846,-0.0,-0.0,-1.0,0.04290839759025467,2.0
18.356096267700195,30.607269287109375,-2.038440704345703,-0.0,-0.0,-1.0,0.030068510906759188,1.0
18.634958267211914,29.945293426513672,-1.9506924152374268,-0.0,-0.0,-1.0,0.1972894933050336,1.0
18.450841903686523,29.695770263671875,-1.954188346862793,-0.0,-0.0,-1.0,0.056826292109499514,1.0
18.109848022460938,31.607120513916016,-2.0418028831481934,-0.0,-0.0,-1.0,0.07790076988911647,1.0
18.161575317382812,31.17270851135254,-1.9988124370574951,-0.0,-0.0,-1.0,0.11244885580506796,2.0
17.986055374145508,31.18316650390625,-2.0219669342041016,-0.0,-0.0,-1.0,0.14045101811803798,1.0
18.10024642944336,30.96487045288086,-1.9894015789031982,-0.0,-0.0,-1.0,0.05194612498870109,1.0
18.72699737548828,30.156450271606445,-1.842956781387329,-0.0,-0.0,-1.0,0.19337561086300475,1.0
18.387920379638672,30.16968536376953,-1.8877496719360352,-0.0,-0.0,-1.0,0.0729984590117731,2.0
18.149442672729492,30.29304313659668,-1.9285712242126465,-0.0,-0.0,-1.0,0.03660830483477359,1.0
19.132057189941406,29.773120880126953,-1.7596728801727295,-0.0,-0.0,-1.0,0.09061174637596682,1.0
18.581356048583984,29.886783599853516,-1.8400731086730957,-0.0,-0.0,-1.0,0.11999850073193585,1.0
18.280120849609375,29.91993522644043,-1.8819549083709717,-0.0,-0.0,-1.0,0.046704178179746654,1.0
18.956031799316406,30.88561248779297,-1.9543287754058838,-0.0,-0.0,-1.0,0.2309673778727608,1.0
18.424806594848633,31.017261505126953,-2.043558120727539,-0.0,-0.0,-1.0,0.049889910525616275,2.0
18.978321075439453,30.758560180664062,-1.9411053657531738,-0.0,-0.0,-1.0,0.14699098965981688,2.0
18.891551971435547,30.745506286621094,-1.952981948852539,-0.0,-0.0,-1.0,0.22834754710413988,1.0
18.391328811645508,30.811771392822266,-2.0329341888427734,-0.0,-0.0,-1.0,0.03131191243558048,1.0
18.523122787475586,30.259151458740234,-1.9715096950531006,-0.0,-0.0,-1.0,0.06733941252437121,2.0
18.388591766357422,30.54206085205078,-2.0130019187927246,-0.0,-0.0,-1.0,0.03396113414005087,1.0
18.513248443603516,30.02112579345703,-1.9554669857025146,-0.0,-0.0,-1.0,0.09467952951022451,2.0
18.5345458984375,29.80596923828125,-1.9365477561950684,-0.0,-0.0,-1.0,0.06742562208922157,2.0
19.70743179321289,29.662586212158203,-2.106505870819092,-0.0,-0.0,-1.0,0.08528038668394125,1.0
18.40884017944336,31.146717071533203,-2.0850119590759277,-0.0,-0.0,-1.0,0.06811761770105888,2.0
18.31170654296875,30.833019256591797,-2.0614631175994873,-0.0,-0.0,-1.0,0.018441767311226383,1.0
18.922618865966797,30.105676651000977,-1.897653579711914,-0.0,-0.0,-1.0,0.11851694500334539,1.0
18.316328048706055,30.483213424682617,-2.0208516120910645,-0.0,-0.0,-1.0,0.03406855833820974,1.0
19.00545883178711,29.915605545043945,-1.8649775981903076,-0.0,-0.0,-1.0,0.1339941972993118,1.0
18.481773376464844,30.043262481689453,-1.9490766525268555,-0.0,-0.0,-1.0,0.10922730360693719,2.0
19.60580825805664,31.30929183959961,-2.085702419281006,-0.0,-0.0,-1.0,0.12017438829411832,1.0
19.405677795410156,30.952482223510742,-2.06573486328125,-0.0,-0.0,-1.0,0.18235342221385603,1.0
18.806381225585938,30.906719207763672,-2.143052101135254,-0.0,-0.0,-1.0,0.08361873952906379,1.0
19.267070770263672,30.66957664489746,-2.0480246543884277,-0.0,-0.0,-1.0,0.18857174564791573,1.0
18.99966049194336,30.621803283691406,-2.07956600189209,-0.0,-0.0,-1.0,0.09874346075746011,2.0
18.632980346679688,30.515239715576172,-2.1183791160583496,-0.0,-0.0,-1.0,0.04556382473749234,2.0
18.735271453857422,29.860383987426758,-2.0224366188049316,-0.0,-0.0,-1.0,0.09559228885569458,1.0
18.162456512451172,31.47127914428711,-2.0511765480041504,-0.0,-0.0,-1.0,0.08956619725843769,1.0
18.095947265625,31.1534423828125,-2.0176591873168945,-0.0,-0.0,-1.0,0.11413214849415476,1.0
19.313011169433594,30.63140106201172,-1.795214056968689,-0.0,-0.0,-1.0,0.194887641768458,1.0
18.8997802734375,30.54995346069336,-1.8354402780532837,-0.0,-0.0,-1.0,0.22357422497272517,1.0
18.636383056640625,30.60132598876953,-1.8756221532821655,-0.0,-0.0,-1.0,0.10323248981136623,1.0
17.92716407775879,30.834365844726562,-1.99787175655365,-0.0,-0.0,-1.0,0.048405409920136824,1.0
17.821765899658203,30.814472198486328,-2.009183883666992,-0.0,-0.0,-1.0,0.05019407104442095,1.0
18.46860122680664,30.22837257385254,-1.848403811454773,-0.0,-0.0,-1.0,0.07496321149917612,1.0
18.764354705810547,29.941974639892578,-1.7725847959518433,-0.0,-0.0,-1.0,0.16023900376915792,2.0
18.229827880859375,29.81481170654297,-1.8270341157913208,-0.0,-0.0,-1.0,0.13549795438667336,2.0
17.980209350585938,29.980031967163086,-1.8817003965377808,-0.0,-0.0,-1.0,0.08339306620609206,1.0
19.49795150756836,31.041637420654297,-2.172659158706665,-0.0,-0.0,-1.0,0.07441163475154998,1.0
19.24831771850586,30.6910457611084,-2.1448726654052734,-0.0,-0.0,-1.0,0.07239743880683976,2.0
19.104938507080078,30.537429809570312,-2.1377015113830566,-0.0,-0.0,-1.0,0.04043481009874691,1.0
19.085233688354492,30.04550552368164,-2.0596671104431152,-0.0,-0.0,-1.0,0.11284199950394594,1.0
18.94167709350586,30.304885864257812,-2.1210711002349854,-0.0,-0.0,-1.0,0.055508789666919425,1.0
18.841711044311523,29.91124725341797,-2.070674180984497,-0.0,-0.0,-1.0,0.1157880993341544,2.0
19.695613861083984,31.17000389099121,-2.2018985748291016,-0.0,-0.0,-1.0,0.12072395330524549,1.0
19.594974517822266,31.12805938720703,-2.2052550315856934,-0.0,-0.0,-1.0,0.12762809643972398,1.0
19.260255813598633,30.756084442138672,-2.1752638816833496,-0.0,-0.0,-1.0,0.0808286407040808,1.0
19.40746307373047,30.71255874633789,-2.1498165130615234,0.21907959122455792,-0.7968770246384386,-0.5630196624561795,0.12219657487079658,4.0
19.19278335571289,30.523923873901367,-2.141116142272949,-0.0,-0.0,-1.0,0.03723889514660556,1.0
19.02577781677246,30.287948608398438,-2.119110584259033,-0.0,-0.0,-1.0,0.06429955906843127,1.0
18.798545837402344,30.209964752197266,-2.134185791015625,-0.0,-0.0,-1.0,0.052171208888033074,1.0
19.156858444213867,29.90804672241211,-2.0344300270080566,-0.0,-0.0,-1.0,0.11820881164520584,1.0
18.693973541259766,29.663883209228516,-2.052070140838623,-0.0,-0.0,-1.0,0.04651286607707642,1.0
18.5606746673584,31.153804779052734,-2.1692633628845215,-0.0,-0.0,-1.0,0.04493874162633174,1.0
19.504972457885742,31.186199188232422,-2.0741066932678223,-0.0,-0.0,-1.0,0.10408313353593966,2.0
19.19478988647461,31.020305633544922,-2.0750012397766113,-0.0,-0.0,-1.0,0.06805398118357908,1.0
18.80825424194336,30.891481399536133,-2.0933027267456055,-0.0,-0.0,-1.0,0.09581284590535244,1.0
18.503253936767578,30.838729858398438,-2.1185553073883057,-0.0,-0.0,-1.0,0.024783633460419285,2.0
19.005340576171875,30.727935791015625,-2.041276216506958,-0.0,-0.0,-1.0,0.13947851362811914,2.0
18.442705154418945,30.4266414642334,-2.051419496536255,-0.0,-0.0,-1.0,0.038322173546337816,1.0
18.564607620239258,30.079662322998047,-1.9745397567749023,-0.0,-0.0,-1.0,0.09612006783272939,2.0
18.481176376342773,31.30124282836914,-1.6164295673370361,-0.0,-0.0,-1.0,0.21084033597642662,1.0
19.699542999267578,30.262386322021484,-1.8805158138275146,-0.0,-0.0,-1.0,0.05121742492848154,1.0
18.998836517333984,30.02420997619629,-1.9131674766540527,-0.0,-0.0,-1.0,0.1469443043365959,1.0
18.624189376831055,30.022491455078125,-1.9571521282196045,-0.0,-0.0,-1.0,0.18515122058987513,1.0
19.620508193969727,29.64266586303711,-1.773456335067749,-0.0,-0.0,-1.0,0.17794081150883687,1.0
19.209720611572266,29.87962532043457,-1.8627309799194336,-0.0,-0.0,-1.0,0.122034541708119,1.0
18.46099853515625,29.755863189697266,-1.9297373294830322,-0.0,-0.0,-1.0,0.061200998891002584,2.0
19.704631805419922,31.220142364501953,-2.214797019958496,-0.0,-0.0,-1.0,0.10912376173589715,1.0
19.626991271972656,30.784832000732422,-2.127829074859619,-0.0,-0.0,-1.0,0.1272901197219289,1.0
19.380918502807617,30.790367126464844,-2.1472327709198,-0.0,-0.0,-1.0,0.07991591083872826,1.0
19.08084487915039,30.60529327392578,-2.1319808959960938,-0.0,-0.0,-1.0,0.06019862876314063,2.0
18.727001190185547,30.036239624023438,-2.0449345111846924,-0.0,-0.0,-1.0,0.19173858033637176,1.0
18.641244888305664,29.669384002685547,-1.9781200885772705,-0.0,-0.0,-1.0,0.06155479772026468,2.0
18.078868865966797,31.406875610351562,-1.9966528415679932,-0.0,-0.0,-1.0,0.1397402668859565,1.0
17.78940200805664,31.332286834716797,-2.001544237136841,-0.0,-0.0,-1.0,0.15630681503050353,2.0
19.550657272338867,30.051464080810547,-2.1841955184936523,-0.0,-0.0,-1.0,0.008952558976049447,1.0
18.879547119140625,30.723873138427734,-1.8175630569458008,-0.0,-0.0,-1.0,0.16165111538944577,1.0
18.858257293701172,30.61440086364746,-1.7976880073547363,-0.0,-0.0,-1.0,0.20172227063156384,1.0
18.798460006713867,29.976234436035156,-1.6787664890289307,-0.0,-0.0,-1.0,0.14333394277636397,2.0
19.665441513061523,29.66006088256836,-1.5697505474090576,-0.0,-0.0,-1.0,0.11531760671210342,1.0
19.51152992248535,30.549692153930664,-2.183830738067627,-0.0,-0.0,-1.0,0.08615008538207695,1.0
19.464519500732422,30.514904022216797,-2.175586223602295,-0.0,-0.0,-1.0,0.08796385339693637,2.0
18.87460708618164,30.300193786621094,-2.1268911361694336,-0.0,-0.0,-1.0,0.04562205075537008,1.0
19.28742218017578,30.358125686645508,-2.1390886306762695,-0.0,-0.0,-1.0,0.049005263906452386,1.0
19.05035400390625,30.231197357177734,-2.110307216644287,-0.0,-0.0,-1.0,0.05273390321367098,2.0
19.23020362854004,29.913135528564453,-2.037167549133301,-0.0,-0.0,-1.0,0.10207788102937164,1.0
18.6822509765625,29.814868927001953,-2.018463134765625,-0.0,-0.0,-1.0,0.07662824069386581,1.0
18.84685516357422,30.809173583984375,-2.1578619480133057,-0.0,-0.0,-1.0,0.14015050895264958,1.0
18.799530029296875,30.772659301757812,-2.1507508754730225,-0.0,-0.0,-1.0,0.0903641971421991,2.0
19.50140953063965,30.79237174987793,-2.1497695446014404,-0.0,-0.0,-1.0,0.1128901079231212,2.0
19.181581497192383,30.68562126159668,-2.1287996768951416,-0.0,-0.0,-1.0,0.06344043182850119,1.0
18.367469787597656,29.6783504486084,-1.9289817810058594,-0.0,-0.0,-1.0,0.060970792798950964,2.0
19.66047477722168,30.63418197631836,-2.1160011291503906,-0.0,-0.0,-1.0,0.09829041100299289,1.0
19.362548828125,30.423004150390625,-2.0716750621795654,-0.0,-0.0,-1.0,0.264030573310437,1.0
19.16852378845215,30.265178680419922,-2.0394997596740723,-0.0,-0.0,-1.0,0.037117261895252406,1.0
18.7329044342041,29.84778594970703,-1.9570019245147705,-0.0,-0.0,-1.0,0.12294844619125596,2.0
18.675146102905273,29.737159729003906,-1.9347889423370361,-0.0,-0.0,-1.0,0.07943894155825748,1.0
17.911598205566406,31.46255111694336,-2.0524678230285645,-0.0,-0.0,-1.0,0.1496131590086991,1.0
19.29920196533203,29.906618118286133,-2.1541285514831543,-0.0,-0.0,-1.0,0.06556312780590932,2.0
19.35028839111328,29.97932243347168,-2.1604723930358887,-0.0,-0.0,-1.0,0.016720771641672856,1.0
19.612018585205078,30.18515396118164,-2.172348976135254,-0.0,-0.0,-1.0,0.12290832539467786,2.0
19.046998977661133,30.608638763427734,-2.0228066444396973,-0.0,-0.0,-1.0,0.0975643414349366,1.0
18.904125213623047,30.591262817382812,-2.02618408203125,-0.0,-0.0,-1.0,0.24484096949031237,1.0
18.43198013305664,31.269485473632812,-1.4998760223388672,-0.0,-0.0,-1.0,0.21340291459426747,1.0
18.19481658935547,31.503585815429688,-1.5184063911437988,-0.0,-0.0,-1.0,0.0815821067899482,1.0
18.781421661376953,29.938751220703125,-1.7557852268218994,-0.0,-0.0,-1.0,0.15531054969155025,2.0
18.69094467163086,29.966388702392578,-1.8355815410614014,0.3238625688452657,0.31049629691713393,-0.8937030189619439,0.13648694603959804,3.0
18.42316436767578,30.1940975189209,-1.8735158443450928,-0.0,-0.0,-1.0,0.07687780666864966,2.0
17.763729095458984,29.8574275970459,-1.8781869411468506,-0.0,-0.0,-1.0,0.13867807688407013,1.0
18.695636749267578,30.454477310180664,-2.1001405715942383,-0.0,-0.0,-1.0,0.07310592071040088,1.0
18.792293548583984,30.787145614624023,-2.1300477981567383,-0.0,-0.0,-1.0,0.10486854642924877,2.0
19.08991241455078,29.72565269470215,-2.046865940093994,-0.0,-0.0,-1.0,0.19739003856903042,1.0
19.621295928955078,30.395042419433594,-1.636365294456482,-0.0,-0.0,-1.0,0.09229527694812713,1.0
18.539920806884766,31.63720703125,-1.9770290851593018,-0.0,-0.0,-1.0,0.15709596340361529,2.0
18.19215202331543,31.617610931396484,-1.9834778308868408,-0.0,-0.0,-1.0,0.09328843642503702,1.0
18.034160614013672,31.56002426147461,-1.9800255298614502,-0.0,-0.0,-1.0,0.13411620433495938,1.0
19.56149673461914,30.288650512695312,-1.7704026699066162,-0.0,-0.0,-1.0,0.07730604577783906,1.0
19.636621475219727,30.287399291992188,-1.6074801683425903,-0.7099093497114534,-0.7042705417803035,-0.0056319776934454545,0.10824012801759701,3.0
19.06494903564453,30.516658782958984,-1.6587916612625122,-0.0,-0.0,-1.0,0.1438099319762616,1.0
19.445068359375,30.8426513671875,-2.1094114780426025,-0.0,-0.0,-1.0,0.15178569263130742,1.0
19.608591079711914,31.20563507080078,-2.145904064178467,-0.0,-0.0,-1.0,0.12072395330524552,2.0
19.10546875,30.614673614501953,-2.1120336055755615,-0.0,-0.0,-1.0,0.06131613392238588,2.0
19.270954132080078,30.762081146240234,-2.1159636974334717,-0.0,-0.0,-1.0,0.08048967339322127,1.0
19.608001708984375,30.59097671508789,-2.0550928115844727,-0.0,-0.0,-1.0,0.18394700645423911,1.0
19.25782012939453,29.705326080322266,-1.9621822834014893,-0.0,-0.0,-1.0,0.20600608393404804,1.0
19.04198455810547,30.473697662353516,-2.0982954502105713,-0.0,-0.0,-1.0,0.023586979845474552,2.0
18.79799461364746,29.93216323852539,-2.045813798904419,-0.0,-0.0,-1.0,0.190764373437849,1.0
18.766956329345703,30.327186584472656,-2.106860876083374,-0.0,-0.0,-1.0,0.052918220957751144,1.0
19.584318161010742,30.424375534057617,-2.1616597175598145,-0.0,-0.0,-1.0,0.17482303443247943,2.0
19.278162002563477,29.899742126464844,-2.1178135871887207,-0.0,-0.0,-1.0,0.08530339177906981,2.0
19.62314224243164,30.201492309570312,-2.153238296508789,-0.0,-0.0,-1.0,0.12725061285413203,2.0
19.327167510986328,29.81918716430664,-2.1104259490966797,-0.0,-0.0,-1.0,0.10281430867092352,2.0
19.3984432220459,30.118391036987305,-2.158348560333252,-0.0,-0.0,-1.0,0.014089671036809361,2.0
19.62508773803711,30.08852767944336,-2.1886649131774902,-0.0,-0.0,-1.0,0.11670307257978214,1.0
18.32207679748535,31.636383056640625,-1.9712039232254028,-0.0,-0.0,-1.0,0.1513929979990028,1.0
17.799829483032227,31.436115264892578,-1.9880865812301636,-0.0,-0.0,-1.0,0.14681317391533935,1.0
19.15009307861328,30.548450469970703,-1.726281762123108,-0.0,-0.0,-1.0,0.12962896210581348,2.0
18.831998825073242,29.926231384277344,-1.6520634889602661,-0.0,-0.0,-1.0,0.1451386688150209,1.0
17.936222076416016,31.33234405517578,-1.9587136507034302,-0.0,-0.0,-1.0,0.09126665140215699,1.0
19.551025390625,30.463115692138672,-2.1700310707092285,-0.0,-0.0,-1.0,0.1733541913232307,1.0
19.140361785888672,29.77355194091797,-2.07696533203125,-0.0,-0.0,-1.0,0.17304951694773565,1.0
18.035860061645508,31.320392608642578,-1.922301173210144,-0.0,-0.0,-1.0,0.07594187272900019,2.0
17.922557830810547,31.384517669677734,-1.9460476636886597,-0.0,-0.0,-1.0,0.1530124145232212,2.0
19.51470375061035,31.156204223632812,-2.0928773880004883,-0.0,-0.0,-1.0,0.11881757103208755,2.0
19.21054458618164,30.761775970458984,-2.040792465209961,-0.0,-0.0,-1.0,0.14661320022711574,1.0
19.03705596923828,30.719818115234375,-2.050075054168701,-0.0,-0.0,-1.0,0.092519299546901,2.0
18.905517578125,30.822742462158203,-2.0853781700134277,-0.0,-0.0,-1.0,0.15285186216076346,1.0
18.59600830078125,30.991016387939453,-2.153817892074585,-0.0,-0.0,-1.0,0.052520711340933196,1.0
18.953006744384766,30.056499481201172,-1.9219372272491455,-0.0,-0.0,-1.0,0.15864100517948018,1.0
18.671588897705078,30.535877227783203,-2.0517542362213135,-0.0,-0.0,-1.0,0.12031165736683692,1.0
18.10753059387207,29.694965362548828,-1.9470188617706299,-0.0,-0.0,-1.0,0.13276120694705604,2.0
18.679628372192383,31.17983627319336,-1.63173246383667,-0.0,-0.0,-1.0,0.07365437241267553,1.0
18.474102020263672,29.732864379882812,-1.910032033920288,-0.0,-0.0,-1.0,0.0612009988910026,2.0
19.46750259399414,30.618656158447266,-2.196990728378296,-0.0,-0.0,-1.0,0.08332418563805333,1.0
18.5372314453125,31.62230682373047,-1.992732286453247,-0.0,-0.0,-1.0,0.15709596340361529,2.0
19.331939697265625,30.4416446685791,-2.168302059173584,-0.0,-0.0,-1.0,0.07651212406011346,1.0
19.05656623840332,30.215452194213867,-2.143842935562134,-0.0,-0.0,-1.0,0.05273390321367098,2.0
17.85025978088379,31.384489059448242,-2.0208945274353027,-0.0,-0.0,-1.0,0.1783105888360752,1.0
19.633403778076172,30.345565795898438,-1.6249582767486572,-0.0,-0.0,-1.0,0.10711208472182869,2.0
19.169889450073242,30.544784545898438,-1.7096986770629883,-0.0,-0.0,-1.0,0.13587066402081496,2.0
18.604829788208008,31.125356674194336,-2.1808559894561768,-0.0,-0.0,-1.0,0.04664000670878189,1.0
19.48316764831543,31.241819381713867,-2.152798652648926,-0.0,-0.0,-1.0,0.10454550349789035,1.0
19.371274948120117,31.026771545410156,-2.1054680347442627,-0.0,-0.0,-1.0,0.12296864541777935,1.0
19.31888771057129,30.72362518310547,-2.0328521728515625,-0.0,-0.0,-1.0,0.19555723059197844,1.0
19.081331253051758,30.828205108642578,-2.0740809440612793,-0.0,-0.0,-1.0,0.09721706118258636,2.0
18.70977020263672,30.938140869140625,-2.1268105506896973,-0.0,-0.0,-1.0,0.07585188721018687,1.0
18.510852813720703,30.87197494506836,-2.125218391418457,-0.0,-0.0,-1.0,0.02992963506933395,2.0
18.732091903686523,29.950315475463867,-1.8805432319641113,-0.0,-0.0,-1.0,0.2212230630992538,2.0
18.260343551635742,29.846725463867188,-1.893165111541748,-0.0,-0.0,-1.0,0.09785733848484394,1.0
18.02930450439453,29.883708953857422,-1.9225497245788574,-0.0,-0.0,-1.0,0.12084531837812486,1.0
17.77901268005371,29.731365203857422,-1.908970832824707,-0.0,-0.0,-1.0,0.15074529504583745,1.0
19.282989501953125,31.63536834716797,-2.041433811187744,-0.0,-0.0,-1.0,0.05208948700903004,1.0
18.63498306274414,31.206218719482422,-1.8959070444107056,-0.0,-0.0,-1.0,0.1287323440324042,1.0
19.608509063720703,31.255889892578125,-1.977042555809021,-0.0,-0.0,-1.0,0.13791806447847102,1.0
19.55974578857422,30.91678237915039,-1.8936764001846313,-0.0,-0.0,-1.0,0.21451675749506446,1.0
19.636436462402344,30.251426696777344,-1.7448781728744507,-0.9057952649919874,0.3517050446725106,0.23630171279532222,0.06943740726820856,3.0
17.967660903930664,29.90911865234375,-1.7839057445526123,-0.0,-0.0,-1.0,0.12292813163988041,1.0
18.148574829101562,29.81867218017578,-1.7789273262023926,-0.0,-0.0,-1.0,0.16149135264417405,1.0
17.853750228881836,31.10150146484375,-1.9679651260375977,-0.0,-0.0,-1.0,0.07468515903750705,1.0
18.560422897338867,29.65110206604004,-1.9585545063018799,-0.0,-0.0,-1.0,0.050662524299207694,2.0
19.142162322998047,30.69428825378418,-2.075364112854004,-0.0,-0.0,-1.0,0.09849236693444374,2.0
17.984390258789062,29.83435821533203,-1.893920660018921,-0.0,-0.0,-1.0,0.10888606285921627,2.0
17.923839569091797,30.159217834472656,-1.9456541538238525,-0.0,-0.0,-1.0,0.049153218345066176,1.0
18.076427459716797,29.90717124938965,-1.920088291168213,-0.0,-0.0,-1.0,0.11806609267250104,2.0
18.518810272216797,29.710771560668945,-1.8995933532714844,-0.0,-0.0,-1.0,0.05946889763910986,2.0
18.135738372802734,29.817338943481445,-1.9137578010559082,-0.0,-0.0,-1.0,0.125760703362634,1.0
19.22262954711914,30.14223289489746,-2.146778106689453,-0.0,-0.0,-1.0,0.01953070752827944,2.0
18.54650115966797,29.667469024658203,-2.021348476409912,-0.0,-0.0,-1.0,0.05459841091782333,2.0
18.93535804748535,29.737796783447266,-2.0731663703918457,-0.0,-0.0,-1.0,0.08232789585385149,1.0
19.38578224182129,30.490877151489258,-2.105334758758545,-0.0,-0.0,-1.0,0.17970308036720692,1.0
19.349931716918945,30.722026824951172,-2.1488189697265625,-0.0,-0.0,-1.0,0.11870318374008995,2.0
18.678335189819336,29.82698631286621,-1.915421485900879,-0.0,-0.0,-1.0,0.1135321853557104,1.0
18.53850555419922,29.72799301147461,-1.8844819068908691,-0.0,-0.0,-1.0,0.05523858834339102,2.0
18.31661605834961,29.775880813598633,-1.8771214485168457,0.33707041043100533,-0.11164254290529718,-0.9348366065925708,0.06996115234043583,3.0
17.833202362060547,29.949357986450195,-1.8770771026611328,-0.0,-0.0,-1.0,0.1333207525999514,1.0
19.406618118286133,30.672286987304688,-2.0693881511688232,-0.0,-0.0,-1.0,0.12316648778121937,1.0
19.459077835083008,30.956573486328125,-2.1277143955230713,-0.0,-0.0,-1.0,0.13698518827741019,1.0
18.785322189331055,31.608436584472656,-2.183791399002075,-0.0,-0.0,-1.0,0.09206007562608051,1.0
19.04281234741211,30.80457305908203,-2.056657552719116,-0.0,-0.0,-1.0,0.151844877057548,2.0
18.841777801513672,30.90196990966797,-2.0548202991485596,-0.0,-0.0,-1.0,0.14190233302850352,1.0
18.507080078125,30.515918731689453,-1.9486329555511475,-0.0,-0.0,-1.0,0.07165806179751062,1.0
18.280092239379883,31.129615783691406,-2.0440919399261475,-0.0,-0.0,-1.0,0.04733884217276705,2.0
18.657629013061523,29.94271469116211,-1.855879545211792,0.3238625688452657,0.31049629691713393,-0.8937030189619439,0.1663811895010771,3.0
18.429956436157227,30.12110137939453,-1.866321325302124,-0.0,-0.0,-1.0,0.09567089127346301,1.0
18.38394546508789,29.784095764160156,-1.7982590198516846,-0.0,-0.0,-1.0,0.06232638174258526,1.0
19.406190872192383,30.740638732910156,-2.127622127532959,0.21907959122455792,-0.7968770246384386,-0.5630196624561795,0.11616650111716427,4.0
19.341325759887695,30.469879150390625,-2.070805549621582,-0.0,-0.0,-1.0,0.2563900465659873,1.0
18.420759201049805,31.10309600830078,-2.0804519653320312,-0.0,-0.0,-1.0,0.04988991052561625,2.0
18.539060592651367,29.873245239257812,-1.8681340217590332,-0.0,-0.0,-1.0,0.08598651774347649,1.0
18.28392791748047,30.119834899902344,-1.8843817710876465,-0.0,-0.0,-1.0,0.061242764060806,1.0
18.226776123046875,29.801475524902344,-1.8190226554870605,-0.0,-0.0,-1.0,0.13549795438667336,2.0
17.876333236694336,29.971168518066406,-1.8112554550170898,-0.0,-0.0,-1.0,0.12410330915463369,2.0
19.608827590942383,30.315536499023438,-1.622584581375122,0.23671685298505124,-0.26756054974845633,-0.9340109655304684,0.11221124342995265,3.0
18.52408218383789,31.188316345214844,-1.6604564189910889,-0.0,-0.0,-1.0,0.103521864783871,1.0
19.364654541015625,29.771455764770508,-2.150496244430542,-0.0,-0.0,-1.0,0.09552034276556196,1.0
19.575471878051758,30.421398162841797,-2.204617500305176,-0.0,-0.0,-1.0,0.1748230344324794,2.0
18.566503524780273,29.653507232666016,-1.9085688591003418,-0.0,-0.0,-1.0,0.05066252429920761,1.0
18.089933395385742,29.944690704345703,-1.898378849029541,-0.0,-0.0,-1.0,0.11806609267250102,2.0
19.456554412841797,30.85373306274414,-1.8927807807922363,-0.0,-0.0,-1.0,0.24303307235600688,1.0
19.623350143432617,30.201133728027344,-1.7906551361083984,-0.0,-0.0,-1.0,0.06745786524024251,2.0
19.241493225097656,30.612586975097656,-1.8175582885742188,-0.0,-0.0,-1.0,0.12353323244358633,1.0
18.749948501586914,29.948198318481445,-1.6236600875854492,-0.0,-0.0,-1.0,0.14729189153193203,1.0
19.650062561035156,31.401363372802734,-1.9365384578704834,-0.0,-0.0,-1.0,0.1606497295344428,1.0
19.707035064697266,30.226470947265625,-1.7345335483551025,-0.0,-0.0,-1.0,0.06242606084545118,1.0
19.507131576538086,29.85533332824707,-2.1324286460876465,-0.0,-0.0,-1.0,0.023515267169540225,1.0
18.29158592224121,29.745975494384766,-1.8825750350952148,-0.0,-0.0,-1.0,0.08141370485664594,2.0
18.21419334411621,29.696632385253906,-1.858469009399414,-0.0,-0.0,-1.0,0.10071269593202276,2.0
18.571317672729492,31.22483253479004,-1.562415599822998,-0.0,-0.0,-1.0,0.18927492206749735,1.0
18.080307006835938,29.83196258544922,-1.921720027923584,-0.0,-0.0,-1.0,0.1307154848484982,1.0
18.570486068725586,31.19683837890625,-1.624518871307373,-0.0,-0.0,-1.0,0.18772818833894034,2.0
17.984331130981445,29.715076446533203,-1.8804430961608887,-0.0,-0.0,-1.0,0.15543942983196024,1.0
18.20415496826172,29.786067962646484,-1.9194591045379639,-0.0,-0.0,-1.0,0.11665790385651538,1.0
17.942712783813477,29.782941818237305,-1.8594019412994385,-0.0,-0.0,-1.0,0.1507452950458375,2.0
19.11620330810547,29.667926788330078,-2.099884510040283,-0.0,-0.0,-1.0,0.19933331761678244,1.0
19.05021858215332,29.763933181762695,-2.097033977508545,-0.0,-0.0,-1.0,0.14242029498244124,1.0
18.394655227661133,30.03692626953125,-1.9679865837097168,-0.0,-0.0,-1.0,0.08064440210107271,1.0
18.614051818847656,30.523235321044922,-2.1046199798583984,-0.0,-0.0,-1.0,0.044759955483160536,2.0
18.292823791503906,30.2208309173584,-1.971407413482666,-0.0,-0.0,-1.0,0.05770200960572032,1.0
18.08972930908203,31.111814498901367,-2.072399139404297,-0.0,-0.0,-1.0,0.10814687889323572,1.0
17.865324020385742,31.224145889282227,-2.0361485481262207,-0.0,-0.0,-1.0,0.15409515730064632,1.0
17.894882202148438,31.53763771057129,-2.101405143737793,-0.0,-0.0,-1.0,0.17492913584003936,1.0
18.233705520629883,29.69547462463379,-1.8717470169067383,-0.0,-0.0,-1.0,0.10660955122839497,2.0
18.044734954833984,29.738941192626953,-1.829073429107666,-0.0,-0.0,-1.0,0.16136209822572967,1.0
18.07098388671875,30.050643920898438,-1.8859801292419434,-0.0,-0.0,-1.0,0.04755064717483257,1.0
18.499162673950195,31.21526336669922,-1.6058859825134277,-0.0,-0.0,-1.0,0.2082280732945705,1.0
19.621414184570312,30.224435806274414,-1.76228928565979,-0.5075524100997544,0.6484672309810589,-0.567345398629167,0.07720097690054287,3.0
19.11526870727539,30.503009796142578,-1.6812961101531982,-0.0,-0.0,-1.0,0.18862271517149637,1.0
19.600889205932617,31.341333389282227,-1.940948247909546,-0.0,-0.0,-1.0,0.12851786710864196,1.0
18.57246971130371,31.176040649414062,-1.6632888317108154,-0.0,-0.0,-1.0,0.09792882211596572,2.0
19.647581100463867,30.25872039794922,-1.7130141258239746,-0.0,-0.0,-1.0,0.0867505044926544,2.0
19.50977325439453,30.661663055419922,-1.7388558387756348,-0.0,-0.0,-1.0,0.12174699642776135,1.0
19.27789306640625,29.71107292175293,-1.2836506366729736,-0.0,-0.0,-1.0,0.13083896440211645,1.0
19.511110305786133,31.08232879638672,-2.0657691955566406,-0.0,-0.0,-1.0,0.15945106990978763,2.0
19.25052261352539,30.90056037902832,-1.9896373748779297,-0.0,-0.0,-1.0,0.14715910400429089,1.0
19.523069381713867,30.369699478149414,-2.1711058616638184,-0.0,-0.0,-1.0,0.17073648118107815,2.0
19.36460304260254,30.352163314819336,-2.155155658721924,-0.0,-0.0,-1.0,0.09546167948157108,1.0
19.666568756103516,30.232990264892578,-2.1476988792419434,-0.0,-0.0,-1.0,0.11976556559196888,1.0
19.16843605041504,30.2867374420166,-2.124600887298584,-0.0,-0.0,-1.0,0.017526517032308512,1.0
18.953380584716797,30.1777286529541,-2.0818819999694824,-0.0,-0.0,-1.0,0.0737340732349172,1.0
18.40182113647461,29.66429901123047,-1.9140372276306152,-0.0,-0.0,-1.0,0.05839746694013244,2.0
18.12513542175293,29.70189666748047,-1.904050350189209,0.004000542943259193,-0.987486374499502,0.1576535944214016,0.1300560066449756,3.0
19.63772201538086,29.96518325805664,-2.1644630432128906,-0.0,-0.0,-1.0,0.08850582751903298,1.0
19.269062042236328,30.14081382751465,-2.13604736328125,-0.0,-0.0,-1.0,0.019198303384466115,2.0
18.134002685546875,29.753807067871094,-1.8822174072265625,-0.0,-0.0,-1.0,0.13010576165016285,1.0
19.7012939453125,31.56877326965332,-2.1841750144958496,-0.0,-0.0,-1.0,0.14710375646113286,1.0
19.690994262695312,30.477336883544922,-2.0207571983337402,-0.0,-0.0,-1.0,0.14866154118233393,1.0
19.57813262939453,31.297225952148438,-1.9295601844787598,-0.0,-0.0,-1.0,0.12411209334478324,1.0
19.21017837524414,30.448644638061523,-1.7237176895141602,-0.0,-0.0,-1.0,0.17293768572229326,1.0
19.572429656982422,30.76324462890625,-2.107356548309326,-0.0,-0.0,-1.0,0.1411594777673374,1.0
19.43674087524414,30.987058639526367,-2.089351177215576,-0.0,-0.0,-1.0,0.17604909641587,1.0
18.883670806884766,29.908639907836914,-1.7806916236877441,-0.0,-0.0,-1.0,0.14276929018672227,1.0
19.151165008544922,31.601112365722656,-2.2672119140625,-0.0,-0.0,-1.0,0.05018707946526939,1.0
19.52337646484375,30.33820343017578,-2.1563167572021484,-0.0,-0.0,-1.0,0.1500873268933795,2.0
18.686439514160156,29.8981876373291,-1.829298973083496,-0.0,-0.0,-1.0,0.13312782907659876,1.0
19.179729461669922,30.620298385620117,-2.102081298828125,-0.0,-0.0,-1.0,0.06751959069356467,1.0
18.980987548828125,30.76487922668457,-2.068354606628418,-0.0,-0.0,-1.0,0.15009231659302436,1.0
19.132488250732422,31.178247451782227,-2.1862287521362305,-0.0,-0.0,-1.0,0.032600819557893596,1.0
18.96834945678711,31.332731246948242,-2.1655235290527344,-0.0,-0.0,-1.0,0.07142728783684826,1.0
18.03339958190918,31.1418399810791,-2.2088003158569336,-0.0,-0.0,-1.0,0.0964482714552184,1.0
17.984968185424805,31.312007904052734,-2.253429412841797,-0.0,-0.0,-1.0,0.13172926451627198,1.0
