x,y,z,nx,ny,nz,curvature,density
3.823629856109619,32.934593200683594,-1.6945836544036865,-0.0,-0.0,-1.0,0.1054752555573151,1.0
4.849652290344238,32.7260856628418,-1.9255452156066895,-0.7085919888594505,-0.20764420453583446,-0.6743747308780846,0.07063791869758203,4.0
4.829994201660156,32.74943161010742,-1.906078577041626,0.08154635717324135,0.6778877481042921,-0.7306287652439275,0.07533914568326992,3.0
4.2113165855407715,31.784839630126953,-1.497926950454712,-0.0,-0.0,-1.0,0.07859579896617316,1.0
4.285228252410889,31.789283752441406,-1.5442490577697754,-0.0,-0.0,-1.0,0.07334532374973532,2.0
4.070613861083984,31.992351531982422,-1.6555213928222656,-0.0,-0.0,-1.0,0.09095613007080401,1.0
4.113382339477539,32.52568054199219,-1.8111445903778076,-0.0,-0.0,-1.0,0.031477566261378674,2.0
5.313220977783203,31.707992553710938,-1.8357188701629639,-0.0,-0.0,-1.0,0.02085051883675052,1.0
4.940739631652832,32.75823974609375,-1.9818378686904907,-0.0,-0.0,-1.0,0.034277319443207645,1.0
5.016121864318848,31.72808074951172,-1.7995754480361938,-0.0,-0.0,-1.0,0.026999887983085093,1.0
4.674668312072754,32.259178161621094,-1.870545744895935,-0.0,-0.0,-1.0,0.013396000325831235,1.0
5.075963020324707,31.705652236938477,-1.8272299766540527,0.13419506242826157,-0.41988671714249187,-0.8976005960265265,0.024524630366233757,3.0
5.054835319519043,31.69170379638672,-1.8238637447357178,-0.0,-0.0,-1.0,0.026530255759823866,2.0
4.81696891784668,32.6673583984375,-1.8959770202636719,-0.025418137390454534,-0.6825181763954463,-0.7304264899231371,0.07851263719125864,3.0
5.175371170043945,31.66449737548828,-1.8363749980926514,-0.0,-0.0,-1.0,0.021748570699964765,2.0
4.152708053588867,31.988143920898438,-1.5496885776519775,-0.0,-0.0,-1.0,0.0758463560302939,2.0
4.8176374435424805,32.753700256347656,-1.9034972190856934,0.08154635717324135,0.6778877481042921,-0.7306287652439275,0.07533914568326994,3.0
3.84329891204834,32.86224365234375,-1.6734511852264404,-0.0,-0.0,-1.0,0.09266233719369558,2.0
4.3570756912231445,31.6511173248291,-1.5564367771148682,0.3781235489518429,-0.15822109069255938,-0.912134128397858,0.11058546897492388,4.0
5.092047691345215,32.43092727661133,-1.925170660018921,-0.0,-0.0,-1.0,0.010604165937810594,1.0
5.2564897537231445,33.28996276855469,-2.037813663482666,-0.0,-0.0,-1.0,0.01226178833716086,1.0
3.84647274017334,32.70522689819336,-1.6346945762634277,-0.0,-0.0,-1.0,0.07935056577029259,1.0
5.219604969024658,32.492698669433594,-2.0245413780212402,-0.0,-0.0,-1.0,0.01109357431658556,1.0
4.960981845855713,32.015296936035156,-1.9361281394958496,-0.0,-0.0,-1.0,0.008581842639976172,1.0
5.059264659881592,32.276981353759766,-1.9856953620910645,-0.0,-0.0,-1.0,0.010596056355155111,1.0
5.1514081954956055,32.305267333984375,-1.9978327751159668,-0.0,-0.0,-1.0,0.011396528987786073,1.0
4.990464210510254,32.214298248291016,-1.988396167755127,-0.0,-0.0,-1.0,0.009781907077317681,1.0
5.337879180908203,32.69159698486328,-2.0654234886169434,-0.0,-0.0,-1.0,0.008853878415740073,1.0
5.542872428894043,32.9698600769043,-2.110382556915283,-0.0,-0.0,-1.0,0.009372071275190338,1.0
5.222936630249023,32.19911193847656,-1.934401035308838,-0.0,-0.0,-1.0,0.0190135606959455,1.0
5.432426452636719,32.5115966796875,-1.9940123558044434,-0.0,-0.0,-1.0,0.008509591291038473,1.0
5.488797187805176,32.668174743652344,-2.0257158279418945,-0.0,-0.0,-1.0,0.00838162622802228,1.0
5.119298934936523,32.198272705078125,-1.938270092010498,-0.0,-0.0,-1.0,0.013874834870277129,1.0
4.674295425415039,32.51306915283203,-1.8171780109405518,-0.0,-0.0,-1.0,0.05657862905530611,1.0
4.7779998779296875,32.83836364746094,-1.868802785873413,-0.0,-0.0,-1.0,0.0585286137243596,1.0
4.906689167022705,33.37555694580078,-1.9567310810089111,-0.0,-0.0,-1.0,0.024835617757817185,1.0
4.434874534606934,32.72450256347656,-1.8688199520111084,-0.44828268098109614,-0.537521801247007,-0.714221920075668,0.05702847668511855,3.0
4.461704730987549,33.199684143066406,-1.9513680934906006,-0.0,-0.0,-1.0,0.0288740096382483,1.0
5.426461696624756,32.134037017822266,-2.016406536102295,-0.0,-0.0,-1.0,0.020525657920663118,2.0
5.498753547668457,32.214088439941406,-2.0273289680480957,-0.0,-0.0,-1.0,0.009452361072008884,1.0
5.320338249206543,31.960145950317383,-1.9897913932800293,-0.0,-0.0,-1.0,0.021478508472472246,1.0
4.802712440490723,33.62893295288086,-2.046593189239502,-0.0,-0.0,-1.0,0.022785418442756968,1.0
4.407557010650635,32.91360855102539,-1.9378352165222168,-0.0,-0.0,-1.0,0.016998584814028484,1.0
4.538548469543457,33.087711334228516,-1.9620857238769531,-0.0,-0.0,-1.0,0.01303090907841004,2.0
4.633542060852051,33.39214324951172,-2.012559413909912,-0.0,-0.0,-1.0,0.024852342192345195,1.0
4.378077507019043,32.57994842529297,-1.878465175628662,-0.3365311603737856,-0.6447413664364998,-0.6863347204557471,0.03619732677062264,3.0
3.818692207336426,32.84915542602539,-1.6233670711517334,-0.0,-0.0,-1.0,0.09164208690953386,2.0
4.682723522186279,33.12843704223633,-1.9371576309204102,-0.0,-0.0,-1.0,0.014534839029761144,1.0
4.746964454650879,33.40363693237305,-1.9897708892822266,-0.0,-0.0,-1.0,0.019740926518531838,1.0
4.411877632141113,32.55617141723633,-1.8391704559326172,-0.0,-0.0,-1.0,0.04124252187129645,1.0
4.470004081726074,33.00871276855469,-1.928466796875,-0.0,-0.0,-1.0,0.01584340483066252,1.0
5.537652015686035,32.01176452636719,-2.0943334102630615,-0.0,-0.0,-1.0,0.02042470095958716,1.0
5.328876495361328,31.80988311767578,-2.0624353885650635,-0.0,-0.0,-1.0,0.02114078848467789,1.0
3.7500529289245605,32.925289154052734,-1.6991207599639893,-0.0,-0.0,-1.0,0.1054752555573151,1.0
3.7248549461364746,33.631614685058594,-1.8451006412506104,-0.0,-0.0,-1.0,0.03246007847310272,1.0
5.456357955932617,32.147491455078125,-1.9866094589233398,-0.0,-0.0,-1.0,0.01881687395298331,2.0
5.233173370361328,31.92801284790039,-1.9465770721435547,-0.0,-0.0,-1.0,0.02400411773238848,1.0
5.18795108795166,33.466285705566406,-2.076714038848877,-0.0,-0.0,-1.0,0.019319005144304745,1.0
4.793533802032471,32.69648742675781,-1.922379970550537,-0.025418137390454534,-0.6825181763954463,-0.7304264899231371,0.08665472926297939,3.0
4.85250997543335,33.11445617675781,-2.015536308288574,-0.0,-0.0,-1.0,0.02134786797459385,2.0
5.020413398742676,33.34892654418945,-2.0595383644104004,-0.0,-0.0,-1.0,0.019714840268663013,2.0
4.6461076736450195,32.5219841003418,-1.8919739723205566,-0.018855186543781922,-0.970038745799185,-0.2422174923260985,0.04077254924926465,4.0
4.42271614074707,32.30766296386719,-1.8581976890563965,-0.0,-0.0,-1.0,0.019569312172863087,1.0
4.390261173248291,31.867033004760742,-1.759178638458252,-0.0,-0.0,-1.0,0.06254098960214582,2.0
4.354767799377441,32.21845245361328,-1.8425993919372559,-0.0,-0.0,-1.0,0.02365708269077191,1.0
5.0808258056640625,33.447784423828125,-2.060037851333618,-0.0,-0.0,-1.0,0.02029570502935059,1.0
4.714478015899658,32.736732482910156,-1.912475347518921,-0.0,-0.0,-1.0,0.0868577737541468,1.0
4.850119113922119,33.14366149902344,-2.002220869064331,-0.0,-0.0,-1.0,0.018984864450382794,2.0
4.94460391998291,33.251869201660156,-2.021634817123413,-0.0,-0.0,-1.0,0.021969565639491442,2.0
4.623742580413818,32.524314880371094,-1.8676726818084717,-0.29284296864606757,-0.9391734627748463,-0.17943300291212452,0.05471712514611316,3.0
4.405553340911865,31.771934509277344,-1.702211618423462,-0.0,-0.0,-1.0,0.09242351753913126,2.0
4.360486030578613,32.31159591674805,-1.8385465145111084,-0.0,-0.0,-1.0,0.01799412552338028,1.0
4.463109016418457,32.56627655029297,-1.8919498920440674,-0.0,-0.0,-1.0,0.05106040735743116,1.0
4.162026405334473,32.955562591552734,-1.7857513427734375,-0.0,-0.0,-1.0,0.09807711486528743,1.0
4.237273216247559,33.28807830810547,-1.8583502769470215,-0.0,-0.0,-1.0,0.08403513344662226,1.0
4.224818229675293,33.525238037109375,-1.9172892570495605,-0.0,-0.0,-1.0,0.04024785317327614,1.0
4.014100551605225,32.889015197753906,-1.7858867645263672,-0.0,-0.0,-1.0,0.059022303739275916,1.0
4.099735736846924,33.35002517700195,-1.8879790306091309,-0.0,-0.0,-1.0,0.026878758549821316,1.0
4.132721424102783,33.435638427734375,-1.9052209854125977,-0.0,-0.0,-1.0,0.031003690636742794,1.0
4.194751739501953,31.674577713012695,-1.4733314514160156,-0.0,-0.0,-1.0,0.08940862078094206,1.0
4.6874871253967285,33.556793212890625,-1.9587554931640625,-0.0,-0.0,-1.0,0.030056650244878858,1.0
4.339138031005859,33.23822021484375,-1.9150876998901367,-0.0,-0.0,-1.0,0.035755005894049334,2.0
4.470254898071289,33.44302749633789,-1.9535331726074219,-0.0,-0.0,-1.0,0.03227012308759049,1.0
4.687196254730225,32.758079528808594,-1.74812650680542,-0.0,-0.0,-1.0,0.08608053039357913,1.0
4.238361835479736,31.641582489013672,-1.51212477684021,-0.0,-0.0,-1.0,0.07841363319178639,1.0
4.27134895324707,31.6893367767334,-1.5201842784881592,-0.0,-0.0,-1.0,0.08076150927016741,1.0
4.232524394989014,32.82879638671875,-1.8209471702575684,-0.0,-0.0,-1.0,0.03418376883542717,1.0
4.331449031829834,32.930747985839844,-1.8355169296264648,-0.0,-0.0,-1.0,0.022158493243132835,1.0
4.120983600616455,32.606101989746094,-1.7769474983215332,-0.0,-0.0,-1.0,0.03527100019949307,1.0
4.298948287963867,31.754926681518555,-1.5588510036468506,-0.0,-0.0,-1.0,0.07334532374973518,2.0
4.215373992919922,31.937829971313477,-1.5687766075134277,-0.0,-0.0,-1.0,0.07422429936117994,1.0
3.768878936767578,32.719017028808594,-1.666238784790039,0.7494044903240736,-0.11971473329667683,-0.6511998867581448,0.08416524260492673,3.0
4.251010894775391,31.833696365356445,-1.6093337535858154,-0.0,-0.0,-1.0,0.09918386379583188,2.0
3.7716331481933594,32.81818771362305,-1.6356414556503296,-0.0,-0.0,-1.0,0.09164208690953389,1.0
4.1723785400390625,31.999717712402344,-1.5850847959518433,-0.0,-0.0,-1.0,0.07969363538037204,2.0
4.249895095825195,31.82793426513672,-1.5751961469650269,-0.0,-0.0,-1.0,0.06860708646121874,2.0
4.349161148071289,31.645288467407227,-1.5631152391433716,0.4717322495936506,0.8609588471916955,-0.19031171308056802,0.11058546897492387,5.0
4.910121917724609,33.29481506347656,-2.0720784664154053,-0.0,-0.0,-1.0,0.022107004192037084,1.0
4.330659866333008,31.6746768951416,-1.495059609413147,-0.0,-0.0,-1.0,0.10175248714332362,1.0
4.355875015258789,33.394500732421875,-1.9216735363006592,-0.0,-0.0,-1.0,0.040891158637923454,1.0
4.370723724365234,33.014225006103516,-1.9045398235321045,-0.0,-0.0,-1.0,0.019519547646465126,1.0
4.651823043823242,32.40705108642578,-1.8500266075134277,-0.0,-0.0,-1.0,0.028393780529107526,1.0
4.584575653076172,32.211673736572266,-1.8497560024261475,-0.0,-0.0,-1.0,0.018333669060846172,1.0
5.199321746826172,33.294456481933594,-2.0460267066955566,-0.0,-0.0,-1.0,0.017494034284178245,2.0
5.418201446533203,32.65874099731445,-1.9916480779647827,-0.0,-0.0,-1.0,0.009094187533214506,1.0
4.737428665161133,33.5980224609375,-1.9645161628723145,-0.0,-0.0,-1.0,0.02694605530975364,1.0
4.761405944824219,33.21617889404297,-1.945249319076538,-0.0,-0.0,-1.0,0.0171687009544041,1.0
4.689353942871094,33.04424285888672,-1.9467785358428955,-0.0,-0.0,-1.0,0.013111825569189236,1.0
4.4151763916015625,33.22361755371094,-1.917466163635254,-0.0,-0.0,-1.0,0.03543268816746015,1.0
4.498874664306641,32.977230072021484,-1.8934674263000488,-0.0,-0.0,-1.0,0.01738133827719155,1.0
4.474180221557617,32.70635986328125,-1.879836082458496,-0.44828268098109614,-0.537521801247007,-0.714221920075668,0.08061532576214187,3.0
4.634466171264648,32.304588317871094,-1.8386907577514648,-0.0,-0.0,-1.0,0.010795839296233753,2.0
5.132871627807617,33.412445068359375,-2.0412302017211914,-0.0,-0.0,-1.0,0.02007861449499895,1.0
5.206817626953125,33.33937072753906,-2.027470588684082,-0.0,-0.0,-1.0,0.016902051728822455,2.0
5.033012390136719,33.285152435302734,-2.051898241043091,-0.0,-0.0,-1.0,0.021728936506173253,1.0
5.175731658935547,33.38898468017578,-2.1080398559570312,-0.0,-0.0,-1.0,0.01651335681488185,1.0
4.093191146850586,32.988807678222656,-1.8877049684524536,-0.0,-0.0,-1.0,0.027911902523795384,1.0
4.075014114379883,32.52937316894531,-1.8337441682815552,-0.0,-0.0,-1.0,0.029776139318454405,2.0
3.9868221282958984,32.299293518066406,-1.8108323812484741,-0.0,-0.0,-1.0,0.033563816450395,1.0
4.07798957824707,31.9948787689209,-1.7704991102218628,-0.0,-0.0,-1.0,0.08732441513956293,1.0
4.064849853515625,31.87796974182129,-1.757466197013855,-0.0,-0.0,-1.0,0.09440731682190748,1.0
4.443629264831543,33.56897735595703,-1.8437559604644775,-0.0,-0.0,-1.0,0.032524843751122814,1.0
4.417407989501953,33.37356185913086,-1.8193655014038086,-0.0,-0.0,-1.0,0.041924827038458866,1.0
4.125123977661133,33.007137298583984,-1.779813289642334,-0.0,-0.0,-1.0,0.11413253767492643,1.0
4.146274566650391,32.611061096191406,-1.729783535003662,-0.0,-0.0,-1.0,0.04683999116902851,1.0
4.170133590698242,32.36345672607422,-1.6984496116638184,-0.0,-0.0,-1.0,0.036647492437976194,1.0
4.110958099365234,32.15338897705078,-1.6741433143615723,-0.0,-0.0,-1.0,0.05576876642738675,2.0
4.122042655944824,31.789337158203125,-1.6292672157287598,-0.0,-0.0,-1.0,0.12004688347800525,1.0
4.185331344604492,32.13642120361328,-1.7915226221084595,-0.0,-0.0,-1.0,0.06207460727766447,1.0
4.164165496826172,32.54029846191406,-1.8303333520889282,-0.0,-0.0,-1.0,0.029557072964364772,1.0
4.188592910766602,32.79107666015625,-1.8532801866531372,-0.0,-0.0,-1.0,0.03781873450967341,1.0
3.909465789794922,33.6103630065918,-1.9398308992385864,-0.0,-0.0,-1.0,0.02086949602800503,1.0
3.7358264923095703,32.68866729736328,-1.642636775970459,-0.0,-0.0,-1.0,0.07903134426304784,1.0
3.8139781951904297,32.85915756225586,-1.654996633529663,-0.08176995479597447,-0.9537086287129637,-0.2894020145249561,0.09164208690953386,3.0
3.752635955810547,32.66217041015625,-1.7163411378860474,-0.0,-0.0,-1.0,0.07276140599505128,2.0
3.889921188354492,32.835872650146484,-1.7242876291275024,-0.0,-0.0,-1.0,0.09266233719369558,2.0
4.3355865478515625,31.649654388427734,-1.601650357246399,0.8116447354562557,0.5555760777999725,-0.18046618847458049,0.11058546897492387,4.0
4.2049560546875,31.94217300415039,-1.6328874826431274,-0.0,-0.0,-1.0,0.08883005607595328,1.0
4.656309127807617,32.53701400756836,-1.917287826538086,0.14129928772828323,-0.8751862245618255,-0.4626916723096471,0.04397309631696089,3.0
4.534372329711914,33.56522750854492,-1.9761829376220703,-0.0,-0.0,-1.0,0.028699003802105657,2.0
4.113882064819336,32.714149475097656,-1.7733570337295532,-0.0,-0.0,-1.0,0.055495071419896395,1.0
3.9197654724121094,33.16265106201172,-1.817705750465393,-0.0,-0.0,-1.0,0.05676506216108336,1.0
3.8544349670410156,33.36029052734375,-1.8353325128555298,-0.0,-0.0,-1.0,0.037934573920559184,1.0
4.504297256469727,31.948619842529297,-1.6869255304336548,-0.0,-0.0,-1.0,0.06264634071648904,1.0
5.006601333618164,33.24266815185547,-2.0069708824157715,-0.0,-0.0,-1.0,0.02596554747479666,2.0
4.914182662963867,33.463470458984375,-2.031994342803955,-0.0,-0.0,-1.0,0.022242785556711935,2.0
4.9393463134765625,33.17897415161133,-2.0093679428100586,-0.0,-0.0,-1.0,0.01831058796804312,2.0
3.8871116638183594,32.82202911376953,-1.6854890584945679,-0.0,-0.0,-1.0,0.09266233719369558,2.0
3.9496936798095703,33.008949279785156,-1.685552954673767,-0.0,-0.0,-1.0,0.09409764928186735,1.0
3.739473342895508,32.71031188964844,-1.6984785795211792,0.741437953687877,-0.31981873823609785,-0.5899031577337118,0.08416524260492676,3.0
5.303840637207031,33.21892547607422,-2.0584614276885986,-0.0,-0.0,-1.0,0.012643651358765542,2.0
5.286062240600586,33.514923095703125,-2.079707145690918,-0.0,-0.0,-1.0,0.012922633083032124,1.0
5.36549186706543,32.99608612060547,-2.035841941833496,-0.0,-0.0,-1.0,0.00932272908788518,2.0
3.723094940185547,32.686607360839844,-1.7062127590179443,-0.04366045976118672,0.3370224552517147,-0.9404837207041639,0.07582104154654808,3.0
3.8798999786376953,32.92511749267578,-1.7034854888916016,-0.0,-0.0,-1.0,0.09502825431368361,1.0
3.8622074127197266,32.72426223754883,-1.6923878192901611,-0.0,-0.0,-1.0,0.0766757833027275,2.0
4.341087341308594,31.66002655029297,-1.5677802562713623,0.4717322495936506,0.8609588471916955,-0.19031171308056802,0.11058546897492387,5.0
3.896993637084961,32.98535919189453,-1.7728512287139893,-0.0,-0.0,-1.0,0.062343472052784836,1.0
3.856382369995117,32.670127868652344,-1.7688381671905518,-0.0,-0.0,-1.0,0.07101048800451305,2.0
4.21939754486084,31.92462921142578,-1.6869635581970215,-0.0,-0.0,-1.0,0.10300724713695601,1.0
4.126224517822266,32.1461296081543,-1.7088375091552734,-0.0,-0.0,-1.0,0.05576876642738674,2.0
4.3284912109375,31.65103530883789,-1.6610510349273682,-0.0,-0.0,-1.0,0.09218463161437275,1.0
4.315596580505371,33.490413665771484,-1.9692397117614746,-0.0,-0.0,-1.0,0.040891158637923405,1.0
4.389695167541504,33.318634033203125,-1.9479622840881348,-0.0,-0.0,-1.0,0.039074771410987884,2.0
4.69256591796875,32.73684310913086,-1.8675148487091064,-0.0,-0.0,-1.0,0.08698838401164635,1.0
4.3186187744140625,33.156620025634766,-1.9516475200653076,-0.0,-0.0,-1.0,0.03276248540656112,1.0
4.518884658813477,32.52653503417969,-1.886650562286377,-0.0,-0.0,-1.0,0.03685327167697412,1.0
4.459789276123047,32.256778717041016,-1.8839576244354248,-0.0,-0.0,-1.0,0.011354537943445117,1.0
5.410895347595215,33.245243072509766,-2.084751844406128,-0.0,-0.0,-1.0,0.00894450533130152,1.0
5.477593421936035,32.83256149291992,-2.0346131324768066,-0.0,-0.0,-1.0,0.008734804346756461,2.0
5.4339752197265625,32.97011184692383,-2.054617404937744,-0.0,-0.0,-1.0,0.010996527566126074,1.0
4.090761184692383,33.12556838989258,-1.572507381439209,-0.0,-0.0,-1.0,0.11288157707400914,1.0
3.786985397338867,33.03387451171875,-1.609372854232788,-0.0,-0.0,-1.0,0.10903985875883915,2.0
4.123203277587891,31.718887329101562,-1.4833872318267822,-0.0,-0.0,-1.0,0.11297964816439818,1.0
4.038243293762207,31.927656173706055,-1.5076091289520264,-0.0,-0.0,-1.0,0.09568596419182786,1.0
4.874493598937988,33.58291244506836,-2.050661087036133,-0.0,-0.0,-1.0,0.017770325954764875,1.0
4.854459762573242,33.201255798339844,-2.01302433013916,-0.0,-0.0,-1.0,0.020664583295922235,1.0
4.880192756652832,32.74009704589844,-1.9612761735916138,-0.0,-0.0,-1.0,0.057371121631249744,2.0
4.909045219421387,32.475582122802734,-1.9300428628921509,-0.0,-0.0,-1.0,0.02110237069066014,1.0
5.019365310668945,31.949161529541016,-1.8608931303024292,-0.0,-0.0,-1.0,0.01633968543567079,1.0
4.915104866027832,32.1494255065918,-1.8963509798049927,-0.0,-0.0,-1.0,0.009411537875101678,1.0
5.122206687927246,31.708728790283203,-1.8217555284500122,0.2594534547610775,-0.7419033783789988,-0.6182744390336461,0.022076363346974943,4.0
4.455169677734375,33.339847564697266,-1.9329642057418823,-0.0,-0.0,-1.0,0.03914648877464374,1.0
4.366491317749023,33.29550552368164,-1.9372330904006958,-0.0,-0.0,-1.0,0.03053372280280009,2.0
4.266441345214844,33.06497573852539,-1.9190975427627563,-0.0,-0.0,-1.0,0.022107242095885368,1.0
4.396265983581543,32.80641174316406,-1.8716243505477905,-0.0,-0.0,-1.0,0.04284936400863609,2.0
4.35252571105957,32.55824661254883,-1.8455497026443481,-0.0,-0.0,-1.0,0.038024850157315784,2.0
4.317537307739258,32.25933074951172,-1.8125056028366089,-0.0,-0.0,-1.0,0.017637078553252947,1.0
4.317014694213867,32.06748962402344,-1.7889970541000366,-0.0,-0.0,-1.0,0.05379532427178398,1.0
4.4121551513671875,31.829063415527344,-1.7485612630844116,-0.0,-0.0,-1.0,0.07288844307031953,2.0
4.398287773132324,31.70673370361328,-1.7353695631027222,-0.0,-0.0,-1.0,0.09724543316833961,1.0
4.178182601928711,33.27933120727539,-1.9074528217315674,-0.0,-0.0,-1.0,0.032852174439573105,1.0
4.333280563354492,33.26881790161133,-1.8905222415924072,-0.0,-0.0,-1.0,0.03511148967499525,2.0
4.278753280639648,32.92384719848633,-1.848142385482788,-0.0,-0.0,-1.0,0.02308382955824892,1.0
4.689485549926758,32.67073059082031,-1.7716500759124756,-0.0,-0.0,-1.0,0.08541267486163945,1.0
4.2267866134643555,32.62704086303711,-1.8129208087921143,-0.0,-0.0,-1.0,0.03417210959888276,1.0
4.256984710693359,32.14311981201172,-1.7445600032806396,-0.0,-0.0,-1.0,0.0629468760470781,1.0
4.410073280334473,31.751258850097656,-1.6758911609649658,-0.0,-0.0,-1.0,0.09724543316833958,2.0
4.282752990722656,33.134666442871094,-1.5977556705474854,-0.0,-0.0,-1.0,0.10731189193071433,1.0
5.6541900634765625,32.91642761230469,-2.0642261505126953,-0.0,-0.0,-1.0,0.008937000253296893,1.0
5.55476188659668,32.67906188964844,-2.019296169281006,-0.0,-0.0,-1.0,0.0072505473856511946,1.0
5.270663261413574,32.30951690673828,-1.9536261558532715,-0.0,-0.0,-1.0,0.010594223815704254,1.0
5.134593963623047,32.129302978515625,-1.9225232601165771,-0.0,-0.0,-1.0,0.01820339601901814,1.0
5.26222038269043,31.685516357421875,-1.8330001831054688,-0.0,-0.0,-1.0,0.020850518836750553,1.0
5.173443794250488,31.6635799407959,-1.8316819667816162,-0.0,-0.0,-1.0,0.022352186060597076,2.0
4.969249725341797,32.4404182434082,-1.9251788854599,-0.0,-0.0,-1.0,0.013963190018621655,1.0
4.854069709777832,32.258888244628906,-1.8986386060714722,-0.0,-0.0,-1.0,0.013247386666822436,1.0
4.506239891052246,32.223655700683594,-1.873374104499817,-0.0,-0.0,-1.0,0.017871385821510235,1.0
4.517004013061523,32.005271911621094,-1.8389033079147339,-0.0,-0.0,-1.0,0.022030247492528382,1.0
4.647239685058594,32.168907165527344,-1.8577982187271118,-0.0,-0.0,-1.0,0.01959749953041003,1.0
4.577205657958984,31.691768646240234,-1.7872554063796997,-0.0,-0.0,-1.0,0.06432815694647315,1.0
4.784398078918457,33.47151565551758,-1.997664213180542,-0.0,-0.0,-1.0,0.02432032898181851,1.0
4.776182174682617,32.628318786621094,-1.8999226093292236,-0.0,-0.0,-1.0,0.0744027627310361,1.0
4.64523983001709,32.317626953125,-1.8734028339385986,-0.0,-0.0,-1.0,0.010968527751016142,2.0
4.297664642333984,32.83041763305664,-1.843639850616455,-0.0,-0.0,-1.0,0.03539685859200218,1.0
4.384981155395508,32.796016693115234,-1.8359365463256836,-0.0,-0.0,-1.0,0.04303726709183755,2.0
4.29140567779541,32.65492248535156,-1.826761245727539,-0.0,-0.0,-1.0,0.05259013225558914,1.0
4.336238384246826,31.651086807250977,-1.5643305778503418,0.4717322495936506,0.8609588471916955,-0.19031171308056802,0.09451825429333914,5.0
5.4674530029296875,31.855493545532227,-2.018131732940674,-0.0,-0.0,-1.0,0.017509096005399884,1.0
4.700381755828857,32.367149353027344,-1.8688781261444092,-0.0,-0.0,-1.0,0.01842893955642179,1.0
4.7881693840026855,32.68290710449219,-1.909503698348999,-0.025418137390454534,-0.6825181763954463,-0.7304264899231371,0.07922845331779392,3.0
4.820420265197754,33.34102249145508,-2.006427526473999,-0.0,-0.0,-1.0,0.01993128517314182,1.0
4.905619144439697,33.45245361328125,-2.0165069103240967,-0.0,-0.0,-1.0,0.024966759574975274,2.0
4.505521774291992,31.884347915649414,-1.8119380474090576,-0.0,-0.0,-1.0,0.04386063700401807,1.0
4.5509257316589355,32.396461486816406,-1.8854763507843018,-0.0,-0.0,-1.0,0.02481776417579887,1.0
4.093923568725586,31.654769897460938,-1.5086705684661865,-0.0,-0.0,-1.0,0.11297964816439815,1.0
4.7242021560668945,33.5785026550293,-2.0316221714019775,-0.0,-0.0,-1.0,0.025985782395433022,1.0
4.357906818389893,32.608211517333984,-1.895125150680542,-0.0,-0.0,-1.0,0.03819139111398887,2.0
4.5009613037109375,33.042449951171875,-1.9573404788970947,-0.0,-0.0,-1.0,0.017592298338937547,1.0
4.5287275314331055,33.391536712646484,-2.013270139694214,-0.0,-0.0,-1.0,0.03179074866992985,1.0
5.302710056304932,33.22804260253906,-2.068936824798584,-0.0,-0.0,-1.0,0.012643651358765554,2.0
5.518775939941406,33.551673889160156,-2.1145901679992676,-0.0,-0.0,-1.0,0.008963498422137124,1.0
5.120403289794922,31.702817916870117,-1.80342435836792,0.6585316947767026,-0.7327531084739091,-0.17149020087558295,0.022076363346974815,3.0
5.18650484085083,31.79983901977539,-1.8167572021484375,-0.0,-0.0,-1.0,0.021748570699964744,1.0
5.088658809661865,32.93104553222656,-2.0284504890441895,-0.0,-0.0,-1.0,0.009906913480950416,1.0
5.18593692779541,33.13898468017578,-2.0600647926330566,-0.0,-0.0,-1.0,0.015458910367080341,1.0
5.609142303466797,33.58152770996094,-2.152982234954834,-0.0,-0.0,-1.0,0.006331266243443419,1.0
5.391729354858398,33.34136199951172,-2.1200199127197266,-0.0,-0.0,-1.0,0.007509567414406607,1.0
5.072271347045898,32.680091857910156,-2.0133461952209473,-0.0,-0.0,-1.0,0.01683093329368957,1.0
5.144962310791016,33.028953552246094,-2.0753936767578125,-0.0,-0.0,-1.0,0.00971447859396136,1.0
5.146198272705078,31.73168182373047,-1.8277015686035156,0.6585316947767026,-0.7327531084739091,-0.17149020087558295,0.02174857069996481,3.0
4.228461265563965,33.24610137939453,-1.8971662521362305,-0.0,-0.0,-1.0,0.03667098895055127,1.0
4.184377193450928,32.84679412841797,-1.8223118782043457,-0.0,-0.0,-1.0,0.03417530162632689,1.0
5.686591148376465,33.02865219116211,-2.0933120250701904,-0.0,-0.0,-1.0,0.008172170318692018,2.0
5.431423187255859,32.69317626953125,-2.029413938522339,-0.0,-0.0,-1.0,0.008523978838283033,1.0
5.466145038604736,32.83029556274414,-2.058563470840454,-0.0,-0.0,-1.0,0.008734804346756471,2.0
5.197836875915527,32.45783615112305,-1.98783278465271,-0.0,-0.0,-1.0,0.010722498794908872,1.0
5.21916389465332,32.696510314941406,-2.0400893688201904,-0.0,-0.0,-1.0,0.011298427138396183,1.0
5.076078414916992,32.093109130859375,-1.9123623371124268,-0.0,-0.0,-1.0,0.01903542874734192,1.0
4.943228721618652,33.194427490234375,-2.010399341583252,-0.9665693853190852,0.2473444780132135,0.06755984428828371,0.020034598943336104,3.0
5.02752685546875,33.45477294921875,-2.0662007331848145,-0.0,-0.0,-1.0,0.021943775079610053,1.0
4.754764556884766,32.9783935546875,-1.9690537452697754,-0.0,-0.0,-1.0,0.01927032297798762,1.0
4.542428016662598,32.703765869140625,-1.915985107421875,-0.0,-0.0,-1.0,0.07032925906220813,1.0
4.589561462402344,32.90916442871094,-1.9603066444396973,-0.0,-0.0,-1.0,0.030656895837455324,1.0
5.670078754425049,32.53022766113281,-2.0409252643585205,-0.0,-0.0,-1.0,0.008951882968419388,1.0
5.61493444442749,32.59502410888672,-2.058321237564087,-0.0,-0.0,-1.0,0.006510476292696049,1.0
5.337300777435303,32.29367446899414,-1.9895975589752197,-0.0,-0.0,-1.0,0.010080904489580595,1.0
5.581464767456055,31.79296875,-2.0235445499420166,-0.0,-0.0,-1.0,0.017509096005399842,1.0
5.440300941467285,31.646259307861328,-1.9911048412322998,-0.0,-0.0,-1.0,0.021140788484677882,1.0
4.00048828125,31.77035903930664,-1.5093271732330322,-0.0,-0.0,-1.0,0.11221152601218042,1.0
4.099510669708252,31.931346893310547,-1.540158987045288,-0.0,-0.0,-1.0,0.0956859641918279,1.0
3.8884129524230957,31.745330810546875,-1.5122425556182861,-0.0,-0.0,-1.0,0.12004688347800525,1.0
5.211454391479492,33.53120422363281,-2.0959110260009766,-0.0,-0.0,-1.0,0.017366659078444032,1.0
4.951655864715576,33.23187255859375,-2.0269241333007812,-0.7695778149674868,-0.1047822889582642,-0.6298973397550867,0.02282731385209278,3.0
4.585266590118408,32.853660583496094,-1.9435558319091797,-0.0,-0.0,-1.0,0.038746017579675184,1.0
4.649145126342773,32.71331787109375,-1.9018158912658691,-0.0,-0.0,-1.0,0.0902716504245467,1.0
4.133613586425781,33.10152816772461,-1.8254494667053223,-0.0,-0.0,-1.0,0.11978027538614179,2.0
4.208016872406006,33.4398078918457,-1.9144062995910645,-0.0,-0.0,-1.0,0.039545842401302995,1.0
3.861729145050049,32.699867248535156,-1.7353935241699219,-0.8851199112071961,0.40893070943331666,-0.22212252849931696,0.07541525032522833,3.0
4.030651092529297,32.99651336669922,-1.804333209991455,-0.0,-0.0,-1.0,0.06963416544031734,1.0
5.381192207336426,31.85910987854004,-1.945305347442627,-0.0,-0.0,-1.0,0.021140788484678003,1.0
5.374959945678711,33.5301399230957,-2.1065480709075928,-0.0,-0.0,-1.0,0.012082117217182348,1.0
5.046788215637207,33.333187103271484,-2.0716054439544678,-0.0,-0.0,-1.0,0.020431944393974045,2.0
4.813053131103516,33.00605773925781,-2.0075299739837646,-0.0,-0.0,-1.0,0.014331431921686347,1.0
4.632464408874512,32.52989196777344,-1.9110982418060303,-0.018855186543781922,-0.970038745799185,-0.2422174923260985,0.04048856646401607,4.0
4.402895927429199,32.25189971923828,-1.8583028316497803,-0.0,-0.0,-1.0,0.01757687212688294,1.0
4.243717193603516,32.0301628112793,-1.8158328533172607,-0.0,-0.0,-1.0,0.06097584564713868,1.0
4.275692939758301,31.70075225830078,-1.7456300258636475,-0.0,-0.0,-1.0,0.08833781868175954,1.0
3.782102584838867,32.753822326660156,-1.6574194431304932,-0.0,-0.0,-1.0,0.08416524260492676,2.0
4.31857442855835,33.52446746826172,-1.9270522594451904,-0.0,-0.0,-1.0,0.040891158637923385,1.0
4.09976863861084,33.056610107421875,-1.8395788669586182,-0.0,-0.0,-1.0,0.06741504523939403,1.0
4.375680923461914,33.35829162597656,-1.8606383800506592,-0.0,-0.0,-1.0,0.04192482703845885,1.0
4.125185489654541,33.1276741027832,-1.8200008869171143,-0.0,-0.0,-1.0,0.1170183212797675,2.0
4.251652717590332,33.015193939208984,-1.7965409755706787,-0.0,-0.0,-1.0,0.0808431232648331,1.0
5.685762405395508,33.1104736328125,-2.0857136249542236,-0.0,-0.0,-1.0,0.005918773700529745,2.0
5.350637912750244,33.01759338378906,-2.0561201572418213,-0.0,-0.0,-1.0,0.009498805872069842,2.0
5.1185302734375,32.86824035644531,-2.0181148052215576,-0.0,-0.0,-1.0,0.013323478779834492,1.0
5.6917524337768555,33.06401824951172,-2.0760366916656494,0.9293508157111341,0.04346050939374661,-0.3666309390385459,0.0068990437278093975,3.0
5.000572204589844,32.38577651977539,-1.9132850170135498,-0.0,-0.0,-1.0,0.011204966092149953,1.0
4.815598011016846,32.31186294555664,-1.8931353092193604,-0.0,-0.0,-1.0,0.012907561442856328,1.0
4.621438503265381,32.014793395996094,-1.8260796070098877,-0.0,-0.0,-1.0,0.013811516039837166,1.0
4.576442718505859,33.54047775268555,-2.0230278968811035,-0.0,-0.0,-1.0,0.027073223809035592,1.0
4.972795486450195,33.26376724243164,-1.977005958557129,-0.0,-0.0,-1.0,0.023568759604674576,2.0
4.756291389465332,33.31999206542969,-1.9831767082214355,-0.0,-0.0,-1.0,0.02206557727727273,1.0
4.511990547180176,33.09945297241211,-1.9340839385986328,-0.0,-0.0,-1.0,0.02903933389733493,2.0
4.447261810302734,32.6915283203125,-1.851778507232666,-0.44828268098109614,-0.537521801247007,-0.714221920075668,0.07332185896085737,3.0
5.613729953765869,31.79460906982422,-1.9820599555969238,-0.0,-0.0,-1.0,0.01750909600539989,1.0
5.095661640167236,33.07683563232422,-1.9825739860534668,-0.0,-0.0,-1.0,0.013461994035008362,1.0
4.767440319061279,32.70356750488281,-1.8553977012634277,-0.0,-0.0,-1.0,0.09016915406284862,1.0
5.616069793701172,32.67018508911133,-1.973459243774414,-0.0,-0.0,-1.0,0.006796654595522197,1.0
5.316227912902832,32.88734817504883,-1.9906158447265625,-0.0,-0.0,-1.0,0.009769100846734291,1.0
4.906109809875488,32.53018569946289,-1.8543281555175781,-0.0,-0.0,-1.0,0.03475602956157466,1.0
3.7954182624816895,32.53912353515625,-1.7293701171875,-0.0,-0.0,-1.0,0.04642242773288749,1.0
4.970588684082031,33.6173210144043,-1.9812507629394531,-0.0,-0.0,-1.0,0.021187119309095524,1.0
4.529640197753906,33.58314514160156,-1.935978889465332,-0.0,-0.0,-1.0,0.02869900380210568,2.0
3.9150705337524414,32.70201110839844,-1.6567802429199219,-0.0,-0.0,-1.0,0.07541525032522838,1.0
3.866288185119629,32.919097900390625,-1.5770325660705566,-0.0,-0.0,-1.0,0.1027346517579931,1.0
3.780318260192871,33.015769958496094,-1.5929255485534668,-0.0,-0.0,-1.0,0.10903985875883919,2.0
3.949313163757324,32.814857482910156,-1.5589709281921387,-0.0,-0.0,-1.0,0.09266233719369546,1.0
4.835231304168701,32.73609924316406,-1.8240609169006348,-0.0,-0.0,-1.0,0.08063575918495691,1.0
4.566009998321533,32.646827697753906,-1.750171184539795,-0.0,-0.0,-1.0,0.08169501653155745,1.0
4.041079044342041,33.186187744140625,-1.7823128700256348,-0.0,-0.0,-1.0,0.09577901303277306,1.0
4.0462212562561035,33.49678421020508,-1.8597474098205566,-0.0,-0.0,-1.0,0.02086949602800507,1.0
3.716853618621826,33.525630950927734,-1.805285930633545,-0.0,-0.0,-1.0,0.03082695517682307,1.0
4.295729160308838,32.66428756713867,-1.7025513648986816,-0.0,-0.0,-1.0,0.05099304073907496,1.0
4.094785213470459,32.88903045654297,-1.719414234161377,-0.0,-0.0,-1.0,0.07552268780612172,1.0
4.604101657867432,31.660785675048828,-1.517137050628662,-0.0,-0.0,-1.0,0.08397119264724318,1.0
5.577356338500977,33.04008102416992,-2.021488666534424,-0.0,-0.0,-1.0,0.010525237218380893,1.0
5.3476152420043945,33.19110870361328,-2.0251498222351074,-0.0,-0.0,-1.0,0.010056956751569975,1.0
4.90700626373291,33.231666564941406,-1.9619498252868652,-0.0,-0.0,-1.0,0.019368660116115207,1.0
4.556283950805664,33.27656555175781,-1.9164175987243652,-0.0,-0.0,-1.0,0.023886538874816,1.0
4.217402458190918,33.229095458984375,-1.846961498260498,-0.0,-0.0,-1.0,0.0915248680049018,1.0
