x,y,z,nx,ny,nz,curvature,density
19.14174461364746,18.55828285217285,-1.1914091110229492,-0.0,-0.0,-1.0,0.019836436595880576,1.0
17.988525390625,19.232257843017578,-1.2127838134765625,-0.0,-0.0,-1.0,0.08960105407364034,2.0
18.4926700592041,18.975282669067383,-1.2092041969299316,-0.0,-0.0,-1.0,0.02589801452203729,1.0
17.76543426513672,19.435123443603516,-1.2340898513793945,-0.0,-0.0,-1.0,0.05336385949751373,1.0
18.803998947143555,17.992950439453125,-1.042604923248291,-0.0,-0.0,-1.0,0.04208141511551742,1.0
19.64138412475586,17.786256790161133,-1.0933356285095215,-0.0,-0.0,-1.0,0.1444867759140081,1.0
18.06233787536621,19.053730010986328,-1.182826042175293,-0.0,-0.0,-1.0,0.04803827720624252,1.0
19.489164352416992,18.09845542907715,-1.2355036735534668,-0.0,-0.0,-1.0,0.08328789995456609,1.0
19.604700088500977,17.90867805480957,-1.2255821228027344,-0.0,-0.0,-1.0,0.1217439101354567,2.0
19.451892852783203,18.245664596557617,-1.252556324005127,-0.0,-0.0,-1.0,0.03761888083700981,1.0
19.274757385253906,18.818147659301758,-1.314283847808838,-0.0,-0.0,-1.0,0.021011168331432312,1.0
18.642440795898438,19.32066535949707,-1.2893943786621094,-0.0,-0.0,-1.0,0.0878276869926995,1.0
18.970579147338867,19.07927703857422,-1.3050050735473633,-0.564895081638127,-0.8163734028983584,-0.12011666737471868,0.04905701909712052,4.0
19.197988510131836,18.927024841308594,-1.3188257217407227,-0.0,-0.0,-1.0,0.042838258394325764,1.0
18.45916175842285,19.573715209960938,-1.3009233474731445,-0.0,-0.0,-1.0,0.0670587134130707,2.0
19.652694702148438,19.521827697753906,-0.9996800422668457,0.8298937915614242,0.5569983509201679,0.03208008416474047,0.19094862321119072,4.0
19.53887939453125,19.424955368041992,-0.9751119613647461,-0.0,-0.0,-1.0,0.2363228942897394,1.0
19.334758758544922,18.20823860168457,-1.2114472389221191,-0.0,-0.0,-1.0,0.032245763952490354,1.0
19.56359100341797,18.057580947875977,-1.1977577209472656,-0.8796821387790432,0.1698279781514891,-0.44420467416508075,0.0974029513062723,3.0
18.56059455871582,18.14834213256836,-1.121297836303711,-0.0,-0.0,-1.0,0.012122672199199052,2.0
18.706050872802734,18.522193908691406,-1.2281832695007324,-0.0,-0.0,-1.0,0.008724612368999348,1.0
19.215774536132812,18.311845779418945,-1.225090503692627,-0.0,-0.0,-1.0,0.02528303894453711,2.0
18.283565521240234,18.792715072631836,-1.2573862075805664,-0.0,-0.0,-1.0,0.020240955109834025,2.0
18.57132339477539,18.670215606689453,-1.252702236175537,-0.0,-0.0,-1.0,0.015636993419387867,2.0
17.795276641845703,18.87412452697754,-1.2354722023010254,0.3670804438431872,-0.46855161388980643,-0.8035616546781876,0.01369981551921891,3.0
18.076326370239258,18.823829650878906,-1.2468781471252441,-0.0,-0.0,-1.0,0.014655113054114627,2.0
19.25902557373047,18.6929931640625,-1.2439117431640625,-0.0,-0.0,-1.0,0.07578344130981521,2.0
19.54738998413086,18.67406463623047,-1.2708654403686523,-0.0,-0.0,-1.0,0.06473116945915848,2.0
18.68425941467285,19.016334533691406,-1.2604312896728516,-0.0,-0.0,-1.0,0.05286758631307644,2.0
19.00969123840332,18.94027328491211,-1.2760295867919922,-0.0,-0.0,-1.0,0.019159565907854392,2.0
18.207155227661133,19.217559814453125,-1.2612433433532715,-0.3570660180045455,-0.6452583408252468,-0.6753854694778583,0.05312390370784505,3.0
18.413156509399414,19.101577758789062,-1.2535629272460938,-0.0,-0.0,-1.0,0.021914087201643652,1.0
17.904577255249023,19.202232360839844,-1.228348731994629,-0.0,-0.0,-1.0,0.09251256836388083,2.0
18.098194122314453,17.644145965576172,-1.0999479293823242,-0.0,-0.0,-1.0,0.06135886635672385,1.0
17.962608337402344,17.999704360961914,-1.1655068397521973,-0.0,-0.0,-1.0,0.04231140594187371,1.0
17.7923641204834,18.413488388061523,-1.2409658432006836,-0.0,-0.0,-1.0,0.01665812798353485,2.0
19.370634078979492,18.870973587036133,-1.2633485794067383,-0.0,-0.0,-1.0,0.06837064918576068,1.0
18.81362533569336,19.003889083862305,-1.2709646224975586,-0.0,-0.0,-1.0,0.05161890532517391,2.0
19.028507232666016,18.994308471679688,-1.2795567512512207,-0.0,-0.0,-1.0,0.023931131889870835,1.0
18.525402069091797,19.02829933166504,-1.2633914947509766,-0.0,-0.0,-1.0,0.024604558696694045,1.0
18.030460357666016,19.066085815429688,-1.250504493713379,0.09300692289347194,-0.9692277058349521,-0.2279196492972979,0.053665580049205214,5.0
18.232624053955078,19.047304153442383,-1.2545275688171387,-0.0,-0.0,-1.0,0.02339447167865232,1.0
19.481388092041016,17.755138397216797,-1.2090892791748047,0.1264698624467009,-0.867952855918007,-0.4802741027751636,0.13568268952828796,3.0
19.17608070373535,17.915903091430664,-1.2019762992858887,-0.0,-0.0,-1.0,0.01902706652516308,1.0
18.516704559326172,18.48307991027832,-1.2494306564331055,-0.0,-0.0,-1.0,0.0059899782620753,1.0
18.438796997070312,18.589906692504883,-1.2659897804260254,-0.0,-0.0,-1.0,0.01054253123425967,1.0
18.009817123413086,18.740238189697266,-1.2454357147216797,-0.0,-0.0,-1.0,0.009603360878056749,1.0
18.230045318603516,18.715389251708984,-1.269416332244873,-0.0,-0.0,-1.0,0.010808654269972058,1.0
17.76429557800293,18.868091583251953,-1.2461071014404297,0.3670804438431872,-0.46855161388980643,-0.8035616546781876,0.011043193087579367,3.0
18.406620025634766,17.787113189697266,-1.0531277656555176,-0.0,-0.0,-1.0,0.12530963092046637,1.0
18.553241729736328,18.13248634338379,-1.1637916564941406,-0.5196235189008298,0.5829391985170941,-0.6246385270197214,0.012122672199199117,4.0
19.586681365966797,19.459501266479492,-0.9999251365661621,-0.3669911457235366,-0.9264926025749234,0.08324035280121769,0.23834794954271915,4.0
19.45648956298828,18.781509399414062,-1.2837069034576416,0.12377631449997248,0.9898053753180189,-0.07046093215647894,0.10791522410317703,3.0
19.145423889160156,19.02679443359375,-1.3072426319122314,-0.0,-0.0,-1.0,0.053039511081236855,2.0
18.865297317504883,19.114255905151367,-1.2973997592926025,-0.0,-0.0,-1.0,0.058875653259760234,2.0
18.94131088256836,19.11646270751953,-1.306318998336792,-0.0,-0.0,-1.0,0.06440229397108045,2.0
18.687713623046875,19.11565589904785,-1.2784545421600342,-0.0,-0.0,-1.0,0.047434230517392886,1.0
18.430782318115234,19.288272857666016,-1.2943322658538818,-0.0,-0.0,-1.0,0.018161976427644402,2.0
18.102359771728516,19.272403717041016,-1.2567331790924072,-0.0,-0.0,-1.0,0.030229151466510163,1.0
17.955595016479492,19.448665618896484,-1.2869012355804443,-0.0,-0.0,-1.0,0.05345866234476103,1.0
19.66623306274414,19.549964904785156,-0.7994778156280518,-0.4758761169069064,0.7612977328857151,-0.4404176236944596,0.09867508599735016,3.0
19.688796997070312,17.668014526367188,-1.1992552280426025,-0.0,-0.0,-1.0,0.14247715454890933,2.0
19.55702781677246,17.844600677490234,-1.2175962924957275,-0.0,-0.0,-1.0,0.1114964476067371,1.0
19.346467971801758,17.963714599609375,-1.2143123149871826,-0.0,-0.0,-1.0,0.04608587622172598,2.0
18.806148529052734,18.54916763305664,-1.2702171802520752,-0.0,-0.0,-1.0,0.00575384054743755,1.0
18.672832489013672,18.680517196655273,-1.2825357913970947,-0.0,-0.0,-1.0,0.01804623118275727,2.0
18.58466911315918,17.91163444519043,-1.1053030490875244,-0.0,-0.0,-1.0,0.047351560421997,1.0
18.444808959960938,18.807113647460938,-1.2833898067474365,-0.0,-0.0,-1.0,0.022183459796019267,2.0
18.120296478271484,18.933055877685547,-1.2741005420684814,-0.0,-0.0,-1.0,0.023627277654070262,1.0
17.88528823852539,19.074264526367188,-1.2797467708587646,-0.0,-0.0,-1.0,0.03707493232038886,1.0
19.630615234375,17.933292388916016,-1.2374885082244873,-0.0,-0.0,-1.0,0.08230485559132103,2.0
19.464282989501953,18.196311950683594,-1.2642409801483154,-0.0,-0.0,-1.0,0.03820690896467701,1.0
19.071990966796875,18.78143882751465,-1.3258283138275146,-0.0,-0.0,-1.0,0.01796955368392921,1.0
18.818431854248047,18.880008697509766,-1.3116023540496826,-0.0,-0.0,-1.0,0.023714577405450406,1.0
18.640657424926758,18.983413696289062,-1.3094003200531006,-0.0,-0.0,-1.0,0.05233551190070736,2.0
18.371267318725586,19.10239028930664,-1.2995193004608154,-0.0,-0.0,-1.0,0.01884267972760943,1.0
18.02783966064453,19.14007568359375,-1.264394998550415,-0.0,-0.0,-1.0,0.046635647300436976,2.0
17.87723159790039,19.401935577392578,-1.3021743297576904,-0.0,-0.0,-1.0,0.05928834239855113,1.0
19.671016693115234,17.775569915771484,-1.2130038738250732,-0.0,-0.0,-1.0,0.1411377668870847,1.0
19.614139556884766,19.51418685913086,-0.8945119380950928,-0.0,-0.0,-1.0,0.11934921635358452,1.0
19.58968734741211,19.479162216186523,-0.9778380393981934,0.3574411564993584,0.2602089450612548,-0.8969543603497954,0.2505847230474556,4.0
19.625568389892578,17.64760398864746,-0.9237961769104004,-0.0,-0.0,-1.0,0.14620725097424198,1.0
19.470468521118164,17.744558334350586,-1.1928443908691406,0.1264698624467009,-0.867952855918007,-0.4802741027751636,0.1416772157558937,3.0
19.65601348876953,17.955053329467773,-1.194918155670166,-0.0,-0.0,-1.0,0.11758546608843634,1.0
19.549409866333008,19.536705017089844,-0.9453938007354736,-0.2855513610634363,0.912420940432248,-0.29316965677837664,0.28229564069091095,6.0
19.3458194732666,17.683753967285156,-1.1795835494995117,-0.0,-0.0,-1.0,0.1194650949323399,2.0
19.468130111694336,17.821453094482422,-1.1804907321929932,-0.0,-0.0,-1.0,0.05943189045646279,2.0
19.06128692626953,19.54632568359375,-1.3024771213531494,-0.0,-0.0,-1.0,0.26216253021253866,1.0
18.80581283569336,19.221920013427734,-1.3043615818023682,-0.0,-0.0,-1.0,0.072862797909564,1.0
18.894792556762695,19.399818420410156,-1.292799949645996,-0.0,-0.0,-1.0,0.17443212570433386,1.0
18.919910430908203,19.28606414794922,-1.2825486660003662,-0.6969002126665808,0.3096051860487809,-0.64689622224664,0.1717629085883467,3.0
19.009052276611328,19.54122543334961,-1.2624516487121582,-0.5403958332539579,-0.6677721198019071,0.5119108705790764,0.17798712465610841,5.0
18.633930206298828,18.964313507080078,-1.2764055728912354,-0.0,-0.0,-1.0,0.05102879794021423,2.0
18.768680572509766,19.119911193847656,-1.2784523963928223,-0.0,-0.0,-1.0,0.0586966504693031,1.0
19.001169204711914,18.940818786621094,-1.2782135009765625,-0.0,-0.0,-1.0,0.01915956590785432,2.0
19.24565887451172,19.342636108398438,-1.2613308429718018,-0.0,-0.0,-1.0,0.10531646829298805,2.0
19.3792724609375,19.56658935546875,-1.2526881694793701,-0.0,-0.0,-1.0,0.17620674542157677,1.0
18.582067489624023,18.66000747680664,-1.2498326301574707,-0.0,-0.0,-1.0,0.0146213070974404,2.0
18.832801818847656,18.793109893798828,-1.2715835571289062,-0.0,-0.0,-1.0,0.014953191538482586,1.0
18.96737289428711,19.373992919921875,-1.2073843479156494,-0.2215898120626888,-0.9748565643986622,-0.023508169619506962,0.1918295371177814,3.0
19.017236709594727,19.60370635986328,-1.1822938919067383,-0.0,-0.0,-1.0,0.11765545394899872,1.0
17.85973358154297,18.24125862121582,-1.1986429691314697,-0.0,-0.0,-1.0,0.02873319178030231,1.0
18.120677947998047,18.398712158203125,-1.2151248455047607,-0.0,-0.0,-1.0,0.0062959088112867065,2.0
18.31385040283203,19.58202362060547,-1.3099796772003174,-0.0,-0.0,-1.0,0.04631314353891379,1.0
17.899219512939453,19.336002349853516,-1.2847075462341309,-0.0,-0.0,-1.0,0.06532192474186395,1.0
18.12900161743164,19.473724365234375,-1.2978489398956299,-0.0,-0.0,-1.0,0.03799592164211479,1.0
18.567991256713867,17.701168060302734,-1.042886734008789,-0.0,-0.0,-1.0,0.08158281096676728,2.0
19.090667724609375,18.261581420898438,-1.232635736465454,-0.0,-0.0,-1.0,0.006498619379910651,1.0
19.359451293945312,18.40455436706543,-1.2527439594268799,-0.0,-0.0,-1.0,0.03450748141760639,2.0
18.252819061279297,17.917264938354492,-1.1610934734344482,-0.0,-0.0,-1.0,0.10635451233263069,2.0
18.583209991455078,18.108360290527344,-1.1797525882720947,-0.4218652627106014,0.07380094957985044,-0.9036498879318403,0.013100775764002788,3.0
18.85344696044922,18.2454776763916,-1.1991124153137207,-0.0,-0.0,-1.0,0.009795518624934961,1.0
19.589136123657227,19.49024772644043,-1.1312363147735596,-0.8516683495116578,-0.4420525798657064,0.28151472265968996,0.18618769903520607,7.0
17.864015579223633,17.694517135620117,-1.1407909393310547,-0.0,-0.0,-1.0,0.026681734377505602,1.0
18.119543075561523,17.961219787597656,-1.135047197341919,-0.0,-0.0,-1.0,0.027864020129126695,2.0
19.531524658203125,19.50240135192871,-1.1201539039611816,0.09996457310649601,-0.981380858632785,-0.16400821452846112,0.14672179343436725,9.0
19.52699089050293,18.17504119873047,-1.25169038772583,-0.0,-0.0,-1.0,0.06645015957143662,1.0
19.67255973815918,18.234783172607422,-1.2602488994598389,-0.0,-0.0,-1.0,0.05211833472627398,1.0
18.182689666748047,17.80553436279297,-1.1540322303771973,-0.0,-0.0,-1.0,0.06559237526591112,1.0
18.479774475097656,17.94597625732422,-1.1638462543487549,-0.0,-0.0,-1.0,0.09480275118383856,1.0
18.924245834350586,18.005390167236328,-1.2061333656311035,-0.0,-0.0,-1.0,0.03506751851205822,1.0
19.29840850830078,18.144725799560547,-1.2282812595367432,-0.0,-0.0,-1.0,0.026962976973870355,1.0
18.047351837158203,17.79343032836914,-1.1410601139068604,-0.0,-0.0,-1.0,0.026892968248303603,1.0
19.25569725036621,19.231006622314453,-1.0431454181671143,-0.0,-0.0,-1.0,0.14432356578294725,1.0
19.438323974609375,19.216583251953125,-1.069166898727417,-0.0,-0.0,-1.0,0.11552804074673978,1.0
18.049457550048828,17.983823776245117,-1.1997065544128418,-0.0,-0.0,-1.0,0.035084306948862824,1.0
18.42531967163086,18.095497131347656,-1.2230477333068848,-0.0,-0.0,-1.0,0.054285281623182795,1.0
18.79922866821289,18.21575164794922,-1.2462525367736816,-0.0,-0.0,-1.0,0.010415677315741575,1.0
19.169416427612305,18.379390716552734,-1.2630014419555664,-0.0,-0.0,-1.0,0.01676572446209859,1.0
19.41876983642578,18.45708656311035,-1.280951976776123,-0.0,-0.0,-1.0,0.022028729197708864,1.0
19.066082000732422,18.413284301757812,-1.2437689304351807,-0.0,-0.0,-1.0,0.014252690025077031,1.0
19.246566772460938,19.100969314575195,-1.1446645259857178,-0.0,-0.0,-1.0,0.14085364378851475,1.0
18.783798217773438,19.0393123626709,-1.096010446548462,-0.0,-0.0,-1.0,0.07618243200414151,1.0
17.86801528930664,18.75041961669922,-1.2621252536773682,-0.0,-0.0,-1.0,0.008762880561751469,1.0
17.996795654296875,19.053543090820312,-1.235975742340088,0.09300692289347194,-0.9692277058349521,-0.2279196492972979,0.04765179446387607,5.0
18.23923110961914,19.18503189086914,-1.247124433517456,0.5161262338430159,0.400513962400608,-0.757101232769561,0.05252995709064351,5.0
18.538949966430664,19.321292877197266,-1.267390251159668,-0.0,-0.0,-1.0,0.12443506021276939,1.0
18.7358341217041,19.532258987426758,-1.2595891952514648,-0.0,-0.0,-1.0,0.12331186999559986,1.0
18.31565284729004,17.668407440185547,-1.0805079936981201,-0.0,-0.0,-1.0,0.11109045227265663,1.0
18.54237174987793,17.82029151916504,-1.075141429901123,-0.0,-0.0,-1.0,0.04729731719375165,1.0
18.78700065612793,17.786943435668945,-1.105708122253418,-0.0,-0.0,-1.0,0.085178989417494,1.0
19.63765525817871,17.69527244567871,-1.2114787101745605,-0.0,-0.0,-1.0,0.13908549633679174,1.0
17.742839813232422,19.28555679321289,-1.2900197505950928,-0.0,-0.0,-1.0,0.06555068935351537,1.0
18.047935485839844,19.393413543701172,-1.3020124435424805,-0.0,-0.0,-1.0,0.020159071471333445,1.0
18.51217269897461,19.6051025390625,-1.3132450580596924,-0.0,-0.0,-1.0,0.06590718697238891,2.0
19.642356872558594,19.573265075683594,-0.8853878974914551,-0.0,-0.0,-1.0,0.12396950670599856,1.0
18.021533966064453,17.641416549682617,-1.1053497791290283,-0.0,-0.0,-1.0,0.025890312103935106,1.0
18.189430236816406,17.764755249023438,-1.1014394760131836,-0.0,-0.0,-1.0,0.06603682683452322,1.0
18.490577697753906,17.925304412841797,-1.1070704460144043,-0.0,-0.0,-1.0,0.09202867787722137,1.0
18.9068546295166,17.890302658081055,-1.1639125347137451,-0.0,-0.0,-1.0,0.05782308214673096,1.0
18.95868492126465,17.92422103881836,-1.16428542137146,-0.0,-0.0,-1.0,0.03201298017085169,1.0
19.28984260559082,17.950172424316406,-1.2014784812927246,-0.0,-0.0,-1.0,0.0326098770057991,1.0
19.576515197753906,18.0755615234375,-1.216477870941162,-0.8796821387790432,0.1698279781514891,-0.44420467416508075,0.09740295130627218,3.0
17.989315032958984,19.556686401367188,-1.2885007858276367,-0.0,-0.0,-1.0,0.061795333979711806,1.0
18.272441864013672,19.61153793334961,-1.3158478736877441,-0.0,-0.0,-1.0,0.04121803837520657,1.0
19.558490753173828,19.55886459350586,-0.9536199569702148,0.5024570236011241,-0.2936587262804501,-0.8132044588621259,0.1934985642958323,7.0
18.433748245239258,17.697948455810547,-1.0488531589508057,-0.0,-0.0,-1.0,0.1363272081962475,2.0
17.808198928833008,19.046422958374023,-1.263484001159668,-0.0,-0.0,-1.0,0.027466769273269687,1.0
18.224502563476562,19.175086975097656,-1.2819056510925293,0.8007922590594375,0.39343353297598593,-0.45159917289618295,0.02079117064949221,3.0
19.67609214782715,17.676570892333984,-1.1845722198486328,-0.0,-0.0,-1.0,0.14247715454890944,2.0
18.49748992919922,19.28777313232422,-1.2895050048828125,-0.0,-0.0,-1.0,0.02565996130540254,1.0
18.663618087768555,19.405563354492188,-1.284121036529541,-0.0,-0.0,-1.0,0.08476273380905233,2.0
18.937416076660156,19.5931453704834,-1.2783277034759521,-0.0,-0.0,-1.0,0.1753088648512958,1.0
19.603816986083984,19.616493225097656,-1.3642911911010742,-0.0,-0.0,-1.0,0.18988916317370963,1.0
19.54848861694336,19.460689544677734,-0.841266393661499,-0.0,-0.0,-1.0,0.0884773023749003,2.0
17.802038192749023,18.11143684387207,-1.1827692985534668,-0.0,-0.0,-1.0,0.0341576525230603,1.0
18.153778076171875,18.22038459777832,-1.1978716850280762,-0.0,-0.0,-1.0,0.0223438212108316,1.0
18.22761344909668,18.220863342285156,-1.2062230110168457,-0.0,-0.0,-1.0,0.014235591827510649,1.0
18.61090850830078,18.34864044189453,-1.223658561706543,-0.0,-0.0,-1.0,0.00733610601864873,1.0
19.018417358398438,18.468799591064453,-1.2482261657714844,-0.0,-0.0,-1.0,0.012616828975753048,1.0
19.37325668334961,18.64335060119629,-1.2574453353881836,-0.0,-0.0,-1.0,0.0673330197317525,1.0
19.401187896728516,19.53093719482422,-1.0800516605377197,-0.0,-0.0,-1.0,0.1822122392334912,2.0
19.640865325927734,18.637142181396484,-1.29398775100708,-0.0,-0.0,-1.0,0.060140120787756095,1.0
19.583749771118164,19.50383758544922,-1.1105573177337646,0.5908430675731309,-0.6670416445761912,-0.4538280664545361,0.0949810833729527,6.0
17.823408126831055,18.477691650390625,-1.1796560287475586,-0.0,-0.0,-1.0,0.012624160748170212,1.0
18.193687438964844,18.617517471313477,-1.200422763824463,-0.0,-0.0,-1.0,0.008446396862292399,1.0
18.580623626708984,18.917329788208008,-1.1910040378570557,-0.0,-0.0,-1.0,0.048919025208710575,1.0
18.52273178100586,18.797382354736328,-1.2087929248809814,-0.0,-0.0,-1.0,0.0240582282416453,1.0
18.96134376525879,19.224891662597656,-1.1827178001403809,-0.7760408495658571,0.040411566056418,-0.6293866102277444,0.17055481333177264,4.0
18.838178634643555,18.93618392944336,-1.226210355758667,-0.0,-0.0,-1.0,0.05146826564265346,1.0
19.239164352416992,19.351211547851562,-1.2001521587371826,-0.0,-0.0,-1.0,0.20042472053708812,1.0
19.66558837890625,19.417842864990234,-1.2565386295318604,-0.0,-0.0,-1.0,0.2006678540362495,1.0
19.61490249633789,19.52763557434082,-0.7094857692718506,-0.0,-0.0,-1.0,0.10817429374428206,1.0
17.971664428710938,18.336109161376953,-1.2376987934112549,-0.0,-0.0,-1.0,0.02129676781588524,1.0
18.34893226623535,18.50921058654785,-1.258934736251831,-0.0,-0.0,-1.0,0.0076797888304357504,1.0
18.717483520507812,18.699993133544922,-1.2781476974487305,-0.0,-0.0,-1.0,0.01725067097068243,2.0
19.10672950744629,19.216760635375977,-1.2318265438079834,-0.0,-0.0,-1.0,0.1417712491099868,1.0
19.00480842590332,18.838672637939453,-1.2977216243743896,-0.0,-0.0,-1.0,0.019064700933749876,1.0
19.349517822265625,19.52332305908203,-1.210158109664917,-0.8154740723046109,-0.5733430438009807,-0.07924513564857669,0.1834502927395354,3.0
19.386444091796875,19.32522201538086,-1.2605853080749512,-0.0,-0.0,-1.0,0.15562209294780097,1.0
19.629125595092773,19.47502326965332,-0.7945308685302734,-0.0,-0.0,-1.0,0.08378076503715078,1.0
17.90326690673828,17.973228454589844,-1.1541061401367188,-0.0,-0.0,-1.0,0.04357824486606296,1.0
18.282901763916016,18.08482551574707,-1.1817541122436523,-0.0,-0.0,-1.0,0.019790116284065087,1.0
18.653461456298828,18.224077224731445,-1.2045321464538574,-0.0,-0.0,-1.0,0.015235132494703244,2.0
19.039505004882812,18.32965087890625,-1.241389274597168,-0.0,-0.0,-1.0,0.007385164118838022,1.0
19.43383026123047,18.582162857055664,-1.2479918003082275,-0.0,-0.0,-1.0,0.06735680213814561,2.0
19.285789489746094,18.427581787109375,-1.2592086791992188,-0.0,-0.0,-1.0,0.017038724686288895,1.0
19.644424438476562,18.551361083984375,-1.292452096939087,-0.0,-0.0,-1.0,0.04945789336154947,1.0
19.333446502685547,19.525344848632812,-1.0072505474090576,-0.0,-0.0,-1.0,0.16698548553073714,1.0
19.512779235839844,19.488056182861328,-1.0487518310546875,0.6170326855971772,-0.7681018130012989,-0.17114400301749566,0.20220324531067163,9.0
18.661476135253906,18.812091827392578,-1.2779350280761719,-0.0,-0.0,-1.0,0.024397334612933825,1.0
19.611011505126953,19.57196617126465,-1.2210984230041504,-0.0,-0.0,-1.0,0.13578512282862187,2.0
19.233009338378906,19.320331573486328,-1.244563341140747,-0.0,-0.0,-1.0,0.16292639848771157,2.0
18.957988739013672,19.096094131469727,-1.2609388828277588,-0.0,-0.0,-1.0,0.062310299837548405,2.0
18.74646759033203,18.793880462646484,-1.2709736824035645,-0.0,-0.0,-1.0,0.01998373812255643,1.0
19.099346160888672,19.365318298339844,-1.250860571861267,-0.0,-0.0,-1.0,0.1226555719707865,1.0
19.004188537597656,19.209060668945312,-1.2564531564712524,-0.0,-0.0,-1.0,0.16376680404886287,1.0
18.834060668945312,18.96540069580078,-1.2670880556106567,-0.0,-0.0,-1.0,0.05146826564265343,2.0
19.703632354736328,19.384769439697266,-1.2029768228530884,-0.0,-0.0,-1.0,0.15677402957515868,1.0
19.55999755859375,18.62401008605957,-1.2050141096115112,-0.0,-0.0,-1.0,0.06848008552972694,1.0
17.827322006225586,18.553659439086914,-1.2227702140808105,-0.0,-0.0,-1.0,0.00748656429794648,1.0
17.764169692993164,18.842769622802734,-1.2313995361328125,0.37379400972446464,-0.329026794434438,-0.8671905251087014,0.00965959472141646,4.0
19.4296817779541,19.387042999267578,-1.101125955581665,-0.0,-0.0,-1.0,0.14449318535376654,2.0
18.75885581970215,17.967876434326172,-1.139099359512329,-0.0,-0.0,-1.0,0.0406399049812641,1.0
17.998950958251953,19.057838439941406,-1.2146430015563965,0.09300692289347194,-0.9692277058349521,-0.2279196492972979,0.05288530336095197,5.0
17.837060928344727,18.38223648071289,-1.2200067043304443,-0.0,-0.0,-1.0,0.018034417486480065,2.0
19.55390167236328,19.508045196533203,-1.2983688116073608,0.913410167103317,-0.041895107147306265,0.40487858257680936,0.23639367673040326,3.0
19.529935836791992,19.23155403137207,-1.299899935722351,-0.0,-0.0,-1.0,0.10013646988992483,1.0
19.652589797973633,18.96027374267578,-1.2843374013900757,-0.0,-0.0,-1.0,0.01884779629508206,1.0
19.641084671020508,19.573970794677734,-1.2973345518112183,-0.0,-0.0,-1.0,0.17570167705772108,1.0
19.542678833007812,19.406078338623047,-1.3096102476119995,0.4550987660293773,-0.7332770323959725,0.5051632477913397,0.19987439257431314,3.0
19.255422592163086,19.286340713500977,-1.345838189125061,-0.0,-0.0,-1.0,0.08477313066985423,1.0
19.449275970458984,18.779661178588867,-1.322341799736023,-0.0,-0.0,-1.0,0.05515837150931919,2.0
19.216176986694336,19.023170471191406,-1.3511639833450317,-0.0,-0.0,-1.0,0.05749647450280866,2.0
19.552417755126953,18.60416030883789,-1.3098915815353394,-0.0,-0.0,-1.0,0.06848008552972709,1.0
19.53891944885254,19.398466110229492,-1.2560715675354004,0.8350245877291973,0.07635024601336173,-0.5448895097369588,0.17244006017386151,4.0
19.454147338867188,19.620235443115234,-1.270110845565796,-0.0,-0.0,-1.0,0.1334166859016314,1.0
19.41642951965332,18.901657104492188,-1.2705376148223877,-0.0,-0.0,-1.0,0.09683280326255277,2.0
19.339086532592773,19.183881759643555,-1.2832462787628174,-0.0,-0.0,-1.0,0.16075237642450815,1.0
19.639345169067383,18.527437210083008,-1.2369275093078613,-0.0,-0.0,-1.0,0.039923798594645406,2.0
19.527385711669922,18.680830001831055,-1.253605842590332,-0.0,-0.0,-1.0,0.06473116945915848,2.0
19.514616012573242,19.480409622192383,-1.003171443939209,0.920109766896781,0.1116176314596646,-0.37541912738762434,0.22064475858809,8.0
19.036771774291992,19.441905975341797,-1.069462776184082,-0.0,-0.0,-1.0,0.202416057377751,1.0
18.85270118713379,19.423721313476562,-1.0950465202331543,-0.0,-0.0,-1.0,0.13631321497162627,1.0
17.846202850341797,19.507139205932617,-1.2350211143493652,-0.0,-0.0,-1.0,0.04888053194086102,1.0
18.017009735107422,19.043643951416016,-1.2125213146209717,0.09300692289347194,-0.9692277058349521,-0.2279196492972979,0.04765179446387607,5.0
17.89534568786621,19.325822830200195,-1.2285246849060059,-0.0,-0.0,-1.0,0.07050890352656958,2.0
18.047664642333984,18.658893585205078,-1.2102880477905273,-0.0,-0.0,-1.0,0.006957637092981303,1.0
18.145864486694336,18.374208450317383,-1.1985633373260498,-0.0,-0.0,-1.0,0.0059793905286259705,2.0
18.822498321533203,17.722667694091797,-1.109710454940796,-0.0,-0.0,-1.0,0.08716850225409463,1.0
19.546539306640625,19.541088104248047,-1.2783401012420654,0.9684895632157133,-0.13971972434174376,0.2061707170577412,0.25607051821025173,4.0
19.422889709472656,19.271249771118164,-1.2942781448364258,-0.0,-0.0,-1.0,0.13889005446662855,1.0
19.490489959716797,18.717594146728516,-1.2777214050292969,-0.0,-0.0,-1.0,0.06433475767358923,1.0
19.364471435546875,18.945920944213867,-1.2999451160430908,-0.0,-0.0,-1.0,0.08690596269801455,1.0
19.560314178466797,18.56253433227539,-1.2653858661651611,-0.0,-0.0,-1.0,0.06468519982578673,2.0
19.208995819091797,19.582965850830078,-1.2141034603118896,-0.0,-0.0,-1.0,0.07898057707730216,2.0
18.978382110595703,19.28929328918457,-1.2490606307983398,-0.0,-0.0,-1.0,0.22526909932177266,1.0
18.906160354614258,18.93392562866211,-1.2581813335418701,-0.0,-0.0,-1.0,0.04823090012283673,2.0
19.209373474121094,18.284774780273438,-1.2045137882232666,-0.0,-0.0,-1.0,0.023942882870016127,2.0
19.553726196289062,19.528690338134766,-1.1558892726898193,-0.17360075121624619,-0.5824579746414983,-0.794106722647327,0.1540619592433459,8.0
19.345325469970703,18.660295486450195,-1.1826107501983643,-0.0,-0.0,-1.0,0.10301748624442816,1.0
19.331195831298828,18.156160354614258,-1.1838347911834717,-0.0,-0.0,-1.0,0.030374582276017695,1.0
19.633869171142578,17.92356300354004,-1.1327433586120605,-0.0,-0.0,-1.0,0.12174391013545673,1.0
19.560592651367188,19.542436599731445,-1.3099050521850586,0.913410167103317,-0.041895107147306265,0.40487858257680936,0.24635375055606873,3.0
19.63531494140625,19.044971466064453,-1.2949621677398682,-0.0,-0.0,-1.0,0.030380938288173794,2.0
19.59046173095703,19.304800033569336,-1.303514003753662,-0.0,-0.0,-1.0,0.1037335356951311,2.0
18.501373291015625,17.651079177856445,-0.9985458850860596,-0.0,-0.0,-1.0,0.11134993771904937,1.0
17.726097106933594,17.959270477294922,-1.116229772567749,-0.0,-0.0,-1.0,0.03510930657344846,1.0
19.499874114990234,19.544221878051758,-0.9125372171401978,-0.0,-0.0,-1.0,0.18708320925710148,1.0
17.7131404876709,19.09214973449707,-1.2194558382034302,-0.0,-0.0,-1.0,0.05722058265943954,1.0
17.74349594116211,18.71230697631836,-1.214072823524475,-0.0,-0.0,-1.0,0.0077497681534336345,2.0
18.633834838867188,17.858938217163086,-1.062240719795227,-0.0,-0.0,-1.0,0.05648634565332874,1.0
18.32447624206543,17.969032287597656,-1.1157702207565308,-0.0,-0.0,-1.0,0.026525779711616876,1.0
17.874414443969727,18.372116088867188,-1.1922022104263306,-0.0,-0.0,-1.0,0.01864406310204906,2.0
17.793434143066406,18.41846466064453,-1.2061816453933716,-0.0,-0.0,-1.0,0.016658127983534842,2.0
19.639667510986328,19.248445510864258,-1.310326099395752,-0.0,-0.0,-1.0,0.09318313549041973,2.0
19.70937156677246,18.7562313079834,-1.275465965270996,-0.0,-0.0,-1.0,0.04243231072950492,1.0
19.655899047851562,18.845596313476562,-1.2903637886047363,-0.0,-0.0,-1.0,0.019299395902625215,1.0
17.83643341064453,19.20124053955078,-1.2089619636535645,-0.0,-0.0,-1.0,0.08342650257304328,1.0
18.41061019897461,17.853063583374023,-1.074155330657959,-0.0,-0.0,-1.0,0.08708076873355518,1.0
18.041419982910156,18.00994300842285,-1.1444978713989258,-0.0,-0.0,-1.0,0.03508430694886282,1.0
17.798851013183594,18.229616165161133,-1.1928060054779053,-0.0,-0.0,-1.0,0.029364919171739733,1.0
19.341447830200195,19.573326110839844,-0.9495642185211182,-0.0,-0.0,-1.0,0.13844723877419102,1.0
18.571800231933594,17.70151138305664,-1.0424022674560547,-0.0,-0.0,-1.0,0.08158281096676726,2.0
19.687183380126953,19.633474349975586,-1.3606890439987183,-0.0,-0.0,-1.0,0.24296188803731827,2.0
19.575958251953125,19.520401000976562,-0.9844056367874146,-0.1475774875732385,0.33604508267092636,-0.9302121196664022,0.20135483860649991,7.0
18.99557876586914,19.47698974609375,-1.1046231985092163,0.9213988699898374,-0.3445219749703308,0.1798019219696869,0.19348508268938283,3.0
18.13180923461914,19.57990074157715,-1.2883292436599731,-0.0,-0.0,-1.0,0.03825395228121605,1.0
18.186742782592773,19.320966720581055,-1.2713857889175415,-0.0,-0.0,-1.0,0.05244772452607601,1.0
18.273330688476562,18.780275344848633,-1.244669795036316,-0.0,-0.0,-1.0,0.019288563354280447,2.0
18.232528686523438,18.908937454223633,-1.2550333738327026,-0.0,-0.0,-1.0,0.015392405193119664,1.0
18.302066802978516,18.415340423583984,-1.235514760017395,-0.0,-0.0,-1.0,0.0051754471631165365,2.0
18.204635620117188,18.643924713134766,-1.2579318284988403,-0.0,-0.0,-1.0,0.008339667929971218,1.0
18.800800323486328,17.912137985229492,-1.1275907754898071,-0.0,-0.0,-1.0,0.07379410533718805,1.0
18.36628532409668,18.25816535949707,-1.2210453748703003,-0.0,-0.0,-1.0,0.01669728980497767,1.0
19.66840362548828,19.603191375732422,-1.3593465089797974,-0.0,-0.0,-1.0,0.2333860526068363,2.0
19.671733856201172,19.258317947387695,-1.3400894403457642,0.50647092064192,-0.8173845169927428,0.2745355312608298,0.07789072804773567,3.0
18.848678588867188,19.45623779296875,-1.1841691732406616,-0.0,-0.0,-1.0,0.16679432684359652,1.0
18.41644287109375,19.409082412719727,-1.2843180894851685,-0.0,-0.0,-1.0,0.054579344824890505,1.0
18.364765167236328,19.347043991088867,-1.2942765951156616,-0.0,-0.0,-1.0,0.0434706030136963,2.0
19.708515167236328,18.88103485107422,-1.313428282737732,-0.0,-0.0,-1.0,0.030276851199438695,1.0
18.428625106811523,19.038545608520508,-1.2698441743850708,-0.0,-0.0,-1.0,0.021044042581420442,1.0
18.431255340576172,18.659164428710938,-1.2602661848068237,-0.0,-0.0,-1.0,0.010317462827064774,1.0
18.64101791381836,18.26140594482422,-1.2033737897872925,-0.7273564045180803,-0.22231743800857096,-0.6492515826425346,0.011415765483556444,3.0
18.549091339111328,18.350933074951172,-1.2266689538955688,-0.0,-0.0,-1.0,0.007473270472590092,1.0
19.635828018188477,19.53567123413086,-1.0032414197921753,0.8298937915614242,0.5569983509201679,0.03208008416474047,0.1918892460994881,4.0
19.51995086669922,19.5366268157959,-1.0302940607070923,0.812775863762475,0.4130524352922034,0.4108321810476179,0.15440349277540713,6.0
19.53893280029297,19.44699478149414,-1.0219980478286743,0.057628519925479446,0.4754586403425047,-0.8778485262360787,0.19749730996931156,5.0
19.095722198486328,19.483346939086914,-1.1272333860397339,-0.0,-0.0,-1.0,0.2010492807641788,1.0
18.78505516052246,18.1427059173584,-1.1673833131790161,-0.0,-0.0,-1.0,0.017915171494741977,1.0
19.674100875854492,17.646221160888672,-0.9497388601303101,-0.0,-0.0,-1.0,0.14620725097424206,1.0
18.859970092773438,17.869983673095703,-1.1473170518875122,-0.0,-0.0,-1.0,0.06482265460872848,2.0
18.566322326660156,19.386695861816406,-1.2807750701904297,-0.0,-0.0,-1.0,0.06964160199655796,1.0
18.443359375,18.996780395507812,-1.2981860637664795,-0.0,-0.0,-1.0,0.024789117868220686,1.0
18.48981475830078,18.577800750732422,-1.2739346027374268,-0.0,-0.0,-1.0,0.006582837076141059,1.0
18.649158477783203,18.298860549926758,-1.2253189086914062,-0.0,-0.0,-1.0,0.007204678408469034,2.0
18.832592010498047,17.850406646728516,-1.1710705757141113,-0.0,-0.0,-1.0,0.06960668107497717,2.0
19.52654266357422,19.50509262084961,-1.0344653129577637,0.943295988777966,0.2275748895794818,0.24166577579021445,0.16048624942913856,11.0
19.650163650512695,17.8432674407959,-0.9480328559875488,-0.0,-0.0,-1.0,0.14257545593732068,1.0
19.431175231933594,18.736572265625,-1.2367596626281738,-0.0,-0.0,-1.0,0.10980334417078727,2.0
19.626163482666016,19.010719299316406,-1.312964916229248,-0.0,-0.0,-1.0,0.03030936663382999,2.0
19.671865463256836,18.07015037536621,-1.041731357574463,-0.0,-0.0,-1.0,0.10807095282867407,1.0
19.0029296875,19.49801254272461,-1.10201096534729,0.9213988699898374,-0.3445219749703308,0.1798019219696869,0.19453082096152005,3.0
19.60420036315918,19.513870239257812,-1.101680040359497,0.8288175971103863,-0.5586770084345427,0.030682095215211362,0.1365403269216577,4.0
17.73887062072754,17.646522521972656,-1.1052155494689941,-0.0,-0.0,-1.0,0.030910942358071822,1.0
18.369428634643555,19.262619018554688,-1.2464396953582764,-0.0,-0.0,-1.0,0.04464780712977667,1.0
18.66917610168457,19.331897735595703,-1.2322440147399902,-0.0,-0.0,-1.0,0.15596879285352394,1.0
18.956871032714844,19.25165367126465,-1.1905083656311035,-0.7435996918767918,-0.2984517614373159,-0.5983193497921525,0.21977134274664062,3.0
18.635961532592773,19.396154403686523,-1.2478384971618652,-0.0,-0.0,-1.0,0.13655094736710766,2.0
19.032222747802734,19.541500091552734,-1.241529941558838,0.3471943425983806,-0.5666842287530801,-0.7472115318637723,0.2312032972652579,4.0
19.540510177612305,19.33796501159668,-1.187705397605896,-0.0,-0.0,-1.0,0.15567746019965414,1.0
19.57101058959961,19.437580108642578,-1.194365382194519,-0.4862196656832316,-0.6712455544129065,-0.5594817623334972,0.16725140595438015,3.0
19.581787109375,19.52850341796875,-1.2034193277359009,-0.8127327392952333,-0.5529295479409853,-0.1836692938175679,0.21806331301547924,4.0
19.6127986907959,19.44687271118164,-0.7482219934463501,-0.0,-0.0,-1.0,0.09186448791564156,1.0
17.8214111328125,18.994958877563477,-1.282480001449585,-0.0,-0.0,-1.0,0.021057322202433844,1.0
18.1732234954834,19.112661361694336,-1.2837804555892944,-0.0,-0.0,-1.0,0.03015659041782574,1.0
17.98916244506836,18.65349006652832,-1.2598270177841187,-0.0,-0.0,-1.0,0.006911023610859676,1.0
18.912330627441406,17.721107482910156,-0.9395933151245117,-0.0,-0.0,-1.0,0.12432091237720781,1.0
19.490333557128906,19.394744873046875,-0.9116429090499878,-0.0,-0.0,-1.0,0.1912869738550444,1.0
19.422748565673828,19.417980194091797,-1.1328357458114624,-0.8984511841481498,-0.39591742940908614,-0.18982849836862986,0.22380996191044322,3.0
19.4686222076416,19.356632232666016,-1.1264339685440063,-0.0,-0.0,-1.0,0.2002864949942492,1.0
19.539140701293945,19.391891479492188,-1.1583836078643799,-0.0,-0.0,-1.0,0.19970440835980052,1.0
18.919626235961914,19.291688919067383,-1.1799213886260986,-0.0,-0.0,-1.0,0.1689463871399861,2.0
19.654157638549805,19.48125457763672,-1.1149734258651733,0.09340769160265752,-0.8118960396398446,-0.5762810286367226,0.15418106022206787,3.0
19.504188537597656,19.52137565612793,-1.1216193437576294,0.012206278778668951,-0.8507866087883978,-0.5253695395288112,0.13479450141736044,6.0
19.6358585357666,19.58420753479004,-0.9906907081604004,0.9542977523971334,0.014016222077622417,0.29852863395066515,0.15332772945974885,3.0
19.21315574645996,19.574016571044922,-1.1952674388885498,-0.0,-0.0,-1.0,0.08514827818106808,2.0
19.630207061767578,19.55247688293457,-0.9711350202560425,-0.38189306786702887,0.16165774903076247,-0.9099584918519174,0.23158934364066613,6.0
18.427505493164062,17.809663772583008,-1.374214768409729,-0.0,-0.0,-1.0,0.12983801555124214,1.0
18.33144187927246,17.78793716430664,-1.3693033456802368,-0.0,-0.0,-1.0,0.11735117291945005,1.0
19.3091983795166,19.43429183959961,-1.2506476640701294,-0.0,-0.0,-1.0,0.1763846049874657,1.0
19.61482048034668,19.46933364868164,-1.144051194190979,-0.0,-0.0,-1.0,0.22058059747799252,2.0
19.452560424804688,19.48147201538086,-1.1565622091293335,-0.0,-0.0,-1.0,0.18399330953860177,1.0
19.66817855834961,19.5411376953125,-0.8525090217590332,-0.0,-0.0,-1.0,0.07833032555624442,1.0
19.576488494873047,19.543853759765625,-1.1417821645736694,0.13830940669761638,-0.27471876003055384,-0.9515251499073624,0.1320755473481276,7.0
19.510238647460938,19.525468826293945,-1.1448687314987183,-0.16855263919040436,-0.5024881358323584,-0.8479950950151015,0.13408610801821572,7.0
18.940032958984375,19.379390716552734,-1.1735163927078247,-0.0,-0.0,-1.0,0.16849980451499352,2.0
17.965179443359375,19.118921279907227,-1.2249118089675903,-0.0,-0.0,-1.0,0.05397407072159383,2.0
19.533843994140625,19.489843368530273,-1.0687849521636963,-0.6507641798997529,-0.7218972077761524,0.23530916591666506,0.1654018005551547,8.0
17.743568420410156,17.89865493774414,-1.2241532802581787,-0.0,-0.0,-1.0,0.03408496334563729,1.0
19.550373077392578,19.280410766601562,-1.3166481256484985,0.5395332943474185,-0.8368287933760868,-0.09285146669463376,0.13156616438504118,3.0
19.011648178100586,17.824859619140625,-1.1744149923324585,-0.0,-0.0,-1.0,0.03468313529564848,1.0
19.631622314453125,19.529172897338867,-0.7980211973190308,-0.016746608243146385,0.998765863753924,-0.0467578925126996,0.11336490535319199,4.0
19.608793258666992,19.528987884521484,-1.1444450616836548,0.7222580194044785,-0.38639762387012955,-0.5736202835268622,0.16359665381458183,7.0
19.297176361083984,19.520294189453125,-1.1584833860397339,-0.0,-0.0,-1.0,0.14347540357930297,2.0
18.989673614501953,19.422080993652344,-1.1582094430923462,-0.0,-0.0,-1.0,0.19952464124617414,1.0
19.570186614990234,19.456989288330078,-1.270452857017517,0.5617259471729974,-0.5954933433740721,-0.5743271178255196,0.24856098404832677,5.0
19.44109535217285,19.35464859008789,-1.2602237462997437,-0.0,-0.0,-1.0,0.19917838365933663,1.0
18.876922607421875,19.186180114746094,-1.2681940793991089,-0.0,-0.0,-1.0,0.0928077623055652,1.0
18.897443771362305,19.246082305908203,-1.2774807214736938,-0.18561529162448073,-0.02022582323670913,-0.9824143115761074,0.13192321121844144,3.0
18.59177589416504,17.816417694091797,-1.0472434759140015,-0.0,-0.0,-1.0,0.06969125763890816,1.0
18.214984893798828,19.215587615966797,-1.2634985446929932,0.5161262338430159,0.400513962400608,-0.757101232769561,0.04742373312102136,5.0
18.416259765625,19.357295989990234,-1.2723701000213623,-0.0,-0.0,-1.0,0.042271065801011136,1.0
17.937149047851562,19.034461975097656,-1.2551548480987549,-0.0,-0.0,-1.0,0.03887943032348731,1.0
19.357851028442383,19.51372528076172,-1.226470708847046,-0.8154740723046109,-0.5733430438009807,-0.07924513564857669,0.16266780429275024,3.0
19.120647430419922,19.620616912841797,-1.2649834156036377,-0.0,-0.0,-1.0,0.06469366731100422,1.0
18.732662200927734,19.29709243774414,-1.2346775531768799,-0.0,-0.0,-1.0,0.057475580342513474,1.0
18.70113754272461,19.37054443359375,-1.2510664463043213,-0.0,-0.0,-1.0,0.11067228212895357,1.0
18.146190643310547,19.159748077392578,-1.259282112121582,-0.0,-0.0,-1.0,0.03765491328721295,2.0
17.749303817749023,18.810462951660156,-1.2319939136505127,-0.0,-0.0,-1.0,0.010492499928509593,2.0
18.00848388671875,19.05284309387207,-1.252025842666626,0.09300692289347194,-0.9692277058349521,-0.2279196492972979,0.052885303360951964,5.0
17.728652954101562,18.682510375976562,-1.2109558582305908,-0.0,-0.0,-1.0,0.006303312877281703,2.0
19.64430809020996,19.550697326660156,-0.7745215892791748,-0.016746608243146385,0.998765863753924,-0.0467578925126996,0.11429740145819446,4.0
19.683853149414062,18.67782211303711,-1.2388335466384888,-0.0,-0.0,-1.0,0.053661963664172155,1.0
19.574119567871094,18.883682250976562,-1.2957009077072144,-0.0,-0.0,-1.0,0.030908058765831466,1.0
19.182531356811523,18.447795867919922,-1.2496858835220337,-0.0,-0.0,-1.0,0.017206409497975667,1.0
19.49457359313965,18.776872634887695,-1.281941294670105,0.10977496383714812,0.5998449542298323,-0.7925499909782111,0.05994182502300016,3.0
19.526290893554688,19.488162994384766,-1.0243040323257446,0.9984037617763072,-0.012834553517489036,-0.055001842759357905,0.19948611792161847,11.0
19.32574462890625,19.557926177978516,-1.0559355020523071,0.11594484239053748,-0.878117451429443,0.46418372980759814,0.20350288456094517,3.0
18.936819076538086,19.54273223876953,-1.0905386209487915,-0.44368123745595145,-0.8088900685311536,-0.3858028208310838,0.18125331338671324,3.0
19.507265090942383,18.791669845581055,-1.268984079360962,-0.0,-0.0,-1.0,0.0837931420213723,2.0
19.44131851196289,19.029817581176758,-1.328460454940796,-0.0,-0.0,-1.0,0.03950639135642093,1.0
19.645797729492188,19.479360580444336,-1.2012803554534912,-0.0,-0.0,-1.0,0.16314473533523105,2.0
19.09196662902832,18.3541202545166,-1.2501866817474365,-0.0,-0.0,-1.0,0.011638131122944501,1.0
19.3449764251709,19.55328369140625,-1.0695216655731201,0.3562925731973467,-0.6058225036597505,0.7113611574607127,0.2035028845609452,3.0
18.95284652709961,19.549453735351562,-1.123063087463379,-0.0,-0.0,-1.0,0.20709479013127136,2.0
17.866920471191406,19.3223934173584,-1.243100881576538,-0.0,-0.0,-1.0,0.07050890352656956,2.0
17.92535400390625,19.602008819580078,-1.2809488773345947,-0.0,-0.0,-1.0,0.042552555665556345,1.0
19.564823150634766,19.547224044799805,-1.1796791553497314,-0.7243403594326551,-0.6485008706399831,-0.2340462870377471,0.14384511261296534,8.0
19.32470703125,19.589921951293945,-1.232994794845581,-0.0,-0.0,-1.0,0.18515261299622846,1.0
18.82040023803711,19.2894229888916,-1.2769827842712402,-0.16317185920881447,-0.9694622560238263,-0.18307888602329792,0.09011382658458532,3.0
18.987812042236328,19.525928497314453,-1.28621244430542,-0.0,-0.0,-1.0,0.2257850232401702,2.0
18.60040283203125,17.64067840576172,-1.045762538909912,-0.0,-0.0,-1.0,0.09159628646929066,1.0
18.332735061645508,18.180456161499023,-1.1899983882904053,-0.0,-0.0,-1.0,0.01740379469416352,1.0
18.30327033996582,18.635982513427734,-1.2708477973937988,0.3054171149677789,-0.15958180296246355,-0.9387513164028096,0.008317740043705708,3.0
18.423561096191406,18.864429473876953,-1.2841007709503174,-0.0,-0.0,-1.0,0.02615162230744996,1.0
18.26165771484375,18.441871643066406,-1.2477717399597168,-0.0,-0.0,-1.0,0.007071937767626576,2.0
19.581544876098633,19.535253524780273,-0.8311593532562256,-0.4295057028842609,0.8891369942839893,-0.1579881533075518,0.1086522891106484,3.0
19.69106101989746,19.120264053344727,-1.3574581146240234,-0.0,-0.0,-1.0,0.05813893291588647,1.0
19.51689910888672,18.228443145751953,-1.2248387336730957,-0.0,-0.0,-1.0,0.05325482810965749,1.0
19.545528411865234,18.521881103515625,-1.27390718460083,-0.0,-0.0,-1.0,0.051535874596485634,2.0
19.09569549560547,19.573657989501953,-1.274691104888916,-0.0,-0.0,-1.0,0.14414759331518517,1.0
19.362985610961914,17.91826820373535,-1.2096152305603027,-0.0,-0.0,-1.0,0.045833729069225365,2.0
18.87176513671875,19.256248474121094,-1.2728383541107178,-0.0,-0.0,-1.0,0.10610131491360192,2.0
18.625274658203125,18.88410758972168,-1.2713284492492676,-0.0,-0.0,-1.0,0.025588212310306484,1.0
18.70325469970703,18.995471954345703,-1.2701375484466553,-0.0,-0.0,-1.0,0.05378454887350115,2.0
19.549022674560547,19.486942291259766,-0.9968173503875732,0.3279398050174537,0.5794105066338758,-0.7461494147202621,0.2027925586784068,11.0
19.370906829833984,19.490800857543945,-1.1949622631072998,-0.8154740723046109,-0.5733430438009807,-0.07924513564857669,0.16960565153721419,3.0
19.26441192626953,19.52159881591797,-1.2254960536956787,-0.0,-0.0,-1.0,0.20724334741575134,2.0
19.31041145324707,17.664602279663086,-1.1793138980865479,-0.0,-0.0,-1.0,0.10527009958098196,2.0
18.66727638244629,17.645017623901367,-1.0694971084594727,-0.0,-0.0,-1.0,0.09176585333860728,1.0
18.665626525878906,17.910871505737305,-1.108774185180664,-0.0,-0.0,-1.0,0.046499679999320614,1.0
18.462751388549805,18.468971252441406,-1.246729850769043,-0.0,-0.0,-1.0,0.005412213059912267,1.0
18.555438995361328,18.717985153198242,-1.2624547481536865,-0.0,-0.0,-1.0,0.02118132292131243,1.0
18.416276931762695,18.393156051635742,-1.247178077697754,-0.0,-0.0,-1.0,0.006404886421839119,2.0
19.556928634643555,19.487180709838867,-0.8784595727920532,0.9339286754042333,-0.3014293214143557,-0.1921395155853549,0.1383914950897285,4.0
17.764049530029297,19.53828239440918,-1.2925547361373901,-0.0,-0.0,-1.0,0.04812403157114982,1.0
18.91078758239746,19.30632781982422,-1.2630224227905273,-0.0,-0.0,-1.0,0.17417757163170416,2.0
18.95798683166504,19.23099136352539,-1.2661008834838867,-0.0,-0.0,-1.0,0.13149357265252237,1.0
19.03813934326172,19.116649627685547,-1.2742223739624023,-0.0,-0.0,-1.0,0.07201662099922891,1.0
19.382753372192383,19.560428619384766,-1.1656322479248047,-0.0,-0.0,-1.0,0.19222205046394905,1.0
19.56754493713379,19.549144744873047,-1.0715649127960205,-0.0,-0.0,-1.0,0.11004450188975036,2.0
18.333297729492188,18.607040405273438,-1.2561585903167725,0.3054171149677789,-0.15958180296246355,-0.9387513164028096,0.010291965437116538,3.0
18.460142135620117,18.386972427368164,-1.2367877960205078,-0.0,-0.0,-1.0,0.005334008778062856,2.0
18.502559661865234,18.112428665161133,-1.1793551445007324,-0.0,-0.0,-1.0,0.006897382768454124,2.0
18.461353302001953,19.59856414794922,-1.3150386810302734,-0.0,-0.0,-1.0,0.060898766177467686,2.0
18.88616943359375,19.592334747314453,-1.2809730768203735,-0.0,-0.0,-1.0,0.15711331251692795,1.0
18.378721237182617,19.342700958251953,-1.3083745241165161,-0.0,-0.0,-1.0,0.04541875604871598,2.0
18.650596618652344,19.2454776763916,-1.2957783937454224,-0.0,-0.0,-1.0,0.07455332316098146,2.0
19.337060928344727,18.374431610107422,-1.2450408935546875,-0.0,-0.0,-1.0,0.028105591605559695,2.0
18.980379104614258,19.566974639892578,-1.234227180480957,-0.0,-0.0,-1.0,0.18690672606783157,2.0
19.553979873657227,19.414688110351562,-1.3072936534881592,0.4550987660293773,-0.7332770323959725,0.5051632477913397,0.18985458183248788,3.0
19.642578125,19.557170867919922,-1.3474886417388916,-0.0,-0.0,-1.0,0.18854947181182444,1.0
19.479021072387695,19.493209838867188,-0.9510524272918701,-0.0,-0.0,-1.0,0.24390831134805677,2.0
19.52276611328125,19.572017669677734,-0.970245361328125,0.5095219816103695,0.576593106887506,-0.6386922101808157,0.197916510278758,3.0
18.810752868652344,19.522193908691406,-1.2863233089447021,-0.0,-0.0,-1.0,0.14846897662976158,1.0
17.713394165039062,17.918243408203125,-1.1663625240325928,-0.0,-0.0,-1.0,0.0340849633456373,1.0
19.5403995513916,19.4921932220459,-0.9881148338317871,-0.35202089155433314,0.7251703754848811,-0.5917847737382314,0.21182078372279864,8.0
19.562917709350586,19.168479919433594,-1.3109970092773438,-0.0,-0.0,-1.0,0.0645349713922108,1.0
19.340736389160156,19.137264251708984,-1.3172059059143066,-0.0,-0.0,-1.0,0.14243010598474237,1.0
18.112136840820312,19.126001358032227,-1.2731363773345947,-0.0,-0.0,-1.0,0.03889798205572325,2.0
18.004642486572266,19.149333953857422,-1.281404733657837,0.02495257255119231,-0.8633695236910641,-0.5039547942866924,0.047847290459995154,3.0
19.670080184936523,19.2540283203125,-1.3498103618621826,-0.0,-0.0,-1.0,0.07749346804377434,2.0
19.441877365112305,18.871715545654297,-1.2786448001861572,-0.0,-0.0,-1.0,0.06961208700496092,2.0
19.23180389404297,19.073081970214844,-1.3165485858917236,-0.0,-0.0,-1.0,0.1197015938279798,1.0
19.013057708740234,19.0699462890625,-1.3166491985321045,-0.0,-0.0,-1.0,0.05327148607631138,2.0
18.478864669799805,18.95183563232422,-1.2977492809295654,-0.0,-0.0,-1.0,0.026541957281224205,1.0
18.102752685546875,18.77410125732422,-1.2678511142730713,-0.0,-0.0,-1.0,0.014770322099255133,1.0
17.768234252929688,18.679866790771484,-1.254120111465454,-0.0,-0.0,-1.0,0.0072893524103893135,1.0
19.52066421508789,19.505577087402344,-1.2159357070922852,-0.37086328336854363,-0.9072387925127796,-0.1984394073994813,0.1832167877865662,5.0
19.143157958984375,19.54572868347168,-1.222496509552002,-0.0,-0.0,-1.0,0.1147519690009844,1.0
19.488018035888672,19.50778579711914,-1.125873327255249,-0.107487699958279,-0.7420327776393014,-0.6616900719117539,0.12446005492298927,8.0
19.536056518554688,19.557580947875977,-1.1537137031555176,-0.07193304221133036,-0.6615973350012075,-0.7464011011229299,0.1142503227820535,6.0
19.482135772705078,18.464263916015625,-1.287975549697876,-0.0,-0.0,-1.0,0.024233799211662847,1.0
18.388051986694336,18.66860580444336,-1.2918810844421387,-0.0,-0.0,-1.0,0.010882209274950426,1.0
18.266952514648438,17.950336456298828,-1.1500487327575684,-0.0,-0.0,-1.0,0.1023775398982722,2.0
