x,y,z,nx,ny,nz,curvature,density
46.338279724121094,4.59427547454834,-1.303984522819519,-0.0,-0.0,-1.0,0.2436579196648726,2.0
46.08915710449219,4.038786888122559,-1.1670761108398438,0.1112642191115295,-0.0330604680335508,-0.9932407960806404,0.2341549161900264,9.0
47.23086929321289,4.536043167114258,-1.316390037536621,-0.0,-0.0,-1.0,0.0974725869263197,1.0
47.34770202636719,4.725678443908691,-1.497793197631836,-0.0,-0.0,-1.0,0.04446842792686873,1.0
46.854312896728516,4.36119270324707,-1.4295589923858643,-0.0,-0.0,-1.0,0.05954515199655346,1.0
46.441551208496094,4.72462272644043,-1.3594458103179932,0.7182450502529816,-0.6655858150845393,-0.20277961077322632,0.14537416597161223,3.0
47.333106994628906,5.583950042724609,-1.4790923595428467,-0.0,-0.0,-1.0,0.03391150534936417,1.0
46.30624771118164,3.9237756729125977,-1.0383427143096924,-0.0,-0.0,-1.0,0.08012178841252802,2.0
45.7931022644043,3.7321090698242188,-0.922010064125061,0.5720679982681571,0.012798173602596193,0.8201063419520065,0.15817530909843125,3.0
46.27735900878906,3.9420948028564453,-0.9826289415359497,-0.0,-0.0,-1.0,0.07698919761068308,2.0
47.074222564697266,5.626420021057129,-1.4853172302246094,-0.0,-0.0,-1.0,0.05378732905305406,1.0
46.1075325012207,4.795546531677246,-1.4044017791748047,-0.19288231418202292,0.45047245356105386,-0.8717057883589346,0.1008119688976922,3.0
46.23888397216797,3.991464614868164,-0.9529068470001221,-0.4045484257500739,0.4785212614448594,-0.7793317480818791,0.16163566006208452,3.0
47.61907958984375,5.142679214477539,-1.4372577667236328,-0.0,-0.0,-1.0,0.034299990805046206,1.0
46.44226837158203,4.487736701965332,-1.3296546936035156,-0.7709131588714805,0.07261626602785581,-0.632787309754998,0.12918951459224617,4.0
46.53510284423828,4.5536088943481445,-1.3857057094573975,-0.0,-0.0,-1.0,0.17059341426451963,1.0
47.38420104980469,5.108877182006836,-1.4567251205444336,0.02705665901907187,-0.8702548791558233,-0.491858091839718,0.05170887400897278,6.0
46.0234375,3.6497812271118164,-0.9053535461425781,0.5139926994697318,-0.17946586212582624,-0.8388107708078453,0.09980732126501309,3.0
46.325599670410156,3.8296003341674805,-0.9255020618438721,-0.0,-0.0,-1.0,0.027831917894827064,1.0
46.90796661376953,4.02047061920166,-1.3658194541931152,-0.0,-0.0,-1.0,0.0579300846793434,2.0
46.371925354003906,4.211581230163574,-1.2595717906951904,0.0595371136333124,-0.6893127873747088,-0.7220133054604488,0.029892480658698956,3.0
47.279205322265625,4.4310503005981445,-1.3713738918304443,-0.0,-0.0,-1.0,0.0830731313574081,1.0
46.957786560058594,3.7688846588134766,-1.32816743850708,-0.0,-0.0,-1.0,0.06046756087192177,1.0
46.44511413574219,3.998518943786621,-1.2235746383666992,-0.0,-0.0,-1.0,0.09333410894959633,1.0
47.031105041503906,4.370970726013184,-1.2527661323547363,-0.49342267759662084,0.8229657177261531,-0.28153416965061057,0.1250414641435488,3.0
47.53446960449219,4.490427017211914,-1.3119726181030273,-0.0,-0.0,-1.0,0.06262703106111311,2.0
46.0467529296875,4.820833206176758,-1.4395314455032349,0.8935840303377417,0.3849424396358805,0.23092617628266932,0.06636007839611148,3.0
47.262481689453125,5.148685455322266,-1.5693615674972534,-0.0,-0.0,-1.0,0.03813658084223395,1.0
47.57524108886719,4.015275001525879,-1.3343504667282104,-0.0,-0.0,-1.0,0.014133527273065332,1.0
46.31696701049805,3.991323471069336,-1.1619614362716675,-0.0,-0.0,-1.0,0.12984741601904223,2.0
47.01504135131836,4.157098770141602,-1.2316137552261353,-0.0,-0.0,-1.0,0.07926954658670549,2.0
46.45134735107422,4.747649192810059,-1.4003279209136963,0.7182450502529816,-0.6655858150845393,-0.20277961077322632,0.09884156650325787,3.0
45.72757339477539,3.7260398864746094,-1.042621374130249,-0.0,-0.0,-1.0,0.12839447472312115,2.0
46.35462188720703,3.9278697967529297,-1.0815644264221191,-0.0,-0.0,-1.0,0.10168946594519458,1.0
46.781192779541016,4.285728454589844,-1.3808062076568604,0.791635118729717,0.26702069126379374,-0.5495578124554255,0.07225984270120661,3.0
46.30903625488281,3.9424219131469727,-0.9429101943969727,-0.0,-0.0,-1.0,0.07969071695380493,1.0
46.80741500854492,3.931931495666504,-1.3389209508895874,-0.0,-0.0,-1.0,0.04628437118841605,2.0
47.090938568115234,4.372567176818848,-1.273464560508728,-0.8059475998233703,-0.3479826629269638,-0.4789118213629803,0.13344384284263872,3.0
46.440147399902344,4.049257278442383,-1.1829819679260254,-0.0,-0.0,-1.0,0.11876503845052477,2.0
47.111087799072266,4.103644371032715,-1.2077560424804688,-0.0,-0.0,-1.0,0.07065013717865672,2.0
47.453922271728516,3.9795570373535156,-1.2553603649139404,-0.0,-0.0,-1.0,0.018775038592494003,1.0
46.67650604248047,4.048188209533691,-1.3417407274246216,-0.023238746996112707,-0.39834509527037587,-0.9169411898873809,0.03372649796809492,3.0
46.980743408203125,5.178815841674805,-1.5054832696914673,-0.0,-0.0,-1.0,0.06926982533185674,1.0
46.44111633300781,5.48863410949707,-1.4232498407363892,-0.0,-0.0,-1.0,0.20323254687457493,2.0
46.952030181884766,4.482451438903809,-1.2504619359970093,-0.0,-0.0,-1.0,0.12600771485078113,1.0
45.85204315185547,3.883425712585449,-0.9246362447738647,-0.0,-0.0,-1.0,0.22567873867396418,1.0
46.1648063659668,4.796843528747559,-1.4114477634429932,-0.0,-0.0,-1.0,0.06227685004209717,2.0
46.9540901184082,3.7756996154785156,-1.2022125720977783,-0.0,-0.0,-1.0,0.05903587789579977,2.0
46.40983200073242,4.818848609924316,-1.4013559818267822,0.48396060860183693,0.4917726096413667,-0.7238382621333714,0.16456100666846546,6.0
46.48579788208008,4.681099891662598,-1.389655351638794,-0.0,-0.0,-1.0,0.06678615568016355,2.0
45.97761154174805,3.9768829345703125,-1.1359949111938477,0.8570337053542904,0.24871084464736262,-0.4512606160983815,0.2022748742140631,4.0
46.87454605102539,3.638291358947754,-1.2041301727294922,-0.0,-0.0,-1.0,0.0618652134300566,1.0
45.95793914794922,4.014606475830078,-1.183644413948059,0.07379376719967527,0.9959680505482903,0.051011000867634035,0.16978512904775125,3.0
46.08386993408203,4.135379791259766,-1.2087866067886353,-0.0,-0.0,-1.0,0.16597633154512872,2.0
45.957157135009766,3.7224903106689453,-0.9096299409866333,-0.0,-0.0,-1.0,0.09106412741672693,1.0
45.73881149291992,4.312138557434082,-1.358826994895935,-0.0,-0.0,-1.0,0.0325705614714256,1.0
46.64961624145508,4.232272148132324,-1.2746938467025757,-0.0,-0.0,-1.0,0.07698449306413545,1.0
47.219093322753906,3.8253631591796875,-1.3218854665756226,-0.0,-0.0,-1.0,0.032097000554776316,1.0
46.461490631103516,3.688600540161133,-1.0416373014450073,0.586436472528321,0.1989647340952511,-0.785178513635559,0.08828958873057413,3.0
47.04540252685547,4.193633079528809,-1.2451096773147583,-0.561344743438724,0.16707818390304088,-0.8105411522417446,0.0766363667779353,3.0
46.03987503051758,3.972452163696289,-1.0201908349990845,-0.22974003328968168,0.9565896941120791,-0.17932003296512952,0.1306956773296704,3.0
46.0438232421875,4.055001258850098,-1.177241563796997,0.09694375763766948,-0.05287810756307212,-0.9938842053255685,0.19959205074342087,7.0
45.74213409423828,4.104238510131836,-0.8407764434814453,-0.0,-0.0,-1.0,0.15413065537571666,1.0
46.032867431640625,3.984130859375,-1.0994372367858887,-0.5479071190164727,0.7246499759885998,0.4179476058440701,0.09617949306380057,8.0
46.50401306152344,3.8057355880737305,-1.0757365226745605,0.39734551603942997,0.807421585405456,-0.43610425852621415,0.10145611882916054,3.0
46.06232452392578,3.9695072174072266,-1.0646624565124512,-0.40994133047861897,0.9032908121797055,0.1265457000342079,0.12748007595430155,7.0
46.52637481689453,3.7370519638061523,-1.0615308284759521,-0.0,-0.0,-1.0,0.08289489657413311,1.0
46.083335876464844,3.933587074279785,-1.035570502281189,-0.6090488466433878,0.7560566688346435,-0.23966187830570934,0.07428876700829952,4.0
46.448726654052734,3.645596981048584,-1.0620676279067993,-0.0,-0.0,-1.0,0.07643961905410625,2.0
45.78000259399414,3.957549571990967,-0.8699504137039185,-0.0,-0.0,-1.0,0.14090057076196372,1.0
45.84899139404297,3.6541061401367188,-0.9288467168807983,0.06711581390067978,0.7918083559084801,-0.6070708319775865,0.19897713104430428,3.0
45.871002197265625,3.8455381393432617,-0.8168768882751465,-0.0,-0.0,-1.0,0.19445404012005227,1.0
46.0496826171875,3.82749080657959,-0.799257755279541,-0.0,-0.0,-1.0,0.12475361502285673,1.0
47.18872833251953,4.479875564575195,-1.39822518825531,-0.8383290417021756,-0.5232420016543929,-0.15304321462716403,0.09634947645541661,4.0
46.13066482543945,4.268231391906738,-1.3371630907058716,0.48643891934281014,-0.8235499310762616,-0.2917922013572053,0.06761856405230883,4.0
46.96379089355469,3.6800432205200195,-1.3182696104049683,-0.0,-0.0,-1.0,0.055782964626115816,2.0
46.37875747680664,4.04258918762207,-1.1944557428359985,-0.20674385920954216,0.49344556297086817,-0.8448481834409703,0.12878960231471007,3.0
46.055599212646484,4.022000312805176,-1.1770762205123901,0.1423294473640826,0.17132819382060685,-0.9748789557761536,0.14828721913338505,8.0
45.82584762573242,4.205329418182373,-0.9064741134643555,-0.0,-0.0,-1.0,0.1890838968303088,1.0
46.14270782470703,4.148533344268799,-1.0369261503219604,-0.0,-0.0,-1.0,0.23078439926855404,1.0
45.999732971191406,3.6798839569091797,-0.8603010177612305,-0.0,-0.0,-1.0,0.11225157832232514,1.0
46.133792877197266,3.990326404571533,-1.0137227773666382,0.8340860321361712,0.19296006633153656,-0.5167851621289706,0.11535345020605099,3.0
46.138282775878906,3.9792375564575195,-1.0106165409088135,0.8340860321361712,0.19296006633153656,-0.5167851621289706,0.111194814259134,3.0
47.5096435546875,5.174410820007324,-1.4489681720733643,-0.0,-0.0,-1.0,0.04098636673694744,2.0
46.520938873291016,4.235866069793701,-1.2884504795074463,-0.1368847342876423,0.10921122012278509,-0.9845483629148413,0.06372399371169839,3.0
46.367706298828125,4.69798469543457,-1.2745740413665771,-0.0,-0.0,-1.0,0.2814744226292422,2.0
46.307090759277344,4.679847240447998,-1.2901328802108765,-0.0,-0.0,-1.0,0.24301069045915139,2.0
47.43791198730469,5.097663879394531,-1.4610682725906372,0.5932239084548634,-0.6912722979069772,0.4125869660858705,0.05334361784982388,5.0
46.149322509765625,4.889112949371338,-1.450234293937683,-0.0,-0.0,-1.0,0.1260022062405904,1.0
46.795501708984375,5.068871021270752,-1.562174677848816,-0.0,-0.0,-1.0,0.023163784301929054,1.0
46.93528747558594,4.818917751312256,-1.4975244998931885,-0.0,-0.0,-1.0,0.020837883904461778,2.0
46.144615173339844,5.607539176940918,-1.5300374031066895,-0.6754711695097652,0.3470656214127983,-0.650602915451859,0.11407893712317634,4.0
45.834136962890625,3.6569433212280273,-0.994356632232666,0.6198330250428263,0.22575395980761648,-0.7515598250954082,0.20569968296954816,3.0
46.96158981323242,4.9824934005737305,-1.5732004642486572,-0.13406783935651967,0.8958402399895034,-0.42366977572848347,0.047060390628829205,3.0
47.33619689941406,5.111903667449951,-1.4720607995986938,-0.05052538036621965,-0.9408391617973935,-0.33506545266145676,0.048743826111915786,3.0
46.331565856933594,4.666857719421387,-1.2892202138900757,0.2933268121898281,-0.04432795912855304,-0.9549839858814653,0.2827816075272595,4.0
46.41808319091797,4.71083927154541,-1.3973278999328613,0.8615255900330017,-0.49004869911315896,-0.13276268382263415,0.11579131634394299,4.0
46.22549819946289,3.9588093757629395,-0.9660091400146484,-0.7646302079961786,0.3229019551688663,-0.5577409545370002,0.0841302938954567,4.0
47.37268829345703,5.107659339904785,-1.465645670890808,0.05096690045901771,-0.8674797516322859,-0.4948547823004117,0.056192855957478444,6.0
46.16290283203125,5.617190361022949,-1.5350533723831177,0.11025945023099396,0.9281170093011701,-0.3555863758366043,0.13027951006409097,4.0
46.3853874206543,4.593568801879883,-1.298481822013855,-0.0,-0.0,-1.0,0.2780303320330414,2.0
47.20319366455078,4.010408401489258,-1.2975246906280518,-0.0,-0.0,-1.0,0.04703415367962854,1.0
46.39337921142578,4.808643341064453,-1.4289345741271973,0.3984374554061918,0.4100824207682359,-0.8204145307747189,0.07922142498400811,6.0
47.425479888916016,4.208841800689697,-1.322887659072876,-0.3445838243323002,-0.3058832620241492,-0.887523192948777,0.023368293615020894,3.0
47.53845977783203,4.460855484008789,-1.3219687938690186,-0.0,-0.0,-1.0,0.05497915771422587,2.0
46.2153434753418,4.011257648468018,-1.098456859588623,0.8971249883755271,0.4405599212465802,0.032767530017039845,0.06174384298869565,4.0
46.36662673950195,4.817572593688965,-1.408919095993042,0.02669239531628642,0.9457790099858079,-0.3237121874482706,0.09131488554891948,4.0
47.16449737548828,4.071314811706543,-1.2964110374450684,-0.0,-0.0,-1.0,0.05951526667492004,1.0
47.43281555175781,4.243192672729492,-1.3375747203826904,-0.3445838243323002,-0.3058832620241492,-0.887523192948777,0.027122242868429798,3.0
47.529823303222656,4.57509708404541,-1.3276958465576172,-0.0,-0.0,-1.0,0.06591476277742643,1.0
46.22495651245117,4.008749961853027,-1.1019501686096191,0.8971249883755271,0.4405599212465802,0.032767530017039845,0.07069108353863703,4.0
45.70967483520508,3.977263927459717,-0.9972383975982666,-0.0,-0.0,-1.0,0.16147886774003803,1.0
46.7719612121582,4.190990447998047,-1.3574203252792358,-0.0,-0.0,-1.0,0.05607073815451566,1.0
47.51496887207031,5.187421798706055,-1.4484189748764038,-0.0,-0.0,-1.0,0.03667082207190034,2.0
46.08451461791992,4.134298324584961,-1.198006272315979,0.8470486434188564,-0.4450478935372087,-0.2905872814497712,0.15834903275657541,4.0
46.432884216308594,5.267125129699707,-1.5290212631225586,-0.0,-0.0,-1.0,0.06571446265461126,1.0
47.64115524291992,5.261852264404297,-1.522977590560913,-0.0,-0.0,-1.0,0.04153415508929843,2.0
46.0703010559082,4.091249942779541,-1.1778979301452637,-0.1316699349138563,-0.14910800024278523,-0.9800152205467925,0.19539882596978575,7.0
46.34394454956055,4.191021919250488,-1.242250919342041,-0.044929242315941996,-0.7648075436160152,-0.6426902709804718,0.08150676871515802,4.0
45.748878479003906,4.398806095123291,-1.405598759651184,0.9913825048649257,0.04541015034011914,0.12287655306783915,0.0416103203037961,3.0
46.425350189208984,4.1978020668029785,-1.2980729341506958,-0.0,-0.0,-1.0,0.028532625157123206,1.0
47.6126708984375,3.8986940383911133,-1.2754923105239868,-0.0,-0.0,-1.0,0.010471742288609278,2.0
47.301002502441406,5.375418663024902,-1.5113550424575806,-0.0,-0.0,-1.0,0.03430886088340904,1.0
47.501808166503906,5.3432087898254395,-1.5454354286193848,-0.0,-0.0,-1.0,0.029776457736280442,2.0
45.962440490722656,3.905486583709717,-1.0636049509048462,-0.0912308144453466,0.8165840575454429,-0.5699714163519601,0.16809960209554203,4.0
46.06241226196289,3.8966922760009766,-1.0649710893630981,-0.5363224285552729,0.7173683709749518,-0.4446806415320082,0.125126576466283,3.0
46.10254669189453,4.956822395324707,-1.3129518032073975,-0.0,-0.0,-1.0,0.14198331858431407,1.0
46.093658447265625,4.913511753082275,-1.4247254133224487,-0.0,-0.0,-1.0,0.13931531456930227,2.0
47.70684814453125,5.089804172515869,-1.4103819131851196,-0.0,-0.0,-1.0,0.03771881094428441,1.0
46.0949821472168,4.038740634918213,-1.1588293313980103,0.13966066991160014,-0.06638478889647019,-0.9879716377928134,0.20812817473960543,7.0
45.89115905761719,3.8112988471984863,-1.0555356740951538,-0.31065144971141145,-0.42530580849576793,-0.85006508342124,0.14044718025720931,4.0
46.58033752441406,4.530791759490967,-1.338623285293579,-0.0,-0.0,-1.0,0.13303249313359192,1.0
47.097373962402344,4.768778324127197,-1.2320125102996826,-0.0,-0.0,-1.0,0.1783178326628147,2.0
46.10465621948242,4.1434502601623535,-1.1580469608306885,-0.0,-0.0,-1.0,0.21014360916047514,2.0
46.08205795288086,4.9651360511779785,-1.4643365144729614,0.6624459841613887,0.7131587106815629,0.22928142412210503,0.14260345276420436,3.0
45.84889602661133,3.973626136779785,-1.1008790731430054,-0.0,-0.0,-1.0,0.23883895070336003,1.0
46.08934020996094,4.008627891540527,-1.1073641777038574,-0.14025571173025103,-0.2682327269841422,-0.9530894708796708,0.11181226128588216,5.0
46.242584228515625,3.9564266204833984,-0.9763414859771729,-0.42972691713718136,0.18916626246401205,-0.8829217982546194,0.06683858357644833,5.0
46.41063690185547,4.77674674987793,-1.4126307964324951,0.8591259459369044,-0.08043094461492738,-0.5054042660745645,0.07803801370291762,6.0
46.105560302734375,4.87033748626709,-1.4342951774597168,0.8035229689050575,0.19555803132708635,-0.5622347328522818,0.14231437097393834,4.0
46.15418243408203,4.027693271636963,-1.0449270009994507,-0.0,-0.0,-1.0,0.19885863073420162,1.0
45.84673309326172,3.9640884399414062,-0.9566503763198853,-0.0,-0.0,-1.0,0.2517145024332077,2.0
45.82292938232422,3.9473700523376465,-0.9082525968551636,-0.0,-0.0,-1.0,0.15430785727366553,1.0
45.82868957519531,3.8156938552856445,-1.3440089225769043,0.8020115339603556,-0.5955940015763261,-0.045224823723885144,0.1325017737749826,4.0
46.393577575683594,4.8132171630859375,-1.4250519275665283,0.49428834941956507,0.4607996467946585,-0.737117842099891,0.07951812359618732,7.0
45.81376266479492,3.7483959197998047,-1.2964965105056763,-0.0,-0.0,-1.0,0.15759130261727153,2.0
45.9123420715332,4.441042900085449,-1.3236786127090454,-0.0,-0.0,-1.0,0.07643854220060488,2.0
46.328773498535156,4.98231315612793,-1.3825002908706665,-0.0,-0.0,-1.0,0.19856698114665353,1.0
46.13339614868164,4.354539394378662,-1.2460671663284302,-0.0,-0.0,-1.0,0.11386222166634168,2.0
46.31336212158203,4.290010452270508,-1.2655203342437744,-0.0,-0.0,-1.0,0.03391417989261542,1.0
46.1222038269043,4.71116828918457,-1.3679440021514893,-0.0,-0.0,-1.0,0.0902545079784828,1.0
46.03868865966797,3.9947471618652344,-1.3162868022918701,-0.0,-0.0,-1.0,0.14617580818328751,1.0
46.63119888305664,4.844972610473633,-1.368147373199463,-0.0,-0.0,-1.0,0.12220714782289964,1.0
46.24433517456055,4.567195892333984,-1.3295161724090576,-0.03637735860289009,0.12183123055371128,-0.9918839846689961,0.14539423427785594,3.0
47.669193267822266,5.374643325805664,-1.4748318195343018,-0.0,-0.0,-1.0,0.037739721821487715,2.0
47.41505813598633,5.095800399780273,-1.4330613613128662,-0.015240546511011576,-0.8375041561143715,0.5462183759570898,0.052010685785549675,6.0
46.06327438354492,4.251161575317383,-1.2920260429382324,-0.0,-0.0,-1.0,0.1724297077203747,2.0
45.99546813964844,4.229434967041016,-1.2834975719451904,-0.0,-0.0,-1.0,0.16747063667010262,1.0
47.36064529418945,5.030021667480469,-1.414417028427124,-0.0,-0.0,-1.0,0.12692897804152375,1.0
46.065834045410156,4.056341171264648,-1.0158007144927979,-0.0,-0.0,-1.0,0.21525596938288832,1.0
45.81023025512695,3.8662643432617188,-0.8786592483520508,-0.0,-0.0,-1.0,0.17834611629486763,2.0
45.82281494140625,3.7817020416259766,-1.1528611183166504,0.8921281007200059,-0.10553504893569733,0.4392832859919158,0.1283152264307216,7.0
46.352149963378906,4.726318359375,-1.3787059783935547,-0.0,-0.0,-1.0,0.1877967747504655,1.0
46.12892150878906,5.069833755493164,-1.5143017768859863,-0.39490251096041823,-0.6818968090505192,-0.6156855923634053,0.08781684036813822,3.0
45.97372055053711,4.598382949829102,-1.3784184455871582,-0.0,-0.0,-1.0,0.08322432944405882,1.0
46.29623031616211,5.5744452476501465,-1.4722857475280762,-0.0,-0.0,-1.0,0.14097722144752506,2.0
46.189727783203125,4.16973876953125,-1.2337265014648438,-0.0,-0.0,-1.0,0.10020779534794118,2.0
46.635223388671875,5.077478408813477,-1.5587449073791504,-0.0,-0.0,-1.0,0.02165588664350535,1.0
45.75861740112305,3.8047633171081543,-0.9447908401489258,0.7031259537124864,-0.6154227564639289,0.3561863613928053,0.15273869687460775,4.0
45.769203186035156,3.780543327331543,-1.0835151672363281,0.8689249499826613,0.47267283525821857,-0.14679857665041066,0.13398964818779255,3.0
46.3466911315918,5.10369873046875,-1.4200563430786133,-0.0,-0.0,-1.0,0.13051669587693362,1.0
45.819580078125,5.281702041625977,-1.222059726715088,-0.0,-0.0,-1.0,0.11046450141875726,1.0
45.86988830566406,4.68759822845459,-1.1413755416870117,-0.0,-0.0,-1.0,0.20393226624745653,2.0
46.036155700683594,4.119265556335449,-1.1606197357177734,-0.0,-0.0,-1.0,0.17431948152546625,2.0
45.7828254699707,3.8344993591308594,-1.2068169116973877,0.664331090840685,-0.09788000040064389,0.741001826761578,0.195269315800799,5.0
45.91850662231445,4.00736141204834,-1.2235767841339111,-0.0,-0.0,-1.0,0.18139326360241398,2.0
47.61052322387695,4.8367695808410645,-1.401179552078247,-0.0,-0.0,-1.0,0.05959844605228872,2.0
47.56215286254883,5.000646114349365,-1.4007551670074463,0.21039759775305797,-0.9421669284032921,-0.26087224820369126,0.060604748170157964,3.0
46.04393768310547,4.613973140716553,-1.4544615745544434,0.5208578550992247,0.8446667598945632,0.12347129022835893,0.04019353947453616,3.0
47.00472640991211,5.03682804107666,-1.576528549194336,-0.13157472060523132,0.9349117959814202,-0.3295876615294491,0.043207070990553105,3.0
46.79755401611328,5.424736022949219,-1.5638937950134277,-0.0,-0.0,-1.0,0.06544124690683842,1.0
46.90804672241211,5.1908464431762695,-1.5698528289794922,-0.0,-0.0,-1.0,0.024268454517064747,1.0
45.74851608276367,4.186010360717773,-1.4085092544555664,-0.0,-0.0,-1.0,0.02671031179428312,1.0
45.96070098876953,4.445315361022949,-1.4401459693908691,-0.0,-0.0,-1.0,0.059491925085366826,1.0
45.750694274902344,4.362382411956787,-1.4067881107330322,0.4830207777130229,0.7218878114382566,-0.4955491055328328,0.04050296696727698,4.0
45.964508056640625,4.6171088218688965,-1.4397103786468506,-0.0,-0.0,-1.0,0.047112573836214026,2.0
46.77423858642578,5.188363075256348,-1.55330491065979,-0.0,-0.0,-1.0,0.02591720103792946,2.0
46.173431396484375,5.511133193969727,-1.4915039539337158,-0.0,-0.0,-1.0,0.11310046499792148,1.0
46.74732208251953,5.428668022155762,-1.5573885440826416,-0.0,-0.0,-1.0,0.08849965322846748,1.0
45.990901947021484,3.9909374713897705,-1.272679328918457,-0.5566803067130669,0.7861793219808265,-0.2683823947423042,0.15208436011539608,4.0
46.15349578857422,4.152192115783691,-1.3024721145629883,-0.0,-0.0,-1.0,0.0975695927553454,2.0
46.449195861816406,4.475276947021484,-1.3582935333251953,-0.0,-0.0,-1.0,0.11930772899602284,2.0
47.24314498901367,4.785127639770508,-1.479903221130371,-0.0,-0.0,-1.0,0.06823875462371347,2.0
47.35625457763672,5.023315906524658,-1.507309913635254,-0.0,-0.0,-1.0,0.06170393002186431,1.0
47.384979248046875,5.177304744720459,-1.5191826820373535,-0.0,-0.0,-1.0,0.0460618393849811,2.0
47.272254943847656,5.459397315979004,-1.5190930366516113,-0.9741087832932306,-0.207118400946123,0.09063137591641557,0.036096898682667446,3.0
45.758567810058594,3.6805150508880615,-1.2262039184570312,-0.3705415988416383,-0.867358711116962,0.33224657978285504,0.1366305282886101,3.0
45.760597229003906,3.8246567249298096,-1.2336597442626953,0.737391178525832,-0.6480512215534299,0.1904832383056105,0.19172114577371252,6.0
45.80458068847656,4.709605693817139,-1.5729265213012695,-0.0,-0.0,-1.0,0.024100399497583466,1.0
45.923492431640625,5.215292453765869,-1.6276483535766602,-0.0,-0.0,-1.0,0.06018164101803513,1.0
46.05229187011719,5.020992755889893,-1.6318631172180176,-0.0,-0.0,-1.0,0.05405942313322775,1.0
45.94241714477539,5.429161071777344,-1.646538257598877,-0.0,-0.0,-1.0,0.033340734680868435,1.0
47.320091247558594,4.5517988204956055,-1.3905792236328125,-0.03318221068637672,0.10939825497727058,-0.9934439907221205,0.10853784974011425,3.0
47.65157699584961,4.95766544342041,-1.4615817070007324,-0.7411636974759516,-0.09853011541189112,-0.6640543576400172,0.053639364703139285,3.0
47.03337860107422,4.302506446838379,-1.3356037139892578,-0.0,-0.0,-1.0,0.11867570339575806,1.0
45.78495407104492,3.6778879165649414,-1.1533927917480469,0.12083671961881713,-0.679334957860587,0.7238110956736696,0.12106143243562258,3.0
45.980865478515625,3.8971951007843018,-1.2036876678466797,-0.0,-0.0,-1.0,0.12492891194519987,1.0
46.30689239501953,4.070333957672119,-1.2670001983642578,-0.0,-0.0,-1.0,0.09013425312419844,2.0
46.80516815185547,4.265025615692139,-1.3563289642333984,0.791635118729717,0.26702069126379374,-0.5495578124554255,0.08550660850176604,3.0
47.384971618652344,4.910377502441406,-1.5056672096252441,0.9818195045928239,-0.1876107775719905,-0.028855788672892242,0.04870927018275279,3.0
46.333038330078125,4.42536735534668,-1.308767318725586,-0.0,-0.0,-1.0,0.03899558111953776,2.0
47.34131622314453,5.1853132247924805,-1.5296268463134766,0.07521066443395372,-0.6143091470268595,-0.7854728689359904,0.031076690583291443,3.0
47.29892349243164,5.323482036590576,-1.5389337539672852,-0.0,-0.0,-1.0,0.0370717160129722,1.0
46.51959991455078,5.358665466308594,-1.4359850883483887,-0.0,-0.0,-1.0,0.13099513545982838,2.0
47.03456497192383,5.5736565589904785,-1.530200481414795,-0.0,-0.0,-1.0,0.05119740225890293,2.0
45.808109283447266,3.8044261932373047,-1.0143036842346191,-0.0,-0.0,-1.0,0.19289231421223738,2.0
47.657196044921875,4.666683197021484,-1.3208210468292236,-0.0,-0.0,-1.0,0.06173867454042803,1.0
47.294334411621094,4.13731050491333,-1.2639892101287842,-0.0,-0.0,-1.0,0.034539613263555397,1.0
47.24275207519531,4.527605056762695,-1.2660267353057861,-0.0,-0.0,-1.0,0.09933244292089835,1.0
47.11152648925781,4.1369829177856445,-1.241243600845337,-0.0,-0.0,-1.0,0.07149940220238026,2.0
47.19691467285156,4.39482307434082,-1.2573659420013428,-0.0,-0.0,-1.0,0.12518857987877238,2.0
45.98883056640625,3.878117561340332,-1.0960757732391357,-0.16549926404469284,0.6836807096133151,-0.7107676701308937,0.14527312718564647,3.0
45.816734313964844,3.7836999893188477,-0.9458506107330322,0.28063471078706775,0.33990878181144196,-0.8976113742310315,0.23901063336123354,4.0
47.57382583618164,4.809772491455078,-1.4196295738220215,-0.0,-0.0,-1.0,0.05936887732936936,2.0
47.627784729003906,5.001811504364014,-1.4150276184082031,-0.0,-0.0,-1.0,0.0528949433156851,2.0
47.237152099609375,4.638986110687256,-1.3934926986694336,-0.08642794720318539,-0.922644832092393,0.37584135450405565,0.11608452228049744,4.0
46.38474655151367,4.4052581787109375,-1.3167905807495117,0.21117285779526804,0.6240180332227614,-0.7523347116432795,0.04683760141377337,3.0
45.909019470214844,4.064311504364014,-1.2860188484191895,-0.0,-0.0,-1.0,0.11691363458802202,2.0
46.06324768066406,4.243027210235596,-1.2921090126037598,-0.0,-0.0,-1.0,0.19246828759506815,2.0
45.75137710571289,3.829105854034424,-1.2829723358154297,0.34119015682932907,-0.2868202171160442,-0.8951667106948756,0.1715214286172911,4.0
46.05718994140625,3.9810328483581543,-1.0748481750488281,-0.3973281622522837,0.7319354571110345,0.5535348391067035,0.1265455453145134,6.0
45.7701416015625,3.6411309242248535,-1.058469533920288,0.932460963850228,0.3383212038421671,-0.12670956525176205,0.15010215692415474,4.0
45.8158073425293,3.8060388565063477,-1.0734584331512451,0.5972596313670294,-0.6957707833591718,-0.3989786332162222,0.13438506340120016,3.0
47.04918670654297,4.127964019775391,-1.25608491897583,-0.0,-0.0,-1.0,0.08453430450473533,2.0
47.09245681762695,4.339162826538086,-1.2517476081848145,-0.0,-0.0,-1.0,0.10265749498059881,2.0
46.9306526184082,4.022173881530762,-1.2504408359527588,-0.0,-0.0,-1.0,0.07447529877826996,1.0
45.88064193725586,3.99737548828125,-1.1663434505462646,0.40313051384307735,0.378360119918434,-0.8332643088863966,0.22055666154580794,3.0
45.7218017578125,3.763751983642578,-1.1627538204193115,-0.0,-0.0,-1.0,0.12894068850179077,2.0
45.84716796875,5.574102401733398,-1.5217959880828857,-0.0,-0.0,-1.0,0.09234847867242282,1.0
45.8945198059082,4.030731201171875,-0.9599370956420898,-0.0,-0.0,-1.0,0.19894163964455092,1.0
46.04357147216797,4.114959716796875,-0.967240571975708,-0.0,-0.0,-1.0,0.21414492856884196,1.0
45.75643539428711,3.7828025817871094,-0.9595274925231934,-0.0,-0.0,-1.0,0.18401323141718562,2.0
47.35715103149414,4.735532760620117,-1.2871146202087402,-0.0,-0.0,-1.0,0.1570683149609763,1.0
47.03753662109375,4.562509536743164,-1.2643358707427979,-0.0,-0.0,-1.0,0.26248181942165694,2.0
46.51936340332031,4.530248641967773,-1.222877025604248,-0.0,-0.0,-1.0,0.09862231899748106,2.0
46.074562072753906,4.264554977416992,-1.1923069953918457,-0.0,-0.0,-1.0,0.1502225738366256,1.0
45.79035568237305,3.8881092071533203,-1.1774110794067383,0.6729559895084223,0.5817768776097445,-0.45679962879078206,0.21866248418817133,3.0
47.35400390625,4.95704460144043,-1.4406566619873047,-0.0,-0.0,-1.0,0.04324234700932964,2.0
47.28174591064453,4.201128005981445,-1.213186264038086,-0.0,-0.0,-1.0,0.04001727822044634,1.0
47.44202423095703,4.598766326904297,-1.2282123565673828,-0.0,-0.0,-1.0,0.11615683599039121,1.0
47.40098571777344,4.9378814697265625,-1.223487377166748,-0.0,-0.0,-1.0,0.1526798019507915,1.0
46.02676773071289,3.7965354919433594,-1.0907957553863525,-0.0,-0.0,-1.0,0.10016207891554936,1.0
46.12761306762695,4.022851943969727,-1.0997700691223145,0.36790711545447946,0.1461423466641422,-0.9183064678577967,0.08914206633416114,4.0
46.268585205078125,4.214958190917969,-1.1129169464111328,-0.0,-0.0,-1.0,0.1490513853875525,1.0
45.925682067871094,4.119579315185547,-1.2979795932769775,-0.0,-0.0,-1.0,0.11281695915615102,2.0
46.3713264465332,4.344341278076172,-1.3265395164489746,-0.31902058646003717,0.7198820564727749,-0.6164379045639734,0.04323285563961699,4.0
46.90281677246094,4.40336799621582,-1.3681437969207764,-0.6707872829125325,-0.40631464808794093,-0.6204456687188611,0.08441288236989063,5.0
47.377498626708984,4.627017974853516,-1.3998949527740479,-0.8783410057379745,0.16372521256573738,-0.4491226251365069,0.10362647168232274,5.0
47.54907989501953,4.888114929199219,-1.405651330947876,-0.0,-0.0,-1.0,0.05222354098350217,1.0
45.80780792236328,4.5543060302734375,-1.4340336322784424,-0.0,-0.0,-1.0,0.040259239754342126,2.0
46.13214874267578,4.95158576965332,-1.4630446434020996,-0.0,-0.0,-1.0,0.11478918063235594,2.0
46.054534912109375,4.734588623046875,-1.4577579498291016,0.2125223757343117,-0.0783194422132114,-0.9740124767084124,0.03649848937682707,4.0
46.60409164428711,4.950794219970703,-1.5134916305541992,-0.0,-0.0,-1.0,0.037198193706004176,1.0
46.967201232910156,5.04047966003418,-1.55118989944458,-0.563493673185198,-0.10225771692793104,-0.8197671862235886,0.04082597555800204,3.0
45.88918685913086,4.579349517822266,-1.453779697418213,-0.0,-0.0,-1.0,0.043239170911647265,1.0
46.11687469482422,4.933549880981445,-1.466684103012085,0.06457119390720291,0.14456125566622624,-0.9873867551661824,0.12942657397520146,3.0
46.46159362792969,4.845426559448242,-1.5032670497894287,-0.0,-0.0,-1.0,0.06065328010796288,1.0
46.716041564941406,4.925352096557617,-1.5264232158660889,-0.0,-0.0,-1.0,0.028657576651942854,1.0
47.089359283447266,5.088918685913086,-1.5592832565307617,-0.0,-0.0,-1.0,0.07574904343098067,1.0
46.974056243896484,4.995210647583008,-1.5502550601959229,0.6639793845835669,-0.2171161520784021,-0.7155361300134998,0.04400200575059625,5.0
46.01337432861328,5.539873123168945,-1.5335869789123535,-0.0,-0.0,-1.0,0.07247414567353543,1.0
45.930423736572266,5.2587738037109375,-1.5293807983398438,-0.0,-0.0,-1.0,0.048776061027563926,2.0
45.88853073120117,5.03141975402832,-1.5288267135620117,-0.0,-0.0,-1.0,0.050852609251816186,1.0
45.86591339111328,3.950054168701172,-1.345005750656128,0.2598650751790806,-0.25127729225947076,-0.9323786060913879,0.140676717661857,4.0
46.08173370361328,4.387231826782227,-1.3620030879974365,-0.0,-0.0,-1.0,0.08232357161132359,2.0
45.988914489746094,4.200431823730469,-1.3546383380889893,-0.0,-0.0,-1.0,0.11796112378157927,2.0
46.38451385498047,4.586706161499023,-1.3923351764678955,-0.4503378098496899,-0.8051737849602966,-0.3858640084699457,0.14893599892716683,4.0
46.796630859375,4.623350143432617,-1.4371964931488037,-0.0,-0.0,-1.0,0.02404691806842613,1.0
47.18109130859375,4.770624160766602,-1.4775645732879639,0.12011086000497424,-0.4249796119616097,-0.897198813377406,0.11245492129084884,3.0
47.54796600341797,5.275728225708008,-1.5113403797149658,-0.3510017382442246,-0.025025981226944494,-0.9360403196514356,0.04816612730636245,4.0
47.54181671142578,4.939746856689453,-1.5151550769805908,-0.0,-0.0,-1.0,0.04504037092713064,1.0
45.89535903930664,4.930875778198242,-1.5009634494781494,-0.0,-0.0,-1.0,0.03705243233193109,1.0
46.2335090637207,5.4164581298828125,-1.5200471878051758,-0.0,-0.0,-1.0,0.09807138223478712,1.0
46.18503189086914,5.128547668457031,-1.5243525505065918,-0.0,-0.0,-1.0,0.06757837062557777,2.0
46.66726303100586,5.598262786865234,-1.559157371520996,-0.0,-0.0,-1.0,0.0912626274089342,1.0
45.79691696166992,4.164091110229492,-1.3791186809539795,-0.12149928016265751,0.42760890753252173,-0.8957614342662892,0.03197598983061183,3.0
46.07863998413086,4.520498275756836,-1.400709867477417,0.31262823240258186,0.18850630451249611,-0.930982793323206,0.06997494909827924,3.0
46.451107025146484,5.586952209472656,-1.4162371158599854,-0.0,-0.0,-1.0,0.09902986746147059,2.0
46.40658187866211,4.76710319519043,-1.4301249980926514,-0.36359868481595375,-0.22434926784215828,-0.9041368272660928,0.07803801370291762,5.0
46.91960906982422,4.730356216430664,-1.4861609935760498,-0.0,-0.0,-1.0,0.017836061321643292,2.0
47.283870697021484,5.196050643920898,-1.514958381652832,-0.7180532797396787,-0.3829538383350987,-0.5811590532371542,0.06313289351451493,4.0
47.15798568725586,4.883859634399414,-1.5083611011505127,0.9060875993263606,-0.42019808102718537,-0.04938456285180464,0.03736874000689009,4.0
47.540122985839844,5.34466552734375,-1.5394227504730225,-0.0,-0.0,-1.0,0.032950008890369566,2.0
45.83274841308594,4.362428665161133,-1.3373892307281494,-0.0,-0.0,-1.0,0.05316607645169081,1.0
45.756629943847656,4.064205169677734,-1.3338091373443604,-0.0,-0.0,-1.0,0.055730621241664675,2.0
46.11228561401367,4.540077209472656,-1.3672206401824951,0.6431525931245892,0.6026270413241688,-0.4724355945755944,0.12402546779633374,4.0
46.43331527709961,5.570013999938965,-1.3880259990692139,-0.0,-0.0,-1.0,0.09018048011291976,2.0
46.489723205566406,4.795074462890625,-1.4074475765228271,-0.0,-0.0,-1.0,0.09406407476901031,1.0
46.71424102783203,5.619691848754883,-1.4206392765045166,-0.0,-0.0,-1.0,0.109627581614998,1.0
46.965553283691406,4.801841735839844,-1.4636828899383545,-0.0,-0.0,-1.0,0.02847709010681567,2.0
47.16477966308594,5.57515811920166,-1.4749534130096436,-0.0,-0.0,-1.0,0.036274668977744076,1.0
47.17273712158203,5.031595230102539,-1.484501600265503,0.3915791853184462,0.6070320338053324,-0.6915040502842363,0.12457999504758718,3.0
47.15863800048828,4.9015350341796875,-1.484938383102417,0.9060875993263606,-0.42019808102718537,-0.04938456285180464,0.037535018181300825,4.0
45.926116943359375,4.073123931884766,-1.0618231296539307,-0.0,-0.0,-1.0,0.2421244223492907,1.0
45.78755187988281,3.755970001220703,-1.0540292263031006,-0.0,-0.0,-1.0,0.13533483524925494,2.0
45.983943939208984,3.914356231689453,-1.2618029117584229,-0.0,-0.0,-1.0,0.10840003726261697,1.0
46.25579071044922,4.288393020629883,-1.302893877029419,-0.914941659709405,-0.11506331749983369,-0.3868361310608556,0.048656220711497195,4.0
46.210201263427734,4.054012298583984,-1.2938334941864014,-0.0,-0.0,-1.0,0.11300560110794927,1.0
46.790992736816406,4.269466400146484,-1.3745908737182617,0.791635118729717,0.26702069126379374,-0.5495578124554255,0.06938703603329564,3.0
47.076446533203125,4.384799003601074,-1.4145376682281494,-0.0,-0.0,-1.0,0.08994482461399587,1.0
47.40226745605469,4.8686933517456055,-1.4651343822479248,-0.4099416141624939,-0.8704567513638141,-0.27249388430385785,0.061581680874691576,3.0
47.35704040527344,4.571056365966797,-1.4548742771148682,-0.0,-0.0,-1.0,0.08352466114730028,1.0
47.60218048095703,5.292110443115234,-1.4982974529266357,-0.0,-0.0,-1.0,0.04670466725250031,1.0
47.54199981689453,5.061515808105469,-1.4867703914642334,0.63294506938342,-0.07425567566432834,-0.7706274286416566,0.06967259612830687,4.0
45.787925720214844,4.881529808044434,-1.508955478668213,-0.0,-0.0,-1.0,0.037896251460003166,2.0
45.733802795410156,5.261351585388184,-1.508100986480713,-0.0,-0.0,-1.0,0.08711832250974912,1.0
45.92518615722656,3.981842041015625,-1.2399086952209473,-0.5670536411466971,0.23708496751133068,-0.7888224681399643,0.1817855262629078,5.0
45.86474609375,3.83565616607666,-1.2310640811920166,0.6192384967018691,-0.6213303449266214,-0.48009612232945065,0.17234087994874095,4.0
46.052711486816406,4.157051086425781,-1.2581353187561035,-0.0,-0.0,-1.0,0.18651112166850298,2.0
46.409820556640625,4.495138168334961,-1.308882713317871,-0.5410043267266437,-0.2693286347465243,-0.7967285641726574,0.1167007461363348,4.0
47.02079772949219,4.570551872253418,-1.3932075500488281,-0.0,-0.0,-1.0,0.19425759990388922,1.0
47.237762451171875,4.826874732971191,-1.4250149726867676,-0.0,-0.0,-1.0,0.10442978103315996,1.0
47.45304489135742,5.38077449798584,-1.4595704078674316,-0.0,-0.0,-1.0,0.042168880777825886,1.0
47.41986846923828,5.100156784057617,-1.4524178504943848,-0.1276779288852615,-0.8534419011599218,0.5053071024833399,0.05201068578554974,7.0
47.66374206542969,5.466808319091797,-1.4896118640899658,-0.0,-0.0,-1.0,0.021040164406146606,1.0
45.900390625,3.8255081176757812,-0.9266648292541504,0.3029151562375948,-0.7664753524872838,-0.5663549612663844,0.21827857639026013,6.0
45.974822998046875,3.844545364379883,-0.9380621910095215,-0.719347681192135,-0.6878852064223695,0.09671016672900952,0.10833249244464692,3.0
46.15894317626953,4.036760330200195,-0.9711790084838867,-0.0,-0.0,-1.0,0.26739858997046395,2.0
45.92849349975586,3.8676862716674805,-1.1682403087615967,-0.5679080691135947,-0.6609888959955366,-0.4904835414224115,0.11932771840322853,4.0
46.12492752075195,4.099662780761719,-1.2033824920654297,-0.9619901291296383,0.22580711218758254,-0.15357779638556593,0.150682593829454,3.0
46.373130798339844,4.194920539855957,-1.2435662746429443,0.0595371136333124,-0.6893127873747088,-0.7220133054604488,0.07923049582830186,3.0
46.595458984375,4.355932235717773,-1.2815656661987305,-0.0,-0.0,-1.0,0.11798250554483042,1.0
47.07130432128906,4.4649658203125,-1.3574905395507812,-0.6351495623228456,-0.7719156796738339,-0.02704102355275442,0.1787479748105745,3.0
47.3393669128418,4.673852920532227,-1.4044561386108398,0.6700134234970373,0.13040170220442196,-0.7308059991516002,0.16634058452319397,3.0
47.54205322265625,5.008481025695801,-1.4452624320983887,0.21039759775305797,-0.9421669284032921,-0.26087224820369126,0.06679529753533898,3.0
47.67212677001953,5.405797958374023,-1.477290153503418,-0.0,-0.0,-1.0,0.029256863337898047,2.0
45.83889389038086,3.752614974975586,-0.8992836475372314,0.8188861657513891,-0.5732461416769069,0.028536092821694208,0.14835156532096921,3.0
46.07904052734375,3.957991600036621,-0.9325430393218994,-0.8775026410061867,0.44087688311745515,-0.1887238431142315,0.1933309079206015,3.0
45.73968505859375,3.8821325302124023,-0.8448631763458252,-0.0,-0.0,-1.0,0.1268781796782122,2.0
46.1180419921875,3.926802635192871,-0.9000658988952637,-0.0,-0.0,-1.0,0.1451210627596332,2.0
45.79054260253906,4.451605796813965,-1.4256868362426758,-0.0,-0.0,-1.0,0.04776708997269536,2.0
46.016475677490234,4.707448959350586,-1.4608805179595947,0.28361721327714023,-0.28515786626638545,-0.9155578996651776,0.045067545939082965,5.0
46.18680953979492,4.906827926635742,-1.487823247909546,-0.0,-0.0,-1.0,0.05162128110357809,1.0
46.385215759277344,5.056218147277832,-1.5207881927490234,-0.0,-0.0,-1.0,0.04470560180133984,2.0
46.57574462890625,5.170326232910156,-1.5529954433441162,-0.0,-0.0,-1.0,0.0409781760949198,1.0
46.199493408203125,5.558440208435059,-1.4825685024261475,-0.0,-0.0,-1.0,0.1794779061597329,2.0
46.600582122802734,5.495944023132324,-1.5541460514068604,-0.0,-0.0,-1.0,0.11582462395393986,2.0
45.71434783935547,3.934324264526367,-1.3531711101531982,-0.0,-0.0,-1.0,0.10963849644636098,2.0
45.8265380859375,4.249210357666016,-1.365943431854248,-0.0,-0.0,-1.0,0.029852187857948288,2.0
45.96257019042969,4.404241561889648,-1.3867695331573486,-0.0,-0.0,-1.0,0.08747897557193794,2.0
46.152618408203125,4.607013702392578,-1.4165918827056885,-0.0,-0.0,-1.0,0.04931266082005715,2.0
46.552940368652344,4.76826286315918,-1.485050916671753,0.2176918343419185,0.9728050202102482,0.07912431936256388,0.07276002288201765,4.0
46.7939567565918,4.868618011474609,-1.5265710353851318,-0.0,-0.0,-1.0,0.017741980039755165,2.0
46.928016662597656,4.988948822021484,-1.548926591873169,-0.040770220389452695,-0.050831410326382186,-0.9978747200193151,0.0470603906288292,5.0
46.191986083984375,5.583827972412109,-1.4086058139801025,-0.0,-0.0,-1.0,0.16948434864013684,1.0
46.88418197631836,5.48531436920166,-1.534862756729126,-0.0,-0.0,-1.0,0.10449888896315525,2.0
46.332515716552734,4.039650917053223,-1.2152976989746094,-0.0,-0.0,-1.0,0.10942670990952529,2.0
46.47929382324219,4.127728462219238,-1.2396867275238037,-0.0,-0.0,-1.0,0.0532902451362817,1.0
46.92011642456055,4.253968238830566,-1.315962553024292,-0.0,-0.0,-1.0,0.0579610645674102,1.0
47.181861877441406,4.445237159729004,-1.359997034072876,-0.0,-0.0,-1.0,0.12388019180241906,2.0
47.346153259277344,4.58534049987793,-1.387756109237671,-0.0,-0.0,-1.0,0.15822010519511026,2.0
47.58783721923828,4.722187042236328,-1.4298036098480225,-0.0,-0.0,-1.0,0.042516321850847166,1.0
47.6934700012207,5.04327392578125,-1.4459712505340576,-0.0,-0.0,-1.0,0.04951932637607461,1.0
45.8001708984375,3.7769689559936523,-1.127058982849121,-0.5667569287016603,-0.20700614115637817,-0.7974553537924284,0.1663518295953321,4.0
45.961509704589844,3.9054012298583984,-1.1526741981506348,-0.0,-0.0,-1.0,0.1480870782792389,2.0
45.754295349121094,3.7875518798828125,-1.3250117301940918,-0.0,-0.0,-1.0,0.1745140268263483,2.0
45.85914993286133,4.0255126953125,-1.3352131843566895,0.31636151970529675,0.607849542471041,-0.7283092218058904,0.09957960307341883,3.0
45.987510681152344,4.259272575378418,-1.350682258605957,0.4857313238820528,-0.3555930152828415,-0.7985102932848426,0.13459841864055375,5.0
46.19071960449219,4.4808149337768555,-1.3811357021331787,-0.0,-0.0,-1.0,0.06579821103591209,2.0
46.39847183227539,4.633913993835449,-1.4154820442199707,-0.35332863145602084,0.37085404587351906,-0.8588516489200315,0.18341168804944882,3.0
46.819725036621094,4.7351579666137695,-1.4924886226654053,-0.0,-0.0,-1.0,0.02973271006463556,1.0
47.02727508544922,4.868350028991699,-1.5284934043884277,-0.0,-0.0,-1.0,0.030202876894601962,2.0
46.444618225097656,5.48783016204834,-1.400144100189209,-0.0,-0.0,-1.0,0.19455746029013646,2.0
46.81549835205078,5.527248382568359,-1.4709413051605225,0.7889269407457471,0.1259562801093889,-0.6014393549366069,0.1449245432066155,3.0
45.785160064697266,3.7385120391845703,-1.249529480934143,0.3426738388418535,-0.934658732092904,0.09480345297441652,0.16865658605760728,4.0
45.94026565551758,3.9416322708129883,-1.2653263807296753,-0.5932285082523321,0.304701564238757,-0.7451421969981081,0.11996853823684515,4.0
46.14496994018555,4.149805068969727,-1.2887448072433472,-0.0,-0.0,-1.0,0.10230574710297662,2.0
46.40130615234375,4.284667015075684,-1.3229142427444458,-0.0,-0.0,-1.0,0.03904012155942966,1.0
46.90393829345703,4.391567230224609,-1.3957160711288452,-0.6707872829125325,-0.40631464808794093,-0.6204456687188611,0.10468656745997722,5.0
47.232948303222656,4.57625675201416,-1.4408968687057495,-0.7406473090496797,-0.641621752188223,0.19940684721539065,0.07371197796737405,3.0
47.53192901611328,4.782655715942383,-1.481632113456726,-0.1273125548318317,-0.22974358008535897,-0.9648882840991249,0.04699986521245108,4.0
47.645660400390625,5.160482406616211,-1.4905062913894653,-0.0,-0.0,-1.0,0.0358750985800922,1.0
46.87728500366211,3.7025232315063477,-1.2830829620361328,-0.0,-0.0,-1.0,0.06186521343005653,1.0
45.889869689941406,3.8823928833007812,-1.143392562866211,-0.5679080691135947,-0.6609888959955366,-0.4904835414224115,0.1942501994720072,4.0
46.19300079345703,4.017160415649414,-1.1818656921386719,-0.5946954082850394,-0.7657799932944808,0.24478229763321369,0.11662566308714012,3.0
46.94025421142578,3.980562210083008,-1.2860784530639648,-0.0,-0.0,-1.0,0.08111701510596628,2.0
47.143150329589844,4.30007266998291,-1.3082587718963623,-0.0,-0.0,-1.0,0.09122321972674081,2.0
47.28794860839844,4.376986503601074,-1.327286958694458,-0.0,-0.0,-1.0,0.07199608164789091,1.0
47.47718048095703,4.588687896728516,-1.3503847122192383,-0.0,-0.0,-1.0,0.10055324463531996,2.0
45.79137420654297,4.831786155700684,-1.5049409866333008,-0.0,-0.0,-1.0,0.03315029098670607,2.0
45.9808235168457,4.927586555480957,-1.5342137813568115,0.8909279932304215,0.06397800702423787,-0.44961553075446653,0.07180195552330768,4.0
46.031700134277344,5.137319564819336,-1.5370049476623535,-0.0,-0.0,-1.0,0.06848245958960231,1.0
46.09639358520508,5.531777381896973,-1.5377545356750488,-0.0,-0.0,-1.0,0.08044479089982995,2.0
46.165428161621094,3.6881542205810547,-0.9060015678405762,-0.0,-0.0,-1.0,0.03772547346236294,1.0
46.27375793457031,3.8130064010620117,-0.9195466041564941,-0.0,-0.0,-1.0,0.05268260618816289,2.0
45.984947204589844,4.0414581298828125,-1.3039836883544922,0.6116326519881964,-0.18550373116001567,-0.7690863831505523,0.14759768835010706,3.0
46.178855895996094,4.297137260437012,-1.3245744705200195,-0.6662259865865385,0.26031902826732567,-0.6988397086018716,0.0685111537023353,4.0
46.469696044921875,4.38640022277832,-1.3674075603485107,-0.648960387842652,0.6858614744593519,0.32930905372242425,0.0573722783266339,3.0
46.96742248535156,4.480596542358398,-1.4437940120697021,-0.0,-0.0,-1.0,0.10805161104694216,2.0
47.0727424621582,4.648310661315918,-1.4554402828216553,-0.0,-0.0,-1.0,0.03437723888667375,2.0
47.322486877441406,4.795391082763672,-1.4916784763336182,0.296113795065195,-0.16620406705123406,-0.9405811121151204,0.03581567046863866,3.0
47.39705276489258,5.128870010375977,-1.49442458152771,0.35576543066074384,-0.8704108717548468,-0.3403173117514634,0.054355713919233835,3.0
47.57911682128906,5.250770568847656,-1.5213468074798584,0.5383819946845555,0.7804721140486434,-0.31781772605051645,0.04847059202216488,4.0
47.6756591796875,5.5821638107299805,-1.5291974544525146,-0.0,-0.0,-1.0,0.030038971013720765,1.0
45.76573944091797,3.713916778564453,-1.2958877086639404,-0.15759205609883373,-0.5557120740494895,-0.8163019261340481,0.12183590604929394,3.0
45.81553649902344,3.799370765686035,-1.2995753288269043,0.5216916660364636,-0.834715193578562,0.1763188906419347,0.20713002902073524,6.0
46.75118637084961,4.5722150802612305,-1.4179093837738037,-0.0,-0.0,-1.0,0.03142641981727997,1.0
46.985801696777344,4.678500175476074,-1.453183889389038,-0.0,-0.0,-1.0,0.03189459914074691,2.0
47.16154479980469,5.082819938659668,-1.4673511981964111,-0.0,-0.0,-1.0,0.12574632760385426,1.0
47.337066650390625,5.120464324951172,-1.496229648590088,-0.05052538036621965,-0.9408391617973935,-0.33506545266145676,0.05674140417174746,3.0
47.40183639526367,5.48079776763916,-1.4946906566619873,-0.0,-0.0,-1.0,0.041079217187309815,1.0
45.90971374511719,4.0049943923950195,-1.3046882152557373,-0.0,-0.0,-1.0,0.10344890646144102,1.0
46.151554107666016,4.36854362487793,-1.3270940780639648,-0.0,-0.0,-1.0,0.07227437086892632,2.0
46.37828826904297,4.574281692504883,-1.355376958847046,-0.0,-0.0,-1.0,0.20193268480949697,2.0
46.44520568847656,4.635472297668457,-1.3638861179351807,-0.0,-0.0,-1.0,0.16357216455616821,1.0
46.273780822753906,5.578769683837891,-1.2961397171020508,-0.0,-0.0,-1.0,0.14265114731250272,1.0
45.76607894897461,4.799015045166016,-1.4962012767791748,-0.0,-0.0,-1.0,0.028127671419817268,2.0
45.988685607910156,4.8871049880981445,-1.528679609298706,0.9439576956789887,0.142637992242863,-0.2976546185385651,0.07545395593598118,3.0
46.16134262084961,5.114851951599121,-1.543285608291626,0.5713651420896801,-0.6729602866137843,-0.4697513459752229,0.06584870012636336,4.0
46.351078033447266,5.291019439697266,-1.5651938915252686,-0.0,-0.0,-1.0,0.060129157758949725,1.0
46.20280456542969,5.573037147521973,-1.519648790359497,-0.9891808268846278,-0.08296255753603476,-0.12098969282928008,0.1794779061597329,3.0
45.76304244995117,3.6379146575927734,-0.9746298789978027,-0.0,-0.0,-1.0,0.14755918400757673,2.0
45.822113037109375,3.8303890228271484,-0.9728302955627441,-0.11775857960782515,-0.9720993430455506,-0.20286888420641677,0.2562901260500811,3.0
46.05824279785156,3.9214468002319336,-1.0022704601287842,-0.4924539347496942,0.8670235807928061,-0.0758896073172365,0.15585350933179776,5.0
46.02900695800781,4.74849796295166,-1.4629071950912476,0.029963127279771105,0.05623632661590914,-0.9979677783237114,0.03884763822203575,4.0
46.319908142089844,4.913634300231934,-1.5025535821914673,-0.0,-0.0,-1.0,0.07520945566576077,2.0
46.50916290283203,5.029595375061035,-1.5285311937332153,-0.0,-0.0,-1.0,0.03953042962115029,1.0
