x,y,z,nx,ny,nz,curvature,density
18.848800659179688,-3.3657569885253906,0.4532739520072937,-0.5344642378471639,0.8332095516805412,0.1418091021435562,0.22250554226810945,5.0
18.933372497558594,-3.1893882751464844,0.46304941177368164,-0.03376415869356719,0.8405144064681074,-0.5407360854495294,0.14821051352148915,4.0
18.470983505249023,-3.7534751892089844,-0.0004379749298095703,-0.0,-0.0,-1.0,0.12815379651657052,2.0
19.207632064819336,-4.046688079833984,-0.011152386665344238,-0.0,-0.0,-1.0,0.17564644041579833,1.0
18.39179801940918,-3.2797651290893555,0.03827309608459473,-0.0,-0.0,-1.0,0.05303034140186521,1.0
18.652326583862305,-3.4325971603393555,0.03187894821166992,-0.0,-0.0,-1.0,0.17627618993604402,1.0
19.101322174072266,-3.5606203079223633,0.030267000198364258,-0.0,-0.0,-1.0,0.17486415045643447,1.0
18.322023391723633,-2.8504981994628906,0.07290565967559814,0.4930842793931079,-0.8554656960654387,-0.15826034332912972,0.1118328425664021,7.0
18.89437484741211,-3.288137435913086,0.05020725727081299,0.19510881504162786,0.9495331950458582,-0.24559980007942922,0.20071163123619534,3.0
18.928367614746094,-3.3462486267089844,0.04583609104156494,-0.016496775042183633,0.04780067494637477,-0.9987206575854327,0.17492778027938005,6.0
19.631433486938477,-3.2051334381103516,0.07005393505096436,0.4817212940512418,0.6921306312622356,-0.5374939851999615,0.16801331864654362,8.0
18.12165069580078,-2.374309539794922,0.10630321502685547,0.4991053229633432,0.25569819294966917,-0.8279567082353583,0.12151321490727894,5.0
18.25368881225586,-2.6852025985717773,0.08477365970611572,0.8864771897146443,-0.1542267180085519,-0.43631675600180303,0.17668420595478937,3.0
19.040008544921875,-3.8891563415527344,0.502099871635437,-0.0,-0.0,-1.0,0.18605135896977298,1.0
18.742406845092773,-3.4722633361816406,0.5210418701171875,-0.0,-0.0,-1.0,0.14339572025113081,2.0
19.167882919311523,-3.763202667236328,0.5101816654205322,-0.3215768235826624,0.5335144466655763,-0.7822727668362295,0.15555758910649184,3.0
19.31159210205078,-3.4247303009033203,-0.17544877529144287,0.4759767854135746,0.3005493366735217,-0.8265084367218922,0.04440996518215794,4.0
18.671215057373047,-2.9200048446655273,-0.145949125289917,0.2798067146565324,0.8624338749858963,-0.42180091715159745,0.06378975452946316,3.0
19.017114639282227,-3.0874061584472656,-0.15107488632202148,-0.8194220322946084,0.554969507401671,-0.14337495891724023,0.06168602807525962,3.0
19.37084197998047,-3.222903251647949,-0.15457820892333984,-0.0,-0.0,-1.0,0.0980806427920705,1.0
18.502283096313477,-2.7678184509277344,-0.13747751712799072,0.9980233452397709,0.060641470175392106,-0.016492860618579238,0.08757176551397372,4.0
19.086647033691406,-3.8038291931152344,0.29256290197372437,-0.0,-0.0,-1.0,0.0794143465215744,2.0
18.829471588134766,-3.3232154846191406,0.31810462474823,-0.0,-0.0,-1.0,0.19040064908012347,2.0
19.502849578857422,-3.1218957901000977,0.3415372371673584,0.07886893907758798,0.36397949231612003,-0.928061754207162,0.19233991797540856,4.0
19.05240821838379,-3.4292211532592773,0.8112717270851135,0.5185385320377177,-0.06414128396044885,-0.8526451116871974,0.15667728902876493,12.0
19.132789611816406,-2.8754587173461914,-0.15832197666168213,-0.4202617173158645,0.6844152099598343,-0.5957817631770518,0.09628727668573289,3.0
19.481882095336914,-2.9343414306640625,-0.1406252384185791,-0.6708093901969985,0.6232604934106716,0.4019466623533739,0.06196607834877414,4.0
18.848867416381836,-2.4944448471069336,-0.14682865142822266,-0.0,-0.0,-1.0,0.030564688442302215,2.0
18.984085083007812,-2.6979856491088867,-0.15385890007019043,-0.0,-0.0,-1.0,0.03806468964988995,1.0
18.996580123901367,-3.2233924865722656,0.30976492166519165,-0.3502564147917518,0.7326249322887213,-0.5835933108648306,0.20839324573563642,3.0
17.907686233520508,-2.787165641784668,0.2688431739807129,-0.0,-0.0,-1.0,0.05565360473367779,2.0
18.075069427490234,-2.9051036834716797,0.27354365587234497,-0.0,-0.0,-1.0,0.04692352120201616,2.0
19.17863655090332,-3.3057918548583984,-0.11368989944458008,-0.0,-0.0,-1.0,0.0791786828234872,1.0
19.349037170410156,-3.5485410690307617,-0.12009763717651367,-0.0,-0.0,-1.0,0.05813669044091563,2.0
18.498336791992188,-2.7269392013549805,-0.12160682678222656,0.9546169607853416,0.18329413081369234,-0.23475459482236066,0.08754475030274232,3.0
18.669652938842773,-2.907443046569824,-0.12130093574523926,0.2798067146565324,0.8624338749858963,-0.42180091715159745,0.057355821984477195,3.0
18.978240966796875,-3.114532470703125,-0.11371898651123047,-0.3475375833602811,0.6806839719308672,0.6448929822137269,0.051687564948343735,3.0
19.668092727661133,-3.208059310913086,-0.07482695579528809,-0.0,-0.0,-1.0,0.11081919878174201,1.0
18.539297103881836,-2.5589685440063477,-0.10725998878479004,-0.0,-0.0,-1.0,0.08403263571498382,2.0
18.972694396972656,-3.35634708404541,0.39426565170288086,-0.6729194464834352,0.4860275329000662,-0.5576348767854306,0.20246916929881567,5.0
19.622222900390625,-3.121151924133301,-0.09582757949829102,0.30270237637692754,0.47896832597423034,0.8239906638119174,0.10669253978144903,6.0
19.522457122802734,-2.795431137084961,-0.11490809917449951,-0.0,-0.0,-1.0,0.1131150982907853,1.0
19.482803344726562,-2.528789520263672,-0.12295901775360107,-0.0,-0.0,-1.0,0.04578912598355163,1.0
19.073509216308594,-3.783064842224121,0.36299991607666016,-0.9013372323126122,0.42883298683659415,0.06077386813298561,0.11955345102964758,6.0
18.934341430664062,-3.301401138305664,0.32410740852355957,0.6254631385428442,0.63959902719608,-0.44688806958114585,0.18768157492801074,5.0
19.17710304260254,-3.3043289184570312,0.3648719787597656,-0.0,-0.0,-1.0,0.19976278190067548,1.0
18.34131622314453,-2.8106164932250977,0.20747685432434082,0.5021921613792134,0.7015307730784982,-0.5056259560912182,0.1520890596913691,5.0
18.308975219726562,-2.672586441040039,0.19723165035247803,-0.7222376581185669,-0.6771555989200249,0.14082989755968314,0.18938294103318074,4.0
19.06525230407715,-3.41876220703125,0.8960511088371277,-0.0,-0.0,-1.0,0.20643706486107005,1.0
18.484195709228516,-3.7787647247314453,0.1453801393508911,-0.0,-0.0,-1.0,0.1184044087343139,1.0
19.167724609375,-3.991241455078125,0.16467070579528809,0.12480318589223882,-0.5811699201603082,-0.8041552640454507,0.17609879137798243,4.0
19.627958297729492,-4.103516578674316,0.1773308515548706,-0.0,-0.0,-1.0,0.18498082896261675,1.0
19.001861572265625,-3.4265594482421875,0.18623805046081543,0.003922825052612985,0.33490238820305157,-0.9422446613377544,0.1923939392691224,4.0
18.924482345581055,-3.3455982208251953,0.1867736577987671,0.18866778133470546,0.8953667990998713,0.403389096724107,0.22025277899527643,10.0
19.571556091308594,-3.166891098022461,0.22419250011444092,-0.0,-0.0,-1.0,0.0874143950449577,2.0
18.26331329345703,-2.571300506591797,0.19133198261260986,-0.3868061686024771,0.08877278382101739,-0.9178781949603876,0.12013646397572664,4.0
18.31861114501953,-2.8156328201293945,0.18307137489318848,0.25339510437792223,0.17499296886631002,-0.9514033749806948,0.15208905969136907,7.0
19.001495361328125,-3.4086666107177734,0.7487149834632874,0.06495802482857509,-0.9789310075589135,-0.1935834121252676,0.12960087530334688,8.0
18.572799682617188,-3.4668264389038086,-0.010422825813293457,0.698704967065305,0.16866061178838906,-0.695244537576123,0.14058855360574687,5.0
19.036853790283203,-3.6744508743286133,-0.001900792121887207,-0.46334898431574323,-0.8843133294753628,-0.05742520392447184,0.18815328036620094,6.0
18.470611572265625,-3.309083938598633,-0.006152033805847168,-0.9518658576113891,-0.1816740493028975,0.24687229274186048,0.13554738020316656,4.0
18.60976791381836,-3.264826774597168,0.002785801887512207,-0.0,-0.0,-1.0,0.104522818165839,1.0
18.98258399963379,-3.4144906997680664,0.011156201362609863,0.029693367643140157,0.8027370951540923,-0.5955933679798485,0.2029317363425045,4.0
18.39696502685547,-2.833555221557617,0.016843080520629883,-0.7306576458153438,-0.32932494656796757,-0.5980672906785536,0.09895816726734402,3.0
18.320302963256836,-2.5094985961914062,0.030732274055480957,-0.0,-0.0,-1.0,0.14074204527334078,2.0
19.660446166992188,-3.232015609741211,0.05127763748168945,-0.07307248614041707,0.5168812233516082,-0.8529327128887741,0.17987142567814904,3.0
19.7005615234375,-3.115091323852539,0.0600811243057251,-0.0,-0.0,-1.0,0.14181787686595948,1.0
18.296541213989258,-2.4074888229370117,0.03498578071594238,0.9082280973740737,-0.29004917547902703,0.3016507897291283,0.12885893407177246,5.0
18.789962768554688,-3.1851119995117188,0.5972744226455688,0.4277698061099357,0.2466897888539435,-0.8695729647682622,0.22814216968684764,4.0
18.564741134643555,-3.462888717651367,-0.030405402183532715,0.4049118175002399,0.19250490110743218,-0.8938614451346866,0.14054809691432324,6.0
19.01167106628418,-3.6419715881347656,-0.011316895484924316,-0.18257982575499776,-0.3673046528552009,-0.9120043307014474,0.15519610371450482,4.0
19.259071350097656,-3.674283027648926,0.0017586946487426758,-0.0,-0.0,-1.0,0.20354786588636337,2.0
18.615596771240234,-3.1905956268310547,-0.015518784523010254,-0.6402356325707262,0.27076120532938247,-0.718878782880217,0.07415654016895466,4.0
18.976150512695312,-3.3568859100341797,-0.0005511045455932617,0.15546845530288408,0.9711807446766538,-0.18065857459593598,0.20168477849657615,5.0
19.633268356323242,-3.1246328353881836,0.04917478561401367,-0.9739822274134494,0.225175997985697,-0.02558105967079619,0.16609346806934253,4.0
18.405004501342773,-2.79818058013916,-0.012457728385925293,0.9950355088380166,-0.09097271186923327,0.04035222232575388,0.11998243285417838,4.0
18.78578758239746,-3.1896963119506836,0.599970817565918,0.4277698061099357,0.2466897888539435,-0.8695729647682622,0.23743814017742712,4.0
18.886844635009766,-3.7634925842285156,-0.05771338939666748,-0.0,-0.0,-1.0,0.11853390024216881,2.0
19.081226348876953,-3.4672813415527344,-0.03355908393859863,-0.0,-0.0,-1.0,0.1825787163774166,2.0
18.58057403564453,-3.269716262817383,-0.05514979362487793,-0.8276784589227549,0.35430538799294864,-0.4352195545634639,0.1141638732533607,3.0
18.748001098632812,-3.242868423461914,-0.04398000240325928,-0.0,-0.0,-1.0,0.0624124448207023,2.0
19.02594757080078,-3.389031410217285,-0.03344845771789551,0.4467432542751023,0.8193322206402968,0.3593260037630614,0.24178681808443678,5.0
18.46054458618164,-2.8147077560424805,-0.04452323913574219,-0.0,-0.0,-1.0,0.09027407725893948,2.0
19.698183059692383,-3.0683536529541016,0.019606828689575195,-0.0,-0.0,-1.0,0.1391716999639343,1.0
18.380374908447266,-2.466886520385742,-0.03631114959716797,-0.0,-0.0,-1.0,0.1023249438434554,2.0
18.875186920166016,-3.1231698989868164,0.5965696573257446,-0.0,-0.0,-1.0,0.06830365688685978,1.0
19.27643585205078,-4.042606353759766,0.3732150197029114,-0.0,-0.0,-1.0,0.19067496640687304,1.0
19.545215606689453,-4.2392730712890625,0.12615585327148438,-0.0,-0.0,-1.0,0.20182398694290235,2.0
18.844085693359375,-3.6393842697143555,0.20878982543945312,-0.0,-0.0,-1.0,0.12406468292351026,1.0
18.17057228088379,-2.542757987976074,0.21881496906280518,-0.9279339494283417,0.13908953777483143,-0.34582175463655146,0.05946401401410321,3.0
18.616403579711914,-2.877591133117676,0.22516441345214844,-0.0,-0.0,-1.0,0.08648547476763158,1.0
18.464412689208984,-3.2641754150390625,0.024339675903320312,-0.42669921263577026,-0.687449581427417,0.5876570895779979,0.08749570666322244,3.0
18.52197265625,-3.5650644302368164,0.01749134063720703,-0.0,-0.0,-1.0,0.08275883948476326,2.0
19.075666427612305,-3.469149589538574,0.046167731285095215,-0.8092742670399576,0.036990647832782615,-0.5862651726649384,0.2395058390236981,7.0
18.39281463623047,-2.725131034851074,0.03768432140350342,-0.0,-0.0,-1.0,0.13957884421925845,2.0
18.478370666503906,-2.9434118270874023,0.03503251075744629,-0.0,-0.0,-1.0,0.136254830639258,2.0
19.01194190979004,-3.3729114532470703,0.046341657638549805,0.20269486384481253,0.5068309172018979,-0.8378766099726236,0.20474838557221176,5.0
18.331451416015625,-2.4466657638549805,0.04319202899932861,0.33285438335895134,0.8176264057779994,-0.46978188561638107,0.13631356926550622,4.0
19.611019134521484,-3.1898422241210938,0.07988381385803223,0.24971553303389243,0.8493031601018556,0.4651089063892469,0.18244016577215322,7.0
18.2647705078125,-3.2785377502441406,0.13734757900238037,-0.0,-0.0,-1.0,0.04021164190100619,1.0
18.015897750854492,-2.421566963195801,0.1555166244506836,-0.0,-0.0,-1.0,0.13921042333999226,1.0
18.371389389038086,-2.6686601638793945,0.16152334213256836,-0.0,-0.0,-1.0,0.11363289363815957,1.0
18.429574966430664,-2.94942569732666,0.1545945405960083,-0.0,-0.0,-1.0,0.11042939429685522,2.0
19.07308006286621,-3.440927505493164,0.1625523567199707,-0.0,-0.0,-1.0,0.23320311884924613,1.0
19.195634841918945,-3.9576339721679688,0.1490398645401001,0.8395153679701457,-0.2682483254329515,-0.4725005638561378,0.21821861940728693,4.0
19.649032592773438,-4.28961181640625,0.15369677543640137,-0.0,-0.0,-1.0,0.1364852120970166,1.0
18.32914161682129,-2.5146560668945312,0.1648482084274292,-0.0,-0.0,-1.0,0.10502271412664582,2.0
18.403825759887695,-2.7678470611572266,0.0028884410858154297,0.45150659431063767,0.4167047848275003,-0.7889860059569346,0.15482916676018324,3.0
18.53072166442871,-3.02481746673584,0.001323103904724121,-0.0,-0.0,-1.0,0.13161299619112862,2.0
18.644062042236328,-3.3311853408813477,-0.002611994743347168,-0.0,-0.0,-1.0,0.12820356682391099,1.0
18.32697105407715,-2.3725500106811523,0.010776162147521973,0.14816691523438505,-0.6902024800115303,-0.7082846192145216,0.15101375629623606,5.0
18.413297653198242,-2.539663314819336,0.010146260261535645,-0.0,-0.0,-1.0,0.09072486397012489,1.0
19.062408447265625,-3.3488998413085938,0.01703464984893799,-0.0,-0.0,-1.0,0.2336165478691763,1.0
19.17450523376465,-3.4572315216064453,0.01897883415222168,-0.0,-0.0,-1.0,0.21095122952021414,1.0
18.4877986907959,-3.0965209007263184,0.3221548795700073,-0.01194699693755021,-0.7322391114192678,-0.6809428411930734,0.16810006115123136,3.0
19.032901763916016,-3.3098349571228027,0.32719457149505615,-0.8205219460681517,0.5394548584176426,-0.1890296054858461,0.16867803012316374,3.0
19.49110221862793,-2.467465877532959,-0.20076453685760498,-0.0,-0.0,-1.0,0.04208126752327784,2.0
19.674657821655273,-2.570944309234619,-0.19678568840026855,-0.0,-0.0,-1.0,0.09562142543975473,2.0
18.890573501586914,-3.180428981781006,0.4709247350692749,-0.0,-0.0,-1.0,0.13342022939287862,2.0
18.902597427368164,-3.2441048622131348,0.3919185400009155,-0.8128362350289932,0.1623886618784908,0.5593989430783762,0.21183951351159755,3.0
19.353981018066406,-3.1935009956359863,0.4068063497543335,-0.0,-0.0,-1.0,0.083234430928386,1.0
18.10101890563965,-3.084023952484131,0.1718999147415161,-0.026181388231183184,-0.6922814441961286,-0.7211525060152053,0.10683357677705113,3.0
18.03189468383789,-3.2265639305114746,0.16375815868377686,-0.0,-0.0,-1.0,0.060489843193666196,2.0
18.221923828125,-2.525728225708008,0.19721293449401855,-0.10252292045875541,-0.20243416859344632,-0.973914502493154,0.11462926706306079,4.0
18.296730041503906,-2.774282932281494,0.1912398338317871,0.7758946410582204,0.1835349025667787,-0.6035747223972671,0.11355941887990402,7.0
18.88092803955078,-3.334597587585449,0.1930687427520752,-0.24792805634800885,-0.49395193460130243,-0.8333925636692044,0.21277382945359147,4.0
19.637056350708008,-2.494220733642578,-0.1835005283355713,-0.0,-0.0,-1.0,0.10227243651525816,1.0
18.89290428161621,-3.3177409172058105,0.47201478481292725,0.169903247569872,0.8183665342007315,0.5490073789718074,0.19930523119884924,5.0
17.94086265563965,-2.525906562805176,0.23944807052612305,-0.0,-0.0,-1.0,0.06783288524097836,1.0
17.980573654174805,-2.5933752059936523,0.24130761623382568,-0.0,-0.0,-1.0,0.039801126375315354,2.0
18.138837814331055,-2.781449317932129,0.24871981143951416,-0.7196196299900909,0.20057196548052092,-0.664769489970926,0.042637267427980755,4.0
18.387619018554688,-3.024585723876953,0.2602502107620239,0.9698482498072966,0.10146670795529071,-0.2215826697249573,0.09972855684931746,3.0
19.009748458862305,-3.232875347137451,0.2899571657180786,-0.3502564147917518,0.7326249322887213,-0.5835933108648306,0.2062952465536299,3.0
19.21347427368164,-3.2511520385742188,0.2998632788658142,-0.0,-0.0,-1.0,0.11190956437402413,1.0
17.861127853393555,-2.3644280433654785,0.45532727241516113,-0.0,-0.0,-1.0,0.12466325052942835,1.0
18.920488357543945,-3.423758029937744,0.4742729663848877,-0.0,-0.0,-1.0,0.2209780160345828,2.0
19.561935424804688,-2.4556593894958496,-0.12438380718231201,-0.0,-0.0,-1.0,0.049749147329526316,1.0
18.84709358215332,-2.816052198410034,0.5412079095840454,-0.0,-0.0,-1.0,0.14195633138821723,1.0
18.801719665527344,-2.682452440261841,-0.1766669750213623,-0.0,-0.0,-1.0,0.034286357348477986,2.0
18.824617385864258,-2.751746654510498,-0.17510128021240234,-0.0,-0.0,-1.0,0.026217413887495974,1.0
19.11092185974121,-3.0749423503875732,-0.1551368236541748,-0.0,-0.0,-1.0,0.041806853351460366,1.0
17.914182662963867,-2.387786388397217,0.5009844303131104,-0.0,-0.0,-1.0,0.09830155675402244,2.0
18.883893966674805,-3.368842601776123,0.5390570759773254,-0.0,-0.0,-1.0,0.2560992462810492,1.0
18.954755783081055,-4.072323799133301,0.5414615273475647,-0.4078617777541843,0.9037121971867882,-0.13020382061607777,0.11834809576944186,3.0
18.359575271606445,-2.605417490005493,0.055469393730163574,-0.0,-0.0,-1.0,0.15008765932296583,1.0
18.401363372802734,-2.780820846557617,0.055945634841918945,-0.0,-0.0,-1.0,0.10060108697205451,1.0
18.448184967041016,-3.0259997844696045,0.055667996406555176,-0.0,-0.0,-1.0,0.14739535145989535,2.0
18.351762771606445,-3.2463603019714355,0.04698598384857178,-0.0,-0.0,-1.0,0.06153833591851874,2.0
17.774057388305664,-4.336643218994141,-0.004724621772766113,-0.7620557128236833,-0.2815203480056883,-0.5831100961324063,0.03992334662071978,3.0
19.59238624572754,-3.194827079772949,0.12154233455657959,0.2546214126135027,0.9401685886241739,0.22638675138605976,0.22494064702188604,3.0
19.166555404663086,-3.856221914291382,0.08598673343658447,-0.0,-0.0,-1.0,0.15381416097181652,2.0
19.648818969726562,-3.2564759254455566,0.1240156888961792,-0.0,-0.0,-1.0,0.24671249102381104,2.0
18.145029067993164,-2.3699562549591064,0.1765838861465454,-0.0852699201981313,-0.7814526423749807,-0.6181106765253007,0.1041816408493494,3.0
18.263362884521484,-2.6118102073669434,0.1811838150024414,-0.08561677832132254,-0.24839295884266588,-0.9648682320748586,0.23471565686046852,6.0
18.2247257232666,-2.961172580718994,0.17598962783813477,-0.16772173422274392,0.47078163748318264,-0.8661605334335942,0.09741876518416169,4.0
18.015657424926758,-3.1762993335723877,0.1624763011932373,-0.7890555423043973,0.5813615674501276,0.19851971955109263,0.09726525042515727,3.0
18.933223724365234,-3.367050886154175,0.2102288007736206,-0.7010139487398683,0.5616503894886256,0.43946363178244097,0.21640937981030328,6.0
19.49699592590332,-3.1694436073303223,0.24307310581207275,-0.7808139602511749,-0.1180888501458318,-0.6135019013402585,0.14208230537592628,8.0
18.413610458374023,-2.553523063659668,-0.044289469718933105,0.29831513824873884,-0.4556694357887112,-0.8386736216071383,0.12197459599196016,3.0
18.403583526611328,-2.7858242988586426,-0.04453384876251221,-0.0,-0.0,-1.0,0.13136812301088735,2.0
18.532447814941406,-2.953383207321167,-0.03546440601348877,0.8560763560244082,0.5158127218138729,0.03271862880584527,0.13847742882226322,5.0
18.969877243041992,-3.770001173019409,-0.006271243095397949,-0.0,-0.0,-1.0,0.21462085096476033,2.0
19.180370330810547,-3.824688196182251,0.008105278015136719,-0.0,-0.0,-1.0,0.24808368734611008,1.0
19.66380500793457,-2.388577938079834,-0.21861565113067627,-0.0,-0.0,-1.0,0.0499544466009977,1.0
18.952655792236328,-3.2539453506469727,0.3689865469932556,-0.0,-0.0,-1.0,0.24930186675559185,2.0
19.158950805664062,-4.0794358253479,0.37580764293670654,-0.0,-0.0,-1.0,0.18545618339267253,1.0
19.081085205078125,-2.4258854389190674,-0.18587195873260498,-0.0,-0.0,-1.0,0.01659032576937919,2.0
19.020116806030273,-3.1691536903381348,0.445149302482605,-0.0,-0.0,-1.0,0.17436901713354633,1.0
18.887483596801758,-3.294828414916992,0.43947911262512207,-0.8177785431563734,0.07909657924657627,-0.5700719125729046,0.20190952092381612,5.0
19.120962142944336,-4.044426918029785,0.4502875804901123,-0.0,-0.0,-1.0,0.18831131464855044,1.0
18.31839942932129,-2.454087734222412,0.013852834701538086,0.3156766951381745,0.9215199043255714,-0.2261620880661253,0.13595980592587756,7.0
18.28658103942871,-2.56251859664917,0.011276960372924805,-0.0,-0.0,-1.0,0.09954210439756546,1.0
18.431900024414062,-2.9175212383270264,0.020052790641784668,0.5609449822410811,-0.7700651103252569,0.3038757192641481,0.09646331060184621,5.0
18.30518341064453,-2.758004665374756,0.011832118034362793,0.018197548660263824,0.6007324812367425,-0.7992429763281654,0.1336984592736509,3.0
19.62209129333496,-3.7929131984710693,0.09774577617645264,-0.0,-0.0,-1.0,0.18933630984685032,1.0
18.494577407836914,-3.644517421722412,0.018459200859069824,-0.0,-0.0,-1.0,0.08637879893016039,2.0
18.364267349243164,-3.685025691986084,0.008675575256347656,-0.0,-0.0,-1.0,0.08034319521353891,2.0
19.67479133605957,-3.849308490753174,0.10083878040313721,0.9624487773109296,-0.2514140130490774,-0.10238820779393912,0.11620496667163932,3.0
18.405288696289062,-3.9275145530700684,0.0087050199508667,-0.0,-0.0,-1.0,0.08298079470151157,1.0
18.29643440246582,-2.3642215728759766,-0.0852515697479248,-0.0,-0.0,-1.0,0.22323149222449842,1.0
18.407804489135742,-2.7139015197753906,-0.08520245552062988,-0.0,-0.0,-1.0,0.0944061112510195,2.0
18.293657302856445,-2.6152501106262207,-0.09164369106292725,-0.0,-0.0,-1.0,0.12600221655341776,1.0
18.837575912475586,-3.396326780319214,-0.06954026222229004,-0.0,-0.0,-1.0,0.21700038537035168,2.0
19.568111419677734,-3.8057830333709717,-0.02384328842163086,-0.0,-0.0,-1.0,0.20335427082458749,1.0
18.785478591918945,-3.516655921936035,-0.07692503929138184,-0.0,-0.0,-1.0,0.15628917191600034,2.0
19.64493179321289,-4.247486114501953,-0.030784130096435547,-0.0,-0.0,-1.0,0.15364157218453406,1.0
18.720720291137695,-2.9883370399475098,0.5401233434677124,-0.0,-0.0,-1.0,0.10041381945627899,1.0
19.556175231933594,-2.4419970512390137,-0.18742156028747559,-0.0,-0.0,-1.0,0.04862965559389491,2.0
19.47978973388672,-2.4223194122314453,-0.1935814619064331,-0.0,-0.0,-1.0,0.03693316461405457,2.0
19.450708389282227,-3.0786969661712646,0.3564467430114746,-0.0,-0.0,-1.0,0.13826430582746602,2.0
18.381044387817383,-2.9803929328918457,0.30008530616760254,-0.0,-0.0,-1.0,0.07552755579858268,2.0
17.823209762573242,-2.832340717315674,0.27514171600341797,-0.7016721310848264,0.3057067873186679,-0.6435833905922193,0.07144996269618456,5.0
19.07952308654785,-4.071606159210205,0.2876473069190979,-0.0,-0.0,-1.0,0.07494976242197467,1.0
18.1444091796875,-2.416839122772217,0.2110065221786499,-0.5008112459455518,-0.026834628585636042,-0.8651404502409623,0.09493768293515284,4.0
18.22904396057129,-2.6612324714660645,0.2133568525314331,0.14169387027716096,-0.07377949384010701,-0.9871572485752089,0.14336827775651811,6.0
18.241680145263672,-2.8723702430725098,0.2114046812057495,0.45748384067841474,-0.6772076935068692,-0.5762796850256244,0.06931652787191277,4.0
18.006160736083984,-3.036079168319702,0.19406843185424805,0.013106086316865601,0.16900943390236733,-0.9855272912271158,0.07195664653515596,3.0
19.473905563354492,-3.0700292587280273,0.2875936031341553,-0.0,-0.0,-1.0,0.20993175893277521,1.0
18.915544509887695,-3.294893503189087,0.24861466884613037,0.14508259440849086,0.0010030834060587245,-0.9894190389432487,0.17455513653938215,3.0
18.995227813720703,-3.7684733867645264,0.24642157554626465,-0.0,-0.0,-1.0,0.17797179638798874,1.0
19.092500686645508,-4.022794723510742,0.248435378074646,0.8791042190560162,0.46184316189785424,-0.11779926080457413,0.08246601082924075,3.0
18.247533798217773,-2.49367356300354,0.03113389015197754,-0.0,-0.0,-1.0,0.10631293317716967,2.0
18.339609146118164,-2.8505797386169434,0.0317683219909668,-0.36878078898567224,-0.6056738373710933,-0.7050956902430192,0.1013088064381896,6.0
18.319833755493164,-3.490654468536377,0.01672947406768799,-0.0,-0.0,-1.0,0.08779135403390176,1.0
18.2958984375,-3.637523889541626,0.011417865753173828,-0.626827211147728,0.3483753583926595,-0.6969377712748447,0.09440640846389219,3.0
19.193603515625,-3.650430202484131,0.08176541328430176,-0.0,-0.0,-1.0,0.1970850383566612,2.0
19.59860610961914,-3.847249984741211,0.10892176628112793,-0.0,-0.0,-1.0,0.17500384547831818,1.0
18.216922760009766,-2.4024641513824463,0.07828366756439209,0.2723080918848116,-0.687213783654828,-0.6734875786893685,0.12336242321382976,7.0
18.241043090820312,-2.593846559524536,0.07649886608123779,-0.0,-0.0,-1.0,0.12213315744671872,1.0
18.28896713256836,-2.8862669467926025,0.07407653331756592,-0.0,-0.0,-1.0,0.10409027577759447,2.0
18.580577850341797,-3.2532360553741455,0.08916330337524414,-0.0,-0.0,-1.0,0.19525060541771297,1.0
18.192222595214844,-3.4449470043182373,0.0524064302444458,-0.0,-0.0,-1.0,0.05636924831258589,2.0
17.942302703857422,-3.5820059776306152,0.028153300285339355,-0.0,-0.0,-1.0,0.02946871612233987,1.0
19.528656005859375,-3.1469907760620117,0.1690305471420288,-0.0,-0.0,-1.0,0.10487904966525279,1.0
18.776039123535156,-3.4037036895751953,0.101279616355896,-0.35792940422395025,0.8194355103800848,0.4476739727971885,0.21081983688669179,4.0
19.117050170898438,-3.5935003757476807,0.1240922212600708,-0.0,-0.0,-1.0,0.14056592950153318,1.0
18.50902557373047,-2.4238109588623047,-0.11843562126159668,-0.0,-0.0,-1.0,0.05616948718275744,1.0
18.454124450683594,-2.5623390674591064,-0.10506272315979004,-0.0,-0.0,-1.0,0.08725163570744433,1.0
18.86020851135254,-3.4714338779449463,0.03252005577087402,0.5307036250666337,0.4173053546467156,-0.7377058379356318,0.26079625699254655,4.0
18.515106201171875,-3.5837535858154297,0.01925957202911377,0.08060541815274311,-0.12319641942206001,-0.9891033357571923,0.0869510307688509,3.0
19.22323989868164,-3.695708751678467,0.0847545862197876,-0.0,-0.0,-1.0,0.18951961635651723,2.0
18.93817901611328,-3.160675048828125,0.4997847080230713,-0.0,-0.0,-1.0,0.13562113569185016,2.0
18.88052749633789,-3.420107841491699,0.525551438331604,-0.0,-0.0,-1.0,0.18901244419746038,2.0
19.21698760986328,-3.736119270324707,0.5723501443862915,-0.0,-0.0,-1.0,0.14366442100673224,1.0
18.977500915527344,-3.9407224655151367,0.5835986137390137,0.10280066998292493,0.19240201578733707,-0.97591674161889,0.12337085428202485,4.0
18.283103942871094,-2.4524996280670166,0.010061264038085938,-0.150757443542335,0.9482890656909861,-0.2793206779089156,0.11535310461883325,8.0
18.34783363342285,-2.772038221359253,0.0022552013397216797,-0.11606059557395622,0.29459156593049785,-0.948549285718795,0.14097184518091269,3.0
18.81916618347168,-3.4952080249786377,0.015759706497192383,-0.0,-0.0,-1.0,0.22413314259029088,1.0
18.463977813720703,-3.6033437252044678,-0.024789810180664062,-0.0,-0.0,-1.0,0.10272312078337272,2.0
18.97854995727539,-3.1577577590942383,0.5356365442276001,-0.0,-0.0,-1.0,0.12094101769651787,2.0
18.962631225585938,-3.3546597957611084,0.5241236686706543,-0.3529005296288342,0.7500429889590117,-0.559371728728866,0.23968770104681117,9.0
18.754047393798828,-3.1950371265411377,0.21197831630706787,-0.0,-0.0,-1.0,0.1956555500180294,1.0
18.732650756835938,-3.3725905418395996,0.22310400009155273,-0.0,-0.0,-1.0,0.16893132502190775,1.0
19.57540512084961,-4.24897575378418,0.340740442276001,-0.0,-0.0,-1.0,0.1250683843989659,1.0
19.110034942626953,-2.5145771503448486,-0.10891616344451904,-0.0,-0.0,-1.0,0.02569921548418785,1.0
17.738243103027344,-2.555190086364746,0.29508769512176514,-0.0,-0.0,-1.0,0.06947386641244549,1.0
19.10760498046875,-2.814948081970215,-0.07672357559204102,-0.0,-0.0,-1.0,0.08629399951407629,2.0
17.83313751220703,-2.769399642944336,0.31891369819641113,-0.0,-0.0,-1.0,0.06150918726030646,2.0
17.823501586914062,-3.105300188064575,0.35028940439224243,-0.0,-0.0,-1.0,0.14618285043336707,1.0
19.10503387451172,-3.2753782272338867,0.41215670108795166,-0.0,-0.0,-1.0,0.19823134582839527,1.0
18.000308990478516,-3.168954849243164,0.3625986576080322,-0.0,-0.0,-1.0,0.2312096929155437,1.0
18.664531707763672,-3.5537843704223633,0.8743284940719604,-0.0,-0.0,-1.0,0.12660778685641993,1.0
18.146398544311523,-2.3932301998138428,-0.05321836471557617,-0.0,-0.0,-1.0,0.12495560634761477,1.0
18.252605438232422,-2.573718547821045,-0.03740227222442627,-0.0,-0.0,-1.0,0.09926073552786692,1.0
18.36188316345215,-2.8743128776550293,-0.01674783229827881,-0.0,-0.0,-1.0,0.09589861379054172,1.0
18.883636474609375,-3.3562536239624023,0.04320931434631348,-0.2315754738455489,0.7488445491737313,-0.6209707248220326,0.20028418513298324,7.0
18.279918670654297,-3.0250868797302246,-0.01749110221862793,-0.0,-0.0,-1.0,0.14970273408712692,1.0
18.98181915283203,-3.3902840614318848,0.5033388733863831,-0.22328621132327664,0.10355634058939175,-0.9692364789650826,0.28312949999334425,8.0
18.714282989501953,-3.140941858291626,0.4837578535079956,-0.0,-0.0,-1.0,0.1673698700745659,1.0
18.769126892089844,-3.5773205757141113,0.4988331198692322,-0.0,-0.0,-1.0,0.13934630435413925,1.0
18.24130630493164,-2.533130407333374,0.0942080020904541,-0.0,-0.0,-1.0,0.12904514083252572,2.0
18.958702087402344,-3.436109781265259,0.1819779872894287,-0.0,-0.0,-1.0,0.24680523386537714,2.0
18.321319580078125,-3.0839056968688965,0.1219261884689331,-0.0,-0.0,-1.0,0.12214860249911294,1.0
18.26101303100586,-2.6920857429504395,0.10208749771118164,0.8864771897146443,-0.1542267180085519,-0.43631675600180303,0.15142553955895582,3.0
18.177886962890625,-3.1653573513031006,0.11465966701507568,-0.0,-0.0,-1.0,0.07341726790863089,2.0
18.856388092041016,-3.491847276687622,0.6285581588745117,-0.0,-0.0,-1.0,0.12714198001102278,1.0
18.80158233642578,-3.15140700340271,0.6160475611686707,-0.09115745047350576,0.11136562143823217,-0.989589822898784,0.1480017638732003,6.0
19.0158634185791,-3.244325637817383,0.1408904790878296,0.8550425637232981,-0.43903048313571263,-0.27596095575119417,0.20791529473358875,3.0
18.288599014282227,-2.4319865703582764,0.04023861885070801,0.8591284359892318,-0.38754388304810766,0.3342275709553164,0.10723873811969914,11.0
19.192214965820312,-3.933469295501709,0.18935906887054443,0.9698187923414262,-0.16392081100846043,0.18050340090908437,0.2124612053090068,3.0
18.763660430908203,-3.3258109092712402,0.12412405014038086,-0.0,-0.0,-1.0,0.10963059642572481,1.0
18.342937469482422,-2.8680419921875,0.06663835048675537,-0.15349750800492837,-0.9733135781805664,-0.17058485737491233,0.13870417167539123,7.0
18.286426544189453,-2.6124167442321777,0.04916501045227051,-0.0,-0.0,-1.0,0.11946872329097388,2.0
17.981353759765625,-3.3239667415618896,0.059465646743774414,-0.0,-0.0,-1.0,0.12324389024086543,1.0
17.778894424438477,-3.5003488063812256,0.05142104625701904,-0.0,-0.0,-1.0,0.08370058782063554,1.0
18.765600204467773,-3.4631667137145996,0.5537588000297546,-0.7116928137524914,0.5888185503096539,0.3831266809611406,0.19018243230799978,4.0
18.816631317138672,-2.416457176208496,-0.1426929235458374,-0.37930554279216055,0.3531712887758893,-0.8552177184737941,0.027283490442061322,4.0
19.65518569946289,-3.9508464336395264,-0.00802910327911377,-0.0,-0.0,-1.0,0.12542628875448253,1.0
19.410171508789062,-3.813110828399658,-0.040598273277282715,-0.0,-0.0,-1.0,0.06321499286808675,1.0
18.80248260498047,-2.6918582916259766,-0.13775289058685303,-0.0,-0.0,-1.0,0.03359532409228288,2.0
19.50323486328125,-3.15952730178833,0.3268975615501404,0.2432783764087825,0.35382793974935084,-0.9031176117342838,0.20653266409324358,3.0
19.000640869140625,-3.242570400238037,0.28325241804122925,0.19322107164608238,0.8443533341785068,-0.4997329932409689,0.22701228216609462,4.0
18.17113494873047,-2.387565851211548,0.195245623588562,0.17494535319523707,-0.478324598679331,-0.8605810256411948,0.09779386046230833,4.0
19.03970718383789,-3.7787728309631348,0.2939903140068054,-0.0,-0.0,-1.0,0.1409232921854032,2.0
18.878761291503906,-3.3727309703826904,0.27422213554382324,-0.16974471289007517,0.8264977736228745,0.5367384490068675,0.1537696394652415,6.0
18.277057647705078,-2.8494715690612793,0.21254706382751465,-0.38065109076293757,-0.5247754648096109,-0.761390477110689,0.06367859984372341,7.0
18.23322296142578,-2.5672969818115234,0.20392680168151855,-0.3934497955333774,-0.2355586434047795,-0.888655942371424,0.08940881996923093,4.0
18.86553192138672,-4.151488304138184,0.28257668018341064,-0.0,-0.0,-1.0,0.16237327569691923,2.0
17.99916648864746,-3.0874650478363037,0.1914283037185669,0.1994839029529887,-0.4977867054929753,-0.8440465439163248,0.12455308352806689,4.0
18.99222183227539,-3.490694522857666,0.0060443878173828125,0.3520238860391707,0.1888148008849035,-0.9167486867319065,0.1740626174818351,3.0
18.532562255859375,-2.963623046875,-0.08883559703826904,0.9476362088246185,0.03574994136367141,0.317344540550169,0.10296259033849674,3.0
18.378070831298828,-2.594782829284668,-0.13782131671905518,-0.0,-0.0,-1.0,0.09084578702131041,2.0
18.840167999267578,-3.5539326667785645,-0.006661891937255859,-0.0,-0.0,-1.0,0.16108041188846217,1.0
18.73652458190918,-3.515220880508423,-0.02154254913330078,-0.0,-0.0,-1.0,0.2241201071130299,2.0
18.455280303955078,-3.7121896743774414,-0.03923463821411133,-0.5870147300369701,0.3455139051180029,-0.7321433248276807,0.07761854552554916,3.0
18.035194396972656,-4.124705791473389,-0.058277130126953125,0.030180960216799453,0.16270815339179004,-0.9862125361504108,0.028758598095618346,4.0
19.4575138092041,-3.1267452239990234,0.3631010055541992,-0.47703488587040194,-0.18651132563845232,-0.8588662544722546,0.15701430509955341,3.0
18.916786193847656,-3.3575057983398438,0.33771634101867676,-0.3740600830656933,0.8781829623427775,0.2981169886265308,0.15433100447200201,9.0
19.11492919921875,-3.718073844909668,0.2095956802368164,-0.0,-0.0,-1.0,0.09750881934107308,2.0
18.76968765258789,-3.384751796722412,0.32800745964050293,-0.0,-0.0,-1.0,0.18104981951490157,2.0
17.924644470214844,-2.8184616565704346,0.2167087197303772,-0.0,-0.0,-1.0,0.05679173940188181,1.0
17.88361358642578,-2.5852620601654053,0.19469571113586426,0.7641825664216695,-0.5840277691107478,-0.2737454476054603,0.12362804484931322,4.0
18.981185913085938,-3.3675284385681152,0.6899393796920776,0.6106891931137614,0.34488017460702924,-0.7128228213077131,0.19686549645017573,5.0
19.632617950439453,-3.1676902770996094,0.06632626056671143,-0.8038853640753965,0.41815098691533287,0.42298708439750327,0.17592410037985107,8.0
19.669052124023438,-3.881977081298828,0.12710785865783691,0.9876042674046426,0.15693905161510152,-0.002818702235306385,0.15891429865918677,4.0
18.6672306060791,-3.0505292415618896,-0.07734096050262451,-0.16707294187333982,-0.5071709780638801,-0.8454964406214345,0.06945227009532483,3.0
18.498607635498047,-2.788233757019043,-0.12477171421051025,0.9880085533623845,-0.14519641376588344,0.05250809377890944,0.08351486900437037,3.0
18.46774673461914,-2.511300563812256,-0.15598106384277344,-0.0,-0.0,-1.0,0.05333411331299286,1.0
18.998729705810547,-3.7931785583496094,0.02872920036315918,-0.0,-0.0,-1.0,0.20406706457508567,1.0
18.677120208740234,-3.609661817550659,-0.029352426528930664,-0.0,-0.0,-1.0,0.12104361750154358,2.0
18.439624786376953,-3.7967395782470703,-0.0479123592376709,-0.0,-0.0,-1.0,0.08788520714964569,1.0
19.486125946044922,-3.112631320953369,0.34414416551589966,-0.4753310052580734,0.010337589816420512,-0.8797463098400224,0.19233991797540861,4.0
18.900344848632812,-3.333869457244873,0.3028419613838196,-0.020093728757616544,0.8861544807071505,0.4629540780544607,0.20193719233333346,7.0
18.923091888427734,-3.1771552562713623,0.2919856905937195,-0.0,-0.0,-1.0,0.17063517914141524,1.0
18.319839477539062,-2.766671895980835,0.1933584213256836,0.22862766424968822,0.12379272004288813,-0.9656110778176247,0.1143612820331423,5.0
18.254348754882812,-2.4986720085144043,0.16105198860168457,0.38572614859300824,-0.10212127031540427,-0.9169441555737037,0.12074696945694216,3.0
19.106843948364258,-4.065228462219238,0.3801109790802002,-0.0,-0.0,-1.0,0.15155352685883183,1.0
18.191383361816406,-2.9537580013275146,0.19724392890930176,-0.31812373446543046,0.6215435492758704,-0.715877717157981,0.07961211283897877,3.0
17.944122314453125,-3.1548657417297363,0.1896648406982422,-0.8050528820320716,-0.5634278739158426,-0.1855771753921505,0.10972185679719419,5.0
18.81235694885254,-3.1157469749450684,0.5997685194015503,-0.010002810927689149,-0.41275757421809833,-0.910785995006036,0.11783424869032724,3.0
18.604124069213867,-2.87968373298645,-0.1390465497970581,-0.0,-0.0,-1.0,0.05573048731728768,1.0
18.547134399414062,-2.4725608825683594,-0.17401695251464844,-0.0,-0.0,-1.0,0.04881590286741885,1.0
18.300949096679688,-2.8670294284820557,0.15023088455200195,-0.7650732712557692,0.3378228317864422,-0.5482140311354549,0.1768593525005874,4.0
18.280391693115234,-2.556199789047241,0.1280118227005005,-0.0,-0.0,-1.0,0.13489243956342933,2.0
18.1077880859375,-3.0497941970825195,0.13879477977752686,-0.0,-0.0,-1.0,0.09317083050143668,2.0
18.967575073242188,-3.9777350425720215,0.5609555244445801,0.5444579658000233,0.3266290158133733,-0.7725794519049077,0.11964450141590387,3.0
18.949024200439453,-3.9510464668273926,0.5591655373573303,0.5444579658000233,0.3266290158133733,-0.7725794519049077,0.11856501179006412,3.0
18.97340965270996,-3.500113010406494,0.18808281421661377,-0.0,-0.0,-1.0,0.1886508226097449,1.0
18.78183364868164,-3.503467559814453,0.1657794713973999,-0.7269775777539763,0.5515925888215328,-0.4089611441202219,0.15786615296528478,3.0
18.933399200439453,-3.456526279449463,0.5120100378990173,-0.21126877483628204,0.9572951403078415,-0.19736139217731175,0.17591090931767175,3.0
19.032779693603516,-3.1501617431640625,0.5228649973869324,-0.0,-0.0,-1.0,0.11279758914703704,1.0
19.4970645904541,-4.06427001953125,0.18375945091247559,-0.0,-0.0,-1.0,0.2256562727664245,2.0
19.180885314941406,-4.213010311126709,0.1417759656906128,-0.0,-0.0,-1.0,0.20668826587215763,1.0
19.12470245361328,-4.063150882720947,0.1409071683883667,-0.02023133504210988,-0.12288663034985982,-0.992214477400764,0.20582094396535675,4.0
18.30982780456543,-2.7997336387634277,0.08362030982971191,-0.0,-0.0,-1.0,0.09655112942221591,2.0
18.275659561157227,-2.520948886871338,0.08660101890563965,-0.0,-0.0,-1.0,0.1500264471838287,2.0
18.118999481201172,-2.3967065811157227,0.07000613212585449,-0.9753337799403679,0.21913115242893041,0.026562299267996328,0.13579160096769305,4.0
19.100608825683594,-4.166116714477539,0.48712772130966187,-0.0,-0.0,-1.0,0.1317605968122346,1.0
18.83295249938965,-3.1755008697509766,-0.1295713186264038,-0.0,-0.0,-1.0,0.05270785732221109,2.0
18.69683837890625,-3.0608458518981934,-0.13896656036376953,-0.0,-0.0,-1.0,0.04237191188801149,1.0
18.92437171936035,-3.2167181968688965,0.5856996774673462,-0.0,-0.0,-1.0,0.18013327851007468,1.0
19.296701431274414,-3.673126697540283,-0.14445781707763672,-0.0,-0.0,-1.0,0.12601015949752717,1.0
19.01083755493164,-3.8072142601013184,-0.17990565299987793,-0.0,-0.0,-1.0,0.14007088472175439,1.0
18.373123168945312,-2.6188673973083496,-0.1022258996963501,-0.0,-0.0,-1.0,0.11973742534409983,2.0
19.541820526123047,-4.030980587005615,0.21705389022827148,0.37882530891194555,-0.20581435971289128,-0.9022925438369427,0.24626044248476706,3.0
19.018545150756836,-4.23198938369751,0.17440402507781982,-0.0,-0.0,-1.0,0.14216307282676818,1.0
19.56836700439453,-3.1926989555358887,-0.12340009212493896,-0.0,-0.0,-1.0,0.19776125758956153,2.0
19.515588760375977,-2.9189352989196777,-0.11086881160736084,0.19614733074718704,0.3791413135949735,-0.904310836475065,0.09698938626004797,4.0
19.27780532836914,-2.9588284492492676,-0.14480817317962646,-0.0,-0.0,-1.0,0.07107157080519952,2.0
19.149967193603516,-3.703761577606201,0.1886380910873413,-0.0,-0.0,-1.0,0.11541681862007652,2.0
19.014068603515625,-3.4257655143737793,0.1855025291442871,-0.07549894422086037,0.27210178819144676,-0.9593021037632262,0.21324438956787733,3.0
19.052658081054688,-3.9814953804016113,0.16627728939056396,-0.0,-0.0,-1.0,0.22463997277032968,1.0
18.930580139160156,-3.3636460304260254,0.17885422706604004,-0.662339944217443,0.7228165836487096,-0.19708369972283932,0.26260606181887663,7.0
19.092275619506836,-4.014493465423584,0.5788146257400513,-0.0,-0.0,-1.0,0.121849210762748,1.0
19.01885986328125,-3.3717684745788574,0.5812500715255737,-0.07414952773222452,0.686974859937777,0.7228882274256238,0.09301693359117871,3.0
19.013538360595703,-3.9150233268737793,0.5733683109283447,-0.0,-0.0,-1.0,0.14503312987603437,2.0
18.84140968322754,-3.2830700874328613,0.566618800163269,0.46875247358130895,0.5250143255188554,0.7103738990921512,0.1800587621850601,4.0
18.29629898071289,-2.6274547576904297,0.10186970233917236,-0.0,-0.0,-1.0,0.10960796159219965,1.0
18.168806076049805,-2.365001678466797,0.1088937520980835,-0.01645560081814607,-0.07855703560438312,-0.9967737984912957,0.10723947225865797,4.0
18.153268814086914,-2.430172920227051,0.20757818222045898,-0.5008112459455518,-0.026834628585636042,-0.8651404502409623,0.08883461962587456,4.0
17.786869049072266,-2.5247621536254883,0.1831284761428833,-0.0,-0.0,-1.0,0.15324338487095396,1.0
18.921722412109375,-3.338038444519043,0.35816216468811035,0.03843958752124145,0.7190376133261643,-0.6939072767549062,0.22390698512041007,3.0
19.507614135742188,-2.8741397857666016,-0.15395665168762207,-0.8820271882474242,0.4601123031600831,-0.10161056870752573,0.06496105200365905,3.0
19.095375061035156,-2.6571083068847656,-0.15090656280517578,-0.0,-0.0,-1.0,0.02970294774977164,1.0
19.043685913085938,-2.447528839111328,-0.1383148431777954,-0.0,-0.0,-1.0,0.01877947838819221,1.0
19.35772132873535,-2.941061019897461,-0.16259300708770752,-0.7974443017492716,-0.39935803820411725,-0.4523226093502017,0.057195576011154166,3.0
19.221324920654297,-2.8277359008789062,-0.15880060195922852,-0.0,-0.0,-1.0,0.0746318418715621,1.0
19.100221633911133,-3.1349220275878906,0.5556176900863647,-0.0,-0.0,-1.0,0.14769386598928036,1.0
19.23395347595215,-3.134103775024414,-0.13508498668670654,-0.0,-0.0,-1.0,0.04827227779689081,1.0
19.003782272338867,-2.9985713958740234,-0.1324220895767212,-0.0,-0.0,-1.0,0.07643430075780576,2.0
18.740312576293945,-2.7452030181884766,-0.12305247783660889,-0.0,-0.0,-1.0,0.04445674301355792,2.0
19.581552505493164,-3.51165771484375,-0.15006160736083984,-0.0,-0.0,-1.0,0.10692767914433916,1.0
19.388050079345703,-3.3734092712402344,-0.14632916450500488,-0.0,-0.0,-1.0,0.08112228488732429,1.0
19.544326782226562,-4.09123420715332,0.041190505027770996,-0.0,-0.0,-1.0,0.16155204394640713,1.0
18.040470123291016,-3.467761993408203,0.038092732429504395,-0.0,-0.0,-1.0,0.041041941366763056,2.0
17.84541893005371,-3.622770309448242,0.05362272262573242,-0.0,-0.0,-1.0,0.03176192849117415,2.0
18.34796905517578,-3.882944107055664,-0.012066483497619629,0.6097614789777926,-0.5042801710194043,-0.6114674544662662,0.07745703978407859,3.0
18.637475967407227,-4.16798210144043,-0.05511307716369629,-0.0,-0.0,-1.0,0.06032369633702132,1.0
18.48080062866211,-4.161243438720703,-0.037582993507385254,-0.0,-0.0,-1.0,0.03564694879603313,2.0
19.704931259155273,-3.4596290588378906,-0.1444188356399536,-0.0,-0.0,-1.0,0.10143419805200653,2.0
18.11252212524414,-3.4855003356933594,0.7785820960998535,-0.0,-0.0,-1.0,0.05596921861496038,1.0
18.34439468383789,-3.225128173828125,0.44124341011047363,-0.0,-0.0,-1.0,0.13647790338276652,1.0
18.308237075805664,-3.3987293243408203,0.4413501024246216,-0.0,-0.0,-1.0,0.28163937476791256,1.0
17.713380813598633,-2.3639774322509766,0.1352980136871338,-0.0,-0.0,-1.0,0.18450116573753572,1.0
18.869667053222656,-3.2907485961914062,0.020483732223510742,0.7427683632448683,-0.31737722327855994,-0.589548010518677,0.18089217306866281,3.0
18.88583755493164,-3.3544845581054688,0.01646244525909424,-0.8677033878504906,0.2501461707231018,-0.4295552630167036,0.26994995808873923,6.0
19.60973358154297,-3.055665969848633,-0.015476822853088379,-0.024990838847923122,0.9792947378148608,-0.20089120055841211,0.1556689316191115,3.0
19.271739959716797,-3.692770004272461,-0.023707866668701172,0.7225316496902474,0.6784139237726189,-0.13305097980596994,0.2189153171240129,3.0
19.681791305541992,-2.9278106689453125,-0.01418149471282959,-0.0,-0.0,-1.0,0.11677697528462516,1.0
19.581510543823242,-3.211721420288086,-0.0209352970123291,-0.0,-0.0,-1.0,0.2019931778504884,2.0
19.541465759277344,-3.999612808227539,-0.05520188808441162,-0.0,-0.0,-1.0,0.12140304321393185,2.0
19.434467315673828,-3.322277069091797,-0.10719501972198486,-0.0,-0.0,-1.0,0.20531789967066943,1.0
19.66899299621582,-3.419595718383789,-0.145393967628479,-0.0,-0.0,-1.0,0.11889984012204285,2.0
17.71404457092285,-2.684469223022461,0.16480135917663574,-0.0,-0.0,-1.0,0.11506224924315703,1.0
17.916454315185547,-2.3784313201904297,0.1449497938156128,-0.0,-0.0,-1.0,0.09822402683631522,2.0
18.127685546875,-2.377767562866211,0.11430573463439941,0.4991053229633432,0.25569819294966917,-0.8279567082353583,0.12412983565150286,5.0
18.20451545715332,-2.4353580474853516,0.10136187076568604,-0.757854421676762,-0.4115777180529825,-0.5062217474064898,0.13262265174567692,6.0
19.590503692626953,-4.344948768615723,0.20833206176757812,-0.7007852127978562,0.08054455763920958,-0.7088107362043605,0.19404869271125194,4.0
19.601787567138672,-4.029414176940918,0.21260035037994385,-0.0,-0.0,-1.0,0.15461060856416386,1.0
19.483543395996094,-3.2388296127319336,0.24233639240264893,-0.8191628300413075,-0.11128920478668115,-0.5626606177587554,0.10269767258351885,7.0
18.898069381713867,-3.4188385009765625,0.28508996963500977,-0.8586662879559123,0.47202937754885677,0.19970095808196112,0.21070107789307663,3.0
19.470626831054688,-4.083076477050781,0.22481322288513184,-0.0,-0.0,-1.0,0.1508698751331298,1.0
19.598854064941406,-4.297840118408203,0.208337664604187,-0.6995915043653183,0.12630449717320222,-0.7032914765683542,0.16968967308151428,5.0
18.9194278717041,-3.2543563842773438,0.29128313064575195,-0.35369963236147867,0.9116986243844521,0.2090506837177344,0.20880823647860616,3.0
19.631792068481445,-3.7226200103759766,0.23195195198059082,-0.0,-0.0,-1.0,0.12326557267300145,1.0
19.467544555664062,-3.158933639526367,0.2658308744430542,-0.2564127074640935,0.0342371096377653,-0.965960839669282,0.1635016847023639,6.0
18.474584579467773,-3.028614044189453,-0.015757083892822266,0.6493995929839912,-0.46917977633821695,0.5984567704583577,0.12273948217545586,3.0
18.815126419067383,-3.4827442169189453,-0.06882750988006592,-0.0,-0.0,-1.0,0.17834085451112044,2.0
18.991296768188477,-3.687032699584961,-0.09473848342895508,-0.0,-0.0,-1.0,0.15184490216574223,1.0
19.143054962158203,-3.4115524291992188,-0.09013807773590088,-0.9102939874897517,0.4122277297873946,0.03785703546685803,0.12047120103147853,4.0
19.331663131713867,-3.7011947631835938,-0.12218022346496582,-0.0,-0.0,-1.0,0.12178385173958578,2.0
19.580698013305664,-3.9769649505615234,-0.15847134590148926,-0.0,-0.0,-1.0,0.10822003193425422,1.0
19.681625366210938,-3.159639358520508,-0.11878395080566406,0.37244129567983847,0.5673680528971935,0.7344256080938154,0.10822205671355269,4.0
19.652664184570312,-3.2809009552001953,-0.1234748363494873,-0.0,-0.0,-1.0,0.16432084278264966,2.0
18.125444412231445,-2.3685379028320312,0.04994821548461914,-0.0,-0.0,-1.0,0.118234987543468,2.0
18.25482940673828,-2.4677181243896484,0.034447431564331055,0.7742555163043902,-0.6160932850594977,-0.14476691464840596,0.09574526020177349,5.0
18.787799835205078,-3.424571990966797,0.5310988426208496,-0.0,-0.0,-1.0,0.19523753519085751,2.0
18.9472713470459,-3.451953887939453,0.5193386077880859,-0.21126877483628204,0.9572951403078415,-0.19736139217731175,0.16828354996967482,3.0
18.952735900878906,-3.3813982009887695,0.3103426694869995,0.15869987801309382,0.936972766161656,-0.31128184044367874,0.2876792724192172,7.0
18.86610984802246,-2.384305953979492,-0.18998408317565918,-0.7638208839603522,-0.2552240250100166,-0.592822363177801,0.02834374724624784,3.0
19.111434936523438,-4.057760238647461,0.20364248752593994,-0.0,-0.0,-1.0,0.1218445271035192,1.0
18.81730079650879,-3.3645477294921875,0.2658756375312805,-0.0,-0.0,-1.0,0.21316685850579478,1.0
