x,y,z,nx,ny,nz,curvature,density
14.236284255981445,27.496654510498047,-1.2266337871551514,-0.0,-0.0,-1.0,0.18634418834801358,2.0
13.804866790771484,26.689937591552734,-1.1487164497375488,-0.0,-0.0,-1.0,0.08176844359238843,1.0
14.913188934326172,27.523597717285156,-1.177835464477539,-0.0,-0.0,-1.0,0.18146968045256565,2.0
14.798116683959961,27.169811248779297,-1.1334154605865479,-0.0,-0.0,-1.0,0.17286006129242112,2.0
14.533977508544922,26.814857482910156,-1.102302074432373,-0.0,-0.0,-1.0,0.14393613342404848,2.0
15.65316390991211,26.375823974609375,-1.4240477085113525,0.09728560317218503,-0.9365197344900457,-0.3368475891647709,0.10262236877129212,3.0
15.69167709350586,25.984207153320312,-1.348698377609253,-0.011822137246691565,0.0005271886462272627,-0.9999299771199239,0.22320396278237065,3.0
15.566970825195312,25.848831176757812,-1.3358900547027588,-0.0,-0.0,-1.0,0.11636767175919392,1.0
14.435052871704102,27.37066650390625,-0.6708636283874512,-0.0,-0.0,-1.0,0.14531344829023024,1.0
14.19609546661377,27.23697280883789,-0.6708260774612427,-0.0,-0.0,-1.0,0.15281608853774944,1.0
13.979146957397461,27.06778335571289,-0.6660559177398682,-0.0,-0.0,-1.0,0.24787816917632097,2.0
14.544029235839844,26.705516815185547,-1.0855381488800049,-0.0,-0.0,-1.0,0.19939746248781723,1.0
14.604461669921875,26.515810012817383,-1.0528905391693115,-0.0,-0.0,-1.0,0.1792261499762104,1.0
14.261251449584961,26.014781951904297,-1.0120453834533691,-0.03449480687747288,0.6017156297021907,-0.7979651679557085,0.05999585235998702,3.0
13.916206359863281,25.749143600463867,-1.008507490158081,-0.0,-0.0,-1.0,0.06841874250450611,1.0
14.161405563354492,25.834434509277344,-0.9962968826293945,-0.0,-0.0,-1.0,0.25417064512250326,2.0
14.132725715637207,25.75420379638672,-0.9879992008209229,-0.0,-0.0,-1.0,0.15743453873364138,1.0
15.617555618286133,26.043004989624023,-0.9018359184265137,-0.0,-0.0,-1.0,0.0611219958043092,1.0
14.43610954284668,27.26999855041504,-0.6590684652328491,-0.0,-0.0,-1.0,0.12811711034504097,1.0
14.070493698120117,27.06006622314453,-0.6589388847351074,-0.0,-0.0,-1.0,0.15998462174970646,2.0
14.638063430786133,27.290367126464844,-1.341675043106079,-0.0,-0.0,-1.0,0.12189527368653622,1.0
14.378229141235352,27.186351776123047,-1.336940050125122,-0.0,-0.0,-1.0,0.13919423271345616,1.0
13.975541114807129,26.650592803955078,-1.2697155475616455,-0.0,-0.0,-1.0,0.028897392207908938,2.0
15.084793090820312,27.540531158447266,-1.3650941848754883,-0.0,-0.0,-1.0,0.128568174169277,1.0
14.907341003417969,27.259876251220703,-1.3237879276275635,-0.0,-0.0,-1.0,0.09206343873162148,1.0
14.767248153686523,27.086143493652344,-1.300213098526001,-0.0,-0.0,-1.0,0.20293641023412115,1.0
15.512203216552734,25.725078582763672,-1.5026707649230957,-0.0,-0.0,-1.0,0.1471336563515641,1.0
15.656085968017578,25.673152923583984,-1.483241319656372,-0.28234731398363827,-0.7416604230970587,-0.6084569098117933,0.19925985460491674,3.0
14.26465892791748,27.225963592529297,-0.8147928714752197,-0.0,-0.0,-1.0,0.17666338557264927,1.0
13.97760009765625,26.999755859375,-0.7951834201812744,-0.0,-0.0,-1.0,0.16854001617189962,1.0
14.563404083251953,27.37078285217285,-0.824303150177002,-0.9957789524628887,-0.090695867082679,-0.014090334489740654,0.2588343561925337,3.0
14.460780143737793,27.235733032226562,-0.8090574741363525,-0.1441007959257194,-0.9751717917111656,-0.16815153066329563,0.20569646569191707,3.0
14.007696151733398,25.73561668395996,-1.1177327632904053,-0.0,-0.0,-1.0,0.13548249070022034,2.0
13.943161010742188,25.657913208007812,-1.1095259189605713,-0.0,-0.0,-1.0,0.06949016007581232,1.0
15.63190746307373,26.794464111328125,-1.211827039718628,-0.0,-0.0,-1.0,0.10482985802355224,2.0
15.465856552124023,26.183246612548828,-1.1114544868469238,-0.0,-0.0,-1.0,0.26606006428468554,2.0
15.180854797363281,26.135234832763672,-1.1164581775665283,-0.0,-0.0,-1.0,0.08979599914508238,1.0
14.32392406463623,26.718542098999023,-0.742943525314331,-0.0,-0.0,-1.0,0.243572222686683,2.0
14.388287544250488,26.669166564941406,-0.7336430549621582,-0.0,-0.0,-1.0,0.19876003148263102,1.0
13.814983367919922,26.023025512695312,-1.1683405637741089,-0.0,-0.0,-1.0,0.22122481659385557,1.0
15.273900985717773,27.122859954833984,-1.3240383863449097,-0.0,-0.0,-1.0,0.08102496772749819,1.0
15.152531623840332,27.011144638061523,-1.3058863878250122,-0.0,-0.0,-1.0,0.08371737334481283,1.0
14.81802749633789,26.49169921875,-1.2200886011123657,-0.0,-0.0,-1.0,0.1278007299034579,1.0
15.290526390075684,26.802440643310547,-1.2662500143051147,-0.0,-0.0,-1.0,0.11274921326407718,1.0
15.522364616394043,26.618261337280273,-1.2296854257583618,-0.0,-0.0,-1.0,0.15115505001978816,1.0
14.105073928833008,27.58266830444336,-0.8600443601608276,-0.0,-0.0,-1.0,0.12853727340882384,1.0
14.41528034210205,27.29084014892578,-0.8152042627334595,-0.0,-0.0,-1.0,0.19119815615938218,2.0
13.961173057556152,26.947803497314453,-0.7718764543533325,-0.0,-0.0,-1.0,0.1704113549379955,1.0
14.56552791595459,27.347103118896484,-0.8219763040542603,-0.9957789524628887,-0.090695867082679,-0.014090334489740654,0.19167222823778063,3.0
13.980818748474121,25.711183547973633,-1.1093555688858032,-0.0,-0.0,-1.0,0.1022926006770511,2.0
15.644659996032715,26.54314422607422,-1.2145811319351196,-0.0,-0.0,-1.0,0.17790208725130158,1.0
15.354496002197266,26.174495697021484,-1.1528700590133667,-0.0,-0.0,-1.0,0.16629003401431772,2.0
15.379290580749512,25.961109161376953,-1.1143776178359985,-0.0,-0.0,-1.0,0.1567284491974619,2.0
14.313139915466309,26.692489624023438,-0.731009840965271,-0.0,-0.0,-1.0,0.15668063370876487,2.0
14.222549438476562,26.642433166503906,-0.7250975370407104,-0.0,-0.0,-1.0,0.13355433972051545,1.0
13.960102081298828,26.304615020751953,-0.6817103624343872,-0.0,-0.0,-1.0,0.15414532895823904,1.0
13.718538284301758,25.888580322265625,-1.2669553756713867,-0.0,-0.0,-1.0,0.16572250976894548,2.0
14.062173843383789,25.81450843811035,-1.2536559104919434,-0.0,-0.0,-1.0,0.22701951229598863,1.0
15.474165916442871,25.847501754760742,-1.2765357494354248,-0.0,-0.0,-1.0,0.2021216312881353,1.0
15.301411628723145,25.713382720947266,-1.2476801872253418,-0.0,-0.0,-1.0,0.1524099140235495,1.0
13.715450286865234,27.132686614990234,-0.9096949100494385,-0.0,-0.0,-1.0,0.12030617166107432,1.0
14.545467376708984,27.447856903076172,-0.9767248630523682,-0.6718195298992334,-0.541121786240153,0.5058119529056618,0.17834553827112268,3.0
14.350646018981934,27.256179809570312,-0.9421389102935791,-0.0,-0.0,-1.0,0.2399121368133665,1.0
14.139986038208008,26.821517944335938,-0.8712971210479736,-0.0,-0.0,-1.0,0.15831690053492364,1.0
13.74126148223877,26.394638061523438,-0.7998602390289307,-0.0,-0.0,-1.0,0.11994098503053152,1.0
14.569933891296387,26.98459243774414,-0.9062156677246094,-0.0,-0.0,-1.0,0.18252728256598652,1.0
14.299083709716797,26.50037384033203,-0.8259131908416748,-0.0,-0.0,-1.0,0.1495601951051751,1.0
14.223320007324219,26.473854064941406,-0.8203051090240479,-0.0,-0.0,-1.0,0.14516749810071528,1.0
14.003166198730469,26.06231689453125,-0.7544456720352173,-0.0,-0.0,-1.0,0.12980086724203851,1.0
13.794496536254883,25.779617309570312,-0.9851772785186768,-0.8027263392137385,-0.5727593670868409,0.16606363764169202,0.09505468376899537,4.0
14.20020580291748,25.87531280517578,-0.9999969005584717,-0.0,-0.0,-1.0,0.25186874067671083,1.0
14.306058883666992,26.007339477539062,-1.019594430923462,-0.0,-0.0,-1.0,0.11512321469371498,2.0
14.237730026245117,26.428619384765625,-1.081040620803833,-0.0,-0.0,-1.0,0.15743632442782562,1.0
13.927695274353027,26.906414031982422,-1.1499743461608887,-0.5013717294738325,0.21197064283881029,-0.8388652069664823,0.1012292940645851,3.0
15.665563583374023,26.71495819091797,-1.123726725578308,-0.0,-0.0,-1.0,0.14626096070525443,1.0
14.936789512634277,27.324508666992188,-1.2168046236038208,-0.0,-0.0,-1.0,0.11135900146919643,1.0
15.072290420532227,27.51083755493164,-1.2394152879714966,-0.0,-0.0,-1.0,0.14246227206651457,2.0
14.28951644897461,26.10977554321289,-0.8133249282836914,0.7130744053615081,-0.4430306153558708,-0.5433679842203898,0.17473474130361613,5.0
14.463196754455566,26.769187927246094,-0.8826532363891602,-0.0,-0.0,-1.0,0.2603863957647509,1.0
15.518430709838867,25.840564727783203,-1.2458018064498901,-0.0,-0.0,-1.0,0.27373586210978257,1.0
15.480484962463379,26.317855834960938,-1.2808603048324585,-0.0,-0.0,-1.0,0.0852654850252986,2.0
15.575974464416504,26.263736724853516,-1.2651070356369019,-0.0,-0.0,-1.0,0.08283669968410598,1.0
14.5413236618042,26.81348419189453,-0.6858844757080078,-0.0,-0.0,-1.0,0.20587226236725004,1.0
14.30046558380127,27.26952362060547,-0.7277494668960571,-0.0,-0.0,-1.0,0.17472382351742005,1.0
14.546411514282227,27.250484466552734,-0.7005002498626709,-0.0,-0.0,-1.0,0.2282749031761752,1.0
14.67606258392334,27.391525268554688,-0.6913005113601685,-0.0,-0.0,-1.0,0.17034488244633772,1.0
15.615071296691895,26.883628845214844,-1.1675803661346436,-0.0,-0.0,-1.0,0.10482985802355221,2.0
14.564539909362793,27.58807373046875,-1.282313346862793,-0.0,-0.0,-1.0,0.1887343878912524,1.0
14.901721000671387,27.39834976196289,-1.249833106994629,-0.0,-0.0,-1.0,0.1462590811601437,1.0
15.046643257141113,27.396484375,-1.2456128597259521,-0.0,-0.0,-1.0,0.18302092542467396,2.0
14.389745712280273,27.408023834228516,-1.1724406480789185,-0.0,-0.0,-1.0,0.18570109258979148,1.0
13.923883438110352,27.162105560302734,-0.5881801843643188,0.7828399101836439,-0.3071437078928423,-0.541132532495969,0.19837579330515848,4.0
14.329679489135742,27.278186798095703,-0.6374059915542603,-0.0,-0.0,-1.0,0.1242726809354668,1.0
13.806888580322266,25.917362213134766,-0.6356885433197021,-0.0,-0.0,-1.0,0.09829881458016149,1.0
13.74156379699707,25.89728546142578,-0.9225972890853882,-0.0,-0.0,-1.0,0.16331846199143302,1.0
15.654748916625977,26.106544494628906,-1.1880160570144653,-0.0,-0.0,-1.0,0.10101190743626515,1.0
13.807220458984375,26.736345291137695,-1.0824942588806152,-0.0,-0.0,-1.0,0.07140472425505072,1.0
13.888402938842773,27.11341094970703,-1.2156163454055786,-0.0,-0.0,-1.0,0.12377955250713926,1.0
15.169403076171875,26.778059005737305,-1.0576130151748657,-0.0,-0.0,-1.0,0.16960001324522497,1.0
14.230691909790039,26.38254737854004,-0.9845105409622192,-0.0,-0.0,-1.0,0.24914533657468915,1.0
15.690481185913086,26.88275909423828,-1.2522485256195068,-0.0,-0.0,-1.0,0.11255498253461417,1.0
15.434041976928711,26.726341247558594,-1.2466957569122314,-0.0,-0.0,-1.0,0.06677417012157125,1.0
15.194957733154297,26.49515151977539,-1.2361764907836914,-0.0,-0.0,-1.0,0.05344896502114676,1.0
15.512842178344727,26.276126861572266,-1.2163236141204834,-0.0,-0.0,-1.0,0.13844351897020055,1.0
14.688421249389648,25.69574737548828,-1.1946501731872559,-0.0,-0.0,-1.0,0.20168656884924602,1.0
14.554546356201172,25.652090072631836,-1.1944804191589355,-0.025371419882449734,0.6585197393596305,-0.7521356552689634,0.13055478059597855,3.0
14.314781188964844,26.762298583984375,-0.7162008285522461,-0.0,-0.0,-1.0,0.2125720487311539,1.0
13.918214797973633,26.951152801513672,-0.7360700368881226,-0.0,-0.0,-1.0,0.18194659824113418,1.0
14.3253173828125,27.340497970581055,-0.7335708141326904,0.5532382783620569,-0.039026471490713366,-0.8321083714745161,0.2695899507282797,5.0
14.078582763671875,26.980329513549805,-0.7366364002227783,-0.0,-0.0,-1.0,0.14708081024121433,2.0
15.596596717834473,26.578907012939453,-1.3135238885879517,-0.0,-0.0,-1.0,0.11731542753109214,1.0
14.258255004882812,25.76423454284668,-1.3489686250686646,-0.0,-0.0,-1.0,0.24410902863093445,1.0
15.634020805358887,26.37993621826172,-1.441009521484375,0.09728560317218503,-0.9365197344900457,-0.3368475891647709,0.09882387226939422,3.0
14.14736270904541,25.77779769897461,-1.38852858543396,-0.0,-0.0,-1.0,0.20188437603492437,1.0
13.949329376220703,25.785560607910156,-1.3892168998718262,-0.0,-0.0,-1.0,0.1830224958979667,1.0
15.175280570983887,27.40913963317871,-1.2957711219787598,-0.0,-0.0,-1.0,0.18035137087872846,1.0
15.642812728881836,25.87457275390625,-1.1606903076171875,-0.0,-0.0,-1.0,0.1656850814104434,1.0
15.406196594238281,26.160053253173828,-1.1785318851470947,-0.0,-0.0,-1.0,0.17257725190315434,2.0
13.872701644897461,26.8207950592041,-1.1722135543823242,-0.0,-0.0,-1.0,0.0744594060306948,2.0
14.19467544555664,26.358863830566406,-1.2871625423431396,-0.0,-0.0,-1.0,0.11857123486657511,2.0
14.341158866882324,25.666629791259766,-1.2173738479614258,-0.0,-0.0,-1.0,0.14268996021767777,1.0
13.888575553894043,26.238651275634766,-1.2565224170684814,-0.0,-0.0,-1.0,0.04170257090709323,1.0
14.354768753051758,27.61573600769043,-0.7688201665878296,-0.0,-0.0,-1.0,0.13749578930713002,1.0
14.069878578186035,27.023258209228516,-0.7481993436813354,-0.30964894911408997,-0.30533416659075224,-0.9004935174807592,0.21415266142494105,3.0
14.588394165039062,27.27042579650879,-0.9518656730651855,-0.0,-0.0,-1.0,0.2304063424616866,1.0
14.268854141235352,27.428451538085938,-0.6465730667114258,0.30291581238228227,-0.9499291248383139,-0.07665943120514955,0.18659024567244045,3.0
13.985393524169922,27.055683135986328,-0.6426864862442017,-0.0,-0.0,-1.0,0.18945684546556937,2.0
15.687387466430664,26.728382110595703,-1.1832305192947388,-0.0,-0.0,-1.0,0.11159360714941548,1.0
15.370842933654785,26.15863609313965,-1.1648012399673462,-0.3558423087373584,0.2992614210074252,-0.8853354467144546,0.1366286859150434,3.0
15.007936477661133,27.40442657470703,-1.2717996835708618,-0.0,-0.0,-1.0,0.1766581820372061,2.0
14.102688789367676,25.704404830932617,-1.2167891263961792,-0.0,-0.0,-1.0,0.15579378196670182,1.0
13.977120399475098,26.15374183654785,-1.2548171281814575,-0.0,-0.0,-1.0,0.048209559377561974,2.0
14.008804321289062,26.30501365661621,-1.2627586126327515,-0.0,-0.0,-1.0,0.02773949371720975,1.0
15.504432678222656,25.960527420043945,-1.149867296218872,-0.0,-0.0,-1.0,0.221557695733213,1.0
15.08750057220459,27.626766204833984,-1.2935748100280762,-0.0,-0.0,-1.0,0.14820749342154493,1.0
13.949607849121094,26.27861785888672,-1.2855174541473389,-0.0,-0.0,-1.0,0.03353844894050047,2.0
13.797430992126465,25.967437744140625,-1.276097059249878,-0.0,-0.0,-1.0,0.0565766624148102,2.0
14.484638214111328,27.255828857421875,-0.9055359363555908,-0.0,-0.0,-1.0,0.28006144758356066,1.0
14.264372825622559,26.08649444580078,-0.8447003364562988,0.7243026205482783,-0.4326010641945139,-0.5368817682923035,0.21766652756498447,4.0
14.296504974365234,26.216644287109375,-0.8509876728057861,-0.0,-0.0,-1.0,0.17756479790399954,2.0
14.355775833129883,26.698028564453125,-0.8777110576629639,-0.0,-0.0,-1.0,0.17144423027440145,1.0
14.138484954833984,26.131906509399414,-0.8546547889709473,-0.0,-0.0,-1.0,0.14693143636920075,1.0
14.045784950256348,26.886882781982422,-0.9068915843963623,-0.0,-0.0,-1.0,0.2010880448108674,1.0
15.542555809020996,25.956501007080078,-1.4872608184814453,-0.0,-0.0,-1.0,0.179302362253041,1.0
15.538029670715332,26.33822250366211,-1.5159599781036377,-0.0,-0.0,-1.0,0.06786686231183209,1.0
15.68641471862793,26.519201278686523,-1.51326584815979,-0.0,-0.0,-1.0,0.12963887174033978,1.0
14.246642112731934,27.36321258544922,-0.8284094333648682,-0.0,-0.0,-1.0,0.16656161270524578,1.0
13.960687637329102,26.864896774291992,-0.8361704349517822,-0.0,-0.0,-1.0,0.190913796612492,2.0
14.007455825805664,26.963359832763672,-0.8355014324188232,-0.0,-0.0,-1.0,0.16614369495904305,1.0
15.434704780578613,26.1124267578125,-1.0942965745925903,-0.0,-0.0,-1.0,0.21345111362620617,2.0
15.170232772827148,27.191383361816406,-1.197447419166565,-0.0,-0.0,-1.0,0.10638201174084987,1.0
13.998146057128906,25.877426147460938,-1.1944860219955444,-0.0,-0.0,-1.0,0.23004634630492962,1.0
13.865138053894043,26.111658096313477,-1.222988247871399,-0.0,-0.0,-1.0,0.04802440605506529,1.0
13.87242317199707,26.517559051513672,-1.2525845766067505,-0.0,-0.0,-1.0,0.02695843498009535,1.0
14.756279945373535,27.212350845336914,-1.0134683847427368,-0.0,-0.0,-1.0,0.11500698449058537,2.0
15.040948867797852,27.576068878173828,-1.043716549873352,-0.0,-0.0,-1.0,0.14557456904382743,2.0
15.562199592590332,26.142765045166016,-0.8875530958175659,-0.0,-0.0,-1.0,0.10065401430842737,2.0
14.410358428955078,26.074108123779297,-0.9077509641647339,-0.0,-0.0,-1.0,0.14515921828809003,2.0
14.038735389709473,25.776765823364258,-0.8875256776809692,-0.0,-0.0,-1.0,0.12261439708293217,1.0
15.572668075561523,25.774982452392578,-1.2089871168136597,-0.0,-0.0,-1.0,0.24418857644150302,1.0
15.527166366577148,26.176414489746094,-1.2572640180587769,-0.0,-0.0,-1.0,0.1552471339593122,2.0
15.646278381347656,26.679100036621094,-1.3115824460983276,-0.0,-0.0,-1.0,0.12922582218522477,1.0
15.45196533203125,26.81523895263672,-1.3342941999435425,-0.0,-0.0,-1.0,0.058906335619992096,1.0
15.32806396484375,26.00308609008789,-1.2443217039108276,-0.0,-0.0,-1.0,0.12831290439545695,2.0
15.250349998474121,26.960460662841797,-1.3583496809005737,-0.0,-0.0,-1.0,0.09401468756677732,1.0
13.8753023147583,25.739322662353516,-1.269022822380066,-0.0,-0.0,-1.0,0.15913003450690558,1.0
13.96386432647705,25.977188110351562,-1.292777419090271,-0.0,-0.0,-1.0,0.12331352516633723,1.0
14.274514198303223,27.353351593017578,-0.6433455944061279,-0.9652513951404554,-0.15038108893254176,-0.21371773971962996,0.17633022315319907,3.0
13.909225463867188,27.034011840820312,-0.6237268447875977,-0.0,-0.0,-1.0,0.16885290297269154,2.0
14.026904106140137,27.149494171142578,-0.6310914754867554,-0.45688233738536105,-0.8532699695259416,-0.2513740020178853,0.255504985869317,4.0
15.708645820617676,26.449546813964844,-1.3894197940826416,-0.0,-0.0,-1.0,0.14176281211449726,1.0
15.512819290161133,25.878089904785156,-1.3251547813415527,-0.49031632655463275,-0.8650050904384982,0.10656497280746836,0.18209664225326727,4.0
15.565465927124023,26.34506607055664,-1.3822176456451416,-0.0,-0.0,-1.0,0.08665572556670373,1.0
14.044153213500977,25.773216247558594,-1.380429744720459,-0.0,-0.0,-1.0,0.17709052027992284,1.0
14.511903762817383,26.72219467163086,-0.7384693622589111,-0.0,-0.0,-1.0,0.19382828086065318,2.0
14.6097993850708,27.298599243164062,-0.7907695770263672,-0.0,-0.0,-1.0,0.23500265693522143,1.0
14.745746612548828,27.37433624267578,-0.7943241596221924,-0.0,-0.0,-1.0,0.2087023102063395,2.0
14.119261741638184,26.39130401611328,-0.7183359861373901,-0.0,-0.0,-1.0,0.1910026770126927,2.0
14.380794525146484,26.728759765625,-0.7427997589111328,-0.0,-0.0,-1.0,0.2010562664454744,1.0
14.442754745483398,27.28803253173828,-0.7943482398986816,-0.0,-0.0,-1.0,0.1843129124113324,2.0
14.022632598876953,26.329471588134766,-0.7153327465057373,-0.0,-0.0,-1.0,0.23723093619604668,2.0
13.923543930053711,27.13825225830078,-0.7947478294372559,-0.0,-0.0,-1.0,0.1711239883925315,1.0
15.408208847045898,25.869117736816406,-1.2452892065048218,-0.0,-0.0,-1.0,0.19376220887397075,1.0
15.565409660339355,26.08755111694336,-1.26278817653656,-0.0,-0.0,-1.0,0.1996000414390286,2.0
15.2926664352417,25.806640625,-1.244531512260437,-0.0,-0.0,-1.0,0.19093288884796747,1.0
15.22501277923584,26.045913696289062,-1.277626395225525,-0.0,-0.0,-1.0,0.10223412833205595,1.0
15.401067733764648,26.539813995361328,-1.3276439905166626,-0.0,-0.0,-1.0,0.141237451793417,1.0
14.42530632019043,26.78842544555664,-0.7079691886901855,-0.0,-0.0,-1.0,0.21586759255369198,1.0
14.518980979919434,27.480472564697266,-0.767212986946106,-0.0,-0.0,-1.0,0.29545485639507796,1.0
14.013200759887695,26.336742401123047,-0.6845598220825195,-0.0,-0.0,-1.0,0.23723093619604668,2.0
14.002970695495605,27.072959899902344,-0.7514737844467163,-0.0,-0.0,-1.0,0.23896615305409294,2.0
14.265153884887695,27.45855712890625,-0.7755881547927856,-0.0,-0.0,-1.0,0.12734706098670318,1.0
15.626326560974121,25.853775024414062,-1.417881727218628,-0.0,-0.0,-1.0,0.11970343285962917,1.0
15.399628639221191,25.80428123474121,-1.4334094524383545,-0.0,-0.0,-1.0,0.16747339487358034,1.0
15.522350311279297,26.182247161865234,-0.8273153305053711,0.39114860782104693,0.8614464117632058,-0.3239025258622631,0.09351516648124036,4.0
15.007946014404297,26.8818416595459,-0.9278519153594971,-0.0,-0.0,-1.0,0.1420916758889481,2.0
14.828120231628418,27.04046630859375,-0.9553792476654053,-0.0,-0.0,-1.0,0.16731124498471797,2.0
14.909964561462402,27.542526245117188,-0.9939100742340088,-0.0,-0.0,-1.0,0.1683227734736635,1.0
14.455626487731934,26.637779235839844,-0.9479858875274658,-0.366139641796063,-0.41615007481714517,-0.8323225804549188,0.2212003064029306,3.0
14.58002758026123,27.17571449279785,-0.9859864711761475,-0.0,-0.0,-1.0,0.2492481773319332,1.0
14.445296287536621,27.384492874145508,-1.0145809650421143,-0.0,-0.0,-1.0,0.16248253557684303,1.0
13.912022590637207,25.707237243652344,-0.9089815616607666,-0.0,-0.0,-1.0,0.05958786580125257,1.0
14.131820678710938,25.964218139648438,-0.9141218662261963,-0.0,-0.0,-1.0,0.08920024296727387,1.0
14.332564353942871,27.305782318115234,-1.0161259174346924,-0.0,-0.0,-1.0,0.2117589080459122,1.0
15.415314674377441,25.680362701416016,-1.2808873653411865,-0.0,-0.0,-1.0,0.16711635294133803,2.0
15.491827011108398,25.9305477142334,-1.2970592975616455,-0.0,-0.0,-1.0,0.18719071382273847,2.0
15.451798439025879,26.524883270263672,-1.362398624420166,0.8768225212091161,-0.44521709360688433,-0.18155992360851023,0.12576552117594456,4.0
15.491101264953613,26.64996910095215,-1.370596170425415,-0.0,-0.0,-1.0,0.09413564652222565,1.0
15.255627632141113,25.75162124633789,-1.3072960376739502,-0.0,-0.0,-1.0,0.12370478412993495,1.0
14.55728530883789,27.285837173461914,-0.888263463973999,-0.0,-0.0,-1.0,0.2824778479199133,1.0
14.633332252502441,27.540414810180664,-0.8992359638214111,-0.0,-0.0,-1.0,0.15207558613009853,2.0
14.254111289978027,26.1202392578125,-0.8350479602813721,0.5807283729108619,0.3462006373970479,-0.7368172606299209,0.20035741370568644,4.0
14.318456649780273,26.754531860351562,-0.8737533092498779,-0.0,-0.0,-1.0,0.21674961771433485,2.0
14.280155181884766,27.359577178955078,-0.9210503101348877,-0.0,-0.0,-1.0,0.16099197646481234,1.0
15.504283905029297,26.01179313659668,-0.9626297950744629,-0.0,-0.0,-1.0,0.08692851204905458,1.0
14.777668952941895,26.857398986816406,-1.1226081848144531,-0.3644020791229694,0.2883075151862629,-0.8854885100428919,0.2265297537988061,3.0
14.88381290435791,27.489673614501953,-1.1583428382873535,-0.0,-0.0,-1.0,0.20525513703070325,2.0
14.780355453491211,26.22198486328125,-1.0733895301818848,-0.0,-0.0,-1.0,0.21538447607322853,1.0
14.445474624633789,26.558208465576172,-1.1431207656860352,-0.0,-0.0,-1.0,0.19023589480648595,1.0
14.521930694580078,26.748687744140625,-1.1476178169250488,-0.0,-0.0,-1.0,0.17746361574578612,1.0
14.38005256652832,27.241138458251953,-1.2040581703186035,-0.0,-0.0,-1.0,0.20306487440594032,1.0
14.203644752502441,26.671993255615234,-1.1837012767791748,-0.0,-0.0,-1.0,0.18088930926525212,2.0
14.21562671661377,27.35750389099121,-1.2344915866851807,-0.0,-0.0,-1.0,0.23718406409021042,1.0
13.970276832580566,27.57876968383789,-1.2835958003997803,-0.0,-0.0,-1.0,0.1409922109996044,1.0
13.76632308959961,26.530410766601562,-1.2313177585601807,-0.0,-0.0,-1.0,0.06826035464432748,1.0
13.98540210723877,27.101205825805664,-0.6152118444442749,-0.0,-0.0,-1.0,0.18107620459706236,1.0
13.831717491149902,27.091720581054688,-0.6316525936126709,-0.0,-0.0,-1.0,0.25467584487290923,2.0
15.642865180969238,26.290544509887695,-1.39883553981781,-0.0,-0.0,-1.0,0.08559978395499948,2.0
15.473334312438965,26.025588989257812,-1.3870750665664673,-0.0,-0.0,-1.0,0.14095324352462218,1.0
15.599379539489746,26.07705307006836,-1.3774269819259644,-0.0,-0.0,-1.0,0.19268919405110976,1.0
15.43628978729248,25.724876403808594,-1.3546496629714966,-0.0,-0.0,-1.0,0.19380551634465173,2.0
15.547541618347168,26.05854034423828,-1.3817027807235718,-0.0,-0.0,-1.0,0.15377650189221156,2.0
14.759778022766113,26.92724609375,-1.008247971534729,-0.0,-0.0,-1.0,0.18721116351670272,1.0
14.665456771850586,27.24936866760254,-1.0491982698440552,-0.839792225416448,-0.42140260108935074,-0.34229938055044606,0.12913634407522148,3.0
14.632760047912598,27.524499893188477,-1.0792220830917358,-0.0,-0.0,-1.0,0.16419427121115487,1.0
14.302559852600098,27.29680824279785,-1.092537522315979,-0.0,-0.0,-1.0,0.23983061853869364,1.0
14.383871078491211,26.678163528442383,-1.0253344774246216,-0.0,-0.0,-1.0,0.17151136626037927,2.0
14.433234214782715,26.388141632080078,-0.9928513765335083,-0.0,-0.0,-1.0,0.122579570202714,1.0
14.075479507446289,25.944406509399414,-0.9923516511917114,-0.0,-0.0,-1.0,0.11910172550137181,1.0
13.915071487426758,27.15705680847168,-0.5199660062789917,0.5121487108546618,-0.4167213907597139,-0.7510306121944683,0.1497615232689517,3.0
15.636869430541992,26.0432071685791,-1.4291578531265259,-0.0,-0.0,-1.0,0.1785423600755018,1.0
15.481708526611328,25.750385284423828,-1.4102391004562378,-0.0,-0.0,-1.0,0.14182306806120437,1.0
15.563641548156738,26.08624267578125,-0.9395643472671509,0.18701953091888235,0.7212338077549942,-0.6669673827153116,0.06238359911540969,3.0
14.980666160583496,27.45029067993164,-1.1535242795944214,-0.0,-0.0,-1.0,0.12043034498693836,2.0
14.760920524597168,26.861743927001953,-1.114301085472107,-0.3644020791229694,0.2883075151862629,-0.8854885100428919,0.19629881852474784,3.0
14.786109924316406,27.232219696044922,-1.1513599157333374,-0.7030689455987903,-0.592751863616363,-0.39286038985106914,0.16650825275906184,3.0
14.460406303405762,27.587650299072266,-1.226681113243103,-0.0,-0.0,-1.0,0.1712480355271965,1.0
14.536717414855957,26.462692260742188,-1.0976990461349487,-0.0,-0.0,-1.0,0.19500621967094545,1.0
14.54189682006836,26.797964096069336,-1.132545828819275,-0.0,-0.0,-1.0,0.1504147019256565,2.0
14.105057716369629,26.95772361755371,-1.2001696825027466,-0.0,-0.0,-1.0,0.14082857326845047,1.0
14.08902645111084,27.383251190185547,-1.2471686601638794,-0.0,-0.0,-1.0,0.15861018821888584,1.0
13.923971176147461,27.00634765625,-1.226498007774353,-0.0,-0.0,-1.0,0.1295213929911323,1.0
14.043487548828125,25.79813003540039,-1.0879637002944946,-0.0,-0.0,-1.0,0.12622961881314904,1.0
13.7101411819458,26.660764694213867,-1.2160760164260864,-0.0,-0.0,-1.0,0.07608018797033683,2.0
14.05453109741211,27.13970184326172,-0.6628503799438477,-0.8611048767500395,0.24191554554032485,-0.4471859345543261,0.24759084617491095,5.0
14.278719902038574,27.347412109375,-0.6581612825393677,-0.5036119693467438,-0.8379610239896084,-0.21022917638848743,0.17365807156355278,4.0
15.597803115844727,25.68643569946289,-1.4067655801773071,-0.0,-0.0,-1.0,0.17809144659350845,1.0
15.460199356079102,27.409378051757812,-1.1580241918563843,-0.0,-0.0,-1.0,0.10293306978821096,2.0
15.59939193725586,26.067264556884766,-0.9893125295639038,-0.4918131883892022,0.5085451916070093,-0.7067542541929535,0.10628495693980954,3.0
14.915824890136719,27.19359016418457,-1.2122901678085327,-0.0,-0.0,-1.0,0.14746715565312596,1.0
14.820122718811035,27.562299728393555,-1.2667759656906128,-0.0,-0.0,-1.0,0.13688286526554055,2.0
14.715161323547363,26.68693733215332,-1.1875098943710327,-0.0,-0.0,-1.0,0.20149496708627077,1.0
14.433232307434082,27.35904312133789,-1.301472544670105,-0.0,-0.0,-1.0,0.13688349809332792,1.0
14.239249229431152,27.46326446533203,-1.3415366411209106,-0.0,-0.0,-1.0,0.1148556769582832,1.0
14.458308219909668,26.744857788085938,-1.2325223684310913,-0.0,-0.0,-1.0,0.20621360522016907,1.0
14.251934051513672,27.113094329833984,-1.3024839162826538,-0.0,-0.0,-1.0,0.10400373348039622,1.0
13.718148231506348,25.982574462890625,-1.271260142326355,-0.0,-0.0,-1.0,0.10085142133245549,1.0
14.584038734436035,27.479724884033203,-0.7666374444961548,-0.0,-0.0,-1.0,0.24738804039723614,2.0
14.565485000610352,27.333904266357422,-0.7573188543319702,-0.0,-0.0,-1.0,0.21354014378652883,2.0
14.241698265075684,27.423797607421875,-0.8054765462875366,-0.0,-0.0,-1.0,0.1549735348873719,1.0
14.456168174743652,26.820512771606445,-0.7308984994888306,-0.5870474320267627,0.7773620229656798,0.22601680867026144,0.24646835127318734,3.0
14.137364387512207,27.01962661743164,-0.7874621152877808,-0.0,-0.0,-1.0,0.20244623783370236,1.0
13.826424598693848,27.276403427124023,-0.8475311994552612,-0.0,-0.0,-1.0,0.2047477559863303,1.0
14.093109130859375,26.405702590942383,-0.7467695474624634,0.7573924061567653,0.642261407189371,-0.11771587799101196,0.17381188891343463,5.0
15.604789733886719,26.732481002807617,-1.3115980625152588,-0.0,-0.0,-1.0,0.10414155760224082,1.0
15.232934951782227,26.921966552734375,-1.3982338905334473,-0.0,-0.0,-1.0,0.1054645520747651,1.0
15.016698837280273,27.62173843383789,-1.047971487045288,-0.0,-0.0,-1.0,0.158822829646564,1.0
15.554171562194824,26.21584701538086,-1.2462804317474365,-0.0,-0.0,-1.0,0.12930457463817133,2.0
15.502341270446777,26.4149227142334,-1.2828528881072998,-0.0,-0.0,-1.0,0.15599835063544043,2.0
14.788997650146484,27.11928367614746,-1.0231637954711914,-0.0,-0.0,-1.0,0.12015557997722132,2.0
14.807296752929688,27.53126335144043,-1.0667145252227783,-0.0,-0.0,-1.0,0.15681443197598818,1.0
15.429094314575195,25.9304256439209,-1.2272508144378662,-0.0,-0.0,-1.0,0.15844707540027628,2.0
14.592720031738281,26.865610122680664,-1.0236408710479736,-0.0,-0.0,-1.0,0.18523049537791414,1.0
14.478350639343262,27.29912567138672,-1.0874900817871094,-0.0,-0.0,-1.0,0.17893581743670542,2.0
14.266995429992676,27.462100982666016,-1.1358308792114258,-0.7753743134812857,-0.3679891300494829,-0.5132043200898152,0.15208609431879158,3.0
14.406961441040039,26.255294799804688,-0.9858379364013672,-0.0,-0.0,-1.0,0.16221784726545796,2.0
14.535979270935059,26.517597198486328,-0.9943346977233887,0.520783931748229,-0.33452895985391723,-0.7854135671427585,0.216903291198193,3.0
13.810235977172852,27.071517944335938,-1.1610991954803467,-0.0,-0.0,-1.0,0.12642920334918956,1.0
13.741473197937012,26.609716415405273,-1.1235439777374268,-0.0,-0.0,-1.0,0.07826885272779639,1.0
13.949827194213867,25.803293228149414,-1.009922742843628,-0.0,-0.0,-1.0,0.1239427570402268,1.0
15.572807312011719,26.162681579589844,-0.8053500652313232,0.41830886711517434,0.8589652363524111,-0.29529039000764284,0.0955016529215716,4.0
14.273993492126465,27.344608306884766,-0.6348416805267334,-0.9652513951404554,-0.15038108893254176,-0.21371773971962996,0.16743519351072286,3.0
14.841636657714844,25.963932037353516,-0.8900718688964844,-0.0,-0.0,-1.0,0.2328776007219033,1.0
14.093159675598145,27.114364624023438,-0.6387608051300049,-0.0,-0.0,-1.0,0.16472734817004467,1.0
13.98243522644043,27.200220108032227,-0.6594183444976807,-0.7269253463936162,-0.6856021141924611,-0.039106032595350615,0.1799954701246217,7.0
14.517035484313965,25.662864685058594,-0.9078400135040283,-0.0,-0.0,-1.0,0.18868459581416,1.0
14.295223236083984,25.815296173095703,-0.9574689865112305,-0.0,-0.0,-1.0,0.1620316591422722,1.0
14.135666847229004,25.82918930053711,-0.9835398197174072,-0.0,-0.0,-1.0,0.26057361626576464,2.0
14.859569549560547,27.563199996948242,-1.2955386638641357,-0.0,-0.0,-1.0,0.1472955895398011,2.0
15.55816650390625,26.194753646850586,-1.3947465419769287,-0.0,-0.0,-1.0,0.09641475709013717,1.0
15.595050811767578,26.419490814208984,-1.4254875183105469,-0.0,-0.0,-1.0,0.10273135768301057,1.0
14.412765502929688,27.291507720947266,-1.3321809768676758,-0.0,-0.0,-1.0,0.15614181840211022,1.0
15.510226249694824,25.883960723876953,-1.3527319431304932,-0.6305636256207926,-0.7761375423487046,0.0001714668274397846,0.17138274469396436,5.0
14.34299087524414,27.12322998046875,-1.3216807842254639,-0.0,-0.0,-1.0,0.16171573737878256,1.0
15.254376411437988,25.77643394470215,-1.3845305442810059,-0.0,-0.0,-1.0,0.1632101447628144,2.0
15.084954261779785,27.461589813232422,-1.2450530529022217,-0.0,-0.0,-1.0,0.1881543704982991,2.0
14.979141235351562,27.467628479003906,-1.2628591060638428,-0.0,-0.0,-1.0,0.204855321109523,1.0
14.785144805908203,27.035465240478516,-1.235487937927246,-0.0,-0.0,-1.0,0.20802692402942918,2.0
14.708642959594727,27.251890182495117,-1.2775180339813232,-0.0,-0.0,-1.0,0.18422309417962593,1.0
14.185783386230469,27.49142837524414,-0.9342482089996338,-0.0,-0.0,-1.0,0.1844054739881496,1.0
15.563841819763184,26.054706573486328,-0.9736101627349854,-0.5327061131694912,0.574360635507386,-0.6215577667211672,0.08679563722631307,4.0
14.531550407409668,26.77800750732422,-1.2439699172973633,-0.0,-0.0,-1.0,0.1582484666023515,1.0
14.345708847045898,26.90515899658203,-1.2925729751586914,-0.0,-0.0,-1.0,0.1364125344821241,1.0
14.252452850341797,26.727001190185547,-1.2855100631713867,-0.0,-0.0,-1.0,0.15747567166343654,1.0
13.757729530334473,25.87628173828125,-1.268996238708496,-0.0,-0.0,-1.0,0.1657225097689455,2.0
14.670276641845703,27.576377868652344,-0.8732144832611084,-0.0,-0.0,-1.0,0.27547547134656364,2.0
14.55643367767334,27.393482208251953,-0.8700103759765625,-0.0,-0.0,-1.0,0.23779895561092382,2.0
14.423555374145508,26.783523559570312,-0.825808048248291,-0.0,-0.0,-1.0,0.22781846320777108,2.0
14.310697555541992,26.94628143310547,-0.8594048023223877,-0.0,-0.0,-1.0,0.18254370642134257,2.0
14.313474655151367,26.422664642333984,-0.8060603141784668,-0.0,-0.0,-1.0,0.19098345804854136,1.0
14.162246704101562,26.217304229736328,-0.8088347911834717,-0.0,-0.0,-1.0,0.10796578838801994,1.0
14.977102279663086,27.350101470947266,-1.3191123008728027,-0.0,-0.0,-1.0,0.1252633590150959,1.0
15.612680435180664,26.37148666381836,-1.4236810207366943,0.09728560317218503,-0.9365197344900457,-0.3368475891647709,0.10568625240664936,3.0
14.955480575561523,26.844627380371094,-1.2326972484588623,-0.0,-0.0,-1.0,0.12379384958568694,1.0
14.716452598571777,27.022212982177734,-1.3010354042053223,-0.0,-0.0,-1.0,0.11064071330666135,2.0
14.462972640991211,27.180648803710938,-1.3681983947753906,-0.0,-0.0,-1.0,0.10605039613997219,1.0
15.5103120803833,25.681421279907227,-1.2990171909332275,-0.0,-0.0,-1.0,0.16585769755515364,1.0
15.525951385498047,25.932456970214844,-1.3475322723388672,-0.0,-0.0,-1.0,0.1700337065440576,1.0
14.625166893005371,26.464412689208984,-1.2195682525634766,-0.0,-0.0,-1.0,0.21554823527687844,1.0
14.42886734008789,26.79395294189453,-1.307478666305542,-0.0,-0.0,-1.0,0.18172800555914476,1.0
15.398588180541992,25.69331169128418,-1.3216590881347656,0.5936467039467759,-0.6641138162225722,-0.45446279275142043,0.19141545125116594,3.0
14.089853286743164,25.775020599365234,-1.1978602409362793,-0.0,-0.0,-1.0,0.1532165581825936,2.0
13.815962791442871,26.00006866455078,-1.281949520111084,-0.0,-0.0,-1.0,0.05657666241481022,2.0
13.727144241333008,25.74529457092285,-1.2585039138793945,-0.0,-0.0,-1.0,0.1804984846854191,1.0
14.747454643249512,27.239452362060547,-0.9217088222503662,-0.0,-0.0,-1.0,0.10305460743961524,1.0
14.617975234985352,27.596776962280273,-0.9912316799163818,-0.0,-0.0,-1.0,0.1387878178386951,1.0
15.51222038269043,26.46259117126465,-1.0803961753845215,-0.0,-0.0,-1.0,0.09289495443261775,1.0
14.502873420715332,26.938690185546875,-0.9115121364593506,-0.0,-0.0,-1.0,0.20649470907701797,1.0
14.466638565063477,27.29729652404785,-0.9678120613098145,-0.0,-0.0,-1.0,0.24556579128735662,1.0
14.230653762817383,27.456409454345703,-1.0228056907653809,-0.0,-0.0,-1.0,0.12493141634974092,2.0
14.556365013122559,26.481643676757812,-0.8395729064941406,-0.0,-0.0,-1.0,0.2502979600892462,2.0
14.42094612121582,26.70034408569336,-0.889350175857544,-0.0,-0.0,-1.0,0.2250652741468864,1.0
13.721931457519531,27.177013397216797,-1.055333137512207,-0.0,-0.0,-1.0,0.11320282768373349,1.0
14.33012866973877,26.16280746459961,-0.8282606601715088,-0.0,-0.0,-1.0,0.19792376579847168,2.0
14.248531341552734,26.17558479309082,-0.8420116901397705,-0.14880193625008412,-0.7211632991406369,-0.6765955067400446,0.25482720566130446,3.0
14.026960372924805,25.94680404663086,-0.8447084426879883,-0.0,-0.0,-1.0,0.07759686724617487,1.0
14.083196640014648,27.266674041748047,-0.5947214365005493,-0.0,-0.0,-1.0,0.16888794936548754,1.0
13.97768783569336,27.18950843811035,-0.5987147092819214,-0.5430919053328602,-0.5714891599593765,-0.6151839744424831,0.26471333292296056,10.0
14.635723114013672,27.602447509765625,-1.1145093441009521,-0.0,-0.0,-1.0,0.17504674275683055,1.0
14.49488639831543,27.40367889404297,-1.1098904609680176,-0.0,-0.0,-1.0,0.14529371613427614,1.0
14.281754493713379,27.463197708129883,-1.1589159965515137,-0.7753743134812857,-0.3679891300494829,-0.5132043200898152,0.17306750270721644,3.0
13.875614166259766,27.060176849365234,-1.1794683933258057,-0.0,-0.0,-1.0,0.13705285620495422,2.0
15.016875267028809,27.549118041992188,-1.0381956100463867,0.4130007033268518,-0.5218147143774953,-0.7464179947661088,0.15882282964656416,3.0
14.890955924987793,27.569198608398438,-1.0636162757873535,-0.0,-0.0,-1.0,0.176092578726234,2.0
14.792123794555664,27.035804748535156,-0.9986639022827148,-0.0,-0.0,-1.0,0.13049086184055084,2.0
14.745113372802734,27.20889663696289,-1.033827781677246,-0.0,-0.0,-1.0,0.11500698449058526,2.0
14.324584007263184,27.487442016601562,-0.7625133991241455,-0.0,-0.0,-1.0,0.19353487030879243,1.0
14.538824081420898,26.705398559570312,-0.9973080158233643,-0.0,-0.0,-1.0,0.2253537985578891,1.0
14.435304641723633,26.853296279907227,-1.0390207767486572,-0.0,-0.0,-1.0,0.176970627399843,1.0
14.071832656860352,27.074548721313477,-0.9480512142181396,-0.0,-0.0,-1.0,0.1508355458349307,1.0
14.406683921813965,26.469024658203125,-0.9890947341918945,-0.0,-0.0,-1.0,0.20498116681304124,1.0
14.532894134521484,25.670833587646484,-0.8517427444458008,-0.0,-0.0,-1.0,0.18868459581416003,1.0
14.320600509643555,26.105012893676758,-0.9553000926971436,-0.0,-0.0,-1.0,0.1249783575020978,1.0
14.412208557128906,25.643735885620117,-0.8733768463134766,-0.0,-0.0,-1.0,0.11910773388689253,1.0
14.049283981323242,25.78954315185547,-0.969956636428833,-0.6500533624509662,0.42436225884524664,-0.6303548994288476,0.12718199708310632,3.0
14.319398880004883,26.949270248413086,-0.6993789672851562,-0.0,-0.0,-1.0,0.13396801789068064,1.0
14.042556762695312,26.47183609008789,-0.694401741027832,-0.0,-0.0,-1.0,0.16766994638452404,1.0
13.97964859008789,26.41058349609375,-0.6992049217224121,-0.0,-0.0,-1.0,0.1789370970659112,1.0
14.341879844665527,27.553794860839844,-0.7771399021148682,-0.0,-0.0,-1.0,0.17450964255298548,1.0
14.130046844482422,27.167802810668945,-0.756263017654419,-0.8080483194534037,-0.5465785636927847,0.21979487514512827,0.22917331102356606,4.0
14.101238250732422,27.36058235168457,-0.7888236045837402,-0.0,-0.0,-1.0,0.1465339983079187,1.0
13.980966567993164,27.122928619384766,-0.7755062580108643,0.7777939790350789,-0.3760399145470705,-0.5036174230943675,0.26657949013353444,3.0
13.886799812316895,27.27008819580078,-0.5781588554382324,-0.0,-0.0,-1.0,0.11080399847513685,1.0
14.021400451660156,27.196643829345703,-0.5054212808609009,0.6829674222677078,0.0966794376691863,-0.724022504106725,0.1853287845666711,5.0
13.867523193359375,27.340564727783203,-0.9205058813095093,-0.0,-0.0,-1.0,0.1891628397737168,2.0
14.61313533782959,27.397754669189453,-0.8989373445510864,0.0009581699007318591,-0.7384320911562671,0.6743271673757651,0.1836099359870509,3.0
14.137096405029297,27.287517547607422,-0.7307113409042358,-0.0,-0.0,-1.0,0.22330606227491895,2.0
13.936579704284668,27.248815536499023,-0.7326120138168335,-0.0,-0.0,-1.0,0.20583758097168436,2.0
14.730583190917969,27.252532958984375,-0.8600345849990845,-0.0,-0.0,-1.0,0.1741293678314706,1.0
14.428326606750488,26.935142517089844,-0.795770525932312,-0.0,-0.0,-1.0,0.269209140659085,1.0
14.020249366760254,27.09882164001465,-0.693434476852417,0.5593571092089904,-0.6451896576641316,-0.5204324452036035,0.23274720560883327,4.0
14.403419494628906,26.812427520751953,-0.7677749395370483,-0.0,-0.0,-1.0,0.2230386574160486,2.0
14.119863510131836,26.48627281188965,-0.7051829099655151,-0.0,-0.0,-1.0,0.17330244080087906,1.0
14.073869705200195,26.337417602539062,-0.6729205846786499,-0.0,-0.0,-1.0,0.1827334248137138,1.0
14.707389831542969,26.39783477783203,-1.2137136459350586,-0.0,-0.0,-1.0,0.24322058270688457,1.0
14.830474853515625,27.498184204101562,-0.9071717262268066,-0.0,-0.0,-1.0,0.13739829812893317,1.0
14.584941864013672,25.704105377197266,-1.3339558839797974,-0.0,-0.0,-1.0,0.19005321132626385,2.0
14.695723533630371,27.208423614501953,-1.110390305519104,-0.0,-0.0,-1.0,0.11298295132536024,2.0
14.778509140014648,26.902706146240234,-1.0640681982040405,-0.0,-0.0,-1.0,0.1695845001838817,2.0
15.696824073791504,26.024333953857422,-1.3487380743026733,-0.0,-0.0,-1.0,0.21393920957968912,2.0
14.464553833007812,25.854991912841797,-1.322819471359253,-0.0,-0.0,-1.0,0.131363450859728,1.0
14.161066055297852,26.009143829345703,-1.3464043140411377,-0.0,-0.0,-1.0,0.12314876912020799,1.0
14.149831771850586,25.814250946044922,-1.1434786319732666,-0.23698837613573856,-0.8954531226060709,-0.37682915862706673,0.1654173968967595,3.0
14.181890487670898,26.663066864013672,-1.212005376815796,0.8049260228057517,-0.117296375137593,-0.5816662773358068,0.19826828685756112,3.0
13.714887619018555,26.427589416503906,-1.2202775478363037,-0.0,-0.0,-1.0,0.05827769342843852,1.0
14.177055358886719,25.821218490600586,-1.1771564483642578,-0.0,-0.0,-1.0,0.16774115412855098,2.0
14.273408889770508,26.240278244018555,-1.208603858947754,-0.0,-0.0,-1.0,0.11733019909613758,1.0
13.811115264892578,26.56156349182129,-1.2607836723327637,-0.0,-0.0,-1.0,0.08019425680149986,1.0
14.368677139282227,25.952604293823242,-1.345163106918335,-0.0,-0.0,-1.0,0.09905276035692369,1.0
14.220832824707031,25.882516860961914,-1.3460819721221924,-0.0,-0.0,-1.0,0.21627873109804113,2.0
14.00370979309082,27.28892707824707,-0.6216974258422852,-0.0,-0.0,-1.0,0.21466047694360282,2.0
13.848550796508789,27.264005661010742,-0.6303446292877197,-0.0,-0.0,-1.0,0.15755809717996297,2.0
14.168676376342773,27.200048446655273,-0.7999532222747803,-0.0,-0.0,-1.0,0.1807759505204132,1.0
14.096162796020508,27.205171585083008,-0.6659994125366211,-0.7804533623331712,0.5065668240389396,-0.3664459059751521,0.22129329390466257,4.0
14.375870704650879,27.3280086517334,-1.329841136932373,-0.0,-0.0,-1.0,0.13941051297087828,1.0
14.085996627807617,26.7269344329834,-1.2841134071350098,-0.0,-0.0,-1.0,0.05256690330389228,1.0
14.11567211151123,25.7791805267334,-1.1820874214172363,-0.0,-0.0,-1.0,0.11955535755222914,2.0
13.762426376342773,26.53011131286621,-1.2833514213562012,-0.0,-0.0,-1.0,0.0689328273811943,1.0
13.717191696166992,25.75258445739746,-1.2040891647338867,-0.0,-0.0,-1.0,0.19083299752884858,1.0
14.14187240600586,25.858461380004883,-1.110954999923706,-0.0,-0.0,-1.0,0.17830625862843846,2.0
13.792387962341309,26.759416580200195,-1.2280972003936768,-0.0,-0.0,-1.0,0.0684685807496105,1.0
13.758712768554688,25.709428787231445,-1.1162168979644775,-0.0,-0.0,-1.0,0.1256738670258755,1.0
14.492488861083984,26.849336624145508,-0.7356972694396973,-0.0,-0.0,-1.0,0.2454758040775177,2.0
14.22080135345459,27.042673110961914,-0.7734575271606445,-0.0,-0.0,-1.0,0.13250024376882022,2.0
14.203907012939453,27.28702735900879,-0.7986464500427246,-0.0,-0.0,-1.0,0.13989478312160278,1.0
14.080565452575684,27.108177185058594,-0.5324690341949463,-0.0,-0.0,-1.0,0.14249023338785163,2.0
14.639673233032227,27.301429748535156,-0.9352452754974365,-0.0,-0.0,-1.0,0.13889679151110462,2.0
14.531578063964844,26.745044708251953,-0.8773906230926514,-0.0,-0.0,-1.0,0.2353101335386603,1.0
13.717338562011719,25.839183807373047,-0.8106303215026855,-0.0,-0.0,-1.0,0.10041028099296943,1.0
14.078166007995605,27.06786346435547,-0.7661736011505127,-0.7866080520052411,-0.09941634819307048,-0.6093965558094944,0.25247017910912134,3.0
14.834686279296875,27.105485916137695,-0.9866592884063721,-0.0,-0.0,-1.0,0.171390526083841,2.0
14.833345413208008,27.40308952331543,-1.0229661464691162,-0.0,-0.0,-1.0,0.13403591365284048,1.0
14.371572494506836,26.1091365814209,-0.8862569332122803,-0.0,-0.0,-1.0,0.16836723518564434,2.0
14.483285903930664,26.599023818969727,-0.9407761096954346,-0.0,-0.0,-1.0,0.2854035523370546,2.0
13.772019386291504,27.065881729125977,-1.0308787822723389,-0.0,-0.0,-1.0,0.17720529423989378,1.0
14.66365909576416,27.239299774169922,-0.8430612087249756,-0.0,-0.0,-1.0,0.14318739760265636,1.0
14.088967323303223,27.068546295166016,-0.845242977142334,-0.0,-0.0,-1.0,0.28635436322699026,1.0
13.856693267822266,27.37148666381836,-0.8914449214935303,-0.0,-0.0,-1.0,0.19982783683572536,2.0
14.430009841918945,26.704402923583984,-0.7875213623046875,-0.0,-0.0,-1.0,0.22609638576860858,2.0
14.1797513961792,27.127655029296875,-0.6872999668121338,-0.0,-0.0,-1.0,0.23255762034451796,1.0
14.3507661819458,27.374286651611328,-0.7095532417297363,0.5687697570487764,0.10319625802591935,-0.8159972400664868,0.20169107053462693,4.0
14.057368278503418,27.128215789794922,-0.6926925182342529,0.7643294657590647,-0.4258158954129951,-0.48423268269096853,0.2619176184354417,6.0
14.526498794555664,25.733539581298828,-1.4347305297851562,-0.0,-0.0,-1.0,0.16190569604911728,1.0
14.009078025817871,27.165164947509766,-0.5805416107177734,0.2664455109139578,0.09259443233582759,-0.959392026657615,0.19955682588316231,6.0
14.641101837158203,25.78423309326172,-1.3804714679718018,-0.0,-0.0,-1.0,0.22366590211561835,2.0
14.748530387878418,25.980247497558594,-1.4065115451812744,-0.0,-0.0,-1.0,0.09460140019478201,1.0
14.446789741516113,25.81302261352539,-1.3932311534881592,-0.0,-0.0,-1.0,0.1200955449755133,2.0
14.244962692260742,25.834400177001953,-1.4053452014923096,-0.0,-0.0,-1.0,0.17859487779232697,2.0
13.952606201171875,27.18320083618164,-0.5629689693450928,-0.3121162921398116,0.7900446330369405,-0.5276484606159877,0.27931424240606095,5.0
14.795146942138672,25.85896110534668,-1.3904142379760742,-0.0,-0.0,-1.0,0.10098354890779217,2.0
14.544525146484375,25.836196899414062,-1.3959550857543945,-0.04482807985814259,0.9299582047093856,-0.36492215711015474,0.13365893840927942,3.0
14.256877899169922,25.826608657836914,-1.4052367210388184,-0.0,-0.0,-1.0,0.18688439950276697,2.0
14.154781341552734,27.278047561645508,-0.5998578071594238,-0.0,-0.0,-1.0,0.13110691167333646,2.0
14.001545906066895,27.2060489654541,-0.5976288318634033,-0.8465008817832186,-0.3060588872579057,-0.43561934607026587,0.2928360788039475,8.0
14.888496398925781,26.9866943359375,-0.9589831829071045,-0.0,-0.0,-1.0,0.14669230229796726,1.0
14.570523262023926,26.68880844116211,-0.9291415214538574,-0.0,-0.0,-1.0,0.19007170129653284,2.0
14.166443824768066,27.046236038208008,-0.9892318248748779,-0.0,-0.0,-1.0,0.17226117350411688,1.0
13.746477127075195,25.749296188354492,-0.8318676948547363,-0.0,-0.0,-1.0,0.11350857804746982,2.0
14.989988327026367,26.465587615966797,-1.3128817081451416,-0.0,-0.0,-1.0,0.07261445256639373,2.0
14.783761978149414,25.91838836669922,-1.2352216243743896,-0.0,-0.0,-1.0,0.1838646327059851,1.0
14.554807662963867,26.20892906188965,-1.2845261096954346,-0.0,-0.0,-1.0,0.17546370357273447,1.0
14.330272674560547,25.895984649658203,-1.243042230606079,-0.0,-0.0,-1.0,0.20446207382065787,2.0
14.26998519897461,26.144804000854492,-1.2822859287261963,-0.0,-0.0,-1.0,0.1290640181669399,1.0
13.947423934936523,26.083127975463867,-1.2817630767822266,-0.0,-0.0,-1.0,0.0647403342192972,2.0
14.842844009399414,27.129541397094727,-1.0027265548706055,-0.0,-0.0,-1.0,0.15479161605889932,2.0
14.993032455444336,27.560888290405273,-1.0596165657043457,-0.0,-0.0,-1.0,0.1794393379980047,2.0
14.441291809082031,26.13509178161621,-0.8731479644775391,-0.5333607969967483,-0.02094964275838334,-0.8456283892439334,0.2150493713841083,3.0
15.052230834960938,26.383686065673828,-1.3589110374450684,-0.0,-0.0,-1.0,0.08419525320812805,1.0
14.83913803100586,25.67500877380371,-1.2449209690093994,-0.0,-0.0,-1.0,0.13505146436928608,1.0
14.735300064086914,26.057661056518555,-1.3081693649291992,-0.0,-0.0,-1.0,0.15109748990928917,1.0
14.42315673828125,25.966571807861328,-1.2962241172790527,-0.0,-0.0,-1.0,0.12048702718717372,2.0
14.166587829589844,26.172048568725586,-1.3327126502990723,-0.0,-0.0,-1.0,0.05783152804607956,1.0
13.948756217956543,25.859071731567383,-1.2841954231262207,-0.0,-0.0,-1.0,0.17399276637182712,1.0
14.07367992401123,26.11716651916504,-1.3248772621154785,-0.0,-0.0,-1.0,0.05916376458391694,2.0
14.200441360473633,27.194612503051758,-0.6034066677093506,-0.0,-0.0,-1.0,0.2115724756028797,1.0
14.017565727233887,27.140222549438477,-0.5997085571289062,-0.9476488664160212,-0.08621385362776225,-0.307455358423106,0.1976811122263376,3.0
14.88417911529541,26.034446716308594,-1.381845235824585,-0.0,-0.0,-1.0,0.08310923607476589,1.0
