x,y,z,nx,ny,nz,curvature,density
50.14856719970703,5.82090950012207,-1.5082188844680786,-0.0,-0.0,-1.0,0.13528700335688199,2.0
50.00547790527344,5.8079023361206055,-1.1039167642593384,-0.8073058034337542,-0.12502536286237526,-0.5767373738395247,0.21951260171192974,9.0
50.077430725097656,5.783231735229492,-1.264458179473877,-0.0,-0.0,-1.0,0.17181376685389954,1.0
50.00508117675781,5.806879043579102,-1.194511890411377,-0.3822304458930619,0.8605898647595713,-0.3365783280389479,0.24021491610739423,6.0
50.17878723144531,5.920889854431152,-1.4037072658538818,0.05568124921029244,0.9851281297737328,-0.16254896620676798,0.1922254105458832,3.0
50.1764030456543,5.8972930908203125,-1.4577497243881226,-0.0,-0.0,-1.0,0.21833911622372484,2.0
50.364013671875,6.778408050537109,-1.184091567993164,-0.0,-0.0,-1.0,0.15002170559918473,1.0
51.04819869995117,7.15343713760376,-1.6535016298294067,-0.0,-0.0,-1.0,0.15099878736640657,2.0
50.133426666259766,5.912734508514404,-1.5230759382247925,-0.0,-0.0,-1.0,0.20607443570636685,1.0
50.46432876586914,6.791579246520996,-1.5500832796096802,-0.0,-0.0,-1.0,0.16422340319214068,2.0
49.966705322265625,5.799563407897949,-0.9976848363876343,-0.4241624674048273,0.5774538567676513,-0.6975910295790888,0.11229142754029149,6.0
50.00261688232422,5.791776657104492,-1.2674555778503418,-0.8277261740760389,0.36756284469227024,-0.42398931112844007,0.15166790495637109,3.0
50.022621154785156,5.854946136474609,-1.3324472904205322,0.42161401127405795,-0.36923264377705467,-0.8281961604999177,0.18401736595740392,4.0
49.97947692871094,5.818495750427246,-1.1226035356521606,0.42981034818012676,0.8143102431477918,0.39007934129079747,0.19824162116578387,10.0
50.349571228027344,6.477700710296631,-1.5479536056518555,-0.0,-0.0,-1.0,0.2206484752024287,2.0
51.294654846191406,5.767348766326904,-1.6466691493988037,-0.0,-0.0,-1.0,0.05742183895856585,2.0
49.77049255371094,6.004129409790039,-1.103400707244873,-0.0,-0.0,-1.0,0.1633992686601291,1.0
51.0067138671875,7.0818986892700195,-1.6730127334594727,-0.0,-0.0,-1.0,0.1362006473334097,1.0
50.36736297607422,6.458640098571777,-1.5566563606262207,-0.0,-0.0,-1.0,0.2328338160049892,2.0
49.96958541870117,5.836284637451172,-1.161996841430664,-0.7702739212343236,0.5978430757331631,-0.22194986610541134,0.19131162738209942,11.0
49.92546844482422,5.773388385772705,-1.094398021697998,0.006844914198413298,0.8509825265430532,-0.5251493946183485,0.18419902486355227,3.0
50.124366760253906,5.833151817321777,-1.426537275314331,-0.45041285931038727,0.8918458049201979,0.04170511256531211,0.15207355115033913,3.0
49.88920593261719,5.664735317230225,-1.367490530014038,-0.0,-0.0,-1.0,0.15816107882003105,1.0
49.915061950683594,5.813169956207275,-1.3622066974639893,-0.0,-0.0,-1.0,0.20620292890847275,1.0
50.021060943603516,5.732008457183838,-1.1672539710998535,-0.0,-0.0,-1.0,0.23910680922558458,2.0
49.908199310302734,5.8760552406311035,-1.2036375999450684,-0.5336924646825145,0.843808207151367,-0.05621443484638874,0.18906637704649337,3.0
49.92728042602539,5.815778732299805,-0.9627447128295898,-0.5514207650340801,0.7945717559262586,-0.25414732847994265,0.23730326954789133,3.0
50.24933624267578,5.93497371673584,-1.460228443145752,-0.0,-0.0,-1.0,0.18492148170441103,2.0
49.94861602783203,7.584611892700195,-1.734105110168457,-0.0,-0.0,-1.0,0.036565987581238774,2.0
49.72369384765625,7.519878387451172,-1.7192788124084473,-0.0,-0.0,-1.0,0.030913883931685298,1.0
50.030548095703125,5.951759338378906,-1.1963465213775635,-0.0,-0.0,-1.0,0.20619705217887682,1.0
51.38642501831055,6.711040496826172,-1.5926189422607422,-0.0,-0.0,-1.0,0.040326329797373765,1.0
51.42036819458008,7.632978439331055,-1.584211826324463,-0.0,-0.0,-1.0,0.10161055602642265,1.0
50.60819625854492,6.95182991027832,-1.5231173038482666,-0.0,-0.0,-1.0,0.16417673676564723,1.0
49.956443786621094,5.758121490478516,-1.1187336444854736,0.17273515612870702,0.9123127727526893,-0.371278831216501,0.19638579755248886,8.0
50.92200469970703,7.385959625244141,-1.7281255722045898,-0.0,-0.0,-1.0,0.2037084571219058,1.0
49.930686950683594,6.811010360717773,-1.645075798034668,-0.0,-0.0,-1.0,0.08431773643539045,1.0
50.25809097290039,7.197595596313477,-1.6696672439575195,-0.0,-0.0,-1.0,0.11388438822617082,1.0
50.1440544128418,7.57719612121582,-1.6540565490722656,-0.0,-0.0,-1.0,0.045211111913244915,1.0
51.66498565673828,6.063982009887695,-1.6594934463500977,-0.0,-0.0,-1.0,0.06822127701508901,1.0
51.67094039916992,6.871545791625977,-1.6633481979370117,-0.0,-0.0,-1.0,0.025520038119511916,1.0
50.73784637451172,6.988250732421875,-1.5665488243103027,-0.0,-0.0,-1.0,0.10150085117258188,1.0
51.189388275146484,7.582126617431641,-1.6163458824157715,-0.0,-0.0,-1.0,0.1271758516484999,1.0
50.33021926879883,6.660833358764648,-1.589101791381836,-0.0,-0.0,-1.0,0.21721954869323287,1.0
51.25214385986328,5.725372314453125,-1.6949396133422852,-0.0,-0.0,-1.0,0.056636843363802945,1.0
51.57045364379883,6.104408264160156,-1.7121233940124512,-0.0,-0.0,-1.0,0.07415785169108738,2.0
51.349117279052734,6.452829360961914,-1.6834139823913574,-0.0,-0.0,-1.0,0.09824433577070012,1.0
50.53617477416992,7.568170547485352,-1.5826921463012695,-0.0,-0.0,-1.0,0.09025078417651129,1.0
49.863468170166016,5.823095321655273,-1.0438799858093262,-0.0,-0.0,-1.0,0.12594763053461785,2.0
49.74287796020508,7.482114791870117,-1.7688438892364502,-0.0,-0.0,-1.0,0.030913883931685305,1.0
49.83820724487305,7.144697189331055,-1.7460782527923584,-0.0,-0.0,-1.0,0.01512184264476219,2.0
50.124244689941406,7.301263809204102,-1.7768666744232178,-0.0,-0.0,-1.0,0.04485173908006676,1.0
50.49032211303711,7.49717903137207,-1.8164575099945068,-0.0,-0.0,-1.0,0.09319451097824677,2.0
50.02039337158203,7.535161972045898,-1.766996145248413,-0.0,-0.0,-1.0,0.03782826955966106,2.0
50.04621124267578,7.211540222167969,-1.7757861614227295,-0.0,-0.0,-1.0,0.03037348401550472,1.0
50.34403991699219,7.595216751098633,-1.8016979694366455,-0.0,-0.0,-1.0,0.09343716161222473,1.0
50.04399108886719,5.838161468505859,-1.1661334037780762,-0.2353288735235383,0.5561814965310096,0.7970460866240231,0.26508313801091865,4.0
50.08073806762695,5.742624282836914,-1.3168303966522217,-0.0,-0.0,-1.0,0.15853628707806194,1.0
50.0362548828125,5.924289703369141,-1.3120474815368652,-0.0,-0.0,-1.0,0.09302198018998066,1.0
50.445335388183594,6.908929824829102,-1.3579308986663818,-0.0,-0.0,-1.0,0.17485580565011813,2.0
50.05829620361328,5.915409088134766,-1.023794412612915,-0.0,-0.0,-1.0,0.11199368379719236,1.0
50.03108215332031,5.988018035888672,-1.4787726402282715,-0.0,-0.0,-1.0,0.18855245917345462,1.0
50.399681091308594,7.061968803405762,-1.5051517486572266,-0.0,-0.0,-1.0,0.09251244994970725,1.0
50.5036506652832,6.8151960372924805,-1.5199017524719238,-0.8498216656048179,0.07589445032238697,-0.5215775772393939,0.19559496386740188,5.0
50.98268508911133,7.504624366760254,-1.5646932125091553,-0.0,-0.0,-1.0,0.18827539363039852,1.0
50.292945861816406,6.4602813720703125,-1.39054274559021,-0.0,-0.0,-1.0,0.18209796192810632,1.0
49.84660339355469,5.770181655883789,-0.9765732288360596,-0.0,-0.0,-1.0,0.17350876474846724,1.0
50.44563293457031,7.306353569030762,-1.736036777496338,-0.0,-0.0,-1.0,0.05206083933748345,2.0
50.707244873046875,7.0449066162109375,-1.762831211090088,-0.0,-0.0,-1.0,0.0721654791795165,1.0
50.550926208496094,7.5700483322143555,-1.7643203735351562,-0.0,-0.0,-1.0,0.0813891648025845,1.0
50.156959533691406,5.8161725997924805,-1.3647165298461914,-0.0,-0.0,-1.0,0.13162461937800238,2.0
50.519508361816406,6.415534973144531,-1.4340014457702637,-0.0,-0.0,-1.0,0.1303780652844057,1.0
50.449951171875,6.609057426452637,-1.429861068725586,-0.7506305050241884,0.39456011527438384,0.5299775092980803,0.19665230585357366,3.0
50.8251953125,7.43194580078125,-1.5108966827392578,-0.0,-0.0,-1.0,0.20502651535812405,1.0
51.129188537597656,7.50291633605957,-1.5575892925262451,-0.0,-0.0,-1.0,0.15677062831628472,1.0
50.45613098144531,6.690838813781738,-1.5882911682128906,-0.7731081593853124,0.6319134204439281,0.05467360382039608,0.1823845869050891,5.0
50.93645095825195,6.899384498596191,-1.6633775234222412,-0.0,-0.0,-1.0,0.051072770208278044,1.0
51.320274353027344,6.590577125549316,-1.7157180309295654,-0.0,-0.0,-1.0,0.04540625073599066,2.0
50.732200622558594,7.298425674438477,-1.6396758556365967,-0.0,-0.0,-1.0,0.1020744729329366,1.0
50.982574462890625,7.141599655151367,-1.674480676651001,-0.0,-0.0,-1.0,0.15909409496055021,1.0
51.10084915161133,7.496224403381348,-1.698737382888794,-0.0,-0.0,-1.0,0.26249474013534857,2.0
49.75337219238281,5.768678665161133,-1.4719929695129395,-0.0,-0.0,-1.0,0.19419560830110252,2.0
49.936336517333984,5.858576774597168,-1.4999916553497314,-0.0,-0.0,-1.0,0.21045809821969735,1.0
51.3040771484375,6.57768440246582,-1.7085914611816406,-0.0,-0.0,-1.0,0.065236359274473,2.0
49.86642074584961,5.756442070007324,-1.4740259647369385,-0.518676636006979,0.845720705080719,0.1254234278683823,0.14732136839784987,3.0
49.82695770263672,5.87440299987793,-1.4695730209350586,-0.0,-0.0,-1.0,0.1875172201131306,1.0
50.48708724975586,6.721875190734863,-1.5846097469329834,-0.7039193699698142,0.70833422592682,-0.05253708177994419,0.1347030414793599,3.0
51.2752685546875,6.697030067443848,-1.706347942352295,-0.0,-0.0,-1.0,0.03872557722171502,1.0
50.89712142944336,7.10349178314209,-1.6554784774780273,-0.0,-0.0,-1.0,0.14890442924546946,2.0
50.99261474609375,7.339765548706055,-1.675145149230957,-0.0,-0.0,-1.0,0.19023675507794535,1.0
51.14990234375,7.492745399475098,-1.7029571533203125,-0.0,-0.0,-1.0,0.219178791689777,2.0
49.959205627441406,5.792628288269043,-1.1816084384918213,-0.6061836141159807,0.5272546894718038,-0.59543590621265,0.20538755152445237,8.0
50.29857635498047,6.7710981369018555,-1.2483837604522705,-0.0,-0.0,-1.0,0.21296071020780638,1.0
50.9073600769043,7.255224227905273,-1.3499808311462402,0.09512882662302077,-0.9253857847229947,-0.366894611268596,0.11090324426667574,3.0
49.93037414550781,5.7818193435668945,-1.1515214443206787,-0.5230293823030989,0.7416412965400383,0.4200100623961881,0.20479479620586144,5.0
50.42216873168945,6.573680877685547,-1.238243579864502,-0.0,-0.0,-1.0,0.13157375315731681,1.0
50.63524627685547,7.569182395935059,-1.2895739078521729,-0.0,-0.0,-1.0,0.09021643203313913,2.0
50.85091018676758,7.292165756225586,-1.3176393508911133,-0.0,-0.0,-1.0,0.1615484709764463,1.0
49.95857238769531,5.838817596435547,-0.9586093425750732,-0.5904758585152998,0.7330340780861576,-0.33763782500631745,0.1354232918560877,5.0
50.492733001708984,6.56022834777832,-1.0546481609344482,-0.0,-0.0,-1.0,0.061213738348746854,1.0
49.96472930908203,5.700295448303223,-1.220689296722412,-0.0,-0.0,-1.0,0.13549010975391973,1.0
50.32221984863281,6.681099891662598,-1.2885136604309082,0.033599953877749916,-0.620232508990396,-0.7836980782743385,0.16624073164029685,4.0
50.43305969238281,6.539319038391113,-1.3060345649719238,-0.0,-0.0,-1.0,0.1893455716645006,1.0
50.397029876708984,6.835630416870117,-1.3030283451080322,-0.0,-0.0,-1.0,0.1478518223246526,2.0
51.43476104736328,7.583484649658203,-1.4936492443084717,-0.0,-0.0,-1.0,0.09681964971345398,1.0
49.941795349121094,5.803825378417969,-1.0108178853988647,0.3553575124963713,0.8523280352500632,-0.38374204700444126,0.12170069911559206,4.0
50.52830123901367,6.958113670349121,-1.0958994626998901,-0.0,-0.0,-1.0,0.15687673361735044,1.0
50.35358428955078,6.813711166381836,-1.7552576065063477,-0.5007545633980156,0.864728149253667,0.038601750276257285,0.1473824047126857,3.0
49.92197036743164,6.9337921142578125,-1.6899628639221191,-0.0,-0.0,-1.0,0.11439284971440843,1.0
50.31024932861328,7.135846138000488,-1.748976230621338,-0.0,-0.0,-1.0,0.11565303343750373,1.0
50.48895263671875,6.880105972290039,-1.775805950164795,-0.0,-0.0,-1.0,0.16486008410275857,1.0
50.406349182128906,7.366720199584961,-1.7641558647155762,-0.0,-0.0,-1.0,0.0771446161743817,1.0
50.534271240234375,7.415663719177246,-1.783803939819336,-0.0,-0.0,-1.0,0.09985541913095396,1.0
51.43888854980469,5.706668853759766,-1.677173137664795,-0.0,-0.0,-1.0,0.045372531639794024,2.0
49.85773468017578,5.745594024658203,-1.4367988109588623,-0.518676636006979,0.845720705080719,0.1254234278683823,0.21451412601775655,3.0
50.121055603027344,5.855342864990234,-1.4775190353393555,-0.0,-0.0,-1.0,0.21923660196565303,2.0
51.315940856933594,5.954496383666992,-1.6609883308410645,-0.0,-0.0,-1.0,0.07979237408414273,2.0
50.48252868652344,6.720519065856934,-1.5418157577514648,0.3432683592677423,0.9392370209365072,-0.0008074824748499583,0.14062695918731075,4.0
51.47393798828125,6.529668807983398,-1.6926345825195312,-0.0,-0.0,-1.0,0.07107085465298367,1.0
51.030662536621094,7.165502548217773,-1.633241891860962,-0.0,-0.0,-1.0,0.15099878736640646,2.0
50.61109924316406,7.60186767578125,-1.5749244689941406,-0.0,-0.0,-1.0,0.067618682276358,2.0
51.04412841796875,7.406357765197754,-1.639402151107788,-0.0,-0.0,-1.0,0.14420898764063297,1.0
51.46653747558594,7.548827171325684,-1.7081427574157715,-0.0,-0.0,-1.0,0.112895155371,1.0
49.921791076660156,5.759374618530273,-1.1752490997314453,-0.8900118657472947,0.4450503851679091,-0.09904056487578794,0.14967879946322513,3.0
49.97522735595703,5.815037727355957,-1.183086633682251,-0.49430991293209187,0.7235211046826271,-0.48184532897590615,0.2544732489281016,10.0
50.98715591430664,6.240415573120117,-1.3317086696624756,-0.0,-0.0,-1.0,0.049426727128313745,2.0
50.47270202636719,6.719159126281738,-1.2609243392944336,-0.0,-0.0,-1.0,0.16455377817795266,1.0
49.991943359375,5.79536247253418,-1.2435097694396973,-0.8194671443352494,0.36008159836324777,-0.44588657960876193,0.1549778244553198,4.0
50.46583557128906,6.589071273803711,-1.3154733180999756,-0.0,-0.0,-1.0,0.10939134437859008,1.0
50.445884704589844,6.83234977722168,-1.3128025531768799,-0.0,-0.0,-1.0,0.16135106920236214,2.0
50.92467498779297,7.272774696350098,-1.3897573947906494,-0.4512694229957074,-0.6631041613312889,-0.5972007862471796,0.11090324426667571,4.0
49.7205810546875,5.774209022521973,-1.507312297821045,-0.0,-0.0,-1.0,0.18175480551285597,2.0
50.93406677246094,5.764487266540527,-1.7128932476043701,-0.0,-0.0,-1.0,0.021974667413051038,1.0
51.02317428588867,6.067604064941406,-1.7221031188964844,-0.0,-0.0,-1.0,0.04384507188863921,1.0
50.55766296386719,6.664013862609863,-1.6311421394348145,-0.0,-0.0,-1.0,0.19459066404856293,1.0
51.3031005859375,6.53514289855957,-1.7627110481262207,-0.0,-0.0,-1.0,0.042504355429843856,1.0
50.99530792236328,6.980975151062012,-1.7026333808898926,-0.0,-0.0,-1.0,0.08933520490057388,1.0
50.99858856201172,7.244040489196777,-1.699939489364624,-0.0,-0.0,-1.0,0.16784223547517957,1.0
51.468196868896484,7.4448137283325195,-1.7810254096984863,-0.0,-0.0,-1.0,0.11508520686543817,1.0
50.622413635253906,7.596809387207031,-1.629626750946045,-0.0,-0.0,-1.0,0.08775665042110133,1.0
51.558250427246094,7.549236297607422,-1.7962112426757812,-0.0,-0.0,-1.0,0.11508520686543816,1.0
50.16889953613281,5.767643928527832,-1.5495439767837524,-0.0,-0.0,-1.0,0.10328151577565975,2.0
50.96874237060547,5.734379768371582,-1.6921366453170776,-0.0,-0.0,-1.0,0.021974667413051034,1.0
51.15100860595703,5.926447868347168,-1.7203694581985474,-0.0,-0.0,-1.0,0.06271209607915676,1.0
50.51017379760742,6.617627143859863,-1.5905681848526,-0.0,-0.0,-1.0,0.25226005921060757,1.0
50.94157791137695,6.594954490661621,-1.6691302061080933,-0.0,-0.0,-1.0,0.029032377536196058,1.0
51.3554801940918,6.559273719787598,-1.74517023563385,-0.0,-0.0,-1.0,0.045611329114803416,1.0
51.10810470581055,7.010161399841309,-1.6925941705703735,-0.0,-0.0,-1.0,0.05922810285915311,1.0
51.25315475463867,6.81102180480957,-1.7222923040390015,-0.0,-0.0,-1.0,0.03496589859904376,1.0
51.09663772583008,7.272821426391602,-1.6867252588272095,-0.0,-0.0,-1.0,0.17606894583664306,1.0
51.278038024902344,7.421721458435059,-1.7184895277023315,-0.0,-0.0,-1.0,0.1506065924524877,1.0
49.953277587890625,5.711618423461914,-1.4044835567474365,-0.0,-0.0,-1.0,0.24582990210611905,1.0
50.097801208496094,5.819598197937012,-1.4236054420471191,-0.37703650306831776,0.9261951956620789,0.0024361622478286343,0.1709053242073761,4.0
51.3436279296875,5.937264442443848,-1.6320347785949707,-0.1480273494414026,-0.6904993749005883,-0.7080243760487696,0.08001227285639241,4.0
50.309486389160156,6.603615760803223,-1.4255080223083496,-0.0,-0.0,-1.0,0.199725241259559,1.0
50.497581481933594,6.683289527893066,-1.455183982849121,-0.0,-0.0,-1.0,0.09227655547268418,2.0
51.380035400390625,6.653604507446289,-1.6120169162750244,-0.0,-0.0,-1.0,0.07214322638575447,1.0
50.47175979614258,6.842718124389648,-1.4445877075195312,-0.0,-0.0,-1.0,0.1323717084072494,2.0
51.212562561035156,7.500160217285156,-1.5555329322814941,-0.0,-0.0,-1.0,0.17445072728053018,1.0
50.57610321044922,6.526894569396973,-0.869379997253418,-0.0,-0.0,-1.0,0.09457442764464166,1.0
50.343963623046875,6.809051513671875,-1.7756779193878174,-0.5007545633980156,0.864728149253667,0.038601750276257285,0.1316469968375784,3.0
50.435943603515625,6.944334983825684,-1.78389573097229,-0.0,-0.0,-1.0,0.19627514507812743,1.0
50.98666000366211,7.626293182373047,-1.8491172790527344,-0.0,-0.0,-1.0,0.18882044829553699,1.0
50.039527893066406,6.837455749511719,-1.71494722366333,-0.0,-0.0,-1.0,0.04821363482703367,1.0
50.39149475097656,7.178866386413574,-1.7590632438659668,-0.0,-0.0,-1.0,0.08404627323693867,1.0
50.447723388671875,7.452082633972168,-1.7521226406097412,-0.0,-0.0,-1.0,0.08533217644333897,2.0
49.979393005371094,5.818464279174805,-1.203155755996704,-0.5899427281627702,0.6307709281003028,-0.5040789757085196,0.22068565732135315,9.0
50.64521026611328,6.40345573425293,-1.2766680717468262,-0.0,-0.0,-1.0,0.06931918193785758,1.0
50.374996185302734,6.719203948974609,-1.2162582874298096,-0.0,-0.0,-1.0,0.15123894742470423,1.0
50.91775131225586,7.379026412963867,-1.275789737701416,-0.0,-0.0,-1.0,0.130256501908578,2.0
49.91850280761719,7.097146034240723,-1.739985704421997,-0.0,-0.0,-1.0,0.027290373410786297,1.0
50.265377044677734,7.416552543640137,-1.7879855632781982,-0.0,-0.0,-1.0,0.06509513486670597,2.0
49.9176025390625,5.683078765869141,-1.309819221496582,-0.0,-0.0,-1.0,0.1526944163288203,1.0
50.00068664550781,5.750692367553711,-1.3193655014038086,-0.030875067165997878,0.26640549625534843,-0.9633664109737459,0.22075929038989792,4.0
50.353485107421875,6.701677322387695,-1.3200156688690186,-0.4018520470790327,0.8964603887114599,0.18674502330635037,0.1403105004506993,3.0
50.29692840576172,6.978677749633789,-1.2934112548828125,-0.0,-0.0,-1.0,0.20848799929193107,1.0
50.908077239990234,7.291899681091309,-1.3887674808502197,-0.2995909329968325,-0.21185208383951173,-0.9302494114155322,0.11090324426667571,3.0
50.42414855957031,6.4432878494262695,-0.8041203022003174,-0.0,-0.0,-1.0,0.1115196859461852,1.0
49.836517333984375,6.397125244140625,-1.6219844818115234,-0.0,-0.0,-1.0,0.09565617588105235,1.0
50.18075942993164,6.282320022583008,-1.7029821872711182,-0.0,-0.0,-1.0,0.09254187283219216,1.0
50.35753631591797,6.335746765136719,-1.7345831394195557,-0.0,-0.0,-1.0,0.15696087047206084,1.0
50.24433135986328,6.562355995178223,-1.6910524368286133,-0.0,-0.0,-1.0,0.1273206820427968,1.0
50.45433044433594,6.752026557922363,-1.7186329364776611,-0.0,-0.0,-1.0,0.16893847227047426,1.0
50.69233703613281,6.948739051818848,-1.7529723644256592,-0.0,-0.0,-1.0,0.07959080248013052,1.0
50.78196334838867,6.925975799560547,-1.7740848064422607,-0.0,-0.0,-1.0,0.06299269783382518,1.0
51.064693450927734,7.5224103927612305,-1.7901432514190674,-0.0,-0.0,-1.0,0.2805586222523614,1.0
50.31697463989258,7.1023054122924805,-1.660055160522461,-0.0,-0.0,-1.0,0.1742816168621994,1.0
50.64347839355469,7.57784366607666,-1.693103551864624,-0.0,-0.0,-1.0,0.10264192650510479,2.0
49.936241149902344,5.788103103637695,-1.1760075092315674,-0.7086888304366402,0.668158746848272,-0.226548075746615,0.19964108337148323,6.0
50.4426383972168,6.733588218688965,-1.203437089920044,-0.0,-0.0,-1.0,0.13314965961584263,1.0
50.42624282836914,5.715750694274902,-1.6720037460327148,-0.0,-0.0,-1.0,0.07883279517350167,2.0
50.4970817565918,5.770340919494629,-1.6802055835723877,-0.0,-0.0,-1.0,0.0493446676121684,1.0
50.741477966308594,5.878263473510742,-1.7176132202148438,-0.0,-0.0,-1.0,0.01651442007660135,1.0
50.972782135009766,6.473579406738281,-1.705108642578125,-0.0,-0.0,-1.0,0.05165014419982778,1.0
51.20085144042969,6.455191612243652,-1.754514455795288,-0.0,-0.0,-1.0,0.06682202055019548,1.0
51.31438446044922,6.614143371582031,-1.7635138034820557,-0.0,-0.0,-1.0,0.04543089787540048,1.0
51.60528564453125,6.881217002868652,-1.8015618324279785,-0.0,-0.0,-1.0,0.027261720369725104,1.0
50.15642547607422,5.845900535583496,-1.604997158050537,-0.0,-0.0,-1.0,0.18041477774681253,1.0
50.912986755371094,6.464836120605469,-1.6935415267944336,-0.0,-0.0,-1.0,0.0780018121479602,1.0
50.433929443359375,6.657747268676758,-1.5757801532745361,-0.8368738016796132,0.546382502148607,0.033292662977585916,0.22269541964525238,4.0
50.816314697265625,6.563611030578613,-1.6639318466186523,-0.0,-0.0,-1.0,0.1111755867651288,1.0
50.921417236328125,7.208513259887695,-1.6252107620239258,-0.0,-0.0,-1.0,0.17986883508121757,1.0
51.45539855957031,7.266253471374512,-1.735511302947998,-0.0,-0.0,-1.0,0.06468038914000206,1.0
50.900665283203125,7.541389465332031,-1.591066837310791,0.011371725220567102,-0.7855099890584359,-0.6187444876157874,0.19511680870825834,4.0
51.355464935302734,7.414775848388672,-1.700974464416504,-0.0,-0.0,-1.0,0.12257325724910113,1.0
51.70304870605469,7.449052810668945,-1.7747817039489746,-0.0,-0.0,-1.0,0.09447702246557554,1.0
49.95564651489258,5.8391923904418945,-1.0697362422943115,-0.7005149643508306,0.3174816929752457,-0.6391276549689636,0.15724126441089792,3.0
49.7970085144043,7.0678300857543945,-1.7663758993148804,-0.0,-0.0,-1.0,0.01682669639089189,1.0
50.67461013793945,5.651520729064941,-1.6628769636154175,-0.0,-0.0,-1.0,0.025623848807448665,1.0
50.917572021484375,5.713835716247559,-1.7048171758651733,-0.0,-0.0,-1.0,0.02197466741305104,1.0
50.175384521484375,5.857985496520996,-1.5393015146255493,-0.0,-0.0,-1.0,0.20607443570636694,1.0
50.982566833496094,5.826168060302734,-1.705464243888855,-0.0,-0.0,-1.0,0.03265713361823231,1.0
51.42489242553711,6.145757675170898,-1.7630468606948853,-0.0,-0.0,-1.0,0.08296070128888822,2.0
50.55717468261719,6.564855575561523,-1.5357426404953003,-0.0,-0.0,-1.0,0.1837406911648219,1.0
50.97900390625,6.390469551086426,-1.6427949666976929,-0.0,-0.0,-1.0,0.11597414603423145,1.0
51.38785934448242,6.353394508361816,-1.7335280179977417,-0.0,-0.0,-1.0,0.07655568577174003,1.0
50.402565002441406,6.641146659851074,-1.4953240156173706,0.09063418225720452,0.783909143348672,0.6142246331603114,0.20735087256846965,4.0
50.514678955078125,6.712444305419922,-1.5107399225234985,-0.46117776396387533,0.6171857246338718,0.6374926284541983,0.11109796422931527,3.0
51.39122772216797,6.593437194824219,-1.7092658281326294,-0.0,-0.0,-1.0,0.04464383372046194,1.0
49.83592987060547,7.190709114074707,-1.758344054222107,-0.0,-0.0,-1.0,0.015671770517473427,2.0
50.00496292114258,7.545111656188965,-1.7496088743209839,-0.0,-0.0,-1.0,0.03775503628888317,2.0
50.1306266784668,7.608222007751465,-1.7711023092269897,-0.0,-0.0,-1.0,0.04260702166017368,2.0
50.730953216552734,7.490962982177734,-1.4751609563827515,-0.0,-0.0,-1.0,0.10599741576814137,1.0
51.02387619018555,7.5672101974487305,-1.5320371389389038,-0.0,-0.0,-1.0,0.1873293934466157,1.0
49.956295013427734,5.790277481079102,-1.0289753675460815,0.2523863889009844,0.9113891056627136,-0.32507077502728565,0.14518871136983746,4.0
50.61581802368164,6.9747161865234375,-1.044477105140686,-0.0,-0.0,-1.0,0.11284241368483003,2.0
49.99846649169922,5.75050163269043,-1.378241777420044,0.04257097585645486,0.9895747938028149,0.13758429955756446,0.1536604627164053,3.0
50.164146423339844,5.854135513305664,-1.3963592052459717,-0.17656522514173967,-0.6102698415252258,-0.7722664318714257,0.14209070959560927,3.0
50.225303649902344,5.918891906738281,-1.3998816013336182,0.0035023693492512897,-0.8682882072628206,-0.4960477018768041,0.18216719909389584,3.0
51.370506286621094,5.909684181213379,-1.6295616626739502,-0.0,-0.0,-1.0,0.08001227285639242,2.0
51.625648498535156,5.973711013793945,-1.6753098964691162,-0.0,-0.0,-1.0,0.07924164105211001,1.0
50.686283111572266,6.417722702026367,-1.4297280311584473,-0.0,-0.0,-1.0,0.11492931810016736,1.0
50.000938415527344,6.76202392578125,-1.6841516494750977,-0.0,-0.0,-1.0,0.11467393987629307,1.0
50.35971450805664,6.817300796508789,-1.7561466693878174,-0.5007545633980156,0.864728149253667,0.038601750276257285,0.14738240471268574,3.0
50.63956069946289,6.693619728088379,-1.387524127960205,-0.0,-0.0,-1.0,0.21214354792119863,1.0
50.184932708740234,7.350522994995117,-1.6379611492156982,-0.0,-0.0,-1.0,0.059757323972087335,1.0
50.47178268432617,7.051861763000488,-1.7472829818725586,-0.0,-0.0,-1.0,0.16044685855904547,1.0
50.70001220703125,7.283526420593262,-1.7675321102142334,-0.0,-0.0,-1.0,0.030669500910531857,1.0
50.51685333251953,7.577836036682129,-1.6833093166351318,-0.0,-0.0,-1.0,0.08011187345591554,1.0
50.88395690917969,7.564493179321289,-1.7729706764221191,-0.0,-0.0,-1.0,0.1843627420879049,1.0
50.22014617919922,6.552987098693848,-1.3198668956756592,-0.0,-0.0,-1.0,0.18747524453244457,1.0
50.34980773925781,6.815140724182129,-1.314138412475586,-0.0,-0.0,-1.0,0.204925317899838,1.0
50.86306381225586,7.3317975997924805,-1.3614039421081543,-0.0,-0.0,-1.0,0.15455201704039165,2.0
50.69097900390625,7.591817855834961,-1.2959439754486084,-0.0,-0.0,-1.0,0.0867380798054201,1.0
51.23795700073242,7.466614723205566,-1.427889347076416,-0.0,-0.0,-1.0,0.08775214299033882,1.0
50.45281982421875,6.578911781311035,-0.9209649562835693,-0.0,-0.0,-1.0,0.06973865871455287,1.0
50.15455627441406,5.770817756652832,-1.623478889465332,-0.0,-0.0,-1.0,0.11344094652524009,1.0
50.42955780029297,5.752890586853027,-1.6800200939178467,-0.0,-0.0,-1.0,0.07926274541861347,2.0
50.6683235168457,5.824694633483887,-1.7154138088226318,-0.0,-0.0,-1.0,0.022478734568891115,1.0
50.83338165283203,5.89058780670166,-1.7380502223968506,-0.0,-0.0,-1.0,0.023228782174863953,1.0
51.234153747558594,6.1867780685424805,-1.774573802947998,-0.0,-0.0,-1.0,0.07709768896012449,1.0
51.307857513427734,6.393954277038574,-1.758195400238037,-0.0,-0.0,-1.0,0.0793465847616066,1.0
51.70219421386719,6.595232963562012,-1.8146235942840576,-0.0,-0.0,-1.0,0.047912570837949364,1.0
50.015499114990234,5.799032211303711,-1.5922517776489258,-0.0,-0.0,-1.0,0.18297400402068426,1.0
50.295631408691406,6.641110420227051,-1.5061359405517578,-0.0,-0.0,-1.0,0.1984978272286072,1.0
51.02006530761719,6.48037052154541,-1.6827597618103027,-0.0,-0.0,-1.0,0.04222907507928437,1.0
50.48814010620117,6.776910781860352,-1.5237481594085693,-0.6224032051671463,0.7792601940776663,-0.07326527228981793,0.17113401695214664,4.0
50.685855865478516,6.69157600402832,-1.578650951385498,-0.0,-0.0,-1.0,0.13795840715299246,1.0
50.97207260131836,7.336800575256348,-1.5405967235565186,-0.0,-0.0,-1.0,0.09844034045217162,2.0
51.26436996459961,7.436666488647461,-1.591496229171753,-0.0,-0.0,-1.0,0.12014960846818477,1.0
50.64434051513672,7.626587867736816,-1.424286127090454,-0.0,-0.0,-1.0,0.046182584127228046,1.0
50.89122009277344,7.605844497680664,-1.4823389053344727,-0.0,-0.0,-1.0,0.08758239304835687,1.0
49.99534606933594,5.823038101196289,-1.1464848518371582,0.51672792206867,0.8522608622871072,0.0815087551630594,0.18619697732153626,9.0
50.477813720703125,6.63038444519043,-1.1229298114776611,-0.0,-0.0,-1.0,0.08517305157924367,2.0
50.039337158203125,5.7901411056518555,-1.3701330423355103,-0.76199250072593,0.6437327442722357,-0.07053781106030747,0.2488040079795088,4.0
50.203155517578125,5.8118743896484375,-1.393083930015564,-0.0,-0.0,-1.0,0.12904035034053554,1.0
51.227073669433594,6.223647117614746,-1.5021497011184692,-0.0,-0.0,-1.0,0.15657855988413727,1.0
50.34912872314453,6.645127296447754,-1.268100380897522,-0.0,-0.0,-1.0,0.16102418267343208,2.0
50.72304153442383,6.4372148513793945,-1.3716586828231812,-0.0,-0.0,-1.0,0.08492118558265407,1.0
50.31285095214844,6.888005256652832,-1.2183893918991089,-0.0,-0.0,-1.0,0.2528193257703146,1.0
50.61620330810547,6.795400619506836,-1.289629578590393,-0.0,-0.0,-1.0,0.17785999781426318,1.0
50.978389739990234,7.3453826904296875,-1.2647935152053833,-0.0,-0.0,-1.0,0.11619212061372342,2.0
50.50294494628906,6.57856559753418,-0.9041591882705688,-0.0,-0.0,-1.0,0.06973865871455281,2.0
50.02420425415039,5.819765090942383,-1.14404296875,-0.2527480814226525,0.9028357806176519,0.347859110235284,0.2709251688432508,7.0
50.0778923034668,5.839777946472168,-1.1474015712738037,0.39757736689847134,0.5089728730578463,-0.7634650298614336,0.24964456176968355,3.0
50.53964614868164,6.651719093322754,-1.060509443283081,-0.0,-0.0,-1.0,0.09833924627314092,1.0
50.02406692504883,5.696282386779785,-1.5278383493423462,-0.0,-0.0,-1.0,0.15656862491610182,1.0
50.174110412597656,5.781449317932129,-1.5204254388809204,0.7067150967084861,0.5819371391416258,-0.40237164185858737,0.1052049949556443,3.0
51.23882293701172,6.095185279846191,-1.5568822622299194,0.9105507598722296,-0.21806176077426276,-0.35120703606866127,0.17856009529745964,3.0
49.97401809692383,5.786341667175293,-1.1059914827346802,-0.2773751331731444,0.09805859135280108,-0.9557444994134598,0.1951938796568545,8.0
50.41334915161133,6.693234443664551,-1.3200832605361938,-0.0,-0.0,-1.0,0.10986397485475513,1.0
50.68893051147461,7.610569953918457,-1.1287919282913208,-0.0,-0.0,-1.0,0.15369772521943798,1.0
50.966224670410156,7.420881271362305,-1.2077780961990356,-0.0,-0.0,-1.0,0.19184717443396596,1.0
50.47249984741211,6.585061073303223,-0.9808343648910522,-0.0,-0.0,-1.0,0.0746438332574445,1.0
49.989707946777344,5.7697248458862305,-1.261371374130249,-0.29071259789410986,0.8207652265547828,-0.4917627764523597,0.1895451150115809,4.0
50.647682189941406,6.305787086486816,-1.1854865550994873,-0.0,-0.0,-1.0,0.026615336462787825,1.0
49.955955505371094,5.801945686340332,-1.1922779083251953,-0.44972430769812954,0.5428017361734379,-0.7093055211067655,0.19702522648174534,7.0
50.442264556884766,6.616662979125977,-1.022730827331543,0.6207740558148033,0.537190679467812,-0.5710216681704383,0.07687833551313333,3.0
50.46937561035156,6.8817667961120605,-1.165693759918213,0.3177028343411601,0.13544849635629452,-0.9384660962903306,0.1669528395115779,3.0
49.97099685668945,6.0955281257629395,-1.1486713886260986,-0.0,-0.0,-1.0,0.20623891627928406,1.0
50.02141571044922,6.063810348510742,-1.3509392738342285,-0.0,-0.0,-1.0,0.10516859886469598,1.0
50.46832275390625,7.021055698394775,-1.4246180057525635,-0.0,-0.0,-1.0,0.1888153169921818,2.0
50.954368591308594,7.546536445617676,-1.6511696577072144,-0.0,-0.0,-1.0,0.1867548073197439,1.0
49.99219512939453,5.897833347320557,-1.010743260383606,-0.0,-0.0,-1.0,0.137976103975402,2.0
51.057090759277344,7.573883533477783,-1.1567193269729614,-0.0,-0.0,-1.0,0.17291527050112265,1.0
50.05662155151367,5.82773494720459,-1.0576989650726318,-0.0,-0.0,-1.0,0.1304863658368998,2.0
49.996219635009766,5.938488960266113,-1.0579817295074463,-0.0,-0.0,-1.0,0.12437285201248761,2.0
51.52220916748047,6.1586127281188965,-1.6473859548568726,-0.0,-0.0,-1.0,0.07607690473652756,1.0
50.844852447509766,7.513713359832764,-1.6353660821914673,-0.0,-0.0,-1.0,0.2289629313714287,1.0
49.894439697265625,5.770720481872559,-1.4544345140457153,-0.8067940570400463,0.5052099373044594,-0.30634338376026177,0.21874759339101757,4.0
49.98725891113281,5.850637435913086,-1.4678212404251099,-0.0,-0.0,-1.0,0.18986490275324355,1.0
50.38794708251953,6.808865547180176,-1.5530318021774292,-0.0,-0.0,-1.0,0.16529627616833859,1.0
50.44156265258789,6.738877296447754,-1.5556882619857788,-0.0,-0.0,-1.0,0.21336771714001304,2.0
50.80239486694336,7.3442511558532715,-1.6975175142288208,-0.0,-0.0,-1.0,0.19957214859994468,1.0
51.033470153808594,7.459714889526367,-1.730847954750061,-0.0,-0.0,-1.0,0.2190240544960441,1.0
50.45465087890625,7.543863296508789,-1.7222776412963867,-0.0,-0.0,-1.0,0.11458063731232881,1.0
50.02080535888672,5.750236988067627,-1.38325035572052,-0.6451885959717355,0.6689100759631976,-0.36917609064365237,0.146642847383965,4.0
51.2508544921875,6.128060340881348,-1.5461007356643677,0.9105507598722296,-0.21806176077426276,-0.35120703606866127,0.17279178021851208,3.0
50.42820739746094,6.616625785827637,-1.4662922620773315,-0.29653275921945343,0.6176884054052276,0.7283744617555209,0.25171966355768743,7.0
50.91217803955078,6.344651222229004,-1.5137022733688354,-0.0,-0.0,-1.0,0.10905557532520412,1.0
50.42393493652344,6.858790397644043,-1.4767788648605347,-0.0,-0.0,-1.0,0.1532258847989888,2.0
50.954898834228516,7.24839973449707,-1.561135172843933,-0.0,-0.0,-1.0,0.09380653836552694,2.0
50.68802261352539,7.600553512573242,-1.5470699071884155,-0.08992919480694116,0.4752350185964639,-0.8752510594229483,0.09014437767890039,4.0
50.859031677246094,7.503265380859375,-1.5628420114517212,-0.0,-0.0,-1.0,0.14019394291002887,2.0
49.984527587890625,5.783254146575928,-1.0342967510223389,0.1684408600409893,0.92828871059264,-0.33152337241121616,0.1336384257885666,3.0
50.46226119995117,6.620146751403809,-1.1186559200286865,-0.0,-0.0,-1.0,0.09680487708176724,2.0
49.997657775878906,5.773015022277832,-1.0988506078720093,-0.31044428704578514,0.5624309411991318,-0.7663522564868538,0.25137265057547237,7.0
49.987884521484375,5.850550174713135,-1.0994287729263306,0.6906268962246612,0.7170671977121281,0.0940697835458677,0.1680670882242345,5.0
50.438575744628906,6.875056266784668,-1.1770890951156616,-0.0,-0.0,-1.0,0.23340514042297084,2.0
50.954158782958984,7.3855485916137695,-1.2516945600509644,0.41460188164876016,0.4984169337462985,-0.7613710264307708,0.130256501908578,3.0
50.05119323730469,5.796085357666016,-1.4151195287704468,-0.6442501025027697,0.7466044718172766,-0.16590228475707008,0.13490393830082925,4.0
50.3998908996582,6.6380934715271,-1.4872535467147827,0.09063418225720452,0.783909143348672,0.6142246331603114,0.18910655559345785,4.0
50.77857208251953,6.392059326171875,-1.533375859260559,-0.0,-0.0,-1.0,0.10717181606088037,1.0
50.42606735229492,6.8143181800842285,-1.4963449239730835,0.26828454665479723,0.47800185061428596,-0.836383663658938,0.17643900394212847,4.0
51.011322021484375,7.244370460510254,-1.5932022333145142,-0.0,-0.0,-1.0,0.14145340914107,2.0
50.76384735107422,7.620992660522461,-1.571379542350769,-0.0,-0.0,-1.0,0.10051396501107679,1.0
50.83940887451172,7.520936012268066,-1.5456173419952393,-0.0,-0.0,-1.0,0.13512731886792675,2.0
50.92637634277344,7.3780670166015625,-1.553802490234375,-0.0,-0.0,-1.0,0.17355150593178456,2.0
50.03101348876953,5.675628662109375,-1.3767955303192139,0.420274478529459,-0.03906927115721194,-0.906555544215596,0.13811901478093044,4.0
50.1170539855957,5.827872276306152,-1.3926141262054443,-0.37703650306831776,0.9261951956620789,0.0024361622478286343,0.142303358754082,4.0
50.448036193847656,6.709978103637695,-1.4631373882293701,-0.0,-0.0,-1.0,0.13610907434666586,1.0
50.68339538574219,7.609984397888184,-1.5255193710327148,-0.7364155056076892,0.547332776771882,-0.3976418420787137,0.08138397588778527,3.0
50.295372009277344,7.373513698577881,-1.7475717067718506,0.18271751711937567,0.056026648626503445,-0.9815677885818244,0.06488936200452569,3.0
50.445674896240234,7.41741418838501,-1.7745823860168457,-0.0,-0.0,-1.0,0.07398142080765294,2.0
50.49808883666992,7.563179969787598,-1.7870640754699707,-0.0,-0.0,-1.0,0.11458063731232887,1.0
50.01560592651367,5.824525356292725,-1.0387024879455566,-0.0,-0.0,-1.0,0.1181059086263885,2.0
50.89924240112305,7.114895820617676,-1.7660565376281738,-0.0,-0.0,-1.0,0.061946469139514876,1.0
50.567710876464844,7.527878761291504,-1.7164545059204102,-0.0,-0.0,-1.0,0.07433745937225715,1.0
50.76786422729492,7.2897233963012695,-1.746523141860962,-0.0,-0.0,-1.0,0.12305261334176602,1.0
49.94024658203125,5.820035934448242,-0.9775674343109131,-0.34491279385999507,0.7247075607762102,-0.5965183282896577,0.12731773682048766,6.0
50.68510437011719,7.046181678771973,-1.107757568359375,-0.0,-0.0,-1.0,0.06326531090262735,1.0
50.028358459472656,5.762857913970947,-1.4334574937820435,-0.8245473948042322,0.5657907434275944,0.001558323844106253,0.19452231603131379,3.0
51.40724182128906,5.725555419921875,-1.671911358833313,-0.0,-0.0,-1.0,0.045372531639794024,2.0
51.37298583984375,5.953758239746094,-1.6645861864089966,-0.0,-0.0,-1.0,0.08001227285639241,2.0
51.57111358642578,6.128170013427734,-1.6981819868087769,-0.0,-0.0,-1.0,0.07415785169108734,2.0
50.44480514526367,6.642449855804443,-1.500986933708191,0.032972322625648476,0.7540480692389886,0.6559911090995242,0.22386115646029214,5.0
50.85877990722656,6.388825416564941,-1.5735000371932983,-0.0,-0.0,-1.0,0.12553315932410244,2.0
50.35952377319336,6.998532295227051,-1.48639976978302,-0.0,-0.0,-1.0,0.1210270971889794,1.0
50.474849700927734,6.837103843688965,-1.5062679052352905,-0.7797899386358671,-0.15312824904917183,-0.6070250332114856,0.22099094964324986,4.0
50.97518539428711,7.291581630706787,-1.595629096031189,-0.03310200235972456,-0.8343291005088107,-0.5502719413925586,0.17055808581170911,3.0
50.669273376464844,7.577582359313965,-1.5439656972885132,-0.4648555986712297,0.44889535778376055,-0.7631528222736269,0.07851528933355852,4.0
50.93408203125,7.544131278991699,-1.5902596712112427,0.011371725220567102,-0.7855099890584359,-0.6187444876157874,0.13369462487303516,4.0
50.48870849609375,7.298285007476807,-1.753471851348877,-0.0,-0.0,-1.0,0.03782068736895868,2.0
50.50888442993164,7.62507438659668,-1.7616631984710693,-0.0,-0.0,-1.0,0.07634282543615747,1.0
50.785316467285156,6.261791229248047,-1.2518517971038818,-0.0,-0.0,-1.0,0.05692831752804249,1.0
50.557498931884766,6.796572685241699,-1.2172160148620605,-0.0,-0.0,-1.0,0.23850068351238252,1.0
50.92579650878906,7.277414798736572,-1.286278247833252,-0.0,-0.0,-1.0,0.12936422343080622,2.0
50.01292037963867,5.766328811645508,-1.1207106113433838,-0.2550229539749376,0.42355888001585806,-0.8692302158263993,0.2953836804856772,5.0
50.65694808959961,7.582993030548096,-1.2453598976135254,-0.0,-0.0,-1.0,0.08574954584093791,2.0
51.02384567260742,5.797727584838867,-1.702370285987854,-0.0,-0.0,-1.0,0.06927584969592934,1.0
51.089622497558594,5.7281389236450195,-1.718579888343811,-0.0,-0.0,-1.0,0.03716982029054984,1.0
50.73808670043945,6.388545989990234,-1.6198614835739136,-0.0,-0.0,-1.0,0.1113320444959727,1.0
51.06666946411133,5.946220397949219,-1.7038029432296753,-0.0,-0.0,-1.0,0.04899273285829725,1.0
51.205284118652344,5.98927116394043,-1.7289623022079468,-0.0,-0.0,-1.0,0.07469859467261614,1.0
50.78982162475586,6.451431751251221,-1.6274665594100952,-0.0,-0.0,-1.0,0.1378792770440925,1.0
51.39778137207031,6.171037673950195,-1.7586973905563354,-0.0,-0.0,-1.0,0.08149744518884844,2.0
51.09492111206055,7.094717979431152,-1.6646090745925903,-0.0,-0.0,-1.0,0.14292282733354988,1.0
51.45698165893555,6.824272155761719,-1.7452913522720337,-0.0,-0.0,-1.0,0.03385441700750957,1.0
51.58413314819336,6.7691473960876465,-1.7723957300186157,-0.0,-0.0,-1.0,0.03595147829676503,1.0
50.918731689453125,7.575177192687988,-1.6158446073532104,0.06935657746659765,-0.6137920971587275,-0.7864152380438794,0.19068199142561007,3.0
50.97071075439453,7.316611289978027,-1.6333101987838745,-0.0,-0.0,-1.0,0.16732707697940372,2.0
51.40342712402344,7.309317111968994,-1.719518780708313,-0.0,-0.0,-1.0,0.10351712252061411,1.0
49.97918701171875,5.727188587188721,-1.5025490522384644,-0.0,-0.0,-1.0,0.18532699742283873,1.0
50.09747314453125,5.846444606781006,-1.5193904638290405,-0.0,-0.0,-1.0,0.2434099128923892,2.0
50.444244384765625,6.669976711273193,-1.55072820186615,-0.8368738016796132,0.546382502148607,0.033292662977585916,0.20886051548122028,4.0
50.64097595214844,6.81044864654541,-1.5843077898025513,-0.0,-0.0,-1.0,0.22727460346532943,1.0
50.69856262207031,7.551479339599609,-1.5725916624069214,-0.09491598042749522,0.6853175467252416,-0.7220324208856441,0.09460870759021617,3.0
49.98455047607422,5.844837188720703,-0.9986239671707153,-0.9543773004166455,-0.19687174188302095,-0.22451166049312776,0.1562979559059486,5.0
50.445865631103516,6.588817596435547,-1.0450116395950317,-0.0,-0.0,-1.0,0.06876222646602514,2.0
50.634605407714844,7.005223274230957,-1.0629969835281372,-0.19370237287135517,-0.4191798665226616,-0.8869992278722968,0.1364555796687527,3.0
50.29814910888672,7.268711090087891,-1.7521347999572754,-0.0,-0.0,-1.0,0.0646115002421105,1.0
51.359886169433594,6.187686920166016,-1.5027639865875244,-0.0,-0.0,-1.0,0.1674825091924417,1.0
50.45743942260742,7.50745964050293,-1.7809889316558838,-0.0,-0.0,-1.0,0.09319451097824674,2.0
51.50726318359375,6.677911758422852,-1.512674331665039,-0.0,-0.0,-1.0,0.0747808819688177,1.0
49.95425033569336,5.732200622558594,-1.2614505290985107,-0.0,-0.0,-1.0,0.1654594794044218,2.0
50.364723205566406,6.7018914222717285,-1.2968604564666748,-0.4018520470790327,0.8964603887114599,0.18674502330635037,0.129956207267019,3.0
50.584068298339844,6.460930347442627,-1.3468613624572754,-0.0,-0.0,-1.0,0.10148337163312797,1.0
50.900856018066406,7.266739845275879,-1.3807120323181152,-0.4512694229957074,-0.6631041613312889,-0.5972007862471796,0.11090324426667574,4.0
50.63132095336914,7.589888095855713,-1.321805477142334,-0.0,-0.0,-1.0,0.08930196364017048,2.0
50.438377380371094,6.50703239440918,-0.8294045925140381,-0.0,-0.0,-1.0,0.09082732515319238,1.0
50.24201202392578,7.391805171966553,-1.7925009727478027,-0.0,-0.0,-1.0,0.06419755635156174,2.0
50.41612243652344,7.609076023101807,-1.8284034729003906,-0.0,-0.0,-1.0,0.09758427851151005,1.0
49.977752685546875,5.726711273193359,-1.3297858238220215,-0.016682904594855545,0.5137024416635819,-0.8578062031269961,0.2001738391761897,4.0
50.349830627441406,6.643309116363525,-1.3652548789978027,-0.0,-0.0,-1.0,0.18489767442443528,1.0
50.387351989746094,6.847301483154297,-1.365952968597412,-0.9012954938861966,-0.08548201248913113,-0.42468724756136145,0.11655946475981752,3.0
50.42628479003906,6.798295497894287,-1.3752593994140625,-0.4640365693078792,-0.7907046731283587,-0.39931964920092444,0.1781106651740103,3.0
50.85183334350586,6.357558250427246,-1.475128412246704,-0.0,-0.0,-1.0,0.07143061883817318,1.0
51.242862701416016,6.119922161102295,-1.561767578125,0.9105507598722296,-0.21806176077426276,-0.35120703606866127,0.13743413499622512,3.0
50.79863357543945,7.452390193939209,-1.4321568012237549,-0.0,-0.0,-1.0,0.12090436198668875,1.0
50.91159439086914,7.255612850189209,-1.4591965675354004,-0.0,-0.0,-1.0,0.09983793717772993,1.0
51.17667770385742,7.4721574783325195,-1.507291316986084,-0.0,-0.0,-1.0,0.1796392639877655,1.0
50.40848159790039,6.584857940673828,-1.6455579996109009,-0.0,-0.0,-1.0,0.23173535656965752,1.0
50.40416717529297,6.10909366607666,-1.66122567653656,-0.0,-0.0,-1.0,0.064936752221313,1.0
50.23906707763672,7.333475112915039,-1.5890496969223022,-0.0,-0.0,-1.0,0.09547858756808204,1.0
50.464393615722656,6.91480016708374,-1.6490100622177124,-0.0,-0.0,-1.0,0.20038396610198514,1.0
50.60139083862305,6.768581390380859,-1.6838098764419556,-0.0,-0.0,-1.0,0.1969034127436373,1.0
50.64634323120117,6.328529357910156,-1.7075902223587036,-0.0,-0.0,-1.0,0.12084374271831108,1.0
50.623817443847656,7.56069803237915,-1.6729069948196411,-0.0,-0.0,-1.0,0.09190261834824891,2.0
50.86937713623047,7.218135833740234,-1.7342387437820435,-0.0,-0.0,-1.0,0.10720215349838683,2.0
50.90653991699219,6.993228912353516,-1.7472566366195679,-0.0,-0.0,-1.0,0.10530963266020421,1.0
51.111328125,7.63511848449707,-1.7827121019363403,-0.0,-0.0,-1.0,0.1638402540061312,1.0
51.095359802246094,7.448029518127441,-1.7815462350845337,-0.0,-0.0,-1.0,0.21002932920296322,1.0
49.971290588378906,5.731247901916504,-1.1245330572128296,-0.32095905723882223,0.258456044513604,-0.9111452994066032,0.23206710349649146,4.0
49.99864196777344,5.770595073699951,-1.128085970878601,-0.15283812705963876,0.3865853519572302,-0.9095011119119129,0.29951078633873285,7.0
50.34636688232422,6.833974838256836,-1.1604851484298706,-0.0,-0.0,-1.0,0.19488591891116225,1.0
50.412174224853516,6.579418182373047,-1.1792880296707153,-0.0,-0.0,-1.0,0.09781539554691719,1.0
50.99213409423828,6.204745769500732,-1.299876093864441,-0.0,-0.0,-1.0,0.04496084669559501,2.0
51.06144714355469,6.147564888000488,-1.31476628780365,-0.0,-0.0,-1.0,0.06665352358879037,1.0
50.673194885253906,7.574912071228027,-1.2099875211715698,-0.0,-0.0,-1.0,0.11489348488012815,2.0
50.93095016479492,7.287540435791016,-1.2629984617233276,-0.0,-0.0,-1.0,0.12936422343080622,2.0
51.617919921875,6.2799763679504395,-1.758291244506836,-0.0,-0.0,-1.0,0.04210398714300417,1.0
50.44161605834961,6.573390960693359,-1.5752105712890625,-0.0,-0.0,-1.0,0.22527148580720854,1.0
50.44770050048828,6.4282917976379395,-1.5601000785827637,-0.0,-0.0,-1.0,0.24608159965623735,1.0
49.999427795410156,5.643383502960205,-1.3938512802124023,-0.7458381011897083,0.6472084089271012,0.15762868466044175,0.19761110168607104,3.0
50.95967102050781,7.221364498138428,-1.7412786483764648,-0.0,-0.0,-1.0,0.1581185080533514,1.0
50.894222259521484,7.078261852264404,-1.7132341861724854,-0.0,-0.0,-1.0,0.10330774858667147,2.0
50.69280242919922,6.442999839782715,-1.6059942245483398,-0.0,-0.0,-1.0,0.1033335217887644,1.0
50.736595153808594,6.331081390380859,-1.6017999649047852,-0.0,-0.0,-1.0,0.11080391340956659,1.0
51.27438735961914,6.655725002288818,-1.734649658203125,-0.0,-0.0,-1.0,0.04156921751113375,1.0
50.926513671875,6.333625316619873,-1.63667631149292,-0.0,-0.0,-1.0,0.10230475775281923,1.0
51.45409393310547,6.27035665512085,-1.7269902229309082,-0.0,-0.0,-1.0,0.05712622308545754,1.0
51.43467330932617,6.034141540527344,-1.6993768215179443,-0.0,-0.0,-1.0,0.08563318457487586,1.0
51.279964447021484,5.811796188354492,-1.6483099460601807,-0.0,-0.0,-1.0,0.05742183895856582,2.0
49.999977111816406,5.676435947418213,-0.9378054141998291,-0.0,-0.0,-1.0,0.15486303516833216,1.0
50.83710479736328,7.16720724105835,-1.2254467010498047,-0.0,-0.0,-1.0,0.06538466051969329,1.0
51.29707717895508,6.026722431182861,-1.1868958473205566,-0.0,-0.0,-1.0,0.11046578803497016,1.0
50.601776123046875,7.634024620056152,-1.8341652154922485,-0.0,-0.0,-1.0,0.08369662379657522,1.0
50.41072082519531,6.648097991943359,-1.0274503231048584,-0.0,-0.0,-1.0,0.05893855621893982,2.0
49.962989807128906,5.8886613845825195,-0.9341390132904053,-0.0,-0.0,-1.0,0.1540326173413477,2.0
50.88298797607422,7.55442476272583,-1.4213533401489258,-0.0,-0.0,-1.0,0.10767256102731726,1.0
50.39939498901367,6.912919521331787,-1.3264334201812744,-0.0,-0.0,-1.0,0.23994680925591244,1.0
49.92096710205078,5.979641437530518,-1.2046973705291748,-0.0,-0.0,-1.0,0.1966008149315316,1.0
49.945587158203125,5.900009632110596,-1.1990249156951904,-0.0,-0.0,-1.0,0.217992368034768,2.0
50.864139556884766,7.354215145111084,-1.318656325340271,-0.0,-0.0,-1.0,0.16452693452821296,2.0
49.96245574951172,5.848464012145996,-1.1217817068099976,0.05962816072530263,0.9476945825806371,-0.3135593414265149,0.22396976407302974,6.0
50.951515197753906,7.363743782043457,-1.5617668628692627,0.10940583430446935,-0.22105687574188793,-0.9691048555793013,0.15303211602058706,4.0
50.73210906982422,7.579752445220947,-1.550166130065918,0.16751027930979726,0.4829584060258666,-0.8594716309306014,0.10034212699041326,3.0
50.43636703491211,6.578061103820801,-1.468449592590332,-0.9758367918063201,-0.2017813464505314,-0.083826272622366,0.1848420336005501,3.0
50.475059509277344,6.800516605377197,-1.483318567276001,-0.38591459526962407,0.33097314029281155,-0.861119449067664,0.21465927802382143,6.0
49.964393615722656,5.84997034072876,-0.9600541591644287,-0.9408872968340419,0.2501586787694669,-0.22836753292148157,0.13542329185608779,6.0
51.020809173583984,7.455164432525635,-1.538278579711914,-0.0,-0.0,-1.0,0.21327805548688422,2.0
50.76795196533203,7.553797721862793,-1.5036218166351318,-0.0,-0.0,-1.0,0.09234021955293738,1.0
50.44029235839844,6.800686836242676,-1.50431227684021,0.3609817580446598,0.7240331689134144,-0.5877653789329432,0.16861303338631642,4.0
50.41643524169922,6.638816833496094,-1.2303739786148071,-0.0,-0.0,-1.0,0.11813336035570947,1.0
49.993221282958984,5.829009532928467,-1.1606484651565552,0.4997225906606266,0.8579889214728943,-0.11887953151493894,0.25575017339721007,9.0
