x,y,z,nx,ny,nz,curvature,density
15.675451278686523,19.076967239379883,-0.7917454242706299,0.9586505233563634,0.2407560965644292,-0.15174213665172107,0.13782914009160296,5.0
15.441186904907227,18.70387840270996,-0.8289699554443359,-0.0,-0.0,-1.0,0.11781469694461526,2.0
15.133291244506836,17.82647705078125,-0.8892269134521484,-0.0,-0.0,-1.0,0.025570500403019624,2.0
15.694902420043945,19.203388214111328,-0.9745258092880249,-0.0,-0.0,-1.0,0.1184681163387032,1.0
15.182449340820312,19.57252311706543,-1.0439683198928833,-0.0,-0.0,-1.0,0.10661583699467225,2.0
15.589460372924805,18.360824584960938,-0.997388482093811,-0.0,-0.0,-1.0,0.15165282209487305,1.0
15.676362991333008,17.911367416381836,-0.9915603399276733,-0.0,-0.0,-1.0,0.031607050139866394,1.0
15.60517692565918,18.126426696777344,-0.9983483552932739,-0.0,-0.0,-1.0,0.11315849213371369,1.0
15.525861740112305,19.529693603515625,-1.0715670585632324,-0.0,-0.0,-1.0,0.045758715582132826,1.0
14.229618072509766,17.843154907226562,-0.6425938606262207,-0.0,-0.0,-1.0,0.16720290190808537,2.0
15.693075180053711,18.980411529541016,-0.7500332593917847,-0.0,-0.0,-1.0,0.09164109023102063,1.0
14.958090782165527,19.352827072143555,-0.8532801866531372,0.18768725623482507,-0.8521663644805195,-0.4884526395620129,0.1940407719150394,3.0
15.67842960357666,18.725175857543945,-0.7534836530685425,-0.40899500861500715,0.8235985808308328,0.39294841974672523,0.13069751626110188,3.0
14.353595733642578,18.78959846496582,-0.9423032999038696,-0.0,-0.0,-1.0,0.227826227997773,2.0
15.100075721740723,18.52004623413086,-0.837741494178772,-0.0,-0.0,-1.0,0.135424248012119,1.0
14.674217224121094,18.363300323486328,-0.900286078453064,-0.0,-0.0,-1.0,0.02776508510958012,1.0
14.47242546081543,18.607269287109375,-0.9268099069595337,-0.0,-0.0,-1.0,0.12981837167268206,2.0
14.901193618774414,17.87614631652832,-0.8737267255783081,-0.0,-0.0,-1.0,0.03476328549967201,2.0
14.803427696228027,18.1025333404541,-0.8847466707229614,-0.0,-0.0,-1.0,0.010738930911124071,1.0
15.286012649536133,19.460594177246094,-1.0187348127365112,-0.0,-0.0,-1.0,0.13698621175850298,2.0
15.101886749267578,19.596485137939453,-1.0507713556289673,0.5249322539845233,-0.8493385683754744,0.05540870867135988,0.1028893855317314,3.0
15.627533912658691,18.58286476135254,-0.9579845666885376,-0.0,-0.0,-1.0,0.19275944402779943,2.0
15.499991416931152,18.212146759033203,-0.9807573556900024,-0.6718205036531452,-0.7378077895570438,0.06555056475869099,0.0798106750947425,3.0
15.604660034179688,17.801368713378906,-0.9661349058151245,-0.0,-0.0,-1.0,0.03220945240732126,2.0
14.189653396606445,17.922657012939453,-0.6788835525512695,-0.0,-0.0,-1.0,0.13007642553705048,1.0
14.105425834655762,17.98240089416504,-0.6894638538360596,-0.0,-0.0,-1.0,0.09780784994189884,2.0
13.98434829711914,17.6777400970459,-0.7100846767425537,-0.0,-0.0,-1.0,0.08096641900179856,1.0
14.94505500793457,19.4244384765625,-0.8119280338287354,-0.0,-0.0,-1.0,0.19140357722734866,1.0
15.332367897033691,19.017911911010742,-0.7486369609832764,-0.0,-0.0,-1.0,0.18087559912475557,1.0
14.408203125,18.62066650390625,-0.9010272026062012,-0.0,-0.0,-1.0,0.14450686312906316,1.0
14.213146209716797,18.75186538696289,-0.9321019649505615,-0.0,-0.0,-1.0,0.1833647851536868,2.0
14.668362617492676,18.14214324951172,-0.8630995750427246,-0.0,-0.0,-1.0,0.006928953087030317,1.0
14.443145751953125,18.403038024902344,-0.8971853256225586,-0.0,-0.0,-1.0,0.11689318549599059,2.0
14.716915130615234,17.860530853271484,-0.859177827835083,-0.0,-0.0,-1.0,0.015275587959624451,1.0
15.37574577331543,18.85666847229004,-0.7418487071990967,-0.044687612212430255,-0.1476248399248945,-0.9880333617605735,0.14545268047614257,3.0
15.405853271484375,18.762466430664062,-0.7372348308563232,-0.0,-0.0,-1.0,0.16233700691132885,2.0
14.23595142364502,18.85565185546875,-1.0036002397537231,-0.0,-0.0,-1.0,0.1307805876594396,2.0
14.407355308532715,18.739742279052734,-0.9741688966751099,-0.0,-0.0,-1.0,0.17897695539232109,1.0
15.326682090759277,19.342205047607422,-0.7943941354751587,-0.0,-0.0,-1.0,0.16764247311706765,1.0
14.934539794921875,19.35513687133789,-0.8663593530654907,-0.0,-0.0,-1.0,0.1656982006753656,2.0
15.5756196975708,18.933929443359375,-0.7536765336990356,-0.0,-0.0,-1.0,0.06064461724702869,1.0
15.571032524108887,18.715595245361328,-0.7582219839096069,0.5064779798474999,0.2227222487743186,-0.8329915100590799,0.1842911328437629,6.0
14.772275924682617,18.460756301879883,-0.9127627611160278,0.7407164851055811,0.09483055846427274,-0.6650911620779423,0.031350810676928076,3.0
14.518757820129395,18.694175720214844,-0.9544528722763062,-0.0,-0.0,-1.0,0.13644007417262755,1.0
14.839086532592773,18.170913696289062,-0.9083658456802368,-0.0,-0.0,-1.0,0.02023071416343362,1.0
14.970813751220703,17.763792037963867,-0.8971818685531616,-0.0,-0.0,-1.0,0.04430143438121024,2.0
15.067227363586426,19.575176239013672,-1.0490503311157227,0.5249322539845233,-0.8493385683754744,0.05540870867135988,0.06456043075888498,3.0
15.381394386291504,19.369056701660156,-0.9795289039611816,-0.0,-0.0,-1.0,0.09701053776786721,1.0
15.668649673461914,19.165616989135742,-0.9163286685943604,-0.0,-0.0,-1.0,0.08631084484011532,2.0
14.004183769226074,18.906206130981445,-0.8602862358093262,-0.0,-0.0,-1.0,0.10630740690234444,1.0
15.423236846923828,18.654224395751953,-0.9751167297363281,-0.0,-0.0,-1.0,0.15716165657857414,2.0
14.182487487792969,18.605220794677734,-0.833716630935669,-0.0,-0.0,-1.0,0.1566679143783709,1.0
15.357259750366211,18.427146911621094,-0.9938662052154541,-0.0,-0.0,-1.0,0.05560435848819789,2.0
14.223572731018066,18.202239990234375,-0.8373193740844727,-0.0,-0.0,-1.0,0.08118943236949741,1.0
15.57821273803711,18.235624313354492,-0.9481098651885986,-0.0,-0.0,-1.0,0.12426419055770126,1.0
15.45886516571045,18.003398895263672,-0.9811465740203857,-0.0,-0.0,-1.0,0.07652513351376589,1.0
14.351009368896484,17.80937957763672,-0.8268575668334961,-0.0,-0.0,-1.0,0.0867151666196338,2.0
13.725306510925293,19.518430709838867,-1.0447161197662354,-0.0,-0.0,-1.0,0.024911232016108984,2.0
15.296403884887695,19.524219512939453,-1.0803842544555664,-0.0,-0.0,-1.0,0.10293718566097751,1.0
14.148666381835938,19.018375396728516,-0.9471890926361084,-0.0,-0.0,-1.0,0.14649293898360302,1.0
13.751304626464844,19.27812957763672,-1.0343561172485352,-0.0,-0.0,-1.0,0.03382441783902462,1.0
14.238523483276367,18.754274368286133,-0.9251766204833984,0.21426226654360858,-0.8440935464214812,-0.4915259566138932,0.1817592855963313,3.0
13.991405487060547,18.941017150878906,-0.9790499210357666,-0.0,-0.0,-1.0,0.11013335165013088,1.0
15.562524795532227,18.58956527709961,-0.9855761528015137,-0.0,-0.0,-1.0,0.18020575996635307,1.0
14.29893684387207,18.493303298950195,-0.9104602336883545,-0.0,-0.0,-1.0,0.16545211143036184,1.0
15.523604393005371,18.28246307373047,-0.9901299476623535,-0.0,-0.0,-1.0,0.12469749512984256,2.0
15.45254135131836,18.307966232299805,-1.0078942775726318,-0.0,-0.0,-1.0,0.08210416293547877,2.0
15.562874794006348,18.03667449951172,-0.9779770374298096,0.017653400430766224,-0.98651352622982,-0.16272498277411893,0.033528327616193676,4.0
15.533696174621582,17.81696891784668,-0.9847943782806396,-0.0,-0.0,-1.0,0.03294124249511253,2.0
15.070114135742188,18.89287567138672,-0.752838134765625,-0.0,-0.0,-1.0,0.18055550498202658,2.0
14.605568885803223,19.002002716064453,-0.8515827655792236,-0.13393113071683282,0.8230059558404725,-0.5520177976080306,0.14538841225574814,5.0
14.465097427368164,18.90184211730957,-0.8793299198150635,-0.0,-0.0,-1.0,0.09920602292517525,2.0
14.436436653137207,18.3386287689209,-0.880859375,-0.0,-0.0,-1.0,0.139915979309938,2.0
14.5551176071167,18.04831314086914,-0.8560624122619629,-0.0,-0.0,-1.0,0.0104616762905504,1.0
14.583721160888672,17.63860511779785,-0.853461503982544,-0.0,-0.0,-1.0,0.03278354146950266,1.0
14.8019437789917,18.756343841552734,-0.9772679805755615,0.008603287443014538,-0.6131521178369304,-0.7899180108323014,0.039703184621027995,3.0
14.853370666503906,18.658321380615234,-0.9597597122192383,-0.0,-0.0,-1.0,0.03751299367488248,2.0
15.362995147705078,19.375614166259766,-0.8820109367370605,-0.0,-0.0,-1.0,0.11544184625596111,1.0
15.656675338745117,19.098146438598633,-0.7928915023803711,0.2740573968731685,0.9127354637542349,0.30299590166278517,0.15065030176375607,5.0
15.019450187683105,18.769121170043945,-0.9251835346221924,-0.0,-0.0,-1.0,0.14232052137440224,1.0
14.26403522491455,18.57390594482422,-0.748572587966919,-0.9084861427957114,0.03231796203252639,0.4166635065352312,0.11564655428534326,3.0
13.958243370056152,18.494277954101562,-0.810441255569458,-0.0,-0.0,-1.0,0.04649068160733836,1.0
15.664407730102539,18.831953048706055,-0.7735788822174072,-0.0,-0.0,-1.0,0.18038621164854987,2.0
15.257440567016602,18.754619598388672,-0.8668160438537598,-0.2876024233771563,-0.6705687653440517,-0.683829201637764,0.10603346020185146,6.0
14.866162300109863,18.445533752441406,-0.9467883110046387,-0.0,-0.0,-1.0,0.03589347321848499,1.0
14.094314575195312,18.14429473876953,-0.7723183631896973,-0.0,-0.0,-1.0,0.08597792958717715,2.0
13.789458274841309,18.3135986328125,-0.8410725593566895,-0.0,-0.0,-1.0,0.05376366176423044,1.0
14.893216133117676,18.074520111083984,-0.9257056713104248,-0.0,-0.0,-1.0,0.029547189877751356,2.0
14.093235969543457,17.83143424987793,-0.7665829658508301,-0.0,-0.0,-1.0,0.13674258516006388,2.0
14.946375846862793,17.782930374145508,-0.9036989212036133,0.0016748856362314689,-0.3204293148095022,-0.9472709480232246,0.03844869002203795,3.0
13.943193435668945,19.223386764526367,-0.9395934343338013,-0.0,-0.0,-1.0,0.04769979714583545,1.0
14.21534538269043,19.214014053344727,-0.9312518835067749,-0.0,-0.0,-1.0,0.035634984484534366,1.0
14.091421127319336,18.36252784729004,-0.7171697616577148,-0.0,-0.0,-1.0,0.07068539878790314,1.0
13.881059646606445,18.142854690551758,-0.670265793800354,-0.0,-0.0,-1.0,0.0839141021866092,1.0
14.532358169555664,19.21001434326172,-0.9244099855422974,-0.0,-0.0,-1.0,0.10379910443649462,1.0
14.231513023376465,18.69320297241211,-0.7965694665908813,-0.0,-0.0,-1.0,0.16942832782992545,2.0
14.224018096923828,18.495441436767578,-0.7465173006057739,-0.0,-0.0,-1.0,0.08217744390673143,1.0
15.050630569458008,18.691085815429688,-0.7803131341934204,-0.0,-0.0,-1.0,0.16898594657966684,2.0
14.662906646728516,17.63821029663086,-0.8183501958847046,-0.0,-0.0,-1.0,0.017422678221830207,1.0
15.151570320129395,17.963743209838867,-0.8891493082046509,-0.0,-0.0,-1.0,0.02917163240371041,1.0
14.920620918273926,17.758953094482422,-0.8398410081863403,-0.0,-0.0,-1.0,0.03917159392506081,1.0
15.46751594543457,18.243398666381836,-0.9618374109268188,0.01376412356477837,0.5282681362469297,-0.8489660329652114,0.07161318126749172,3.0
15.351619720458984,18.042301177978516,-0.9052506685256958,-0.0,-0.0,-1.0,0.06769959714082573,2.0
14.257184982299805,18.513837814331055,-0.817824125289917,-0.013058162307774698,0.8504676150722765,-0.5258653060531927,0.19720900551101422,4.0
14.30362319946289,18.122541427612305,-0.7930397987365723,-0.20028317218373812,0.3871499240693938,-0.9000008817957248,0.06398278951357292,3.0
14.330461502075195,17.769535064697266,-0.7720019817352295,-0.01765876971881409,-0.14102107640123235,-0.9898490914592263,0.09625046081483307,3.0
14.43600082397461,18.736360549926758,-0.8206698894500732,-0.0,-0.0,-1.0,0.15234567722137482,2.0
15.680402755737305,19.070409774780273,-0.7727682590484619,0.7410071534821877,0.09053271693717184,-0.6653662342290895,0.14123934947380107,4.0
15.540077209472656,18.624731063842773,-0.7531349658966064,-0.0,-0.0,-1.0,0.13592219114888665,1.0
15.681766510009766,18.786760330200195,-0.7552778720855713,-0.0,-0.0,-1.0,0.18980351609154256,2.0
15.637422561645508,18.441679000854492,-0.9520405530929565,-0.0,-0.0,-1.0,0.16682811736916497,1.0
15.493612289428711,18.260608673095703,-0.9507054090499878,-0.0,-0.0,-1.0,0.1364671645462589,2.0
15.48602294921875,18.43246078491211,-1.0144540071487427,-0.0,-0.0,-1.0,0.0944946058371538,1.0
14.413042068481445,18.36825942993164,-0.7470518350601196,-0.4426363438597629,-0.8332637812790754,-0.3312771315725837,0.14952011214008887,3.0
15.569293975830078,18.809804916381836,-0.7313110828399658,-0.0,-0.0,-1.0,0.10068255962523523,1.0
14.246406555175781,18.076461791992188,-0.7373021841049194,-0.0,-0.0,-1.0,0.08312932118762396,1.0
14.519563674926758,19.011676788330078,-0.8843479156494141,-0.0,-0.0,-1.0,0.12771184044819658,1.0
14.708770751953125,18.566944122314453,-0.8592782020568848,-0.0,-0.0,-1.0,0.026768502035566664,1.0
15.593482971191406,18.678857803344727,-0.7736821174621582,-0.8143071968657468,-0.13066450291311887,-0.5655356547655663,0.20867994385489042,5.0
15.215511322021484,18.582706451416016,-0.8093225955963135,-0.0,-0.0,-1.0,0.20289506643121719,1.0
14.951068878173828,17.967445373535156,-0.8268158435821533,-0.0,-0.0,-1.0,0.029178803823359262,1.0
14.976739883422852,17.670852661132812,-0.8202164173126221,-0.0,-0.0,-1.0,0.03788399417704744,1.0
15.162338256835938,19.63104820251465,-0.8046466112136841,-0.0,-0.0,-1.0,0.1965681021058067,1.0
14.989858627319336,19.603187561035156,-0.8069090843200684,-0.0,-0.0,-1.0,0.1431608484775757,1.0
14.455856323242188,19.634273529052734,-0.8213592767715454,-0.0,-0.0,-1.0,0.0726470579402616,1.0
13.902473449707031,18.924692153930664,-0.7918535470962524,-0.0,-0.0,-1.0,0.08881833575825544,1.0
13.731649398803711,18.79468536376953,-0.7883381843566895,-0.0,-0.0,-1.0,0.05744171908215565,1.0
15.632932662963867,18.700395584106445,-0.8812319040298462,0.33629048862095684,0.6701010104271128,-0.6617199884298793,0.21956488564663812,6.0
15.355008125305176,18.60260772705078,-0.8940716981887817,-0.0,-0.0,-1.0,0.14542852201990072,2.0
15.162068367004395,18.550329208374023,-0.9039193391799927,-0.0,-0.0,-1.0,0.18230548637015453,2.0
15.109946250915527,17.842668533325195,-0.8703562021255493,-0.0,-0.0,-1.0,0.03245499062968596,2.0
15.093703269958496,18.214134216308594,-0.8907939195632935,-0.0,-0.0,-1.0,0.023608996151993657,1.0
15.534213066101074,17.737722396850586,-1.0033849477767944,-0.0,-0.0,-1.0,0.035489595715188116,2.0
15.666863441467285,17.98854637145996,-1.0162471532821655,-0.0,-0.0,-1.0,0.07707733958902904,1.0
15.596109390258789,18.675233840942383,-0.9350606203079224,-0.8438950112838595,0.34301403005678877,-0.41253192011578277,0.23918232099269465,5.0
15.168503761291504,18.320850372314453,-0.937900185585022,-0.0,-0.0,-1.0,0.028624921246388057,2.0
15.28973388671875,18.558561325073242,-0.9473353624343872,0.13619958029360824,0.7868084426265896,-0.6019818510049665,0.1113065261277333,4.0
15.066363334655762,17.78103256225586,-0.9047137498855591,-0.0,-0.0,-1.0,0.03878564431344056,2.0
15.074496269226074,18.095413208007812,-0.9275742769241333,-0.0,-0.0,-1.0,0.08627829069056454,1.0
14.173081398010254,18.056961059570312,-0.7216150760650635,0.5955660522735473,0.6765328872659802,-0.43313315484601145,0.0857914921456966,3.0
14.266986846923828,18.42194175720215,-0.7372478246688843,-0.0,-0.0,-1.0,0.1102708002904289,1.0
14.1920747756958,18.648921966552734,-0.7567579746246338,-0.9166802865863738,-0.025534462348702058,-0.3988047685478273,0.13887608820433184,3.0
14.077067375183105,17.70528221130371,-0.7071690559387207,-0.922722250757406,-0.24231449884188805,-0.2997788044678798,0.13957264762101756,3.0
14.100799560546875,17.911548614501953,-0.7180227041244507,0.163539359321901,-0.3427989691263833,-0.9250641841074981,0.09782283821868053,4.0
14.134682655334473,18.078702926635742,-0.7404543161392212,0.5955660522735473,0.6765328872659802,-0.43313315484601145,0.10014246928128948,3.0
14.095279693603516,18.240833282470703,-0.7537119388580322,-0.0,-0.0,-1.0,0.07466279381956019,2.0
14.25858211517334,18.60607147216797,-0.7629573345184326,-0.4109835688731108,-0.5600913814121342,-0.7192983738228307,0.11533699742831907,6.0
14.01190185546875,17.84677505493164,-0.7363903522491455,-0.0,-0.0,-1.0,0.07814465834075424,1.0
15.690783500671387,18.82712173461914,-0.9748251438140869,-0.0,-0.0,-1.0,0.10424413730294285,2.0
15.664674758911133,19.627145767211914,-1.0476818084716797,-0.0,-0.0,-1.0,0.051503684317044725,1.0
15.284488677978516,18.181928634643555,-0.9525144100189209,-0.0,-0.0,-1.0,0.02952186723617156,2.0
15.415079116821289,18.45406150817871,-0.9650535583496094,-0.0,-0.0,-1.0,0.12257741024190966,1.0
15.248799324035645,18.070022583007812,-0.945936918258667,-0.0,-0.0,-1.0,0.06402971956105001,1.0
15.240180015563965,17.924375534057617,-0.934213399887085,-0.0,-0.0,-1.0,0.018712226922943966,1.0
15.7002534866333,19.108844757080078,-1.0034353733062744,-0.0,-0.0,-1.0,0.08295075440109746,1.0
15.701913833618164,18.6928653717041,-0.9784173965454102,-0.7279311781215699,0.4838857601384728,0.48576822771127737,0.1398194922985903,4.0
15.666254043579102,18.789363861083984,-0.9890005588531494,-0.7536114246103945,0.5947034145533378,-0.2799958382106641,0.100441589744013,3.0
15.38822078704834,18.703275680541992,-1.0214712619781494,-0.0,-0.0,-1.0,0.23066039115950007,1.0
14.278276443481445,17.870546340942383,-0.5183751583099365,-0.0,-0.0,-1.0,0.16524167935813716,1.0
13.884207725524902,17.93613052368164,-0.5676947832107544,-0.0,-0.0,-1.0,0.09402207984466739,1.0
15.412775993347168,19.026582717895508,-0.7573138475418091,-0.9824628129685266,-0.069342728557259,0.17308497083861388,0.1612719811248002,3.0
15.48944091796875,19.19900131225586,-0.7744473218917847,-0.0,-0.0,-1.0,0.08744433357184653,1.0
14.245384216308594,17.938552856445312,-0.6930423974990845,-0.0,-0.0,-1.0,0.12151247961351788,2.0
14.292078971862793,18.478511810302734,-0.753876805305481,-0.0,-0.0,-1.0,0.13237596398878093,1.0
15.360495567321777,18.630373001098633,-0.933832049369812,-0.0,-0.0,-1.0,0.16875391063604614,2.0
14.869813919067383,17.806339263916016,-0.8587814569473267,-0.0,-0.0,-1.0,0.03572294587478195,2.0
14.937050819396973,18.13824462890625,-0.8978546857833862,-0.0,-0.0,-1.0,0.03132848512614557,1.0
15.045955657958984,18.43610191345215,-0.9298025369644165,-0.0,-0.0,-1.0,0.06679998384037594,2.0
15.503026008605957,18.646312713623047,-0.9388906955718994,-0.0,-0.0,-1.0,0.20285259664545305,2.0
15.69698715209961,19.571989059448242,-1.0538475513458252,-0.0,-0.0,-1.0,0.07358013203954641,1.0
14.985072135925293,18.05270004272461,-0.9036273956298828,0.23897966403485327,-0.260301007318459,-0.9354849575310037,0.03451120991288523,4.0
15.105393409729004,18.326751708984375,-0.9299261569976807,-0.0,-0.0,-1.0,0.0381765042706184,2.0
15.310373306274414,18.541534423828125,-0.9411070346832275,0.48166368057093506,0.47394583352270747,-0.7371400448390567,0.11523095742090929,5.0
14.931207656860352,17.876209259033203,-0.884955644607544,-0.0,-0.0,-1.0,0.03624793529704186,2.0
15.533520698547363,18.72900390625,-0.8756800889968872,-0.0,-0.0,-1.0,0.12304888172393273,2.0
15.694717407226562,19.211549758911133,-0.923287034034729,-0.0,-0.0,-1.0,0.09148792444778676,1.0
15.255905151367188,18.70245361328125,-0.9012001752853394,0.3222451322358421,0.9466545408416928,0.0018041768507077417,0.11888275423364676,3.0
15.451705932617188,18.742950439453125,-0.8859983682632446,-0.01696392499149946,0.6610157365800956,0.7501802591659931,0.16369264185157686,3.0
14.672608375549316,17.790485382080078,-0.849465012550354,-0.0,-0.0,-1.0,0.015267124241618338,2.0
14.78189754486084,18.196029663085938,-0.8874925374984741,-0.0,-0.0,-1.0,0.018559343491211428,1.0
14.908513069152832,18.553287506103516,-0.9188684225082397,-0.0,-0.0,-1.0,0.036797278507118295,2.0
15.667201042175293,18.694812774658203,-0.857364296913147,0.641289123333996,0.6520990652293254,-0.40436996602190334,0.13280135095245674,5.0
15.551003456115723,17.82863426208496,-0.9694936275482178,0.6771653235114686,-0.04103119644413561,-0.7346860319564891,0.03294124249511245,3.0
15.604353904724121,18.307954788208008,-1.018625259399414,-0.0,-0.0,-1.0,0.112099305120773,1.0
15.152227401733398,19.541805267333984,-0.762498140335083,-0.0,-0.0,-1.0,0.1911338969298317,1.0
14.126404762268066,17.96196937561035,-0.729412317276001,0.10059730230864422,0.8311237810804178,-0.5469126468557958,0.14368070867218877,4.0
14.233328819274902,18.369964599609375,-0.7545344829559326,-0.0,-0.0,-1.0,0.1391748013627022,1.0
14.267603874206543,18.618072509765625,-0.7739162445068359,-0.029527472230693408,0.9592570944346501,-0.2809874644187143,0.16317437586925926,5.0
14.178417205810547,18.94063377380371,-0.8153712749481201,-0.0,-0.0,-1.0,0.14245647879956058,2.0
13.984378814697266,18.35494041442871,-0.78285813331604,-0.0,-0.0,-1.0,0.04635849549754973,1.0
14.125038146972656,18.892566680908203,-0.8170347213745117,-0.0,-0.0,-1.0,0.14177481346367102,1.0
15.544172286987305,18.033674240112305,-0.974860429763794,0.017653400430766224,-0.98651352622982,-0.16272498277411893,0.03341889244932857,4.0
15.599569320678711,18.506519317626953,-1.0111544132232666,-0.0,-0.0,-1.0,0.08567083082327909,2.0
15.452710151672363,18.283401489257812,-1.0146594047546387,0.6565022765834105,0.20447414948106155,-0.7260820084775513,0.08210416293547879,3.0
14.27383041381836,18.30756950378418,-0.7736122608184814,-0.0,-0.0,-1.0,0.1426865540213028,2.0
14.16104507446289,17.998485565185547,-0.7677774429321289,-0.0,-0.0,-1.0,0.13269069436273964,1.0
14.21078872680664,18.43624496459961,-0.7922611236572266,-0.9131933618159755,-0.4047951038256603,0.0471042233139409,0.16886860743227633,3.0
14.193567276000977,18.7301082611084,-0.8166286945343018,-0.0,-0.0,-1.0,0.16199985483749496,2.0
15.289782524108887,18.583925247192383,-0.8913729190826416,-0.0,-0.0,-1.0,0.14793742315624206,1.0
14.989808082580566,19.626455307006836,-1.0263843536376953,-0.0,-0.0,-1.0,0.12897298982761976,2.0
14.930831909179688,17.66386604309082,-0.9021077156066895,-0.0,-0.0,-1.0,0.031938169786647624,1.0
14.993903160095215,17.867919921875,-0.9019870758056641,-0.0,-0.0,-1.0,0.03921129392736626,2.0
14.958335876464844,18.276124954223633,-0.9335165023803711,-0.6323355291299751,0.17468686939217395,-0.7547425231573188,0.035712094941821974,3.0
14.897587776184082,18.62471580505371,-0.9671077728271484,-0.3426959087546748,0.6995624975808926,-0.6270341506658079,0.04063489614606866,3.0
14.629903793334961,19.008106231689453,-1.0422682762145996,-0.0,-0.0,-1.0,0.1719898848007734,2.0
14.539680480957031,19.108016967773438,-1.0656933784484863,-0.0,-0.0,-1.0,0.13735201050311835,1.0
15.424088478088379,18.19774627685547,-0.9657715559005737,-0.0,-0.0,-1.0,0.07139667293865967,1.0
15.521856307983398,18.560218811035156,-0.9758073091506958,-0.0,-0.0,-1.0,0.12703525503704927,1.0
15.35037899017334,17.680580139160156,-0.9419795274734497,-0.0,-0.0,-1.0,0.010387628258897894,2.0
15.3897705078125,17.985321044921875,-0.9561892747879028,-0.0,-0.0,-1.0,0.05947643710456725,1.0
14.348174095153809,18.562543869018555,-0.8154908418655396,-0.0,-0.0,-1.0,0.1275760561143261,1.0
14.280057907104492,18.89223289489746,-0.8490077257156372,-0.0,-0.0,-1.0,0.20546526014128924,1.0
14.32665729522705,17.78036117553711,-0.7734764814376831,0.12885024667352135,-0.1724080186496654,-0.9765618715869824,0.11622397686395418,4.0
14.196420669555664,18.07864761352539,-0.8135520219802856,-0.0,-0.0,-1.0,0.07673048162333188,2.0
14.219446182250977,18.30129623413086,-0.8224092721939087,-0.553888552811838,-0.7165544862893618,-0.423977757957415,0.13898622667582705,3.0
15.230474472045898,19.602020263671875,-1.1053301095962524,0.7293055213291965,0.4982954333166874,0.46884444935872244,0.10661583699467225,3.0
15.383380889892578,18.401884078979492,-0.9580248594284058,-0.0,-0.0,-1.0,0.07223743489871436,2.0
15.414987564086914,18.566556930541992,-0.9655627012252808,-0.0,-0.0,-1.0,0.1245500797089142,2.0
15.279203414916992,17.729537963867188,-0.9278944730758667,-0.0,-0.0,-1.0,0.010123183640208288,2.0
15.302220344543457,18.242149353027344,-0.9626592397689819,-0.0,-0.0,-1.0,0.02733192372531243,1.0
14.58914852142334,19.01287078857422,-0.8115881681442261,-0.0,-0.0,-1.0,0.14538841225574814,2.0
14.377237319946289,18.616619110107422,-0.8224977254867554,-0.0,-0.0,-1.0,0.15990897771622825,1.0
14.376033782958984,18.854839324951172,-0.8395229578018188,-0.0,-0.0,-1.0,0.14192174201529584,1.0
14.340245246887207,17.81740951538086,-0.7789970636367798,-0.8866382879594226,0.457852921263076,-0.06514022424932246,0.13556218380124632,5.0
14.280900001525879,18.08078384399414,-0.8059457540512085,-0.0,-0.0,-1.0,0.05303889804501283,2.0
14.213665962219238,18.424152374267578,-0.8404000997543335,-0.9131933618159755,-0.4047951038256603,0.0471042233139409,0.15708023562620468,3.0
15.0707368850708,18.872657775878906,-0.7122024297714233,-0.0,-0.0,-1.0,0.18178052558025004,2.0
14.358107566833496,17.811697006225586,-0.7752174139022827,0.14234106193515964,-0.1967550533518855,-0.9700651890814699,0.10556653102654345,3.0
15.557613372802734,19.27264976501465,-0.8936988115310669,-0.0,-0.0,-1.0,0.07997894394261822,1.0
15.630233764648438,18.16660499572754,-0.9642945528030396,-0.0,-0.0,-1.0,0.13672062691513553,1.0
15.53968620300293,18.452836990356445,-1.0048249959945679,-0.0,-0.0,-1.0,0.12105341981461583,2.0
15.418596267700195,18.875991821289062,-0.7466739416122437,-0.2526252085597216,-0.022161827881916066,-0.9673103728302975,0.10639760076186738,4.0
14.997123718261719,19.372623443603516,-0.8728190660476685,-0.0,-0.0,-1.0,0.22370927155023626,2.0
15.550116539001465,17.86956024169922,-0.9725967645645142,-0.0,-0.0,-1.0,0.031320519324130484,2.0
15.468988418579102,18.239774703979492,-1.012226939201355,-0.17393113659431847,-0.20188246964605167,-0.963842014114668,0.13262153415329375,4.0
14.723525047302246,17.99399757385254,-0.8749276399612427,-0.12611825470527546,0.025906433380220254,-0.9916768841410045,0.01435823763082098,4.0
14.695029258728027,18.248504638671875,-0.8903766870498657,-0.0,-0.0,-1.0,0.01863927363413522,2.0
14.505130767822266,18.594541549682617,-0.9492558240890503,-0.0,-0.0,-1.0,0.10110701560074373,2.0
14.303508758544922,18.9780216217041,-1.0142089128494263,-0.7419487618514639,0.46503456417623446,-0.482964687020179,0.17157473442689689,3.0
14.717144012451172,17.73907470703125,-0.8692797422409058,-0.0,-0.0,-1.0,0.017894356811510248,1.0
15.679112434387207,19.340797424316406,-1.0371196269989014,-0.0,-0.0,-1.0,0.10237484906184867,1.0
15.701642990112305,19.232948303222656,-1.0215792655944824,-0.0,-0.0,-1.0,0.12095172427388785,1.0
15.660400390625,18.840120315551758,-0.8655264377593994,-0.0,-0.0,-1.0,0.15598117310482326,1.0
15.622391700744629,19.092016220092773,-0.893373966217041,-0.0,-0.0,-1.0,0.16175973663607748,1.0
15.306926727294922,19.340728759765625,-0.8544609546661377,-0.0,-0.0,-1.0,0.1960675307563116,1.0
15.503931045532227,18.265602111816406,-1.0216090679168701,0.7135058071858157,-0.5131259936690424,-0.47708613240511966,0.137344215706508,4.0
15.496371269226074,18.616025924682617,-0.9013288021087646,-0.0,-0.0,-1.0,0.1762927205084367,2.0
14.553400039672852,19.55814552307129,-1.068896770477295,-0.0,-0.0,-1.0,0.060894240519435136,1.0
15.519424438476562,17.69489860534668,-0.9968488216400146,-0.0,-0.0,-1.0,0.03225782817361848,2.0
15.52741813659668,18.03966522216797,-1.005075454711914,0.017653400430766224,-0.98651352622982,-0.16272498277411893,0.0820841098332681,4.0
15.025566101074219,18.474451065063477,-0.8849122524261475,-0.0,-0.0,-1.0,0.10301770251374423,2.0
14.796225547790527,18.50927734375,-0.9491853713989258,-0.5091869077572087,0.8127061132432539,-0.2832621867911341,0.04047621865897704,4.0
14.6026611328125,18.808168411254883,-1.0146653652191162,-0.0,-0.0,-1.0,0.11691189390898173,1.0
14.91015625,17.760231018066406,-0.8960845470428467,0.21415235132395838,-0.600212660303189,-0.7706383930444868,0.0372430082636464,3.0
14.856834411621094,18.076641082763672,-0.9183244705200195,-0.0,-0.0,-1.0,0.025895924947515143,2.0
14.818344116210938,18.35332679748535,-0.9372990131378174,-0.0,-0.0,-1.0,0.028386013314268623,1.0
14.295337677001953,18.61078643798828,-0.7730495929718018,0.029276016022949353,0.9722149342258343,-0.2322520969853239,0.10473373991620763,6.0
14.20815658569336,18.074420928955078,-0.7813980579376221,-0.0,-0.0,-1.0,0.07062744398713608,2.0
14.08269214630127,18.481290817260742,-0.8201601505279541,0.22431541167575766,0.9678247926083919,-0.11400774928599731,0.08800091851644838,3.0
14.047393798828125,17.996570587158203,-0.8185625076293945,-0.0,-0.0,-1.0,0.08764924951533437,2.0
15.58927059173584,19.0458984375,-0.7856388092041016,-0.0,-0.0,-1.0,0.11794085471248265,1.0
15.078289031982422,19.491987228393555,-0.9688811302185059,-0.0,-0.0,-1.0,0.12925434215973905,1.0
15.55372428894043,18.801599502563477,-0.7858090400695801,-0.0,-0.0,-1.0,0.17239365217053565,2.0
14.877788543701172,19.490036010742188,-1.030858039855957,-0.0,-0.0,-1.0,0.08712274473372592,2.0
14.985445022583008,18.550251007080078,-0.9577407836914062,-0.0,-0.0,-1.0,0.09583051075588926,2.0
14.990565299987793,18.68388557434082,-0.9596803188323975,-0.0,-0.0,-1.0,0.1726609471726364,1.0
14.484857559204102,19.032167434692383,-0.8439249992370605,-0.0,-0.0,-1.0,0.10754641099943102,2.0
13.737286567687988,19.627954483032227,-1.0723567008972168,-0.0,-0.0,-1.0,0.02250560693780369,1.0
15.031267166137695,17.9393367767334,-0.9343249797821045,0.21478489334213763,0.8751302517131329,-0.4336063792525608,0.03774751293410646,4.0
14.976982116699219,18.2534122467041,-0.9543955326080322,-0.6323355291299751,0.17468686939217395,-0.7547425231573188,0.033922972138247895,3.0
14.286504745483398,18.74051856994629,-0.8919050693511963,-0.0,-0.0,-1.0,0.20602155511337866,2.0
13.85076904296875,19.065839767456055,-1.021540880203247,-0.0,-0.0,-1.0,0.06420712859081561,2.0
13.730880737304688,19.4155330657959,-1.066023588180542,-0.0,-0.0,-1.0,0.024781255124679977,1.0
15.028341293334961,17.649431228637695,-0.9360582828521729,-0.0,-0.0,-1.0,0.02818188793567223,2.0
14.421869277954102,17.928003311157227,-0.8462033271789551,-0.0,-0.0,-1.0,0.06144822587700179,1.0
14.341181755065918,18.24517822265625,-0.8697235584259033,-0.0,-0.0,-1.0,0.11054577436739271,1.0
14.1853609085083,18.52960205078125,-0.9165372848510742,-0.0,-0.0,-1.0,0.21765491988362834,1.0
14.40903091430664,17.65395164489746,-0.8517954349517822,-0.0,-0.0,-1.0,0.052502457659779185,2.0
14.180549621582031,18.656230926513672,-0.7307345867156982,-0.0,-0.0,-1.0,0.130722967712806,2.0
13.930073738098145,18.309579849243164,-0.8013365268707275,-0.0,-0.0,-1.0,0.04537644963310549,1.0
13.757797241210938,18.463115692138672,-0.8522870540618896,-0.0,-0.0,-1.0,0.053206744010517,1.0
14.077706336975098,17.81029510498047,-0.7625067234039307,-0.6764908161859176,0.3747248463835216,-0.6339885370564335,0.12396781969267466,3.0
14.021851539611816,18.044702529907227,-0.7756855487823486,-0.0,-0.0,-1.0,0.07734165074432452,1.0
13.71104621887207,18.315937042236328,-0.8655664920806885,-0.0,-0.0,-1.0,0.10757440190574165,1.0
14.518035888671875,18.86101531982422,-0.8349744081497192,-0.0,-0.0,-1.0,0.10288841919650737,2.0
14.302645683288574,18.21593475341797,-0.7771259546279907,-0.0,-0.0,-1.0,0.1041579725845799,2.0
14.182229042053223,17.945716857910156,-0.7532836198806763,-0.0,-0.0,-1.0,0.15838180898196097,1.0
15.283693313598633,18.557872772216797,-0.8058089017868042,-0.0,-0.0,-1.0,0.1437649537370984,1.0
14.78148078918457,19.03912353515625,-0.9726074934005737,-0.0,-0.0,-1.0,0.10694726866618207,1.0
15.324865341186523,18.569869995117188,-0.9256201982498169,0.13619958029360824,0.7868084426265896,-0.6019818510049665,0.12494509789831451,4.0
15.093974113464355,18.589305877685547,-0.9290632009506226,0.9387772643614649,-0.26594466788246746,-0.21902210286381696,0.1464073245326991,3.0
14.646939277648926,18.06511688232422,-0.8852342367172241,-0.6081828182533568,0.5880271170719684,-0.5332333158847389,0.0808414055523549,3.0
14.544792175292969,17.86468505859375,-0.8681210279464722,-0.0,-0.0,-1.0,0.015995685732224135,1.0
14.452258110046387,17.641483306884766,-0.8489392995834351,0.08207752840831305,0.0566299802714456,-0.9950157409130963,0.036944084608588994,3.0
15.601933479309082,18.5960693359375,-0.9263008832931519,-0.0,-0.0,-1.0,0.175419740671439,2.0
15.593502044677734,18.701053619384766,-0.7773269414901733,0.5361769297626213,0.8230104547607456,0.18753157426108075,0.20767043818360462,6.0
15.706275939941406,18.534832000732422,-0.8273189067840576,-0.0,-0.0,-1.0,0.10718487572975326,1.0
15.407544136047363,18.658584594726562,-0.8375003337860107,-0.0,-0.0,-1.0,0.18592317477760037,2.0
14.784902572631836,19.197181701660156,-0.9686768054962158,-0.0,-0.0,-1.0,0.10228927666953233,2.0
15.147323608398438,18.58767318725586,-0.9061286449432373,0.2744421895527736,0.051552156218710295,-0.9602207349264444,0.14145031263773863,3.0
14.699769973754883,18.037006378173828,-0.8720231056213379,0.11731777317222115,0.13127675629963761,-0.9843794762962893,0.012265592894416491,3.0
14.562349319458008,17.934833526611328,-0.8673803806304932,-0.0,-0.0,-1.0,0.013893099827082778,2.0
14.462319374084473,17.660839080810547,-0.8470077514648438,-0.633079557987077,0.39548399428604636,-0.6654342067570931,0.049491578598873494,3.0
14.795254707336426,18.614364624023438,-0.8985006809234619,-0.0,-0.0,-1.0,0.04707078440071726,1.0
14.029094696044922,17.825843811035156,-0.8704721927642822,-0.0,-0.0,-1.0,0.08203324276150682,1.0
13.733637809753418,18.122695922851562,-0.910480260848999,-0.0,-0.0,-1.0,0.0966137300783578,1.0
15.24091911315918,18.751386642456055,-0.8796632289886475,-0.31318476124466754,-0.6386630444166151,-0.7028689927864377,0.09844073703099643,7.0
14.807107925415039,19.244539260864258,-0.95597243309021,-0.0,-0.0,-1.0,0.1560419525208865,2.0
14.551416397094727,18.442907333374023,-0.8801085948944092,-0.0,-0.0,-1.0,0.06297109408864604,1.0
15.697114944458008,18.66571617126465,-0.9747276306152344,-0.3579767911094429,0.7541481368713434,0.5505571765770272,0.1468137623187532,5.0
15.365363121032715,18.574323654174805,-0.9819226264953613,-0.0,-0.0,-1.0,0.10283274658313066,1.0
15.097875595092773,18.423891067504883,-0.978571891784668,-0.0,-0.0,-1.0,0.07905685179454867,1.0
14.885194778442383,17.822492599487305,-0.9168190956115723,-0.0,-0.0,-1.0,0.038057705263513514,1.0
15.6507568359375,18.71529769897461,-0.9071564674377441,-0.8928510308814159,-0.2504892653651625,-0.3742621602444122,0.2027182933220886,5.0
15.219029426574707,18.69171142578125,-0.9340157508850098,0.6210673536707332,-0.16301670178389346,-0.7666165254832,0.08503895472669007,3.0
14.918664932250977,18.65052604675293,-0.949831485748291,-0.3426959087546748,0.6995624975808926,-0.6270341506658079,0.14448445668467533,3.0
14.712080001831055,17.991504669189453,-0.8766241073608398,-0.12611825470527546,0.025906433380220254,-0.9916768841410045,0.014437272300332732,4.0
15.485576629638672,18.870872497558594,-0.7009034156799316,-0.0,-0.0,-1.0,0.09372898605246514,2.0
14.936226844787598,19.231830596923828,-1.0103180408477783,-0.0,-0.0,-1.0,0.15883771265895286,1.0
15.664746284484863,18.66973304748535,-0.8987858295440674,-0.9864067846903439,0.16004111473643232,0.0372625376320232,0.16889002579205026,6.0
15.472965240478516,18.682931900024414,-0.9079649448394775,-0.2897708425776738,0.9418896565338076,0.1699315559466541,0.14628752690899727,3.0
15.23964786529541,18.708024978637695,-0.9207808971405029,0.6632118195442446,-0.19693789563913103,-0.7220564712527987,0.11368904752758908,4.0
14.468289375305176,17.823562622070312,-0.8228390216827393,-0.0,-0.0,-1.0,0.050935352818166725,1.0
14.53846549987793,18.373472213745117,-0.9007580280303955,-0.0,-0.0,-1.0,0.08284288259150997,2.0
14.225767135620117,17.751253128051758,-0.8232135772705078,0.13335665027646887,0.7489929915138136,-0.6490188768365893,0.0724570097376351,3.0
15.664703369140625,18.700252532958984,-0.8368124961853027,0.7660972349949158,0.5919685808845755,-0.2503362254621686,0.15464797456490165,4.0
15.35425090789795,18.736886978149414,-0.854999303817749,-0.7965712128214687,0.5810720274602915,-0.16682206630815077,0.1602515605575742,4.0
14.78664493560791,19.209808349609375,-0.9536964893341064,0.852234831153031,-0.4993895316909395,-0.15590345797020913,0.12621811865941232,5.0
14.474906921386719,18.549083709716797,-0.8639280796051025,-0.0,-0.0,-1.0,0.07866570768304526,2.0
14.30887508392334,17.85442352294922,-0.7624509334564209,-0.0,-0.0,-1.0,0.1632107621843152,1.0
14.088735580444336,18.06983184814453,-0.8069813251495361,-0.0,-0.0,-1.0,0.07713825343249858,1.0
13.95307445526123,18.262939453125,-0.8440542221069336,-0.0,-0.0,-1.0,0.049196098672826656,1.0
13.735676765441895,18.266267776489258,-0.8555934429168701,-0.0,-0.0,-1.0,0.1063268257850269,1.0
15.436599731445312,17.904582977294922,-0.9578542709350586,-0.0,-0.0,-1.0,0.029946875711300395,1.0
15.187170028686523,17.685829162597656,-0.9228744506835938,-0.0,-0.0,-1.0,0.02473985733645957,1.0
15.551387786865234,18.646713256835938,-1.011805772781372,-0.6147786068022318,-0.7679663077050022,-0.17965248355715133,0.16761758932440926,3.0
15.102469444274902,18.314598083496094,-0.9619276523590088,-0.0,-0.0,-1.0,0.03404346448879208,2.0
15.213844299316406,18.436981201171875,-0.9818553924560547,-0.0,-0.0,-1.0,0.044358705917307825,1.0
14.860919952392578,18.131065368652344,-0.9348373413085938,-0.0,-0.0,-1.0,0.016860631320293733,1.0
14.658209800720215,17.87630844116211,-0.8931663036346436,-0.0,-0.0,-1.0,0.014363028838249133,1.0
14.501733779907227,17.746788024902344,-0.8740668296813965,-0.0,-0.0,-1.0,0.036272443380943514,1.0
15.699348449707031,18.686464309692383,-1.003230094909668,-0.5652603747644507,0.7801469843767863,0.26805109865277404,0.18264305777469025,6.0
15.497834205627441,18.626283645629883,-0.9958133697509766,-0.0,-0.0,-1.0,0.13683873685646536,1.0
15.273782730102539,18.452749252319336,-0.9679222106933594,-0.0,-0.0,-1.0,0.09797597738617708,1.0
14.780536651611328,18.00555992126465,-0.8953614234924316,-0.0,-0.0,-1.0,0.024332292125597326,1.0
14.947125434875488,18.232961654663086,-0.9341144561767578,-0.6323355291299751,0.17468686939217395,-0.7547425231573188,0.035769779326208624,3.0
14.58824348449707,17.83945083618164,-0.8691847324371338,-0.0,-0.0,-1.0,0.021047956909903746,1.0
15.612783432006836,18.682313919067383,-0.8112454414367676,-0.884135396888725,-0.07497108109294469,-0.46117668736415085,0.16124856534045864,3.0
15.363028526306152,18.7652587890625,-0.8273224830627441,-0.7965712128214687,0.5810720274602915,-0.16682206630815077,0.17134320154276578,4.0
15.020925521850586,19.435863494873047,-0.9532454013824463,-0.0,-0.0,-1.0,0.19047717440660944,1.0
14.774478912353516,19.189367294311523,-0.9101605415344238,-0.0014434754562671272,0.9053446178615652,0.4246752162390736,0.11907661969440161,3.0
14.856006622314453,19.27189826965332,-0.9245455265045166,-0.0,-0.0,-1.0,0.20564069607454222,1.0
14.597722053527832,18.926143646240234,-0.8635096549987793,-0.0,-0.0,-1.0,0.16436321608548962,1.0
14.25192642211914,18.796899795532227,-0.8444302082061768,-0.0,-0.0,-1.0,0.16499459219043144,2.0
14.373637199401855,17.917064666748047,-0.6793599128723145,0.11333079556228286,0.10854903194801388,-0.987609861453585,0.1987965910080724,3.0
14.365468978881836,18.252437591552734,-0.7416653633117676,-0.0,-0.0,-1.0,0.1303002145776061,1.0
15.533512115478516,18.387226104736328,-1.0425405502319336,-0.0,-0.0,-1.0,0.07804005302866458,1.0
15.372764587402344,18.239662170410156,-1.0105183124542236,-0.0,-0.0,-1.0,0.06737239020163814,1.0
15.234415054321289,18.18187141418457,-0.9974749088287354,-0.0,-0.0,-1.0,0.058303897549458875,1.0
14.787904739379883,17.818220138549805,-0.9198064804077148,-0.0,-0.0,-1.0,0.01808244043463099,1.0
14.995832443237305,17.950895309448242,-0.9481322765350342,0.3958856258603105,0.8728586183162633,-0.28529353947857633,0.04049988152610641,3.0
14.536275863647461,17.658973693847656,-0.8863928318023682,-0.0,-0.0,-1.0,0.03433150718953795,1.0
15.510875701904297,18.925933837890625,-0.7788166999816895,-0.0,-0.0,-1.0,0.07205391129094679,1.0
15.652325630187988,18.789947509765625,-0.7775182723999023,0.5933809748889991,-0.09572283679881927,-0.7992097078708239,0.18330635719048333,3.0
15.448529243469238,18.817289352416992,-0.7744951248168945,-0.0,-0.0,-1.0,0.16539062617297906,1.0
15.330202102661133,18.830507278442383,-0.7724359035491943,-0.0,-0.0,-1.0,0.11041992727600321,1.0
15.663643836975098,18.72968101501465,-0.7783157825469971,-0.0,-0.0,-1.0,0.1887786485009407,2.0
15.44010066986084,18.74704360961914,-0.7770047187805176,-0.0,-0.0,-1.0,0.17308110556364964,2.0
15.273262023925781,18.869674682617188,-0.7998874187469482,-0.0,-0.0,-1.0,0.08405420663980481,2.0
15.03875732421875,19.392520904541016,-0.9088406562805176,-0.0,-0.0,-1.0,0.20676542864157826,2.0
15.654083251953125,18.713558197021484,-0.8705298900604248,-0.2721278718560963,0.9114851624039576,0.3084497042898622,0.16633521651053007,5.0
15.381543159484863,18.765060424804688,-0.8714468479156494,-0.5063170175050232,0.723887639145401,-0.4686467365482405,0.16274234611134386,5.0
15.20064926147461,19.005157470703125,-0.9198660850524902,-0.0,-0.0,-1.0,0.15820823601803663,2.0
15.148042678833008,19.394195556640625,-1.007833480834961,0.7191483121960306,-0.5035153969754064,-0.47885065529275356,0.17462595783503168,3.0
14.849945068359375,19.286537170410156,-0.9734792709350586,-0.0,-0.0,-1.0,0.18955638177782294,1.0
14.472612380981445,18.839706420898438,-0.8586761951446533,-0.5956740939582321,0.7847564966161187,0.17125891160997941,0.1404154085187838,3.0
14.285839080810547,18.601655960083008,-0.7981443405151367,-0.029527472230693408,0.9592570944346501,-0.2809874644187143,0.20146695207868107,5.0
14.231483459472656,18.853193283081055,-0.8555562496185303,-0.0,-0.0,-1.0,0.14233636752052048,1.0
13.759397506713867,19.05771255493164,-0.8935320377349854,-0.0,-0.0,-1.0,0.06439762943173456,1.0
14.397294998168945,18.377365112304688,-0.7489149570465088,-0.0,-0.0,-1.0,0.1607253688712812,2.0
15.608232498168945,18.764415740966797,-0.8019075393676758,-0.0,-0.0,-1.0,0.2536921424686306,1.0
15.402061462402344,18.838905334472656,-0.8124303817749023,-0.0,-0.0,-1.0,0.1306104341693351,1.0
15.31535816192627,19.467500686645508,-0.9622542858123779,-0.0,-0.0,-1.0,0.11681804934092006,2.0
14.932146072387695,19.334854125976562,-0.9191932678222656,-0.0,-0.0,-1.0,0.19172802777448403,1.0
15.308536529541016,18.192399978637695,-0.9963710308074951,-0.0,-0.0,-1.0,0.06683369935163942,1.0
14.922822952270508,18.126693725585938,-0.946223258972168,-0.0,-0.0,-1.0,0.034439199385391375,1.0
14.560730934143066,17.974658966064453,-0.8763527870178223,-0.0,-0.0,-1.0,0.08722377888837772,2.0
14.115670204162598,17.96792221069336,-0.8424491882324219,-0.0,-0.0,-1.0,0.12653302767398647,1.0
13.944925308227539,18.101516723632812,-0.8684513568878174,-0.0,-0.0,-1.0,0.12491585438761019,1.0
14.203060150146484,17.778736114501953,-0.7961628437042236,-0.0,-0.0,-1.0,0.07245700973763508,2.0
14.289302825927734,19.373348236083984,-1.0357017517089844,-0.0,-0.0,-1.0,0.03552674678931062,1.0
14.422028541564941,19.19827651977539,-1.0289826393127441,-0.0,-0.0,-1.0,0.05683496942541043,1.0
14.31960391998291,18.909204483032227,-0.9548864364624023,-0.0,-0.0,-1.0,0.19781082327184077,1.0
14.109152793884277,18.473735809326172,-0.8322329521179199,-0.3115000337070242,0.3318675612124118,-0.8904109449099605,0.09434488777185294,3.0
14.6096830368042,18.053319931030273,-0.855750560760498,-0.0,-0.0,-1.0,0.009364675719713755,2.0
14.338944435119629,18.102048873901367,-0.8097152709960938,-0.585520233126718,-0.47416221918205687,-0.6575228106306131,0.08869049455117473,3.0
14.156875610351562,18.261240005493164,-0.8024325370788574,0.2747868177945698,-0.812922471073579,-0.5134678770769989,0.10862904166371294,3.0
14.663850784301758,17.99593162536621,-0.8563938140869141,-0.0,-0.0,-1.0,0.01371247222466147,2.0
14.289705276489258,17.900989532470703,-0.762974739074707,-0.0,-0.0,-1.0,0.16464663528512347,2.0
14.354736328125,19.2459659576416,-1.029393196105957,-0.0,-0.0,-1.0,0.05230412105595813,2.0
14.229559898376465,19.35713005065918,-1.0244712829589844,-0.0,-0.0,-1.0,0.03618945953580822,1.0
14.402935981750488,19.093843460083008,-1.0076580047607422,-0.0,-0.0,-1.0,0.1338589347905982,1.0
14.22071361541748,18.624849319458008,-0.8631525039672852,-0.0,-0.0,-1.0,0.1783445992177303,1.0
14.200519561767578,18.45595932006836,-0.8219285011291504,-0.9131933618159755,-0.4047951038256603,0.0471042233139409,0.15599926582828053,3.0
14.646344184875488,18.094812393188477,-0.8518085479736328,-0.0,-0.0,-1.0,0.008148791944709282,2.0
14.326739311218262,18.26050567626953,-0.8100771903991699,-0.0,-0.0,-1.0,0.10236076154491383,2.0
15.288296699523926,17.714366912841797,-0.9300317764282227,-0.0,-0.0,-1.0,0.010430493336134385,2.0
15.011384963989258,17.832582473754883,-0.8860330581665039,-0.0,-0.0,-1.0,0.050693124690106485,2.0
15.069865226745605,19.289751052856445,-1.0154767036437988,-0.0,-0.0,-1.0,0.13701016795239013,2.0
14.732126235961914,19.283863067626953,-0.9692325592041016,-0.0,-0.0,-1.0,0.08157476188836939,1.0
15.238607406616211,19.1511287689209,-0.9966082572937012,-0.0,-0.0,-1.0,0.0911876179984914,2.0
15.666731834411621,18.69835090637207,-0.9214005470275879,-0.8000231119594334,-0.33683646536929795,-0.49649190922739317,0.15039791256405485,3.0
14.60693645477295,18.980449676513672,-0.8615713119506836,-0.2656183797923563,0.5742104213437866,-0.7744218929864228,0.17970491410571968,4.0
15.275785446166992,18.75754165649414,-0.8848156929016113,-0.14283568171206676,-0.08722821800269037,-0.9858951293184914,0.11624304903048005,6.0
15.285442352294922,18.867481231689453,-0.7614254951477051,-0.14155360250336627,0.9897909581848116,0.016626386074916923,0.12314088029949753,5.0
15.167584419250488,19.16197395324707,-1.010951042175293,-0.0,-0.0,-1.0,0.07008855898359352,1.0
14.947211265563965,19.356592178344727,-1.0046730041503906,-0.0,-0.0,-1.0,0.19896664828395158,1.0
15.633851051330566,18.53546905517578,-0.9824657440185547,-0.0,-0.0,-1.0,0.14004949771202369,1.0
15.160788536071777,18.917926788330078,-0.957463264465332,-0.0,-0.0,-1.0,0.1883903478699351,2.0
15.4049654006958,18.528823852539062,-0.9297981262207031,-0.0,-0.0,-1.0,0.10400957633609179,2.0
15.176690101623535,18.635540008544922,-0.9013094902038574,-0.0,-0.0,-1.0,0.12606339103087083,2.0
14.47977066040039,19.38254165649414,-1.0190815925598145,-0.0,-0.0,-1.0,0.049486617212603994,1.0
14.505960464477539,19.168123245239258,-0.9784770011901855,-0.0,-0.0,-1.0,0.14135753440456195,2.0
15.264631271362305,18.13974952697754,-0.9352316856384277,-0.0,-0.0,-1.0,0.0679630537394415,2.0
15.004243850708008,18.344676971435547,-0.9173965454101562,-0.0,-0.0,-1.0,0.056695126660044226,1.0
14.784753799438477,18.520660400390625,-0.9037079811096191,-0.5091869077572087,0.8127061132432539,-0.2832621867911341,0.034146634398491825,4.0
15.502809524536133,17.859487533569336,-0.9333415031433105,-0.0,-0.0,-1.0,0.036371973950432464,1.0
15.474641799926758,17.951683044433594,-0.9455952644348145,-0.0,-0.0,-1.0,0.03783110521270354,1.0
14.301546096801758,18.717817306518555,-0.8351054191589355,-0.0,-0.0,-1.0,0.09911529597323468,1.0
14.281068801879883,18.5312557220459,-0.7904882431030273,-0.0,-0.0,-1.0,0.14653541019600916,2.0
15.266124725341797,19.164981842041016,-0.9486575126647949,-0.0,-0.0,-1.0,0.10577306688318439,2.0
15.13936996459961,19.305007934570312,-0.9506955146789551,-0.0,-0.0,-1.0,0.18730405210610288,1.0
15.63748550415039,18.635547637939453,-0.9187092781066895,-0.2893383275424122,0.9522555593549046,-0.09743039511691459,0.18758780566072467,4.0
15.322402954101562,19.03314971923828,-0.9327263832092285,-0.0,-0.0,-1.0,0.17024478939054466,2.0
15.441497802734375,18.668407440185547,-0.8811182975769043,-0.0,-0.0,-1.0,0.20027175908583728,2.0
15.234792709350586,18.753597259521484,-0.852546215057373,-0.18590334317187227,-0.6114570412965384,-0.7691295298234258,0.09857920528304241,7.0
15.68272876739502,19.221664428710938,-1.0725340843200684,-0.0,-0.0,-1.0,0.11816958208438558,1.0
15.671992301940918,19.495031356811523,-1.1160540580749512,-0.0,-0.0,-1.0,0.08240004583658357,1.0
15.618926048278809,18.673240661621094,-0.9634518623352051,-0.7145471904327471,-0.15642404241091962,-0.6818752316960153,0.2506482625614652,5.0
15.511975288391113,18.918724060058594,-0.9751496315002441,-0.0,-0.0,-1.0,0.14878675855423557,1.0
15.455517768859863,18.382564544677734,-0.870699405670166,-0.0,-0.0,-1.0,0.14276388777846388,1.0
15.623344421386719,18.80319595336914,-0.9251608848571777,-0.0,-0.0,-1.0,0.18147798909784818,1.0
15.594139099121094,19.077125549316406,-0.9661803245544434,-0.0,-0.0,-1.0,0.21093430098231383,1.0
15.632488250732422,18.370288848876953,-0.8511605262756348,-0.0,-0.0,-1.0,0.1348723532781304,1.0
15.515565872192383,18.55536651611328,-0.8505778312683105,-0.0,-0.0,-1.0,0.19241507891301493,1.0
