x,y,z,nx,ny,nz,curvature,density
35.541954040527344,-11.783599853515625,-0.16779851913452148,-0.0,-0.0,-1.0,0.22451950901740753,1.0
35.53147888183594,-11.52927017211914,-0.1513376235961914,-0.0,-0.0,-1.0,0.16714230032853095,2.0
36.01744079589844,-9.936385154724121,-0.11241698265075684,0.6005813235098305,-0.7333881467820591,0.31850259027323075,0.11373149489150386,6.0
35.62931442260742,-10.140005111694336,-0.08206701278686523,0.002500194528269844,0.713387874533776,0.7007649316964302,0.1463477613901305,4.0
37.27879333496094,-9.871193885803223,-0.14070439338684082,-0.55597456949098,-0.4584483952655565,-0.6933378303235409,0.11317001472103343,3.0
37.15046691894531,-9.984954833984375,-0.1368570327758789,-0.0,-0.0,-1.0,0.14735201153538013,2.0
36.39741516113281,-10.263604164123535,-0.09185290336608887,-0.0,-0.0,-1.0,0.1098343778966349,2.0
36.12926483154297,-9.948223114013672,-0.05036783218383789,0.924963801346983,0.10029300195104869,-0.36658325105954565,0.1668939772627654,5.0
36.19537353515625,-10.579788208007812,0.11650323867797852,-0.0,-0.0,-1.0,0.1066825453783623,1.0
36.124473571777344,-10.404922485351562,0.13473033905029297,-0.0,-0.0,-1.0,0.05093889534366686,1.0
35.612037658691406,-9.626764297485352,-0.28559255599975586,-0.0,-0.0,-1.0,0.08176733654038923,1.0
35.36744689941406,-9.866613388061523,-0.29413628578186035,-0.0,-0.0,-1.0,0.0910172340177153,1.0
37.52557373046875,-11.800835609436035,-0.05566215515136719,-0.0,-0.0,-1.0,0.13949706232309053,1.0
35.22685241699219,-10.23477840423584,0.16895627975463867,-0.0,-0.0,-1.0,0.13260145583699492,2.0
37.06186294555664,-9.607766151428223,-0.2216320037841797,-0.0,-0.0,-1.0,0.03143417030626832,1.0
35.37567138671875,-10.103901863098145,-0.18789458274841309,-0.0,-0.0,-1.0,0.21003446623984168,1.0
37.29582977294922,-9.74388313293457,-0.15247845649719238,-0.09646512322218892,0.9611049235206607,-0.25878911489101053,0.057023109988575064,3.0
37.192935943603516,-9.822237014770508,-0.1511518955230713,-0.0,-0.0,-1.0,0.07595068337288619,1.0
36.097103118896484,-9.730823516845703,-0.08121252059936523,0.0941170180957064,0.10607178658681721,-0.9898943191043441,0.13514991419066788,4.0
36.058162689208984,-9.936805725097656,-0.09198975563049316,0.6714051129447942,-0.015030626011217942,-0.7409380909315562,0.1185308257969845,5.0
35.59103775024414,-10.155717849731445,-0.07384061813354492,0.026480952139150186,0.09338013567072799,-0.9952783075280606,0.22029568110719722,6.0
36.0552978515625,-9.845808029174805,-0.10422945022583008,0.9266607048607866,0.19727889865689568,-0.3199702708247007,0.07465311256403595,3.0
35.94902801513672,-10.080446243286133,-0.1011347770690918,-0.0,-0.0,-1.0,0.1662827188955706,2.0
36.287841796875,-9.418985366821289,-0.11322593688964844,-0.0,-0.0,-1.0,0.15380816261299785,1.0
37.044227600097656,-10.27806282043457,-0.19556975364685059,-0.0,-0.0,-1.0,0.09942438652317967,2.0
37.16726303100586,-9.934141159057617,-0.19776463508605957,-0.0,-0.0,-1.0,0.13162904853478138,2.0
37.51791000366211,-9.827455520629883,-0.22438931465148926,-0.0,-0.0,-1.0,0.10743773058595087,1.0
35.50595474243164,-10.129110336303711,-0.043161869049072266,0.23962634552821802,0.9533978037169766,-0.18333532773700892,0.1414332191581231,3.0
35.862388610839844,-10.078813552856445,-0.07372832298278809,-0.08054343489010976,0.9032648837414863,-0.4214561719747169,0.16294784261740006,3.0
36.15167236328125,-9.366415023803711,-0.08498454093933105,-0.9583997796579928,0.10265093016071354,-0.26633183979511593,0.17964959038772937,3.0
36.18310546875,-9.81355094909668,-0.0968620777130127,0.35821048374419867,-0.8367444760176588,0.41417862232336533,0.08380985251826048,4.0
36.11738586425781,-9.968935012817383,-0.09416508674621582,-0.0,-0.0,-1.0,0.12372916362041919,2.0
37.08977127075195,-10.257284164428711,-0.1871042251586914,-0.0,-0.0,-1.0,0.09434096088421136,2.0
37.35906982421875,-9.788320541381836,-0.20212292671203613,-0.33871285749767427,0.9371932918662672,-0.08332066878410231,0.07134295389100787,3.0
37.65870666503906,-9.875345230102539,-0.23097896575927734,-0.6353813891243335,-0.6596829757341265,-0.4013836841240562,0.15039812783641981,5.0
35.3934211730957,-10.307029724121094,-0.15936613082885742,-0.0,-0.0,-1.0,0.14348453796521915,1.0
36.687503814697266,-10.18067741394043,-0.3072359561920166,-0.0,-0.0,-1.0,0.1318473199755359,1.0
36.30434799194336,-9.363653182983398,-0.24842453002929688,-0.0,-0.0,-1.0,0.07371460716161282,1.0
36.72340393066406,-9.383817672729492,-0.2981877326965332,-0.0,-0.0,-1.0,0.13556593110415854,1.0
37.000099182128906,-9.381309509277344,-0.33096957206726074,-0.0,-0.0,-1.0,0.028680411526109156,1.0
35.26494216918945,-10.150657653808594,-0.17790508270263672,-0.0,-0.0,-1.0,0.1496483803730194,2.0
36.87858581542969,-10.004878997802734,-0.3405287265777588,-0.0,-0.0,-1.0,0.06184160005485975,1.0
35.22212600708008,-10.169239044189453,0.09675717353820801,-0.0,-0.0,-1.0,0.1477419347922169,1.0
35.70048522949219,-10.159112930297852,0.04882335662841797,-0.0,-0.0,-1.0,0.08352171773449685,1.0
35.97587585449219,-10.21329116821289,0.019126176834106445,-0.0,-0.0,-1.0,0.05498936383359961,2.0
36.191139221191406,-10.158124923706055,-0.0013628005981445312,-0.0,-0.0,-1.0,0.1331930312342717,1.0
36.177024841308594,-9.917415618896484,0.006997108459472656,-0.30072864558828977,-0.4819510411074871,-0.8229735571074211,0.16148397177476478,3.0
36.27486801147461,-9.461906433105469,0.009691476821899414,0.19932073385943158,0.31563942216767576,-0.9277084672608057,0.17843016698388336,3.0
37.40415954589844,-9.86931037902832,-0.12092447280883789,-0.16676064828774756,0.9846074943248071,-0.05233515359750953,0.10769807520925533,4.0
37.57444763183594,-9.936254501342773,-0.14095830917358398,-0.0,-0.0,-1.0,0.11236850823188939,2.0
35.47309494018555,-10.162055969238281,-0.16427206993103027,-0.811602109902758,0.5809603233042351,0.0615395640838527,0.25113530617309443,4.0
35.281795501708984,-10.117673873901367,-0.14556384086608887,0.08458689815936812,0.6752387270088391,-0.7327330470282198,0.24035372550480633,3.0
35.75071334838867,-10.011636734008789,-0.18010377883911133,-0.0,-0.0,-1.0,0.2335540031969128,2.0
36.00394821166992,-9.812765121459961,-0.1916060447692871,0.7379446661012525,-0.6208033185269703,-0.26465243146174156,0.19849546670538254,5.0
36.57965087890625,-9.713850021362305,-0.23761773109436035,-0.0,-0.0,-1.0,0.06122953239574921,1.0
37.10118103027344,-9.58843994140625,-0.2785773277282715,-0.0,-0.0,-1.0,0.031279077833884054,2.0
37.329769134521484,-9.571683883666992,-0.29880833625793457,0.3906454811502063,0.19120564669325293,-0.900464607149853,0.07186948639603426,3.0
35.27965545654297,-9.510398864746094,-0.11250162124633789,-0.0,-0.0,-1.0,0.21729509725029006,2.0
35.88789749145508,-9.371612548828125,-0.15806269645690918,-0.0,-0.0,-1.0,0.1337381846210515,1.0
37.01362228393555,-10.446603775024414,-0.2207167148590088,-0.0,-0.0,-1.0,0.15622976480333153,2.0
37.66757583618164,-9.884769439697266,-0.2548949718475342,-0.6271461114782879,-0.6638285676873944,-0.40745476752612103,0.13547222014983334,6.0
37.23565673828125,-9.722637176513672,-0.20578336715698242,-0.0,-0.0,-1.0,0.06193056325047551,2.0
37.422420501708984,-9.748655319213867,-0.22481870651245117,-0.0,-0.0,-1.0,0.07774857827845708,2.0
35.6097297668457,-10.058134078979492,-0.07340598106384277,-0.0,-0.0,-1.0,0.19133290214020762,1.0
35.952754974365234,-10.011537551879883,-0.10164761543273926,0.25592964635037285,0.8018794657454267,-0.5398975259572893,0.15029695620277997,3.0
36.04850387573242,-9.601972579956055,-0.08940505981445312,-0.0,-0.0,-1.0,0.1539724823946658,2.0
36.33147048950195,-10.510622024536133,0.062239885330200195,0.7386621191539766,-0.520926889764338,-0.42780071206977827,0.06836315687631972,3.0
36.586856842041016,-10.588094711303711,0.03704953193664551,-0.7191610570258393,-0.13889353796377013,-0.6808200637241708,0.08379519201452837,4.0
36.84197235107422,-10.660037994384766,0.012012481689453125,-0.24322387304750223,0.17916640895796784,-0.9532793638178049,0.16321465377610836,5.0
36.91655731201172,-10.735153198242188,0.018527746200561523,-0.0,-0.0,-1.0,0.20767388653518262,2.0
36.564453125,-10.66032600402832,0.052394866943359375,0.788791396994919,-0.2480584316475528,-0.562383451494939,0.10655720539621459,3.0
36.71971893310547,-10.652730941772461,0.039604902267456055,-0.0,-0.0,-1.0,0.0643251152019011,2.0
36.66069030761719,-10.514068603515625,-0.31142282485961914,-0.0,-0.0,-1.0,0.09493525634219518,1.0
36.680503845214844,-10.249021530151367,-0.292482852935791,-0.0,-0.0,-1.0,0.16002476696609846,1.0
37.68605041503906,-9.924314498901367,-0.3441927433013916,-0.0,-0.0,-1.0,0.1735831918207929,1.0
35.73031234741211,-10.051448822021484,-0.20993781089782715,-0.0,-0.0,-1.0,0.18597638181078532,2.0
35.875675201416016,-10.065837860107422,-0.22106361389160156,-0.0,-0.0,-1.0,0.17205034022159993,2.0
36.82902145385742,-9.771678924560547,-0.267000675201416,-0.0,-0.0,-1.0,0.1535889443351332,2.0
35.35005569458008,-9.563928604125977,-0.14597511291503906,-0.0,-0.0,-1.0,0.06822849442550234,2.0
36.01389694213867,-9.364261627197266,-0.1762235164642334,-0.0,-0.0,-1.0,0.1554004197857944,1.0
36.86664581298828,-9.585954666137695,-0.2555556297302246,-0.0,-0.0,-1.0,0.049470541622002935,1.0
37.28236770629883,-9.637435913085938,-0.2911515235900879,-0.0,-0.0,-1.0,0.05024614126951435,2.0
36.61669158935547,-10.382829666137695,-0.3207021951675415,-0.0,-0.0,-1.0,0.15411937662414524,1.0
37.035770416259766,-9.60024642944336,-0.29804837703704834,0.17359884365837236,0.9843433512901938,0.030522258292366024,0.02834681272877519,3.0
37.514503479003906,-9.711027145385742,-0.3318305015563965,-0.0,-0.0,-1.0,0.09284697618721528,1.0
37.212623596191406,-9.531431198120117,-0.30409371852874756,-0.0,-0.0,-1.0,0.033502748043539976,1.0
36.50224304199219,-10.540346145629883,0.0417633056640625,-0.0,-0.0,-1.0,0.07243558135259269,1.0
36.774658203125,-10.636991500854492,0.022131800651550293,-0.0,-0.0,-1.0,0.12780316990809054,2.0
36.41574478149414,-9.935586929321289,-0.37132203578948975,-0.0,-0.0,-1.0,0.1398721037259692,1.0
36.93050765991211,-9.55797004699707,-0.31109797954559326,-0.1844914379284288,0.9151827338899257,-0.3583343032991148,0.03437436227993748,3.0
37.56393814086914,-9.569854736328125,-0.34330010414123535,-0.0,-0.0,-1.0,0.11516968806228958,2.0
37.22858428955078,-9.41880989074707,-0.3175783157348633,-0.0,-0.0,-1.0,0.033514578825244674,2.0
35.474205017089844,-10.055944442749023,-0.2085583209991455,-0.0,-0.0,-1.0,0.2575016648860818,2.0
37.1715087890625,-9.607440948486328,-0.26808297634124756,-0.0,-0.0,-1.0,0.03395347960333351,1.0
37.49223327636719,-9.686262130737305,-0.29017531871795654,-0.0,-0.0,-1.0,0.1113413519281589,1.0
35.48119354248047,-10.343452453613281,-0.029637575149536133,0.6352352482164769,0.32908680048357736,-0.6986974002891616,0.17341645211443382,3.0
36.49119567871094,-10.305225372314453,-0.039385199546813965,-0.0,-0.0,-1.0,0.16235864509839096,2.0
36.810359954833984,-10.500993728637695,-0.05408656597137451,-0.0,-0.0,-1.0,0.19445451715669232,2.0
36.997013092041016,-10.559892654418945,-0.060037851333618164,0.5223422124525671,0.6903747053043421,-0.5005410865914006,0.1439931252454009,3.0
35.2231330871582,-10.092720031738281,-0.014636516571044922,-0.0,-0.0,-1.0,0.20665809574823746,1.0
35.62700653076172,-10.07811164855957,-0.017483115196228027,0.8282018923740048,0.2776567516550339,0.48681449621852074,0.1569618696016236,3.0
35.946014404296875,-10.077510833740234,-0.02086484432220459,-0.3121806178820679,-0.8771501727078397,-0.36489839179883626,0.15695623786221632,5.0
36.172607421875,-9.879789352416992,-0.013423442840576172,0.9757893516765159,0.18110753429871743,0.12261811519903407,0.166340142014262,3.0
35.611698150634766,-10.183652877807617,-0.17789208889007568,-0.0,-0.0,-1.0,0.18757474462502907,1.0
36.74164581298828,-10.4613037109375,-0.19520115852355957,-0.0,-0.0,-1.0,0.13232474974747546,2.0
36.973350524902344,-10.431171417236328,-0.1945023536682129,-0.0,-0.0,-1.0,0.18980129834367204,1.0
35.809486389160156,-10.013385772705078,-0.16800498962402344,-0.0,-0.0,-1.0,0.1955615774601508,2.0
37.167640686035156,-9.94900894165039,-0.1678677797317505,-0.2003941942941002,-0.8782354216985672,-0.4342173545209339,0.15034423533302174,3.0
37.48808670043945,-9.846498489379883,-0.16407907009124756,-0.0,-0.0,-1.0,0.09087024074660317,1.0
35.408267974853516,-9.406288146972656,-0.13403618335723877,-0.0,-0.0,-1.0,0.1684601750218464,2.0
37.261802673339844,-9.801206588745117,-0.15995001792907715,-0.0,-0.0,-1.0,0.08573809304503185,2.0
37.352752685546875,-9.786832809448242,-0.15970861911773682,-0.9419869791746847,-0.30968840724147434,-0.12943578131873276,0.08469911896720055,3.0
35.54694366455078,-10.281915664672852,-0.19129538536071777,-0.0,-0.0,-1.0,0.21293267895350595,2.0
36.8747444152832,-10.459819793701172,-0.22506916522979736,-0.0,-0.0,-1.0,0.19048008236284117,1.0
35.769386291503906,-10.045036315917969,-0.18066048622131348,0.5361295590017298,0.31280622498309374,-0.7840391326818046,0.20999745875604175,3.0
37.68193817138672,-9.98354721069336,-0.21468663215637207,-0.0,-0.0,-1.0,0.16361589070111646,2.0
37.32938003540039,-9.881231307983398,-0.20044469833374023,-0.0,-0.0,-1.0,0.12964470348966595,2.0
37.59529113769531,-9.8876953125,-0.20689356327056885,-0.0,-0.0,-1.0,0.1453401859097266,2.0
35.28677749633789,-9.520885467529297,-0.14304804801940918,0.19727015868644848,-0.9121925972110152,0.3591505952734116,0.16809318826696854,3.0
37.29375457763672,-9.754743576049805,-0.19203901290893555,-0.97601769750413,0.08668571182269574,-0.19968735945104069,0.06932615339881226,4.0
35.46317672729492,-10.326929092407227,-0.03823542594909668,-0.0,-0.0,-1.0,0.2038322308907048,2.0
36.68281555175781,-10.407991409301758,-0.06735074520111084,-0.0,-0.0,-1.0,0.12615086244442159,2.0
36.97197341918945,-10.557073593139648,-0.08227992057800293,0.7342409499941006,0.5504651219449844,-0.3973391207443008,0.20375461597819872,4.0
35.5051383972168,-10.077434539794922,-0.02567601203918457,-0.0,-0.0,-1.0,0.1350868959549826,2.0
35.79686737060547,-9.99879264831543,-0.026720643043518066,-0.8563908786666108,-0.5017352129428687,0.12188699286554042,0.20246355342863626,6.0
36.41735076904297,-9.847270965576172,-0.03104686737060547,-0.0,-0.0,-1.0,0.10065089418794781,2.0
37.22294616699219,-9.957149505615234,-0.05584394931793213,-0.0,-0.0,-1.0,0.09810113137668598,2.0
37.41371536254883,-9.883735656738281,-0.05675220489501953,-0.29838407301664877,0.896435138735949,0.3276751241846941,0.11804084141927233,3.0
36.33230209350586,-9.763084411621094,-0.024689912796020508,-0.0,-0.0,-1.0,0.09849659701106343,2.0
36.110591888427734,-9.400274276733398,-0.0006086826324462891,-0.9666911838011378,-0.040235525804151386,-0.2527632442116895,0.17003611274007488,3.0
37.51095962524414,-11.758525848388672,-0.25791501998901367,-0.0,-0.0,-1.0,0.21837517621404487,1.0
35.445228576660156,-10.301130294799805,-0.12969577312469482,-0.0,-0.0,-1.0,0.14825330913595822,1.0
36.74217987060547,-10.47138786315918,-0.16392242908477783,-0.0,-0.0,-1.0,0.16010631192174574,2.0
36.919654846191406,-10.551748275756836,-0.1725398302078247,-0.0,-0.0,-1.0,0.23589919376699417,2.0
35.43149948120117,-10.08774185180664,-0.11726295948028564,-0.0,-0.0,-1.0,0.19945576092357786,2.0
35.75555419921875,-9.976358413696289,-0.11610174179077148,-0.0,-0.0,-1.0,0.20116092910653655,1.0
37.148345947265625,-9.95697021484375,-0.14286088943481445,-0.7460876235069448,-0.19324947834460213,-0.6371874898091601,0.14667774719190438,3.0
37.43510055541992,-9.87247085571289,-0.14472687244415283,0.015706855617202423,0.9936383321695067,-0.11151753014670832,0.12897099589553424,3.0
36.237483978271484,-9.409143447875977,-0.09190499782562256,-0.8908165146124667,0.022199334730995227,-0.4538205888136832,0.10203140215229745,3.0
37.64190673828125,-11.736217498779297,-0.23778772354125977,-0.0,-0.0,-1.0,0.1974799494765506,2.0
37.02125549316406,-10.565927505493164,-0.14864802360534668,-0.0,-0.0,-1.0,0.2543990503236452,1.0
35.338233947753906,-10.141942977905273,-0.08030295372009277,-0.0,-0.0,-1.0,0.24370851744648436,1.0
35.53938674926758,-10.297327041625977,-0.09376978874206543,-0.0,-0.0,-1.0,0.1930824577361778,1.0
36.66644287109375,-10.436054229736328,-0.13072359561920166,-0.0,-0.0,-1.0,0.10475419787521903,1.0
36.88551330566406,-10.52083969116211,-0.141992449760437,-0.0,-0.0,-1.0,0.264614949613688,1.0
35.80001449584961,-10.028553009033203,-0.08439993858337402,-0.9730955896447001,-0.14918282649243184,0.17558319308453785,0.21148747571209797,5.0
37.381263732910156,-9.880758285522461,-0.11900901794433594,-0.4289387031493131,0.88672629759228,0.17241827658016073,0.12103752242051496,3.0
37.64604187011719,-9.964632034301758,-0.1322944164276123,0.6765562354129725,0.47498351433975927,-0.5627275730131573,0.08436934178456072,3.0
36.19410705566406,-9.384830474853516,-0.05671358108520508,0.7729412470223738,-0.5974798798595922,0.21349384491002438,0.1385569053406381,4.0
36.95402526855469,-10.515947341918945,-0.0772937536239624,0.8706156946739882,0.4124611201332865,-0.26814946683841,0.18722761694490997,3.0
35.36160659790039,-10.229467391967773,-0.01630425453186035,0.025431387503328948,0.7985185736950312,-0.6014327327255382,0.16460736569628343,4.0
35.940582275390625,-10.087955474853516,-0.02321171760559082,-0.3121806178820679,-0.8771501727078397,-0.36489839179883626,0.1463064678277961,5.0
36.07255172729492,-10.144063949584961,-0.02996969223022461,0.467700584796507,-0.8103377292956784,0.35299989725342706,0.14153623734285337,3.0
36.61079788208008,-10.326848983764648,-0.05589568614959717,-0.0,-0.0,-1.0,0.25150534195020774,2.0
36.87031936645508,-10.455665588378906,-0.07118713855743408,-0.0,-0.0,-1.0,0.21097363615852183,2.0
35.81535339355469,-10.00815200805664,-0.015373706817626953,-0.9893994702950141,-0.14340972443076622,0.022854739522408907,0.21373615712223082,5.0
37.39165496826172,-9.891639709472656,-0.05521714687347412,-0.46604400294448745,0.8439585649434963,0.2655878912488162,0.10857904506966796,4.0
36.7083740234375,-10.412609100341797,-0.0362849235534668,-0.0,-0.0,-1.0,0.12622432514141058,2.0
36.97016906738281,-10.532058715820312,-0.04966092109680176,0.7342409499941006,0.5504651219449844,-0.3973391207443008,0.17584428642160815,4.0
35.66706085205078,-10.050905227661133,0.007126808166503906,-0.4858120792496705,-0.7422655815093989,0.4615500299660118,0.19051895551448525,3.0
35.91046905517578,-10.071455001831055,0.0009779930114746094,-0.6039354591977844,-0.6564800503460341,-0.45199104484627767,0.160815021082064,5.0
36.28813934326172,-10.195703506469727,-0.014185667037963867,-0.0,-0.0,-1.0,0.09938865824322789,2.0
36.53173828125,-10.330671310424805,-0.027386903762817383,-0.0,-0.0,-1.0,0.1409789486992508,2.0
36.701900482177734,-10.387271881103516,-0.1277695894241333,-0.0,-0.0,-1.0,0.1321875584832103,1.0
36.97126770019531,-10.482080459594727,-0.13711559772491455,-0.0,-0.0,-1.0,0.2043332725040837,1.0
35.40849304199219,-10.11907958984375,-0.09856617450714111,-0.0,-0.0,-1.0,0.2103816973634213,2.0
35.675193786621094,-10.106584548950195,-0.10008013248443604,-0.797071836559938,0.14324019995963164,0.5866504346529479,0.15901636507109526,4.0
36.6187744140625,-10.328641891479492,-0.12324178218841553,-0.0,-0.0,-1.0,0.1546624431804559,1.0
37.46900177001953,-9.825767517089844,-0.1057654619216919,-0.0,-0.0,-1.0,0.08368922653598741,1.0
36.856903076171875,-10.404010772705078,-0.1170034408569336,-0.0,-0.0,-1.0,0.17486440326144959,1.0
37.11016082763672,-10.430025100708008,-0.11952996253967285,-0.0,-0.0,-1.0,0.1710628741691027,1.0
35.2974967956543,-10.05870246887207,-0.09715604782104492,-0.0,-0.0,-1.0,0.20724361943571173,1.0
35.65959548950195,-10.079925537109375,-0.09762191772460938,-0.797071836559938,0.14324019995963164,0.5866504346529479,0.15228983556737258,4.0
36.60321044921875,-10.255584716796875,-0.10791301727294922,-0.0,-0.0,-1.0,0.2527680714171675,1.0
36.522727966308594,-9.764305114746094,-0.08063364028930664,-0.0,-0.0,-1.0,0.05857965476774507,1.0
37.4075927734375,-9.873710632324219,-0.08975338935852051,-0.40562784224438525,0.8823503192148899,0.2385874426233407,0.12160806969876867,5.0
37.562156677246094,-9.867591857910156,-0.09026932716369629,-0.0,-0.0,-1.0,0.0971646959477482,1.0
37.615116119384766,-11.061342239379883,-0.3381235599517822,0.07269858280257255,0.8180798116564062,-0.5704913126584111,0.042247849664418545,3.0
35.33116149902344,-9.64608383178711,-0.2657428979873657,-0.09275959018756855,-0.9558388898346651,-0.27886856242299657,0.12816010222201984,3.0
36.75872802734375,-10.487676620483398,-0.305985689163208,-0.0,-0.0,-1.0,0.1943627098040366,1.0
35.610694885253906,-9.417764663696289,-0.250396728515625,-0.0,-0.0,-1.0,0.14139014207283182,1.0
36.769386291503906,-9.85500717163086,-0.2685408592224121,-0.0,-0.0,-1.0,0.15239265585503667,1.0
37.304813385009766,-9.741798400878906,-0.259677529335022,-0.0,-0.0,-1.0,0.07058628719901042,2.0
37.567230224609375,-9.83292007446289,-0.26434326171875,-0.0,-0.0,-1.0,0.0779945282192182,1.0
36.61427688598633,-10.340635299682617,-0.28055334091186523,-0.0,-0.0,-1.0,0.17272722003147112,1.0
36.7362060546875,-10.432401657104492,-0.28809165954589844,-0.0,-0.0,-1.0,0.22549137523905313,1.0
36.560997009277344,-9.891702651977539,-0.24992918968200684,-0.0,-0.0,-1.0,0.09587280934345166,1.0
36.72784423828125,-9.778640747070312,-0.24413013458251953,-0.0,-0.0,-1.0,0.16460571432109508,1.0
37.3621826171875,-9.697538375854492,-0.24593305587768555,-0.0,-0.0,-1.0,0.06658973506803646,1.0
37.69352722167969,-9.894756317138672,-0.26353681087493896,0.18731674482050276,0.8742736854560769,-0.44783697930039157,0.13764924751351884,3.0
35.362953186035156,-10.462693214416504,0.13321852684020996,-0.0,-0.0,-1.0,0.08539509885793517,2.0
35.305625915527344,-10.361069679260254,0.1357126235961914,-0.0,-0.0,-1.0,0.10176977303710767,2.0
35.28248596191406,-10.155794143676758,-0.037653446197509766,-0.9605855417330795,0.19708565493444716,-0.19604249955666608,0.2304654642427524,3.0
35.80781555175781,-9.994714736938477,-0.02154254913330078,-0.8563908786666108,-0.5017352129428687,0.12188699286554042,0.21373615712223096,6.0
35.89653778076172,-10.037954330444336,-0.0221327543258667,-0.0,-0.0,-1.0,0.1744281717877022,2.0
36.165771484375,-10.071002960205078,-0.01953864097595215,-0.0,-0.0,-1.0,0.16826634365398266,1.0
36.432472229003906,-10.291797637939453,-0.02599620819091797,-0.0,-0.0,-1.0,0.13701375533675125,1.0
36.350318908691406,-9.85617446899414,-0.006656765937805176,-0.5984509835389684,-0.24943185817016522,-0.7613410329353201,0.1007114579910726,3.0
36.808074951171875,-10.51222038269043,-0.03139221668243408,-0.4161456459019287,0.8309816871031602,0.3691777852147284,0.141030135799582,3.0
36.79996871948242,-9.660087585449219,-0.3144540786743164,-0.0,-0.0,-1.0,0.07711533843597825,1.0
37.315185546875,-9.531778335571289,-0.29666149616241455,0.939402743444961,0.34240597470958967,0.016752136916122748,0.08645590097906058,3.0
37.68210220336914,-9.783601760864258,-0.30480778217315674,-0.0,-0.0,-1.0,0.07303567837145751,1.0
35.38068389892578,-10.129197120666504,0.0017921924591064453,0.21055785938008947,0.5134673230912299,-0.8318754089229954,0.2062148386515369,3.0
35.447513580322266,-10.292309761047363,-0.005304932594299316,-0.0,-0.0,-1.0,0.20731184848125533,2.0
35.93138885498047,-10.090319633483887,0.010722160339355469,-0.5400652147675127,-0.7436634873833223,-0.3940738272595578,0.1339714756808308,4.0
36.262351989746094,-10.28688907623291,0.005004286766052246,-0.0,-0.0,-1.0,0.07151102536924576,1.0
36.564308166503906,-10.432856559753418,0.0012356042861938477,-0.0,-0.0,-1.0,0.13469458258850758,2.0
36.78141403198242,-10.538777351379395,-0.0016679763793945312,-0.0,-0.0,-1.0,0.11592021794707198,2.0
35.362518310546875,-10.312711715698242,0.11652696132659912,-0.0,-0.0,-1.0,0.1344436765420231,1.0
35.259368896484375,-10.107276916503906,-0.1385716199874878,-0.0,-0.0,-1.0,0.2498586019436803,2.0
36.43874740600586,-9.805782318115234,-0.09439027309417725,-0.0,-0.0,-1.0,0.09293859843000424,1.0
36.412174224853516,-10.01008415222168,-0.10566985607147217,-0.0,-0.0,-1.0,0.06802818422827293,1.0
36.48019027709961,-10.236600875854492,-0.11594128608703613,-0.0,-0.0,-1.0,0.14819742845706185,1.0
37.4713249206543,-9.902395248413086,-0.07597136497497559,-0.0,-0.0,-1.0,0.10304816592508408,2.0
37.24933624267578,-9.921743392944336,-0.08190405368804932,-0.8812526967244741,-0.32789348516649897,-0.34041085015200223,0.10757367750306605,3.0
36.77375793457031,-10.447336196899414,-0.12032759189605713,-0.0,-0.0,-1.0,0.1775269152535737,1.0
36.65146255493164,-10.3875732421875,-0.11994338035583496,-0.0,-0.0,-1.0,0.15379659516725208,1.0
37.624046325683594,-11.69953727722168,-0.16920626163482666,-0.4673640359592808,-0.8041226063837129,-0.3673658827307139,0.1974799494765506,4.0
37.50223922729492,-9.652408599853516,0.13034510612487793,-0.0,-0.0,-1.0,0.14962446106552837,1.0
36.18229293823242,-10.718568801879883,0.0426483154296875,-0.0,-0.0,-1.0,0.17566138137722284,1.0
35.92462921142578,-10.68048095703125,0.034212589263916016,-0.0,-0.0,-1.0,0.14763858830373972,1.0
35.66119384765625,-10.706586837768555,0.023192644119262695,-0.0,-0.0,-1.0,0.16269086757379267,1.0
36.244102478027344,-10.878602981567383,0.0392225980758667,-0.0,-0.0,-1.0,0.06928758575337994,1.0
37.65583038330078,-9.761900901794434,-0.24446368217468262,-0.0,-0.0,-1.0,0.10828666437979287,1.0
37.4759407043457,-9.657235145568848,-0.24912071228027344,-0.0,-0.0,-1.0,0.113869757976265,1.0
37.69639205932617,-11.01673412322998,-0.3024348020553589,-0.0,-0.0,-1.0,0.07878866963688681,1.0
37.59445571899414,-11.039116859436035,-0.3088853359222412,-0.0,-0.0,-1.0,0.04293786057921654,2.0
37.34908676147461,-10.952528953552246,-0.3176431655883789,-0.0,-0.0,-1.0,0.031007333185171026,1.0
37.625694274902344,-11.640259742736816,-0.33619093894958496,-0.0,-0.0,-1.0,0.15217460756799353,1.0
36.23902130126953,-9.459920883178711,0.0777822732925415,-0.0,-0.0,-1.0,0.14433172246644152,1.0
36.11012649536133,-9.909099578857422,0.04935646057128906,-0.0,-0.0,-1.0,0.14611296881885816,1.0
35.52301025390625,-9.482532501220703,0.050940752029418945,-0.0,-0.0,-1.0,0.0759089943231043,1.0
36.63521957397461,-10.417278289794922,0.04105877876281738,-0.0,-0.0,-1.0,0.08223271450687687,1.0
36.53042221069336,-10.329946517944336,0.04197859764099121,-0.0,-0.0,-1.0,0.12546648606106386,1.0
35.98357391357422,-10.007238388061523,0.03962504863739014,-0.0,-0.0,-1.0,0.18106068610803092,1.0
35.69027328491211,-10.053979873657227,0.026614785194396973,-0.4858120792496705,-0.7422655815093989,0.4615500299660118,0.19102593155852501,3.0
35.392181396484375,-10.047296524047852,0.01622152328491211,-0.0,-0.0,-1.0,0.16368513868009618,1.0
35.30193328857422,-10.164390563964844,-0.1385096311569214,-0.0,-0.0,-1.0,0.15263556242577367,1.0
35.240028381347656,-10.082372665405273,0.04297447204589844,-0.0,-0.0,-1.0,0.18633050722002095,1.0
35.37748718261719,-10.029111862182617,-0.02858555316925049,-0.0,-0.0,-1.0,0.1630240594975388,1.0
36.43468475341797,-9.458006858825684,-0.3872654438018799,-0.0,-0.0,-1.0,0.16605619407526254,2.0
35.44563674926758,-9.795068740844727,-0.2185204029083252,-0.0,-0.0,-1.0,0.08531620734735328,1.0
36.69214630126953,-9.480241775512695,-0.3253558874130249,-0.0,-0.0,-1.0,0.04302705292243839,1.0
35.40321731567383,-11.767434120178223,-0.01755201816558838,0.5499646920494999,-0.2752344630893042,-0.7885333397053299,0.22879485946860892,3.0
35.4764289855957,-10.116459846496582,-0.01596689224243164,0.03862353708655199,0.45840531766367054,-0.8879035911181984,0.16733157588152128,4.0
35.806278228759766,-10.016470909118652,-0.04678475856781006,-0.9171212468659113,-0.3172220715082084,0.2413685478581605,0.19275277398722662,7.0
36.100074768066406,-10.153685569763184,-0.07524418830871582,-0.0,-0.0,-1.0,0.1628593241009918,2.0
36.13856506347656,-9.824219703674316,-0.07828021049499512,-0.3483038271408622,-0.0739677094744358,-0.9344587855834702,0.07738062181048296,4.0
37.20636749267578,-10.072962760925293,-0.18357396125793457,-0.0,-0.0,-1.0,0.12329292998088616,2.0
36.145896911621094,-9.403326988220215,-0.07842826843261719,-0.24617493585877362,0.12904528443960794,-0.9605962812330835,0.2112834580857958,5.0
36.37748718261719,-9.369660377502441,-0.10117852687835693,0.03794289177015153,-0.8563844602752436,0.5149427086222298,0.1803789583584503,3.0
37.63338088989258,-9.865740776062012,-0.22685623168945312,-0.27505044474687645,-0.7416095978704077,-0.6118516627345532,0.14108724584931318,6.0
35.58649826049805,-10.133944511413574,-0.003582000732421875,-0.9876472871574318,0.14253560031873078,-0.0650879313878126,0.17181421494307597,3.0
35.988101959228516,-10.08809757232666,-0.02969992160797119,-0.12901485846980723,0.28079791836601553,-0.95105609473644,0.15867064389797328,3.0
36.18840026855469,-10.215582847595215,-0.04587852954864502,-0.0,-0.0,-1.0,0.09319619928809561,1.0
37.162757873535156,-10.17090892791748,-0.11280763149261475,-0.0,-0.0,-1.0,0.1360825966357075,2.0
36.175437927246094,-9.878199577331543,-0.03829658031463623,-0.0,-0.0,-1.0,0.1663401420142621,2.0
37.499977111816406,-9.919800758361816,-0.1324068307876587,-0.0,-0.0,-1.0,0.11472550774329947,2.0
36.117919921875,-9.420516014099121,-0.025412559509277344,-0.3248000810038553,-0.8821133011226745,0.3411466420212098,0.11619286943231055,4.0
36.87007522583008,-10.086618423461914,-0.31302928924560547,-0.0,-0.0,-1.0,0.05959182684514284,1.0
36.80601501464844,-9.833412170410156,-0.2984483242034912,-0.0,-0.0,-1.0,0.1619400914223007,1.0
37.29559326171875,-9.596197128295898,-0.3188399076461792,-0.0,-0.0,-1.0,0.05834074670127864,2.0
37.57892608642578,-9.682403564453125,-0.34023964405059814,-0.0,-0.0,-1.0,0.09422928727580558,1.0
35.209869384765625,-10.143424987792969,-0.22132456302642822,-0.0,-0.0,-1.0,0.1458887605552821,1.0
36.94390106201172,-10.338544845581055,-0.2163487672805786,-0.0,-0.0,-1.0,0.1072569753304825,2.0
37.028961181640625,-10.25300407409668,-0.21844565868377686,-0.0,-0.0,-1.0,0.08271834270207368,2.0
37.62324142456055,-9.922418594360352,-0.2450774908065796,-0.0,-0.0,-1.0,0.2143350238107366,2.0
35.5394401550293,-10.249608993530273,-0.127030611038208,-0.0,-0.0,-1.0,0.23751390218401677,1.0
35.23214340209961,-10.138494491577148,-0.1046757698059082,-0.0,-0.0,-1.0,0.22461392912427286,1.0
35.663673400878906,-10.080665588378906,-0.127172589302063,0.8624469185646525,0.49478947339821244,0.10662405766362097,0.12706981455016245,3.0
35.942657470703125,-10.035438537597656,-0.14193296432495117,-0.0,-0.0,-1.0,0.1337501154174105,2.0
35.47931671142578,-9.446121215820312,-0.08971381187438965,-0.0,-0.0,-1.0,0.108013231460823,2.0
36.00630187988281,-9.736324310302734,-0.13351643085479736,-0.0,-0.0,-1.0,0.2136900983383894,2.0
37.32582473754883,-9.801977157592773,-0.22058594226837158,0.5070673798882003,-0.07336031082464467,-0.8587787474367468,0.08094315036783789,3.0
37.63584518432617,-11.756760597229004,-0.24352800846099854,-0.0,-0.0,-1.0,0.1974799494765506,2.0
35.879554748535156,-10.046635627746582,-0.17800366878509521,-0.35277922522363075,0.8659953066915328,-0.354399417379393,0.15415724211019377,3.0
35.97794723510742,-10.075236320495605,-0.1748124361038208,-0.0,-0.0,-1.0,0.19039963000709637,1.0
35.242454528808594,-9.765725135803223,-0.19032275676727295,-0.0,-0.0,-1.0,0.0819707161514994,1.0
35.69235610961914,-9.897406578063965,-0.1747359037399292,-0.0,-0.0,-1.0,0.19565409103283155,1.0
36.0426025390625,-9.859686851501465,-0.14955317974090576,0.6577228132943299,0.7047143028016948,-0.2660422002219066,0.0994769228056437,4.0
36.66450881958008,-9.953803062438965,-0.12287557125091553,-0.0,-0.0,-1.0,0.10783973358583525,1.0
37.35625457763672,-9.906289100646973,-0.0816723108291626,0.6251783992608355,-0.11729376156295328,-0.7716178734296352,0.10995078484201518,3.0
37.52605438232422,-11.822693824768066,-0.21441292762756348,-0.055665267386357,0.8220845345769562,-0.5666377996711791,0.21837517621404484,3.0
35.5871696472168,-10.138964653015137,-0.02476322650909424,-0.9155914174391662,0.4020613394644585,0.006247849212707528,0.18435657692750987,4.0
35.975975036621094,-10.15433406829834,-0.0479661226272583,-0.46559313188489576,-0.7690491939491514,-0.43793421061590354,0.10265457579917808,3.0
36.78548049926758,-10.544329643249512,-0.11352384090423584,-0.0,-0.0,-1.0,0.18870118549264853,1.0
36.9640998840332,-10.587061882019043,-0.1263216733932495,-0.0,-0.0,-1.0,0.1803606888534222,2.0
35.70262908935547,-10.022953987121582,-0.026206135749816895,-0.9011432355924857,-0.036121672707101954,0.4320139971190134,0.19124215412774048,5.0
36.12263107299805,-9.922928810119629,-0.04638183116912842,0.30381068205231127,0.06328392150350295,-0.9506283262926934,0.1387379223022281,5.0
37.303382873535156,-9.925246238708496,-0.11922967433929443,-0.048401167200952736,-0.255941335264604,-0.9654798599228034,0.1019627346347789,3.0
37.565860748291016,-9.97124195098877,-0.13799571990966797,-0.0,-0.0,-1.0,0.13794171005583675,2.0
36.15528869628906,-9.480973243713379,-0.02892589569091797,-0.0,-0.0,-1.0,0.09057007454588965,2.0
36.53310775756836,-9.60038948059082,-0.3618505001068115,-0.0,-0.0,-1.0,0.047940458597485885,1.0
35.418739318847656,-10.403974533081055,0.047589898109436035,-0.0,-0.0,-1.0,0.10251017412623896,1.0
36.72516632080078,-10.54163932800293,0.007390141487121582,-0.0,-0.0,-1.0,0.09813058924098107,1.0
35.75271987915039,-10.139657974243164,0.05588209629058838,-0.0,-0.0,-1.0,0.06791731502837207,1.0
35.96440887451172,-10.216424942016602,0.046277642250061035,-0.17912020967770664,-0.9658671597623816,-0.1871271764805017,0.051898553640090696,3.0
36.3221321105957,-10.376968383789062,0.02782440185546875,-0.0,-0.0,-1.0,0.05346113919119925,1.0
36.54226303100586,-10.444902420043945,0.01806771755218506,-0.0,-0.0,-1.0,0.12586125967991496,2.0
37.50908660888672,-9.43440055847168,-0.3562605381011963,-0.0,-0.0,-1.0,0.11294556018268838,2.0
36.46091079711914,-9.397184371948242,-0.37045252323150635,-0.9615340956303415,-0.20114576594349362,0.18706299415797528,0.10901949671813001,3.0
36.87492752075195,-9.405689239501953,-0.3689616918563843,-0.0,-0.0,-1.0,0.03895253410682288,1.0
37.48352813720703,-9.467729568481445,-0.3727024793624878,-0.0,-0.0,-1.0,0.11294556018268839,2.0
35.23335266113281,-10.3200044631958,0.17509686946868896,-0.0,-0.0,-1.0,0.1199993177459776,1.0
36.4046516418457,-9.589531898498535,-0.3534584045410156,-0.0,-0.0,-1.0,0.17161544572885246,1.0
36.95540237426758,-9.566914558410645,-0.3467594385147095,-0.0,-0.0,-1.0,0.03485294221638391,2.0
36.887229919433594,-9.785265922546387,-0.36728060245513916,-0.0,-0.0,-1.0,0.06827021220155513,1.0
37.23759460449219,-9.43076229095459,-0.33252227306365967,-0.0,-0.0,-1.0,0.027931654402431335,2.0
35.30900955200195,-9.406255722045898,-0.09281492233276367,-0.0,-0.0,-1.0,0.22163160575275906,1.0
35.22749710083008,-9.966571807861328,-0.1403498649597168,-0.0,-0.0,-1.0,0.1467504182864865,1.0
35.734920501708984,-10.109315872192383,-0.1724766492843628,-0.0,-0.0,-1.0,0.14650312012150024,1.0
36.4409294128418,-9.685159683227539,-0.16279125213623047,-0.0,-0.0,-1.0,0.08955691553723871,1.0
37.081180572509766,-10.094114303588867,-0.22825682163238525,-0.0,-0.0,-1.0,0.08348857524603506,1.0
36.94847869873047,-10.337610244750977,-0.24438631534576416,-0.0,-0.0,-1.0,0.10725697533048249,2.0
37.3365478515625,-9.656604766845703,-0.20027577877044678,-0.0,-0.0,-1.0,0.07745132838426505,1.0
37.30476760864258,-9.732706069946289,-0.20575261116027832,-0.890443060525803,0.1867282234220125,-0.4150225614820233,0.05795478205933054,3.0
37.663543701171875,-9.87411117553711,-0.23577427864074707,-0.6271461114782879,-0.6638285676873944,-0.40745476752612103,0.15039812783641981,6.0
35.29194259643555,-10.189970016479492,-0.08639991283416748,-0.0,-0.0,-1.0,0.1992209864112334,1.0
35.7243766784668,-10.083145141601562,-0.09627783298492432,-0.0,-0.0,-1.0,0.17110596379434231,2.0
36.107784271240234,-9.372032165527344,-0.05089163780212402,0.28567682201761935,-0.921737424115108,0.2622763320384792,0.1571308371181299,5.0
35.88310623168945,-10.091245651245117,-0.1043320894241333,-0.7827376228243249,0.1696233831111174,-0.5987902151148294,0.11802320871459702,3.0
36.377376556396484,-9.764156341552734,-0.09889090061187744,-0.0,-0.0,-1.0,0.09501897864220606,2.0
36.86597442626953,-10.604915618896484,-0.19876635074615479,0.16330433312451764,0.5931971598394862,-0.788320254935216,0.22376797531708045,4.0
37.24530029296875,-9.94876480102539,-0.16015255451202393,-0.0,-0.0,-1.0,0.158931151292598,1.0
37.615509033203125,-9.995719909667969,-0.18466556072235107,0.10126770955464721,-0.37883671568046473,-0.9199062962356515,0.1557134623600249,3.0
35.390560150146484,-10.144685745239258,-0.005268216133117676,0.21055785938008947,0.5134673230912299,-0.8318754089229954,0.1961041765937718,3.0
35.41859436035156,-10.312124252319336,-0.021055936813354492,0.6051254340956991,-0.29553783393899624,-0.739243260179718,0.15152821904532873,3.0
35.796058654785156,-10.09014892578125,-0.015590786933898926,-0.9233392740256274,-0.205088378925881,-0.3246280053713503,0.20067391751500788,4.0
36.028480529785156,-10.204793930053711,-0.034868717193603516,-0.0,-0.0,-1.0,0.056334117727105296,2.0
36.23331832885742,-9.882272720336914,-0.01444709300994873,-0.17136586087243894,0.008896845005606734,-0.9851672892846136,0.06456209962967255,5.0
36.61143493652344,-10.454580307006836,-0.08138275146484375,-0.0,-0.0,-1.0,0.14156870438040772,2.0
36.826419830322266,-10.57689094543457,-0.10174024105072021,-0.0,-0.0,-1.0,0.14666101072770238,2.0
37.18988037109375,-10.03903579711914,-0.07010352611541748,-0.0,-0.0,-1.0,0.1545046914643644,2.0
36.96132278442383,-10.622673034667969,-0.11188280582427979,0.6885693854977861,-0.1868925242872572,-0.7006735229197245,0.23694760435586493,5.0
37.35838317871094,-9.97235107421875,-0.0720287561416626,0.8629827554316032,-0.1345822778593934,-0.4869788232704321,0.07554898664606348,3.0
37.54285430908203,-10.047002792358398,-0.08751630783081055,-0.0,-0.0,-1.0,0.10065700482455608,2.0
37.6353874206543,-11.810844421386719,-0.250119686126709,-0.0,-0.0,-1.0,0.2501869569915469,2.0
35.27007293701172,-10.201499938964844,-0.02278006076812744,-0.23471876474022724,0.7942866169562172,0.5603711909110505,0.200604597484834,4.0
35.41312789916992,-10.426300048828125,-0.0472254753112793,-0.047343772244620226,0.9408855759298528,-0.3353996127558868,0.09552517031915554,3.0
35.77142333984375,-10.107353210449219,-0.026934146881103516,-0.4757933897663295,0.8441615773779853,-0.2470058329946428,0.2186667763057132,3.0
36.24287414550781,-9.845943450927734,-0.01580941677093506,-0.0,-0.0,-1.0,0.048573158229774344,2.0
36.0634765625,-10.06846809387207,-0.03143584728240967,-0.0,-0.0,-1.0,0.22916471430222124,1.0
36.33470916748047,-9.915969848632812,-0.025129318237304688,-0.0,-0.0,-1.0,0.11069848752229239,2.0
36.604225158691406,-10.446861267089844,-0.08348977565765381,-0.0,-0.0,-1.0,0.15617414724169434,2.0
36.82451629638672,-10.601970672607422,-0.10531365871429443,-0.0,-0.0,-1.0,0.14888751158139835,2.0
36.95293045043945,-10.64468002319336,-0.11370670795440674,0.5979518858641842,0.49954580009125815,-0.6268233689027957,0.22165178362989368,4.0
37.29875183105469,-10.024503707885742,-0.06735146045684814,-0.2935559255242447,-0.5860601294958803,-0.7552207910305941,0.10950076305925355,3.0
37.506710052490234,-11.710519790649414,-0.2344188690185547,-0.0,-0.0,-1.0,0.21837517621404484,1.0
37.614776611328125,-11.819839477539062,-0.24888527393341064,-0.0,-0.0,-1.0,0.21837517621404484,2.0
35.500938415527344,-10.204191207885742,-0.08954787254333496,-0.0,-0.0,-1.0,0.22668750837287985,1.0
35.821292877197266,-10.087129592895508,-0.08369755744934082,0.2220766108640231,-0.023156104577924615,-0.9747542119570068,0.1860703917932257,4.0
36.34801483154297,-9.771556854248047,-0.06256222724914551,-0.8392080603744367,-0.11854271222291123,-0.5307329429962041,0.10052856674763233,5.0
36.48744583129883,-10.421289443969727,-0.13647699356079102,-0.0,-0.0,-1.0,0.2163526717479043,1.0
36.802364349365234,-10.57817268371582,-0.1629488468170166,-0.0,-0.0,-1.0,0.24561638949626743,2.0
36.97732925415039,-11.48105239868164,-0.2666802406311035,-0.0,-0.0,-1.0,0.03874765962001603,1.0
37.23244857788086,-10.005388259887695,-0.11481750011444092,-0.08103931180868998,-0.4942597383231229,-0.8655287060602508,0.17694103162780325,5.0
37.01807403564453,-10.663206100463867,-0.17910051345825195,-0.0,-0.0,-1.0,0.25142774916990995,2.0
37.493431091308594,-9.990591049194336,-0.12260198593139648,-0.0,-0.0,-1.0,0.12150981137786902,2.0
37.63348388671875,-11.323966979980469,-0.2734527587890625,-0.0,-0.0,-1.0,0.16362217483916774,1.0
36.1797981262207,-9.408828735351562,-0.019321680068969727,-0.832634597314071,-0.2629739299121453,-0.4874057237478817,0.15687937584267797,3.0
36.279876708984375,-9.547967910766602,-0.03672313690185547,-0.0,-0.0,-1.0,0.18664312534687144,1.0
37.5486946105957,-11.743829727172852,0.21329271793365479,-0.0,-0.0,-1.0,0.17092606588092543,2.0
35.37805938720703,-10.568962097167969,0.022060871124267578,-0.8333831829157495,0.5500761409001544,0.0537467175333277,0.08435645399847658,4.0
36.73936080932617,-9.627437591552734,-0.3161720037460327,-0.0,-0.0,-1.0,0.07653034796043133,1.0
36.770145416259766,-9.938312530517578,-0.3594961166381836,-0.0,-0.0,-1.0,0.0880096388365348,1.0
37.076255798339844,-9.606805801391602,-0.31677377223968506,-0.04224564009892048,0.910915421537517,-0.410424658978673,0.030173109799893506,3.0
37.3956298828125,-9.658950805664062,-0.3286064863204956,-0.0,-0.0,-1.0,0.10334592587601513,1.0
37.586734771728516,-9.777912139892578,-0.34866559505462646,-0.0,-0.0,-1.0,0.06999165885710913,1.0
37.55928421020508,-11.62094497680664,-0.11661231517791748,-0.0,-0.0,-1.0,0.1383636786461421,1.0
37.6002311706543,-11.702465057373047,-0.1261606216430664,-0.6385612501312393,-0.6586121935285868,-0.3980822884358111,0.1974799494765506,3.0
35.32319641113281,-10.42740249633789,0.03651273250579834,-0.0,-0.0,-1.0,0.06326633375932335,1.0
35.68125534057617,-10.223758697509766,0.055802226066589355,-0.0,-0.0,-1.0,0.06680720203665828,1.0
35.79803466796875,-10.26765251159668,0.050667643547058105,0.00741246583927113,0.24531533801815777,-0.9694149989984778,0.08598111000722469,3.0
36.01240539550781,-10.356060028076172,0.04006600379943848,-0.0,-0.0,-1.0,0.07596150321012013,1.0
36.3573112487793,-10.486949920654297,0.02308058738708496,-0.0,-0.0,-1.0,0.057093161614134705,1.0
36.60182189941406,-10.578422546386719,0.01054847240447998,-0.6445587526006812,-0.525163394666274,-0.5556504506868046,0.08124620607168183,3.0
36.77124786376953,-10.654802322387695,5.829334259033203e-05,-0.7222049461879598,0.5885684202457692,-0.3633279928536273,0.17107546287814382,3.0
36.351627349853516,-9.473917007446289,-0.3092302083969116,-0.0,-0.0,-1.0,0.14267538317087397,1.0
36.8906135559082,-9.57452392578125,-0.3328366279602051,-0.41298194291758916,0.9083298323522897,0.06620294920073017,0.046863376100348644,3.0
36.77952194213867,-9.825066566467285,-0.3703594207763672,-0.0,-0.0,-1.0,0.08000208809951917,1.0
37.26768493652344,-9.552359580993652,-0.3372230529785156,-0.0,-0.0,-1.0,0.056564888148819006,1.0
37.65204620361328,-9.584870338439941,-0.35255372524261475,-0.0,-0.0,-1.0,0.10231479747136143,2.0
37.61199951171875,-9.642724990844727,-0.36055076122283936,-0.0,-0.0,-1.0,0.08963822452577527,1.0
35.25190353393555,-10.184532165527344,0.006080746650695801,0.4114012319940796,0.8749414984710819,-0.25539459776379597,0.18390984024342014,3.0
35.40839767456055,-10.347845077514648,-0.015122056007385254,-0.0,-0.0,-1.0,0.1544030475366018,2.0
35.7700309753418,-10.09730052947998,0.010103702545166016,-0.4757933897663295,0.8441615773779853,-0.2470058329946428,0.16762078480486298,3.0
36.0473518371582,-10.145635604858398,-0.0001894235610961914,0.467700584796507,-0.8103377292956784,0.35299989725342706,0.16521790996799415,3.0
36.180694580078125,-10.27360725402832,-0.01823294162750244,-0.0,-0.0,-1.0,0.06163167970898429,1.0
36.528133392333984,-10.424875259399414,-0.04409670829772949,-0.0,-0.0,-1.0,0.1845127902930137,2.0
36.76005935668945,-10.551251411437988,-0.06520509719848633,-0.0,-0.0,-1.0,0.1977340436057728,1.0
36.87868118286133,-10.593253135681152,-0.07351577281951904,-0.0,-0.0,-1.0,0.1623207570184429,2.0
37.55439758300781,-11.788351058959961,-0.24304747581481934,-0.0,-0.0,-1.0,0.21837517621404484,2.0
37.51667022705078,-11.748886108398438,0.21724331378936768,-0.0,-0.0,-1.0,0.16763393285305955,2.0
35.29515838623047,-9.594756126403809,-0.2031726837158203,0.41591265923225773,-0.6846174593456771,0.5985946827774382,0.1490461022167828,3.0
35.27011489868164,-9.818909645080566,-0.23508906364440918,-0.0,-0.0,-1.0,0.10437774136169829,1.0
35.398345947265625,-10.256210327148438,-0.29051852226257324,-0.0,-0.0,-1.0,0.11243597756498719,1.0
35.51287841796875,-10.161852836608887,-0.2729262113571167,-0.0,-0.0,-1.0,0.1727008382055272,1.0
35.553035736083984,-10.282066345214844,-0.2882556915283203,-0.0,-0.0,-1.0,0.11057907536236414,1.0
36.59842300415039,-10.457902908325195,-0.2823762893676758,-0.0,-0.0,-1.0,0.15392427988468887,1.0
36.671142578125,-10.56076717376709,-0.2956974506378174,-0.0,-0.0,-1.0,0.1885889366723529,1.0
36.939266204833984,-10.389982223510742,-0.26574277877807617,-0.0,-0.0,-1.0,0.11785517273119048,1.0
36.76376724243164,-10.575817108154297,-0.29603075981140137,-0.0,-0.0,-1.0,0.1872363083431671,1.0
37.12922668457031,-9.998152732849121,-0.20540428161621094,-0.0,-0.0,-1.0,0.13724798405543503,2.0
35.24345397949219,-10.35420036315918,0.08088445663452148,0.030337096217667295,0.9994344733399068,0.014504967868405763,0.10997517531142037,3.0
35.37380599975586,-10.608296394348145,0.057485222816467285,0.2010811827189122,0.223976383821589,-0.9536251556280212,0.08539453359852012,3.0
35.32701110839844,-11.502552032470703,-0.03930187225341797,-0.0,-0.0,-1.0,0.19430698600522409,1.0
36.19482421875,-9.3732271194458,-0.1378481388092041,0.21884923368232861,-0.9738067668563964,0.06168787353564139,0.11246654393600028,3.0
36.31745910644531,-9.448089599609375,-0.14467012882232666,-0.0,-0.0,-1.0,0.2197933152430303,1.0
37.33358383178711,-9.878872871398926,-0.18503808975219727,-0.0,-0.0,-1.0,0.13604661070113572,2.0
37.58323669433594,-9.975748062133789,-0.1964430809020996,-0.0,-0.0,-1.0,0.14408408596286335,2.0
36.38484573364258,-9.400798797607422,0.21041619777679443,-0.0,-0.0,-1.0,0.16020589466431678,1.0
35.392574310302734,-10.238426208496094,-0.20209228992462158,-0.0,-0.0,-1.0,0.14308255548824786,1.0
35.578372955322266,-10.325706481933594,-0.2068791389465332,-0.765421575406443,0.023336061534353525,-0.6431059322805094,0.15333538526274867,3.0
36.81624221801758,-9.498319625854492,-0.3744279146194458,-0.0,-0.0,-1.0,0.03572649404344901,1.0
37.179813385009766,-9.43603515625,-0.35276198387145996,-0.0,-0.0,-1.0,0.025261593303728548,1.0
36.89826965332031,-10.60173511505127,-0.20924925804138184,-0.3209571184555415,0.3141112090805836,-0.8934879274185239,0.21057240627762996,3.0
37.548038482666016,-9.586410522460938,-0.37260890007019043,-0.0,-0.0,-1.0,0.11516968806228958,2.0
37.592750549316406,-11.27491283416748,-0.3007051944732666,-0.0,-0.0,-1.0,0.13498362493281543,1.0
35.43938064575195,-9.488957405090332,-0.09527301788330078,-0.0,-0.0,-1.0,0.15136274305745678,1.0
35.3430061340332,-10.290858268737793,-0.026443839073181152,-0.0,-0.0,-1.0,0.13798870098369098,2.0
35.67679977416992,-10.154850959777832,-0.1789332628250122,-0.0,-0.0,-1.0,0.13249158859778398,1.0
36.44172668457031,-9.874090194702148,-0.11343264579772949,-0.0,-0.0,-1.0,0.10883593141669358,2.0
36.46537399291992,-10.380804061889648,-0.18636584281921387,-0.0,-0.0,-1.0,0.19448492091335698,2.0
36.639404296875,-10.475737571716309,-0.1960463523864746,-0.0,-0.0,-1.0,0.10483502299882633,1.0
37.19774627685547,-9.990592956542969,-0.11400222778320312,-0.08103931180868998,-0.4942597383231229,-0.8655287060602508,0.14471648047251945,5.0
36.82463455200195,-10.563971519470215,-0.20515966415405273,-0.0,-0.0,-1.0,0.1356909213766997,2.0
37.43972396850586,-9.946532249450684,-0.1042395830154419,-0.2240968428045927,0.304407751035487,-0.9258058793043662,0.13454274257217583,3.0
36.36350631713867,-9.557914733886719,-0.3639892339706421,-0.0,-0.0,-1.0,0.19431917899095782,1.0
37.05857849121094,-9.447190284729004,-0.32956385612487793,-0.3743622278939391,0.24476760419619825,-0.8943946233415873,0.028870436670929464,3.0
36.861202239990234,-9.585963249206543,-0.3593560457229614,-0.0,-0.0,-1.0,0.05859982394086445,2.0
