x,y,z,nx,ny,nz,curvature,density
10.792001724243164,5.4578351974487305,-0.13484299182891846,-0.0,-0.0,-1.0,0.05223483133081386,2.0
10.601354598999023,5.508769989013672,-0.13744044303894043,-0.0,-0.0,-1.0,0.04577868931241803,2.0
11.056774139404297,5.40909481048584,-0.12923288345336914,-0.0,-0.0,-1.0,0.05058023579830351,1.0
11.286194801330566,5.300548553466797,-0.13223600387573242,-0.0,-0.0,-1.0,0.04068043565644182,2.0
11.665586471557617,5.274426460266113,-0.12036299705505371,-0.0,-0.0,-1.0,0.06986893563839752,2.0
11.468905448913574,5.2816619873046875,-0.12717390060424805,-0.0,-0.0,-1.0,0.021869790169302225,1.0
10.7456693649292,4.19743537902832,0.22222590446472168,-0.0,-0.0,-1.0,0.18912842237576769,2.0
10.911722183227539,3.940152168273926,0.19969582557678223,-0.0,-0.0,-1.0,0.18243338564845618,1.0
11.266196250915527,3.7544126510620117,0.1853022575378418,0.09040540522743752,-0.9603510157006526,-0.2637286282305878,0.14742482428255296,4.0
9.896690368652344,5.399342060089111,0.21981453895568848,-0.0,-0.0,-1.0,0.17410820745615346,1.0
9.752613067626953,3.9057559967041016,0.09849333763122559,-0.7420729128600482,0.632830221924918,-0.2210287361812086,0.0633407724630484,4.0
11.180315971374512,5.525323867797852,-0.14274048805236816,-0.0,-0.0,-1.0,0.08938289698259574,1.0
10.575387954711914,4.354723930358887,0.16749823093414307,-0.0,-0.0,-1.0,0.12916797913536307,2.0
10.440866470336914,4.322683334350586,0.15959346294403076,-0.27152211533171666,-0.4010055035335931,-0.8749116109765371,0.12449426684331709,5.0
11.518561363220215,5.357584476470947,-0.136879563331604,-0.0,-0.0,-1.0,0.08184740424838612,1.0
10.779723167419434,4.226127624511719,0.16463196277618408,-0.0,-0.0,-1.0,0.18109077114440963,2.0
10.776223182678223,4.153650283813477,0.15834712982177734,-0.26377402234490144,-0.08881312398227822,-0.9604871129507674,0.1868106622784288,4.0
10.982894897460938,3.8786821365356445,0.1424086093902588,-0.0,-0.0,-1.0,0.16758229704615027,1.0
11.503508567810059,4.0641984939575195,0.17642533779144287,-0.682942343184937,-0.7138510754468026,-0.1549399818268708,0.09797418949523015,7.0
9.731058120727539,5.298674583435059,0.025870680809020996,-0.0,-0.0,-1.0,0.14791703286221594,2.0
9.881545066833496,4.778839588165283,-0.0305253267288208,-0.0,-0.0,-1.0,0.04576349487936399,2.0
10.400274276733398,4.688305854797363,-0.02394711971282959,-0.8898204648881367,0.36229571359244495,0.2774190984391691,0.14021949974650416,5.0
10.822927474975586,4.5731377601623535,-0.025362133979797363,-0.0,-0.0,-1.0,0.0383727968644177,2.0
10.569987297058105,4.582306861877441,-0.031917572021484375,-0.0,-0.0,-1.0,0.06634566425723216,1.0
11.603503227233887,5.6133341789245605,0.13215696811676025,0.06961637651791949,-0.09128913560920707,-0.9933880680983836,0.15349413135215542,4.0
11.102861404418945,4.433386325836182,-0.03570055961608887,-0.0,-0.0,-1.0,0.015761261830132958,1.0
11.508882522583008,4.309387683868408,-0.04187607765197754,0.2017570271461159,0.886766047247039,-0.41586064907252723,0.07094247128373142,3.0
10.694255828857422,4.097282409667969,0.3440721035003662,-0.43607300051588,-0.37407259394484094,-0.8184803190550495,0.16805933556146047,10.0
10.772966384887695,4.052495002746582,0.33924227952957153,-0.2394964535556392,-0.012761355467045455,-0.9708133685425411,0.13971583218894465,9.0
10.84146499633789,3.943284034729004,0.32716530561447144,0.4991010409974453,0.8419302225370889,-0.20506499275574666,0.164309708688462,6.0
11.179448127746582,3.680490493774414,0.29707205295562744,-0.3349433338588694,-0.15619882848364328,-0.9292012102251285,0.10920408997079444,5.0
9.846611976623535,5.426746845245361,0.05413329601287842,-0.7372587782821067,-0.4110275040762133,-0.536195752257377,0.2374834079351059,3.0
9.7490816116333,4.280194282531738,-0.0222092866897583,-0.0,-0.0,-1.0,0.019896930823181978,1.0
10.908651351928711,5.617700576782227,-0.21344304084777832,-0.0,-0.0,-1.0,0.05666135974696068,1.0
10.565277099609375,4.352060317993164,0.04591190814971924,-0.57424388620216,0.6327248804349065,-0.5195220734849231,0.1966728385201257,4.0
10.728303909301758,4.182390213012695,0.04530012607574463,0.39572633217309183,-0.146915069412879,-0.9065410263216115,0.13953764092257803,3.0
11.329309463500977,5.37808084487915,-0.1863079071044922,-0.0,-0.0,-1.0,0.03375225434469368,2.0
10.813490867614746,3.9981865882873535,0.03676474094390869,-0.0,-0.0,-1.0,0.1280050259086462,1.0
11.63309097290039,5.1861114501953125,-0.17145013809204102,-0.0,-0.0,-1.0,0.035794762747123426,1.0
11.469388008117676,4.128561973571777,0.09180426597595215,-0.7731073528732286,-0.14205431262867796,0.6181630797750246,0.13925781629303904,3.0
11.616262435913086,4.00786018371582,0.09077346324920654,-0.6336516782504733,0.7356110974114428,-0.23950336952847107,0.04851246201621798,4.0
10.686256408691406,3.991208076477051,0.4354809522628784,-0.525542919161302,-0.6056496187892668,-0.5974890621424235,0.15778243654739146,5.0
10.876761436462402,3.8807716369628906,0.43699371814727783,0.19237432394342607,0.9502475543873686,-0.24499327514879737,0.1654108845335146,6.0
10.203954696655273,5.469895839691162,-0.12055802345275879,-0.0,-0.0,-1.0,0.06822603747002436,1.0
10.528984069824219,5.381265640258789,-0.09537816047668457,-0.33896669065465146,-0.7274031275026207,-0.5966458520144424,0.034905340905569036,3.0
10.659180641174316,5.1186747550964355,-0.10564982891082764,-0.0,-0.0,-1.0,0.038382730117689834,2.0
10.94109058380127,4.940467834472656,-0.09513711929321289,-0.0,-0.0,-1.0,0.06526760941655697,1.0
11.092524528503418,4.821767330169678,-0.09243202209472656,-0.0,-0.0,-1.0,0.018502879559424514,1.0
11.372474670410156,4.914674282073975,-0.05832815170288086,-0.0,-0.0,-1.0,0.02974473343475629,1.0
11.350895881652832,4.675793647766113,-0.0838552713394165,-0.0,-0.0,-1.0,0.014561143859530409,1.0
11.585305213928223,4.586958408355713,-0.07252037525177002,-0.0,-0.0,-1.0,0.02598072786421278,1.0
9.749791145324707,5.334237098693848,0.23046624660491943,-0.0,-0.0,-1.0,0.24095346742977236,2.0
10.308045387268066,4.234917640686035,0.19339346885681152,-0.0,-0.0,-1.0,0.21393330372698033,1.0
10.602728843688965,4.170418739318848,0.2064812183380127,-0.9018308352501686,-0.3974484220645234,-0.16951665520061365,0.1873880463104778,4.0
10.737297058105469,4.085171699523926,0.2078874111175537,-0.42889409943216256,-0.8864473733683002,-0.17395662022675462,0.14776599079953237,6.0
10.875208854675293,3.8398046493530273,0.19602835178375244,-0.0,-0.0,-1.0,0.1554422543139369,1.0
11.396535873413086,5.604715347290039,0.007950663566589355,-0.0,-0.0,-1.0,0.04344832132900777,1.0
11.261995315551758,3.7335710525512695,0.2085714340209961,-0.0,-0.0,-1.0,0.13329400740909342,2.0
11.575644493103027,3.9352402687072754,0.24246931076049805,-0.0,-0.0,-1.0,0.11126612505989282,1.0
9.88912582397461,5.365205764770508,0.6424790024757385,-0.0,-0.0,-1.0,0.13385031355625668,1.0
10.38170337677002,5.616323471069336,-0.146162748336792,-0.0,-0.0,-1.0,0.03003137229763353,1.0
10.636796951293945,5.380687236785889,-0.14006853103637695,-0.7925920454160597,-0.47988042665848596,0.37618163917615155,0.03670563696202972,3.0
10.952832221984863,5.193434715270996,-0.12557601928710938,-0.0,-0.0,-1.0,0.02798419926136204,2.0
11.048482894897461,5.081209182739258,-0.12692129611968994,-0.0,-0.0,-1.0,0.014040603185216233,2.0
11.228193283081055,5.0300092697143555,-0.11461567878723145,-0.0,-0.0,-1.0,0.01880728008825418,1.0
9.812234878540039,5.499946594238281,0.18831205368041992,-0.0,-0.0,-1.0,0.12147836494219723,2.0
9.79614543914795,5.307674884796143,0.17466342449188232,-0.8339291727751306,0.233146565174081,-0.5002047720105381,0.09851308564288835,3.0
9.95733642578125,3.990328311920166,0.09078407287597656,-0.0,-0.0,-1.0,0.05598363033338909,1.0
10.526668548583984,4.289381980895996,0.15205347537994385,0.4868011357126535,-0.5532889885076265,-0.6759407884312635,0.14055296270503698,5.0
10.734440803527832,4.078023910522461,0.14809322357177734,-0.32462622913582745,0.5523841114329152,-0.7677822639222158,0.16239318549088078,7.0
10.885549545288086,3.7912368774414062,0.13318908214569092,-0.0,-0.0,-1.0,0.13834070354984013,2.0
11.219443321228027,3.792327404022217,0.1530466079711914,0.937393751091567,0.3309169706624263,-0.10856755473936282,0.13064486511090334,3.0
11.470328330993652,5.00838041305542,-0.09388923645019531,0.22053482879404965,-0.31869238674722855,-0.9218457310841842,0.037641524700545596,3.0
11.466015815734863,4.032108306884766,0.18876612186431885,-0.484743405313179,0.4081074720731437,-0.7736097997333358,0.07889542547890986,4.0
11.4136962890625,3.784404754638672,0.16361427307128906,-0.7959167325408332,0.1654388443787182,-0.5823628968539791,0.21914705761277842,3.0
10.68062973022461,5.491620063781738,-0.1673445701599121,0.550649804057563,-0.19043207682939556,-0.8127240721215354,0.05241271464136139,4.0
10.677506446838379,5.598527908325195,-0.16130280494689941,-0.0,-0.0,-1.0,0.051890119879962074,1.0
10.896557807922363,5.34686803817749,-0.15032458305358887,0.5932316609745271,-0.2404434553091894,-0.7682858460341317,0.031015622810686032,3.0
11.128913879394531,5.1126298904418945,-0.138441801071167,-0.0,-0.0,-1.0,0.015113161606698414,1.0
11.365021705627441,5.052792072296143,-0.11522912979125977,-0.0,-0.0,-1.0,0.03845090847014905,2.0
9.753459930419922,3.8867969512939453,0.054106712341308594,-0.9919115154555317,-0.02023654329350888,0.12530773249181457,0.061166752652653554,5.0
9.822258949279785,5.352858543395996,0.12638378143310547,0.021984757621346343,-0.9823823714219526,-0.1855843386487968,0.23636185343317656,5.0
10.509725570678711,4.280462741851807,0.13947713375091553,-0.0032623005292895858,-0.5146348307621965,-0.8574032588937496,0.18296187780018847,6.0
10.733759880065918,4.088488578796387,0.14780068397521973,-0.6099071396974152,0.30696163361751333,-0.7306078540728841,0.15585389808630612,8.0
10.875716209411621,3.8224520683288574,0.1441352367401123,-0.0,-0.0,-1.0,0.1503559028839517,2.0
11.162450790405273,3.7547788619995117,0.1627514362335205,0.28954568580017104,0.9496983251607257,-0.11931633174641534,0.1938035869218182,3.0
11.458548545837402,5.03479528427124,-0.10583925247192383,-0.26671286495538354,-0.14691710521207885,-0.9525122633664059,0.03434234266267892,5.0
11.599040031433105,4.8641815185546875,-0.10287356376647949,-0.0,-0.0,-1.0,0.07575771429874423,1.0
11.439013481140137,5.630513668060303,0.28784728050231934,-0.9199735107065276,-0.09748382025316686,-0.37966517405097205,0.03908545643287594,4.0
10.745577812194824,5.552262306213379,-0.1831265687942505,-0.37540317517151633,-0.17174962658723966,-0.9108098165030326,0.05175935546315358,3.0
11.040276527404785,5.243896007537842,-0.17414331436157227,0.4361368701031062,-0.8690458596244748,-0.23354640739310098,0.023383103287194805,3.0
11.119117736816406,5.25235652923584,-0.16482555866241455,-0.0,-0.0,-1.0,0.02857067443322138,2.0
9.744277954101562,4.011343955993652,0.022707581520080566,-0.0,-0.0,-1.0,0.051120922836849464,2.0
9.873988151550293,5.406281471252441,0.11496984958648682,-0.9052446715770056,0.05214177774712051,0.4216791666596881,0.2311895357862305,4.0
10.57232666015625,4.319582462310791,0.1060875654220581,-0.0,-0.0,-1.0,0.19064622013409507,2.0
10.786393165588379,4.1082234382629395,0.10663342475891113,0.7301490461645881,-0.5625373882822035,-0.3878582952182143,0.1451959497181394,3.0
10.914935111999512,3.833327293395996,0.09509778022766113,-0.0,-0.0,-1.0,0.1357291568260127,2.0
11.456827163696289,3.975541114807129,0.14264178276062012,-0.967895580989393,-0.20890629347380552,-0.139772332198622,0.07774149954637732,4.0
11.441325187683105,3.7861881256103516,0.12636041641235352,-0.8367598170050203,0.014497108091922768,-0.547378153110531,0.14824174330898052,4.0
11.528801918029785,4.0626630783081055,0.15440773963928223,-0.6856963932452453,-0.17819963298489316,-0.7057374491229095,0.12324308318349232,7.0
11.19120979309082,5.34083366394043,-0.1500110626220703,-0.0,-0.0,-1.0,0.04270986509155245,2.0
11.514337539672852,5.090420722961426,-0.13672316074371338,0.22840551023121358,0.5815999653351054,-0.7807511788132135,0.02716446475077503,3.0
10.068009376525879,5.449792861938477,-0.1279085874557495,-0.0,-0.0,-1.0,0.054495215654785795,2.0
10.146917343139648,5.355127811431885,-0.12416279315948486,-0.0,-0.0,-1.0,0.11391670366282007,1.0
9.94356918334961,5.589937210083008,-0.1348344087600708,-0.0,-0.0,-1.0,0.05317546098139951,2.0
10.382493019104004,5.272189617156982,-0.10345876216888428,-0.0,-0.0,-1.0,0.06378358530348104,1.0
10.684037208557129,5.101626873016357,-0.08158743381500244,-0.15629494865744858,-0.25629857161766983,-0.9538778387251208,0.05069970030938503,4.0
10.870716094970703,4.817690372467041,-0.07970869541168213,-0.0,-0.0,-1.0,0.08248999638507505,1.0
11.169462203979492,4.533620357513428,-0.0689769983291626,-0.0,-0.0,-1.0,0.012523706099631576,1.0
11.489402770996094,4.307765007019043,-0.05478692054748535,0.3774562194794417,0.8722716171992972,-0.31091643283173276,0.06767615100673047,4.0
10.293527603149414,4.234799861907959,0.25112152099609375,-0.0,-0.0,-1.0,0.2639137535462062,2.0
10.745782852172852,4.04996919631958,0.2723713517189026,-0.572122361169912,0.13999169961403254,-0.8081326177605626,0.1794282279517546,3.0
11.007570266723633,3.780141830444336,0.2748073935508728,0.3246025117301274,0.877851659947814,-0.35215007100007795,0.15841901815490023,5.0
9.863103866577148,4.473723888397217,-0.035414695739746094,-0.0,-0.0,-1.0,0.019140730282006847,1.0
9.801734924316406,4.880762577056885,-0.03881239891052246,-0.6700543544229491,-0.04010423810074241,-0.7412279084095549,0.05897688224770629,4.0
9.84173583984375,4.613065242767334,-0.03639388084411621,-0.0,-0.0,-1.0,0.03194124045680108,2.0
10.488402366638184,4.487104892730713,0.029964447021484375,-0.7604356989089113,-0.6222712377179599,-0.18578496853586945,0.16272937941887103,8.0
10.751815795898438,4.200732231140137,0.05259108543395996,0.39572633217309183,-0.146915069412879,-0.9065410263216115,0.1510456999876056,3.0
10.836563110351562,3.9533839225769043,0.05654501914978027,-0.0,-0.0,-1.0,0.12613310704981617,2.0
11.391851425170898,3.8228225708007812,0.10825419425964355,-0.0,-0.0,-1.0,0.1791222624867219,1.0
9.913078308105469,5.31907844543457,-0.025084972381591797,-0.9074045033294714,-0.39702822501336854,-0.13778844610535704,0.2031242379909698,5.0
11.494132995605469,4.141395092010498,0.1257007122039795,-0.8294797216702758,0.1946918386714306,0.5235059496247775,0.10103113493540455,4.0
9.888166427612305,5.450530529022217,-0.027688026428222656,0.8388353859878042,0.36317886168197827,-0.40553213145455463,0.1932081949376563,3.0
10.726163864135742,4.008990287780762,0.4846891164779663,0.7092785303188018,-0.3249076872129457,-0.6255868934198792,0.16436546453742581,3.0
10.778726577758789,3.9893298149108887,0.48830872774124146,0.7727734701215915,-0.12540560087776403,-0.6221692688848597,0.17039888037952755,3.0
9.885918617248535,5.426600933074951,0.4154031276702881,-0.0,-0.0,-1.0,0.13804974121149755,2.0
9.786931991577148,4.773337364196777,-0.04457056522369385,0.2953940031792434,-0.9546944443736869,-0.03606800199287649,0.04893467023702764,3.0
10.04665756225586,4.516263008117676,-0.03610563278198242,-0.0,-0.0,-1.0,0.04755735654712052,1.0
10.000301361083984,5.090748310089111,-0.03076457977294922,-0.0,-0.0,-1.0,0.08132279808701383,1.0
10.772989273071289,4.713399410247803,-0.00033724308013916016,-0.0,-0.0,-1.0,0.04638294899664865,1.0
11.345001220703125,4.063023567199707,0.016586780548095703,-0.0,-0.0,-1.0,0.10737752592194058,2.0
11.550373077392578,5.424447536468506,0.044283151626586914,-0.0,-0.0,-1.0,0.1366208380395703,1.0
10.807394027709961,3.9537975788116455,0.266634464263916,0.8490443465118068,-0.18444920327997058,0.4950779626136908,0.0709315727587472,6.0
11.001279830932617,3.7437286376953125,0.2707853317260742,0.3246025117301274,0.877851659947814,-0.35215007100007795,0.11633336199553804,5.0
11.466424942016602,5.554535388946533,0.31134021282196045,-0.0,-0.0,-1.0,0.041600321900152386,1.0
9.714395523071289,5.412894248962402,-0.031702637672424316,-0.0,-0.0,-1.0,0.19915619081592092,1.0
9.840368270874023,5.159571170806885,-0.02709043025970459,-0.0,-0.0,-1.0,0.18291894086848648,1.0
9.98189926147461,5.353409290313721,-0.01979053020477295,-0.0,-0.0,-1.0,0.1831008216611462,2.0
10.114187240600586,4.867642879486084,-0.016216635704040527,-0.0,-0.0,-1.0,0.0487110285430482,2.0
10.401018142700195,4.714970111846924,-0.004117727279663086,-0.9961121225523987,0.06875112503044822,-0.05508105038216807,0.095139659450272,3.0
10.7569580078125,5.0447821617126465,0.01390695571899414,0.22498163580383976,0.44555621304742854,-0.866523470291407,0.09949589138051863,4.0
10.53292465209961,4.4361443519592285,0.11942112445831299,-0.0,-0.0,-1.0,0.17467825282120417,2.0
10.636730194091797,4.3343024253845215,0.1253570318222046,-0.0,-0.0,-1.0,0.07836968588938123,1.0
10.901880264282227,3.9429562091827393,0.1424405574798584,0.8864304693555097,-0.051614468933998334,-0.45997496626972206,0.14635899504786296,3.0
11.343660354614258,3.6447088718414307,0.16489970684051514,-0.0,-0.0,-1.0,0.16982969553798327,2.0
11.614669799804688,5.606764793395996,0.14116132259368896,0.06961637651791949,-0.09128913560920707,-0.9933880680983836,0.15349413135215523,4.0
11.558616638183594,4.114787578582764,0.1664714813232422,-0.7698843063725956,0.608657437600598,-0.19187047311835426,0.12715480130549903,3.0
10.809436798095703,4.055922031402588,0.21115422248840332,-0.7626793318514385,-0.6220552568673651,0.17710870721203992,0.21094634013667105,4.0
11.036663055419922,3.785240650177002,0.22147023677825928,-0.0,-0.0,-1.0,0.09593724291905643,2.0
10.929351806640625,4.4131646156311035,0.1731562614440918,-0.0,-0.0,-1.0,0.10290889488308165,1.0
11.336734771728516,3.959404468536377,0.1957073211669922,-0.0,-0.0,-1.0,0.10517908224540862,1.0
11.505884170532227,4.37606143951416,0.1948261260986328,-0.0,-0.0,-1.0,0.1353869646361173,1.0
11.531064987182617,3.9324238300323486,0.2032562494277954,-0.0,-0.0,-1.0,0.1153351617712698,1.0
10.767694473266602,3.927950382232666,0.1694645881652832,-0.0,-0.0,-1.0,0.27061236265695754,2.0
10.862024307250977,3.7603249549865723,0.17557740211486816,-0.0,-0.0,-1.0,0.15559198347505163,1.0
10.884683609008789,3.9222092628479004,0.3238290548324585,0.4190044002665078,0.06040747870562197,-0.9059725432228803,0.16128532684301153,5.0
11.051227569580078,3.781175136566162,0.3312076926231384,-0.5546831857177147,-0.1274392590634585,-0.8222443667982189,0.13498166405898196,3.0
9.738149642944336,5.62584114074707,-0.13130342960357666,-0.0,-0.0,-1.0,0.1403864537417311,1.0
10.236900329589844,5.2646074295043945,-0.10330379009246826,-0.0,-0.0,-1.0,0.08471545033116154,2.0
10.834892272949219,4.876712799072266,-0.07040560245513916,-0.18107949790052427,-0.5612956138530116,-0.8075626596800184,0.08473003493224467,5.0
10.66050910949707,4.8376336097717285,-0.07807230949401855,-0.0,-0.0,-1.0,0.049670631195654916,1.0
10.972427368164062,4.538906097412109,-0.05978214740753174,-0.0,-0.0,-1.0,0.016963882837417794,2.0
11.573890686035156,3.6403427124023438,-0.021152615547180176,-0.0,-0.0,-1.0,0.1233102721224583,1.0
9.946950912475586,5.383689880371094,-0.04320633411407471,0.05837874863792575,0.013578571514060687,-0.9982021559299035,0.26344029698021776,6.0
9.940071105957031,5.177410125732422,-0.03990781307220459,-0.0,-0.0,-1.0,0.18544696838196004,1.0
11.654767990112305,3.780017852783203,0.05564868450164795,-0.0,-0.0,-1.0,0.05755785510907796,1.0
11.447689056396484,3.6911048889160156,0.048207759857177734,-0.0,-0.0,-1.0,0.15173880902592307,2.0
10.782569885253906,4.099603652954102,0.33207690715789795,-0.56583100206486,0.1008359558846111,-0.8183320763010047,0.16651114729691135,4.0
11.218338012695312,3.7362077236175537,0.3518136739730835,0.9071806776992243,-0.10029561013270742,0.40861229618953476,0.18857489781984796,3.0
10.903348922729492,3.967252016067505,0.33803021907806396,-0.0,-0.0,-1.0,0.19964321903741986,1.0
11.062950134277344,3.9693257808685303,0.38266491889953613,-0.0,-0.0,-1.0,0.1303838863174356,1.0
10.855195999145508,4.180438041687012,0.37861526012420654,-0.0,-0.0,-1.0,0.16779503387392508,1.0
11.163843154907227,3.702864408493042,0.38090336322784424,0.10824826587624546,0.920422410848647,-0.3756393197501423,0.20422114078695391,5.0
10.868337631225586,4.222192764282227,0.1566910743713379,-0.0,-0.0,-1.0,0.14911713105195287,1.0
11.313739776611328,3.8074591159820557,0.1674412488937378,-0.0,-0.0,-1.0,0.15399066926509072,2.0
11.19852066040039,3.7392044067382812,0.39654672145843506,0.6948734570766971,0.66931414857997,0.26300085391676903,0.18438893289869543,3.0
10.875267028808594,4.026642799377441,0.39403295516967773,-0.0,-0.0,-1.0,0.19485308770986742,2.0
11.22728157043457,3.705552101135254,0.4061998128890991,-0.0,-0.0,-1.0,0.16300579833773993,2.0
10.80849838256836,4.2002339363098145,0.117209792137146,-0.17934775403793074,0.3296137096901703,-0.926924584583791,0.2277176849241697,3.0
10.84626579284668,4.091719150543213,0.13119399547576904,-0.0,-0.0,-1.0,0.1678244662468527,1.0
11.561624526977539,3.9879374504089355,0.14176809787750244,-0.7717430605438222,0.3465032359362319,-0.5332430552648335,0.13022793989419615,6.0
11.372509002685547,3.682882785797119,0.1822293996810913,-0.8725958384164325,-0.4146486735233189,-0.25815301726626233,0.16941254445313342,3.0
10.846118927001953,3.9824981689453125,0.37600457668304443,0.8638472799946727,0.2690736323943545,-0.4258723484753534,0.19924432572825965,3.0
11.274280548095703,3.6983509063720703,0.3892555236816406,-0.0,-0.0,-1.0,0.19395154623375568,1.0
10.84874153137207,4.368899345397949,0.5963324308395386,-0.0,-0.0,-1.0,0.2265653644373912,1.0
10.832294464111328,3.6581859588623047,0.6588581800460815,-0.0,-0.0,-1.0,0.15870400212170258,1.0
11.236324310302734,4.074468612670898,0.6189194917678833,-0.0,-0.0,-1.0,0.19769872472660113,1.0
11.235958099365234,3.854344367980957,0.6384016275405884,-0.0,-0.0,-1.0,0.18122153171232355,1.0
11.041736602783203,3.6877880096435547,0.654621958732605,-0.0,-0.0,-1.0,0.16692922496012372,1.0
10.13589859008789,4.468372821807861,0.14624112844467163,-0.0,-0.0,-1.0,0.10537633575351041,1.0
11.386762619018555,5.566522121429443,-0.15808892250061035,-0.0,-0.0,-1.0,0.11019991253513665,1.0
11.455057144165039,3.9101338386535645,-0.08679544925689697,-0.0,-0.0,-1.0,0.0927860342668302,1.0
9.93375015258789,5.203125476837158,0.0026962757110595703,-0.5729874494745613,0.8191265831941633,-0.026777293539361268,0.18888087266749043,4.0
11.578983306884766,3.9294590950012207,0.10813558101654053,-0.0,-0.0,-1.0,0.10046911018389429,2.0
11.486164093017578,3.714306354522705,0.11209046840667725,0.20365930388845432,-0.6564158841948445,-0.7263890658017721,0.19437161741648348,3.0
11.53352165222168,4.013646125793457,0.1655973196029663,-0.3959953538296078,-0.762620250412413,-0.5114665516006617,0.09459779845617308,6.0
11.368288040161133,3.7046098709106445,0.1615985631942749,0.09705923916024775,-0.6753445283590886,-0.7310877321560485,0.18300378332086886,3.0
9.89725112915039,5.302019119262695,0.05862569808959961,-0.3622047858200412,-0.9264027729955611,-0.10288632229403934,0.25540896106629224,11.0
11.004009246826172,3.7046990394592285,0.4316030740737915,0.18673193628679305,0.9800273609030425,0.06839265934296575,0.14535169414879395,3.0
10.898513793945312,3.9332079887390137,0.4130341410636902,-0.0,-0.0,-1.0,0.16887711176576117,2.0
10.853071212768555,3.6565942764282227,0.43404948711395264,-0.0,-0.0,-1.0,0.15646282816725873,1.0
11.179059982299805,3.7870278358459473,0.29581499099731445,-0.0,-0.0,-1.0,0.14895982047181489,1.0
10.893011093139648,4.016899585723877,0.271753191947937,-0.0,-0.0,-1.0,0.235585289475246,2.0
10.830743789672852,3.9379358291625977,0.28063511848449707,0.8329424073555776,0.5142952729147984,0.20422369668133084,0.10385612870543573,9.0
10.707681655883789,4.0968523025512695,0.2726109027862549,-0.12653142989548624,-0.9588035575410374,0.25433351193905623,0.15857096182669408,6.0
11.243576049804688,3.6667890548706055,0.21259677410125732,-0.0,-0.0,-1.0,0.10297277133017804,2.0
10.841447830200195,3.8991222381591797,0.18139374256134033,0.011109718915635511,0.8938796276060809,0.4481693714394479,0.13120373747808395,5.0
10.808940887451172,4.055819988250732,0.17404437065124512,-0.39094287535472866,0.5062686381706584,-0.7686714084797249,0.1190349972277675,8.0
9.87692642211914,5.294703483581543,0.0766071081161499,-0.9118506933427011,-0.15679802793487904,-0.3793978011087671,0.2249838200432689,8.0
9.837753295898438,5.342403888702393,0.142250657081604,0.007699953232283354,-0.966585150362653,-0.25623008765292976,0.20713776362401942,6.0
9.914536476135254,5.46353816986084,-0.10981690883636475,-0.0,-0.0,-1.0,0.12762842438521363,2.0
11.451465606689453,3.700653553009033,0.1146996021270752,0.20131905475413991,-0.02920197094872485,-0.9790903344868691,0.1996964025279591,5.0
9.945085525512695,5.372791767120361,-0.0652761459350586,0.09876467400516395,-0.18292777569128948,-0.9781528347090198,0.21602786850165823,5.0
11.571239471435547,4.018002986907959,0.11953532695770264,-0.3676075478052093,-0.6389820728095695,-0.6756971225516848,0.08724477664537077,6.0
9.878690719604492,5.4389848709106445,0.11302924156188965,-0.7312540820268983,0.14470487106365632,0.6665793034661733,0.18611358611980072,3.0
11.56815242767334,4.295665740966797,0.010265469551086426,-0.0,-0.0,-1.0,0.0766143767996128,1.0
11.336684226989746,4.384209632873535,-0.010750412940979004,-0.0,-0.0,-1.0,0.041168284393641986,2.0
10.84140682220459,4.272627830505371,-0.05658268928527832,-0.0,-0.0,-1.0,0.07461283580683792,2.0
10.871761322021484,4.428066253662109,-0.05341339111328125,-0.0,-0.0,-1.0,0.07168252554406924,1.0
9.93683910369873,5.322945594787598,0.14781081676483154,0.07525298944360927,-0.41858939166738107,-0.9050524342618674,0.22165500824781456,7.0
10.645419120788574,4.319817543029785,0.06495797634124756,-0.0,-0.0,-1.0,0.08908673993058638,2.0
11.37149429321289,4.092416763305664,0.0446549654006958,-0.05699266132204442,0.49853035974073745,-0.8649967150065956,0.11781734046139548,5.0
11.004545211791992,3.8670778274536133,0.027065634727478027,0.6669968288737538,0.5983008726379351,0.444017224973358,0.10388403498875594,4.0
10.157827377319336,4.019384384155273,0.04123103618621826,-0.0,-0.0,-1.0,0.08499038045699246,1.0
9.78727912902832,3.9229001998901367,0.03388261795043945,-0.04901006930473021,0.02503577653239376,-0.9984844630739956,0.06472262499154578,3.0
11.351873397827148,5.579689979553223,-0.20519232749938965,-0.0,-0.0,-1.0,0.0758993153545827,1.0
10.62264633178711,4.215954780578613,0.17905867099761963,-0.5779312646817237,0.46787793698485397,-0.668644666011912,0.11111602049164428,5.0
10.372631072998047,4.244406700134277,0.1786799430847168,-0.966277295233206,0.09478647643183741,0.2394237093573573,0.1533160618539309,5.0
11.546390533447266,4.010918617248535,0.17142415046691895,-0.7440798996393334,0.026180832995211553,-0.6675774613753793,0.0754065212356232,4.0
10.805072784423828,4.039399147033691,0.16797947883605957,-0.5420355143644017,0.7531652413789405,-0.3727460534282301,0.11175964279884738,6.0
11.234045028686523,3.750093460083008,0.1503903865814209,0.7322638740143015,0.6297237699311781,-0.25930212570904954,0.1549769330407269,4.0
10.955083847045898,3.7800607681274414,0.15050625801086426,0.8757759094466158,-0.4673404097697306,-0.12086975564306089,0.21194349826747247,5.0
9.740673065185547,5.562544822692871,-0.12787628173828125,-0.0,-0.0,-1.0,0.1403864537417311,1.0
11.555990219116211,5.6170759201049805,-0.18736565113067627,-0.0,-0.0,-1.0,0.1206864029663831,2.0
10.996763229370117,5.352877616882324,-0.1989727020263672,-0.0,-0.0,-1.0,0.05209912771208178,1.0
10.716184616088867,5.381338119506836,-0.1848815679550171,-0.0,-0.0,-1.0,0.03489985855054686,1.0
10.305953979492188,5.367084503173828,-0.1717815399169922,-0.0,-0.0,-1.0,0.08832379449724986,1.0
10.062519073486328,5.413047790527344,-0.15745389461517334,-0.0,-0.0,-1.0,0.053858020814862365,2.0
11.708962440490723,5.479093551635742,-0.2109832763671875,-0.0,-0.0,-1.0,0.16175606068070567,2.0
11.15534782409668,5.315642356872559,-0.20976293087005615,-0.0,-0.0,-1.0,0.03159168399438659,1.0
10.906562805175781,5.309718132019043,-0.20099449157714844,-0.0,-0.0,-1.0,0.029818775266818177,1.0
10.728050231933594,4.117056846618652,0.17511224746704102,-0.9668190623089749,-0.21682721450110276,0.13508093798788698,0.20778801083719475,12.0
11.527385711669922,4.034685134887695,0.128517746925354,-0.7011565811702714,-0.5297895304372251,-0.4771818333934361,0.08220430034887936,6.0
11.244267463684082,3.7549057006835938,0.11653602123260498,-0.0,-0.0,-1.0,0.19722333663951414,2.0
10.976140975952148,3.802400588989258,0.13402009010314941,0.9042987406262727,-0.39440049707711206,0.163376973919412,0.1988566265118606,4.0
9.93690299987793,5.297518730163574,0.054913997650146484,0.025875407842107567,0.8064263949772751,-0.5907680871145298,0.11585341917736779,6.0
10.785072326660156,4.725916862487793,-0.0839540958404541,-0.0,-0.0,-1.0,0.04929919881520003,2.0
10.466316223144531,4.565913200378418,-0.07805204391479492,-0.0,-0.0,-1.0,0.0857034557428696,1.0
10.032169342041016,4.35772705078125,-0.06922698020935059,-0.0,-0.0,-1.0,0.03472934314777272,1.0
9.847753524780273,4.301007270812988,-0.06164205074310303,-0.0,-0.0,-1.0,0.030206011005843515,1.0
11.688056945800781,4.727890968322754,-0.15901505947113037,-0.0,-0.0,-1.0,0.061302716982627334,1.0
11.398635864257812,4.624837875366211,-0.14750325679779053,-0.0,-0.0,-1.0,0.012760826034007473,1.0
10.959779739379883,4.601601600646973,-0.11385393142700195,-0.0,-0.0,-1.0,0.02905668079291412,1.0
10.948210716247559,3.90030574798584,0.30687254667282104,-0.0,-0.0,-1.0,0.1850566846664987,1.0
11.294637680053711,3.6909961700439453,0.25621485710144043,0.9421430565750026,0.19713918816067763,-0.2711136319679631,0.17838899887443874,3.0
11.120542526245117,3.7627153396606445,0.27865540981292725,-0.0,-0.0,-1.0,0.09122953552666661,2.0
10.00268268585205,5.323925018310547,-0.0668783187866211,-0.9248452243173844,0.3011707304239825,0.23228754205340416,0.11953886114833108,3.0
10.485102653503418,5.280998229980469,-0.11509990692138672,-0.0,-0.0,-1.0,0.02636656285110683,1.0
10.161824226379395,5.160361289978027,-0.10371208190917969,-0.0,-0.0,-1.0,0.05892695899016938,2.0
11.061530113220215,5.253805160522461,-0.17132604122161865,-0.09544535178737158,0.45624977779164605,-0.8847182179017558,0.023596348864725877,3.0
10.778868675231934,5.222606658935547,-0.14979910850524902,-0.0,-0.0,-1.0,0.03052194976562156,2.0
11.552873611450195,5.5118303298950195,-0.18066191673278809,-0.0,-0.0,-1.0,0.13364457153436565,2.0
11.2944917678833,5.303705215454102,-0.1859506368637085,-0.0,-0.0,-1.0,0.040680435656441825,2.0
10.666147232055664,4.139952659606934,0.1942119598388672,-0.7196300611813649,0.1834205185182538,0.6696935780120639,0.09841961571694623,5.0
10.857645034790039,4.050642013549805,0.16526782512664795,-0.07110453480481108,0.6370946560283731,-0.7674988888527985,0.22237512785327682,4.0
11.617729187011719,4.093535423278809,0.0921022891998291,-0.0,-0.0,-1.0,0.11282349929466565,2.0
11.344593048095703,3.76678466796875,0.08478355407714844,0.5066499164654517,0.7957909261690885,-0.33169664449990327,0.15939902287236374,3.0
11.076713562011719,3.746875762939453,0.11007285118103027,0.5804724410287059,-0.6961063447508135,0.42247804913845793,0.19515587569746842,4.0
9.807089805603027,3.916553497314453,-0.015160560607910156,-0.0,-0.0,-1.0,0.06472262499154573,1.0
11.483447074890137,5.63726806640625,0.0639500617980957,-0.7132386421345441,0.14141155288676854,-0.6865081296504973,0.06756578121356296,4.0
10.544281959533691,4.346067428588867,-0.01915264129638672,-0.0,-0.0,-1.0,0.09738398897418792,1.0
10.230707168579102,4.129050254821777,-0.02133619785308838,-0.0,-0.0,-1.0,0.07258535792579823,2.0
10.042253494262695,3.9049692153930664,-0.03421437740325928,-0.0,-0.0,-1.0,0.053007441317812966,1.0
11.60079574584961,5.608364105224609,0.05064237117767334,0.34077110422968443,0.3779162439155969,-0.8608451469961417,0.06505087023084975,5.0
10.82199478149414,4.217487335205078,-0.056910157203674316,-0.0,-0.0,-1.0,0.13125606341113424,1.0
11.639994621276855,4.365194320678711,-0.10632717609405518,-0.0,-0.0,-1.0,0.04321246662288915,1.0
11.46910285949707,4.304917335510254,-0.09931695461273193,-0.0,-0.0,-1.0,0.061924904661763265,2.0
11.042271614074707,4.041303634643555,-0.09637129306793213,-0.0,-0.0,-1.0,0.05249910115912848,1.0
10.871417045593262,3.9243364334106445,0.37898027896881104,0.546630115503091,0.7377111667890297,-0.39620417870063634,0.1868383321108929,5.0
11.099184036254883,3.7582626342773438,0.3440050482749939,0.9510192885370344,0.010651026012494779,-0.30894800286681534,0.13888147268832557,4.0
9.9295654296875,5.275473594665527,0.057186007499694824,-0.050330045054973835,0.7911040539845974,-0.609607465779332,0.14511967795571432,7.0
9.792686462402344,4.372982978820801,-0.04238700866699219,-0.0,-0.0,-1.0,0.019513216385544298,1.0
10.448636054992676,4.571927070617676,-0.028849244117736816,-0.0,-0.0,-1.0,0.12479879518062953,2.0
10.089214324951172,4.253816604614258,-0.059537649154663086,-0.0,-0.0,-1.0,0.049668240109277534,1.0
10.647245407104492,4.450475692749023,-0.046248674392700195,-0.0,-0.0,-1.0,0.04856061412146857,1.0
11.561346054077148,5.578998565673828,0.06410682201385498,-0.8047783069862239,0.4122874182840262,-0.42702571506769854,0.17924452071060665,8.0
10.99760627746582,4.342931747436523,-0.06568419933319092,-0.0,-0.0,-1.0,0.059372252434460204,1.0
11.5177640914917,4.28718376159668,-0.08491396903991699,0.2017570271461159,0.886766047247039,-0.41586064907252723,0.0637167237066818,3.0
10.871613502502441,3.900236129760742,0.3380386233329773,0.09965229925542123,0.9912106266834781,-0.08701099242541192,0.10576903623919669,5.0
11.000680923461914,3.765164375305176,0.3231610059738159,0.5989636071869839,0.45604822236218395,-0.6582268728530067,0.13228172947917566,4.0
11.193624496459961,3.637997627258301,0.3066565990447998,-0.3349433338588694,-0.15619882848364328,-0.9292012102251285,0.10858365582299266,5.0
9.996101379394531,5.311892509460449,-0.07748091220855713,-0.9248452243173844,0.3011707304239825,0.23228754205340416,0.11368031645731153,3.0
10.306790351867676,5.07891845703125,-0.10825181007385254,-0.0,-0.0,-1.0,0.05127913003233346,1.0
10.090038299560547,5.032337188720703,-0.1139366626739502,-0.0,-0.0,-1.0,0.04915033888030894,1.0
10.684370040893555,5.038068771362305,-0.11554527282714844,-0.0,-0.0,-1.0,0.12307375245027667,2.0
11.070977210998535,4.89488410949707,-0.1382918357849121,-0.0,-0.0,-1.0,0.014393497101285674,2.0
11.538122177124023,5.012572288513184,-0.12887680530548096,-0.5416732227601514,0.39575685399244453,-0.7415973518444051,0.04304092405002325,3.0
11.548615455627441,4.9064741134643555,-0.1434546709060669,-0.0,-0.0,-1.0,0.041611902222591535,2.0
10.76530647277832,4.110467910766602,0.16734600067138672,-0.09125546736035245,0.3773740930007355,-0.921553706307297,0.17120908546358232,7.0
10.900333404541016,3.902996063232422,0.14394354820251465,0.8154885189065323,-0.05324425949444235,-0.5763189432619055,0.16303954142298938,3.0
11.150590896606445,3.7534656524658203,0.12351846694946289,-0.0,-0.0,-1.0,0.18564150980710512,2.0
11.46695327758789,3.9335412979125977,0.13433563709259033,-0.8239274679983768,-0.3721205145546231,-0.427398935568851,0.06522590023506387,4.0
11.353353500366211,3.776383399963379,0.121193528175354,-0.6019851279242188,-0.7406463021403489,-0.29842412919180833,0.2061145256112208,4.0
9.947651863098145,4.8750810623168945,-0.07851839065551758,-0.0,-0.0,-1.0,0.07096247095555262,2.0
10.009918212890625,4.838254928588867,-0.08986818790435791,0.060205395309430226,0.11620143852489659,-0.9913992818538753,0.06318335678560208,3.0
9.880477905273438,5.340028762817383,0.005450844764709473,-0.025061998607746112,-0.0929915174410169,-0.9953514323643696,0.18655169774528085,7.0
9.8840970993042,4.952169418334961,-0.060364603996276855,-0.0,-0.0,-1.0,0.07235206815267851,2.0
10.318340301513672,5.025018692016602,-0.08386802673339844,-0.0,-0.0,-1.0,0.04524226469893138,1.0
10.336886405944824,4.317044258117676,0.17824864387512207,-0.0,-0.0,-1.0,0.2242642749410843,2.0
10.716678619384766,5.094188690185547,-0.10754966735839844,-0.0,-0.0,-1.0,0.11349459319395196,2.0
10.695745468139648,4.214058876037598,0.12689590454101562,-0.6921172192259715,0.5477073141145808,-0.4700962166581436,0.1585900464262842,5.0
11.274942398071289,5.492922782897949,-0.09163808822631836,-0.0,-0.0,-1.0,0.08737353753324845,1.0
11.04638671875,5.070540428161621,-0.1433274745941162,-0.0,-0.0,-1.0,0.014040603185216266,2.0
11.255117416381836,4.210659980773926,0.06528890132904053,-0.0,-0.0,-1.0,0.07712796049940276,1.0
10.988020896911621,3.863889694213867,0.04575920104980469,0.6669968288737538,0.5983008726379351,0.444017224973358,0.14278238792689513,4.0
11.561161041259766,5.2698163986206055,-0.1613454818725586,-0.0,-0.0,-1.0,0.028949363877741306,2.0
11.483358383178711,4.171895980834961,0.03335154056549072,-0.23693279792828956,-0.9417046298965935,-0.2388623856893176,0.12713291112474673,4.0
10.800322532653809,3.934462547302246,0.46862274408340454,0.1555959555449736,-0.40850504338405563,-0.8993962019865537,0.15130073631352137,6.0
11.055023193359375,3.769932746887207,0.420962929725647,-0.6376083956666269,-0.4354907430799978,-0.635455227743908,0.10949048644878463,3.0
9.83829402923584,5.326262474060059,-0.009821534156799316,-0.11101059329889686,0.8710342639875177,-0.4785143249006765,0.11773249642246351,3.0
9.861397743225098,5.0046281814575195,-0.0609356164932251,-0.0,-0.0,-1.0,0.05634112439444183,1.0
9.981292724609375,4.843236923217773,-0.09102261066436768,0.008215249093026367,0.2745899060505882,-0.9615263351450488,0.0658004317018578,4.0
10.281669616699219,4.962657928466797,-0.08482253551483154,-0.9858415513962792,-0.12136699102835714,-0.11569999580510203,0.05219770746684895,4.0
10.298012733459473,4.945611953735352,-0.08822524547576904,-0.7226641372122008,-0.6911455899043886,-0.008620808724230333,0.04867628570067853,3.0
10.452472686767578,4.279568672180176,0.17037928104400635,-0.8191045962759992,0.2443856586084927,-0.5189829575487285,0.16606744710352708,5.0
10.648775100708008,4.194893836975098,0.14663612842559814,-0.563014950263177,0.41203653240202326,-0.7164077482455566,0.1441277922619939,4.0
10.664151191711426,5.059962272644043,-0.08779895305633545,-0.5763772225822046,0.3827382450914868,-0.7220115878798019,0.10122527743817962,3.0
10.71004867553711,4.992362022399902,-0.1014944314956665,-0.0,-0.0,-1.0,0.16677151971721893,2.0
10.762887001037598,4.067110061645508,0.12201225757598877,-0.6398379205742373,0.07046318346730149,-0.7652727456083152,0.12472149621373156,4.0
10.982666015625,3.7674341201782227,0.06640660762786865,-0.0,-0.0,-1.0,0.19785360835881888,1.0
11.034433364868164,4.934959411621094,-0.12952399253845215,-0.0,-0.0,-1.0,0.014944884465047556,1.0
11.300625801086426,4.057686805725098,0.08055293560028076,-0.0,-0.0,-1.0,0.10648501204610844,1.0
11.17155933380127,3.8355798721313477,0.06104624271392822,-0.0,-0.0,-1.0,0.10523860602298396,1.0
11.500591278076172,5.101268768310547,-0.13266360759735107,0.22840551023121358,0.5815999653351054,-0.7807511788132135,0.030886496319380223,3.0
10.80223560333252,3.8822784423828125,0.4769010543823242,-0.15647216128177102,-0.44078160092588703,-0.8838710556574549,0.1339682752001907,5.0
11.041467666625977,3.6970558166503906,0.4388536214828491,-0.04273105749038958,0.027109438510186164,-0.9987187467297366,0.1180240332526825,4.0
11.413101196289062,4.143463134765625,0.08302223682403564,-0.5952216738401396,-0.2927098758040413,-0.7483529164757261,0.12724637873476427,3.0
11.673240661621094,4.115353584289551,0.057325005531311035,-0.4792165905822871,0.02498285170404043,-0.8773410490974548,0.10909182257899344,4.0
9.801908493041992,4.776501655578613,-0.005670785903930664,-0.0,-0.0,-1.0,0.05068609232211716,2.0
9.98381519317627,4.6347455978393555,-0.028208255767822266,-0.0,-0.0,-1.0,0.03422649873856514,1.0
9.833017349243164,5.3569488525390625,0.07649946212768555,-0.8745999255089546,0.47402052064096917,0.10187991122392534,0.20259160346572216,8.0
10.319406509399414,4.734831809997559,-0.01952958106994629,-0.4725113520803397,-0.5194987025702801,-0.7119368793530826,0.0716074547604776,3.0
10.741863250732422,3.9950361251831055,0.23180246353149414,0.3998287030816477,0.20259313389652034,-0.8939200357358784,0.20435609452950035,3.0
10.909994125366211,3.7525854110717773,0.19515347480773926,-0.18329654794334166,0.7815485196323285,-0.5963088855388375,0.18746517187362288,3.0
10.703014373779297,4.783357620239258,-0.02159559726715088,-0.0,-0.0,-1.0,0.04544290332552007,1.0
10.857612609863281,4.701279640197754,-0.03851652145385742,-0.0,-0.0,-1.0,0.04634039507262622,2.0
11.138067245483398,3.7650184631347656,0.1850818395614624,0.21625101617806933,0.9552361894881883,-0.2018893763773575,0.09201404254471844,3.0
11.199540138244629,4.644109725952148,-0.06000685691833496,-0.0,-0.0,-1.0,0.0174114747851946,1.0
11.58122444152832,4.671730995178223,-0.07216143608093262,0.11814393673815295,0.5327711958943191,-0.837971874848642,0.0616211342419172,3.0
10.264832496643066,4.288854598999023,0.28502053022384644,-0.0,-0.0,-1.0,0.22025502728319518,1.0
9.842828750610352,5.3675642013549805,0.4172663688659668,-0.0,-0.0,-1.0,0.12456842596948671,2.0
10.579232215881348,4.175516128540039,0.26001930236816406,-0.0,-0.0,-1.0,0.11048477894522177,1.0
11.391406059265137,4.0238447189331055,0.20277190208435059,-0.0,-0.0,-1.0,0.09123868397573415,1.0
10.392736434936523,4.27971076965332,0.2343381643295288,-0.0,-0.0,-1.0,0.1568862617116433,2.0
10.838955879211426,3.9127111434936523,0.19796264171600342,0.011109718915635511,0.8938796276060809,0.4481693714394479,0.12199847442402027,5.0
10.959498405456543,3.761240005493164,0.18177509307861328,0.049498224540577715,-0.43993015675588915,-0.8966668182463703,0.18075720340629303,5.0
9.90627670288086,5.370058059692383,-6.508827209472656e-05,0.06548253455671071,-0.39987365907503497,-0.914228141355303,0.2485851480768022,7.0
10.179749488830566,5.08576774597168,-0.028887033462524414,-0.0,-0.0,-1.0,0.05115588352583485,1.0
10.61501407623291,4.236559867858887,0.23170006275177002,-0.7761716429146288,0.5927184897600588,-0.21504039767392757,0.1279262920051777,3.0
10.735090255737305,4.126931190490723,0.22067856788635254,-0.9969651780406438,-0.07781793585370228,0.0021914912403352468,0.18711095403505226,7.0
11.221121788024902,3.798367500305176,0.1859492063522339,-0.0,-0.0,-1.0,0.15591923365750235,2.0
10.156732559204102,5.358590126037598,0.007296562194824219,-0.0,-0.0,-1.0,0.15315059080368124,1.0
10.456300735473633,5.064762115478516,-0.02349674701690674,-0.0,-0.0,-1.0,0.030720094094263063,1.0
10.699774742126465,5.005776405334473,-0.025531411170959473,-0.4315097098174805,0.8921505256321907,-0.13366678700200738,0.14083869687894063,3.0
10.958901405334473,4.821154594421387,-0.04580223560333252,-0.0,-0.0,-1.0,0.04491556040047628,2.0
11.423348426818848,4.069912910461426,0.21571731567382812,-0.0,-0.0,-1.0,0.08802675944716444,1.0
11.270992279052734,4.733242988586426,-0.05319654941558838,-0.0,-0.0,-1.0,0.021319114577121125,1.0
11.529096603393555,4.686770439147949,-0.05704355239868164,-0.0,-0.0,-1.0,0.06215516581234747,1.0
9.824813842773438,5.386760711669922,0.3402888774871826,-0.0,-0.0,-1.0,0.1731117146717479,1.0
9.835792541503906,4.116021156311035,-0.025861740112304688,-0.0,-0.0,-1.0,0.03529153839939588,1.0
10.113234519958496,5.625945091247559,-0.1843736171722412,-0.0,-0.0,-1.0,0.03576380280978087,1.0
10.417783737182617,5.430696964263916,-0.1866588592529297,-0.0,-0.0,-1.0,0.021614007192021546,1.0
10.796178817749023,5.258603096008301,-0.18448257446289062,-0.0,-0.0,-1.0,0.033259661472281606,1.0
10.680669784545898,5.472630500793457,-0.16268229484558105,0.5566996667291607,-0.1969648951430912,-0.807025595099011,0.05319869285369369,3.0
10.939712524414062,5.224111080169678,-0.1804288625717163,-0.0,-0.0,-1.0,0.02651861600784889,1.0
11.329568862915039,5.140935897827148,-0.1707603931427002,-0.0,-0.0,-1.0,0.023425508696428923,1.0
11.605144500732422,5.088672637939453,-0.16497325897216797,-0.0,-0.0,-1.0,0.039186497030282985,1.0
10.13449764251709,4.190677642822266,-0.003703594207763672,-0.0,-0.0,-1.0,0.06751744079305295,1.0
10.200891494750977,4.1981611251831055,0.0001068115234375,-0.0,-0.0,-1.0,0.09034559767999761,1.0
10.538484573364258,4.322568893432617,0.027981996536254883,-0.0,-0.0,-1.0,0.14614407926010592,2.0
10.801983833312988,3.9551801681518555,0.17886114120483398,-0.09573152043860055,0.6262698268209298,-0.7737063913450606,0.13772717538463555,6.0
11.029953002929688,3.774949073791504,0.1671450138092041,0.48003387510530243,0.7283085235340323,-0.48901346944543866,0.21419130494963518,3.0
9.873271942138672,5.280338764190674,0.09434187412261963,-0.6827337902436953,-0.3242036666291512,-0.6548026834121043,0.14246149440957148,5.0
11.410902976989746,4.081332206726074,0.029671907424926758,-0.0,-0.0,-1.0,0.11520571437002763,2.0
11.633870124816895,3.928863525390625,0.017034053802490234,-0.0,-0.0,-1.0,0.033295288375707215,2.0
9.846508979797363,4.3599443435668945,-0.04330039024353027,-0.0,-0.0,-1.0,0.023889834950130872,1.0
10.414552688598633,5.614930152893066,-0.19662439823150635,-0.0,-0.0,-1.0,0.028577233967542526,1.0
10.765262603759766,5.410114765167236,-0.19651615619659424,-0.0,-0.0,-1.0,0.03802046375394349,1.0
11.195533752441406,5.291686058044434,-0.1826341152191162,-0.0,-0.0,-1.0,0.03702190297868113,1.0
11.451024055480957,5.185669898986816,-0.1816112995147705,-0.0,-0.0,-1.0,0.03103546587816151,2.0
9.972074508666992,4.349023818969727,-0.0376894474029541,-0.0,-0.0,-1.0,0.028702611245137778,1.0
10.841682434082031,3.92208194732666,0.3140506148338318,0.6520352807475035,0.7344156897954309,-0.18837087684359619,0.10900262458670829,7.0
11.000875473022461,3.7761621475219727,0.3035997748374939,0.960907527411563,0.2317420732720968,0.15150028131771548,0.16874455581130418,5.0
9.843061447143555,5.252104759216309,0.052275776863098145,-0.38373924198803444,0.2349170954961396,-0.8930611134755035,0.134033974922723,3.0
10.508926391601562,4.436000823974609,0.00011777877807617188,-0.9689527858093797,-0.2462637925234287,0.02201461705821034,0.14354383618713915,6.0
10.791238784790039,4.147041320800781,-0.021172404289245605,-0.8297143308407288,-0.4966533293130759,0.25477362438007317,0.11703762174565585,3.0
11.116743087768555,3.8544578552246094,0.1357797384262085,-0.0,-0.0,-1.0,0.1562766713832458,1.0
9.855772972106934,5.392727375030518,0.06761515140533447,0.1469894765191178,-0.33499359045488436,-0.9306843654788558,0.24760231348631087,6.0
11.448094367980957,4.185667037963867,0.008629202842712402,-0.6197656294952152,-0.4976258941110736,0.6068435004237539,0.11196356802810353,3.0
11.707773208618164,4.053523063659668,-0.0003018379211425781,-0.5143864023844692,0.4453097689891673,0.7328750498446358,0.09611090500358155,4.0
11.20887565612793,5.568925857543945,-0.14108526706695557,-0.0,-0.0,-1.0,0.09820591278599863,1.0
11.689447402954102,5.1696906089782715,-0.1699439287185669,-0.0,-0.0,-1.0,0.03559785018075055,2.0
10.75550365447998,4.016471862792969,0.32076001167297363,-0.13374246637621343,-0.08727069089080959,-0.9871660342612322,0.20241870436184461,9.0
9.905620574951172,4.402185440063477,-0.03171360492706299,-0.0,-0.0,-1.0,0.023624392791748657,1.0
10.767305374145508,5.465592384338379,-0.1866546869277954,-0.0,-0.0,-1.0,0.054035218254247376,1.0
11.218361854553223,5.238035202026367,-0.1779876947402954,-0.0,-0.0,-1.0,0.025948400050452486,1.0
11.219932556152344,5.39377498626709,-0.15649306774139404,-0.0,-0.0,-1.0,0.04307568282143411,1.0
11.46187973022461,5.202520847320557,-0.16343092918395996,-0.0,-0.0,-1.0,0.029897725419847646,2.0
10.022180557250977,4.4109392166137695,-0.02317023277282715,-0.0,-0.0,-1.0,0.0443863810680193,1.0
10.79881477355957,4.025792598724365,0.15802204608917236,-0.2695175418667898,0.4713950959616267,-0.8397302889198484,0.1374055857269139,5.0
10.979654312133789,3.8064393997192383,0.3217904567718506,-0.559807100630123,-0.3113373262045063,-0.7679095515722696,0.12141508972079436,4.0
10.507709503173828,4.4251861572265625,0.008045434951782227,-0.9311592776204465,-0.3087004296027811,0.19402691685543771,0.15301217691096136,6.0
10.757659912109375,4.218028545379639,-0.0017131567001342773,-0.0,-0.0,-1.0,0.14817759391220806,1.0
11.06785774230957,4.075859069824219,-0.0025604963302612305,-0.0,-0.0,-1.0,0.07783405973148268,1.0
