x,y,z,nx,ny,nz,curvature,density
31.084012985229492,-23.643529891967773,0.729066014289856,-0.0,-0.0,-1.0,0.030049650275209793,1.0
31.332414627075195,-23.7901668548584,0.710228681564331,-0.0,-0.0,-1.0,0.06496141893242924,1.0
31.351314544677734,-22.576873779296875,0.7667055130004883,-0.0,-0.0,-1.0,0.2425411124150046,1.0
31.476024627685547,-23.803632736206055,0.7026616334915161,-0.0,-0.0,-1.0,0.0854306076467233,1.0
32.444236755371094,-22.128664016723633,0.7322560548782349,-0.0,-0.0,-1.0,0.07547345628036989,2.0
30.398405075073242,-22.691104888916016,0.8181877136230469,-0.0,-0.0,-1.0,0.16283564525378716,1.0
30.24707794189453,-24.16206169128418,0.7526013851165771,-0.0,-0.0,-1.0,0.06982509227008898,2.0
30.881237030029297,-23.791915893554688,0.7385530471801758,-0.0,-0.0,-1.0,0.01968426715782931,1.0
30.687610626220703,-23.96566390991211,0.7399640083312988,-0.21929996756531397,0.30630854396909063,-0.9263274799537083,0.03275366459959844,5.0
31.065372467041016,-22.24266815185547,0.8050905466079712,-0.0,-0.0,-1.0,0.17167949433165203,1.0
31.308265686035156,-22.616426467895508,0.773653507232666,-0.0,-0.0,-1.0,0.20207501410108544,1.0
31.035316467285156,-23.768001556396484,0.7316522598266602,-0.0,-0.0,-1.0,0.03919560628199054,1.0
31.270816802978516,-23.892885208129883,0.713043212890625,-0.0,-0.0,-1.0,0.04499540846288369,1.0
31.450536727905273,-21.910335540771484,0.800250768661499,-0.0,-0.0,-1.0,0.13861401848738242,1.0
31.434890747070312,-23.89251708984375,0.7043009996414185,-0.0,-0.0,-1.0,0.07645486173623021,1.0
32.02342224121094,-21.88233184814453,0.7694215774536133,-0.0,-0.0,-1.0,0.16378449648420426,1.0
32.22509002685547,-22.004365921020508,0.7520418167114258,-0.0,-0.0,-1.0,0.19416886683344767,2.0
32.62146759033203,-22.688093185424805,0.6965854167938232,-0.0,-0.0,-1.0,0.029654729462824728,1.0
30.367109298706055,-22.78310775756836,0.8618005514144897,-0.0,-0.0,-1.0,0.18430070600630094,1.0
30.282825469970703,-24.25909423828125,0.788851261138916,-0.0,-0.0,-1.0,0.09032190360715399,1.0
30.641292572021484,-24.00618553161621,0.7864876985549927,-0.0,-0.0,-1.0,0.04377993178514171,1.0
30.41253662109375,-24.13536262512207,0.7897502183914185,0.6915132429148183,-0.3643124189123506,-0.6237675017982769,0.08255959354505465,4.0
31.359243392944336,-22.091291427612305,0.8518201112747192,-0.0,-0.0,-1.0,0.16642130172022573,1.0
31.5045223236084,-22.337936401367188,0.8324416875839233,-0.0,-0.0,-1.0,0.18171537517761527,1.0
31.074005126953125,-23.910104751586914,0.772275447845459,-0.0,-0.0,-1.0,0.05973895174358391,1.0
31.686838150024414,-23.82120704650879,0.7487102746963501,-0.0,-0.0,-1.0,0.07255979441798469,1.0
31.436798095703125,-23.91061782836914,0.7557394504547119,-0.0,-0.0,-1.0,0.08273861189114565,2.0
31.84872055053711,-23.81192970275879,0.7415677309036255,-0.0,-0.0,-1.0,0.042997759758022315,1.0
30.289520263671875,-22.852937698364258,0.5989372730255127,-0.0,-0.0,-1.0,0.23863394716208558,1.0
30.22728729248047,-23.224239349365234,0.5782116651535034,-0.0,-0.0,-1.0,0.05043310219302358,1.0
30.594255447387695,-22.756519317626953,0.5858384370803833,-0.0,-0.0,-1.0,0.15107311180139893,2.0
31.11440086364746,-22.62713623046875,0.560367226600647,-0.0,-0.0,-1.0,0.07233523830372716,1.0
30.2840576171875,-22.31093978881836,0.6351829767227173,-0.0,-0.0,-1.0,0.07643390896760342,2.0
30.652847290039062,-22.118667602539062,0.6240296363830566,-0.0,-0.0,-1.0,0.201804109269522,1.0
30.62348175048828,-22.357677459716797,0.6102255582809448,-0.0,-0.0,-1.0,0.08452845701671927,2.0
31.079360961914062,-22.02520751953125,0.6019778251647949,-0.0,-0.0,-1.0,0.1043104505148491,2.0
30.6289119720459,-22.69226837158203,0.5878397226333618,-0.0,-0.0,-1.0,0.15194790087290372,1.0
31.301496505737305,-22.09282684326172,0.5826848745346069,-0.0,-0.0,-1.0,0.11178104743266103,1.0
31.028915405273438,-22.131208419799805,1.117783784866333,0.7222094343571969,-0.6855797143395639,0.09161871103404612,0.16230428448236436,3.0
30.313323974609375,-24.25579071044922,1.0863330364227295,-0.0,-0.0,-1.0,0.18679498652893825,2.0
30.72383689880371,-24.201656341552734,1.066465973854065,-0.9118087350743085,-0.3799693475916191,0.1556538644974446,0.16295614936162592,3.0
31.250072479248047,-24.217330932617188,1.0379629135131836,0.9233530260382596,0.22982504642512522,0.3075705404320736,0.13297757522174053,4.0
30.471805572509766,-22.083763122558594,0.496337890625,-0.0,-0.0,-1.0,0.04642328127381553,1.0
30.537948608398438,-21.92595672607422,0.5063766241073608,-0.0,-0.0,-1.0,0.08714659331869741,1.0
30.292972564697266,-24.23154067993164,0.8712145090103149,-0.0,-0.0,-1.0,0.1804203789149583,2.0
30.857980728149414,-24.096118927001953,0.8579565286636353,-0.0,-0.0,-1.0,0.12690226415421263,2.0
30.43164825439453,-24.29595947265625,0.862816333770752,-0.0,-0.0,-1.0,0.12697760795021726,2.0
31.142915725708008,-24.149749755859375,0.8443804979324341,-0.0,-0.0,-1.0,0.11330770347425309,2.0
30.85540771484375,-24.331905364990234,0.8454883098602295,-0.0,-0.0,-1.0,0.206182432620449,2.0
31.5728759765625,-24.31320571899414,0.8192237615585327,-0.0,-0.0,-1.0,0.04924166793091208,1.0
30.215511322021484,-22.933826446533203,0.9436588883399963,-0.0,-0.0,-1.0,0.16629669018877918,1.0
31.249618530273438,-22.175371170043945,0.9436507225036621,-0.5906466760127417,-0.40228351300051646,0.6995030230692811,0.25508465520248247,3.0
30.370071411132812,-22.559062957763672,0.6595789194107056,-0.0,-0.0,-1.0,0.12479028193953184,1.0
31.285022735595703,-21.945661544799805,0.6472071409225464,-0.0,-0.0,-1.0,0.19467366711625056,1.0
31.130413055419922,-22.214397430419922,0.6379554271697998,-0.0,-0.0,-1.0,0.2567385546134367,2.0
30.806507110595703,-22.595218658447266,0.6307756900787354,-0.0,-0.0,-1.0,0.12356432445440457,1.0
30.303688049316406,-23.255090713500977,0.6130193471908569,-0.0,-0.0,-1.0,0.04368968815942376,1.0
31.534194946289062,-22.010990142822266,0.626798152923584,-0.0,-0.0,-1.0,0.18771828769144405,1.0
31.42943572998047,-22.452634811401367,0.602424144744873,-0.12842591138815498,-0.991337623694486,-0.02750456565539218,0.1016941097591599,3.0
31.273605346679688,-22.73162841796875,0.592410683631897,-0.698336668493729,0.22213161935360146,-0.6804288655843654,0.13590826285437924,3.0
30.88319206237793,-23.04348373413086,0.5940049886703491,-0.0,-0.0,-1.0,0.04852121663380633,1.0
30.56644058227539,-23.45614242553711,0.583076000213623,-0.0,-0.0,-1.0,0.019336108868347027,1.0
31.97454833984375,-22.059600830078125,0.5950301885604858,-0.0,-0.0,-1.0,0.15057994672497804,1.0
31.248775482177734,-21.96242904663086,1.1120489835739136,-0.0,-0.0,-1.0,0.201085558148407,1.0
30.97709083557129,-22.144508361816406,1.117300271987915,-0.6234010617098492,-0.716452322811974,0.31315680640273447,0.0706426570097598,3.0
31.23973274230957,-24.33539390563965,1.0177279710769653,-0.0,-0.0,-1.0,0.17033637687920183,1.0
30.66267204284668,-22.515869140625,0.5837953090667725,-0.0,-0.0,-1.0,0.15967492590146112,1.0
30.53890609741211,-22.645971298217773,0.5931849479675293,-0.0,-0.0,-1.0,0.19995446955853693,1.0
30.482532501220703,-23.012161254882812,0.5778195858001709,-0.0,-0.0,-1.0,0.12950256452652717,1.0
30.2383975982666,-23.46595001220703,0.5815825462341309,-0.0,-0.0,-1.0,0.032636357928931985,1.0
30.629276275634766,-22.770980834960938,0.5725206136703491,-0.0,-0.0,-1.0,0.11361853664035741,2.0
30.530200958251953,-23.19025993347168,0.5596144199371338,-0.0,-0.0,-1.0,0.019488942527022497,1.0
31.2071475982666,-24.320987701416016,0.8455588817596436,-0.0,-0.0,-1.0,0.2322228598212422,1.0
30.2110538482666,-22.794998168945312,0.5646517276763916,-0.0,-0.0,-1.0,0.16903699189534677,1.0
30.44023323059082,-22.140445709228516,0.5533857345581055,-0.0,-0.0,-1.0,0.04858202961130284,2.0
30.291526794433594,-22.427085876464844,0.5690138339996338,-0.0,-0.0,-1.0,0.06411135307055567,1.0
30.302780151367188,-22.871780395507812,0.5413260459899902,-0.0,-0.0,-1.0,0.2066056988321943,1.0
30.74789047241211,-21.98776626586914,0.49660801887512207,-0.0,-0.0,-1.0,0.13548405240075603,2.0
30.48422622680664,-24.15926742553711,0.8410565853118896,-0.0,-0.0,-1.0,0.08644128495840163,1.0
30.88129234313965,-23.830169677734375,0.7858768701553345,-0.0,-0.0,-1.0,0.09616193977765118,1.0
30.93082046508789,-24.08104705810547,0.767488956451416,-0.0,-0.0,-1.0,0.10303094108923883,1.0
31.259361267089844,-22.089061737060547,0.7774658203125,-0.0,-0.0,-1.0,0.12490800717304046,1.0
31.115924835205078,-23.75037956237793,0.7480223178863525,-0.0,-0.0,-1.0,0.07222821178363159,2.0
31.79017448425293,-21.86496925354004,0.6866705417633057,-0.0,-0.0,-1.0,0.14521124068037652,1.0
31.724016189575195,-22.212249755859375,0.6895267963409424,-0.0,-0.0,-1.0,0.2367302270216003,2.0
31.623321533203125,-22.53647804260254,0.6985931396484375,-0.0,-0.0,-1.0,0.2244484662764842,2.0
31.746543884277344,-23.00668716430664,0.66200852394104,0.023133295894298543,-0.22352510359324518,-0.9744236135709641,0.08555150343377557,3.0
31.717769622802734,-23.40422248840332,0.6541963815689087,-0.0,-0.0,-1.0,0.05815164120613104,1.0
31.63015365600586,-23.60302734375,0.662930965423584,-0.0,-0.0,-1.0,0.0667613982419674,2.0
31.940235137939453,-22.378448486328125,0.6456930637359619,-0.0,-0.0,-1.0,0.13942330872753653,1.0
31.473346710205078,-22.058992385864258,1.1348073482513428,-0.0,-0.0,-1.0,0.18237117977516848,1.0
31.559696197509766,-21.930086135864258,1.1228573322296143,-0.0,-0.0,-1.0,0.1752896644310125,1.0
31.667888641357422,-22.021617889404297,1.105664610862732,0.08488906360253506,-0.9947278061420739,0.057536410806217866,0.227699783801857,3.0
32.525665283203125,-23.743133544921875,0.9587705135345459,0.6432681161482121,-0.4475818575543911,-0.6211896743630648,0.1595649119309013,5.0
30.429868698120117,-22.589075088500977,0.7757985591888428,-0.0,-0.0,-1.0,0.18289305985000823,1.0
30.344539642333984,-22.839210510253906,0.7770953178405762,-0.0,-0.0,-1.0,0.14220324447113789,1.0
30.6287899017334,-23.544597625732422,0.6787433624267578,-0.0,-0.0,-1.0,0.034994186052510715,2.0
30.48735809326172,-23.700817108154297,0.6944513320922852,-0.0,-0.0,-1.0,0.036520236010000776,1.0
30.598848342895508,-22.314430236816406,0.7585598230361938,-0.0,-0.0,-1.0,0.2013493229119447,1.0
30.900602340698242,-22.659000396728516,0.6809983253479004,-0.0,-0.0,-1.0,0.08517326340308973,2.0
30.935546875,-22.822208404541016,0.6650416851043701,-0.0,-0.0,-1.0,0.05468252025313767,2.0
30.873291015625,-23.433717727661133,0.6400449275970459,-0.0,-0.0,-1.0,0.027297240002766652,2.0
30.785871505737305,-21.88555145263672,0.743781566619873,-0.0,-0.0,-1.0,0.1322272790502084,1.0
31.159996032714844,-22.2069091796875,0.6538488864898682,-0.0,-0.0,-1.0,0.2133625277912642,2.0
31.167036056518555,-22.807987213134766,0.6209065914154053,-0.0,-0.0,-1.0,0.046288749072332346,2.0
31.384206771850586,-22.446638107299805,0.5974726676940918,-0.06641498391575285,-0.8836158249338985,-0.46347828842121247,0.10361292175532953,3.0
31.32950210571289,-22.63610076904297,0.5985977649688721,-0.7546511946709403,0.14185179359199415,-0.6406088065554952,0.09442797785778924,3.0
32.548851013183594,-24.34552574157715,0.7338244915008545,-0.033784341103214675,-0.29348571565878956,-0.9553662925812642,0.09367065675054367,4.0
32.617759704589844,-24.31191062927246,0.7239670753479004,-0.0,-0.0,-1.0,0.09519702324311692,1.0
30.755634307861328,-24.194915771484375,1.0245321989059448,-0.0,-0.0,-1.0,0.1859972213743263,2.0
30.99062728881836,-22.096084594726562,1.0686047077178955,-0.0,-0.0,-1.0,0.11240661379166998,2.0
31.370676040649414,-24.131084442138672,0.9310634136199951,-0.0,-0.0,-1.0,0.17232947633612797,2.0
31.44217300415039,-22.005231857299805,0.9951736927032471,-0.0,-0.0,-1.0,0.22955952796692075,2.0
31.405933380126953,-22.24864387512207,0.9943979978561401,-0.0,-0.0,-1.0,0.13312964568980018,1.0
31.73202896118164,-22.544437408447266,0.9308432340621948,-0.0,-0.0,-1.0,0.22384001302232653,1.0
31.676280975341797,-21.97016716003418,0.9564050436019897,-0.0,-0.0,-1.0,0.25767484914798355,1.0
31.736204147338867,-22.226985931396484,0.9393534660339355,-0.0,-0.0,-1.0,0.1573948467672644,1.0
31.957870483398438,-22.617528915405273,0.8907248973846436,-0.0,-0.0,-1.0,0.14618926831653792,2.0
32.300933837890625,-23.537805557250977,0.803996205329895,-0.0,-0.0,-1.0,0.09473430396181157,2.0
32.125423431396484,-22.410232543945312,0.86844801902771,-0.0,-0.0,-1.0,0.1369520383292098,1.0
32.405006408691406,-23.374217987060547,0.7923834323883057,-0.0,-0.0,-1.0,0.059274971100147095,1.0
32.6835823059082,-23.9954833984375,0.7250075340270996,-0.0,-0.0,-1.0,0.11166296492258043,2.0
30.43012237548828,-24.099824905395508,0.7965092658996582,0.6786718391911375,-0.28857502871851903,-0.6753732208853301,0.07770752691206338,5.0
30.78961944580078,-23.848430633544922,0.7378774881362915,-0.0,-0.0,-1.0,0.027144115045632976,2.0
30.39655876159668,-22.060287475585938,0.5291240215301514,-0.0,-0.0,-1.0,0.11436217474303308,2.0
30.27594757080078,-22.246540069580078,0.5493083000183105,-0.4947077267760116,-0.7945590853304659,0.35205131016220403,0.07241625075182151,4.0
30.96759033203125,-23.660383224487305,0.7102268934249878,-0.0,-0.0,-1.0,0.03948448127074156,2.0
30.584239959716797,-22.03197479248047,0.4857490062713623,-0.0,-0.0,-1.0,0.0957268927847101,1.0
31.33193588256836,-22.9478816986084,0.6595990657806396,-0.0,-0.0,-1.0,0.05190810957965664,2.0
31.314760208129883,-23.270992279052734,0.6538444757461548,-0.2587039296478984,0.6244854619896615,-0.7369465276044757,0.04968238260589376,3.0
31.316844940185547,-23.445858001708984,0.648208737373352,-0.0,-0.0,-1.0,0.03475943204671299,1.0
31.37078094482422,-22.29886245727539,0.6663821935653687,-0.0,-0.0,-1.0,0.14861353905619168,1.0
31.498085021972656,-22.62615966796875,0.6332094669342041,-0.0,-0.0,-1.0,0.07429663304409469,1.0
31.573801040649414,-22.95587730407715,0.61006760597229,-0.0,-0.0,-1.0,0.034894304971284845,2.0
31.72542953491211,-22.3602237701416,0.5912728309631348,-0.0,-0.0,-1.0,0.07723762973179935,1.0
30.595516204833984,-22.637361526489258,0.8173524141311646,-0.0,-0.0,-1.0,0.16418834437576063,1.0
31.252761840820312,-24.248186111450195,1.0421960353851318,0.9685942572855161,-0.17598574441453824,0.17565358668806103,0.16746169241401607,5.0
31.347970962524414,-24.275371551513672,1.0259567499160767,-0.0,-0.0,-1.0,0.16054590647904865,1.0
30.883975982666016,-22.227771759033203,0.7687325477600098,-0.0,-0.0,-1.0,0.1958237763078907,1.0
31.217212677001953,-22.068706512451172,1.0675933361053467,-0.0,-0.0,-1.0,0.21488389834203228,1.0
31.39719009399414,-22.165964126586914,1.0357117652893066,-0.0,-0.0,-1.0,0.16635876926158788,1.0
31.57064437866211,-21.999618530273438,1.0045931339263916,-0.0,-0.0,-1.0,0.1929400896069982,1.0
32.115234375,-22.6419677734375,0.9083082675933838,-0.0,-0.0,-1.0,0.13710847623781167,2.0
32.59710693359375,-23.97249984741211,0.8182312250137329,-0.0,-0.0,-1.0,0.09244935425662384,1.0
30.789234161376953,-22.0156192779541,1.1434025764465332,-0.9554334787296792,-0.244873594810436,-0.16487507479033495,0.09171206948124068,3.0
30.545974731445312,-24.113544464111328,0.8266268968582153,-0.0,-0.0,-1.0,0.05169700070059513,1.0
30.226743698120117,-23.3154296875,0.5769131183624268,-0.0,-0.0,-1.0,0.026632453624040035,1.0
30.600069046020508,-24.04204559326172,0.8208389282226562,-0.0,-0.0,-1.0,0.06059439577238087,1.0
30.868446350097656,-23.9905948638916,0.7743740081787109,-0.0,-0.0,-1.0,0.044336726998157015,2.0
30.459531784057617,-22.918046951293945,0.5537700653076172,-0.0,-0.0,-1.0,0.16771392235773752,1.0
30.981815338134766,-23.793428421020508,0.763420820236206,-0.0,-0.0,-1.0,0.045429235805923826,1.0
31.12097930908203,-23.773422241210938,0.7382607460021973,0.35187905958872145,0.4295124643530243,-0.8316851389728861,0.0735899129049004,3.0
30.433229446411133,-22.383861541748047,0.5918552875518799,-0.0,-0.0,-1.0,0.10592853880099692,1.0
30.592117309570312,-22.776180267333984,0.5331830978393555,-0.0,-0.0,-1.0,0.10707988587278462,1.0
31.641551971435547,-23.571697235107422,0.6478018760681152,-0.0,-0.0,-1.0,0.06202819092781206,2.0
30.704652786254883,-22.134145736694336,0.5425670146942139,-0.0,-0.0,-1.0,0.13055148574541123,2.0
31.615489959716797,-23.021364212036133,0.6734142303466797,-0.0,-0.0,-1.0,0.036457269488904,1.0
31.637248992919922,-23.317163467407227,0.6586413383483887,-0.0,-0.0,-1.0,0.0734155250946214,1.0
30.904808044433594,-21.916240692138672,0.5058057308197021,-0.0,-0.0,-1.0,0.0753860595178766,1.0
31.62258529663086,-22.5624942779541,0.6862746477127075,-0.8284836143198573,0.2586348148505744,-0.4967121232169749,0.20106567750025278,3.0
31.685935974121094,-22.79319953918457,0.6668782234191895,-0.0,-0.0,-1.0,0.06789124884579972,1.0
31.880760192871094,-22.13010025024414,0.643928050994873,0.09954930029526095,0.8010855477831281,-0.5902134206740212,0.12746312825696401,3.0
30.656129837036133,-23.755950927734375,0.8258492946624756,-0.0,-0.0,-1.0,0.04902024194585598,1.0
31.308969497680664,-24.223556518554688,1.0782430171966553,-0.0,-0.0,-1.0,0.08811295567414738,1.0
30.528974533081055,-22.577917098999023,0.9031730890274048,-0.0,-0.0,-1.0,0.19945022144397814,1.0
30.55841636657715,-22.639205932617188,0.8950763940811157,-0.0,-0.0,-1.0,0.19138278904761064,2.0
32.48326110839844,-23.852134704589844,0.8965997695922852,-0.0,-0.0,-1.0,0.06463149064657275,2.0
31.35418701171875,-22.138280868530273,0.751923680305481,-0.0,-0.0,-1.0,0.1671588096404079,2.0
31.616592407226562,-22.44293975830078,0.6907756328582764,0.5543834708220569,-0.6268267350440736,-0.5474917456120014,0.24468700857221345,3.0
32.58475875854492,-23.73173713684082,0.8816497325897217,-0.0,-0.0,-1.0,0.1517071294039718,1.0
31.651151657104492,-22.019962310791016,0.8760888576507568,-0.0,-0.0,-1.0,0.2369610802328915,2.0
31.667770385742188,-22.217113494873047,0.6859395503997803,-0.0,-0.0,-1.0,0.1979667862560484,1.0
31.365779876708984,-22.103912353515625,1.1069256067276,-0.0,-0.0,-1.0,0.15909363919100789,1.0
31.52759552001953,-21.93514633178711,1.0796440839767456,-0.0,-0.0,-1.0,0.21991348422285958,1.0
30.408370971679688,-23.901443481445312,0.6861417293548584,0.5887133063551412,0.3351140748095744,-0.7356053288176484,0.042021782527423134,4.0
30.592308044433594,-23.722957611083984,0.6642124652862549,-0.0,-0.0,-1.0,0.03483729904716374,2.0
31.351043701171875,-24.243532180786133,0.8644907474517822,0.6895422148624152,-0.6462832448582284,0.3268784198110271,0.25089205641225426,3.0
30.838756561279297,-23.50433349609375,0.6309657096862793,-0.0,-0.0,-1.0,0.029173443513264022,1.0
31.988468170166016,-24.05657386779785,0.7624218463897705,-0.0,-0.0,-1.0,0.05973183997319627,1.0
32.23158645629883,-24.19649887084961,0.7126929759979248,-0.0,-0.0,-1.0,0.06923358484763126,1.0
30.286094665527344,-22.65460205078125,0.6397676467895508,-0.0,-0.0,-1.0,0.1388917442160188,1.0
30.917465209960938,-22.840545654296875,0.6592192649841309,-0.0,-0.0,-1.0,0.06193109657230022,2.0
31.070539474487305,-23.172256469726562,0.6059770584106445,-0.0,-0.0,-1.0,0.029217948810410264,1.0
32.211997985839844,-23.671741485595703,0.7386102676391602,-0.0,-0.0,-1.0,0.08905551504485341,1.0
32.32997131347656,-23.949670791625977,0.7058122158050537,-0.0,-0.0,-1.0,0.24335308233123512,1.0
30.28814697265625,-22.092525482177734,0.5180585384368896,-0.8208204645537638,0.5011887821002748,0.27397731597084196,0.17053429121982433,4.0
30.547319412231445,-22.206485748291016,0.7752087116241455,-0.0,-0.0,-1.0,0.26549600655790107,1.0
30.866348266601562,-22.6596736907959,0.6809448003768921,-0.0,-0.0,-1.0,0.11200337670297447,2.0
31.267784118652344,-22.760581970214844,0.588932991027832,-0.0,-0.0,-1.0,0.06645430439941803,2.0
31.924930572509766,-23.21560287475586,0.8086895942687988,-0.0,-0.0,-1.0,0.057441686964617704,1.0
32.27656173706055,-23.456159591674805,0.7348484992980957,-0.0,-0.0,-1.0,0.08080651313063286,1.0
31.202043533325195,-22.231714248657227,0.6309380531311035,-0.0,-0.0,-1.0,0.27483017423808903,1.0
31.433002471923828,-22.452177047729492,0.5692710876464844,-0.0,-0.0,-1.0,0.10372182125870648,2.0
31.95572280883789,-22.73604965209961,0.8189288377761841,-0.96800810121497,-0.2500426206690187,-0.02095241826514697,0.18107589061592966,3.0
31.535993576049805,-22.221332550048828,0.5573587417602539,-0.0,-0.0,-1.0,0.08707980593291233,1.0
30.374038696289062,-24.340530395507812,1.0223749876022339,-0.0,-0.0,-1.0,0.10423388583714434,1.0
30.2120418548584,-23.92266273498535,1.0748915672302246,-0.0,-0.0,-1.0,0.1279245676628243,1.0
30.45466423034668,-24.347736358642578,1.0087931156158447,-0.0,-0.0,-1.0,0.12648733670740375,2.0
30.62024688720703,-24.259666442871094,0.9868887662887573,-0.0,-0.0,-1.0,0.1083518750329155,1.0
31.5667781829834,-22.73837661743164,0.891912579536438,-0.0,-0.0,-1.0,0.2072010362621945,1.0
30.798812866210938,-22.117368698120117,1.0559629201889038,-0.0,-0.0,-1.0,0.09171206948124064,1.0
31.25633430480957,-22.141687393188477,0.9686928987503052,-0.5906466760127417,-0.40228351300051646,0.6995030230692811,0.2381660713662055,3.0
31.555431365966797,-22.629053115844727,0.8976192474365234,-0.0,-0.0,-1.0,0.28866272995313075,1.0
31.653472900390625,-22.124126434326172,0.8931013345718384,-0.0,-0.0,-1.0,0.1543513867411891,1.0
31.999061584472656,-22.36410903930664,0.8208246231079102,-0.0,-0.0,-1.0,0.20268313050476006,2.0
31.749168395996094,-22.034547805786133,1.231633186340332,0.7045183193571075,-0.10846215687986666,-0.7013486281552165,0.1734592121509591,3.0
30.356422424316406,-24.089080810546875,0.7825226783752441,-0.1486083289846274,-0.4852925462154628,-0.8616302624351756,0.06994557951405642,3.0
30.653657913208008,-23.993690490722656,0.7376489639282227,-0.0,-0.0,-1.0,0.036312189683654975,2.0
30.798568725585938,-23.82978057861328,0.7249550819396973,-0.0,-0.0,-1.0,0.02712893589344439,2.0
31.307538986206055,-24.18641471862793,0.9777834415435791,-0.0,-0.0,-1.0,0.11031754900929033,1.0
31.20724868774414,-23.461061477661133,0.6766800880432129,-0.0,-0.0,-1.0,0.02974927662362933,2.0
32.60535430908203,-24.02688217163086,0.771324872970581,-0.0,-0.0,-1.0,0.09582400826417561,1.0
32.697696685791016,-23.99658966064453,0.7569417953491211,-0.0,-0.0,-1.0,0.07081103246384263,2.0
30.302997589111328,-22.811609268188477,0.7395310401916504,-0.0,-0.0,-1.0,0.14182996952068494,1.0
30.501516342163086,-22.816570281982422,0.5337872505187988,-0.0,-0.0,-1.0,0.11805056256220861,1.0
31.242219924926758,-23.040889739990234,0.7001142501831055,-0.0,-0.0,-1.0,0.05127379806094222,2.0
31.373802185058594,-23.14892578125,0.6661636829376221,-0.0,-0.0,-1.0,0.05795792856209068,1.0
32.40140151977539,-23.591697692871094,0.8263869285583496,-0.0,-0.0,-1.0,0.13216686975561226,2.0
30.39042854309082,-22.427173614501953,0.59511399269104,-0.0,-0.0,-1.0,0.09439249592827767,1.0
30.551542282104492,-22.640029907226562,0.8657505512237549,-0.0,-0.0,-1.0,0.2288837110828721,2.0
31.533676147460938,-22.816312789916992,0.6556522846221924,-0.0,-0.0,-1.0,0.09027361578864139,2.0
30.615142822265625,-22.211986541748047,0.5616409778594971,-0.0,-0.0,-1.0,0.13841562456127707,2.0
30.786874771118164,-22.11082649230957,0.5289125442504883,-0.0,-0.0,-1.0,0.12844032852647147,1.0
31.251914978027344,-22.17704963684082,0.7513715028762817,-0.0,-0.0,-1.0,0.152892695036714,1.0
31.570735931396484,-22.4635009765625,0.6687312126159668,0.32869418764877123,-0.8457922459215022,-0.42023280184318734,0.14622545665962056,3.0
31.425302505493164,-21.960281372070312,0.7257207632064819,-0.0,-0.0,-1.0,0.15955922350610427,1.0
31.798419952392578,-22.062400817871094,0.6408829689025879,-0.0,-0.0,-1.0,0.16997618289562488,1.0
30.70980453491211,-24.165138244628906,1.0734103918075562,-0.0,-0.0,-1.0,0.20290495027484348,2.0
30.92241668701172,-22.109607696533203,1.1467217206954956,-0.0,-0.0,-1.0,0.07780881263939585,2.0
31.338056564331055,-22.198564529418945,1.0692989826202393,-0.0,-0.0,-1.0,0.13606116399016127,2.0
32.09294509887695,-22.642192840576172,0.9184086322784424,-0.07915331400377058,-0.9773134513756516,-0.1964514460176667,0.14416030903271876,3.0
31.36385154724121,-21.884716033935547,1.074759840965271,-0.0,-0.0,-1.0,0.1659323596732514,1.0
31.605724334716797,-22.029542922973633,1.0264520645141602,-0.0,-0.0,-1.0,0.2491742353520623,1.0
30.296030044555664,-24.084836959838867,0.7727285623550415,0.30845850821216897,-0.9392472053460065,0.15055907797685325,0.06341810617100928,3.0
30.623920440673828,-23.915576934814453,0.7323768138885498,-0.0,-0.0,-1.0,0.0764557543396885,2.0
32.54795455932617,-24.314661026000977,0.7060601711273193,-0.033784341103214675,-0.29348571565878956,-0.9553662925812642,0.08751308129885588,4.0
30.79907989501953,-23.757305145263672,0.7170372009277344,-0.0,-0.0,-1.0,0.030166972760250658,1.0
31.094058990478516,-23.553266525268555,0.6812053918838501,-0.0,-0.0,-1.0,0.04443942152583499,1.0
32.70233154296875,-23.81842041015625,0.7122330665588379,-0.0,-0.0,-1.0,0.10459554545918467,1.0
30.26584243774414,-23.06595230102539,0.5904128551483154,-0.0,-0.0,-1.0,0.15664014099815118,1.0
31.27229118347168,-23.26458740234375,0.6741806268692017,-0.0,-0.0,-1.0,0.04978260055123158,2.0
30.47719955444336,-22.769996643066406,0.5810174942016602,-0.0,-0.0,-1.0,0.13966999557637946,1.0
30.620058059692383,-22.8437442779541,0.5396175384521484,-0.0,-0.0,-1.0,0.057294958917756884,1.0
31.341453552246094,-22.982149124145508,0.6864303350448608,-0.0,-0.0,-1.0,0.06215268910779687,2.0
31.507347106933594,-22.850473403930664,0.6634128093719482,-0.0,-0.0,-1.0,0.1063046822394275,2.0
30.534826278686523,-22.40371322631836,0.6113619804382324,-0.0,-0.0,-1.0,0.09489631727356224,1.0
30.82456398010254,-22.36343765258789,0.5474216938018799,-0.0,-0.0,-1.0,0.12221154576767614,1.0
31.580467224121094,-22.465106964111328,0.6795750856399536,0.5162807505965408,-0.7921506514816492,-0.32550196915022056,0.18791221652943046,4.0
30.861377716064453,-22.156618118286133,0.5609877109527588,-0.0,-0.0,-1.0,0.08551748872010739,1.0
31.74319076538086,-22.021488189697266,0.6770110130310059,-0.0,-0.0,-1.0,0.1827249247423593,2.0
30.62031364440918,-24.343324661254883,1.0241714715957642,-0.0,-0.0,-1.0,0.10562017805878088,1.0
30.454484939575195,-23.95843505859375,1.0846511125564575,-0.0,-0.0,-1.0,0.19557746550646343,1.0
32.35250473022461,-23.625843048095703,0.7878022193908691,-0.0,-0.0,-1.0,0.14309661587005854,1.0
30.35654067993164,-22.88716697692871,0.8937793970108032,-0.0,-0.0,-1.0,0.19872619714145923,1.0
31.506258010864258,-22.811735153198242,0.9930986166000366,-0.0,-0.0,-1.0,0.20267754183451786,1.0
31.292890548706055,-22.22877311706543,1.0676193237304688,-0.0,-0.0,-1.0,0.19526558877875264,1.0
31.793058395385742,-22.482961654663086,0.9598919153213501,-0.0,-0.0,-1.0,0.11472915586344376,1.0
32.0066032409668,-22.657602310180664,0.9101321697235107,-0.0,-0.0,-1.0,0.14032248520931,2.0
31.331890106201172,-22.03725242614746,0.9189773797988892,-0.0,-0.0,-1.0,0.2484628368147884,1.0
31.579910278320312,-22.022708892822266,0.8686695098876953,-0.0,-0.0,-1.0,0.17825314912937282,2.0
30.8154296875,-22.067628860473633,1.165342092514038,-0.5251215383448944,-0.500026508724007,0.6886369584473169,0.09171206948124068,3.0
31.097972869873047,-22.155529022216797,1.1080379486083984,-0.0,-0.0,-1.0,0.15200981822388382,1.0
30.965028762817383,-24.312036514282227,0.8141361474990845,-0.0,-0.0,-1.0,0.08583283225802037,1.0
30.283977508544922,-23.914846420288086,0.6783667802810669,-0.0,-0.0,-1.0,0.04224322983756606,2.0
30.494281768798828,-23.81296157836914,0.6577911376953125,-0.0,-0.0,-1.0,0.0354475015917376,1.0
31.454320907592773,-23.944379806518555,0.7797495126724243,0.05324399080784418,-0.7111912675511236,-0.7009793566160708,0.07221511251893459,4.0
31.810346603393555,-23.865432739257812,0.7265346050262451,-0.0,-0.0,-1.0,0.06455576250115416,1.0
32.02585220336914,-23.848041534423828,0.6895897388458252,-0.0,-0.0,-1.0,0.025161518137551346,1.0
30.758621215820312,-23.44034194946289,0.6680012941360474,-0.0,-0.0,-1.0,0.02660942617754986,1.0
30.942638397216797,-23.396446228027344,0.6387134790420532,-0.0,-0.0,-1.0,0.03678073055700898,1.0
31.962642669677734,-23.83071517944336,0.7031381130218506,-0.0,-0.0,-1.0,0.028795148937046537,1.0
32.10300064086914,-23.703916549682617,0.6918131113052368,-0.0,-0.0,-1.0,0.062363231474828446,1.0
31.22176170349121,-23.198198318481445,0.6116175651550293,-0.0,-0.0,-1.0,0.05121169221875979,1.0
31.379295349121094,-23.097312927246094,0.593268871307373,-0.0,-0.0,-1.0,0.06429375354584332,1.0
31.98492431640625,-23.245088577270508,0.7649713754653931,-0.0,-0.0,-1.0,0.04382909298327924,1.0
32.43229675292969,-23.278425216674805,0.6753139495849609,-0.0,-0.0,-1.0,0.03813524344153389,1.0
31.456859588623047,-22.774702072143555,0.6208763122558594,-0.0,-0.0,-1.0,0.05628712015831135,1.0
31.585681915283203,-22.382213592529297,0.64290452003479,-0.0,-0.0,-1.0,0.11122914964938026,2.0
31.589584350585938,-22.01157569885254,0.6866475343704224,-0.0,-0.0,-1.0,0.24086404058305813,1.0
32.02069091796875,-21.879003524780273,0.5999102592468262,-0.0,-0.0,-1.0,0.1047322806421661,1.0
30.551895141601562,-24.304540634155273,0.8802297115325928,-0.0,-0.0,-1.0,0.09782279017394802,1.0
30.745920181274414,-24.24230194091797,0.8586591482162476,-0.0,-0.0,-1.0,0.23867075137223132,1.0
31.230125427246094,-24.205474853515625,1.1075773239135742,-0.0,-0.0,-1.0,0.14524503083362153,2.0
32.35189437866211,-23.95431137084961,0.9612611532211304,-0.8865358147561967,-0.3873671876176576,-0.25298401354977545,0.08668880043713384,4.0
32.41926193237305,-23.90483283996582,0.9548442363739014,-0.0,-0.0,-1.0,0.08749002185072392,2.0
32.49931335449219,-23.774995803833008,0.95304274559021,0.33661706912417055,-0.1390608092079813,-0.9313168312216176,0.11949875429341142,5.0
30.243968963623047,-22.850017547607422,0.9911185503005981,-0.7655283387648154,0.621751242907597,-0.1655045452271345,0.19042159468067313,5.0
31.832374572753906,-23.181291580200195,0.8008360862731934,-0.0,-0.0,-1.0,0.08445139596670709,1.0
30.44182586669922,-22.615745544433594,0.856205940246582,-0.0,-0.0,-1.0,0.15370378889939673,2.0
31.495439529418945,-22.687551498413086,0.9184579849243164,-0.0,-0.0,-1.0,0.2003278224964254,1.0
31.957170486450195,-22.74201202392578,0.8231996297836304,-0.96800810121497,-0.2500426206690187,-0.02095241826514697,0.16722081099322283,3.0
30.866531372070312,-22.07737922668457,1.104163408279419,-0.34649428084308603,-0.6316529407235565,-0.6935101122682463,0.08512215111387204,3.0
31.222885131835938,-22.191287994384766,0.886435866355896,-0.0,-0.0,-1.0,0.13817891509430827,1.0
31.630558013916016,-22.481361389160156,0.9136831760406494,-0.0,-0.0,-1.0,0.2313361077918084,1.0
31.383352279663086,-21.921205520629883,0.8814129829406738,-0.0,-0.0,-1.0,0.15072338351035608,1.0
31.49786376953125,-21.903961181640625,0.8593202829360962,-0.0,-0.0,-1.0,0.1076049760995533,1.0
31.687997817993164,-22.206432342529297,1.2137454748153687,-0.0,-0.0,-1.0,0.20109981542917843,1.0
31.70010757446289,-22.077224731445312,1.2210403680801392,0.9044953630403029,0.426401245352639,0.00837354168255389,0.19271810480295637,5.0
30.481910705566406,-24.348852157592773,0.8935564756393433,-0.0,-0.0,-1.0,0.11058698885657184,2.0
30.715530395507812,-24.320369720458984,0.8638557195663452,-0.0,-0.0,-1.0,0.20962060951107309,1.0
31.251554489135742,-24.16964340209961,0.8033192157745361,-0.0,-0.0,-1.0,0.13533329456004956,1.0
31.275466918945312,-24.054752349853516,0.8171238899230957,-0.0,-0.0,-1.0,0.11368920662858512,1.0
31.704288482666016,-24.037166595458984,0.7455575466156006,-0.0,-0.0,-1.0,0.02426196705267273,1.0
32.04771041870117,-23.897592544555664,0.7030829191207886,-0.0,-0.0,-1.0,0.0779082544291835,1.0
32.14199447631836,-23.74121856689453,0.7073328495025635,-0.0,-0.0,-1.0,0.07579944996536576,1.0
32.57880401611328,-23.832962036132812,0.9303091764450073,-0.0,-0.0,-1.0,0.04647705674281994,1.0
32.244468688964844,-23.355323791503906,0.7395941019058228,-0.0,-0.0,-1.0,0.054460174764742145,2.0
32.37343215942383,-23.285804748535156,0.7227020263671875,-0.0,-0.0,-1.0,0.04360755916294621,1.0
31.232057571411133,-24.193450927734375,1.102226972579956,-0.0,-0.0,-1.0,0.14524503083362156,2.0
32.39739227294922,-23.8995304107666,0.954058051109314,-0.0,-0.0,-1.0,0.08633136596668778,2.0
32.534751892089844,-23.754192352294922,0.946269154548645,0.6432681161482121,-0.4475818575543911,-0.6211896743630648,0.1595649119309013,5.0
31.567190170288086,-22.67609214782715,0.9636901617050171,-0.0,-0.0,-1.0,0.22698884152839974,1.0
31.758785247802734,-22.656391143798828,0.9279494285583496,-0.0,-0.0,-1.0,0.12209681054765101,1.0
30.878902435302734,-22.05948829650879,1.1817169189453125,-0.0,-0.0,-1.0,0.08512215111387199,1.0
30.991003036499023,-22.096946716308594,1.1546740531921387,-0.0,-0.0,-1.0,0.09125698463819454,2.0
31.33843421936035,-22.16046142578125,1.0767905712127686,-0.0,-0.0,-1.0,0.19915680114322712,2.0
31.760395050048828,-22.42432403564453,0.9569109678268433,-0.0,-0.0,-1.0,0.17773080979781566,1.0
31.359649658203125,-22.049341201782227,1.0865223407745361,-0.0,-0.0,-1.0,0.1965603211284186,1.0
32.23451232910156,-21.89974021911621,0.9149339199066162,-0.0,-0.0,-1.0,0.21472788360552908,1.0
31.28886604309082,-24.331485748291016,0.9814683198928833,-0.0,-0.0,-1.0,0.17033637687920186,2.0
32.45029067993164,-23.781139373779297,0.8847934007644653,-0.0,-0.0,-1.0,0.15956491193090128,2.0
30.590030670166016,-23.957752227783203,0.8510346412658691,-0.0,-0.0,-1.0,0.12538608064756715,1.0
30.92914390563965,-24.21854019165039,0.812119722366333,-0.0,-0.0,-1.0,0.11932790171017402,1.0
31.316797256469727,-24.35716438293457,0.8083773851394653,-0.0,-0.0,-1.0,0.24855200278398132,1.0
30.989078521728516,-24.062728881835938,0.8601064682006836,-0.0,-0.0,-1.0,0.12429979799034792,1.0
31.25656509399414,-24.21877098083496,0.8444312810897827,-0.0,-0.0,-1.0,0.14808669555835266,2.0
30.56510353088379,-24.264705657958984,1.0002354383468628,-0.0,-0.0,-1.0,0.15091033473077725,2.0
32.37178421020508,-23.99777603149414,0.9637547731399536,-0.0,-0.0,-1.0,0.13237914562386696,2.0
32.322288513183594,-22.074588775634766,0.8433694839477539,0.7329623053415834,0.41156131353173725,0.541648912259946,0.14659783057421907,3.0
32.02524185180664,-21.9190673828125,0.897078275680542,-0.0,-0.0,-1.0,0.10505675843118721,1.0
32.18198013305664,-22.355121612548828,0.9025635719299316,-0.0,-0.0,-1.0,0.0978632147961941,2.0
31.587186813354492,-22.118026733398438,1.0187814235687256,-0.0,-0.0,-1.0,0.2148373723670089,1.0
31.302648544311523,-21.949737548828125,1.066098690032959,-0.0,-0.0,-1.0,0.19862606493721777,1.0
32.222618103027344,-22.04842758178711,0.7658140659332275,-0.0,-0.0,-1.0,0.1953979687599559,2.0
32.01555633544922,-22.007747650146484,0.8101274967193604,-0.0,-0.0,-1.0,0.17637370182266915,1.0
32.02946853637695,-22.391677856445312,0.8457305431365967,-0.0,-0.0,-1.0,0.14156142312329426,2.0
31.773765563964844,-22.046852111816406,1.0314147472381592,-0.0,-0.0,-1.0,0.1473591842264686,1.0
31.43325424194336,-21.870838165283203,0.9291608333587646,-0.0,-0.0,-1.0,0.14024895873303253,1.0
31.988739013671875,-22.64468002319336,0.8790061473846436,-0.5354508296712066,-0.8015162016414877,-0.26620328230624496,0.16218628048015082,4.0
31.541648864746094,-22.45347785949707,0.96712327003479,-0.0,-0.0,-1.0,0.22080964497083627,1.0
31.20220375061035,-22.17598533630371,1.0172815322875977,-0.0,-0.0,-1.0,0.22210476741320115,1.0
30.894775390625,-22.060302734375,1.0744986534118652,-0.09236060306332111,-0.8224055590347309,-0.5613542691300675,0.08481805378582519,3.0
32.41755676269531,-23.91883659362793,0.8632125854492188,-0.0,-0.0,-1.0,0.13539326258458081,2.0
32.3177604675293,-22.119766235351562,0.8130922317504883,-0.0,-0.0,-1.0,0.18479397106948128,2.0
32.039649963378906,-21.95988655090332,0.8632316589355469,-0.0,-0.0,-1.0,0.15006199350221344,1.0
32.060508728027344,-22.408525466918945,0.8954989910125732,-0.0,-0.0,-1.0,0.12843146405944675,1.0
31.971389770507812,-22.1061954498291,0.8916280269622803,-0.0,-0.0,-1.0,0.17951074694208533,1.0
32.354759216308594,-23.893112182617188,0.9069080352783203,-0.0,-0.0,-1.0,0.14637214660084663,1.0
31.97897720336914,-22.564971923828125,0.9260423183441162,-0.0,-0.0,-1.0,0.13318429430416862,1.0
31.69888687133789,-22.12114715576172,0.9551177024841309,-0.0,-0.0,-1.0,0.19480601483016818,1.0
31.51309585571289,-21.93701934814453,0.9805376529693604,-0.0,-0.0,-1.0,0.17650320967454766,2.0
31.997711181640625,-22.72122573852539,0.9328360557556152,-0.0,-0.0,-1.0,0.13584027196623466,2.0
31.65229606628418,-22.510128021240234,0.9980788230895996,-0.0,-0.0,-1.0,0.18557529495333885,1.0
31.232284545898438,-21.99362564086914,1.0494215488433838,-0.0,-0.0,-1.0,0.2789855600680871,1.0
32.251686096191406,-23.92685317993164,0.9330377578735352,-0.0,-0.0,-1.0,0.19218216575149502,1.0
32.23077392578125,-22.04051971435547,0.860832929611206,-0.0,-0.0,-1.0,0.2447886820267831,1.0
32.1561164855957,-22.378246307373047,0.909858226776123,-0.0,-0.0,-1.0,0.11057007945517729,2.0
32.04716110229492,-22.165565490722656,0.9130828380584717,-0.0,-0.0,-1.0,0.08695256441328961,1.0
31.74059295654297,-22.0048770904541,0.9635388851165771,-0.0,-0.0,-1.0,0.2064578496260783,1.0
32.36840057373047,-23.79828643798828,0.9655218124389648,-0.0,-0.0,-1.0,0.07708591569510982,2.0
31.669292449951172,-22.27902603149414,1.0069894790649414,-0.0,-0.0,-1.0,0.17850689370426606,2.0
32.339874267578125,-23.92938804626465,0.9785237312316895,-0.7508574156600164,0.09096948378726485,-0.654169469149883,0.10510478492019558,3.0
31.64957046508789,-22.284643173217773,1.011831521987915,-0.0,-0.0,-1.0,0.1649669176695271,2.0
31.448062896728516,-22.003276824951172,1.0264365673065186,-0.0,-0.0,-1.0,0.20198396001906838,2.0
31.170570373535156,-21.912063598632812,1.0762312412261963,-0.0,-0.0,-1.0,0.16724625094422654,1.0
32.12043762207031,-22.104053497314453,0.9640398025512695,-0.0,-0.0,-1.0,0.1794454694887404,2.0
32.1683349609375,-22.336389541625977,0.9674093723297119,-0.0,-0.0,-1.0,0.08201762643365601,1.0
31.648937225341797,-22.02586555480957,1.0601890087127686,-0.0,-0.0,-1.0,0.267489988013498,2.0
32.33348083496094,-23.92943000793457,0.985856294631958,-0.7508574156600164,0.09096948378726485,-0.654169469149883,0.10510478492019558,3.0
32.356422424316406,-23.794513702392578,0.978950023651123,-0.0,-0.0,-1.0,0.07708591569510984,2.0
31.585693359375,-22.16893768310547,1.0829048156738281,-0.0,-0.0,-1.0,0.23416880837561152,1.0
31.284488677978516,-22.037765502929688,1.1390273571014404,-0.0,-0.0,-1.0,0.11596374581440647,1.0
32.60829162597656,-23.643268585205078,0.6337153911590576,-0.0,-0.0,-1.0,0.10509558067905568,1.0
32.58081817626953,-23.143571853637695,0.6430327892303467,-0.0,-0.0,-1.0,0.020887186666092676,2.0
32.44364547729492,-24.25034523010254,0.6601161956787109,-0.0,-0.0,-1.0,0.0916158421931778,1.0
32.3289794921875,-23.25448989868164,0.7019815444946289,-0.0,-0.0,-1.0,0.04291594222065218,1.0
32.40915298461914,-22.829822540283203,0.6818809509277344,-0.0,-0.0,-1.0,0.03237728577674571,1.0
32.07609176635742,-22.31805419921875,0.7524950504302979,-0.0,-0.0,-1.0,0.16237890140899455,1.0
32.059261322021484,-22.128915786743164,0.7518439292907715,-0.0,-0.0,-1.0,0.1891920682825304,1.0
32.35216522216797,-24.055561065673828,0.6861362457275391,-0.0,-0.0,-1.0,0.08599939751994091,1.0
32.334693908691406,-23.728740692138672,0.6963706016540527,-0.0,-0.0,-1.0,0.15915464890781564,1.0
32.22652053833008,-23.390850067138672,0.7253446578979492,-0.0,-0.0,-1.0,0.06794619559031499,2.0
32.090476989746094,-22.821054458618164,0.7567164897918701,-0.0,-0.0,-1.0,0.13853406061173645,1.0
31.881969451904297,-22.555849075317383,0.8023693561553955,-0.0,-0.0,-1.0,0.21923404004064972,2.0
31.821311950683594,-22.240678787231445,0.8105454444885254,-0.0,-0.0,-1.0,0.18643596169046858,1.0
31.62211799621582,-22.512136459350586,0.8629043102264404,-0.0,-0.0,-1.0,0.21803831341297655,1.0
31.36618423461914,-22.191049575805664,0.9161224365234375,-0.0,-0.0,-1.0,0.17570786299745855,1.0
31.248130798339844,-22.034181594848633,0.9394147396087646,-0.0,-0.0,-1.0,0.13606238713568727,1.0
31.287433624267578,-24.127466201782227,0.9311439990997314,-0.192889562099369,-0.1616208317723182,-0.9678183319044632,0.15797442228892905,6.0
31.253238677978516,-24.154571533203125,0.9382412433624268,-0.0,-0.0,-1.0,0.18692685796026995,2.0
31.694324493408203,-22.051679611206055,1.1893621683120728,0.8475085601558716,0.5291683941601137,0.041352763928520345,0.19271810480295637,7.0
32.55414581298828,-23.5926513671875,0.6348545551300049,-0.0,-0.0,-1.0,0.13461826397833002,1.0
32.544761657714844,-23.171751022338867,0.645526647567749,-0.0,-0.0,-1.0,0.02324912270555472,2.0
32.298919677734375,-22.6939640045166,0.7070467472076416,-0.0,-0.0,-1.0,0.0883621448752472,1.0
32.36283874511719,-24.262853622436523,0.6556949615478516,-0.0,-0.0,-1.0,0.07231040300914701,2.0
32.28828430175781,-23.927494049072266,0.685272216796875,-0.0,-0.0,-1.0,0.17117220014598294,1.0
32.238624572753906,-23.552974700927734,0.7079150676727295,-0.0,-0.0,-1.0,0.07533450017433127,1.0
32.27138137817383,-23.29572105407715,0.7063589096069336,-0.0,-0.0,-1.0,0.043596834587688114,1.0
32.05931091308594,-24.054780960083008,0.732598066329956,-0.0,-0.0,-1.0,0.09490713468819206,1.0
32.28154754638672,-22.546123504638672,0.7116081714630127,-0.0,-0.0,-1.0,0.18996348448815484,1.0
31.995136260986328,-22.74927520751953,0.7772188186645508,-0.2204989705770995,0.0209839022839895,-0.9751614634609875,0.15214031900628724,3.0
32.03369140625,-22.417163848876953,0.7691388130187988,-0.0,-0.0,-1.0,0.15989435954510442,1.0
31.758962631225586,-21.91270637512207,0.8289320468902588,-0.0,-0.0,-1.0,0.13505999686561235,2.0
31.814401626586914,-24.3264217376709,0.7760152816772461,-0.0,-0.0,-1.0,0.016819672712237308,2.0
31.597017288208008,-22.426631927490234,0.8705482482910156,-0.0,-0.0,-1.0,0.18287818291496355,1.0
31.555908203125,-22.02315330505371,0.8776154518127441,-0.0,-0.0,-1.0,0.17635398753076828,2.0
31.292869567871094,-24.111326217651367,0.9028003215789795,0.9110139235550011,0.10858076750181893,0.397823890707482,0.15549691651919395,5.0
31.195480346679688,-22.06998062133789,0.9623310565948486,-0.0,-0.0,-1.0,0.12501558044207436,2.0
30.624792098999023,-24.127382278442383,1.0514249801635742,-0.0,-0.0,-1.0,0.22177739063947519,1.0
31.717185974121094,-22.06077766418457,1.203562617301941,0.7834526884182302,-0.6122019364246726,-0.10682075663525516,0.20067331410112893,7.0
32.53582000732422,-23.086956024169922,0.6420860290527344,-0.0,-0.0,-1.0,0.025583301740584492,1.0
32.13359069824219,-23.532264709472656,0.695195198059082,-0.0,-0.0,-1.0,0.04772698193315574,1.0
32.17881393432617,-22.855609893798828,0.7330188751220703,-0.0,-0.0,-1.0,0.13824803565890326,1.0
32.21288299560547,-22.484601974487305,0.747077465057373,-0.0,-0.0,-1.0,0.23028832372539265,1.0
31.948040008544922,-23.728607177734375,0.7179150581359863,-0.0,-0.0,-1.0,0.032668210873117026,1.0
32.056427001953125,-23.451414108276367,0.7176468372344971,-0.0,-0.0,-1.0,0.036247810928328926,1.0
31.683719635009766,-23.895708084106445,0.7583591938018799,-0.0,-0.0,-1.0,0.06865752200133957,1.0
31.872848510742188,-22.872602462768555,0.7968869209289551,-0.0,-0.0,-1.0,0.06079440867126425,1.0
31.893505096435547,-22.60079002380371,0.8093900680541992,-0.0,-0.0,-1.0,0.2410444801019068,2.0
31.69162368774414,-22.030622482299805,0.8867278099060059,-0.0,-0.0,-1.0,0.2392485281679685,2.0
31.320154190063477,-23.99614715576172,0.8237428665161133,-0.0,-0.0,-1.0,0.053033613241450686,2.0
31.426488876342773,-23.902774810791016,0.8106420040130615,-0.0,-0.0,-1.0,0.06969018097553595,1.0
31.304519653320312,-22.12514877319336,0.9626774787902832,-0.0,-0.0,-1.0,0.22839026676151117,1.0
31.164623260498047,-24.119060516357422,0.8433742523193359,-0.0,-0.0,-1.0,0.100774167569218,2.0
31.281993865966797,-23.92677879333496,0.8380682468414307,-0.0,-0.0,-1.0,0.09899509868724139,2.0
31.090953826904297,-22.210390090942383,1.0097630023956299,-0.0,-0.0,-1.0,0.10077565690476384,1.0
30.825313568115234,-21.974367141723633,1.072493314743042,-0.0,-0.0,-1.0,0.08373859284955233,1.0
30.695751190185547,-24.2506103515625,0.9244112968444824,-0.0,-0.0,-1.0,0.24754964131986462,1.0
30.44603157043457,-24.340951919555664,0.9643490314483643,-0.0,-0.0,-1.0,0.15768602860649733,2.0
30.330575942993164,-23.861194610595703,1.0380244255065918,-0.0,-0.0,-1.0,0.20913790427744094,1.0
32.1142692565918,-22.080150604248047,0.629230260848999,-0.0,-0.0,-1.0,0.13518963076268845,1.0
31.66372299194336,-23.040464401245117,0.6535217761993408,-0.0,-0.0,-1.0,0.04191061510733318,1.0
31.600744247436523,-22.598541259765625,0.7039346694946289,-0.0,-0.0,-1.0,0.1996672704515947,2.0
31.776782989501953,-22.249404907226562,0.6917283535003662,-0.0,-0.0,-1.0,0.21795815463433327,1.0
31.459903717041016,-23.549861907958984,0.6479766368865967,-0.0,-0.0,-1.0,0.02894273135437076,1.0
31.415695190429688,-23.15568733215332,0.6956887245178223,-0.0,-0.0,-1.0,0.06667039943293,1.0
31.524932861328125,-22.64972686767578,0.7163543701171875,-0.0,-0.0,-1.0,0.2945045790863541,1.0
32.311729431152344,-22.056921005249023,0.9950315952301025,-0.5274693572659138,0.7669347526006629,-0.3654957761710025,0.24165202153751766,3.0
32.334651947021484,-24.050264358520508,0.8474431037902832,-0.0,-0.0,-1.0,0.11772547811660382,1.0
31.508228302001953,-22.4936580657959,0.732266902923584,-0.0,-0.0,-1.0,0.23147393990271942,1.0
31.615032196044922,-22.149188995361328,0.926192045211792,-0.0,-0.0,-1.0,0.24383413202258525,1.0
31.584758758544922,-21.878677368164062,0.9496428966522217,-0.0,-0.0,-1.0,0.1252432793433011,1.0
31.12203598022461,-22.19724464416504,0.8381526470184326,-0.0,-0.0,-1.0,0.044226719862958994,1.0
31.244422912597656,-24.26424217224121,1.0126862525939941,0.9618383156339654,-0.2664677631847863,0.06214487719605427,0.16455541799465365,4.0
30.947860717773438,-23.74688720703125,0.7326898574829102,-0.0,-0.0,-1.0,0.027993913329646333,1.0
31.038673400878906,-23.61037254333496,0.7288844585418701,-0.0,-0.0,-1.0,0.03450701077433324,1.0
30.692035675048828,-23.967559814453125,0.7591502666473389,-0.1391997606355811,-0.988093433698211,-0.06553466961445624,0.032753664599598435,3.0
30.29180908203125,-24.113243103027344,0.8211679458618164,0.9560672035369097,-0.2685253962938293,-0.1175993786818426,0.06397634538945732,4.0
31.550155639648438,-22.135786056518555,1.1307165622711182,-0.0,-0.0,-1.0,0.15893344290970166,1.0
32.507301330566406,-24.3343563079834,0.7261812686920166,-0.033784341103214675,-0.29348571565878956,-0.9553662925812642,0.09367065675054367,4.0
32.59773254394531,-24.088653564453125,0.7348992824554443,-0.0,-0.0,-1.0,0.07283237574848958,1.0
32.40886688232422,-23.59514617919922,0.8123013973236084,-0.0,-0.0,-1.0,0.13827648513646346,2.0
31.95747184753418,-22.555261611938477,0.5584976673126221,-0.0,-0.0,-1.0,0.143417546975007,1.0
31.93347930908203,-21.924531936645508,0.6149318218231201,-0.0,-0.0,-1.0,0.15178038163046734,2.0
31.52429962158203,-22.875925064086914,0.6191861629486084,-0.0,-0.0,-1.0,0.07640978123229004,1.0
31.521987915039062,-22.42169189453125,0.6620650291442871,-0.0,-0.0,-1.0,0.18344624064234194,1.0
31.54428482055664,-22.134580612182617,0.681912899017334,-0.0,-0.0,-1.0,0.22450486231054456,1.0
31.32045555114746,-23.19593048095703,0.6284418106079102,-0.0,-0.0,-1.0,0.036499764115826026,2.0
31.387100219726562,-22.907772064208984,0.6444606781005859,-0.0,-0.0,-1.0,0.06007247059124399,1.0
31.438425064086914,-22.600313186645508,0.6635012626647949,-0.42621091924542576,-0.7728811397558222,-0.4701053032307877,0.21138562329569688,3.0
31.16861343383789,-22.216341018676758,0.7548315525054932,-0.0,-0.0,-1.0,0.09577438477111282,1.0
30.800867080688477,-23.56168556213379,0.6915364265441895,-0.0,-0.0,-1.0,0.0249184254563016,1.0
31.010448455810547,-23.458602905273438,0.6619360446929932,-0.0,-0.0,-1.0,0.03833855086906685,1.0
30.61178207397461,-23.78473663330078,0.7011265754699707,-0.0,-0.0,-1.0,0.04327158056617855,2.0
31.989242553710938,-22.700740814208984,0.9594941139221191,-0.0,-0.0,-1.0,0.13828481737886658,2.0
31.874248504638672,-22.590606689453125,0.9882066249847412,-0.0,-0.0,-1.0,0.131436402556383,1.0
31.564491271972656,-22.28947639465332,1.0655031204223633,-0.0,-0.0,-1.0,0.15354405329752707,1.0
31.53160858154297,-22.036664962768555,1.089057207107544,-0.0,-0.0,-1.0,0.20652954932542586,1.0
31.340213775634766,-24.199031829833984,0.9318053722381592,-0.0,-0.0,-1.0,0.17162233193692067,1.0
30.73257827758789,-22.504493713378906,0.8196284770965576,-0.0,-0.0,-1.0,0.17332233819106624,2.0
30.72435188293457,-24.218372344970703,1.028676986694336,-0.59361039471665,0.7329388754132854,-0.3323060399575235,0.1871767413558201,3.0
