x,y,z,nx,ny,nz,curvature,density
37.882110595703125,8.353346824645996,-1.3426412343978882,-0.8576075548441423,-0.4051460187072714,-0.31680591124519564,0.06347147711649935,3.0
39.787010192871094,8.687821388244629,-1.5487710237503052,-0.0,-0.0,-1.0,0.03652433365878436,1.0
37.750709533691406,9.766082763671875,-1.4284878969192505,-0.0,-0.0,-1.0,0.1398603918354902,1.0
38.099090576171875,8.536335945129395,-1.4307221174240112,-0.0,-0.0,-1.0,0.0844677715014439,1.0
39.11614227294922,8.529401779174805,-1.5165224075317383,-0.5207925124727257,-0.22938983596466206,-0.8222867274305545,0.22006319249684209,3.0
39.057701110839844,8.230094909667969,-1.547316312789917,-0.0,-0.0,-1.0,0.14313792304871742,1.0
39.93793487548828,9.91898250579834,-1.6470813751220703,-0.0,-0.0,-1.0,0.02535054203943524,2.0
39.600868225097656,8.364838600158691,-1.3742344379425049,-0.0,-0.0,-1.0,0.13470493820238408,2.0
39.76310729980469,9.358956336975098,-1.5815117359161377,-0.0,-0.0,-1.0,0.03255876914351783,1.0
37.78765106201172,10.605886459350586,-1.5124412775039673,-0.0,-0.0,-1.0,0.05152578528139807,1.0
39.38336181640625,8.547903060913086,-1.2058802843093872,0.30359733006054224,-0.534855605838187,-0.7885164183982324,0.16275529739702016,4.0
39.188438415527344,8.270444869995117,-1.5852928161621094,-0.0,-0.0,-1.0,0.1463372408303314,2.0
37.734092712402344,8.294685363769531,-1.3425960540771484,-0.0,-0.0,-1.0,0.10090749480803404,1.0
39.540611267089844,8.232438087463379,-1.2671749591827393,0.031208652603601846,0.8739202604326084,-0.48506638556806797,0.1447152234001532,3.0
37.806915283203125,8.163863182067871,-1.4178121089935303,-0.0,-0.0,-1.0,0.07717259920911247,1.0
39.5401725769043,8.709905624389648,-1.2654006481170654,-0.0,-0.0,-1.0,0.16691232374210718,1.0
37.99079513549805,8.608243942260742,-1.3373031616210938,-0.0,-0.0,-1.0,0.07135606674888996,1.0
37.86418533325195,9.7944974899292,-1.4541239738464355,-0.0,-0.0,-1.0,0.15335112552163585,1.0
39.275901794433594,8.515670776367188,-1.2023656368255615,-0.0,-0.0,-1.0,0.11736640216438236,1.0
39.172271728515625,8.487732887268066,-1.4843132495880127,-0.0,-0.0,-1.0,0.24562964444563587,1.0
39.050315856933594,8.456757545471191,-1.5164520740509033,-0.0,-0.0,-1.0,0.21484935674517777,2.0
39.396976470947266,8.51433277130127,-1.1864609718322754,0.5379364045129826,-0.24791158543226618,-0.8057073106954564,0.11558773818374858,3.0
37.974822998046875,8.556660652160645,-1.3950072526931763,-0.0,-0.0,-1.0,0.12048837219409354,2.0
39.75017547607422,8.16262435913086,-1.5181604623794556,-0.0,-0.0,-1.0,0.08007802999515795,1.0
37.87827682495117,8.379863739013672,-1.3661741018295288,-0.8576075548441423,-0.4051460187072714,-0.31680591124519564,0.075078456890162,3.0
40.15928268432617,8.70241641998291,-1.5667780637741089,-0.0,-0.0,-1.0,0.01152559386646968,1.0
37.96537780761719,8.439697265625,-1.3742502927780151,-0.0,-0.0,-1.0,0.07788699872910242,1.0
38.637577056884766,8.43376636505127,-1.56234872341156,-0.0,-0.0,-1.0,0.025982671749004056,1.0
38.051170349121094,8.388654708862305,-1.417556881904602,-0.0,-0.0,-1.0,0.05167539359007931,2.0
37.77703094482422,8.295674324035645,-1.4633837938308716,-0.6047077294662372,0.18048315284204647,-0.7757282987386648,0.0851784751380906,3.0
39.37053680419922,10.597384452819824,-1.7582417726516724,-0.0,-0.0,-1.0,0.014389302801458776,2.0
39.367923736572266,9.889163970947266,-1.728765606880188,-0.0,-0.0,-1.0,0.03390394009754881,1.0
38.047298431396484,8.452491760253906,-1.4494320154190063,-0.0,-0.0,-1.0,0.08812577215190825,1.0
39.85791015625,9.906084060668945,-1.6323364973068237,-0.0,-0.0,-1.0,0.025234941723880213,2.0
39.619842529296875,10.13785457611084,-1.6403781175613403,-0.0,-0.0,-1.0,0.02195637532390072,2.0
39.369300842285156,10.041751861572266,-1.6840481758117676,-0.0,-0.0,-1.0,0.04487866103462826,1.0
39.542991638183594,9.267993927001953,-1.606795072555542,-0.757846532491411,-0.5431775811240804,0.361423226363412,0.01980077982413523,3.0
37.97712707519531,8.491765975952148,-1.337667465209961,-0.0,-0.0,-1.0,0.09596274774616755,1.0
39.13505554199219,8.466814041137695,-1.523145079612732,0.3203131710869869,-0.03885839790446302,-0.9465143936256314,0.20535075353643858,3.0
39.581809997558594,9.302597999572754,-1.5703551769256592,-0.26282024454047914,0.7276552795999409,-0.6335955438053635,0.020926080524623386,3.0
39.33292770385742,8.261472702026367,-1.5544335842132568,-0.0,-0.0,-1.0,0.10334441703085478,1.0
39.47095489501953,9.53791618347168,-1.6667526960372925,-0.6130944668893282,0.015637198462123834,-0.7898548301390242,0.042992280751644636,3.0
37.775184631347656,8.907161712646484,-1.3289144039154053,-0.0,-0.0,-1.0,0.07382663353987426,1.0
39.53388214111328,10.124954223632812,-1.6477713584899902,-0.0,-0.0,-1.0,0.022999306438531934,2.0
39.12178039550781,8.317821502685547,-1.448533535003662,-0.0,-0.0,-1.0,0.18345563553522426,1.0
39.19583511352539,8.917882919311523,-1.5580253601074219,-0.0,-0.0,-1.0,0.027879380670038534,1.0
39.19334030151367,8.230960845947266,-1.3683505058288574,0.8139383961535758,0.2319605306656058,-0.5326336447130197,0.25500442845436805,3.0
38.87650680541992,8.456514358520508,-1.5532846450805664,-0.0,-0.0,-1.0,0.16676380114063227,1.0
38.66061019897461,9.24588680267334,-1.5674505233764648,-0.0,-0.0,-1.0,0.008631126515832015,1.0
39.100799560546875,8.454216003417969,-1.4833650588989258,-0.230564808020747,-0.8919604933738886,0.38890403387283795,0.24377742968583357,7.0
39.31380844116211,8.513883590698242,-1.523521900177002,-0.0,-0.0,-1.0,0.08093628037498893,1.0
39.33313751220703,8.95930290222168,-1.5729150772094727,-0.0,-0.0,-1.0,0.031051396697140254,1.0
39.149322509765625,9.250786781311035,-1.5746121406555176,-0.0,-0.0,-1.0,0.03006575547092949,2.0
39.01976013183594,9.69848918914795,-1.602613925933838,-0.0,-0.0,-1.0,0.017958559368412036,1.0
37.92940902709961,8.282218933105469,-1.5084342956542969,-0.0,-0.0,-1.0,0.07083711614838435,2.0
39.56643295288086,8.321809768676758,-1.2360434532165527,-0.0,-0.0,-1.0,0.14018266489770684,2.0
39.56537628173828,8.393285751342773,-1.2351655960083008,-0.5858434821396221,-0.5480274005725989,-0.5970371702466788,0.19926347980593537,4.0
39.3406982421875,8.464530944824219,-1.199723243713379,-0.0,-0.0,-1.0,0.0727339801686754,1.0
37.88106155395508,8.214594841003418,-1.481544017791748,-0.0,-0.0,-1.0,0.07291069890038482,1.0
37.92494583129883,8.322879791259766,-1.494340419769287,-0.0,-0.0,-1.0,0.07083711614838425,2.0
39.76390838623047,9.756202697753906,-1.6358253955841064,-0.0,-0.0,-1.0,0.026870719886666842,1.0
39.63081359863281,10.005374908447266,-1.6292064189910889,-0.0,-0.0,-1.0,0.030564666600041705,1.0
39.40229034423828,8.2437105178833,-1.5001962184906006,-0.7500369452328027,0.24954425696995713,-0.6125130566764743,0.15600997541731526,4.0
39.43785095214844,8.511897087097168,-1.5187885761260986,-0.0,-0.0,-1.0,0.12042753140147897,1.0
39.6522216796875,8.940844535827637,-1.5742685794830322,-0.0,-0.0,-1.0,0.04538382302028236,1.0
39.61598205566406,9.300046920776367,-1.5874598026275635,-0.38763273708481016,-0.6202718445596879,-0.6819117978057431,0.026462359766249142,3.0
40.13623809814453,8.617045402526855,-1.557915210723877,0.06958886094676969,0.2855391654588256,-0.9558372117788722,0.010330996272762013,3.0
39.734886169433594,8.24396800994873,-1.5171642303466797,0.0011140450936096636,0.9315758976829435,-0.3635451908081679,0.08509438949258853,3.0
39.53704833984375,8.21405029296875,-1.300532579421997,-0.2747543822238935,0.856066513272572,-0.4377900801778268,0.14023030259720237,4.0
39.09080505371094,8.753456115722656,-1.5799973011016846,-0.0,-0.0,-1.0,0.07436159083138387,1.0
39.68678283691406,8.348764419555664,-1.503288745880127,-0.0,-0.0,-1.0,0.10813899830696998,2.0
39.64522171020508,9.833065032958984,-1.6580212116241455,-0.0,-0.0,-1.0,0.026488506754646708,2.0
39.52150344848633,9.085351943969727,-1.6193394660949707,-0.0,-0.0,-1.0,0.038062682907297404,1.0
39.78101348876953,9.521713256835938,-1.6359422206878662,0.5111618303247528,0.42740452110440436,-0.7456801985828532,0.038094833291568056,3.0
39.43950653076172,8.625199317932129,-1.1365940570831299,-0.0,-0.0,-1.0,0.13300249358230612,2.0
37.81278991699219,10.134922981262207,-1.5065648555755615,-0.0,-0.0,-1.0,0.04155793440135721,2.0
39.07487869262695,8.508343696594238,-1.3796555995941162,0.0790870148810621,-0.9452129754400573,-0.316729656232182,0.1420933352304866,4.0
39.44226837158203,8.220878601074219,-1.444472074508667,-0.5756096557293179,0.723391969580016,0.38128412316581184,0.16923547961814167,3.0
39.83719253540039,8.376185417175293,-1.4977772235870361,-0.0,-0.0,-1.0,0.056153926762836134,2.0
38.45808410644531,9.798364639282227,-1.6496829986572266,-0.0,-0.0,-1.0,0.030422277953081722,1.0
38.41499710083008,9.687538146972656,-1.642688512802124,-0.0,-0.0,-1.0,0.03036819338942404,1.0
38.59619903564453,9.9595947265625,-1.6741313934326172,-0.0,-0.0,-1.0,0.03147694185555703,1.0
39.33821105957031,8.414667129516602,-1.5325229167938232,-0.0,-0.0,-1.0,0.14540222528223382,1.0
39.505340576171875,8.81094741821289,-1.5631499290466309,-0.0,-0.0,-1.0,0.035590057062934465,1.0
39.44584655761719,8.609617233276367,-1.5520291328430176,-0.0,-0.0,-1.0,0.045576879374969605,2.0
39.55316925048828,9.37743854522705,-1.5737502574920654,-0.0,-0.0,-1.0,0.018435914060023487,1.0
39.6939697265625,9.138970375061035,-1.598388910293579,-0.0,-0.0,-1.0,0.024459386413397143,1.0
39.781463623046875,9.555285453796387,-1.6163909435272217,0.5111618303247528,0.42740452110440436,-0.7456801985828532,0.035170579527239024,3.0
40.199554443359375,10.406580924987793,-1.7002537250518799,-0.0,-0.0,-1.0,0.007169836763003631,1.0
39.631431579589844,8.254291534423828,-1.4965403079986572,-0.0,-0.0,-1.0,0.14308477646919476,2.0
39.88389587402344,8.74687385559082,-1.5457541942596436,-0.0,-0.0,-1.0,0.026562923054641748,1.0
39.89079284667969,8.517404556274414,-1.54538893699646,-0.7826331563837173,-0.3860968817887492,-0.4882771143539947,0.014795138271055634,3.0
40.02855682373047,8.951818466186523,-1.5740759372711182,-0.0,-0.0,-1.0,0.02354595296462487,2.0
38.77998352050781,8.295609474182129,-1.5438776016235352,-0.0,-0.0,-1.0,0.08577808015207135,1.0
38.86107635498047,8.337994575500488,-1.5613651275634766,-0.0,-0.0,-1.0,0.10693924745550172,1.0
39.09368896484375,9.654623985290527,-1.6284170150756836,-0.0,-0.0,-1.0,0.02127957295706376,2.0
39.096282958984375,9.576591491699219,-1.6275966167449951,-0.0,-0.0,-1.0,0.01357886369660497,1.0
39.13819122314453,9.967885971069336,-1.644047737121582,-0.0,-0.0,-1.0,0.033044090550962954,2.0
39.18904113769531,9.768033027648926,-1.65108060836792,-0.0,-0.0,-1.0,0.025753815059792788,1.0
39.383792877197266,10.612634658813477,-1.7119708061218262,-0.0,-0.0,-1.0,0.014389302801458783,1.0
37.89824676513672,8.554648399353027,-1.4172444343566895,-0.5244600575124247,-0.8252496466918549,-0.2095344093676084,0.07869213870315442,3.0
38.07680892944336,8.619587898254395,-1.4561724662780762,-0.0,-0.0,-1.0,0.06771576931450542,1.0
37.79704666137695,9.036685943603516,-1.3936762809753418,-0.6883317779547682,0.49499427999156415,-0.5302641098860654,0.06820929504175424,3.0
38.6787109375,9.878738403320312,-1.5942339897155762,-0.0,-0.0,-1.0,0.019933514858145807,1.0
38.723087310791016,9.753623008728027,-1.6030564308166504,-0.0,-0.0,-1.0,0.023264542226773155,1.0
38.747589111328125,10.089255332946777,-1.6121509075164795,-0.0,-0.0,-1.0,0.024573356179554556,1.0
38.727718353271484,10.350654602050781,-1.6110198497772217,-0.0,-0.0,-1.0,0.016688639420990987,1.0
39.506004333496094,8.193411827087402,-1.321371078491211,-0.0,-0.0,-1.0,0.1767473897598252,2.0
39.52606201171875,8.382909774780273,-1.34222412109375,0.0480425385082184,0.7031925170392033,-0.7093745121399248,0.21189270663434884,3.0
37.80058288574219,10.10361099243164,-1.5376732349395752,-0.08760394348764357,0.4182303210819644,-0.9041067125141203,0.04385346765203837,4.0
37.850929260253906,10.227437019348145,-1.5459060668945312,-0.0,-0.0,-1.0,0.05249165345621127,2.0
39.33130645751953,8.409055709838867,-1.3009364604949951,-0.0,-0.0,-1.0,0.09383738644194706,1.0
38.93975830078125,8.537799835205078,-1.2157437801361084,-0.0,-0.0,-1.0,0.11494748273660953,2.0
37.79364013671875,8.56099796295166,-1.4345645904541016,-0.0,-0.0,-1.0,0.058218632507329414,1.0
37.9719352722168,8.615589141845703,-1.4746520519256592,-0.8983006346555402,-0.4390319379034332,0.017519340119123858,0.08566209169463333,3.0
37.82749938964844,9.053422927856445,-1.4175829887390137,-0.6883317779547682,0.49499427999156415,-0.5302641098860654,0.07106795369234277,3.0
38.678924560546875,9.621139526367188,-1.6036155223846436,-0.0,-0.0,-1.0,0.016174579441205095,1.0
38.72214126586914,9.664079666137695,-1.612849235534668,-0.0,-0.0,-1.0,0.021984066077896155,1.0
38.40711212158203,9.695722579956055,-1.5330045223236084,-0.0,-0.0,-1.0,0.031852788344095086,2.0
38.771766662597656,9.73593807220459,-1.6227214336395264,-0.0,-0.0,-1.0,0.02338486368640562,2.0
38.87871551513672,10.097408294677734,-1.6378400325775146,-0.0,-0.0,-1.0,0.03173514285614499,1.0
39.174072265625,10.59355354309082,-1.699843406677246,-0.0,-0.0,-1.0,0.009282106396364963,1.0
39.5056266784668,8.388704299926758,-1.208465814590454,-0.0,-0.0,-1.0,0.13815388039942558,2.0
39.326416015625,8.550321578979492,-1.1656811237335205,-0.0,-0.0,-1.0,0.11307354669657917,1.0
39.663246154785156,8.582143783569336,-1.2365953922271729,-0.0,-0.0,-1.0,0.1774945722330477,2.0
39.58184814453125,8.2628812789917,-1.5131773948669434,-0.0,-0.0,-1.0,0.16212152841684663,2.0
39.794288635253906,8.374476432800293,-1.5582327842712402,-0.0,-0.0,-1.0,0.05211692189686637,1.0
39.890174865722656,8.553522109985352,-1.5729577541351318,-0.7826331563837173,-0.3860968817887492,-0.4882771143539947,0.013329858489927342,3.0
40.08831024169922,8.91708755493164,-1.6053411960601807,-0.9699789607205069,-0.24272710330120573,-0.014978954655486007,0.014499165756204753,3.0
40.17970657348633,9.163334846496582,-1.6179802417755127,-0.0,-0.0,-1.0,0.015336305050488159,2.0
37.766845703125,10.078178405761719,-1.5302846431732178,0.135702670165551,-0.4381650666007756,-0.888592234785268,0.044967704785361794,3.0
38.090538024902344,10.392354965209961,-1.6036417484283447,-0.0,-0.0,-1.0,0.03897621746347649,1.0
39.38222122192383,8.169119834899902,-1.3038055896759033,-0.5498130510521657,0.827424572940946,-0.11434240239824352,0.1791409105521062,3.0
38.25315856933594,8.6507568359375,-1.5509932041168213,-0.0,-0.0,-1.0,0.015424184198545843,1.0
39.53898620605469,8.396130561828613,-1.3282432556152344,0.0480425385082184,0.7031925170392033,-0.7093745121399248,0.23323428861982837,3.0
38.32814025878906,8.82890510559082,-1.5568952560424805,-0.0,-0.0,-1.0,0.008515986484795084,1.0
38.4951057434082,8.984272003173828,-1.5903558731079102,-0.0,-0.0,-1.0,0.0068525626512088555,2.0
38.71596145629883,9.45691967010498,-1.6176631450653076,-0.0,-0.0,-1.0,0.0069600072896885854,2.0
38.90662384033203,9.74911880493164,-1.6522715091705322,-0.0,-0.0,-1.0,0.016437370553761904,1.0
39.056148529052734,10.129366874694824,-1.6726276874542236,-0.18696269598886667,0.9440944405368256,-0.2715338609750772,0.03586520863946171,3.0
39.23570251464844,10.409703254699707,-1.7093422412872314,-0.0,-0.0,-1.0,0.007956504980285137,1.0
39.366920471191406,10.54214859008789,-1.7407796382904053,-0.0,-0.0,-1.0,0.016088834364736675,1.0
39.269317626953125,8.433817863464355,-1.2616078853607178,-0.0,-0.0,-1.0,0.10280478630974885,1.0
39.261451721191406,8.180774688720703,-1.514833688735962,-0.0,-0.0,-1.0,0.16865943726869667,2.0
39.4620361328125,8.409997940063477,-1.550443172454834,-0.0,-0.0,-1.0,0.10035483393096789,1.0
39.618377685546875,8.594225883483887,-1.5789794921875,-0.9962711240340713,0.056748538710486233,-0.06498808175437297,0.08156378438095939,4.0
39.781131744384766,8.884780883789062,-1.603226661682129,-0.46718060187735516,-0.04480215438606972,-0.8830260767337957,0.04533849001026746,3.0
39.937870025634766,9.120920181274414,-1.630951166152954,-0.0,-0.0,-1.0,0.02648150789100552,1.0
40.04130935668945,9.328680992126465,-1.6471474170684814,-0.0,-0.0,-1.0,0.033686389195643124,1.0
39.22577667236328,8.204028129577637,-1.5531729459762573,-0.0,-0.0,-1.0,0.21799692585455752,1.0
39.11669921875,8.420702934265137,-1.5050173997879028,-0.9624622041555789,-0.249916464483009,0.10586910008259215,0.23109729749953675,5.0
39.43572235107422,8.456930160522461,-1.5754903554916382,-0.0,-0.0,-1.0,0.10698644644143178,1.0
39.61506652832031,8.633255004882812,-1.6001828908920288,-0.9836936831731892,0.013958953569474823,0.17930946796087055,0.05487754099764139,3.0
39.812469482421875,8.911964416503906,-1.6211856603622437,-0.6332981516469737,0.24511308600438758,-0.7340660911593262,0.02722498115024112,3.0
40.14427185058594,9.292510032653809,-1.6689687967300415,-0.0,-0.0,-1.0,0.03231696064019574,2.0
39.23582077026367,8.161226272583008,-1.4759597778320312,-0.0,-0.0,-1.0,0.16424510369198483,1.0
39.46525955200195,8.222466468811035,-1.5192995071411133,-0.0,-0.0,-1.0,0.14513640386583293,2.0
39.3246955871582,8.485176086425781,-1.4631671905517578,-0.0,-0.0,-1.0,0.24523521716385893,1.0
39.907718658447266,8.535348892211914,-1.586707592010498,-0.7826331563837173,-0.3860968817887492,-0.4882771143539947,0.01519729219500729,3.0
38.177154541015625,9.11117935180664,-1.5610718727111816,-0.0,-0.0,-1.0,0.006701516405122537,1.0
40.02939987182617,8.828940391540527,-1.5879075527191162,-0.0,-0.0,-1.0,0.01132906701794144,1.0
38.45399856567383,9.331218719482422,-1.6020591259002686,-0.0,-0.0,-1.0,0.005102879858797905,1.0
38.634708404541016,9.554227828979492,-1.6214611530303955,-0.0,-0.0,-1.0,0.015474082084759038,1.0
38.20987319946289,9.659759521484375,-1.5030620098114014,-0.0,-0.0,-1.0,0.042148633733294055,1.0
38.82857894897461,9.768074989318848,-1.6472055912017822,-0.0,-0.0,-1.0,0.02250534750984247,1.0
38.93074035644531,9.956300735473633,-1.6536791324615479,-0.0,-0.0,-1.0,0.03622907998266784,1.0
39.072792053222656,10.132526397705078,-1.6731021404266357,-0.18696269598886667,0.9440944405368256,-0.2715338609750772,0.01604054647405361,3.0
39.55695724487305,10.632145881652832,-1.7565333843231201,-0.0,-0.0,-1.0,0.011835122318546028,1.0
38.990631103515625,8.436264038085938,-1.395989179611206,-0.0,-0.0,-1.0,0.20430925330760874,2.0
38.09310531616211,9.804533004760742,-1.4572300910949707,-0.0,-0.0,-1.0,0.09359066336886003,1.0
39.333351135253906,8.314329147338867,-1.5684585571289062,-0.0,-0.0,-1.0,0.08429530861970214,1.0
39.21125793457031,8.380294799804688,-1.5317184925079346,-0.0,-0.0,-1.0,0.166659347598991,2.0
39.49715805053711,8.51703929901123,-1.584413766860962,0.3467258541230366,0.32863846140933395,-0.8785089320918464,0.0888684660995734,3.0
39.64258575439453,8.757832527160645,-1.5928521156311035,-0.8709498838263642,0.4214185010608773,-0.25269101057704085,0.0395830485312586,4.0
39.8201789855957,8.943561553955078,-1.617286205291748,0.1302437975335658,0.09007576082622001,-0.9873818463571289,0.027086049213294182,3.0
40.02255630493164,9.161243438720703,-1.6460776329040527,-0.0,-0.0,-1.0,0.01533451518415551,1.0
40.20499801635742,9.36971664428711,-1.672957420349121,-0.0,-0.0,-1.0,0.023823146081863894,1.0
39.402801513671875,8.562305450439453,-1.1379406452178955,-0.17713516420829525,0.8087299715281733,-0.5608733963676124,0.13677988378448797,3.0
39.45568084716797,8.235029220581055,-1.3166141510009766,-0.0,-0.0,-1.0,0.22277801965803318,1.0
39.65533447265625,8.235551834106445,-1.3599791526794434,-0.0,-0.0,-1.0,0.08725798447055856,1.0
39.48347473144531,8.496011734008789,-1.2888336181640625,-0.0,-0.0,-1.0,0.17669404951597226,1.0
39.62372589111328,8.604110717773438,-1.3061411380767822,-0.0,-0.0,-1.0,0.16918469497330885,1.0
39.38175582885742,8.574446678161621,-1.1137874126434326,-0.17713516420829525,0.8087299715281733,-0.5608733963676124,0.13837265752881686,3.0
38.56654357910156,8.427021026611328,-1.5466374158859253,-0.0,-0.0,-1.0,0.011306308861682884,1.0
38.92060089111328,8.275856018066406,-1.5105029344558716,-0.8214921414059486,0.3818083430320587,-0.42352455749269474,0.14244770670226817,3.0
39.352413177490234,8.178144454956055,-1.4549757242202759,-0.0,-0.0,-1.0,0.10281127493361042,1.0
38.24619674682617,8.874948501586914,-1.5336028337478638,-0.0,-0.0,-1.0,0.010960293505618692,2.0
38.4354362487793,8.633875846862793,-1.5367258787155151,-0.0,-0.0,-1.0,0.00781195438958522,1.0
38.932334899902344,8.509456634521484,-1.4693564176559448,-0.0,-0.0,-1.0,0.16620685188992693,1.0
38.01993179321289,9.309492111206055,-1.5112138986587524,-0.0,-0.0,-1.0,0.07333999886688576,1.0
38.091373443603516,9.162654876708984,-1.5191618204116821,-0.0,-0.0,-1.0,0.02456700067849212,2.0
39.263694763183594,8.149250984191895,-1.050986886024475,-0.0,-0.0,-1.0,0.21932021105459013,1.0
38.420005798339844,8.76569938659668,-1.5193655490875244,-0.0,-0.0,-1.0,0.008080067481895764,1.0
38.58587646484375,8.483527183532715,-1.5270094871520996,0.15342019297926815,-0.6093949587948544,-0.7778817574552201,0.010661118593235893,4.0
38.92441177368164,8.305561065673828,-1.4911155700683594,-0.8214921414059486,0.3818083430320587,-0.42352455749269474,0.1698344057243961,3.0
38.141326904296875,9.198654174804688,-1.5169308185577393,-0.0,-0.0,-1.0,0.01777080754753232,1.0
38.29508972167969,8.947959899902344,-1.5190284252166748,-0.0,-0.0,-1.0,0.008001207475926945,1.0
37.95199966430664,9.703134536743164,-1.4942784309387207,-0.0,-0.0,-1.0,0.08481790091990254,1.0
38.042057037353516,9.46307373046875,-1.504213571548462,-0.0,-0.0,-1.0,0.07156399357811948,2.0
37.84964370727539,9.95921516418457,-1.486346960067749,-0.0,-0.0,-1.0,0.08538973641090646,2.0
38.94306945800781,8.587390899658203,-1.4476041793823242,-0.0,-0.0,-1.0,0.15567322202002953,1.0
39.19264221191406,8.282703399658203,-1.447077989578247,-0.0,-0.0,-1.0,0.20122262938140167,2.0
39.08831024169922,8.172484397888184,-1.0380799770355225,-0.0,-0.0,-1.0,0.1919326540310767,1.0
38.46995544433594,8.314058303833008,-1.515169620513916,-0.0,-0.0,-1.0,0.010673944035754944,1.0
38.66371536254883,8.148201942443848,-1.5047764778137207,-0.0,-0.0,-1.0,0.04546839643670806,2.0
38.02684783935547,9.143054962158203,-1.4894790649414062,-0.0,-0.0,-1.0,0.03555766106533243,2.0
38.17244338989258,8.840269088745117,-1.4998106956481934,-0.0,-0.0,-1.0,0.013458728549627524,1.0
38.36753463745117,8.514017105102539,-1.506545066833496,-0.0,-0.0,-1.0,0.006737625179699241,1.0
38.992576599121094,8.475057601928711,-1.403785228729248,-0.710478930274977,-0.43028699581835966,-0.5568418005726007,0.16234268094264734,5.0
39.16471862792969,8.241250991821289,-1.407607078552246,0.8139383961535758,0.2319605306656058,-0.5326336447130197,0.22832804528354897,3.0
37.7661247253418,9.660606384277344,-1.4799342155456543,-0.0,-0.0,-1.0,0.12886850642672798,1.0
37.92515563964844,9.341682434082031,-1.485260009765625,-0.0,-0.0,-1.0,0.11918995027645653,1.0
39.476707458496094,8.295284271240234,-1.347825050354004,-0.0,-0.0,-1.0,0.2537013012234393,1.0
39.69345474243164,8.602869987487793,-1.2677693367004395,-0.0,-0.0,-1.0,0.1643078519808585,2.0
38.68596267700195,9.033031463623047,-1.5779834985733032,-0.0,-0.0,-1.0,0.010422674049026399,1.0
38.79093933105469,8.741044998168945,-1.5782660245895386,-0.0,-0.0,-1.0,0.025487235995002615,1.0
39.05671691894531,8.413145065307617,-1.5499235391616821,0.3873318532913365,-0.26064405388557477,-0.8843295271560213,0.2172737472315883,4.0
39.340782165527344,8.154458999633789,-1.5149022340774536,-0.0,-0.0,-1.0,0.09782857648304019,1.0
38.330936431884766,9.869850158691406,-1.6008435487747192,-0.0,-0.0,-1.0,0.056684530679768946,1.0
38.46363830566406,9.5421781539917,-1.591260313987732,-0.0,-0.0,-1.0,0.021782161390128865,1.0
38.60487365722656,9.214488983154297,-1.5824085474014282,-0.0,-0.0,-1.0,0.01060303614233603,2.0
38.20661544799805,10.380877494812012,-1.6023627519607544,-0.0,-0.0,-1.0,0.03924425834002126,2.0
38.30950164794922,10.03727912902832,-1.5962797403335571,-0.0,-0.0,-1.0,0.0364282371693276,1.0
37.76282501220703,9.516203880310059,-1.2567516565322876,-0.0,-0.0,-1.0,0.1145673796261433,1.0
37.7129020690918,8.438034057617188,-1.3680115938186646,-0.41940292687937025,0.8887969514724674,-0.18477327722986897,0.11990599880090469,3.0
38.527503967285156,9.768291473388672,-1.6167763471603394,-0.0,-0.0,-1.0,0.026678703896764903,2.0
38.708587646484375,9.471437454223633,-1.5949186086654663,-0.0,-0.0,-1.0,0.006864078969377085,2.0
38.86247253417969,9.105683326721191,-1.5862373113632202,-0.0,-0.0,-1.0,0.00890681043290543,1.0
38.99812316894531,8.708251953125,-1.587274193763733,-0.0,-0.0,-1.0,0.07081128349500448,1.0
39.201080322265625,8.383520126342773,-1.5714365243911743,-0.0,-0.0,-1.0,0.11778468947129844,2.0
39.453575134277344,8.272656440734863,-1.5285717248916626,0.29647359374513416,0.6657534628925426,0.6847450144823494,0.14555238655242606,3.0
38.40898132324219,10.234564781188965,-1.6188076734542847,-0.0,-0.0,-1.0,0.024570525821734572,2.0
38.49375915527344,9.94318962097168,-1.6145087480545044,-0.0,-0.0,-1.0,0.03497698209179424,1.0
39.66320037841797,8.16150188446045,-1.495705485343933,-0.0,-0.0,-1.0,0.11787746739134085,1.0
38.01312255859375,8.1507568359375,-1.4735890626907349,-0.0,-0.0,-1.0,0.04251684596143506,2.0
39.05173110961914,9.724810600280762,-1.6343251466751099,-0.0,-0.0,-1.0,0.025352006829824764,2.0
38.77471160888672,10.602888107299805,-1.6506620645523071,-0.0,-0.0,-1.0,0.012439154054743053,1.0
38.925472259521484,10.22121810913086,-1.634334921836853,-0.3730182598832672,0.7637169255446711,-0.5268717447636139,0.02623667266974697,3.0
39.039546966552734,9.845114707946777,-1.6297191381454468,-0.0,-0.0,-1.0,0.021402344094900088,1.0
39.20828628540039,9.462417602539062,-1.616416573524475,-0.0,-0.0,-1.0,0.034402519336540795,2.0
39.372047424316406,9.112122535705566,-1.6054610013961792,-0.0,-0.0,-1.0,0.03285084292596411,1.0
39.613555908203125,8.752839088439941,-1.5813299417495728,-0.24047757240709625,0.9524873339204043,-0.18691820641764614,0.040463201100555964,4.0
39.82769012451172,8.477899551391602,-1.5591028928756714,-0.0,-0.0,-1.0,0.03975395317210521,2.0
40.000648498535156,8.325460433959961,-1.5361143350601196,-0.0,-0.0,-1.0,0.012186493079063207,1.0
37.876380920410156,8.962961196899414,-1.446470856666565,-0.0,-0.0,-1.0,0.03536061501180779,1.0
37.9688835144043,8.622823715209961,-1.4498330354690552,-0.0,-0.0,-1.0,0.08566209169463336,2.0
38.05873107910156,8.394193649291992,-1.44792640209198,-0.0,-0.0,-1.0,0.048474521715008594,2.0
38.93086242675781,8.474252700805664,-1.278685212135315,-0.0,-0.0,-1.0,0.12451716115701085,1.0
39.30672836303711,10.490652084350586,-1.7025572061538696,-0.0,-0.0,-1.0,0.013144497915359824,1.0
39.41720199584961,10.25821304321289,-1.6905304193496704,-0.0,-0.0,-1.0,0.023399574612465827,2.0
37.9229736328125,10.290083885192871,-1.5584641695022583,-0.0,-0.0,-1.0,0.046019617313837094,1.0
38.05097579956055,10.055034637451172,-1.5445295572280884,-0.0,-0.0,-1.0,0.0780008111060246,1.0
38.12418746948242,9.881304740905762,-1.5394881963729858,-0.0,-0.0,-1.0,0.08066673676255938,1.0
38.20858383178711,9.567890167236328,-1.5417717695236206,-0.0,-0.0,-1.0,0.03441601837945391,1.0
38.31863784790039,9.165329933166504,-1.5469330549240112,-0.0,-0.0,-1.0,0.006129512119229421,2.0
38.474456787109375,8.779494285583496,-1.5445505380630493,-0.0,-0.0,-1.0,0.006775070957873176,1.0
38.60417556762695,8.506200790405273,-1.5406986474990845,0.3287153528031637,-0.7980772042685906,-0.504994052299947,0.021833100522296228,4.0
38.77021789550781,8.348015785217285,-1.5211950540542603,-0.0,-0.0,-1.0,0.07045770758036621,1.0
38.90204620361328,8.179075241088867,-1.51007878780365,-0.0,-0.0,-1.0,0.12886023670589328,1.0
39.22321701049805,8.470653533935547,-1.420371651649475,-0.0,-0.0,-1.0,0.23193455170716712,1.0
39.42643737792969,10.324542045593262,-1.6838520765304565,-0.0,-0.0,-1.0,0.021824831623058007,1.0
39.58249282836914,10.063931465148926,-1.6640983819961548,-0.0,-0.0,-1.0,0.020862127010003503,1.0
39.65686798095703,9.800092697143555,-1.6659258604049683,-0.0,-0.0,-1.0,0.02485031397353736,2.0
39.60995864868164,8.460260391235352,-1.3448337316513062,-0.0,-0.0,-1.0,0.18012288971645804,2.0
39.7861213684082,9.643596649169922,-1.6475106477737427,-0.0,-0.0,-1.0,0.02574411571314755,1.0
39.959632873535156,9.327052116394043,-1.633599877357483,-0.0,-0.0,-1.0,0.03090702038891148,1.0
40.14518356323242,9.06458854675293,-1.61420738697052,-0.0,-0.0,-1.0,0.014754305954814003,1.0
38.360355377197266,10.255002975463867,-1.6131870746612549,-0.0,-0.0,-1.0,0.015394311438815079,1.0
38.441795349121094,10.043418884277344,-1.6004455089569092,-0.0,-0.0,-1.0,0.033481064713873875,1.0
38.4864387512207,9.801407814025879,-1.5981731414794922,-0.0,-0.0,-1.0,0.025692125677007002,1.0
38.58443069458008,9.41592788696289,-1.5905022621154785,-0.0,-0.0,-1.0,0.00868590149816562,1.0
38.67174530029297,9.18069076538086,-1.5810027122497559,-0.0,-0.0,-1.0,0.009027950138538875,1.0
38.75774002075195,8.936792373657227,-1.5736002922058105,-0.0,-0.0,-1.0,0.008097046610652582,1.0
38.82073211669922,8.596001625061035,-1.5775017738342285,-0.0,-0.0,-1.0,0.08871266516352531,1.0
39.72996139526367,10.48977279663086,-1.7243986129760742,-0.0,-0.0,-1.0,0.011783011481677411,1.0
39.069183349609375,8.37450122833252,-1.5359773635864258,-0.0,-0.0,-1.0,0.18228661878919014,2.0
39.82044982910156,10.349945068359375,-1.7054662704467773,-0.0,-0.0,-1.0,0.012503794016095362,2.0
39.956199645996094,9.988960266113281,-1.6843509674072266,-0.0,-0.0,-1.0,0.023700126588211867,1.0
39.39555358886719,8.260807991027832,-1.4721465110778809,-0.9406271234568908,0.1380895296824373,-0.31008369258846574,0.20095510349268944,3.0
40.02543640136719,9.762331008911133,-1.6768412590026855,-0.0,-0.0,-1.0,0.017364657121697734,1.0
40.148067474365234,9.487165451049805,-1.659973382949829,-0.0,-0.0,-1.0,0.017524155655613577,2.0
38.2115592956543,10.549447059631348,-1.6093759536743164,-0.0,-0.0,-1.0,0.020552041892730057,1.0
38.27457046508789,10.266698837280273,-1.599527359008789,-0.0,-0.0,-1.0,0.033361573623749474,1.0
38.377620697021484,10.010652542114258,-1.581512689590454,-0.0,-0.0,-1.0,0.033573731157351586,1.0
38.41845703125,9.702445983886719,-1.5804023742675781,-0.0,-0.0,-1.0,0.03185278834409507,2.0
38.47954177856445,9.439295768737793,-1.5748724937438965,-0.0,-0.0,-1.0,0.008132014311285213,1.0
38.554588317871094,9.138975143432617,-1.569092035293579,-0.0,-0.0,-1.0,0.006990304066862218,1.0
39.58346176147461,10.519413948059082,-1.722400426864624,-0.0,-0.0,-1.0,0.01220796912160207,1.0
38.67515563964844,8.915674209594727,-1.5512628555297852,-0.0,-0.0,-1.0,0.008613281926080305,1.0
38.707984924316406,8.648050308227539,-1.5564329624176025,-0.0,-0.0,-1.0,0.041930283114562865,1.0
39.74494552612305,10.261675834655762,-1.6863746643066406,-0.0,-0.0,-1.0,0.016114800763302357,1.0
39.807151794433594,9.98098087310791,-1.6792960166931152,-0.0,-0.0,-1.0,0.02486530694506227,1.0
39.12029266357422,8.452160835266113,-1.4750428199768066,-0.6350406646190973,-0.5827522158832368,0.507073179297932,0.2586793132382076,5.0
38.92942428588867,8.276920318603516,-1.5266578197479248,-0.8214921414059486,0.3818083430320587,-0.42352455749269474,0.10955168836818129,3.0
39.914485931396484,9.707955360412598,-1.6618549823760986,-0.0,-0.0,-1.0,0.01760364087229561,1.0
40.015777587890625,9.431070327758789,-1.648369312286377,-0.0,-0.0,-1.0,0.019641385004714525,1.0
39.441993713378906,8.206905364990234,-1.4183759689331055,-0.0,-0.0,-1.0,0.2125813212145514,2.0
40.161277770996094,9.143953323364258,-1.6258680820465088,-0.0,-0.0,-1.0,0.015336305050488162,2.0
37.9826545715332,9.62667465209961,-1.1982629299163818,-0.0,-0.0,-1.0,0.13379316892403087,1.0
37.85429382324219,9.648567199707031,-1.22232985496521,-0.0,-0.0,-1.0,0.1467478227739702,1.0
39.64787673950195,8.470916748046875,-1.3578481674194336,-0.0,-0.0,-1.0,0.1394830892964256,2.0
37.829322814941406,10.469751358032227,-1.545989990234375,-0.0,-0.0,-1.0,0.051525785281398055,1.0
37.93056869506836,10.23049545288086,-1.5298686027526855,-0.0,-0.0,-1.0,0.04771070382191249,1.0
38.060302734375,9.931559562683105,-1.5103495121002197,-0.0,-0.0,-1.0,0.09510958379432179,1.0
38.107215881347656,9.689393997192383,-1.5086731910705566,-0.0,-0.0,-1.0,0.07379223023950002,1.0
39.15634536743164,10.408341407775879,-1.688992977142334,-0.0,-0.0,-1.0,0.007920931856879428,1.0
38.1622314453125,9.405458450317383,-1.5080885887145996,-0.0,-0.0,-1.0,0.0173365921318537,1.0
38.210693359375,9.0943021774292,-1.5117154121398926,-0.0,-0.0,-1.0,0.007018490779847116,1.0
39.29330825805664,10.101274490356445,-1.6649553775787354,0.10806632890499186,0.5487577658291256,-0.8289671784812863,0.028179371644799073,4.0
38.28697967529297,8.811258316040039,-1.5095746517181396,-0.0,-0.0,-1.0,0.00980921177814604,1.0
38.33460998535156,8.56859016418457,-1.5127768516540527,-0.0,-0.0,-1.0,0.014364405986519922,1.0
39.43336486816406,9.878945350646973,-1.638399600982666,-0.0,-0.0,-1.0,0.061354256763694895,2.0
39.48646545410156,9.625173568725586,-1.637249231338501,-0.0,-0.0,-1.0,0.045968892436020786,1.0
38.425506591796875,8.350950241088867,-1.5063138008117676,-0.0,-0.0,-1.0,0.009520294889985629,1.0
39.71498489379883,9.255631446838379,-1.599914312362671,-0.0,-0.0,-1.0,0.026061739356229147,2.0
39.76252746582031,9.054301261901855,-1.6004564762115479,-0.5946889096401822,-0.09756760625610124,-0.7980135731680418,0.024898578287215343,4.0
39.89621353149414,8.822244644165039,-1.5829761028289795,-0.0,-0.0,-1.0,0.025619772113816403,1.0
39.27190017700195,8.165712356567383,-1.338559627532959,-0.0,-0.0,-1.0,0.16067311901601303,1.0
40.09148406982422,8.47074031829834,-1.560983419418335,-0.0,-0.0,-1.0,0.013506348895731905,1.0
40.184749603271484,8.272171020507812,-1.554283618927002,-0.0,-0.0,-1.0,0.012852050289531358,1.0
37.80488586425781,9.640586853027344,-1.0959932804107666,-0.0,-0.0,-1.0,0.13155272465661214,1.0
39.34783172607422,8.539190292358398,-1.297746181488037,-0.0,-0.0,-1.0,0.14304129637622578,1.0
39.712432861328125,8.478557586669922,-1.2241497039794922,-0.0,-0.0,-1.0,0.1628686588496183,1.0
37.75297546386719,10.359986305236816,-1.5271552801132202,-0.0,-0.0,-1.0,0.05003537636062815,2.0
37.86993408203125,9.972768783569336,-1.5137962102890015,-0.0,-0.0,-1.0,0.08798602384371815,2.0
38.93776321411133,10.510000228881836,-1.6820799112319946,-0.0,-0.0,-1.0,0.01982350817976049,1.0
38.993988037109375,10.33339786529541,-1.6735533475875854,-0.0,-0.0,-1.0,0.0206427721649209,1.0
38.00493621826172,9.791305541992188,-1.4905587434768677,-0.0,-0.0,-1.0,0.10872534744074253,1.0
37.981292724609375,9.5474853515625,-1.5063914060592651,-0.0,-0.0,-1.0,0.08963070638743488,2.0
39.118309020996094,9.980314254760742,-1.6556891202926636,-0.0,-0.0,-1.0,0.029477938973514858,2.0
38.07603454589844,9.163717269897461,-1.503902554512024,-0.09530692278064451,0.9818185512235656,-0.16416127114317458,0.030951748119594297,3.0
38.08354949951172,8.919885635375977,-1.5153764486312866,-0.0,-0.0,-1.0,0.01065806014667351,1.0
39.30990982055664,9.560659408569336,-1.627020239830017,-0.0,-0.0,-1.0,0.0717168193416402,2.0
38.20688247680664,8.655643463134766,-1.5039485692977905,-0.0,-0.0,-1.0,0.016785012455433162,1.0
39.43839645385742,9.23254680633545,-1.6133581399917603,-0.0,-0.0,-1.0,0.03561241538334649,1.0
39.43478012084961,9.133951187133789,-1.6207767724990845,-0.7137773089197754,0.33678149476228364,0.6140848296912453,0.0330680725439208,3.0
38.3231315612793,8.289382934570312,-1.5022915601730347,-0.0,-0.0,-1.0,0.010591357990340274,1.0
39.641456604003906,8.801207542419434,-1.5912855863571167,-0.31420171763988886,0.026094548421495688,-0.9489975527759918,0.03702012592308108,3.0
39.83686828613281,8.489688873291016,-1.5663238763809204,-0.0,-0.0,-1.0,0.03971428228923397,2.0
40.06101989746094,8.140593528747559,-1.5406752824783325,-0.0,-0.0,-1.0,0.012086904876739813,1.0
37.74726104736328,9.579978942871094,-1.0908347368240356,-0.0,-0.0,-1.0,0.12566412988923437,2.0
39.16984558105469,8.488306045532227,-1.3043195009231567,-0.736056932822411,-0.36478408685950936,-0.5702216776115575,0.2162585925174606,3.0
39.65408706665039,8.436936378479004,-1.2028366327285767,-0.0,-0.0,-1.0,0.15352490623726683,1.0
37.75177764892578,10.416698455810547,-1.5357147455215454,-0.0,-0.0,-1.0,0.05126250871532126,2.0
38.86359405517578,10.603659629821777,-1.6851061582565308,-0.0,-0.0,-1.0,0.018814404338311306,1.0
38.90165328979492,10.413834571838379,-1.676383137702942,-0.0,-0.0,-1.0,0.020956987162162235,1.0
37.805564880371094,10.081818580627441,-1.526166558265686,0.135702670165551,-0.4381650666007756,-0.888592234785268,0.04502960172931144,3.0
39.06247329711914,10.14099407196045,-1.6365560293197632,-0.18696269598886667,0.9440944405368256,-0.2715338609750772,0.016040546474053525,3.0
39.00974655151367,10.082624435424805,-1.6521433591842651,-0.0,-0.0,-1.0,0.04096979748282757,1.0
37.89008712768555,9.5776948928833,-1.5152891874313354,-0.0,-0.0,-1.0,0.09452854539163069,1.0
39.06841278076172,9.679181098937988,-1.6458736658096313,0.7526070884609453,0.406292761223671,-0.5181783115642569,0.01651970230510981,3.0
37.96244812011719,9.22576904296875,-1.5074902772903442,-0.0,-0.0,-1.0,0.039584682900310135,1.0
39.19097137451172,9.294496536254883,-1.6258257627487183,-0.0,-0.0,-1.0,0.029133210156349714,1.0
38.031917572021484,8.830023765563965,-1.5043889284133911,-0.0,-0.0,-1.0,0.011389168182610208,1.0
39.279056549072266,8.904097557067871,-1.6192299127578735,-0.0,-0.0,-1.0,0.029086710807894108,1.0
38.1185302734375,8.392816543579102,-1.502088189125061,-0.0,-0.0,-1.0,0.058585680038758435,2.0
38.14961624145508,8.183791160583496,-1.5047394037246704,-0.0,-0.0,-1.0,0.02814925446528651,1.0
39.46074295043945,8.539712905883789,-1.5903040170669556,0.3467258541230366,0.32863846140933395,-0.8785089320918464,0.07416115623522723,3.0
39.78337478637695,8.241202354431152,-1.5241025686264038,-0.0,-0.0,-1.0,0.04997809830978866,2.0
37.925933837890625,9.902996063232422,-1.5005210638046265,-0.0,-0.0,-1.0,0.10922406234394398,1.0
37.96398162841797,9.822564125061035,-1.4929810762405396,-0.0,-0.0,-1.0,0.10320990855477646,1.0
38.03123474121094,9.161134719848633,-1.493338942527771,-0.21845777149612897,-0.15275966796857013,-0.9638156908429522,0.03555766106533243,3.0
38.07561111450195,8.766988754272461,-1.4965792894363403,-0.0,-0.0,-1.0,0.03142503685789342,2.0
38.12901306152344,8.526077270507812,-1.4938760995864868,-0.0,-0.0,-1.0,0.04759647384000815,2.0
39.33668899536133,8.573247909545898,-1.2153273820877075,-0.0,-0.0,-1.0,0.11307354669657911,1.0
38.87030792236328,8.494958877563477,-1.325501799583435,-0.0,-0.0,-1.0,0.13715772295333228,1.0
37.738616943359375,9.628006935119629,-1.1000624895095825,-0.0,-0.0,-1.0,0.12937848087114734,2.0
38.69127655029297,10.320321083068848,-1.6431686878204346,-0.0,-0.0,-1.0,0.01660858287052021,2.0
38.7264518737793,9.912327766418457,-1.6404569149017334,-0.0,-0.0,-1.0,0.03412804659668437,1.0
38.86003875732422,9.497759819030762,-1.6149084568023682,-0.0,-0.0,-1.0,0.012027712002644648,1.0
38.928436279296875,9.15534782409668,-1.6090142726898193,-0.0,-0.0,-1.0,0.008290797168184507,1.0
39.016876220703125,8.757425308227539,-1.6035127639770508,-0.0,-0.0,-1.0,0.048472769528151424,2.0
39.15936279296875,8.431663513183594,-1.583120346069336,-0.0,-0.0,-1.0,0.15061443411798447,1.0
37.983009338378906,9.910008430480957,-1.4224443435668945,-0.0,-0.0,-1.0,0.11148581708438897,1.0
37.727500915527344,9.34288215637207,-1.4961726665496826,-0.0,-0.0,-1.0,0.09703174922363314,1.0
37.8656120300293,9.017544746398926,-1.473085641860962,-0.0,-0.0,-1.0,0.03470017645437164,1.0
38.98274230957031,8.564505577087402,-1.2266714572906494,-0.0,-0.0,-1.0,0.11899005272069181,2.0
38.040958404541016,8.556244850158691,-1.4490740299224854,-0.0,-0.0,-1.0,0.09999173223588453,1.0
37.88330078125,8.728062629699707,-1.4792933464050293,-0.0,-0.0,-1.0,0.05512283679403673,2.0
39.43931579589844,8.268156051635742,-1.5180222988128662,-0.059698586916986804,0.79091837524184,0.6090026292430295,0.16919085870180928,5.0
37.930782318115234,8.180171012878418,-1.4925272464752197,-0.0,-0.0,-1.0,0.0689104066248767,1.0
37.74536895751953,10.569616317749023,-1.5958141088485718,-0.0,-0.0,-1.0,0.051525785281398125,1.0
37.84181213378906,10.255393981933594,-1.5723439455032349,-0.0,-0.0,-1.0,0.04932699254472394,2.0
37.959163665771484,9.850646018981934,-1.5475372076034546,-0.0,-0.0,-1.0,0.1178907937363881,1.0
38.012229919433594,9.423911094665527,-1.5445255041122437,-0.0,-0.0,-1.0,0.06524459507534369,1.0
37.983726501464844,9.626419067382812,-1.5460962057113647,-0.0,-0.0,-1.0,0.05019121121987879,1.0
38.06111526489258,9.031834602355957,-1.545819878578186,-0.0,-0.0,-1.0,0.0250073929738062,2.0
38.15034103393555,8.616742134094238,-1.5400482416152954,-0.0,-0.0,-1.0,0.03431482974403867,1.0
38.277400970458984,8.140524864196777,-1.5344654321670532,-0.0,-0.0,-1.0,0.01134760272221332,1.0
38.21851348876953,8.341450691223145,-1.5372213125228882,-0.0,-0.0,-1.0,0.01729469996487787,1.0
37.79541015625,9.236052513122559,-1.196337103843689,-0.0,-0.0,-1.0,0.07389682260531091,1.0
39.46312713623047,8.228019714355469,-1.2282084226608276,-0.0,-0.0,-1.0,0.140245912230269,2.0
37.73138427734375,10.093531608581543,-1.5673975944519043,-0.0,-0.0,-1.0,0.041296855442369,1.0
37.975929260253906,9.565428733825684,-1.5413775444030762,-0.0,-0.0,-1.0,0.035441952570401475,2.0
37.832401275634766,9.895148277282715,-1.5539538860321045,-0.0,-0.0,-1.0,0.07975248109042862,1.0
39.07680130004883,8.332965850830078,-1.375044345855713,-0.0,-0.0,-1.0,0.16771543167058686,1.0
38.2315673828125,8.747453689575195,-1.5508825778961182,-0.0,-0.0,-1.0,0.01584798826338603,1.0
38.106300354003906,9.064783096313477,-1.5521090030670166,-0.0,-0.0,-1.0,0.02050221940566413,1.0
38.847450256347656,8.225667953491211,-1.448601245880127,-0.0,-0.0,-1.0,0.13607522071233133,1.0
38.447967529296875,8.24923038482666,-1.550684928894043,-0.0,-0.0,-1.0,0.009536078229853055,1.0
38.300025939941406,8.53242301940918,-1.5565834045410156,-0.0,-0.0,-1.0,0.01534232422809125,2.0
39.59881591796875,8.356226921081543,-1.2357423305511475,-0.003696172662847948,0.01222620419204575,-0.9999184257921743,0.155394495375247,3.0
39.54175567626953,8.232549667358398,-1.2669003009796143,0.031208652603601846,0.8739202604326084,-0.48506638556806797,0.14471522340015328,3.0
37.786590576171875,9.4454984664917,-1.2257156372070312,-0.0,-0.0,-1.0,0.10737718675443746,1.0
38.14093780517578,10.069180488586426,-1.5750322341918945,-0.0,-0.0,-1.0,0.04086214070129672,1.0
38.039398193359375,10.360034942626953,-1.5924403667449951,-0.0,-0.0,-1.0,0.04256926439245826,1.0
39.33992004394531,8.347306251525879,-1.3584492206573486,-0.0,-0.0,-1.0,0.18019721092969707,2.0
38.280540466308594,9.461545944213867,-1.5689918994903564,-0.0,-0.0,-1.0,0.017425035709951634,1.0
38.184043884277344,9.837553977966309,-1.574429988861084,-0.0,-0.0,-1.0,0.06050534795545113,1.0
38.903194427490234,8.429073333740234,-1.473595142364502,-0.0,-0.0,-1.0,0.23303145917752213,1.0
38.568721771240234,8.637101173400879,-1.5494449138641357,-0.0,-0.0,-1.0,0.008426688841047159,1.0
38.410484313964844,9.027523040771484,-1.5623581409454346,-0.0,-0.0,-1.0,0.008293896536961052,1.0
39.598453521728516,8.652765274047852,-1.254507064819336,-0.0,-0.0,-1.0,0.14825771079183195,1.0
39.534324645996094,8.511557579040527,-1.2868218421936035,-0.0,-0.0,-1.0,0.1979309537274372,1.0
39.15340042114258,8.22243595123291,-1.079308032989502,-0.0,-0.0,-1.0,0.23633738025342524,1.0
37.929359436035156,8.613544464111328,-1.3524377346038818,-0.0,-0.0,-1.0,0.0776556550196021,1.0
37.918338775634766,8.508234024047852,-1.3629891872406006,-0.0,-0.0,-1.0,0.11258762050888486,2.0
37.77247619628906,9.802184104919434,-1.4800512790679932,-0.0,-0.0,-1.0,0.13001064414175853,1.0
37.89378356933594,9.24777603149414,-1.4989166259765625,-0.0,-0.0,-1.0,0.03597925984514941,1.0
37.77445983886719,9.53084659576416,-1.5048425197601318,-0.0,-0.0,-1.0,0.11483332558039165,1.0
38.0740966796875,8.738351821899414,-1.5050537586212158,-0.0,-0.0,-1.0,0.03693749125443978,2.0
37.94089126586914,9.025595664978027,-1.509556531906128,-0.0,-0.0,-1.0,0.04039938584455164,1.0
38.24988555908203,8.264378547668457,-1.5161685943603516,-0.0,-0.0,-1.0,0.011922711032193077,1.0
38.12400817871094,8.511808395385742,-1.5187971591949463,-0.0,-0.0,-1.0,0.04959335595813946,2.0
39.145606994628906,8.480559349060059,-1.2425403594970703,-0.0,-0.0,-1.0,0.09117403731096828,2.0
39.073333740234375,8.689645767211914,-1.6379117965698242,-0.0,-0.0,-1.0,0.06055347385642245,1.0
38.95299530029297,8.571794509887695,-1.625114917755127,-0.0,-0.0,-1.0,0.1380895321586345,1.0
38.98809051513672,8.644587516784668,-1.1923655271530151,-0.0,-0.0,-1.0,0.13398409178498422,2.0
38.99645233154297,8.148143768310547,-1.5048028230667114,-0.0,-0.0,-1.0,0.16542487977218137,1.0
39.450462341308594,8.827513694763184,-1.592816948890686,-0.5069165212183955,0.6552386080021548,0.5600874995027456,0.0339336708619478,3.0
39.61997985839844,10.32289981842041,-1.6675301790237427,-0.0,-0.0,-1.0,0.0106855192802138,1.0
39.768428802490234,10.560728073120117,-1.6989878416061401,-0.0,-0.0,-1.0,0.01068814399948617,2.0
37.7983512878418,8.431242942810059,-1.3294440507888794,-0.0,-0.0,-1.0,0.10084959475165971,1.0
39.41092300415039,8.275046348571777,-1.5124282836914062,-0.6690995330679853,0.2935566408474979,-0.6827373678527761,0.16908560917378088,5.0
39.621795654296875,8.63424015045166,-1.5633435249328613,-0.9962711240340713,0.056748538710486233,-0.06498808175437297,0.11164180299886373,4.0
39.775413513183594,9.030284881591797,-1.607987642288208,-0.5722114211955627,-0.050333626582253085,-0.8185600866695323,0.024765609847902374,3.0
39.713539123535156,9.333380699157715,-1.6140623092651367,-0.0,-0.0,-1.0,0.03530093936595221,1.0
39.843379974365234,9.266325950622559,-1.6312708854675293,-0.0,-0.0,-1.0,0.02411342499660414,1.0
39.852630615234375,10.452404022216797,-1.701019287109375,-0.0,-0.0,-1.0,0.011453561608129522,1.0
39.45337677001953,8.6240816116333,-1.144813060760498,-0.0,-0.0,-1.0,0.11689609351996141,2.0
39.16613006591797,8.50804615020752,-1.534706711769104,-0.30951100258619874,0.10638100436197911,-0.9449264633763957,0.21707259787426664,3.0
39.40922164916992,8.323465347290039,-1.5710283517837524,-0.0,-0.0,-1.0,0.12025307177419846,1.0
39.62604904174805,8.746813774108887,-1.627747893333435,-0.23845624916710284,0.9528103026124826,-0.1878593741836317,0.04026646233702137,3.0
39.64344024658203,9.113240242004395,-1.6475971937179565,-0.0,-0.0,-1.0,0.021662420871161242,1.0
39.62590789794922,9.498730659484863,-1.6633707284927368,-0.0,-0.0,-1.0,0.030300254948000316,1.0
39.65000915527344,10.416421890258789,-1.718579649925232,-0.0,-0.0,-1.0,0.011922590507060146,2.0
39.20365905761719,8.587945938110352,-1.425036072731018,-0.0,-0.0,-1.0,0.19253732774800722,1.0
39.6865348815918,8.252171516418457,-1.5020793676376343,-0.0,-0.0,-1.0,0.12429178480530795,1.0
39.988014221191406,8.459089279174805,-1.568337082862854,-0.0,-0.0,-1.0,0.016222147202719653,1.0
40.031524658203125,8.72154426574707,-1.588952898979187,-0.0,-0.0,-1.0,0.012189441947302466,1.0
40.09892654418945,9.091975212097168,-1.6206110715866089,-0.0,-0.0,-1.0,0.014754305954814008,1.0
40.1944694519043,9.490474700927734,-1.6610666513442993,-0.0,-0.0,-1.0,0.015871434747351455,2.0
40.16313171386719,9.85374927520752,-1.6770364046096802,-0.0,-0.0,-1.0,0.018120667896165933,2.0
38.97627258300781,8.484298706054688,-1.3771601915359497,-0.49918323432433337,-0.8664823878259084,-0.00493661392149076,0.139943264168457,3.0
37.73303985595703,8.584453582763672,-1.4376802444458008,-0.0,-0.0,-1.0,0.07787308047796868,1.0
37.91141891479492,8.61801528930664,-1.4811961650848389,-0.0,-0.0,-1.0,0.07632339979351355,2.0
39.41411590576172,8.416521072387695,-1.3306946754455566,-0.0,-0.0,-1.0,0.16644141441423393,1.0
39.55004119873047,8.367904663085938,-1.3554744720458984,0.0480425385082184,0.7031925170392033,-0.7093745121399248,0.24279984648757968,3.0
39.254547119140625,8.667956352233887,-1.3117783069610596,-0.0,-0.0,-1.0,0.1345976017658085,1.0
39.10896301269531,8.44941234588623,-1.5312607288360596,-0.9002377475771556,0.06949188828760107,-0.42981725802884313,0.24617471517711775,5.0
39.27448654174805,8.286556243896484,-1.569727897644043,-0.0,-0.0,-1.0,0.13783387898936977,2.0
39.40044021606445,8.716080665588379,-1.613483190536499,-0.0,-0.0,-1.0,0.0180412675639916,1.0
39.41639709472656,9.114899635314941,-1.6316957473754883,-0.7137773089197754,0.33678149476228364,0.6140848296912453,0.032233793246651245,3.0
