x,y,z,nx,ny,nz,curvature,density
32.75907516479492,-29.326454162597656,1.7584561109542847,-0.0,-0.0,-1.0,0.09184033656721305,2.0
32.57290267944336,-29.523006439208984,1.7677695751190186,0.8550196401264087,-0.518322251633923,0.016836224613810787,0.061262718737512496,3.0
31.99679946899414,-28.761077880859375,1.1577082872390747,-0.0,-0.0,-1.0,0.1174496379623168,1.0
32.28590393066406,-28.81868553161621,1.138923168182373,-0.0,-0.0,-1.0,0.09410559278200577,1.0
32.646881103515625,-28.9345645904541,1.1139826774597168,-0.0,-0.0,-1.0,0.23402548546449006,1.0
32.42627716064453,-29.063152313232422,1.7358059883117676,-0.0,-0.0,-1.0,0.15306395256241098,1.0
32.576560974121094,-29.010814666748047,1.730377435684204,-0.0,-0.0,-1.0,0.14464854146809375,1.0
32.329647064208984,-29.302749633789062,1.7383733987808228,-0.0,-0.0,-1.0,0.1082576878532567,1.0
31.742454528808594,-28.795042037963867,1.1640863418579102,-0.0,-0.0,-1.0,0.16603782460574856,1.0
31.89269256591797,-29.100624084472656,1.14536452293396,-0.0,-0.0,-1.0,0.2873022947860134,1.0
31.798049926757812,-29.474239349365234,1.1456196308135986,-0.0,-0.0,-1.0,0.21547469144362844,1.0
32.37562561035156,-29.143457412719727,1.1041799783706665,-0.0,-0.0,-1.0,0.15164493292491737,1.0
32.817054748535156,-28.556983947753906,1.078776240348816,-0.0,-0.0,-1.0,0.21845903626155463,1.0
32.87455368041992,-28.768321990966797,1.0697823762893677,-0.0,-0.0,-1.0,0.22355490443908665,1.0
32.698402404785156,-29.375953674316406,1.0725071430206299,-0.0,-0.0,-1.0,0.16202774314939825,1.0
32.752906799316406,-29.447444915771484,1.0665149688720703,-0.0,-0.0,-1.0,0.17280137086169808,1.0
33.4659309387207,-29.244709014892578,1.010636568069458,-0.0,-0.0,-1.0,0.1241145032606888,2.0
32.515052795410156,-29.318008422851562,1.6987873315811157,-0.0,-0.0,-1.0,0.13154061240806642,2.0
32.28622055053711,-29.470338821411133,1.7143014669418335,-0.0,-0.0,-1.0,0.1756984816930272,2.0
32.943092346191406,-28.42858123779297,1.6655457019805908,-0.0,-0.0,-1.0,0.1505312094402027,1.0
32.95286178588867,-28.80950164794922,1.6677272319793701,-0.0,-0.0,-1.0,0.0860432021019314,1.0
33.0902099609375,-28.37987518310547,0.799343466758728,-0.0,-0.0,-1.0,0.22813220337396947,1.0
31.932926177978516,-29.12319564819336,1.518107295036316,-0.0,-0.0,-1.0,0.14345177123463437,1.0
32.14501953125,-29.496374130249023,1.4950827360153198,-0.0,-0.0,-1.0,0.2511598904898792,1.0
32.153839111328125,-29.652841567993164,1.494763731956482,-0.0,-0.0,-1.0,0.23832097681091158,2.0
32.510658264160156,-28.985233306884766,1.4499214887619019,-0.09832537472733989,-0.10636664940440042,-0.9894535141072622,0.10309764752408777,3.0
32.410438537597656,-29.318626403808594,1.4632694721221924,-0.692624004167441,-0.5753501762835744,-0.4350220264555819,0.08903400688003177,3.0
33.06114196777344,-29.238901138305664,1.3866862058639526,-0.0,-0.0,-1.0,0.14514964100575545,1.0
33.2618522644043,-28.58160400390625,1.359586477279663,-0.0,-0.0,-1.0,0.10969286148844423,2.0
33.642372131347656,-29.314544677734375,1.318807601928711,-0.0,-0.0,-1.0,0.15280985683280943,1.0
31.78915023803711,-28.544517517089844,1.1804414987564087,-0.0,-0.0,-1.0,0.16374550356728163,2.0
31.97048568725586,-29.35348892211914,1.1316337585449219,0.5544368664738801,-0.5215874837608632,-0.6484953799979115,0.17691021076186147,3.0
32.2601432800293,-28.869295120239258,1.1141066551208496,-0.0,-0.0,-1.0,0.13241009746012125,2.0
32.13146209716797,-29.28757095336914,1.1151942014694214,-0.0,-0.0,-1.0,0.271135263426085,1.0
32.82260513305664,-28.97665023803711,1.043699860572815,0.9665728455199233,-0.19151130193733032,-0.17047098150062734,0.13435204102004367,3.0
33.102230072021484,-28.604970932006836,1.021416187286377,-0.0,-0.0,-1.0,0.20643047679227522,1.0
33.02082443237305,-28.986797332763672,1.019560694694519,-0.0,-0.0,-1.0,0.15145554313296203,2.0
33.356136322021484,-28.671024322509766,0.9884974956512451,-0.0,-0.0,-1.0,0.2726839401263833,1.0
33.65917205810547,-28.614158630371094,0.9529685974121094,-0.0,-0.0,-1.0,0.16839094934794224,1.0
32.414947509765625,-29.17428207397461,1.6590142250061035,-0.8797634171880032,0.4310634108873984,0.2005010363359984,0.16467651540326667,3.0
32.30546951293945,-29.405824661254883,1.6680068969726562,0.027973396107281827,-0.03995163799579027,-0.9988099697798763,0.2085637514646492,3.0
32.66993713378906,-29.091415405273438,1.6350706815719604,0.39522573354005996,0.6215324518598002,-0.6763830503737265,0.21706299763925577,5.0
33.15135192871094,-28.482837677001953,1.5911946296691895,-0.0,-0.0,-1.0,0.11585467225563915,1.0
31.816598892211914,-29.577789306640625,1.3592665195465088,-0.0,-0.0,-1.0,0.22230407045204595,1.0
32.04111862182617,-29.83470344543457,1.3294655084609985,-0.0,-0.0,-1.0,0.11566448026909747,1.0
31.944507598876953,-29.296186447143555,1.3459937572479248,-0.0,-0.0,-1.0,0.18681487750859788,1.0
32.33252716064453,-29.439367294311523,1.2966965436935425,-0.0,-0.0,-1.0,0.1569237504638817,2.0
32.35505676269531,-29.71755027770996,1.291738748550415,-0.0,-0.0,-1.0,0.24782330683132314,2.0
32.35850143432617,-29.035877227783203,1.2962404489517212,0.4187229050334648,-0.7588233291960829,-0.4988569773673708,0.1779548397059294,4.0
32.403160095214844,-29.220863342285156,1.289351224899292,-0.0,-0.0,-1.0,0.22342462786633985,1.0
32.704551696777344,-29.070396423339844,1.2523009777069092,-0.0,-0.0,-1.0,0.17065851726828715,2.0
33.116371154785156,-29.339004516601562,1.1984792947769165,-0.0,-0.0,-1.0,0.13308113292746945,1.0
33.101295471191406,-28.404712677001953,1.2041455507278442,0.2957733896554713,-0.24661912098299507,-0.9228743745154525,0.14355552392302956,3.0
33.2102165222168,-28.85000228881836,1.1885861158370972,-0.0,-0.0,-1.0,0.2308178870529217,1.0
33.29216003417969,-29.257320404052734,1.1763797998428345,-0.5792095431688932,0.12503334110783626,-0.8055327235522427,0.19708459965587222,3.0
33.66250991821289,-28.926666259765625,1.1296882629394531,0.38952103964270185,-0.2752675974588116,-0.8789204227146635,0.17690063934600436,3.0
32.797569274902344,-29.455650329589844,1.8091014623641968,-0.18382328696160288,0.6160031164396158,-0.7659955350439802,0.05336872270785453,4.0
32.906890869140625,-29.369037628173828,1.7959699630737305,0.3267485432697837,-0.9210236830499584,-0.21201595395668732,0.12798235087009505,4.0
31.737491607666016,-29.43689727783203,1.3267295360565186,-0.0,-0.0,-1.0,0.18773406559221179,1.0
31.93454360961914,-29.75544548034668,1.2969610691070557,-0.0,-0.0,-1.0,0.11822123307848906,1.0
32.005043029785156,-29.354047775268555,1.2999558448791504,-0.0,-0.0,-1.0,0.2006214252807223,1.0
32.1492919921875,-29.612899780273438,1.2775079011917114,0.3948541279323049,0.8691658447673986,-0.2977263037499263,0.13073737126690343,3.0
32.353092193603516,-29.681121826171875,1.2535631656646729,-0.0,-0.0,-1.0,0.22096230290983,2.0
32.346519470214844,-29.01656723022461,1.270448088645935,0.4187229050334648,-0.7588233291960829,-0.4988569773673708,0.15701334341544712,4.0
32.32765579223633,-29.293453216552734,1.265960454940796,-0.0,-0.0,-1.0,0.20249788992308654,1.0
32.666282653808594,-28.966463088989258,1.2353920936584473,-0.0,-0.0,-1.0,0.2544165185304024,1.0
33.07408142089844,-29.306171417236328,1.1815322637557983,-0.561606814024613,-0.49862372668458266,-0.6602818834621337,0.136985264486612,4.0
33.32035827636719,-29.16983413696289,1.1559675931930542,-0.0,-0.0,-1.0,0.22202603017208974,1.0
33.329368591308594,-29.349212646484375,1.151292085647583,-0.0,-0.0,-1.0,0.12190209139955094,1.0
33.08022689819336,-28.409440994262695,1.1986567974090576,-0.0,-0.0,-1.0,0.12201262969481683,2.0
33.66449737548828,-28.724159240722656,1.1237108707427979,-0.0,-0.0,-1.0,0.18850841855960282,1.0
32.731231689453125,-29.455263137817383,1.773743987083435,0.6671249139888228,-0.538998528736925,-0.5142226513435946,0.07590437341947784,3.0
32.83419418334961,-29.217208862304688,1.7634154558181763,0.490711966073114,-0.8310776043765304,-0.2617475536780157,0.13064566899641045,4.0
33.35816955566406,-28.61004638671875,0.8068056106567383,-0.0,-0.0,-1.0,0.10652484904465116,1.0
31.81366729736328,-28.46530532836914,1.006990671157837,-0.0,-0.0,-1.0,0.15645553295391051,1.0
32.993980407714844,-28.59505844116211,0.8542449474334717,-0.0,-0.0,-1.0,0.13127516884043597,1.0
33.19853591918945,-28.593841552734375,0.8281377553939819,-0.0,-0.0,-1.0,0.14830967866440675,1.0
32.1175537109375,-30.284873962402344,1.4294712543487549,-0.0,-0.0,-1.0,0.1877082394252534,2.0
32.02871322631836,-29.695659637451172,1.4549663066864014,-0.8782578886470435,-0.10367952751006476,-0.4668122070003391,0.20127265058177599,3.0
31.927953720092773,-29.1551456451416,1.4796676635742188,-0.0,-0.0,-1.0,0.26025873106573155,2.0
32.348365783691406,-29.41305923461914,1.4320756196975708,-0.7554586442936241,0.45090929608497893,-0.47535570204446725,0.17485770460047942,3.0
32.37785339355469,-29.110553741455078,1.437037467956543,-0.0,-0.0,-1.0,0.08172876471379717,2.0
32.958778381347656,-29.28876495361328,1.3747282028198242,-0.0,-0.0,-1.0,0.16171433150953937,2.0
33.60100173950195,-29.679397583007812,1.3004688024520874,-0.0,-0.0,-1.0,0.09752673908892377,1.0
33.38530349731445,-29.16842269897461,1.3339321613311768,-0.0,-0.0,-1.0,0.18901880453397135,2.0
33.528533935546875,-29.420001983642578,1.3136684894561768,-0.0,-0.0,-1.0,0.12928882498704897,2.0
33.178794860839844,-28.687061309814453,1.3656193017959595,-0.0,-0.0,-1.0,0.16055768717835242,1.0
33.3014030456543,-28.617740631103516,1.8914268016815186,-0.0,-0.0,-1.0,0.05833457440706093,1.0
31.714977264404297,-28.761682510375977,1.0691602230072021,-0.0,-0.0,-1.0,0.1986358354273916,1.0
32.04404067993164,-28.790882110595703,1.0320327281951904,-0.0,-0.0,-1.0,0.06893802767140603,1.0
31.817359924316406,-28.522056579589844,1.0727020502090454,-0.0,-0.0,-1.0,0.16374550356728163,1.0
33.086647033691406,-28.717296600341797,0.9189141988754272,-0.0,-0.0,-1.0,0.14777469458687217,1.0
32.12091064453125,-29.783435821533203,1.5002272129058838,-0.0,-0.0,-1.0,0.15991798576028807,1.0
31.924930572509766,-29.324111938476562,1.5323423147201538,-0.0,-0.0,-1.0,0.27125194847890144,1.0
32.35602569580078,-29.391788482666016,1.493173599243164,-0.0,-0.0,-1.0,0.18357123720010834,1.0
32.47292709350586,-29.070537567138672,1.4930570125579834,0.4373146992229356,0.25049424398547865,-0.863717828676529,0.16086672432120058,4.0
32.92436218261719,-29.27017593383789,1.4467294216156006,0.4642160798842739,-0.7045173828035112,0.5368041435240313,0.12730506335281913,3.0
33.18798828125,-28.72100067138672,1.4380440711975098,-0.0,-0.0,-1.0,0.23240590092376126,1.0
33.107521057128906,-28.425804138183594,1.4534212350845337,-0.0,-0.0,-1.0,0.2570502541350137,1.0
31.91322135925293,-29.70282554626465,1.331118106842041,-0.0,-0.0,-1.0,0.13636771876699244,1.0
32.299171447753906,-29.75218391418457,1.2930619716644287,-0.0,-0.0,-1.0,0.18280657234254596,1.0
31.975181579589844,-29.464523315429688,1.3369778394699097,-0.0,-0.0,-1.0,0.16770215006809772,2.0
32.32756042480469,-29.41802978515625,1.3060836791992188,-0.0,-0.0,-1.0,0.15904908651363833,2.0
33.1584587097168,-29.342060089111328,1.2283791303634644,-0.0,-0.0,-1.0,0.09186368562674353,1.0
33.609130859375,-29.460918426513672,1.1778088808059692,-0.0,-0.0,-1.0,0.17224837416271757,1.0
32.42677307128906,-29.00570297241211,1.3154234886169434,-0.7725510185862539,-0.5529813177218986,-0.3120522166751814,0.2261061751601384,3.0
32.646820068359375,-28.99468231201172,1.2944152355194092,-0.0,-0.0,-1.0,0.18043153063992723,2.0
33.07956314086914,-29.304615020751953,1.2379149198532104,0.40999338310347294,0.09046616268156386,-0.9075909316542567,0.12384913390093906,3.0
33.439125061035156,-29.319507598876953,1.2010471820831299,-0.0,-0.0,-1.0,0.17822329141262638,1.0
32.8251838684082,-28.651641845703125,1.2914819717407227,-0.0,-0.0,-1.0,0.13436914751626128,1.0
33.161354064941406,-28.773178100585938,1.252136468887329,-0.0,-0.0,-1.0,0.19860212511473158,1.0
33.705543518066406,-28.653398513793945,1.2003421783447266,-0.0,-0.0,-1.0,0.1593103893498593,1.0
32.67914962768555,-29.447830200195312,1.78835129737854,-0.0,-0.0,-1.0,0.07900746836221759,1.0
32.8023681640625,-29.22156524658203,1.7823872566223145,-0.3927119857472598,-0.49801574545896854,-0.7731478600664895,0.11078677274767344,3.0
33.246063232421875,-28.75836753845215,1.7535892724990845,-0.0,-0.0,-1.0,0.04102854502556751,1.0
33.135738372802734,-28.610107421875,0.8569209575653076,-0.0,-0.0,-1.0,0.14945763617399,1.0
33.268943786621094,-28.41439437866211,0.8586585521697998,-0.0,-0.0,-1.0,0.20215813407661326,1.0
31.85438346862793,-29.657630920410156,1.3829611539840698,-0.0,-0.0,-1.0,0.20359552911963036,1.0
33.592105865478516,-29.761032104492188,1.2349578142166138,-0.0,-0.0,-1.0,0.06220108108035527,1.0
31.90387725830078,-29.35626792907715,1.3976893424987793,-0.0,-0.0,-1.0,0.1928788824490091,1.0
32.33687210083008,-29.30141830444336,1.3667303323745728,-0.0,-0.0,-1.0,0.17622588166379993,2.0
32.86961364746094,-29.26183319091797,1.3250374794006348,-0.0,-0.0,-1.0,0.21887694805392213,2.0
33.01378631591797,-29.31036376953125,1.3100426197052002,-0.0,-0.0,-1.0,0.11948172031965104,1.0
33.4998893737793,-29.339553833007812,1.2663154602050781,-0.0,-0.0,-1.0,0.16312968805097036,1.0
32.430599212646484,-28.99195671081543,1.3772711753845215,0.6651272038879542,0.1533159280546455,-0.730821475363809,0.18602465497481563,3.0
32.63319396972656,-29.008014678955078,1.3594861030578613,-0.0,-0.0,-1.0,0.14245306994552837,2.0
33.050052642822266,-28.821613311767578,1.33432936668396,-0.0,-0.0,-1.0,0.18474118970333786,1.0
32.70680618286133,-29.538162231445312,1.8204398155212402,0.06329409893425508,0.1716374232276155,-0.9831248404896931,0.07283267093662808,3.0
32.82178497314453,-29.434335708618164,1.8158559799194336,0.6578333531893743,-0.7529570805747088,0.017632760533593667,0.04975405517271217,3.0
32.94986343383789,-29.35890007019043,1.8095214366912842,0.012278964062625203,0.781612015860538,-0.623644036052599,0.13469378670539542,3.0
31.83502769470215,-29.652202606201172,1.2138617038726807,-0.0,-0.0,-1.0,0.18881741788502418,2.0
31.93328094482422,-29.381446838378906,1.2284793853759766,-0.1818347887147813,0.4686600488095099,-0.8644616060085715,0.23847349087761535,3.0
32.112239837646484,-29.233850479125977,1.225842833518982,0.8196122230191604,0.5608111109500521,-0.11716100764571077,0.2622360882291919,4.0
33.00975036621094,-29.266159057617188,1.1453578472137451,0.6687696091272177,-0.5253345267536284,-0.5260901490318649,0.12350489251381892,3.0
33.17973709106445,-29.307331085205078,1.1266438961029053,-0.0,-0.0,-1.0,0.0804160313688121,1.0
32.31599807739258,-28.927593231201172,1.2332391738891602,-0.20152770614268442,0.23811856548541654,-0.95009795938526,0.121214849759429,6.0
32.566410064697266,-28.96391487121582,1.2085447311401367,-0.0,-0.0,-1.0,0.20787453240423187,2.0
33.55167770385742,-29.018112182617188,1.112963318824768,-0.0,-0.0,-1.0,0.2001332561099975,1.0
32.31261444091797,-29.36373519897461,1.6665234565734863,-0.29122168167108037,0.22691308787205908,-0.9293548206562633,0.14451553787807728,5.0
32.39784240722656,-29.2211971282959,1.6674784421920776,-0.9040869795859643,-0.09571158388343173,-0.4164925282086741,0.1512232584658617,3.0
32.70209503173828,-29.061904907226562,1.65325129032135,-0.0,-0.0,-1.0,0.17026199139234896,2.0
32.41229248046875,-29.093406677246094,1.672563076019287,-0.0,-0.0,-1.0,0.1921943732525261,2.0
32.50783157348633,-29.030590057373047,1.6687374114990234,-0.6027104009882092,-0.5629822607938162,-0.5655007927245692,0.18390039563248237,3.0
33.16094970703125,-28.580059051513672,1.6403253078460693,-0.0,-0.0,-1.0,0.08081697206755076,2.0
31.879383087158203,-29.824626922607422,1.324159860610962,-0.0,-0.0,-1.0,0.08848794037469102,1.0
32.33240509033203,-29.891014099121094,1.2871065139770508,-0.0,-0.0,-1.0,0.13088222788920578,1.0
31.72406768798828,-29.562528610229492,1.3565378189086914,-0.0,-0.0,-1.0,0.18240036644284938,1.0
32.30722427368164,-29.55236053466797,1.3166857957839966,0.5197744351572167,0.85422915774377,-0.011273092626529528,0.21884636761588502,4.0
33.47837448120117,-29.931058883666992,1.1948049068450928,-0.0,-0.0,-1.0,0.06833356522667403,1.0
32.31045913696289,-29.370389938354492,1.3313037157058716,-0.0,-0.0,-1.0,0.17720701274318967,1.0
32.937007904052734,-29.271892547607422,1.2907006740570068,-0.0,-0.0,-1.0,0.17625850186255054,2.0
33.165435791015625,-29.401451110839844,1.261911153793335,-0.0,-0.0,-1.0,0.08374006723881801,1.0
32.74476623535156,-28.759296417236328,0.9092984199523926,-0.0,-0.0,-1.0,0.12880408880630714,1.0
32.81533432006836,-28.75823211669922,0.9026232957839966,-0.0,-0.0,-1.0,0.08393295914952797,1.0
32.08121109008789,-28.454498291015625,1.004645586013794,-0.0,-0.0,-1.0,0.04256550084142622,2.0
32.45867919921875,-28.565773010253906,0.9578537940979004,-0.0,-0.0,-1.0,0.11598756308079408,1.0
33.0678596496582,-28.441741943359375,0.9121201038360596,-0.0,-0.0,-1.0,0.25682493629873904,1.0
33.2232666015625,-28.66783332824707,0.8718492984771729,-0.0,-0.0,-1.0,0.16148823382678765,1.0
32.325504302978516,-29.285818099975586,1.3370718955993652,-0.0,-0.0,-1.0,0.20178166617236684,2.0
32.75216293334961,-29.175418853759766,1.313150405883789,-0.0,-0.0,-1.0,0.1473624732915719,1.0
32.33428192138672,-29.015499114990234,1.358318567276001,-0.7828229433537991,0.5400258682087171,-0.3091282921770769,0.2209135219149493,3.0
32.482261657714844,-28.978248596191406,1.3499828577041626,-0.0,-0.0,-1.0,0.11431262066785491,1.0
33.008811950683594,-28.794015884399414,1.3220646381378174,-0.0,-0.0,-1.0,0.17633972414335575,1.0
33.29545593261719,-28.40143394470215,1.3272027969360352,-0.0,-0.0,-1.0,0.23436110703494753,1.0
32.39621353149414,-29.43354606628418,1.7710514068603516,0.3796698928729351,-0.6582817556420024,-0.6500122326808452,0.10428731408136711,3.0
32.60271453857422,-29.326557159423828,1.7631888389587402,-0.0,-0.0,-1.0,0.10230148316181878,2.0
32.82502746582031,-29.19684600830078,1.7549550533294678,0.490711966073114,-0.8310776043765304,-0.2617475536780157,0.1731170107752532,4.0
32.055850982666016,-29.09082794189453,1.0287847518920898,-0.0,-0.0,-1.0,0.14145568418133642,1.0
32.13255310058594,-28.828330993652344,1.0545543432235718,-0.0,-0.0,-1.0,0.10431159590254079,2.0
32.63416290283203,-28.878746032714844,1.0095124244689941,-0.0,-0.0,-1.0,0.14735147042638427,2.0
33.01675033569336,-28.96033477783203,0.96800696849823,-0.0,-0.0,-1.0,0.11530115254675129,1.0
33.18373489379883,-28.654266357421875,0.988312840461731,-0.0,-0.0,-1.0,0.21911924574143496,1.0
32.053829193115234,-29.78836441040039,1.3917241096496582,0.33844500766563657,-0.5302670679638406,-0.7773492223056757,0.1960939921739032,4.0
31.753517150878906,-29.45362663269043,1.4384440183639526,-0.0,-0.0,-1.0,0.19117287547807402,1.0
32.355491638183594,-29.43112564086914,1.403613567352295,-0.0,-0.0,-1.0,0.14622213285448005,2.0
31.855209350585938,-29.159095764160156,1.458072304725647,-0.0,-0.0,-1.0,0.16821209940412937,2.0
32.47956085205078,-29.061111450195312,1.4266130924224854,-0.0,-0.0,-1.0,0.1063731373059805,2.0
32.91275405883789,-29.249828338623047,1.380670428276062,-0.27992552432146117,-0.9095614521709134,-0.3071476282801058,0.11974966730880053,4.0
33.509918212890625,-29.354202270507812,1.3272502422332764,-0.02576563397702991,-0.1377619923183354,-0.9901301760769867,0.12149013123958542,3.0
33.55286407470703,-29.34391975402832,1.3247020244598389,-0.441152104522558,-0.04424667251139904,-0.8963409243401683,0.1507077041942144,4.0
32.60649108886719,-28.954814910888672,1.426918387413025,-0.6719736820144706,-0.13533292804204036,-0.7281046417016467,0.12142844108452003,3.0
33.18110656738281,-28.606746673583984,1.413212776184082,-0.15601180972531556,0.8937996010231803,-0.42045521573294264,0.14052179952502583,4.0
32.634605407714844,-29.570959091186523,1.8152308464050293,-0.0,-0.0,-1.0,0.07341069299221084,2.0
32.75782775878906,-29.460426330566406,1.8136602640151978,0.09561790744862461,-0.9770977261357122,-0.19009799934656546,0.06773936637110764,3.0
32.869773864746094,-29.38549041748047,1.810789942741394,-0.0,-0.0,-1.0,0.09464792058830758,2.0
33.26127243041992,-28.547435760498047,1.8270314931869507,-0.0,-0.0,-1.0,0.06566669666104784,2.0
32.10159683227539,-30.286373138427734,1.457465648651123,-0.0,-0.0,-1.0,0.15495195528019215,2.0
31.805177688598633,-29.516462326049805,1.1139390468597412,-0.0,-0.0,-1.0,0.16192811572421742,1.0
32.08390808105469,-29.270206451416016,1.1266450881958008,-0.0,-0.0,-1.0,0.25269454563867466,2.0
32.18999099731445,-29.278667449951172,1.118928074836731,0.9027483108869976,-0.10715659636598866,-0.41660887057998297,0.23593685283798005,3.0
32.888946533203125,-29.22757911682129,1.076272964477539,-0.0,-0.0,-1.0,0.1715013237745985,2.0
31.880117416381836,-28.645484924316406,1.2134671211242676,-0.8761920553870103,-0.23058506630664832,-0.4232233562470821,0.176411857450998,3.0
32.368980407714844,-28.890151977539062,1.1529157161712646,0.5831240856007098,0.8074285639722404,-0.08958467990712332,0.13597853175185626,3.0
32.605812072753906,-29.002342224121094,1.1232794523239136,0.9761076623083328,0.20293814349966915,-0.07765269793039575,0.18789268697300668,4.0
33.199546813964844,-28.77869415283203,1.103573203086853,-0.0,-0.0,-1.0,0.23867880013691897,1.0
33.09496307373047,-28.523963928222656,1.141268014907837,-0.0,-0.0,-1.0,0.16672841797047608,1.0
32.263607025146484,-29.600828170776367,1.5060434341430664,-0.0,-0.0,-1.0,0.20265158388501794,1.0
32.46383285522461,-29.105382919311523,1.5354782342910767,-0.09245418204829244,0.9560866965087804,-0.2781194940681224,0.18383699771808779,3.0
32.764007568359375,-29.084110260009766,1.5182682275772095,-0.0,-0.0,-1.0,0.11290276401606468,1.0
33.213661193847656,-28.67041015625,1.5210318565368652,-0.0,-0.0,-1.0,0.1167383118498157,2.0
32.701297760009766,-28.72321319580078,0.878467321395874,-0.0,-0.0,-1.0,0.15182379705847782,1.0
31.87938690185547,-29.602935791015625,1.2117156982421875,-0.0,-0.0,-1.0,0.14522860766145282,2.0
32.0910758972168,-29.462688446044922,1.2184123992919922,-0.001987538824716777,0.7369422554128017,-0.6759527808038913,0.2182038172919472,5.0
32.23744201660156,-29.170289993286133,1.2456716299057007,-0.0,-0.0,-1.0,0.21989313315282352,2.0
32.7732048034668,-29.113365173339844,1.2228755950927734,-0.0,-0.0,-1.0,0.19075399050348918,1.0
32.98299789428711,-29.234760284423828,1.195730209350586,-0.19306002469286127,-0.7214007772445681,-0.6650629635279093,0.09373601527027181,4.0
33.242820739746094,-29.284631729125977,1.1732234954833984,0.26013156219316785,-0.015510684541056396,-0.9654485947040423,0.07762679411211762,4.0
33.67439270019531,-29.383651733398438,1.1315131187438965,-0.0,-0.0,-1.0,0.16241136203716383,1.0
32.378456115722656,-28.945283889770508,1.264902114868164,0.23809552489365926,-0.18237591494361605,-0.9539651705770457,0.15759389949826394,3.0
32.57658767700195,-28.97107696533203,1.250888705253601,-0.0,-0.0,-1.0,0.15043862911692213,2.0
33.362342834472656,-28.77252960205078,1.2238366603851318,-0.0,-0.0,-1.0,0.22234950516669724,1.0
33.70368194580078,-28.967472076416016,1.1767085790634155,-0.0,-0.0,-1.0,0.10856709651154249,1.0
33.14689636230469,-28.46541976928711,1.2741422653198242,-0.0,-0.0,-1.0,0.19102346788163685,1.0
33.313995361328125,-28.503202438354492,1.258195400238037,-0.0,-0.0,-1.0,0.20238235766035384,1.0
32.02602005004883,-30.254554748535156,1.5696372985839844,-0.0,-0.0,-1.0,0.23591617584031074,1.0
32.35702896118164,-29.560321807861328,1.6121625900268555,-0.0,-0.0,-1.0,0.15638059069723617,1.0
32.60084915161133,-29.066959381103516,1.6404846906661987,-0.4373352917831758,-0.180154985845176,-0.881068682700758,0.15653243808023862,3.0
32.94283676147461,-29.219539642333984,1.609571933746338,-0.0,-0.0,-1.0,0.21421452326532311,2.0
33.22810363769531,-28.707660675048828,1.6342275142669678,-0.0,-0.0,-1.0,0.07018345954396689,1.0
33.23607635498047,-28.448062896728516,1.6545989513397217,-0.0,-0.0,-1.0,0.11535198085372139,2.0
32.59010314941406,-28.734882354736328,0.8977906703948975,-0.0,-0.0,-1.0,0.14922781710343241,1.0
33.57276916503906,-28.736419677734375,0.859304666519165,-0.0,-0.0,-1.0,0.18776286319109,1.0
31.873355865478516,-29.52215003967285,1.1904653310775757,-0.0,-0.0,-1.0,0.1097012010702298,2.0
31.993196487426758,-29.492263793945312,1.1921465396881104,-0.0,-0.0,-1.0,0.19493681917015704,1.0
32.6556282043457,-29.296592712402344,1.20200514793396,-0.0,-0.0,-1.0,0.14247823244318533,1.0
32.83903503417969,-29.4188232421875,1.180227279663086,-0.0,-0.0,-1.0,0.2824102013854824,1.0
33.326934814453125,-29.646915435791016,1.1331250667572021,-0.0,-0.0,-1.0,0.07841887576363667,1.0
33.527435302734375,-29.58240509033203,1.1337405443191528,-0.0,-0.0,-1.0,0.12155009967578416,1.0
32.24103546142578,-29.06389045715332,1.2436738014221191,-0.0,-0.0,-1.0,0.263512167103774,1.0
32.45915985107422,-29.151683807373047,1.2266302108764648,-0.0,-0.0,-1.0,0.17343055697344387,1.0
33.27817153930664,-29.262874603271484,1.1855759620666504,-0.08480385298367805,0.32616325490836556,-0.9415019052910641,0.1241177678930733,4.0
33.03256607055664,-28.86288070678711,1.247436285018921,-0.0,-0.0,-1.0,0.161658431913932,1.0
33.497684478759766,-28.840068817138672,1.2325552701950073,-0.0,-0.0,-1.0,0.1539598402043674,1.0
33.66241455078125,-28.797019958496094,1.2312895059585571,-0.0,-0.0,-1.0,0.11657040644866365,1.0
33.03827667236328,-28.393096923828125,1.3093130588531494,-0.0,-0.0,-1.0,0.18445487162706478,1.0
32.03264617919922,-29.861587524414062,1.558931827545166,-0.0,-0.0,-1.0,0.14257038280703124,1.0
31.806623458862305,-29.39673614501953,1.6085422039031982,-0.0,-0.0,-1.0,0.10453664230248562,1.0
32.235511779785156,-29.404945373535156,1.5989837646484375,-0.0,-0.0,-1.0,0.24270680889031335,1.0
32.640830993652344,-29.284038543701172,1.6006360054016113,-0.0,-0.0,-1.0,0.202412149728954,1.0
32.78522872924805,-29.393573760986328,1.585947871208191,-0.0,-0.0,-1.0,0.19589351945511163,1.0
32.46475601196289,-29.17905044555664,1.6154389381408691,-0.9418436264264064,0.22036366903482016,0.2537132963198179,0.2186651394321133,4.0
33.116703033447266,-28.486141204833984,1.6637279987335205,-0.0,-0.0,-1.0,0.14743203540047514,1.0
33.612396240234375,-28.59067153930664,0.7404822111129761,-0.0,-0.0,-1.0,0.19624165470924027,2.0
32.02689743041992,-29.3244686126709,0.9917980432510376,-0.0,-0.0,-1.0,0.11609187446382925,1.0
31.8051700592041,-28.851837158203125,1.0592421293258667,-0.0,-0.0,-1.0,0.11480245231931069,2.0
32.224613189697266,-28.990428924560547,1.0444742441177368,-0.0,-0.0,-1.0,0.10809612382447228,1.0
32.59086990356445,-29.028095245361328,1.0423314571380615,-0.0,-0.0,-1.0,0.12620944345546414,1.0
32.79835891723633,-29.090694427490234,1.0343292951583862,-0.0,-0.0,-1.0,0.14013911483301,1.0
32.93748092651367,-29.010456085205078,1.0469880104064941,-0.0,-0.0,-1.0,0.2010812804623189,1.0
33.462562561035156,-29.138050079345703,1.028124451637268,-0.0,-0.0,-1.0,0.18048738890556287,1.0
33.69478988647461,-29.27027130126953,1.007386565208435,-0.0,-0.0,-1.0,0.16100473601913587,1.0
32.640281677246094,-28.42456817626953,0.7715052366256714,-0.0,-0.0,-1.0,0.11517291856139686,1.0
32.10512924194336,-29.819515228271484,1.3269169330596924,-0.0,-0.0,-1.0,0.26792696501123153,1.0
31.985855102539062,-29.293907165527344,1.385884165763855,-0.0,-0.0,-1.0,0.188838510769438,2.0
32.5294075012207,-29.09041976928711,1.4144809246063232,-0.0,-0.0,-1.0,0.17289816635918526,1.0
32.868717193603516,-29.24673080444336,1.3986198902130127,0.051469870731329824,-0.8018759152430808,0.5952695767129141,0.15590594224933954,4.0
33.066001892089844,-29.430255889892578,1.3783618211746216,-0.0,-0.0,-1.0,0.12256948335807419,1.0
33.183902740478516,-28.547313690185547,1.4800376892089844,-0.0,-0.0,-1.0,0.08929676701097834,1.0
33.335548400878906,-28.381542205810547,1.4992563724517822,-0.0,-0.0,-1.0,0.14197041598763063,2.0
32.68576431274414,-29.61151123046875,1.7529287338256836,-0.0,-0.0,-1.0,0.07627214169009701,1.0
32.89116287231445,-29.45559310913086,1.766481637954712,-0.0,-0.0,-1.0,0.07578598193221872,1.0
33.307838439941406,-28.654842376708984,1.831878423690796,-0.0,-0.0,-1.0,0.044750318735039284,1.0
33.60479736328125,-29.01744270324707,0.8389010429382324,-0.0,-0.0,-1.0,0.20039570569934873,1.0
31.92803192138672,-29.404109954833984,1.1527273654937744,-0.0,-0.0,-1.0,0.16286397633073946,2.0
32.12284851074219,-29.352008819580078,1.1627461910247803,0.00941264674632615,-0.46495452334599524,-0.8852845267490712,0.18245604122195486,4.0
31.864280700683594,-28.659942626953125,1.2541306018829346,0.3860807640578373,-0.9063120063401181,-0.1718726004582074,0.21042449242010797,3.0
32.27937698364258,-28.999744415283203,1.213342308998108,-0.0,-0.0,-1.0,0.12102909968284474,2.0
32.45034408569336,-28.746360778808594,1.0710922479629517,-0.0,-0.0,-1.0,0.1052814504493152,1.0
32.59515380859375,-28.853811264038086,1.0545777082443237,-0.0,-0.0,-1.0,0.23687821328396821,2.0
32.92706298828125,-29.191837310791016,1.1907280683517456,0.5649474547380033,0.6400951979161941,-0.5206846559960069,0.1805746517852324,5.0
33.22208023071289,-29.328296661376953,1.1716053485870361,-0.0,-0.0,-1.0,0.08018364002322488,2.0
33.56964111328125,-29.554344177246094,1.1383742094039917,-0.0,-0.0,-1.0,0.1593964725628494,1.0
33.307594299316406,-28.79315948486328,1.2455130815505981,-0.0,-0.0,-1.0,0.2655211994677201,1.0
33.44898986816406,-28.733495712280273,1.2530397176742554,-0.0,-0.0,-1.0,0.14832024633776256,1.0
32.16682052612305,-30.169754028320312,1.4618762731552124,-0.0,-0.0,-1.0,0.15477149820104302,1.0
31.974464416503906,-29.281719207763672,1.5511502027511597,-0.0,-0.0,-1.0,0.20599591334314682,2.0
32.03989791870117,-29.60207748413086,1.5188950300216675,-0.0,-0.0,-1.0,0.15734760769140121,1.0
32.32827377319336,-29.60296630859375,1.5215437412261963,-0.0,-0.0,-1.0,0.133404244614191,1.0
31.824674606323242,-28.95691680908203,1.5825166702270508,-0.0,-0.0,-1.0,0.12893706448236997,2.0
32.43244934082031,-29.133094787597656,1.5706819295883179,-0.0,-0.0,-1.0,0.13378268680667282,2.0
32.63919448852539,-29.03874397277832,1.5815372467041016,-0.9972892688032394,0.01790227789745499,0.07136962081994075,0.161200529535465,3.0
32.87342071533203,-29.17982292175293,1.5676637887954712,0.5244204353095541,-0.8180374958952172,0.236215711457176,0.15267008330236395,4.0
33.2319221496582,-28.643756866455078,1.445109486579895,-0.0,-0.0,-1.0,0.1307785689834892,1.0
33.519134521484375,-28.542938232421875,1.278737187385559,-0.0,-0.0,-1.0,0.11384221927565456,1.0
32.10835266113281,-29.300827026367188,1.2229571342468262,-0.4936799496782127,0.054892075193617225,-0.8679095387001203,0.23198120358854005,3.0
32.057342529296875,-29.48307228088379,1.196867823600769,-0.1767660681395854,0.8911265017617006,-0.41790826147903015,0.16017949586712982,4.0
32.25387191772461,-29.300830841064453,1.2244867086410522,0.17491698014921322,-0.3001572426080701,-0.9377151378565879,0.22247933848896717,3.0
32.60758972167969,-28.848617553710938,0.9412215948104858,-0.0,-0.0,-1.0,0.09096806088736586,1.0
33.057071685791016,-29.273193359375,1.230886697769165,-0.19359745917518548,-0.34408021170656006,-0.9187648402681077,0.1460152813167539,3.0
33.390506744384766,-29.803241729736328,1.154362440109253,-0.0,-0.0,-1.0,0.07614115146479584,1.0
32.83177185058594,-28.641498565673828,0.9790470600128174,-0.0,-0.0,-1.0,0.2560416594824051,1.0
33.434165954589844,-29.234580993652344,1.056151270866394,-0.0,-0.0,-1.0,0.1367128016179504,1.0
33.63373947143555,-29.58161163330078,1.183093786239624,-0.0,-0.0,-1.0,0.15617758874921142,1.0
33.580955505371094,-29.071212768554688,0.8998647928237915,-0.0,-0.0,-1.0,0.2092410973770291,1.0
32.00950622558594,-30.347152709960938,1.476373553276062,-0.0,-0.0,-1.0,0.1137329980953917,1.0
31.965015411376953,-29.28521728515625,1.5867867469787598,-0.0,-0.0,-1.0,0.18055830368977013,2.0
32.24293518066406,-29.704002380371094,1.5449477434158325,-0.0,-0.0,-1.0,0.15299650000540294,2.0
32.38865280151367,-29.028114318847656,1.440333366394043,-0.2879551141496478,0.9411560884933973,-0.1769380381005505,0.16758554016719465,4.0
32.37643051147461,-29.31728744506836,1.5860141515731812,-0.0,-0.0,-1.0,0.11479850989749453,1.0
33.271568298339844,-30.31658935546875,1.4793150424957275,-0.0,-0.0,-1.0,0.07364069098617292,1.0
32.54113006591797,-28.98371124267578,1.4467297792434692,-0.751445113760463,0.6531450870426591,0.0934437599712399,0.1318937709471897,7.0
32.79697036743164,-29.118194580078125,1.4296244382858276,-0.0,-0.0,-1.0,0.09487709393319843,2.0
32.98466491699219,-29.30441665649414,1.5874842405319214,-0.0,-0.0,-1.0,0.17883649288658515,2.0
33.22810745239258,-28.707048416137695,1.309893012046814,-0.0,-0.0,-1.0,0.21205421907440739,1.0
33.323238372802734,-29.228485107421875,1.2356936931610107,-0.0,-0.0,-1.0,0.15595606268286477,1.0
33.26613235473633,-28.545352935791016,1.3324437141418457,-0.0,-0.0,-1.0,0.13883062833939663,2.0
33.2188835144043,-28.421733856201172,1.6793694496154785,-0.0,-0.0,-1.0,0.09032030936265101,2.0
33.53782653808594,-29.013202667236328,0.8226034641265869,-0.0,-0.0,-1.0,0.1185566162896546,2.0
31.757118225097656,-29.391033172607422,1.070591926574707,-0.0,-0.0,-1.0,0.16430781496246213,1.0
32.008453369140625,-28.883792877197266,1.1599411964416504,-0.0,-0.0,-1.0,0.17135502302438474,1.0
32.06380081176758,-29.299833297729492,1.091642141342163,-0.0,-0.0,-1.0,0.12688916993922017,2.0
32.38597869873047,-28.751937866210938,1.034387469291687,-0.0,-0.0,-1.0,0.06770370821371963,1.0
32.654808044433594,-29.045249938964844,1.1405442953109741,0.8405210002597022,0.4295442794911347,-0.3301759532111195,0.09275661836734307,3.0
32.78969955444336,-29.198055267333984,1.1148791313171387,-0.0,-0.0,-1.0,0.18083760682124708,1.0
32.87066650390625,-29.054580688476562,1.1392847299575806,-0.0,-0.0,-1.0,0.2470063126525712,1.0
33.05997085571289,-29.278305053710938,1.1003845930099487,-0.0,-0.0,-1.0,0.159578089469223,1.0
33.30546951293945,-28.741735458374023,1.0344887971878052,-0.0,-0.0,-1.0,0.2045554954023029,2.0
33.322601318359375,-29.206945419311523,1.110783576965332,-0.0,-0.0,-1.0,0.14232979054860148,1.0
33.5335693359375,-29.476261138916016,1.0615224838256836,-0.0,-0.0,-1.0,0.16014427860489053,1.0
31.838199615478516,-30.240806579589844,1.6586463451385498,-0.0,-0.0,-1.0,0.21201307383132406,1.0
31.788524627685547,-29.42220687866211,1.4038646221160889,-0.0,-0.0,-1.0,0.2031679340134079,1.0
32.040428161621094,-29.75658416748047,1.3620777130126953,-0.2000051241660764,-0.7121190711126513,-0.6729668482659209,0.18481286581915782,3.0
32.59376525878906,-29.039100646972656,1.4602258205413818,-0.0,-0.0,-1.0,0.1590084796378461,2.0
32.80879592895508,-29.200908660888672,1.4381346702575684,-0.0,-0.0,-1.0,0.18045958903788747,1.0
32.93829345703125,-29.275798797607422,1.427302360534668,0.6055903190436919,-0.6837614341601022,0.40710031519992645,0.12369061645424949,4.0
33.109107971191406,-28.44995880126953,1.5380827188491821,-0.0,-0.0,-1.0,0.2316952102867009,1.0
33.18750762939453,-28.677425384521484,1.5065375566482544,-0.0,-0.0,-1.0,0.11415042573874452,2.0
32.395267486572266,-29.404342651367188,1.7409238815307617,-0.939150156327165,0.23144214894290782,0.2538336375726242,0.12704976391733755,3.0
32.65395736694336,-29.309572219848633,1.7490609884262085,-0.0,-0.0,-1.0,0.15638080298488305,2.0
32.923099517822266,-29.275020599365234,1.7503935098648071,-0.0,-0.0,-1.0,0.14928164966041976,1.0
33.257568359375,-28.610382080078125,1.8132636547088623,-0.0,-0.0,-1.0,0.04700648822245285,1.0
33.4254035949707,-28.494173049926758,0.7882624864578247,-0.0,-0.0,-1.0,0.11170188704068586,2.0
33.395145416259766,-28.52968406677246,0.7779433727264404,-0.0,-0.0,-1.0,0.09178734868865246,2.0
33.640438079833984,-28.58539390563965,0.7755016088485718,-0.0,-0.0,-1.0,0.21194863440169015,2.0
31.76312828063965,-29.34004020690918,1.0912994146347046,-0.0,-0.0,-1.0,0.22029140213961249,2.0
32.12458419799805,-28.45539665222168,0.9869322776794434,-0.0,-0.0,-1.0,0.033087950607135305,2.0
32.070987701416016,-29.313385009765625,1.1184139251708984,0.9136934893434601,-0.2067017049426747,-0.3499122928751773,0.19675817708802185,3.0
32.417781829833984,-28.494976043701172,1.0024127960205078,-0.0,-0.0,-1.0,0.09973092558540837,2.0
32.67825698852539,-28.885915756225586,0.9402378797531128,-0.0,-0.0,-1.0,0.07663447979566025,1.0
32.72748947143555,-28.84400749206543,0.9521650075912476,-0.0,-0.0,-1.0,0.08108733941608337,1.0
32.9882698059082,-29.232664108276367,1.1874338388442993,-0.19306002469286127,-0.7214007772445681,-0.6650629635279093,0.10855839984852489,4.0
33.26816940307617,-28.692317962646484,1.014980435371399,-0.0,-0.0,-1.0,0.2745533521839642,2.0
33.32623291015625,-29.152217864990234,1.071797490119934,-0.0,-0.0,-1.0,0.112769910206019,1.0
33.4548454284668,-29.508041381835938,1.1601061820983887,-0.0,-0.0,-1.0,0.12592142615530116,1.0
33.37367248535156,-29.929298400878906,1.0833691358566284,-0.0,-0.0,-1.0,0.06185496784173366,1.0
33.7053337097168,-29.106380462646484,0.9463008642196655,-0.0,-0.0,-1.0,0.13842817506502123,1.0
31.84653091430664,-29.19605827331543,1.426804542541504,-0.0,-0.0,-1.0,0.16116591061580976,2.0
31.94396209716797,-29.81655502319336,1.349635124206543,-0.0,-0.0,-1.0,0.08178702598080534,2.0
32.28403854370117,-28.949851989746094,1.1948010921478271,-0.0,-0.0,-1.0,0.09971418714590735,2.0
31.97327423095703,-29.34984588623047,1.4142613410949707,-0.0,-0.0,-1.0,0.2041286728412213,1.0
32.054664611816406,-29.701335906982422,1.371828556060791,-0.0,-0.0,-1.0,0.20273196380726277,1.0
32.51490020751953,-28.938282012939453,1.3570359945297241,-0.0,-0.0,-1.0,0.07803807137890105,1.0
32.42216873168945,-29.053516387939453,1.4807711839675903,-0.0,-0.0,-1.0,0.10864611205457271,2.0
32.693824768066406,-28.998462677001953,1.502717137336731,0.5548975459402485,0.09698483094320025,-0.8262461231838905,0.1803150928386809,3.0
32.887428283691406,-29.103792190551758,1.3516435623168945,-0.0,-0.0,-1.0,0.17350098783254567,1.0
33.046356201171875,-29.413618087768555,1.4619821310043335,-0.0,-0.0,-1.0,0.10938209025755712,1.0
33.214111328125,-28.612607955932617,1.5799896717071533,0.6947429593299038,-0.5603990968330096,-0.45087145921013294,0.07599896648888084,5.0
33.417930603027344,-29.185592651367188,1.2151483297348022,-0.0,-0.0,-1.0,0.2078568468791318,2.0
32.566375732421875,-29.30147933959961,1.7537226676940918,0.10413263008011076,-0.2156000038553681,-0.9709135047418816,0.09727210559953535,3.0
32.890380859375,-29.207855224609375,1.7770867347717285,-0.0023683202315405443,0.5050969482730387,-0.8630593629088003,0.12830056247145777,5.0
33.307106018066406,-28.54439926147461,1.8614497184753418,0.6599107498234398,-0.17105727489464823,-0.7316127465900811,0.06566669666104785,4.0
33.61085510253906,-28.957170486450195,0.8221280574798584,-0.0,-0.0,-1.0,0.19536501134618536,1.0
31.853586196899414,-29.052139282226562,0.9673582315444946,-0.0,-0.0,-1.0,0.11383257333205991,1.0
32.147647857666016,-28.838104248046875,1.0348217487335205,-0.0,-0.0,-1.0,0.10185153470246099,2.0
31.961315155029297,-29.08063316345215,0.9710114002227783,-0.0,-0.0,-1.0,0.10774642149062726,1.0
32.086673736572266,-29.485698699951172,1.2013804912567139,-0.1767660681395854,0.8911265017617006,-0.41790826147903015,0.15826214467231925,4.0
32.60020065307617,-28.903762817382812,1.055593490600586,-0.0,-0.0,-1.0,0.17366381479591522,1.0
33.10948181152344,-28.368133544921875,1.1969941854476929,-0.0,-0.0,-1.0,0.12325342080040708,2.0
32.89053726196289,-28.926773071289062,1.0693618059158325,-0.0,-0.0,-1.0,0.23790781526123778,1.0
32.84587478637695,-29.06836700439453,1.0378674268722534,-0.0,-0.0,-1.0,0.15251010780865695,1.0
33.32373046875,-28.59389877319336,1.0300010442733765,-0.0,-0.0,-1.0,0.1918257481488398,1.0
33.377445220947266,-28.875164031982422,0.9695756435394287,-0.0,-0.0,-1.0,0.1366652272983242,1.0
33.40946578979492,-29.102481842041016,1.0601372718811035,-0.6790645153328645,0.2222199450112223,-0.6996353907964854,0.135735279950402,3.0
33.18576431274414,-29.747798919677734,1.2187774181365967,-0.0,-0.0,-1.0,0.05598003798434631,1.0
33.17681121826172,-30.067222595214844,1.1637194156646729,-0.0,-0.0,-1.0,0.07014458729964766,1.0
33.6905632019043,-28.857891082763672,0.9872047901153564,-0.0,-0.0,-1.0,0.058836788412810884,1.0
31.844541549682617,-28.974634170532227,1.5505009889602661,-0.0,-0.0,-1.0,0.1516319702317307,2.0
32.052371978759766,-29.26695442199707,1.3807237148284912,-0.0,-0.0,-1.0,0.21220576430966243,1.0
32.19346618652344,-29.673898696899414,1.4804481267929077,-0.0,-0.0,-1.0,0.2401980860074273,2.0
31.95639991760254,-30.36130142211914,1.3761982917785645,-0.0,-0.0,-1.0,0.11373299809539174,1.0
32.57020950317383,-28.951372146606445,1.4597630500793457,-0.7016868577203189,0.6735359758629929,-0.2323463856419341,0.11395305756625379,6.0
32.73220443725586,-28.98455810546875,1.4633928537368774,-0.0,-0.0,-1.0,0.18921269198631488,1.0
32.90953063964844,-29.154125213623047,1.4463574886322021,-0.0,-0.0,-1.0,0.09758646231367236,2.0
33.28334426879883,-28.78084373474121,1.3882770538330078,-0.0,-0.0,-1.0,0.16993744449364695,2.0
33.39311218261719,-29.181371688842773,1.3240761756896973,-0.0,-0.0,-1.0,0.16031113107390338,2.0
33.26240921020508,-29.596683502197266,1.2478735446929932,-0.0,-0.0,-1.0,0.0813139784360501,1.0
33.571964263916016,-29.376209259033203,1.2975119352340698,-0.7844515724108763,0.05607922385896998,-0.6176494565637368,0.19626618122345343,3.0
33.236610412597656,-28.58959197998047,1.6764655113220215,-0.0,-0.0,-1.0,0.08824318362729379,2.0
31.79041290283203,-28.655324935913086,1.1496435403823853,-0.0,-0.0,-1.0,0.20072701930218304,1.0
31.79353904724121,-29.323123931884766,1.021427035331726,-0.0,-0.0,-1.0,0.16339682656262608,1.0
32.32703399658203,-28.725242614746094,1.056536316871643,-0.0,-0.0,-1.0,0.04509049267880916,1.0
32.14442443847656,-29.22180938720703,1.071742296218872,-0.0,-0.0,-1.0,0.17826340532221618,2.0
31.986072540283203,-29.262420654296875,1.050336480140686,-0.0,-0.0,-1.0,0.19415702622010983,1.0
31.817821502685547,-29.839262008666992,1.2232215404510498,0.6848451745804572,-0.6198954854782108,0.38303612615208577,0.11106624581155936,4.0
31.97392463684082,-30.123367309570312,1.1890829801559448,0.9038393257353445,-0.1459769228973645,0.40220046150606836,0.1115363348752755,3.0
32.519805908203125,-28.395021438598633,1.0182079076766968,-0.0,-0.0,-1.0,0.14226166030366044,1.0
32.567081451416016,-28.831825256347656,1.0517164468765259,-0.0,-0.0,-1.0,0.18282871794363884,2.0
32.60332489013672,-28.968547821044922,1.1570581197738647,0.5265388043788968,0.6200801744590205,-0.581599058395139,0.2064578494020389,3.0
33.210594177246094,-28.605274200439453,1.018949031829834,-0.0,-0.0,-1.0,0.24522110905236777,1.0
33.15836715698242,-28.873544692993164,1.0830131769180298,-0.0,-0.0,-1.0,0.24247064805568144,1.0
32.99368667602539,-29.193702697753906,1.1369953155517578,-0.0,-0.0,-1.0,0.21294653674218514,1.0
33.30156326293945,-28.686595916748047,1.0047420263290405,-0.3236695572020465,0.2623333910958866,-0.9090760197347435,0.2558346268347849,3.0
33.43781280517578,-29.014263153076172,0.9333218336105347,-0.0,-0.0,-1.0,0.0733532198832653,1.0
33.341060638427734,-29.280927658081055,1.13750159740448,-0.0,-0.0,-1.0,0.14249677472108258,1.0
33.08601760864258,-30.31584930419922,1.222711443901062,-0.0,-0.0,-1.0,0.056667723824047285,2.0
33.12253189086914,-30.342758178710938,1.2198623418807983,-0.0,-0.0,-1.0,0.059237737743047594,2.0
33.62721633911133,-29.464094161987305,1.1123058795928955,-0.0,-0.0,-1.0,0.14277861064977881,1.0
31.71405601501465,-29.315540313720703,1.298407793045044,-0.0,-0.0,-1.0,0.13758144030711086,1.0
32.270694732666016,-29.224864959716797,1.3554260730743408,-0.0,-0.0,-1.0,0.23169965970146375,1.0
31.988107681274414,-29.446937561035156,1.2990998029708862,-0.6870507070289941,-0.5406359161364978,-0.485462802029372,0.19391436068346465,3.0
31.859315872192383,-29.745840072631836,1.2413805723190308,-0.12345893712356,-0.6588170812969933,-0.7421037287573965,0.12287645473069732,4.0
32.67091369628906,-28.911701202392578,1.4327582120895386,-0.0,-0.0,-1.0,0.12701660925573746,1.0
32.53761291503906,-29.00128936767578,1.4095430374145508,-0.9407096511050878,0.1515549933647574,0.30347394666421074,0.11983857420907482,5.0
32.331199645996094,-29.340627670288086,1.477951169013977,-0.0,-0.0,-1.0,0.174573070235347,1.0
33.2125129699707,-28.524728775024414,1.5265157222747803,-0.0,-0.0,-1.0,0.08294176218939095,1.0
32.90906524658203,-29.167844772338867,1.4042160511016846,-0.0,-0.0,-1.0,0.10374419888584971,2.0
33.392906188964844,-28.649341583251953,1.26784086227417,-0.0,-0.0,-1.0,0.1574745692556635,1.0
32.71227264404297,-28.97621726989746,1.6831899881362915,-0.0,-0.0,-1.0,0.18612369421507804,1.0
32.60478973388672,-29.012548446655273,1.6726582050323486,-0.0,-0.0,-1.0,0.1768790217761652,2.0
33.23744583129883,-28.622589111328125,1.7542979717254639,0.29853689701555813,-0.41527205489538604,-0.8593164967247433,0.05029994926774687,4.0
32.88222885131836,-29.12319564819336,1.672681450843811,-0.0,-0.0,-1.0,0.16463584224207944,1.0
33.269630432128906,-28.5568790435791,1.7642605304718018,-0.0,-0.0,-1.0,0.06566669666104782,2.0
31.763917922973633,-28.576478958129883,1.113807201385498,-0.0,-0.0,-1.0,0.17919572043281992,1.0
32.12120056152344,-28.927642822265625,1.065269947052002,-0.0,-0.0,-1.0,0.13987589191461236,1.0
31.977201461791992,-29.31309700012207,1.1048880815505981,0.5544368664738801,-0.5215874837608632,-0.6484953799979115,0.21320840765039922,3.0
31.74969482421875,-29.58803367614746,1.1715556383132935,0.3943422442832781,-0.8749670763900224,-0.28093915641491746,0.21368309042195768,3.0
32.581298828125,-28.948495864868164,1.0892738103866577,-0.0,-0.0,-1.0,0.12747733652201956,2.0
32.131595611572266,-29.359586715698242,1.2375810146331787,-0.0,-0.0,-1.0,0.2249924312102508,2.0
32.1151123046875,-29.655494689941406,1.1814782619476318,-0.0,-0.0,-1.0,0.08585435082656848,1.0
33.27725601196289,-28.53963851928711,1.2102348804473877,-0.0,-0.0,-1.0,0.19254346339107264,1.0
33.113311767578125,-28.82541275024414,1.1400630474090576,-0.0,-0.0,-1.0,0.20180831216776543,1.0
32.90967559814453,-29.195735931396484,1.1767714023590088,0.5775433217059741,0.22918229072672017,-0.7835299542264371,0.21738779661499302,3.0
33.68699645996094,-28.487144470214844,1.2301266193389893,-0.0,-0.0,-1.0,0.14430869137159036,2.0
33.6977653503418,-28.79044532775879,1.1605809926986694,-0.0,-0.0,-1.0,0.15600900720856486,2.0
33.4144287109375,-29.166030883789062,1.1982189416885376,-0.0,-0.0,-1.0,0.21211635956068345,2.0
33.071720123291016,-29.267576217651367,1.1666498184204102,-0.5933465949602303,-0.4855743833029148,-0.6419948103599393,0.15565800780302355,5.0
33.68800735473633,-28.90516471862793,1.1342542171478271,-0.0,-0.0,-1.0,0.15828508861512092,2.0
33.60173034667969,-29.27591323852539,1.1758971214294434,0.0758029963337449,-0.9925924050474026,-0.09494326299974552,0.17306049621356812,3.0
33.571346282958984,-29.54654312133789,1.2513002157211304,-0.0,-0.0,-1.0,0.14823738073972753,2.0
33.390777587890625,-29.939804077148438,1.172897219657898,-0.0,-0.0,-1.0,0.06521548880346666,1.0
33.302425384521484,-30.237253189086914,1.1144866943359375,-0.0,-0.0,-1.0,0.07058906547974947,1.0
31.965744018554688,-29.21259307861328,1.5142371654510498,-0.0,-0.0,-1.0,0.21623754411889087,1.0
31.781755447387695,-29.503173828125,1.4609489440917969,-0.0,-0.0,-1.0,0.21826725562187552,2.0
32.56099319458008,-28.99105453491211,1.4525312185287476,0.8392702795463842,-0.0649785244682497,-0.5398177370447023,0.13929611037605286,7.0
32.11328887939453,-29.740705490112305,1.4419901371002197,-0.0,-0.0,-1.0,0.18653687761177679,1.0
31.900861740112305,-30.300376892089844,1.6420189142227173,-0.0,-0.0,-1.0,0.21201307383132414,2.0
33.213623046875,-28.60162353515625,1.5426212549209595,0.8377410867040666,-0.2682705841410283,-0.475626707968046,0.07916370085640105,4.0
32.8150520324707,-29.117382049560547,1.4402992725372314,-0.0,-0.0,-1.0,0.18017473953806779,2.0
32.074127197265625,-30.33479118347168,1.350064754486084,-0.0,-0.0,-1.0,0.15495195528019218,1.0
33.0255126953125,-29.30567741394043,1.5418338775634766,-0.0,-0.0,-1.0,0.12431861463774387,1.0
33.335670471191406,-28.572437286376953,1.8881924152374268,0.815166981474151,0.3463609876021182,-0.4642594733353391,0.06566669666104787,4.0
32.870384216308594,-29.317487716674805,1.7893271446228027,-0.0,-0.0,-1.0,0.097119276275365,1.0
32.60231018066406,-29.441781997680664,1.7673203945159912,-0.0,-0.0,-1.0,0.05550983085822241,2.0
32.983726501464844,-29.31022834777832,1.7928098440170288,-0.0,-0.0,-1.0,0.1361361967445407,2.0
