x,y,z,nx,ny,nz,curvature,density
56.52839660644531,24.368896484375,-2.897879123687744,-0.0,-0.0,-1.0,0.02793434727773352,1.0
55.5942268371582,24.345870971679688,-2.8086133003234863,-0.0,-0.0,-1.0,0.04365302583692674,1.0
55.67573547363281,24.63686752319336,-2.7054755687713623,-0.0,-0.0,-1.0,0.11406482128338347,2.0
55.415191650390625,24.62029457092285,-2.670353889465332,-0.0,-0.0,-1.0,0.04271339466328633,1.0
56.662109375,24.474281311035156,-2.8740179538726807,-0.0,-0.0,-1.0,0.10598661033711759,2.0
55.91172409057617,25.28619956970215,-2.656432628631592,-0.0,-0.0,-1.0,0.12104004141758212,2.0
55.91119384765625,25.34906005859375,-2.569460153579712,-0.0,-0.0,-1.0,0.12104567880171067,1.0
56.12306594848633,23.457080841064453,-2.58366060256958,-0.0,-0.0,-1.0,0.145639879516699,2.0
55.55608367919922,24.737924575805664,-2.6802940368652344,0.239054973403912,-0.5307358002212484,-0.8131249781272039,0.11217199701919311,3.0
56.39747619628906,24.63416862487793,-2.9841604232788086,-0.0,-0.0,-1.0,0.027296024021760592,2.0
56.04661560058594,24.73248291015625,-2.92092227935791,-0.0,-0.0,-1.0,0.04664136102397173,1.0
56.15208435058594,23.469158172607422,-2.696312427520752,-0.0,-0.0,-1.0,0.2069257952975453,1.0
56.01536560058594,25.41122055053711,-2.524761199951172,-0.7328703231663289,0.3736954639894068,-0.5685532425514983,0.18325850577911826,3.0
56.22711181640625,23.611282348632812,-2.872147560119629,-0.0,-0.0,-1.0,0.16268904992257727,1.0
55.53741455078125,24.04450798034668,-2.794487953186035,-0.0,-0.0,-1.0,0.04905871605389282,1.0
57.1217155456543,25.40438461303711,-2.9803638458251953,-0.0,-0.0,-1.0,0.04016290124762939,1.0
55.52818298339844,24.737773895263672,-2.6883983612060547,0.239054973403912,-0.5307358002212484,-0.8131249781272039,0.067394833804602,3.0
57.57011032104492,24.464569091796875,-2.900583028793335,-0.0,-0.0,-1.0,0.06066066337416995,1.0
55.63975143432617,24.66969108581543,-2.7255442142486572,0.5621697540408952,-0.41818717652213006,-0.7135016839742204,0.12543005094070173,3.0
55.55567932128906,24.33806610107422,-2.865114688873291,-0.0,-0.0,-1.0,0.050637315327931226,2.0
56.21760559082031,25.38128662109375,-2.559950351715088,-0.0,-0.0,-1.0,0.19224585223049995,1.0
55.994598388671875,25.301563262939453,-2.4683587551116943,-0.0,-0.0,-1.0,0.15667515693642592,1.0
56.612613677978516,25.19289207458496,-2.9806180000305176,-0.0,-0.0,-1.0,0.029660455669602383,1.0
56.576507568359375,24.86983871459961,-2.8604884147644043,-0.0,-0.0,-1.0,0.04550863669924824,2.0
56.495384216308594,24.665971755981445,-2.962963104248047,-0.0,-0.0,-1.0,0.11005330320422961,1.0
55.26510238647461,24.517192840576172,-2.721602439880371,-0.0,-0.0,-1.0,0.07629397212126911,2.0
55.981849670410156,25.29898452758789,-2.691676616668701,-0.0,-0.0,-1.0,0.11437894325536349,1.0
56.029537200927734,25.446063995361328,-2.5201268196105957,-0.7328703231663289,0.3736954639894068,-0.5685532425514983,0.17220552241929404,3.0
55.91453552246094,25.392105102539062,-2.649641513824463,-0.0,-0.0,-1.0,0.18235015111880784,1.0
55.33409118652344,24.608654022216797,-2.6855549812316895,-0.0,-0.0,-1.0,0.10225834521463241,1.0
55.66790771484375,24.59994888305664,-2.672316551208496,-0.0,-0.0,-1.0,0.09361892220973839,1.0
55.265869140625,24.304058074951172,-2.923287868499756,-0.0,-0.0,-1.0,0.03817720860234684,1.0
55.28622817993164,25.402751922607422,-3.045435905456543,-0.0,-0.0,-1.0,0.1795800936281483,1.0
55.33428955078125,25.46973419189453,-3.181626796722412,-0.0,-0.0,-1.0,0.17277966808753709,1.0
56.18951416015625,23.25994300842285,-2.663623332977295,-0.0,-0.0,-1.0,0.2517947840927933,1.0
55.5706787109375,24.591245651245117,-2.7028164863586426,-0.0,-0.0,-1.0,0.06915840323537484,1.0
56.66094207763672,24.68724822998047,-3.2043867111206055,-0.0,-0.0,-1.0,0.10087862575727174,1.0
56.259578704833984,24.134613037109375,-3.0339510440826416,-0.0,-0.0,-1.0,0.04637675082446563,1.0
55.35015869140625,23.92424774169922,-2.9222514629364014,-0.0,-0.0,-1.0,0.0329432690835841,1.0
55.39312744140625,25.122663497924805,-2.95746111869812,-0.0,-0.0,-1.0,0.16641630015992992,1.0
56.133541107177734,23.391170501708984,-2.619565486907959,-0.0,-0.0,-1.0,0.18034952062166412,1.0
57.26228332519531,23.787939071655273,-2.98640775680542,-0.0,-0.0,-1.0,0.030171093298736396,1.0
56.39638137817383,23.584135055541992,-2.8859376907348633,-0.0,-0.0,-1.0,0.17163293336437138,1.0
56.82245635986328,24.20174217224121,-2.9425063133239746,-0.0,-0.0,-1.0,0.03106562711988036,1.0
56.14946365356445,23.455013275146484,-2.8564138412475586,-0.0,-0.0,-1.0,0.18155985851255488,1.0
56.32574462890625,24.107139587402344,-2.885040760040283,-0.0,-0.0,-1.0,0.04832766568300456,2.0
55.760074615478516,25.376070022583008,-2.840146064758301,-0.0,-0.0,-1.0,0.07160867877300252,1.0
55.24979019165039,24.929916381835938,-2.7753868103027344,-0.0,-0.0,-1.0,0.08612884448002621,1.0
57.68263244628906,24.244138717651367,-2.932810068130493,-0.0,-0.0,-1.0,0.0954542625120173,1.0
55.31201934814453,23.645723342895508,-2.683851480484009,-0.0,-0.0,-1.0,0.036588263787085296,1.0
55.59125518798828,23.8341121673584,-2.7109663486480713,-0.0,-0.0,-1.0,0.057056447904693254,1.0
55.84190368652344,23.948097229003906,-2.7363579273223877,-0.0,-0.0,-1.0,0.03859184416064122,1.0
56.30040740966797,24.101526260375977,-2.7838704586029053,-0.0,-0.0,-1.0,0.0997907316317404,1.0
55.8819580078125,25.252628326416016,-2.7196362018585205,-0.0,-0.0,-1.0,0.11891048026478859,1.0
56.36125946044922,23.621484756469727,-2.500375270843506,-0.0,-0.0,-1.0,0.1664141328172222,1.0
56.19366455078125,23.52584457397461,-2.4893341064453125,-0.0,-0.0,-1.0,0.28264879376185903,2.0
56.160186767578125,23.448440551757812,-2.5401532649993896,-0.0,-0.0,-1.0,0.1416669192598903,2.0
56.18056106567383,23.216262817382812,-2.792296886444092,-0.0,-0.0,-1.0,0.13431067415717318,1.0
56.473602294921875,23.392759323120117,-2.824012279510498,-0.0,-0.0,-1.0,0.1798146144097341,2.0
56.86188507080078,23.868175506591797,-2.8630433082580566,-0.0,-0.0,-1.0,0.03988295859613272,1.0
56.51932907104492,24.639209747314453,-2.8134875297546387,-0.0,-0.0,-1.0,0.046716541623317925,1.0
57.28697204589844,23.468381881713867,-2.9180378913879395,-0.0,-0.0,-1.0,0.09115494260252588,2.0
57.45433044433594,24.314157485961914,-2.926915168762207,-0.0,-0.0,-1.0,0.0636119970366611,2.0
56.21057891845703,23.3393497467041,-2.5544192790985107,-0.0,-0.0,-1.0,0.15418546457949786,1.0
56.187294006347656,23.385454177856445,-2.6032679080963135,-0.0,-0.0,-1.0,0.1643990006967728,2.0
56.20003128051758,23.643863677978516,-2.4321913719177246,-0.0,-0.0,-1.0,0.23749767925264945,1.0
56.34690856933594,23.360261917114258,-2.824312686920166,-0.0,-0.0,-1.0,0.252788035135477,1.0
55.45104217529297,24.088436126708984,-2.7788004875183105,-0.0,-0.0,-1.0,0.03317471023989126,1.0
55.43037414550781,24.51567840576172,-2.817610263824463,-0.0,-0.0,-1.0,0.027163457305243405,1.0
56.28717041015625,24.127857208251953,-2.889763355255127,-0.0,-0.0,-1.0,0.04832766568300456,2.0
56.26445770263672,24.450693130493164,-2.918034553527832,-0.0,-0.0,-1.0,0.02754197324707675,2.0
55.37775421142578,25.334840774536133,-2.8915843963623047,-0.0,-0.0,-1.0,0.15515526652623557,1.0
55.429466247558594,25.541015625,-2.918735980987549,-0.0,-0.0,-1.0,0.21349988279596432,1.0
56.11931610107422,25.43115234375,-2.611227035522461,-0.0,-0.0,-1.0,0.15241738867588023,2.0
56.230552673339844,23.35336685180664,-2.401806354522705,-0.0,-0.0,-1.0,0.23413839185018187,2.0
57.602088928222656,23.179054260253906,-2.932163715362549,-0.0,-0.0,-1.0,0.11167833434301691,2.0
57.60192108154297,23.497983932495117,-2.9605021476745605,-0.0,-0.0,-1.0,0.13812227512158765,2.0
57.65765380859375,23.292556762695312,-2.949995517730713,-0.0,-0.0,-1.0,0.13820698128857492,1.0
57.57014465332031,23.90800666809082,-2.993089199066162,-0.0,-0.0,-1.0,0.08834524042322338,1.0
56.180030822753906,23.393646240234375,-2.7522354125976562,-0.0,-0.0,-1.0,0.20004789292517391,2.0
57.028297424316406,24.031436920166016,-2.928863048553467,-0.0,-0.0,-1.0,0.052689371458667776,2.0
55.423484802246094,24.54568099975586,-2.7546210289001465,-0.0,-0.0,-1.0,0.04048877183066517,2.0
56.857818603515625,24.460262298583984,-2.9451045989990234,-0.0,-0.0,-1.0,0.05749140427715421,1.0
56.94877624511719,24.27533721923828,-2.940426826477051,-0.0,-0.0,-1.0,0.04072338855399675,1.0
56.677513122558594,24.668212890625,-2.939812183380127,0.46819269560330745,-0.5567082935024054,-0.6862007546843332,0.11884532555978532,3.0
55.6787109375,25.239910125732422,-2.8573946952819824,-0.0,-0.0,-1.0,0.07386504712245982,1.0
55.74365234375,25.111303329467773,-2.853682518005371,-0.0,-0.0,-1.0,0.10185380783161595,1.0
56.334800720214844,25.56729507446289,-2.9798336029052734,-0.0,-0.0,-1.0,0.13368570575095526,1.0
57.656394958496094,23.65816879272461,-2.6680190563201904,-0.0,-0.0,-1.0,0.13033218210826075,1.0
56.27722930908203,23.402122497558594,-2.47672438621521,-0.0,-0.0,-1.0,0.15059655686658313,1.0
56.26155090332031,23.375442504882812,-2.5466842651367188,-0.0,-0.0,-1.0,0.14459277021026104,2.0
56.35807800292969,23.403974533081055,-2.322763442993164,-0.0,-0.0,-1.0,0.10687051025916125,1.0
56.19196701049805,25.439037322998047,-2.486382484436035,-0.0,-0.0,-1.0,0.17465577827645917,1.0
56.29108428955078,23.338253021240234,-2.753998279571533,-0.0,-0.0,-1.0,0.19599788151545042,2.0
57.585906982421875,23.181676864624023,-2.9381728172302246,-0.0,-0.0,-1.0,0.11167833434301694,2.0
56.22663116455078,23.444753646850586,-2.7549872398376465,-0.0,-0.0,-1.0,0.16049887039419294,1.0
57.55160903930664,23.52337646484375,-2.9670987129211426,-0.0,-0.0,-1.0,0.12293975684004223,1.0
56.965415954589844,24.08159828186035,-2.9343323707580566,-0.0,-0.0,-1.0,0.05263400193643298,1.0
57.01551055908203,24.010103225708008,-2.9345507621765137,-0.0,-0.0,-1.0,0.05268937145866776,2.0
57.423675537109375,24.01338005065918,-2.9975051879882812,-0.0,-0.0,-1.0,0.04942876032341974,1.0
56.50825119018555,24.445205688476562,-2.9029555320739746,-0.0,-0.0,-1.0,0.026950522179636904,1.0
56.894561767578125,24.278837203979492,-2.9442505836486816,-0.0,-0.0,-1.0,0.03375535771756794,1.0
56.9969482421875,24.3149471282959,-2.9636688232421875,-0.0,-0.0,-1.0,0.027414051542500584,1.0
56.183013916015625,24.7630615234375,-2.8878631591796875,-0.0,-0.0,-1.0,0.04101132832550722,1.0
56.463111877441406,24.78234100341797,-2.9324240684509277,-0.0,-0.0,-1.0,0.04044890814370225,1.0
56.67609405517578,24.68478012084961,-2.954221248626709,0.46819269560330745,-0.5567082935024054,-0.6862007546843332,0.12435928382785896,3.0
55.74383544921875,25.25122833251953,-2.875521183013916,-0.0,-0.0,-1.0,0.07431716830281809,1.0
55.45970916748047,24.568628311157227,-2.7570948600769043,-0.314284472338304,0.4034875343765299,-0.8593154717854108,0.04276540022678967,3.0
56.308746337890625,23.191020965576172,-2.824955940246582,-0.0,-0.0,-1.0,0.1742771952637579,2.0
56.20390319824219,23.548236846923828,-2.845627784729004,-0.0,-0.0,-1.0,0.24641239430543338,1.0
55.412532806396484,23.983285903930664,-2.763941764831543,-0.0,-0.0,-1.0,0.032943269083584095,1.0
55.47340393066406,24.334341049194336,-2.8129048347473145,-0.0,-0.0,-1.0,0.04628277943924757,2.0
56.19839859008789,24.457271575927734,-2.9440860748291016,-0.0,-0.0,-1.0,0.025330295042239163,1.0
55.296993255615234,25.332592010498047,-2.8990774154663086,-0.0,-0.0,-1.0,0.1609533269472927,1.0
55.275245666503906,25.574222564697266,-2.92410945892334,-0.0,-0.0,-1.0,0.21640489254726733,1.0
56.404212951660156,23.222747802734375,-2.7944674491882324,-0.0,-0.0,-1.0,0.15965664859969683,1.0
56.58024597167969,23.23824691772461,-2.8254151344299316,-0.0,-0.0,-1.0,0.21653335905390828,1.0
56.27421951293945,23.55714225769043,-2.8156280517578125,-0.0,-0.0,-1.0,0.17711875789319065,1.0
56.326934814453125,24.167491912841797,-2.9036917686462402,-0.0,-0.0,-1.0,0.04832766568300454,1.0
55.28779602050781,24.444108963012695,-2.7726144790649414,-0.0,-0.0,-1.0,0.027358036896020187,1.0
55.55438232421875,24.40696144104004,-2.8104796409606934,-0.0,-0.0,-1.0,0.06193150084750434,1.0
56.28618621826172,24.394145965576172,-2.9272408485412598,-0.0,-0.0,-1.0,0.048480546271023446,2.0
55.344810485839844,25.261091232299805,-2.895824432373047,-0.0,-0.0,-1.0,0.18006075533320143,1.0
55.34303665161133,25.585094451904297,-2.941967487335205,-0.0,-0.0,-1.0,0.2558544829816744,1.0
55.929481506347656,25.33907699584961,-2.6410200595855713,-0.0,-0.0,-1.0,0.10970058023645672,1.0
56.10649871826172,25.26721954345703,-2.6579389572143555,-0.0,-0.0,-1.0,0.11761607415048891,2.0
56.22834014892578,23.323135375976562,-2.4242987632751465,0.8046487176145071,-0.39120313673586504,0.4466548410678535,0.2615075797684101,3.0
57.60472106933594,24.119068145751953,-2.9748194217681885,-0.0,-0.0,-1.0,0.09621126180816274,1.0
56.206138610839844,23.390682220458984,-2.636070966720581,-0.3588649272003162,-0.8675191404653854,-0.34442198674258717,0.14002991367353687,3.0
56.35053253173828,23.342281341552734,-2.655641555786133,-0.0,-0.0,-1.0,0.12294197030658985,1.0
57.0794792175293,24.12646484375,-2.8831355571746826,-0.0,-0.0,-1.0,0.05086495313036963,1.0
55.36815643310547,24.664138793945312,-2.656257152557373,-0.0,-0.0,-1.0,0.10776388865655995,2.0
55.539024353027344,24.64228057861328,-2.6826579570770264,-0.0,-0.0,-1.0,0.06178754992285021,2.0
55.921363830566406,24.684223175048828,-2.754246950149536,-0.0,-0.0,-1.0,0.07095834306812572,1.0
56.951255798339844,24.48682403564453,-2.9070804119110107,-0.0,-0.0,-1.0,0.09660395491513481,2.0
57.0593147277832,24.308326721191406,-2.902858018875122,-0.0,-0.0,-1.0,0.06409911203939453,2.0
55.35938262939453,24.916622161865234,-2.689514398574829,-0.0,-0.0,-1.0,0.08214426033068045,1.0
56.57563018798828,24.85202407836914,-2.8899104595184326,-0.5248252320465397,-0.8462389418805177,0.0918592894172255,0.045508636699248234,4.0
56.769432067871094,24.71095085144043,-2.904771566390991,-0.0,-0.0,-1.0,0.08184495768079175,1.0
55.839141845703125,25.24315643310547,-2.816589117050171,0.5052399394942533,0.8535134377049549,-0.12746534900479106,0.10676954385806615,3.0
55.94636535644531,25.146394729614258,-2.821532964706421,-0.0,-0.0,-1.0,0.11583124527289843,1.0
56.31452941894531,25.415809631347656,-2.9216763973236084,-0.0,-0.0,-1.0,0.1284449329005626,1.0
56.26367950439453,23.367582321166992,-2.650114059448242,0.6731920760344485,-0.7392817026846736,0.01658290807062379,0.16172251527496218,3.0
57.63916015625,23.200992584228516,-2.8837215900421143,-0.0,-0.0,-1.0,0.11167833434301697,1.0
56.17463684082031,23.466480255126953,-2.6469109058380127,-0.0,-0.0,-1.0,0.18281160908258817,1.0
57.61292266845703,23.611345291137695,-2.9318716526031494,-0.0,-0.0,-1.0,0.13065571180208987,1.0
57.04079055786133,24.06989860534668,-2.887404203414917,-0.0,-0.0,-1.0,0.05268937145866776,1.0
57.5565071105957,23.96734619140625,-2.9685299396514893,-0.0,-0.0,-1.0,0.07927172717783144,1.0
55.29944610595703,24.627742767333984,-2.6507861614227295,-0.0,-0.0,-1.0,0.09856719517474799,1.0
55.6295051574707,24.629362106323242,-2.7099802494049072,0.20954504622171263,-0.3835077007432868,-0.8994513422495616,0.10703004592300751,4.0
56.83534240722656,24.508792877197266,-2.910297155380249,-0.0,-0.0,-1.0,0.11546117673278099,1.0
57.023353576660156,24.31826400756836,-2.918142557144165,-0.0,-0.0,-1.0,0.044188380780300796,2.0
56.31745910644531,24.81250762939453,-2.859666585922241,-0.0,-0.0,-1.0,0.03149561244469787,2.0
56.69713592529297,24.748929977416992,-2.918994188308716,-0.0,-0.0,-1.0,0.1314527475110192,2.0
55.31699752807617,25.20234489440918,-2.7387287616729736,-0.0,-0.0,-1.0,0.19426147775000485,1.0
55.43516540527344,25.132680892944336,-2.749183416366577,-0.0,-0.0,-1.0,0.19213367496378073,1.0
55.82787322998047,25.246990203857422,-2.8355839252471924,-0.0,-0.0,-1.0,0.10042562949841934,2.0
55.21156311035156,24.72005844116211,-2.648648738861084,-0.0,-0.0,-1.0,0.11262528232954311,1.0
57.01699447631836,24.60263442993164,-2.7675933837890625,-0.0,-0.0,-1.0,0.17737978982575658,1.0
57.405921936035156,24.876285552978516,-2.876518726348877,-0.0,-0.0,-1.0,0.053879437043612866,1.0
56.04608917236328,25.35289192199707,-2.699284553527832,-0.0,-0.0,-1.0,0.11756494467194264,2.0
56.24878692626953,23.33087921142578,-2.4543511867523193,-0.28484224798103813,-0.8634611769071199,-0.4162927932829017,0.22299809298118722,3.0
57.450584411621094,24.944915771484375,-2.898315906524658,-0.0,-0.0,-1.0,0.05149239864916189,1.0
56.392391204833984,23.463794708251953,-2.4881772994995117,-0.0,-0.0,-1.0,0.20228264094805853,1.0
56.8929328918457,24.559825897216797,-2.736672878265381,-0.0,-0.0,-1.0,0.1796851499863058,2.0
56.15263366699219,25.334117889404297,-2.708681106567383,-0.0,-0.0,-1.0,0.11023665749806581,1.0
56.096214294433594,23.395484924316406,-2.8678886890411377,-0.0,-0.0,-1.0,0.1604201787399771,1.0
55.357330322265625,23.973663330078125,-2.7927563190460205,-0.0,-0.0,-1.0,0.0329432690835841,1.0
55.931148529052734,23.683080673217773,-2.875795602798462,-0.0,-0.0,-1.0,0.08258581039153655,1.0
55.40271759033203,24.248214721679688,-2.8496696949005127,-0.0,-0.0,-1.0,0.0465628495783618,1.0
57.58474349975586,23.656757354736328,-2.6513853073120117,-0.0,-0.0,-1.0,0.13389404100514563,1.0
56.81420135498047,24.5313663482666,-2.620929718017578,-0.0,-0.0,-1.0,0.1856477762413588,1.0
56.08795166015625,25.40569305419922,-2.6119296550750732,-0.6263136443381438,0.7678703208661194,0.13455998383188017,0.12307956749859766,3.0
56.227081298828125,25.434459686279297,-2.642932891845703,-0.0,-0.0,-1.0,0.14762782975376498,1.0
57.58690643310547,23.52983283996582,-2.931783676147461,-0.0,-0.0,-1.0,0.13812227512158765,2.0
57.6739387512207,23.366283416748047,-2.9263839721679688,-0.0,-0.0,-1.0,0.13820698128857498,1.0
57.547489166259766,23.799312591552734,-2.965632915496826,-0.0,-0.0,-1.0,0.12160361430051089,1.0
57.00343322753906,24.236494064331055,-2.9133548736572266,-0.0,-0.0,-1.0,0.04636221348519458,2.0
55.863670349121094,24.746171951293945,-2.748643398284912,-0.0,-0.0,-1.0,0.0788173819689576,1.0
56.3201904296875,24.850440979003906,-2.867154121398926,0.3641392442278524,-0.03173749911863705,-0.9308036001020102,0.031495612444697875,4.0
56.712074279785156,24.67693328857422,-2.9233059883117676,0.46819269560330745,-0.5567082935024054,-0.6862007546843332,0.08114824969964383,3.0
56.914390563964844,24.493671417236328,-2.9368276596069336,-0.0,-0.0,-1.0,0.054157798367517204,2.0
55.422000885009766,25.199369430541992,-2.7364501953125,-0.0,-0.0,-1.0,0.151874954254941,1.0
55.86014938354492,25.15436363220215,-2.8219432830810547,-0.0,-0.0,-1.0,0.10094245763469623,1.0
56.300357818603516,24.880937576293945,-2.868257522583008,0.2765549113228074,0.14548050439581964,-0.9499225251903295,0.028932970258706062,3.0
56.56819534301758,24.86578369140625,-2.924436569213867,-0.4752670798285258,-0.8477378527262679,-0.23550315472689998,0.045508636699248234,3.0
55.488975524902344,25.382465362548828,-2.7848992347717285,-0.0,-0.0,-1.0,0.14275607327208578,1.0
55.9097900390625,25.32061195373535,-2.8631811141967773,-0.0,-0.0,-1.0,0.12763379551372336,1.0
56.1124382019043,25.546985626220703,-2.9484000205993652,-0.0,-0.0,-1.0,0.18041157570915717,1.0
56.26542282104492,23.37025260925293,-2.6018409729003906,0.7669754617659685,-0.6384690652475978,0.0640772484641629,0.12627652558512617,4.0
55.55026626586914,24.731708526611328,-2.6779470443725586,0.239054973403912,-0.5307358002212484,-0.8131249781272039,0.1121719970191931,3.0
55.33299255371094,25.125930786132812,-2.70379376411438,-0.0,-0.0,-1.0,0.15338086039478105,2.0
56.44432830810547,23.36884307861328,-2.1195459365844727,-0.0,-0.0,-1.0,0.13640175557563897,1.0
56.98162078857422,23.612380981445312,-2.9292683601379395,-0.0,-0.0,-1.0,0.016457553592309604,1.0
57.161415100097656,23.378828048706055,-2.9317331314086914,-0.0,-0.0,-1.0,0.05083832678145203,1.0
56.65510559082031,24.038904190063477,-2.929098606109619,-0.0,-0.0,-1.0,0.031943632154256246,1.0
56.75678253173828,23.990257263183594,-2.9447202682495117,-0.0,-0.0,-1.0,0.04106426270376145,1.0
56.27965545654297,24.426376342773438,-2.914246082305908,0.7395754655315886,0.3751652885641237,-0.5588194136215489,0.04436292707881856,3.0
56.452171325683594,24.192882537841797,-2.909574508666992,-0.0,-0.0,-1.0,0.043133454606790536,2.0
56.19752883911133,24.696327209472656,-2.9492197036743164,-0.0,-0.0,-1.0,0.03490547251072714,1.0
56.3723258972168,24.61663055419922,-2.974642276763916,-0.0,-0.0,-1.0,0.028675676642630953,2.0
55.58453369140625,25.289445877075195,-2.9308362007141113,-0.0,-0.0,-1.0,0.057552760214554875,1.0
55.44700622558594,25.59309196472168,-2.965639114379883,-0.0,-0.0,-1.0,0.21195471865744356,1.0
56.16347122192383,23.39399528503418,-2.684882164001465,0.19138865104166458,0.3190737117024047,-0.9282038303912039,0.14859462961038217,3.0
56.33979034423828,23.343591690063477,-2.719181537628174,-0.0,-0.0,-1.0,0.18236522439440406,2.0
56.436363220214844,24.00476837158203,-2.8690223693847656,-0.0,-0.0,-1.0,0.04628919390417827,1.0
56.2825813293457,24.33978271484375,-2.8976616859436035,-0.0,-0.0,-1.0,0.036410926081821116,1.0
56.39018249511719,24.222692489624023,-2.9004578590393066,-0.0,-0.0,-1.0,0.04288314725877059,1.0
55.27668380737305,24.590595245361328,-2.711587905883789,-0.0,-0.0,-1.0,0.08599406460209243,2.0
55.719112396240234,24.625219345092773,-2.821847438812256,-0.0,-0.0,-1.0,0.11967545851505348,2.0
55.509525299072266,25.287525177001953,-2.913355827331543,-0.0,-0.0,-1.0,0.11848398538025742,1.0
55.46731185913086,25.350109100341797,-2.917295455932617,0.7928631631105578,0.4962767931811904,-0.353662761868019,0.1402191424195864,3.0
56.76641082763672,24.486644744873047,-2.512411594390869,-0.0,-0.0,-1.0,0.17268488991925562,1.0
56.088890075683594,25.40857696533203,-2.5390820503234863,-0.0,-0.0,-1.0,0.16986562948870082,2.0
56.33120346069336,23.23392105102539,-2.816310405731201,-0.0,-0.0,-1.0,0.17427719526375787,2.0
56.1119384765625,23.631303787231445,-2.846494197845459,-0.0,-0.0,-1.0,0.18696594019031812,1.0
56.20931625366211,23.473642349243164,-2.836526870727539,-0.0,-0.0,-1.0,0.1966863721630568,1.0
55.66477584838867,24.117996215820312,-2.8443756103515625,-0.0,-0.0,-1.0,0.054059592443647886,1.0
56.021827697753906,24.0018310546875,-2.9083547592163086,-0.0,-0.0,-1.0,0.05476979406912943,1.0
55.246639251708984,24.409656524658203,-2.810783863067627,-0.0,-0.0,-1.0,0.044090520323575216,1.0
55.55055236816406,24.311283111572266,-2.8620452880859375,-0.0,-0.0,-1.0,0.052888244211503364,2.0
57.70016860961914,24.388412475585938,-2.903841018676758,-0.0,-0.0,-1.0,0.06134674885097339,1.0
57.44416046142578,25.157583236694336,-3.0011777877807617,-0.0,-0.0,-1.0,0.053293004522388734,1.0
57.68974304199219,25.05431365966797,-3.036099433898926,-0.0,-0.0,-1.0,0.0449935850765432,1.0
57.24583435058594,25.43640899658203,-3.0151777267456055,-0.0,-0.0,-1.0,0.04540881210044506,1.0
56.426815032958984,23.285070419311523,-2.3846044540405273,-0.0,-0.0,-1.0,0.07879962820658741,1.0
56.89747619628906,24.593551635742188,-2.758772373199463,-0.0,-0.0,-1.0,0.17192984515377804,2.0
55.347999572753906,25.301490783691406,-2.5718443393707275,-0.0,-0.0,-1.0,0.13228495344167088,1.0
56.048439025878906,25.345355987548828,-2.731236457824707,-0.0,-0.0,-1.0,0.13487894365607303,2.0
56.47043991088867,25.289594650268555,-2.8109803199768066,-0.0,-0.0,-1.0,0.07268798576070255,1.0
56.046356201171875,23.428855895996094,-2.323582410812378,-0.0,-0.0,-1.0,0.22991413385515672,1.0
56.53350067138672,23.251333236694336,-2.1001758575439453,-0.0,-0.0,-1.0,0.1568143589045977,1.0
55.433433532714844,24.748023986816406,-2.6818718910217285,-0.0,-0.0,-1.0,0.11503146303395965,1.0
57.072265625,25.239397048950195,-3.0253212451934814,-0.0,-0.0,-1.0,0.04079582678343727,1.0
56.04254913330078,25.085308074951172,-2.8719804286956787,-0.0,-0.0,-1.0,0.13894705158557857,1.0
57.6141471862793,25.021875381469727,-3.0390655994415283,-0.0,-0.0,-1.0,0.0496272426249775,1.0
57.34202575683594,25.066638946533203,-3.015922784805298,-0.0,-0.0,-1.0,0.05329300452238887,2.0
56.49289321899414,24.937454223632812,-2.884411096572876,-0.4924358719317457,-0.8144651385975766,0.30684434171750913,0.033612456682580547,3.0
56.19179153442383,24.964513778686523,-2.8577115535736084,-0.0,-0.0,-1.0,0.07191032694979825,1.0
55.71916961669922,24.715621948242188,-2.7452919483184814,-0.0,-0.0,-1.0,0.13338681746589032,1.0
57.54613494873047,24.576717376708984,-2.924118757247925,-0.0,-0.0,-1.0,0.05228898678691914,1.0
57.561641693115234,23.76559066772461,-2.734894037246704,-0.0,-0.0,-1.0,0.1293954196830339,1.0
55.58112716674805,24.66710090637207,-2.7189066410064697,-0.0,-0.0,-1.0,0.11802177493523164,2.0
55.3856201171875,24.67192840576172,-2.7006146907806396,-0.0,-0.0,-1.0,0.11062752769723644,2.0
56.24004364013672,23.4360294342041,-2.4868273735046387,-0.0,-0.0,-1.0,0.18682636583697107,1.0
55.93585968017578,23.450258255004883,-2.454349994659424,-0.0,-0.0,-1.0,0.23671520809744648,1.0
56.059207916259766,23.20983123779297,-2.410114049911499,-0.0,-0.0,-1.0,0.23395666040503987,1.0
56.061370849609375,24.55492401123047,-2.9849443435668945,-0.0,-0.0,-1.0,0.04589933471989455,1.0
55.814754486083984,24.546016693115234,-2.950423240661621,-0.0,-0.0,-1.0,0.0801210806128352,1.0
56.86333465576172,23.941003799438477,-2.947417736053467,-0.0,-0.0,-1.0,0.04641462948710566,1.0
56.28584671020508,24.204483032226562,-2.928757667541504,-0.0,-0.0,-1.0,0.04832766568300457,1.0
56.205039978027344,24.328155517578125,-2.948082447052002,-0.0,-0.0,-1.0,0.033809389956376314,1.0
55.66384506225586,24.431209564208984,-2.9022774696350098,-0.0,-0.0,-1.0,0.085129809130285,1.0
57.45948791503906,23.64468765258789,-2.968358039855957,-0.0,-0.0,-1.0,0.13700214060090327,1.0
57.12259292602539,23.810501098632812,-2.9552297592163086,-0.0,-0.0,-1.0,0.0208398192869098,1.0
56.93512725830078,23.86461067199707,-2.9398279190063477,-0.0,-0.0,-1.0,0.045527422471406016,1.0
57.57964324951172,23.32962989807129,-2.9147233963012695,-0.0,-0.0,-1.0,0.11167833434301691,1.0
56.303592681884766,23.97806739807129,-2.875859260559082,-0.0,-0.0,-1.0,0.031894711210266866,1.0
55.49012756347656,24.324539184570312,-2.8534164428710938,-0.0,-0.0,-1.0,0.04628277943924758,2.0
55.270790100097656,24.360544204711914,-2.8353309631347656,-0.0,-0.0,-1.0,0.05110589290291147,1.0
56.326045989990234,23.91967010498047,-2.8647823333740234,-0.0,-0.0,-1.0,0.04686088836244803,1.0
56.328025817871094,23.340734481811523,-2.724989891052246,0.42004091798298254,-0.7772680451095277,-0.4684229000290512,0.18687971892438385,3.0
56.10538101196289,23.362125396728516,-2.6980772018432617,-0.0,-0.0,-1.0,0.17683387766804753,1.0
56.361087799072266,23.389238357543945,-2.2047009468078613,-0.0,-0.0,-1.0,0.1364017555756391,1.0
55.95903015136719,25.42245864868164,-2.6164987087249756,-0.0,-0.0,-1.0,0.14192729427634998,2.0
56.1710205078125,25.41265106201172,-2.560145378112793,-0.0,-0.0,-1.0,0.19224585223049995,1.0
56.019309997558594,25.244354248046875,-2.6540069580078125,-0.0,-0.0,-1.0,0.1333116297950368,1.0
55.81195831298828,25.589757919311523,-2.7107532024383545,-0.0,-0.0,-1.0,0.08903202848821093,1.0
55.72594451904297,25.608745574951172,-2.7062056064605713,-0.0,-0.0,-1.0,0.06476232003251527,1.0
55.456756591796875,25.26034927368164,-2.598147392272949,-0.0,-0.0,-1.0,0.1789334615412682,1.0
55.32603073120117,25.468612670898438,-2.6333258152008057,-0.0,-0.0,-1.0,0.22145515255534043,1.0
56.52692413330078,23.315170288085938,-2.2916195392608643,-0.0,-0.0,-1.0,0.09092214441271236,1.0
56.09797286987305,25.349651336669922,-2.4909017086029053,-0.0,-0.0,-1.0,0.1868914954368201,1.0
56.41817855834961,23.288318634033203,-2.1367270946502686,-0.0,-0.0,-1.0,0.15776720676009878,2.0
57.3675537109375,25.297828674316406,-3.164360523223877,-0.0,-0.0,-1.0,0.05144688855674668,1.0
57.123512268066406,25.442943572998047,-3.131443500518799,-0.0,-0.0,-1.0,0.042829304258175833,1.0
57.59796142578125,24.856124877929688,-3.1528186798095703,-0.0,-0.0,-1.0,0.04819714528230849,1.0
57.27192306518555,24.978853225708008,-3.0958895683288574,-0.0,-0.0,-1.0,0.05480629565486997,1.0
57.140865325927734,25.35098648071289,-3.1214356422424316,-0.0,-0.0,-1.0,0.04472710645890592,1.0
56.428897857666016,25.23895835876465,-2.947570323944092,-0.0,-0.0,-1.0,0.06438568457366524,1.0
57.639892578125,24.523590087890625,-3.1157026290893555,-0.0,-0.0,-1.0,0.05528051306745763,1.0
56.484840393066406,25.174293518066406,-2.9497933387756348,-0.0,-0.0,-1.0,0.03970078920632533,1.0
57.63691711425781,24.152786254882812,-3.0637574195861816,-0.0,-0.0,-1.0,0.09736123765200329,1.0
56.21582794189453,25.340839385986328,-2.91743803024292,-0.0,-0.0,-1.0,0.19647656626438406,1.0
56.79838562011719,24.79732894897461,-2.9622230529785156,-0.0,-0.0,-1.0,0.06733938481163507,1.0
56.52589797973633,25.005491256713867,-2.9329566955566406,-0.0,-0.0,-1.0,0.04149440586433142,1.0
56.04723358154297,25.224773406982422,-2.863064765930176,-0.0,-0.0,-1.0,0.12339395572324667,1.0
55.94435119628906,25.27385711669922,-2.8489274978637695,-0.0,-0.0,-1.0,0.1517595024395131,1.0
55.587730407714844,25.358802795410156,-2.7875900268554688,-0.0,-0.0,-1.0,0.11630416151662855,1.0
57.681331634521484,23.92009925842285,-3.0427989959716797,-0.0,-0.0,-1.0,0.0817109640442687,1.0
56.27708435058594,23.380069732666016,-2.6375904083251953,0.6731920760344485,-0.7392817026846736,0.01658290807062379,0.14848485240045137,3.0
55.979270935058594,23.37022590637207,-2.567561149597168,-0.0,-0.0,-1.0,0.16110832566276448,1.0
56.05914306640625,25.477920532226562,-2.4748454093933105,-0.0,-0.0,-1.0,0.16986562948870096,1.0
57.65717697143555,25.029552459716797,-3.0722031593322754,-0.0,-0.0,-1.0,0.044993585076543205,1.0
57.328758239746094,25.106794357299805,-3.0263466835021973,-0.0,-0.0,-1.0,0.05304847938801582,2.0
56.38312530517578,25.45281982421875,-2.9197511672973633,-0.0,-0.0,-1.0,0.13354361414274132,1.0
56.16215133666992,25.379762649536133,-2.871462345123291,-0.0,-0.0,-1.0,0.146948611756112,1.0
57.657142639160156,24.62653350830078,-3.013288974761963,-0.0,-0.0,-1.0,0.05095846584268041,1.0
57.25543212890625,24.761474609375,-2.961930751800537,-0.0,-0.0,-1.0,0.031035633183758623,1.0
56.71771240234375,24.827655792236328,-2.8782644271850586,-0.0,-0.0,-1.0,0.052965922740335916,2.0
56.48453903198242,25.079444885253906,-2.8775339126586914,-0.0,-0.0,-1.0,0.036529854697770946,1.0
57.66484069824219,24.08411407470703,-2.93764591217041,-0.0,-0.0,-1.0,0.07868534490753432,2.0
57.62939453125,24.25165557861328,-2.9546895027160645,-0.0,-0.0,-1.0,0.09175470230655924,2.0
57.07558822631836,24.546039581298828,-2.898383617401123,-0.0,-0.0,-1.0,0.11116187741839989,1.0
57.70658493041992,23.76428985595703,-2.9013547897338867,-0.0,-0.0,-1.0,0.09872847954229852,1.0
55.981101989746094,25.34331512451172,-2.8357839584350586,-0.0,-0.0,-1.0,0.13522673637565932,1.0
55.80283737182617,25.26797103881836,-2.7943310737609863,-0.0,-0.0,-1.0,0.10903011609660124,2.0
55.377098083496094,25.21222686767578,-2.7161431312561035,-0.0,-0.0,-1.0,0.148245615396493,1.0
55.63453674316406,24.72161102294922,-2.6782407760620117,-0.0,-0.0,-1.0,0.0950421082406412,1.0
55.35007858276367,25.106178283691406,-2.6942038536071777,-0.0,-0.0,-1.0,0.15338086039478105,2.0
56.83391571044922,24.058210372924805,-2.7840332984924316,-0.0,-0.0,-1.0,0.05354940869924825,1.0
56.27754211425781,23.389991760253906,-2.588325023651123,0.811253683182091,-0.5740681505643931,0.11096494956097229,0.09085758528948543,3.0
56.09502029418945,23.437999725341797,-2.562406539916992,-0.0,-0.0,-1.0,0.1262690703689448,2.0
55.609413146972656,25.635032653808594,-2.949906826019287,-0.0,-0.0,-1.0,0.1211354077190907,1.0
55.49430847167969,25.33104705810547,-2.883521556854248,-0.0,-0.0,-1.0,0.11267302521299644,2.0
55.45979309082031,25.38455581665039,-2.8858141899108887,-0.0,-0.0,-1.0,0.16098807543523966,2.0
56.69166564941406,24.295616149902344,-2.9480724334716797,-0.0,-0.0,-1.0,0.030301802295546805,1.0
56.350914001464844,24.659679412841797,-2.935966968536377,-0.0,-0.0,-1.0,0.022152515281234915,1.0
56.01852798461914,24.705575942993164,-2.8826632499694824,-0.0,-0.0,-1.0,0.05328826690160278,1.0
57.19349670410156,23.750215530395508,-2.9711875915527344,-0.0,-0.0,-1.0,0.027751631841059523,1.0
56.84256362915039,24.126161575317383,-2.9535155296325684,-0.0,-0.0,-1.0,0.04983797980212956,1.0
56.55526351928711,24.111318588256836,-2.8981266021728516,-0.0,-0.0,-1.0,0.04502861444062123,1.0
56.30389404296875,24.295330047607422,-2.8766608238220215,-0.0,-0.0,-1.0,0.037517411074777886,1.0
57.30521774291992,23.442440032958984,-2.9545130729675293,-0.0,-0.0,-1.0,0.09115494260252588,2.0
57.331199645996094,23.232778549194336,-2.934061050415039,-0.0,-0.0,-1.0,0.09115494260252588,1.0
55.685264587402344,24.60566520690918,-2.808830738067627,-0.0,-0.0,-1.0,0.10740251934724461,2.0
55.48039627075195,24.564617156982422,-2.7665443420410156,-0.0,-0.0,-1.0,0.04993965087364082,2.0
56.20139694213867,23.32616424560547,-2.7285947799682617,0.3776951207001117,0.5658634632653667,-0.7329017237942979,0.20040327919875242,3.0
56.082210540771484,23.426464080810547,-2.7190608978271484,-0.0,-0.0,-1.0,0.18924390692268903,1.0
56.404842376708984,23.310916900634766,-2.115971565246582,-0.0,-0.0,-1.0,0.177538913318328,2.0
56.053916931152344,25.272451400756836,-2.701871871948242,-0.0,-0.0,-1.0,0.10968175600054882,1.0
56.92927169799805,24.5692081451416,-2.7930550575256348,-0.0,-0.0,-1.0,0.11010778603013176,1.0
56.07908630371094,25.39975357055664,-2.5246076583862305,-0.0,-0.0,-1.0,0.1903176169994274,2.0
56.686668395996094,24.4461669921875,-2.8807756900787354,-0.0,-0.0,-1.0,0.10970141572231207,2.0
56.82628631591797,24.288043975830078,-2.880276918411255,-0.0,-0.0,-1.0,0.03848845848728375,1.0
55.21479034423828,24.123294830322266,-2.7293875217437744,-0.0,-0.0,-1.0,0.03524523772114921,1.0
55.52500915527344,24.112964630126953,-2.75508713722229,-0.0,-0.0,-1.0,0.03788253466285302,1.0
55.25055694580078,23.76883888244629,-2.8198177814483643,-0.0,-0.0,-1.0,0.03162926890064608,1.0
55.60771942138672,23.782291412353516,-2.8480255603790283,-0.0,-0.0,-1.0,0.05123698266190137,1.0
56.752357482910156,24.1157283782959,-2.9736292362213135,-0.0,-0.0,-1.0,0.043516890488055175,1.0
56.984474182128906,23.930118560791016,-2.9685213565826416,-0.0,-0.0,-1.0,0.047556659544185705,1.0
55.8563232421875,24.774208068847656,-2.98716139793396,-0.0,-0.0,-1.0,0.07973008918968359,1.0
56.546363830566406,25.36281967163086,-3.1101925373077393,-0.0,-0.0,-1.0,0.049519973577703755,1.0
56.084190368652344,23.414241790771484,-2.451144218444824,-0.0,-0.0,-1.0,0.1929783897799414,1.0
55.28997802734375,25.416210174560547,-2.590463161468506,-0.0,-0.0,-1.0,0.1616298431179455,1.0
56.07646179199219,25.402633666992188,-2.647951126098633,-0.0,-0.0,-1.0,0.1279554530259404,2.0
56.21678924560547,23.403709411621094,-2.7230992317199707,-0.0,-0.0,-1.0,0.16278184776728946,2.0
57.02473449707031,24.22022247314453,-2.8779258728027344,-0.0,-0.0,-1.0,0.04653548419814104,2.0
55.37143325805664,24.604442596435547,-2.779219150543213,-0.0,-0.0,-1.0,0.10225834521463242,1.0
57.61434555053711,24.351428985595703,-2.9420037269592285,-0.0,-0.0,-1.0,0.0647722493147149,1.0
56.456382751464844,24.950727462768555,-2.907773017883301,0.08755843983945627,-0.8011535348781933,-0.592019031083508,0.037339191698783566,3.0
56.72285079956055,24.81884765625,-2.91605281829834,-0.0,-0.0,-1.0,0.11533865787867618,2.0
55.24846649169922,24.22880744934082,-2.8577163219451904,-0.0,-0.0,-1.0,0.042606068462089176,1.0
55.24871826171875,25.598115921020508,-2.986586332321167,-0.0,-0.0,-1.0,0.2558544829816744,1.0
57.676422119140625,23.451820373535156,-2.9234957695007324,-0.0,-0.0,-1.0,0.13820698128857492,1.0
56.95575714111328,24.209766387939453,-2.9039955139160156,-0.0,-0.0,-1.0,0.04848602022242942,1.0
55.27280807495117,24.590614318847656,-2.7539501190185547,-0.0,-0.0,-1.0,0.08851575946231574,2.0
55.890655517578125,24.754499435424805,-2.8331990242004395,-0.0,-0.0,-1.0,0.0685340005166577,1.0
56.27445602416992,24.84394073486328,-2.8814644813537598,0.2765549113228074,0.14548050439581964,-0.9499225251903295,0.028932970258706062,3.0
56.60922622680664,24.84072494506836,-2.917037010192871,-0.4314327585160314,-0.8819649716911877,-0.1897460502593135,0.04718156165963291,4.0
56.03376007080078,23.45812225341797,-2.4611902236938477,-0.0,-0.0,-1.0,0.27051509972988136,1.0
56.074275970458984,25.267471313476562,-2.630920886993408,-0.0,-0.0,-1.0,0.15143304941073402,2.0
56.14556884765625,25.440322875976562,-2.6538634300231934,-0.0,-0.0,-1.0,0.11579906883339751,2.0
56.17805480957031,23.4928035736084,-2.5022921562194824,0.8402589916886468,-0.48889665404121385,0.23440326054405508,0.2530911198838984,3.0
57.57288360595703,23.730911254882812,-2.66615629196167,-0.0,-0.0,-1.0,0.12939541968303384,1.0
56.12420654296875,25.410547256469727,-2.6721975803375244,-0.0,-0.0,-1.0,0.11788337437103633,2.0
56.417022705078125,23.416423797607422,-2.140413999557495,-0.0,-0.0,-1.0,0.13640175557563897,1.0
57.046478271484375,24.284748077392578,-2.8586182594299316,-0.0,-0.0,-1.0,0.07557088376654948,1.0
57.64799118041992,24.052291870117188,-2.9099369049072266,-0.0,-0.0,-1.0,0.07895300185770988,2.0
56.641746520996094,24.861221313476562,-2.8657031059265137,-0.0,-0.0,-1.0,0.0411011811391949,2.0
56.83500289916992,24.708724975585938,-2.8739662170410156,-0.0,-0.0,-1.0,0.11007890786768466,1.0
57.06602096557617,24.466564178466797,-2.8783702850341797,-0.0,-0.0,-1.0,0.08603779808652884,1.0
56.46726989746094,24.964008331298828,-2.8550491333007812,-0.0,-0.0,-1.0,0.038851984172425025,2.0
56.20025634765625,23.407623291015625,-2.6726126670837402,0.6350153120192281,-0.4472665204686242,-0.6298477698372933,0.15281667869628707,4.0
55.624454498291016,24.645709991455078,-2.723541259765625,-0.10856312600127503,-0.3090811426922722,-0.9448189746744456,0.10989304258163957,4.0
56.20220947265625,23.432056427001953,-2.5778467655181885,-0.0,-0.0,-1.0,0.1496416116097791,1.0
56.07044982910156,25.294605255126953,-2.767921209335327,-0.0,-0.0,-1.0,0.10137407046940443,2.0
56.991798400878906,24.51712989807129,-2.8385162353515625,-0.0,-0.0,-1.0,0.1076850392832618,1.0
56.605796813964844,24.954299926757812,-2.8285746574401855,-0.0,-0.0,-1.0,0.03621748991963415,1.0
56.712005615234375,24.756195068359375,-2.823742389678955,-0.0,-0.0,-1.0,0.10101315614892431,1.0
56.30937576293945,23.275358200073242,-2.634181499481201,-0.0,-0.0,-1.0,0.1718202786332586,1.0
55.52007293701172,24.64493751525879,-2.6575493812561035,-0.0,-0.0,-1.0,0.06127349902617966,2.0
55.78606033325195,24.584869384765625,-2.6862072944641113,-0.0,-0.0,-1.0,0.09784480807618152,1.0
56.972923278808594,23.961273193359375,-2.7852821350097656,-0.0,-0.0,-1.0,0.04574994343615728,1.0
56.07911682128906,25.268604278564453,-2.790541648864746,-0.0,-0.0,-1.0,0.12647822233635742,2.0
56.009742736816406,25.42315101623535,-2.509671688079834,-0.7328703231663289,0.3736954639894068,-0.5685532425514983,0.17047058920533026,3.0
57.42341613769531,24.313976287841797,-2.942208766937256,-0.0,-0.0,-1.0,0.06204940271258343,2.0
57.474891662597656,23.592863082885742,-2.8760552406311035,-0.0,-0.0,-1.0,0.13404647217792315,1.0
57.43575668334961,23.169294357299805,-2.832608699798584,-0.0,-0.0,-1.0,0.10132983870874207,1.0
56.492919921875,23.400270462036133,-2.787838935852051,-0.0,-0.0,-1.0,0.19399193355729408,2.0
55.7955322265625,24.669496536254883,-2.9355521202087402,-0.0,-0.0,-1.0,0.09097311414705711,1.0
56.46660614013672,24.187753677368164,-2.9344935417175293,-0.0,-0.0,-1.0,0.04313345460679058,2.0
55.948638916015625,24.53093910217285,-2.932723045349121,-0.0,-0.0,-1.0,0.0677228988123678,1.0
55.61682891845703,24.652652740478516,-2.923551559448242,-0.0,-0.0,-1.0,0.1080421133721567,1.0
55.329795837402344,24.728797912597656,-2.913300037384033,-0.0,-0.0,-1.0,0.14982824333024453,1.0
56.3004035949707,23.346702575683594,-2.8531246185302734,-0.0,-0.0,-1.0,0.25304823855854075,1.0
56.396827697753906,23.157699584960938,-2.843127727508545,-0.0,-0.0,-1.0,0.17808880297843133,1.0
57.51970291137695,25.302827835083008,-2.654397487640381,-0.0,-0.0,-1.0,0.055472747165501976,1.0
57.59540557861328,24.305112838745117,-2.5634069442749023,-0.0,-0.0,-1.0,0.09302465613526748,1.0
56.149017333984375,25.28361701965332,-2.4727532863616943,-0.0,-0.0,-1.0,0.28385530630311606,1.0
56.173072814941406,25.37131118774414,-2.6670737266540527,-0.0,-0.0,-1.0,0.15278263132536352,1.0
56.211700439453125,23.353809356689453,-2.476536273956299,-0.0,-0.0,-1.0,0.2076903458273529,2.0
57.559818267822266,23.61167335510254,-2.643404245376587,-0.0,-0.0,-1.0,0.13775473486401246,1.0
56.320594787597656,23.404882431030273,-2.5384721755981445,-0.0,-0.0,-1.0,0.1729155153436033,1.0
55.923118591308594,25.28046417236328,-2.673109292984009,-0.0,-0.0,-1.0,0.121040041417582,2.0
56.628692626953125,24.827974319458008,-2.886671543121338,0.8433191514923915,0.007788072949512989,-0.5373566363653526,0.0471815616596329,3.0
56.23375701904297,23.328189849853516,-2.7103543281555176,0.3776951207001117,0.5658634632653667,-0.7329017237942979,0.21512186108538658,3.0
56.422752380371094,24.92704200744629,-2.8806943893432617,-0.0,-0.0,-1.0,0.038321207585031325,2.0
55.576560974121094,24.568418502807617,-2.7807044982910156,-0.0,-0.0,-1.0,0.11607078590039745,1.0
56.30802917480469,23.329490661621094,-2.547272205352783,-0.0,-0.0,-1.0,0.23921186820076404,1.0
56.07495880126953,23.347450256347656,-2.5337562561035156,-0.0,-0.0,-1.0,0.19087160912783058,1.0
56.16364288330078,25.338237762451172,-2.761855125427246,-0.0,-0.0,-1.0,0.0736882566217778,1.0
56.14830017089844,25.34032440185547,-2.597984790802002,-0.0,-0.0,-1.0,0.149143794067811,1.0
56.81537628173828,24.570270538330078,-2.897210121154785,-0.0,-0.0,-1.0,0.11116576764637222,1.0
56.67040252685547,24.75798797607422,-2.89589262008667,-0.0,-0.0,-1.0,0.051598633632239356,2.0
56.48137664794922,24.208919525146484,-2.8362889289855957,-0.0,-0.0,-1.0,0.042532268843274455,1.0
56.21261978149414,23.27774429321289,-2.743478298187256,-0.0,-0.0,-1.0,0.18078971800140775,1.0
55.89458465576172,25.20716667175293,-2.850083351135254,-0.0,-0.0,-1.0,0.10094245763469613,1.0
55.587196350097656,24.481121063232422,-2.7631850242614746,-0.0,-0.0,-1.0,0.0940616643663878,1.0
55.668922424316406,25.44325065612793,-2.9079322814941406,-0.0,-0.0,-1.0,0.05335894736255375,1.0
55.289878845214844,23.99115753173828,-2.7924551963806152,-0.0,-0.0,-1.0,0.03808485951735944,1.0
55.30466079711914,24.284725189208984,-2.8080039024353027,-0.0,-0.0,-1.0,0.03814230894904549,2.0
55.534793853759766,25.474166870117188,-2.9014062881469727,-0.0,-0.0,-1.0,0.14319447696886065,1.0
55.435997009277344,25.25811004638672,-2.877607822418213,-0.0,-0.0,-1.0,0.21265489298915807,1.0
55.28312683105469,24.31891632080078,-2.806669235229492,-0.0,-0.0,-1.0,0.05269051913161509,2.0
55.23748016357422,23.961292266845703,-2.781986713409424,-0.0,-0.0,-1.0,0.038084859517359425,1.0
56.05622863769531,23.51982879638672,-2.4024901390075684,-0.0,-0.0,-1.0,0.27051509972988136,1.0
56.1799430847168,23.48134994506836,-2.532949924468994,0.8048363328543107,-0.5380086994570552,0.2505695843995295,0.20733316917932737,3.0
55.95808410644531,25.42105484008789,-2.5844616889953613,-0.0,-0.0,-1.0,0.14192729427635006,2.0
55.293212890625,24.66446876525879,-2.7428083419799805,-0.0,-0.0,-1.0,0.10397342381138804,1.0
55.559791564941406,24.714200973510742,-2.7735729217529297,-0.0,-0.0,-1.0,0.10429626416688274,1.0
57.68986511230469,23.5302734375,-2.8400683403015137,-0.0,-0.0,-1.0,0.13708871854767812,1.0
56.30414962768555,23.556766510009766,-2.631887912750244,-0.0,-0.0,-1.0,0.23170971825133388,1.0
56.18568420410156,23.421857833862305,-2.6707241535186768,0.19138865104166458,0.3190737117024047,-0.9282038303912039,0.14859462961038214,3.0
57.66945266723633,23.497852325439453,-2.9020416736602783,-0.0,-0.0,-1.0,0.13708871854767812,1.0
57.61692428588867,24.286808013916016,-2.92315936088562,-0.0,-0.0,-1.0,0.07305146231698456,2.0
57.652130126953125,23.892240524291992,-2.91355299949646,-0.0,-0.0,-1.0,0.08371602164577563,1.0
56.19066619873047,23.34792137145996,-2.7173264026641846,0.3776951207001117,0.5658634632653667,-0.7329017237942979,0.18626648200635607,3.0
56.963104248046875,23.925260543823242,-2.830949068069458,-0.0,-0.0,-1.0,0.04574994343615728,1.0
56.19438934326172,23.1730899810791,-2.5228374004364014,-0.0,-0.0,-1.0,0.15490166188522872,1.0
55.45484924316406,24.98019790649414,-2.8101606369018555,-0.0,-0.0,-1.0,0.11080618094858323,1.0
55.383628845214844,24.97190284729004,-2.835111141204834,-0.0,-0.0,-1.0,0.08357074668332717,1.0
55.60163879394531,25.219600677490234,-2.8615212440490723,-0.0,-0.0,-1.0,0.11080506688742647,1.0
56.262367248535156,23.844085693359375,-2.998429298400879,-0.0,-0.0,-1.0,0.03850945954884205,1.0
56.329490661621094,24.050464630126953,-3.001011848449707,-0.0,-0.0,-1.0,0.04602818784908505,1.0
56.277488708496094,24.228328704833984,-2.980562210083008,-0.0,-0.0,-1.0,0.04499891582354129,1.0
56.625343322753906,24.50589370727539,-3.03786563873291,-0.0,-0.0,-1.0,0.08836710004683769,1.0
55.26102828979492,24.540569305419922,-2.753458023071289,-0.0,-0.0,-1.0,0.08389202333253787,2.0
55.4246940612793,24.394315719604492,-2.794936180114746,-0.0,-0.0,-1.0,0.02985668421844823,1.0
56.32422637939453,24.995975494384766,-2.9500608444213867,-0.0,-0.0,-1.0,0.026245956846962383,1.0
55.25371551513672,24.980525970458984,-2.995809555053711,-0.0,-0.0,-1.0,0.08617954014626954,1.0
56.20985412597656,25.065223693847656,-2.5117063522338867,-0.0,-0.0,-1.0,0.2004854615401686,1.0
55.910484313964844,24.11294937133789,-2.546199321746826,-0.0,-0.0,-1.0,0.03658749318265546,1.0
56.05057907104492,24.056425094604492,-2.8531246185302734,-0.0,-0.0,-1.0,0.06995302191381345,1.0
56.186161041259766,23.347749710083008,-2.9764490127563477,-0.0,-0.0,-1.0,0.16069448304309447,1.0
56.35332489013672,23.602251052856445,-2.227478504180908,-0.0,-0.0,-1.0,0.1437357957592281,1.0
