x,y,z,nx,ny,nz,curvature,density
19.574798583984375,1.4164857864379883,-0.28162479400634766,-0.0084798053398797,0.4593043963315946,-0.8882384614572078,0.12408502740491531,3.0
19.042720794677734,0.4621448516845703,-0.25015997886657715,0.7268284666941851,-0.34410244946336643,-0.5944021233780132,0.08813724753917129,6.0
19.556385040283203,0.34992408752441406,-0.23081755638122559,0.21450666161944895,-0.9103587207408826,-0.3538840088106596,0.06923694487585909,3.0
19.66632843017578,0.6681957244873047,-0.32727253437042236,-0.0,-0.0,-1.0,0.017683949435367455,2.0
19.37554931640625,1.5095977783203125,-0.2974870204925537,-0.26040150511250787,-0.9644261936281396,0.04553211151570774,0.16379078111898876,4.0
18.21578598022461,1.3276958465576172,0.021754741668701172,-0.28858953843679563,0.9070121776734997,0.30666755266381385,0.19134683220523724,5.0
19.476463317871094,1.5084209442138672,-0.31592369079589844,-0.7379452239942231,0.6511154535533359,-0.177441574970889,0.12272080250561923,6.0
18.34929656982422,1.3622112274169922,-0.013422846794128418,-0.0,-0.0,-1.0,0.10355468978943157,2.0
19.50108528137207,1.5236101150512695,-0.2801034450531006,-0.8833201328509178,0.33025836761866,0.33267845364269544,0.055077174450106924,4.0
18.26949691772461,1.0457372665405273,0.12426698207855225,0.7107970603345192,0.6734912825257203,-0.20292124428375133,0.17686168157289595,6.0
18.40254020690918,0.857386589050293,-0.17895984649658203,-0.0,-0.0,-1.0,0.18995735710257472,1.0
18.148365020751953,1.4428300857543945,-0.12221133708953857,0.9143630085593637,0.39951761339318775,-0.06577206980839528,0.22626468568043936,5.0
18.066986083984375,1.440709114074707,-0.061690568923950195,-0.0,-0.0,-1.0,0.15521201662371933,1.0
18.09458351135254,1.4860715866088867,-0.11820793151855469,-0.631043427707213,0.7528021813990681,-0.18727805004414086,0.23605493007526285,4.0
18.120033264160156,1.462052345275879,0.1526789665222168,-0.0,-0.0,-1.0,0.0605893916462869,2.0
18.342519760131836,1.5605764389038086,0.1796787977218628,0.5201694838274394,-0.8171930890368512,-0.24823207553639048,0.30290618211413434,6.0
19.44672393798828,1.4178361892700195,-0.2661261558532715,0.23061120869230883,0.002070405705546436,-0.9730437728312571,0.11713555469267882,3.0
18.550352096557617,1.532196044921875,-0.3001049757003784,-0.0,-0.0,-1.0,0.10840234689135879,2.0
19.44040870666504,0.8108139038085938,-0.30275678634643555,-0.0,-0.0,-1.0,0.01628353145933217,1.0
19.498245239257812,1.512131690979004,-0.3137855529785156,-0.8833201328509178,0.33025836761866,0.33267845364269544,0.1363683792380487,4.0
18.06346321105957,1.4546089172363281,-0.13566696643829346,0.1059444719841576,0.6559964373079747,-0.7472914044034245,0.12180411350179314,6.0
18.33315658569336,1.1025714874267578,-0.13902199268341064,-0.9154490573171812,0.04243007309553143,-0.40019084491551304,0.23844904034389772,6.0
18.177967071533203,1.3870000839233398,-0.16463696956634521,0.8658164364284017,0.4918369283984949,-0.09196920285594185,0.18654795688704365,4.0
18.683815002441406,1.4117307662963867,-0.32899653911590576,-0.22729385286719747,0.6011030544084741,-0.7661674898020587,0.0365854222551454,5.0
19.513141632080078,0.1953144073486328,-0.21333038806915283,-0.8130508959654464,-0.059650830849786986,-0.5791286721866866,0.08202924786707781,5.0
18.76779556274414,1.3972444534301758,-0.38024604320526123,-0.0,-0.0,-1.0,0.06693859780717902,1.0
19.350374221801758,1.5517807006835938,-0.24750065803527832,-0.8600055695571855,0.24054800506888405,-0.45003008520320137,0.1471433721676413,3.0
18.98250389099121,1.3104791641235352,-0.26301586627960205,-0.561934205451771,-0.3552155867648278,-0.7470286712453585,0.16613715936797072,3.0
19.561893463134766,1.0988969802856445,-0.3080291748046875,-0.0,-0.0,-1.0,0.07147645605327384,2.0
18.59305763244629,-0.031726837158203125,-0.3241969347000122,-0.0,-0.0,-1.0,0.023676759981407426,2.0
19.08116912841797,0.5124330520629883,-0.2767817974090576,-0.0,-0.0,-1.0,0.0634093613925298,2.0
19.660924911499023,0.5741033554077148,-0.2926194667816162,-0.352913244159719,0.6913992802787995,-0.6304119901513777,0.042968243747864156,4.0
18.57543182373047,-0.3447265625,-0.30395734310150146,-0.0,-0.0,-1.0,0.031194319686702485,2.0
19.541555404663086,0.3558797836303711,-0.2551274299621582,-0.9343940375089694,-0.2877636884389148,-0.20999962448470708,0.06492210347262434,5.0
18.92314910888672,0.985295295715332,-0.3692162036895752,-0.0,-0.0,-1.0,0.043911290353245404,2.0
19.01051902770996,1.2056055068969727,-0.35360753536224365,0.3924365707009062,0.723987996079852,-0.5673049616465494,0.19658681809294784,3.0
19.172792434692383,1.0482063293457031,-0.0816274881362915,0.410190857379358,-0.4925092382501909,-0.7675793840122366,0.22470461798625774,6.0
19.705604553222656,-0.11725902557373047,-0.31364691257476807,-0.0,-0.0,-1.0,0.042077792164474166,2.0
19.035974502563477,0.4161720275878906,-0.2591511011123657,0.02764024823129927,0.1846905770548543,-0.9824079638443782,0.11572173871233969,6.0
19.63006019592285,0.5179643630981445,-0.2871311902999878,-0.0,-0.0,-1.0,0.05125087487099142,2.0
19.01783561706543,0.4268789291381836,-0.27204859256744385,0.7268284666941851,-0.34410244946336643,-0.5944021233780132,0.1010718025834067,6.0
18.67922019958496,0.47797679901123047,-0.3870880603790283,-0.0,-0.0,-1.0,0.02833493692414734,2.0
18.534069061279297,0.9213361740112305,-0.32068896293640137,0.0473959177279454,0.9826807759297989,0.17914273527200225,0.12226387953453138,4.0
19.087085723876953,1.1814241409301758,-0.26332390308380127,0.34948325894531335,0.9364548853192898,-0.030227462324821017,0.2415092665973951,7.0
18.48609161376953,0.589909553527832,-0.360101580619812,-0.0,-0.0,-1.0,0.030956783303948843,1.0
19.249670028686523,0.6975440979003906,-0.29417312145233154,-0.0,-0.0,-1.0,0.06030222944305775,2.0
19.59632110595703,0.5913248062133789,-0.29235243797302246,-0.0,-0.0,-1.0,0.026487217385634566,2.0
18.436336517333984,1.162984848022461,-0.28162240982055664,-0.0,-0.0,-1.0,0.10828985541666206,2.0
19.051761627197266,1.2221660614013672,-0.2277994155883789,0.7469019355153832,0.5091935486010344,-0.42762065991537473,0.164699072829677,5.0
18.214584350585938,1.0921630859375,0.04100155830383301,0.058711715611444205,0.23360159877878364,-0.9705582040753439,0.16868891337482733,6.0
19.294078826904297,0.28116607666015625,-0.29004502296447754,-0.29809075218286135,0.9380902924207697,0.1764327257879631,0.08112014612263464,3.0
19.0721378326416,0.5088348388671875,-0.2885249853134155,-0.0,-0.0,-1.0,0.06415007325205117,2.0
18.514509201049805,1.2298784255981445,-0.2779124975204468,0.6548025120130829,0.5590966800515114,-0.5085711087121786,0.07423475171747518,3.0
18.447364807128906,1.5712509155273438,-0.2538412809371948,-0.7793544323047236,0.6196130238877513,-0.09320069460931839,0.19332014096571062,4.0
17.939468383789062,1.4784412384033203,0.06141483783721924,-0.1573563649660503,-0.8360493064708973,0.5256049196442162,0.20494421895874534,5.0
18.403154373168945,1.600703239440918,0.11566102504730225,0.6880940042185715,-0.1514881129416003,-0.709632294217115,0.19925056851893766,9.0
19.531627655029297,-0.3573427200317383,-0.31287407875061035,-0.0,-0.0,-1.0,0.02636470720981859,2.0
19.270626068115234,0.4265623092651367,-0.26737117767333984,-0.0,-0.0,-1.0,0.055918919350672044,1.0
19.617578506469727,0.3745384216308594,-0.23589134216308594,-0.0,-0.0,-1.0,0.09428911063956838,2.0
18.52749252319336,1.2067070007324219,-0.2866694927215576,-0.20431397322994957,0.9331906617668106,-0.29565349504819577,0.06872543338889639,4.0
18.463281631469727,1.6003236770629883,-0.26458656787872314,-0.9524015613385135,0.25611762709354224,-0.16533307912192077,0.14664168733312657,5.0
18.47319793701172,1.1745491027832031,0.11072325706481934,-0.0,-0.0,-1.0,0.1634837073186882,2.0
18.23891830444336,1.6161613464355469,0.1088566780090332,-0.0,-0.0,-1.0,0.15375955216318704,2.0
19.273666381835938,1.5246038436889648,-0.19446039199829102,-0.0,-0.0,-1.0,0.13197723502708117,1.0
18.11273956298828,1.4884138107299805,0.005856156349182129,-0.0,-0.0,-1.0,0.1857797413182245,2.0
19.23212432861328,0.17481136322021484,-0.2700514793395996,-0.0,-0.0,-1.0,0.07571825852072989,2.0
19.653398513793945,0.12990283966064453,-0.23899543285369873,-0.0,-0.0,-1.0,0.0823264550746518,1.0
19.05259132385254,0.45578575134277344,-0.26538968086242676,0.10985932050661712,-0.1370996064226155,-0.9844463558856766,0.07889255000968563,7.0
19.593833923339844,0.6454782485961914,-0.2973058223724365,0.4533249122207709,-0.18464881106066802,-0.872009942910006,0.023445329095080996,4.0
18.127948760986328,1.5398340225219727,0.0989081859588623,0.6630590613701418,-0.2999341882092051,-0.6858514153067204,0.08721437176640176,5.0
19.602636337280273,1.3883731365203857,-0.29642748832702637,0.6288357920516332,0.7431304525566307,-0.2287415072035958,0.14921531817471748,3.0
18.385944366455078,0.937079668045044,-0.23581206798553467,-0.13995573576343076,0.7991589622429217,-0.5846001583079955,0.22944125687448666,5.0
18.28564453125,1.097041368484497,0.06308996677398682,0.5768887813721006,0.6698833008700932,-0.4673924444643928,0.19177632666750546,5.0
17.957168579101562,1.2070116996765137,0.1639397144317627,-0.0,-0.0,-1.0,0.047462396449910134,1.0
18.182035446166992,1.3546195030212402,-0.10308837890625,-0.0,-0.0,-1.0,0.12171306390262072,2.0
18.20379066467285,1.2389180660247803,-0.029616713523864746,-0.5848452803655498,0.7864595795584423,-0.19858833740907345,0.16268685706118627,6.0
18.188405990600586,1.6100761890411377,-0.01951885223388672,-0.0,-0.0,-1.0,0.1576208738205775,2.0
18.166959762573242,1.5871753692626953,0.054242849349975586,-0.0,-0.0,-1.0,0.1530629720132359,2.0
18.108219146728516,0.9720335006713867,0.09194540977478027,0.5828181365824615,0.7754283312213736,-0.242968974994304,0.1641389695119405,4.0
18.2231502532959,1.2504563331604004,0.2601679563522339,-0.0,-0.0,-1.0,0.1912774695700729,1.0
19.42149543762207,1.4000258445739746,-0.22072625160217285,-0.48896120626384704,-0.7083490752184762,0.5090761499089635,0.1565385552161579,3.0
18.282852172851562,1.3275504112243652,0.11042869091033936,-0.0,-0.0,-1.0,0.263807252243104,2.0
18.24771499633789,1.044201374053955,0.11645281314849854,-0.24294461919315286,0.4622671610452657,-0.8528112240257187,0.1977662096279177,7.0
18.472797393798828,0.9616026878356934,-0.24916672706604004,0.8263038866885849,0.03747029097373927,-0.5619767469724003,0.20084280100980184,4.0
18.16551971435547,0.9388113021850586,0.10480344295501709,-0.0,-0.0,-1.0,0.14274108881140232,2.0
18.474933624267578,0.9608290195465088,-0.2109687328338623,-0.35511791034942847,0.9345908891533391,0.02076390282741416,0.1462481624380989,5.0
18.209552764892578,1.0252773761749268,0.11565887928009033,0.34155992321064876,-0.835290536303364,0.4308439843126213,0.1871131428339533,7.0
17.848796844482422,0.9866459369659424,-0.3379451036453247,-0.0,-0.0,-1.0,0.19123106681156518,2.0
19.613462448120117,0.9660606384277344,-0.3385094404220581,-0.8795594553626399,-0.4757873478219698,-0.0012506537141217702,0.059659915486430036,3.0
18.397541046142578,1.5946688652038574,-0.2649726867675781,-0.0,-0.0,-1.0,0.08746830572071246,1.0
19.685009002685547,1.4628915786743164,-0.4286930561065674,-0.0,-0.0,-1.0,0.09386222852546704,2.0
19.6456356048584,0.06648111343383789,-0.30906450748443604,-0.7497149802360057,-0.6614293396922767,0.02094461754161994,0.0818487498253383,3.0
19.208152770996094,0.42377328872680664,-0.3381444215774536,0.2733532148026856,0.8009684021614085,-0.532660904043123,0.05285203532417893,3.0
18.8383846282959,1.3939008712768555,-0.42431509494781494,-0.0,-0.0,-1.0,0.0717392767705954,1.0
17.857881546020508,-0.2036452293395996,-0.3599320650100708,-0.0,-0.0,-1.0,0.030643798864790947,1.0
19.2982177734375,1.6040911674499512,-0.3243774175643921,0.6945686293075429,-0.6791733573620976,-0.23727193224512985,0.11137991464445715,7.0
18.417617797851562,-0.16948890686035156,-0.27773869037628174,0.11168688581632683,0.16288734300009927,-0.9803028884110355,0.10098257142131818,3.0
18.038593292236328,1.5548148155212402,0.04299914836883545,0.011261571591473389,-0.9995957283850908,-0.026106642824575706,0.25533981394151517,7.0
19.42544937133789,-0.13257217407226562,-0.23495948314666748,-0.0,-0.0,-1.0,0.029849588128701882,1.0
19.390506744384766,1.4491100311279297,-0.2510493993759155,-0.8900612721416429,-0.38491737469356324,-0.24419161839140902,0.13626193120995167,6.0
18.375900268554688,1.6200332641601562,0.19761121273040771,0.5063571094202849,-0.8214609268703861,-0.2623059727966173,0.1998414629050404,4.0
17.752531051635742,1.300095558166504,-0.22705602645874023,-0.0,-0.0,-1.0,0.11975001492037368,2.0
17.961652755737305,1.4004526138305664,-0.22085177898406982,0.6557412872257902,-0.3700672708952785,-0.6580680658105088,0.17889830334310042,4.0
19.161344528198242,1.2357110977172852,-0.323628306388855,-0.0,-0.0,-1.0,0.1769288505097181,2.0
18.150484085083008,1.4789400100708008,0.11269247531890869,-0.762861928953285,0.15829729082359903,-0.6268840762625751,0.12147040647057904,6.0
19.533113479614258,0.34578895568847656,-0.23428606986999512,0.21450666161944895,-0.9103587207408826,-0.3538840088106596,0.07689077929160183,3.0
18.861713409423828,1.4192190170288086,-0.3456075191497803,0.4300186664898905,-0.22541486156089965,-0.874226564831873,0.06817166626973566,4.0
19.17232322692871,1.528249740600586,-0.33771491050720215,-0.43128438320276813,0.3812923378261647,-0.8176857183053071,0.06027658577283536,5.0
17.723552703857422,1.2380800247192383,-0.026688098907470703,0.9718904815035136,-0.007077597471820641,0.23532700562599035,0.0604789368433888,5.0
18.015857696533203,1.5483856201171875,0.014732956886291504,0.5804877537173498,-0.7816371389639905,-0.22820462479181416,0.19957665716619866,8.0
18.553844451904297,1.2201662063598633,-0.318530797958374,-0.0,-0.0,-1.0,0.04532039624185588,2.0
19.01595115661621,1.280806541442871,-0.3087191581726074,-0.0,-0.0,-1.0,0.2147443356386261,2.0
19.34958839416504,1.5092945098876953,-0.2687084674835205,-0.8931452673988108,-0.24522531132161288,-0.37703591077021364,0.20636596034855098,5.0
19.60023307800293,1.0974502563476562,-0.3553135395050049,-0.0,-0.0,-1.0,0.07037050602115297,2.0
17.719079971313477,1.2894325256347656,-0.00312197208404541,0.8162861666943135,0.5494970898540745,0.1781287239762486,0.06683057672683781,4.0
18.412921905517578,0.9933757781982422,-0.0469973087310791,-0.0,-0.0,-1.0,0.146628947449968,2.0
18.025318145751953,1.6168951988220215,0.04918777942657471,0.12210685886088182,-0.8883453471689454,-0.44264258627295944,0.21913187106975818,6.0
18.625709533691406,1.631619930267334,-0.37781989574432373,-0.0,-0.0,-1.0,0.08123296573138478,2.0
17.7139892578125,1.2999062538146973,0.10860753059387207,0.45787377535865953,0.42987401815846404,-0.778177315495064,0.11201162365221874,7.0
19.672271728515625,0.035541534423828125,-0.3326908349990845,0.07205690407618423,0.37918297478887814,-0.9225118287616763,0.0781040865424018,4.0
18.44463348388672,0.912869930267334,-0.2625981569290161,0.836201129354925,0.5449007276851645,-0.0620553642622983,0.1771528841146317,5.0
18.441925048828125,1.5130248069763184,-0.1639925241470337,0.1284258721205424,0.41575007747481235,-0.9003658525564849,0.13792846166635214,4.0
18.016748428344727,1.4724369049072266,0.07360827922821045,0.4935383638025719,-0.8249432413541822,-0.27547873238988113,0.14642220029271347,6.0
18.286714553833008,1.0308823585510254,0.03499782085418701,0.7113948304688049,-0.2811243161307888,-0.6441168481434536,0.2843616613943229,5.0
18.4063777923584,1.5524373054504395,0.11276745796203613,0.7675516571199056,-0.45079983834711884,-0.45567966752829586,0.20186617213997832,10.0
18.23404884338379,1.1075067520141602,-0.3499218225479126,-0.5185411832230175,-0.8471625514288087,0.11589069314791395,0.1703315994186134,3.0
18.367809295654297,1.4778423309326172,-0.2726341485977173,-0.8824266991285126,0.35900199311098974,-0.3040406051952514,0.1227517493953983,3.0
18.53112030029297,1.0879402160644531,-0.3145937919616699,-0.3116352379532871,0.5239403659594808,-0.7926979067614871,0.09100080598378785,3.0
17.933246612548828,1.3333654403686523,-0.07684123516082764,-0.0,-0.0,-1.0,0.07347694929477777,1.0
18.175477981567383,0.9641737937927246,-0.0992288589477539,0.5860579605438112,0.1340062352004554,-0.7991110034348351,0.14845439505486363,4.0
18.38762664794922,0.7954716682434082,-0.10022735595703125,-0.0,-0.0,-1.0,0.17559476137701166,1.0
19.074024200439453,1.1117849349975586,-0.24361085891723633,0.7202099357113075,0.49465991425693845,-0.48642493534977416,0.16517255831331448,3.0
18.331649780273438,1.4018926620483398,-0.02343463897705078,-0.0,-0.0,-1.0,0.1274654155712538,2.0
17.921314239501953,1.453075885772705,-0.4318056106567383,-0.0,-0.0,-1.0,0.14586679431881308,1.0
18.387067794799805,-0.05174827575683594,-0.2966245412826538,-0.0,-0.0,-1.0,0.06492514106095336,2.0
18.208608627319336,1.072932243347168,-0.17084550857543945,-0.33197506628737117,0.7729286115004347,0.5407161148768417,0.1784918139426053,5.0
18.382383346557617,1.5272531509399414,-0.3379983901977539,0.517543582637261,0.0859976626246377,-0.8513242872690095,0.12956609796037513,3.0
18.562644958496094,1.3532252311706543,-0.3316926956176758,-0.0,-0.0,-1.0,0.028910109634054142,2.0
18.596702575683594,1.1574220657348633,-0.3556097745895386,-0.0,-0.0,-1.0,0.044449941313664254,2.0
18.918052673339844,1.175997257232666,-0.29907989501953125,0.14695744255204773,-0.18272165664635162,-0.9721194917657882,0.14441597372267154,3.0
18.960098266601562,0.8115296363830566,-0.35155200958251953,-0.0,-0.0,-1.0,0.040238498929161474,1.0
18.0045166015625,1.5535697937011719,-0.1440117359161377,-0.0,-0.0,-1.0,0.2663752660178511,2.0
18.244112014770508,1.4606118202209473,-0.11817693710327148,-0.2591404590745983,0.23044593436586955,-0.9379450377313415,0.1493060963278454,4.0
17.943235397338867,1.5720019340515137,0.10517513751983643,-0.3474951426305801,-0.036397007846474545,-0.9369751243592201,0.18321575059448106,6.0
18.12226104736328,1.0351529121398926,0.07562971115112305,-0.0,-0.0,-1.0,0.15137170993528412,2.0
18.271629333496094,1.5188426971435547,0.14143133163452148,-0.0,-0.0,-1.0,0.10462144223207144,2.0
18.22820281982422,1.0362920761108398,-0.31030964851379395,-0.44163000560022125,-0.11488136449767891,-0.8898118959896525,0.2788462510216771,5.0
18.77517318725586,0.1737070083618164,-0.37549757957458496,-0.0,-0.0,-1.0,0.036797251504532495,1.0
18.02560806274414,1.495142936706543,-0.037264466285705566,0.0844952931649501,-0.9660077375111252,-0.24431454418762388,0.1574306800312876,3.0
18.289993286132812,1.4969565868377686,0.0027233362197875977,-0.0,-0.0,-1.0,0.17723222793434892,1.0
18.31791114807129,1.1469242572784424,-0.04009735584259033,-0.0,-0.0,-1.0,0.18730169866563587,1.0
19.160795211791992,1.0630271434783936,-0.15109479427337646,0.044321025314636914,-0.9222980293306232,-0.3839296703927795,0.23242412752797292,5.0
18.25186538696289,1.0386528968811035,0.09350717067718506,0.3300778654152832,-0.8485551697146935,0.41352475949253387,0.16756022538596685,8.0
18.34856605529785,1.5830940008163452,0.1567631959915161,-0.39130134848694803,-0.27054353188063435,-0.8795961869118395,0.2459147428699933,7.0
18.322267532348633,1.2039194107055664,0.1207345724105835,-0.0,-0.0,-1.0,0.1348614948151759,2.0
18.06037139892578,1.6200900077819824,0.0803976058959961,-0.04745009585969809,-0.8096410303655737,-0.5850041797726557,0.19532496048399497,6.0
18.177946090698242,0.9543780088424683,0.07457125186920166,0.8101950759467349,-0.14622525745046208,-0.567628499104133,0.15307573289552467,5.0
18.198904037475586,0.9977335929870605,0.05236625671386719,0.32531759790293163,-0.9260205175266192,0.19145354949542845,0.1492621256468406,4.0
18.373981475830078,1.6144707202911377,0.09603381156921387,0.4506100996159604,-0.25634592982045323,-0.8551241444308432,0.16045551312580036,7.0
18.059785842895508,1.019187569618225,0.10339736938476562,0.2556684913746758,-0.5474641647437035,-0.7968165477948337,0.11213496210863759,3.0
18.21218490600586,1.4902408123016357,0.07994556427001953,0.28271356335004294,-0.05050008745015931,-0.9578740952053395,0.20227912376338952,6.0
17.97743034362793,0.970221996307373,0.140081524848938,-0.0,-0.0,-1.0,0.1671876335250248,2.0
17.745180130004883,0.6800093650817871,-0.26589131355285645,-0.3861551054355835,0.8934866878123394,-0.2292722688162886,0.18081548148930326,3.0
18.623632431030273,0.40672874450683594,-0.36587393283843994,-0.3337283140069786,-0.208288447751799,-0.9193700750857653,0.0324487464197624,5.0
17.721988677978516,0.9653701782226562,-0.3721497058868408,-0.0,-0.0,-1.0,0.18300452211353438,1.0
18.39797019958496,0.8641986846923828,-0.2665822505950928,0.76594892231931,-0.021554907390284647,-0.6425399865886042,0.1951031507394262,3.0
18.186595916748047,0.8728399276733398,0.08934974670410156,-0.0,-0.0,-1.0,0.13340414735637376,2.0
18.913352966308594,0.8975772857666016,-0.3044837713241577,-0.0,-0.0,-1.0,0.04579879963359493,2.0
17.82467269897461,0.894810676574707,-0.1679607629776001,-0.0,-0.0,-1.0,0.2075663039299681,2.0
18.00146484375,1.3838224411010742,0.14148390293121338,-0.0,-0.0,-1.0,0.08594460886155923,2.0
17.804582595825195,1.0312232971191406,0.17321085929870605,-0.0,-0.0,-1.0,0.210861536656897,1.0
17.76630210876465,1.0711336135864258,-0.01024174690246582,0.4631174531534243,0.7651320032509213,-0.44732006682678327,0.14627973488159615,5.0
18.07012176513672,0.9196834564208984,0.08584833145141602,-0.0,-0.0,-1.0,0.1683561351746024,2.0
18.218992233276367,0.9577407836914062,0.01860499382019043,-0.0,-0.0,-1.0,0.22679206129128548,2.0
18.565061569213867,0.3296184539794922,-0.3813331127166748,-0.0,-0.0,-1.0,0.04511916371310802,1.0
18.272083282470703,1.0006599426269531,0.058028459548950195,0.9634441286480449,-0.2597468277063154,0.06562771114487505,0.16432833199814886,4.0
17.800453186035156,1.0691547393798828,0.02040863037109375,-0.27792399267834966,0.8877401816476739,0.36698177636209633,0.22205140408150031,3.0
18.040603637695312,0.9742774963378906,0.049234867095947266,-0.0,-0.0,-1.0,0.12475843767713655,2.0
18.947729110717773,1.536142349243164,-0.4022181034088135,-0.0,-0.0,-1.0,0.03239064646103639,2.0
18.388755798339844,1.0423345565795898,-0.3035542964935303,0.3898947768639918,-0.42524785516019453,-0.8167902574442425,0.07295964500020449,3.0
18.09660530090332,0.9756107330322266,-0.3018968105316162,-0.0,-0.0,-1.0,0.10193122078415445,1.0
18.51770782470703,0.4719200134277344,-0.36225104331970215,-0.0,-0.0,-1.0,0.03001725103166217,2.0
17.79572868347168,0.4660682678222656,-0.3854639530181885,-0.0,-0.0,-1.0,0.11589615715215945,1.0
18.010318756103516,0.9776859283447266,-0.048166513442993164,-0.0,-0.0,-1.0,0.13821619786831266,2.0
19.15207290649414,1.1349554061889648,-0.12984490394592285,-0.6183929430409391,-0.5490061399444519,-0.5623010104031997,0.13241034958024422,5.0
19.393692016601562,1.3712363243103027,-0.1828005313873291,-0.0,-0.0,-1.0,0.12904100123347645,2.0
19.374731063842773,1.4436817169189453,-0.27228760719299316,-0.2751428783323383,-0.6515316248132081,-0.7069674238402059,0.2096694891414731,7.0
17.895395278930664,1.4694275856018066,-0.014367341995239258,0.46293890867184584,-0.09798259143843506,-0.8809579891304288,0.11842412626557042,3.0
18.398666381835938,1.480234146118164,-0.0015649795532226562,-0.04833382365630342,0.48022273221740536,-0.8758138894493578,0.2542220242586746,6.0
17.715547561645508,1.3312416076660156,0.1158440113067627,-0.0,-0.0,-1.0,0.11741883292536981,2.0
18.223281860351562,1.5631847381591797,0.10276961326599121,0.39564763834292876,0.5050838935917976,-0.7670418545997426,0.17107497924743975,4.0
17.865236282348633,1.3550376892089844,0.09483504295349121,0.5264487250360113,-0.549081177421097,0.6491237174143466,0.10697686045770312,6.0
17.96355438232422,1.3516178131103516,0.15473031997680664,0.4949335077426384,0.17987175957601895,-0.8501099770150886,0.11343197582343102,4.0
17.79400634765625,1.322183609008789,0.10265302658081055,0.9075317213394027,0.4141470132154347,0.06977410843196227,0.14598166625794814,7.0
17.709747314453125,1.2299423217773438,-0.21861624717712402,-0.0,-0.0,-1.0,0.09699397662547468,2.0
17.77108383178711,1.2656259536743164,-0.2525947093963623,-0.043654008783105026,0.2977423095903948,-0.953647652226409,0.11625053491546068,4.0
18.178813934326172,1.5303430557250977,0.09885883331298828,-0.22983592575576137,0.051376325763777264,-0.9718723786501016,0.15063221987191514,6.0
17.750137329101562,1.2050161361694336,-0.2662529945373535,0.5384565254851176,-0.19530496332411565,-0.8197075950992893,0.11186434021006446,3.0
17.738697052001953,1.2097253799438477,-0.2120656967163086,-0.0,-0.0,-1.0,0.10843341231158837,2.0
18.117136001586914,1.6063718795776367,-0.15536093711853027,-0.5439834954222961,0.8390906318957204,-0.0029779477801037462,0.1833467998993307,4.0
18.070842742919922,1.5130376815795898,0.11126184463500977,0.19738749982057932,0.372906399531111,-0.9066305709070948,0.13669368918549832,7.0
18.032989501953125,1.223188877105713,0.06233072280883789,-0.0,-0.0,-1.0,0.13674835938198407,1.0
17.831212997436523,-0.0548095703125,-0.3390688896179199,-0.0,-0.0,-1.0,0.029376492554695505,2.0
18.10686683654785,1.5545787811279297,-0.0831918716430664,-0.0,-0.0,-1.0,0.24632397513829998,2.0
17.843515396118164,1.0031862258911133,-0.2908048629760742,0.6003009142004958,0.3200222975120507,-0.7329560297215365,0.2464129468912388,3.0
19.52330780029297,0.19455623626708984,-0.25102710723876953,-0.7171176220623618,-0.5976063984063883,-0.358620842550135,0.08200191468434749,4.0
17.748371124267578,0.88653564453125,-0.38022613525390625,-0.0,-0.0,-1.0,0.2006916959928965,1.0
17.799299240112305,1.3628416061401367,-0.26796722412109375,-0.6270222969019223,-0.24403550979104233,-0.7397903143113347,0.14028653487697995,5.0
19.5943603515625,0.17882347106933594,-0.23252105712890625,-0.0,-0.0,-1.0,0.11978432971472315,1.0
18.345998764038086,-0.18992739915847778,-0.5007338523864746,-0.0,-0.0,-1.0,0.2694301546303364,1.0
18.02753257751465,1.6326308250427246,0.02364635467529297,0.22568140635546172,-0.8380447507511838,-0.4967382596134584,0.18599726440071931,3.0
17.862613677978516,-0.1075749397277832,-0.34511566162109375,-0.0,-0.0,-1.0,0.030393498136781896,1.0
18.093463897705078,1.0482072830200195,0.09426498413085938,-0.4651200992984643,0.20207265834779148,-0.8618758228288129,0.131170196098392,4.0
18.006311416625977,1.5589895248413086,-0.015476226806640625,0.4578777804251417,-0.7929327225876347,-0.4020020343763285,0.17368066400516266,5.0
18.174972534179688,1.4643518924713135,0.07332849502563477,-0.8812160174919851,0.3330249210079082,-0.33548879639004603,0.20536261348065346,7.0
17.91240882873535,1.3872475624084473,0.025005817413330078,0.4039818127722769,0.7055690214602686,0.5822122043592216,0.16652435928691373,3.0
17.902023315429688,0.06549084186553955,-0.35779237747192383,-0.0,-0.0,-1.0,0.017729178451787994,1.0
17.852575302124023,1.5496788024902344,-0.4623703956604004,-0.0,-0.0,-1.0,0.17048344913825672,1.0
19.009906768798828,-0.16768160462379456,-0.32006263732910156,-0.0,-0.0,-1.0,0.05565707769871145,1.0
19.05189323425293,0.11375424265861511,-0.32507777214050293,-0.0,-0.0,-1.0,0.05408501933689,1.0
17.801712036132812,0.6868141293525696,-0.16634345054626465,-0.0,-0.0,-1.0,0.20224161170274535,2.0
19.21031951904297,0.5212266445159912,-0.34572577476501465,-0.0,-0.0,-1.0,0.06555200977727732,1.0
19.349905014038086,0.7186899185180664,-0.3641369342803955,-0.9761305916891918,-0.17321897068535583,0.13101242751439354,0.027414271551176206,3.0
17.752445220947266,0.9921349287033081,-0.16147232055664062,-0.0,-0.0,-1.0,0.11135328593199702,2.0
18.113685607910156,1.540923833847046,-0.21167349815368652,-0.0,-0.0,-1.0,0.19047037940762415,1.0
18.330894470214844,1.6025389432907104,0.08674764633178711,0.7215858159361892,-0.5015453217915253,0.4772485729981174,0.17282760312763837,7.0
19.50884437561035,0.13518637418746948,-0.31792402267456055,-0.0,-0.0,-1.0,0.07171727743802155,1.0
19.63783836364746,0.007352009415626526,-0.34319543838500977,0.37629879982137654,-0.7662639048340155,-0.5208059536924653,0.0597812295927273,4.0
19.488445281982422,0.3337751030921936,-0.3189072608947754,-0.12347907875678708,-0.9012230496494291,-0.4153912997282898,0.06948237483776651,3.0
19.620290756225586,0.534569501876831,-0.3540635108947754,-0.0,-0.0,-1.0,0.023090343837798816,1.0
17.7879638671875,1.0141247510910034,0.03828716278076172,-0.4215349470342509,0.6644491581312326,-0.6171025884628321,0.22618380362713475,3.0
17.753067016601562,1.2809735536575317,0.03682231903076172,-0.2514344273282503,0.8996395616198233,0.3569725310477082,0.09300086376814842,5.0
18.056598663330078,-0.06864674389362335,-0.33653759956359863,-0.0,-0.0,-1.0,0.03921870892664516,2.0
18.166385650634766,0.03199996054172516,-0.36740994453430176,-0.0,-0.0,-1.0,0.0805674399979399,2.0
18.044200897216797,0.20416131615638733,-0.33861660957336426,-0.0,-0.0,-1.0,0.04456971177756653,2.0
18.217266082763672,0.2912103533744812,-0.38643336296081543,-0.0,-0.0,-1.0,0.026266581272008926,2.0
17.808330535888672,0.8512248396873474,-0.2935006618499756,0.8124034341780413,0.19737075085033604,-0.5486760855409131,0.24185142827573813,4.0
18.17144012451172,0.6075109243392944,-0.3823564052581787,-0.0,-0.0,-1.0,0.04995262147095984,1.0
17.74212646484375,1.298445463180542,-0.29141783714294434,-0.0,-0.0,-1.0,0.0986344743942071,1.0
17.93732452392578,1.57986581325531,-0.35427212715148926,-0.0,-0.0,-1.0,0.2279126262063767,2.0
18.203706741333008,1.5637271404266357,-0.42387890815734863,-0.0,-0.0,-1.0,0.08068354162682634,1.0
18.31343650817871,1.5513691902160645,0.16152167320251465,0.48204516568855255,-0.6070909977665698,0.6317222322089721,0.23988817016368297,6.0
17.85235595703125,-0.04960545897483826,-0.407991886138916,-0.0,-0.0,-1.0,0.028482846938576303,1.0
19.44268035888672,-0.10860471427440643,-0.3547697067260742,-0.0,-0.0,-1.0,0.026961849083428132,1.0
17.791561126708984,0.2716570794582367,-0.40038490295410156,-0.0,-0.0,-1.0,0.02940149534076559,2.0
19.336023330688477,0.5237627029418945,-0.3489222526550293,-0.0,-0.0,-1.0,0.026528118083137615,1.0
17.718502044677734,0.819975733757019,-0.40279293060302734,-0.0,-0.0,-1.0,0.2012494030103935,1.0
19.297870635986328,0.7408819198608398,-0.34786462783813477,-0.0,-0.0,-1.0,0.03929363617883485,2.0
19.345834732055664,0.7427339553833008,-0.362673282623291,-0.9761305916891918,-0.17321897068535583,0.13101242751439354,0.028668208123690614,3.0
17.736827850341797,1.0341044664382935,-0.4212808609008789,-0.0,-0.0,-1.0,0.11369315814121816,1.0
19.28557777404785,1.0132018327713013,-0.3583807945251465,-0.0,-0.0,-1.0,0.12146275559926073,2.0
19.329273223876953,0.9609589576721191,-0.3688621520996094,-0.0,-0.0,-1.0,0.06964585594534559,1.0
19.20880126953125,0.11444850265979767,-0.29216575622558594,-0.0,-0.0,-1.0,0.06813554746778981,1.0
19.14571762084961,0.31316936016082764,-0.2814173698425293,-0.3156260871257177,0.6340120000282204,-0.7059808474356262,0.13154142802133398,3.0
17.8093204498291,1.0778380632400513,0.0872964859008789,-0.0,-0.0,-1.0,0.17469383051264395,1.0
17.864187240600586,1.5050177574157715,0.04480457305908203,-0.0,-0.0,-1.0,0.09777019121148849,1.0
19.169382095336914,1.123664379119873,-0.16267061233520508,-0.04382439148727098,0.9373806011822693,-0.3455387550448395,0.16519109144247823,3.0
17.785839080810547,0.38515156507492065,0.3198275566101074,-0.829296114757203,0.26520657411429943,-0.49186728605912083,0.052046072465871195,3.0
17.756071090698242,0.6580123901367188,0.3205270767211914,-0.0,-0.0,-1.0,0.05225816911131757,2.0
19.230667114257812,-0.12958621978759766,-0.2953619956970215,-0.0,-0.0,-1.0,0.037064422367100086,2.0
19.514225006103516,0.06921911239624023,-0.31920456886291504,-0.0,-0.0,-1.0,0.06079498298717648,1.0
19.04591178894043,-0.3123946189880371,-0.29048752784729004,-0.0,-0.0,-1.0,0.04930655920169373,1.0
19.24629783630371,0.1026458740234375,-0.2586710453033447,-0.0,-0.0,-1.0,0.05913606067847191,1.0
18.544185638427734,0.8946647644042969,0.017867326736450195,-0.0,-0.0,-1.0,0.1271236228307032,1.0
18.1231689453125,0.9830002784729004,0.1197195053100586,0.31501357885119535,-0.928410623143885,0.19702832276844026,0.16803134901204728,3.0
19.212047576904297,0.941709041595459,-0.277285099029541,-0.0,-0.0,-1.0,0.11887416358701502,1.0
19.52161407470703,1.4584417343139648,-0.24995851516723633,-0.0,-0.0,-1.0,0.04395138014486067,1.0
18.715957641601562,0.3777656555175781,-0.2859933376312256,-0.0,-0.0,-1.0,0.10342389503624688,1.0
19.269676208496094,1.3404779434204102,-0.21838593482971191,-0.0,-0.0,-1.0,0.096565463845765,1.0
19.058727264404297,1.2484550476074219,-0.19152355194091797,-0.0,-0.0,-1.0,0.1885584592229927,2.0
18.631927490234375,0.33811426162719727,-0.2777285575866699,-0.0,-0.0,-1.0,0.124916311325832,1.0
18.368988037109375,1.595879077911377,0.009593486785888672,0.17295861740388926,0.2530858348529337,-0.9518575927430155,0.1887478415865835,6.0
18.024837493896484,-0.09050559997558594,-0.25211215019226074,-0.0,-0.0,-1.0,0.03476163162713549,1.0
18.180809020996094,0.028228759765625,-0.25597095489501953,-0.0,-0.0,-1.0,0.061362538160625535,1.0
18.35205078125,1.5613837242126465,0.006841421127319336,0.7688966123348888,-0.520749461315606,-0.37096899881181183,0.18607741620047047,4.0
17.973602294921875,1.5985760688781738,0.08930420875549316,0.04495358903234814,0.03241939727869444,-0.9984628974144191,0.20324720108610983,6.0
17.82138442993164,-0.23450231552124023,-0.24635553359985352,-0.0,-0.0,-1.0,0.028972854515656826,1.0
17.728797912597656,0.658900260925293,-0.04418349266052246,-0.0,-0.0,-1.0,0.1714266758460054,1.0
17.768699645996094,0.8297362327575684,-0.017503976821899414,-0.0,-0.0,-1.0,0.21832349535897672,2.0
17.797046661376953,1.3627796173095703,0.08011102676391602,0.994736581682551,0.02134804309223853,-0.10021673572136237,0.1509899854402935,5.0
17.93529510498047,1.559187889099121,0.08970141410827637,0.5820145145694396,-0.7985269084663905,0.15366808805216592,0.2077520734209048,6.0
19.568721771240234,0.7205257415771484,-0.33724236488342285,-0.9841726846150566,-0.023280353752157562,0.1756762704145517,0.019175931378996796,3.0
19.156471252441406,1.110250473022461,-0.19742250442504883,-0.0,-0.0,-1.0,0.13021244627663395,2.0
18.806743621826172,0.08300590515136719,-0.330472469329834,-0.26247546547141454,-0.840266406675202,-0.47440383202363345,0.045245590096292324,4.0
18.616256713867188,-0.08427810668945312,-0.3329489231109619,-0.0,-0.0,-1.0,0.024948664206622798,1.0
18.40704917907715,1.6293854713439941,-0.4107518196105957,-0.0,-0.0,-1.0,0.13830855035246556,2.0
18.073226928710938,1.4865212440490723,-0.37371039390563965,-0.0,-0.0,-1.0,0.1228682956846106,2.0
17.79553985595703,1.5334563255310059,-0.3097693920135498,-0.19545121084115025,-0.46080490809590496,-0.8657122275071856,0.20574009347977956,3.0
18.362228393554688,1.6243023872375488,0.02949690818786621,0.3473603019943271,-0.9227871631480917,0.16674733019603924,0.17075338446991892,5.0
17.887903213500977,0.6611013412475586,-0.07299327850341797,0.7261568082390959,-0.4936823968047294,-0.47851225787135965,0.19616299811489188,3.0
17.97158432006836,1.5692076683044434,0.08524584770202637,-0.32605996599231224,0.5683992163705416,-0.755385483979171,0.1746202212687631,8.0
17.75533676147461,0.9347777366638184,0.001077890396118164,0.5841885145967707,0.6802451399256465,-0.4427079500311197,0.16524834979208244,3.0
17.8262996673584,1.4082212448120117,0.07955408096313477,0.356025836683428,-0.9144045111042844,-0.19263954341204204,0.1652369791284314,3.0
17.771835327148438,0.7597184181213379,0.3926873207092285,-0.0,-0.0,-1.0,0.08916022860177085,1.0
18.692453384399414,1.6214065551757812,-0.410290002822876,0.041660102315345185,0.260888279061277,-0.9644696686384282,0.04775837278460018,3.0
18.327274322509766,1.5089640617370605,-0.36414170265197754,0.31641971373965155,-0.7317192277600436,-0.6037098114849244,0.11099363368163838,4.0
17.76020050048828,0.7906761169433594,-0.40799617767333984,-0.0,-0.0,-1.0,0.21302036088746737,1.0
17.792444229125977,0.9882745742797852,-0.3728194236755371,-0.0,-0.0,-1.0,0.2053108431914243,1.0
17.9664306640625,1.4307475090026855,-0.31417417526245117,-0.0,-0.0,-1.0,0.17112718062439264,2.0
19.543914794921875,0.3919687271118164,-0.2889676094055176,0.22801441004193793,-0.5046046606973511,-0.8326965625098606,0.08378636227769541,6.0
18.118932723999023,1.509598731994629,-0.10123157501220703,0.24314388548774588,0.2815443550058857,-0.9282315589949749,0.2593840013832495,6.0
17.828535079956055,1.3641777038574219,-0.303117036819458,-0.6148960906658126,-0.7031787493907009,-0.3569908179340623,0.1528721295014453,4.0
19.634521484375,1.6210832595825195,-0.37679147720336914,-0.0,-0.0,-1.0,0.15993021472455216,1.0
19.325328826904297,1.6316719055175781,-0.3278987407684326,-0.3881695933788264,0.7989090247971405,-0.45942217716801464,0.11510389567629244,4.0
19.161205291748047,1.5265674591064453,-0.32337498664855957,-0.7722906699606266,0.2911789255981943,-0.5646077880965226,0.0956124325961078,3.0
18.220062255859375,0.06856155395507812,-0.20239710807800293,-0.0,-0.0,-1.0,0.09171989483515305,1.0
18.488052368164062,-0.05480194091796875,-0.2259829044342041,-0.0,-0.0,-1.0,0.09529948744819597,2.0
18.743511199951172,-0.11024093627929688,-0.24441885948181152,-0.0,-0.0,-1.0,0.018389763266551326,1.0
19.311044692993164,0.056224822998046875,-0.26680946350097656,0.35524806188287256,0.9191910925799132,0.16996043613208411,0.05572202950603288,5.0
17.866727828979492,1.3629875183105469,0.03382158279418945,0.9166423731388145,-0.39437538196739813,0.06507547821192396,0.12437003158441404,4.0
17.723466873168945,1.2662982940673828,0.038457393646240234,0.9929228221732311,-0.08279968822702058,-0.08513801053027921,0.08040219672108258,8.0
17.999841690063477,1.5577011108398438,0.036559343338012695,0.48279096671677973,-0.8734145157254164,-0.06371786387516211,0.19662744622018308,8.0
17.839969635009766,1.4440670013427734,-0.20165085792541504,-0.0,-0.0,-1.0,0.1624233321762781,1.0
18.942066192626953,1.1986656188964844,-0.2997105121612549,0.14695744255204773,-0.18272165664635162,-0.9721194917657882,0.15543323443534326,3.0
18.71625518798828,0.7007389068603516,-0.32386088371276855,-0.0,-0.0,-1.0,0.039201463191998104,1.0
19.20562171936035,1.5164375305175781,-0.29318737983703613,-0.0,-0.0,-1.0,0.10918107509431041,2.0
19.29860496520996,1.5680465698242188,-0.2958500385284424,0.9958473805498878,-0.04968042834218105,-0.07628793935913748,0.1967882592187938,3.0
17.927562713623047,1.502227783203125,0.07762002944946289,-0.6757131991647768,0.007960873481313194,-0.7371216296975128,0.21264000311883086,4.0
17.7139892578125,1.2406864166259766,0.07529497146606445,-0.5851914485192993,0.8049930974811158,0.09765798271335764,0.1144912828447449,6.0
18.06671142578125,1.5551528930664062,0.07044315338134766,0.6024980348581824,-0.058166220158905615,-0.7959979954902235,0.21811929873191674,8.0
17.95874786376953,1.4014911651611328,-0.10038447380065918,-0.0,-0.0,-1.0,0.14229609122333164,2.0
18.35736656188965,1.1017742156982422,-0.1549513339996338,0.006406545546374077,0.3204705729580295,-0.9472368067395369,0.2436579567490952,5.0
18.772144317626953,-0.04226493835449219,-0.28639912605285645,-0.0,-0.0,-1.0,0.03933538190683609,1.0
19.08579444885254,0.43016815185546875,-0.2668781280517578,0.13437090656413933,0.05601285762247393,-0.9893467639054043,0.09323282125175494,5.0
18.940185546875,0.13852691650390625,-0.282320499420166,-0.0,-0.0,-1.0,0.07013224358170558,1.0
17.7457332611084,1.2932491302490234,-0.11868000030517578,-0.0,-0.0,-1.0,0.06454087322859882,2.0
17.979063034057617,1.4467887878417969,-0.11846613883972168,-0.5343503166041559,-0.8276602905251155,0.17160472788626543,0.19837904067381618,6.0
18.450088500976562,-0.024965286254882812,-0.297943115234375,0.3035221518840907,-0.6779976131331209,-0.6694725833829507,0.048837717521093664,3.0
18.76418113708496,0.2432117462158203,-0.29255056381225586,-0.0,-0.0,-1.0,0.04389727535309492,2.0
18.7658634185791,0.22752952575683594,-0.29425716400146484,-0.4127123094232904,0.05467181120063026,-0.9092191939848921,0.04389727535309493,3.0
19.035320281982422,0.46056556701660156,-0.28978633880615234,0.7472586507517762,-0.4562462120108898,-0.48316032836145517,0.07247717383141136,5.0
19.619558334350586,0.8944931030273438,-0.2887580394744873,-0.0,-0.0,-1.0,0.037125237429814495,2.0
17.796091079711914,1.3240013122558594,0.07439231872558594,0.910029229679363,0.4092495075453978,-0.06604272634465119,0.13602979858853984,7.0
18.098644256591797,1.5477104187011719,0.07448220252990723,0.3985361062061529,-0.1171590281928956,-0.9096387932376977,0.17403862371738443,8.0
17.82746124267578,1.3043594360351562,-0.0054972171783447266,-0.0,-0.0,-1.0,0.05373847642679891,2.0
18.032182693481445,1.4573173522949219,-0.004319190979003906,-0.0,-0.0,-1.0,0.2536685197649271,2.0
18.370176315307617,1.1761798858642578,-0.06361913681030273,-0.0,-0.0,-1.0,0.1654027276533014,1.0
18.351993560791016,-0.2122631072998047,-0.22005248069763184,0.48639290156480713,-0.08977488487114246,-0.8691158814299398,0.11929617951518905,3.0
18.66951560974121,-0.3543052673339844,-0.26225924491882324,-0.0,-0.0,-1.0,0.030080479365420597,1.0
18.413862228393555,1.5561695098876953,-0.02400040626525879,0.5380901824147276,0.003400574724084494,-0.842880413629615,0.17937678967856738,3.0
18.882278442382812,-0.06566047668457031,-0.24727988243103027,-0.0,-0.0,-1.0,0.05400696981515507,2.0
19.092266082763672,0.35256385803222656,-0.21766424179077148,-0.36064943612456596,0.040636475984752916,-0.9318157870751994,0.126566747905554,4.0
19.696252822875977,0.312530517578125,-0.2749783992767334,-0.0,-0.0,-1.0,0.08489149855904142,1.0
17.71538543701172,1.2684783935546875,0.09360265731811523,0.31898807171601223,0.4508383795927192,-0.8336614214350521,0.13364107160820238,8.0
18.02557945251465,1.518453598022461,0.10152935981750488,-0.278253518733318,-0.1500149285763634,-0.9487204543577394,0.18535407750034177,6.0
18.365659713745117,1.5709075927734375,0.08382844924926758,0.49848101709508225,-0.3420084482324669,-0.7965845196421233,0.146885163190854,11.0
17.924457550048828,1.3598575592041016,0.13232874870300293,0.7118967354208748,-0.35207577540988366,-0.6076558947847294,0.14865764498068143,5.0
18.283090591430664,1.6071853637695312,0.12789201736450195,-0.0,-0.0,-1.0,0.16503451680102552,2.0
18.04598045349121,-0.000835418701171875,-0.31615662574768066,-0.0,-0.0,-1.0,0.047051495767083874,1.0
18.367053985595703,0.05188751220703125,-0.33237671852111816,-0.0,-0.0,-1.0,0.15395760608941778,1.0
17.743045806884766,0.6036376953125,-0.20937681198120117,-0.0,-0.0,-1.0,0.19956745227387357,1.0
17.83551788330078,0.6813850402832031,-0.20480942726135254,-0.0,-0.0,-1.0,0.16119219597117146,1.0
18.460525512695312,0.09724044799804688,-0.3330807685852051,-0.0,-0.0,-1.0,0.06399949593421926,2.0
17.982521057128906,1.360086441040039,-0.11962771415710449,-0.0,-0.0,-1.0,0.16816525051298487,1.0
18.248790740966797,1.04229736328125,-0.18396520614624023,0.9080042287739851,0.13828231165155835,-0.3954823925446768,0.20491691712738352,4.0
18.583030700683594,0.290130615234375,-0.31534671783447266,0.5358712594328157,0.8152363478052516,-0.21961714534854215,0.04399431703786841,4.0
19.498186111450195,0.7309093475341797,-0.329087495803833,-0.0,-0.0,-1.0,0.01526808897232793,1.0
19.659839630126953,0.6927394866943359,-0.3487124443054199,-0.0,-0.0,-1.0,0.016773220107196833,2.0
19.5607852935791,-0.22591209411621094,-0.30308103561401367,-0.0,-0.0,-1.0,0.028684297341200617,2.0
17.93181037902832,1.6261749267578125,0.07289814949035645,-0.0,-0.0,-1.0,0.1262799743502915,1.0
18.217039108276367,1.6168403625488281,0.052343130111694336,-0.0,-0.0,-1.0,0.1792282853379835,1.0
19.616954803466797,0.38326263427734375,-0.22462058067321777,-0.0,-0.0,-1.0,0.09428911063956842,2.0
19.675426483154297,0.38811492919921875,-0.2289283275604248,-0.0,-0.0,-1.0,0.07006014769675326,1.0
18.175769805908203,-0.20878982543945312,-0.2752857208251953,-0.08109984186968462,-0.4239010652342729,-0.9020702314908527,0.12898580254633313,4.0
18.39552879333496,-0.17591285705566406,-0.281322717666626,-0.5776426416452528,-0.5738635740749628,0.5805252594874778,0.09373166312136486,4.0
18.38526153564453,0.9688167572021484,-0.10985517501831055,-0.2394817181128669,-0.10003802526058858,-0.9657333483895392,0.201073902643637,3.0
19.682086944580078,0.10914230346679688,-0.31343770027160645,-0.0,-0.0,-1.0,0.09978949368133488,2.0
17.878414154052734,1.423492431640625,-0.018181800842285156,0.9602279951002801,-0.039639542279938635,0.27638904485079246,0.13750652300760927,5.0
18.165990829467773,1.2260265350341797,-0.060724735260009766,-0.07029620907314452,0.934621883461032,-0.3486264160182047,0.15082767771172667,3.0
18.017648696899414,1.555471420288086,-0.004685640335083008,0.6523307164580764,-0.7533516742442854,0.08322193988741701,0.21399159725350517,5.0
18.24034309387207,1.545724868774414,-0.016671180725097656,-0.0,-0.0,-1.0,0.16479064361955634,1.0
19.59050178527832,-0.23218154907226562,-0.30966997146606445,-0.0,-0.0,-1.0,0.0286842973412006,2.0
17.775104522705078,1.300079345703125,0.016846179962158203,0.7558895424592308,-0.2316264363008857,0.612356263630353,0.06660594364231669,3.0
18.188474655151367,1.0963191986083984,-0.03039383888244629,0.9891489295123416,0.046387831947164754,-0.13940073275212883,0.10452237814291802,3.0
19.542024612426758,0.18517494201660156,-0.24164676666259766,-0.6052408163034716,0.016104296286095443,-0.795879517214407,0.08833438297322599,6.0
18.15826988220215,1.2924127578735352,0.0010833740234375,-0.8437184001562607,0.16781883191421165,-0.5098785158179443,0.1595734860210935,4.0
17.99708366394043,1.52117919921875,0.042643070220947266,0.607569815998875,-0.791136861083953,0.0704371047199081,0.271226862561183,6.0
18.23830223083496,1.5220890045166016,0.033109188079833984,-0.0,-0.0,-1.0,0.2567659160623655,2.0
18.18628692626953,1.129995346069336,0.05411815643310547,0.8274018254334771,0.3302886229072212,0.45421981996319927,0.2609146610650751,4.0
17.80483627319336,1.3084640502929688,0.08106708526611328,0.7942218940453762,0.6000715802093513,0.09552843369398939,0.1144667637036883,6.0
18.02773094177246,1.477879524230957,0.1058192253112793,-0.9927751772973057,0.04146410400517178,-0.11259740415014458,0.09260805737525833,8.0
18.11638832092285,1.5252618789672852,0.11266899108886719,0.5498709946309022,-0.6903158929860727,-0.470218945975663,0.08200065623353765,6.0
18.365745544433594,1.5381584167480469,0.11344408988952637,0.10635451253781965,-0.9304516849962001,-0.35063995715060015,0.2449828370343692,12.0
18.736080169677734,-0.29096221923828125,-0.273695707321167,-0.0,-0.0,-1.0,0.03062745121285344,1.0
19.14369773864746,-0.3577613830566406,-0.27995824813842773,-0.0,-0.0,-1.0,0.025991220537269002,1.0
17.80427360534668,1.360483169555664,-0.04183602333068848,-0.0,-0.0,-1.0,0.05352039437700548,1.0
18.13064193725586,1.226201057434082,-0.05312919616699219,-0.0,-0.0,-1.0,0.14700741489251432,2.0
18.031042098999023,1.490208625793457,-0.01587510108947754,0.9643868067783384,-0.05727915266932269,-0.2582192587344411,0.18817146960043032,3.0
18.609601974487305,0.9430637359619141,-0.33844685554504395,0.7580952586594838,0.33586120162292843,0.5590070053607675,0.07437892028661214,3.0
18.77048110961914,0.8878087997436523,-0.3436760902404785,-0.0,-0.0,-1.0,0.04092686329682486,1.0
19.445940017700195,0.9572906494140625,-0.31955885887145996,-0.0,-0.0,-1.0,0.058660187486524774,2.0
19.687326431274414,0.8891611099243164,-0.32807230949401855,-0.0,-0.0,-1.0,0.03459122584637917,2.0
17.735076904296875,1.4177656173706055,-0.28933119773864746,-0.0,-0.0,-1.0,0.10232126493480034,1.0
17.915416717529297,1.4368610382080078,-0.2794673442840576,-0.0,-0.0,-1.0,0.1786287524260103,2.0
19.0633487701416,1.2518949508666992,-0.277172327041626,-0.0,-0.0,-1.0,0.21891601664815552,1.0
19.269176483154297,1.2181825637817383,-0.27898454666137695,-0.0,-0.0,-1.0,0.08327000819515622,2.0
18.36774253845215,0.3498649597167969,-0.3900785446166992,-0.0,-0.0,-1.0,0.05549083484782565,2.0
18.66117286682129,0.39830780029296875,-0.373382568359375,-0.3337283140069786,-0.208288447751799,-0.9193700750857653,0.03138645030176576,5.0
19.08511734008789,0.5016040802001953,-0.34548163414001465,-0.0,-0.0,-1.0,0.07128010127004207,2.0
19.444509506225586,0.4979286193847656,-0.33800292015075684,-0.0,-0.0,-1.0,0.03339099497648031,2.0
18.469955444335938,0.9176006317138672,-0.29790544509887695,0.8415131267339564,0.5086000401906335,0.18215832852912903,0.13709630571848966,6.0
