x,y,z,nx,ny,nz,curvature,density
51.28675079345703,-5.785322189331055,-0.8314454555511475,-0.0,-0.0,-1.0,0.13855968503185204,1.0
51.650264739990234,-5.567951202392578,-0.7884416580200195,-0.0,-0.0,-1.0,0.16185954422511417,2.0
51.534996032714844,-5.627523422241211,-0.7928847074508667,-0.0,-0.0,-1.0,0.10085223213534947,1.0
51.64179229736328,-5.53449821472168,-0.7554616928100586,-0.6724876266531622,0.42620047807926714,-0.6050731728339981,0.21970170120416974,3.0
50.72905731201172,-4.4162750244140625,-1.0990492105484009,-0.0,-0.0,-1.0,0.04668993857549215,2.0
49.86830139160156,-6.157947540283203,-0.9881253242492676,-0.0,-0.0,-1.0,0.009969360978910432,2.0
50.68253707885742,-5.91949462890625,-0.9971895217895508,-0.0,-0.0,-1.0,0.07899386633836235,1.0
51.151893615722656,-5.988000869750977,-1.024965763092041,-0.0,-0.0,-1.0,0.0574315516843861,1.0
51.55414962768555,-5.117911338806152,-1.054479956626892,0.25351438034479123,0.586610066945452,-0.7691677894430113,0.07081505340343583,4.0
51.66794967651367,-5.197190284729004,-1.010598063468933,-0.0,-0.0,-1.0,0.08124744445931445,2.0
50.83916091918945,-4.4484453201293945,-1.1042962074279785,-0.0,-0.0,-1.0,0.056043526826631766,1.0
49.77146530151367,-6.190242767333984,-0.9749940633773804,-0.0,-0.0,-1.0,0.009969360978910434,1.0
50.39057922363281,-5.962770462036133,-0.947039008140564,-0.0,-0.0,-1.0,0.08479212885630465,2.0
51.291439056396484,-5.593605041503906,-0.9061969518661499,-0.0,-0.0,-1.0,0.11299522781011448,2.0
50.97011947631836,-4.743775367736816,-0.9526746273040771,-0.0,-0.0,-1.0,0.04182321695162218,1.0
51.596702575683594,-5.507285118103027,-0.781434178352356,-0.0,-0.0,-1.0,0.19481138657973343,1.0
51.23346710205078,-4.666873931884766,-1.1075884103775024,-0.0,-0.0,-1.0,0.03851218307223922,1.0
51.52663803100586,-5.6842145919799805,-0.744439959526062,-0.936897530376062,-0.22924665703278793,0.26394883559987,0.06530712069693294,3.0
51.609535217285156,-5.593810081481934,-0.7687203884124756,-0.0,-0.0,-1.0,0.13888441406158614,2.0
50.426795959472656,-5.693070411682129,-0.9453632831573486,-0.0,-0.0,-1.0,0.041062983863974015,1.0
50.47795104980469,-5.574405670166016,-1.0357192754745483,-0.0,-0.0,-1.0,0.027358060175207064,1.0
51.639122009277344,-5.058876037597656,-1.085570216178894,-0.0,-0.0,-1.0,0.05887801595167283,1.0
51.25212478637695,-6.007032871246338,-1.0439355373382568,-0.0,-0.0,-1.0,0.06264613082029026,1.0
51.274169921875,-4.395270824432373,-1.0291286706924438,-0.0,-0.0,-1.0,0.04297685676356015,1.0
51.22898864746094,-5.602997303009033,-0.9301388263702393,-0.0,-0.0,-1.0,0.12335666008989984,2.0
51.39560317993164,-6.305018901824951,-0.991175651550293,-0.0,-0.0,-1.0,0.07879995152270028,2.0
51.59713363647461,-6.091899394989014,-0.8590210676193237,0.6850720927025038,-0.00020621940752908418,-0.7284752468504117,0.17661389774304673,3.0
50.391754150390625,-5.610372066497803,-0.969416618347168,-0.0,-0.0,-1.0,0.03355383082778488,1.0
50.62776184082031,-6.189246654510498,-1.0389814376831055,-0.0,-0.0,-1.0,0.07962650922267007,1.0
51.57750701904297,-6.093842029571533,-0.877477765083313,0.6146994355191392,-0.1747157589987053,-0.7691677369273604,0.14263858906963012,4.0
50.6669921875,-6.164909362792969,-0.973473072052002,-0.0,-0.0,-1.0,0.07488741211675735,2.0
50.93496322631836,-6.281681060791016,-0.9575152397155762,-0.0,-0.0,-1.0,0.04343351293255667,1.0
51.182228088378906,-5.577382564544678,-0.9535372257232666,-0.0,-0.0,-1.0,0.10004891220620139,2.0
51.37071228027344,-6.028090000152588,-1.009917974472046,-0.0,-0.0,-1.0,0.12127667618261365,1.0
51.607208251953125,-6.162631034851074,-0.8374893665313721,-0.0,-0.0,-1.0,0.13573440029927408,2.0
51.52947235107422,-5.285633087158203,-1.0687308311462402,-0.0,-0.0,-1.0,0.06970482909799058,1.0
51.64482879638672,-5.141989707946777,-1.0885062217712402,-0.0,-0.0,-1.0,0.06941266674491024,1.0
51.4602165222168,-5.623889446258545,-1.0405631065368652,-0.0,-0.0,-1.0,0.1307753544544199,1.0
51.5344352722168,-5.396514415740967,-1.0705475807189941,-0.0,-0.0,-1.0,0.08811802716861637,2.0
50.86687088012695,-4.474147319793701,-1.0601105690002441,-0.0,-0.0,-1.0,0.054174223252826226,1.0
51.58769607543945,-5.787925720214844,-0.7711472511291504,-0.0,-0.0,-1.0,0.1203043674896686,2.0
51.37041473388672,-5.967477798461914,-0.7958388328552246,-0.0,-0.0,-1.0,0.1724734485203093,1.0
51.667205810546875,-6.2326154708862305,-1.003744125366211,-0.0,-0.0,-1.0,0.10805632409401186,1.0
51.416439056396484,-5.732637405395508,-0.9526093006134033,-0.0,-0.0,-1.0,0.1885518601843193,1.0
51.45761489868164,-5.767547607421875,-0.9446847438812256,-0.0,-0.0,-1.0,0.13997247656412307,1.0
51.50714874267578,-5.526113510131836,-0.9403939247131348,-0.0,-0.0,-1.0,0.13693664989964405,2.0
51.573829650878906,-5.488811492919922,-0.8501677513122559,-0.0,-0.0,-1.0,0.19452744625983542,1.0
51.706207275390625,-5.293571472167969,-1.067249059677124,-0.0,-0.0,-1.0,0.06026642035751733,1.0
51.398597717285156,-5.402469635009766,-1.0497593879699707,-0.0,-0.0,-1.0,0.11824484626650134,1.0
51.449859619140625,-5.604669570922852,-0.921654462814331,-0.0,-0.0,-1.0,0.15836968588155628,1.0
51.55084228515625,-5.96684455871582,-0.9353835582733154,-0.0,-0.0,-1.0,0.11259438597980305,1.0
51.60594177246094,-5.495420455932617,-0.9306890964508057,-0.0,-0.0,-1.0,0.18238268180559197,1.0
51.47447967529297,-5.495397567749023,-1.1444590091705322,-0.0,-0.0,-1.0,0.07796074630253391,1.0
51.233848571777344,-5.9258880615234375,-0.8225748538970947,-0.0,-0.0,-1.0,0.12189233450577706,1.0
51.414215087890625,-5.690471649169922,-0.84761643409729,-0.0,-0.0,-1.0,0.12916996196964692,1.0
51.48977279663086,-5.82154655456543,-0.765765905380249,-0.0,-0.0,-1.0,0.10542096197026644,2.0
51.4432258605957,-6.053138732910156,-0.754615068435669,-0.0,-0.0,-1.0,0.18100641803179704,1.0
50.26754379272461,-5.627758026123047,-1.0278427600860596,-0.0,-0.0,-1.0,0.025969503934979737,1.0
50.36669921875,-5.878660202026367,-1.045114278793335,-0.0,-0.0,-1.0,0.03686183256046397,2.0
50.00437927246094,-5.222663879394531,-0.9864637851715088,-0.0,-0.0,-1.0,0.019110956680608762,1.0
50.55247497558594,-5.125171661376953,-1.0574874877929688,-0.0,-0.0,-1.0,0.024381325442453756,1.0
50.79521179199219,-4.75433349609375,-1.084505319595337,-0.0,-0.0,-1.0,0.03922676464281259,1.0
50.407405853271484,-6.001857757568359,-0.973395586013794,-0.0,-0.0,-1.0,0.09456958688772828,1.0
50.702980041503906,-6.177219390869141,-1.0047719478607178,-0.6707811471904486,-0.43651580060053635,-0.5995886993597687,0.07488741211675737,3.0
50.995628356933594,-6.021993637084961,-1.0319702625274658,-0.0,-0.0,-1.0,0.042421995629117776,1.0
50.35661315917969,-5.650104522705078,-0.9640586376190186,-0.0,-0.0,-1.0,0.037347760341414175,1.0
50.63346862792969,-5.795658111572266,-0.9932796955108643,-0.0,-0.0,-1.0,0.02464522657310848,1.0
51.0460205078125,-5.84532356262207,-1.034972906112671,-0.0,-0.0,-1.0,0.04501688129887359,1.0
51.159324645996094,-5.582086563110352,-1.0434117317199707,-0.0,-0.0,-1.0,0.10149299764848906,1.0
51.3089714050293,-5.507476806640625,-1.0576839447021484,-0.0,-0.0,-1.0,0.11487597996300108,1.0
51.552215576171875,-5.148561477661133,-1.078704833984375,0.37344716303669967,0.5605960870466767,-0.7391002933349407,0.06801657263090727,3.0
49.86005783081055,-4.369508743286133,-0.8997642993927002,-0.0,-0.0,-1.0,0.03510116780635028,1.0
51.51751708984375,-5.689676284790039,-0.7815587520599365,-0.8731828167106577,-0.3413681270987723,0.3478786719566442,0.08882776837285845,4.0
51.68141555786133,-5.797325134277344,-0.7566924095153809,-0.0,-0.0,-1.0,0.16690154981480856,1.0
51.586570739746094,-5.608171463012695,-0.7971729040145874,-0.4663511218926142,0.8819239986884536,-0.0687509392435353,0.129548260161544,3.0
51.573646545410156,-5.631826400756836,-0.7535312175750732,-0.0,-0.0,-1.0,0.11594909909593966,1.0
49.861236572265625,-5.469257354736328,-0.9992060661315918,-0.0,-0.0,-1.0,0.00614535941744211,2.0
50.04325866699219,-5.510200500488281,-1.0159964561462402,-0.0,-0.0,-1.0,0.00785710712477857,1.0
50.71556091308594,-5.399648666381836,-1.0550293922424316,-0.0,-0.0,-1.0,0.021485718430202673,2.0
50.993263244628906,-5.312639236450195,-1.0682146549224854,-0.0,-0.0,-1.0,0.03901546688990918,1.0
51.24986267089844,-5.331905364990234,-1.0902948379516602,-0.0,-0.0,-1.0,0.07575686869604184,2.0
50.311180114746094,-5.079843521118164,-0.9941339492797852,-0.0,-0.0,-1.0,0.030647413074381413,1.0
51.46339416503906,-5.098300933837891,-1.0855884552001953,-0.0,-0.0,-1.0,0.057090334067690617,2.0
51.42275619506836,-4.738542556762695,-1.048314094543457,-0.0,-0.0,-1.0,0.022964317379257467,1.0
50.02278518676758,-6.163251876831055,-0.9946801662445068,-0.0,-0.0,-1.0,0.011896938337442436,1.0
50.0058479309082,-5.948930740356445,-0.9722723960876465,-0.0,-0.0,-1.0,0.01054023572231917,1.0
50.60622024536133,-5.883289337158203,-0.9902472496032715,-0.0,-0.0,-1.0,0.057776401272683235,1.0
50.84477233886719,-6.000709533691406,-1.0124852657318115,-0.0,-0.0,-1.0,0.04744355796894535,2.0
50.13785171508789,-5.647787094116211,-0.9469444751739502,-0.0,-0.0,-1.0,0.012558406458786458,1.0
50.47465133666992,-5.677265167236328,-0.963803768157959,-0.0,-0.0,-1.0,0.040208692712806963,1.0
51.03312301635742,-5.96240234375,-1.0169954299926758,-0.0,-0.0,-1.0,0.0574208956404865,1.0
51.20729446411133,-5.812583923339844,-1.0098116397857666,-0.0,-0.0,-1.0,0.08780098426530741,2.0
51.4703483581543,-5.510377883911133,-0.9917795658111572,-0.0,-0.0,-1.0,0.14001623775530464,1.0
50.033451080322266,-4.972217559814453,-1.0013720989227295,-0.0,-0.0,-1.0,0.02922471523118714,1.0
50.27951431274414,-4.917686462402344,-1.0089507102966309,-0.0,-0.0,-1.0,0.03684060917392957,1.0
50.72486114501953,-5.157081604003906,-1.0610928535461426,-0.0,-0.0,-1.0,0.016547331426202246,1.0
51.053009033203125,-5.240633010864258,-1.0899083614349365,-0.0,-0.0,-1.0,0.0336089821325287,1.0
50.51500701904297,-4.696250915527344,-0.9976425170898438,-0.0,-0.0,-1.0,0.048445487419219856,1.0
50.87528991699219,-4.80921745300293,-1.0313186645507812,-0.0,-0.0,-1.0,0.039703239741242895,1.0
51.19236373901367,-5.181051254272461,-1.0918035507202148,-0.0,-0.0,-1.0,0.04839796415572586,1.0
51.43553924560547,-5.080944061279297,-1.0958104133605957,0.4717100219338735,0.8631434355424089,0.180202843726708,0.04631388620512265,3.0
50.91160202026367,-4.37750244140625,-0.9855470657348633,-0.0,-0.0,-1.0,0.057413516818911915,1.0
51.309852600097656,-4.900537490844727,-1.067948579788208,-0.0,-0.0,-1.0,0.01890056056424381,2.0
51.6690673828125,-4.990947723388672,-1.10072922706604,-0.0,-0.0,-1.0,0.04466197712849528,1.0
50.05537414550781,-5.03426456451416,-0.9994107484817505,-0.0,-0.0,-1.0,0.02827325196684276,1.0
49.9146842956543,-5.31571102142334,-1.0293725728988647,-0.0,-0.0,-1.0,0.005509111116552754,2.0
50.50082778930664,-5.506348609924316,-1.0667864084243774,-0.0,-0.0,-1.0,0.023648736595551775,1.0
50.29343795776367,-5.142609596252441,-1.018208384513855,-0.0,-0.0,-1.0,0.02959960359901605,1.0
50.70537185668945,-5.310978889465332,-1.0495461225509644,-0.0,-0.0,-1.0,0.016484517728845308,1.0
50.98896026611328,-5.498709678649902,-1.0803476572036743,-0.0,-0.0,-1.0,0.059927046084529596,1.0
50.65863800048828,-4.753216743469238,-0.9821828603744507,-0.0,-0.0,-1.0,0.060333521150104645,1.0
51.28889846801758,-5.32430362701416,-1.0695754289627075,-0.0,-0.0,-1.0,0.09045047971807003,2.0
51.60097122192383,-5.134284019470215,-1.0581413507461548,-0.0,-0.0,-1.0,0.06941266674491024,2.0
50.21449279785156,-4.506538391113281,-1.059019684791565,-0.0,-0.0,-1.0,0.04168184184419377,1.0
50.47352981567383,-4.486562728881836,-1.0635477304458618,-0.0,-0.0,-1.0,0.054302072863540565,1.0
50.76310729980469,-4.58476448059082,-1.084924340248108,-0.0,-0.0,-1.0,0.04659670666834288,1.0
51.05147171020508,-4.51616096496582,-1.0853337049484253,-0.0,-0.0,-1.0,0.05581410471075703,1.0
51.241661071777344,-4.419065475463867,-1.079201579093933,-0.0,-0.0,-1.0,0.043220817382186416,1.0
51.67153549194336,-4.763538360595703,-1.1398259401321411,-0.0,-0.0,-1.0,0.03551641732965221,1.0
51.635746002197266,-5.781766891479492,-0.7431288957595825,-0.0,-0.0,-1.0,0.12097927981333984,1.0
49.86455154418945,-5.452696800231934,-1.017454743385315,-0.0,-0.0,-1.0,0.006145359417442109,2.0
50.18048858642578,-5.093337059020996,-0.9743486642837524,-0.0,-0.0,-1.0,0.02982759289683639,1.0
50.24859619140625,-5.199301719665527,-0.9887052774429321,-0.0,-0.0,-1.0,0.024488442114914345,1.0
50.318397521972656,-5.587912559509277,-1.0392283201217651,-0.0,-0.0,-1.0,0.0239454464618488,1.0
50.72867965698242,-4.611447334289551,-0.9192522764205933,-0.0,-0.0,-1.0,0.05173865932450433,1.0
50.68791580200195,-5.414175987243652,-1.021722435951233,-0.0,-0.0,-1.0,0.022199955599427165,2.0
50.57809829711914,-5.613451957702637,-1.045709252357483,-0.0,-0.0,-1.0,0.025783982670373455,1.0
51.0946159362793,-5.567536354064941,-1.0475221872329712,-0.0,-0.0,-1.0,0.0819599820949933,1.0
51.54307174682617,-5.300124168395996,-1.0213066339492798,-0.0,-0.0,-1.0,0.08307079183808097,1.0
51.35337829589844,-5.460955619812012,-1.0383409261703491,-0.0,-0.0,-1.0,0.1276355267157229,2.0
51.69608688354492,-4.678954124450684,-1.1390409469604492,-0.0,-0.0,-1.0,0.02441420886607902,1.0
50.03668212890625,-4.7590131759643555,-1.083554983139038,-0.0,-0.0,-1.0,0.033280964459333394,1.0
50.42155838012695,-4.470026969909668,-1.039522647857666,-0.0,-0.0,-1.0,0.05430207286354055,1.0
50.71352005004883,-4.684596061706543,-1.0688352584838867,-0.0,-0.0,-1.0,0.05235775075006097,1.0
50.747039794921875,-4.797524452209473,-1.084787130355835,-0.0,-0.0,-1.0,0.04394726767991812,1.0
51.28207778930664,-4.8736772537231445,-1.09554123878479,-0.0,-0.0,-1.0,0.029190667013830867,2.0
51.13448715209961,-5.017092704772949,-1.1157779693603516,-0.0,-0.0,-1.0,0.019299414496692178,1.0
51.50366973876953,-4.958695411682129,-1.1084578037261963,-0.0,-0.0,-1.0,0.03875662321845979,1.0
51.67176818847656,-5.615671157836914,-0.7600002288818359,-0.0,-0.0,-1.0,0.13983606564240417,2.0
49.85110855102539,-6.151889801025391,-0.9700890779495239,-0.0,-0.0,-1.0,0.009969360978910437,2.0
50.515506744384766,-6.1697540283203125,-0.9748932123184204,-0.0,-0.0,-1.0,0.094107461931539,1.0
51.59285354614258,-5.627910614013672,-0.9145671129226685,-0.7428318380652632,0.5021077652936913,-0.44281898377142587,0.16645219400436811,3.0
51.30099105834961,-5.783620834350586,-0.9312089681625366,-0.0,-0.0,-1.0,0.13769674708389049,2.0
51.01424026489258,-6.261564254760742,-0.9908508062362671,-0.0,-0.0,-1.0,0.030323265545035283,1.0
50.69913864135742,-6.204425811767578,-0.9806674718856812,-0.0,-0.0,-1.0,0.07142849887863784,2.0
50.3957633972168,-4.569708824157715,-1.0237957239151,-0.0,-0.0,-1.0,0.050763369833559537,2.0
51.332828521728516,-4.507624626159668,-0.957805871963501,-0.0,-0.0,-1.0,0.038207826926366525,1.0
51.19208526611328,-4.408590316772461,-0.9320027828216553,-0.0,-0.0,-1.0,0.04384203824502255,1.0
51.418243408203125,-4.626132011413574,-0.9807569980621338,-0.0,-0.0,-1.0,0.03683683011589755,1.0
51.027854919433594,-4.669037818908691,-0.9488358497619629,-0.0,-0.0,-1.0,0.0537666569498105,1.0
49.79707717895508,-5.1897077560424805,-1.046785593032837,-0.0,-0.0,-1.0,0.018437062513524727,1.0
51.64799499511719,-5.448765754699707,-0.7786942720413208,-0.0,-0.0,-1.0,0.1947044156904855,2.0
51.51221466064453,-5.450945854187012,-0.7711230516433716,-0.0,-0.0,-1.0,0.11870114419430161,1.0
51.55303955078125,-4.599885940551758,-1.1053093671798706,-0.0,-0.0,-1.0,0.026800390860627354,1.0
51.2375602722168,-4.473636627197266,-1.0836135149002075,-0.0,-0.0,-1.0,0.04322081738218643,1.0
51.04483413696289,-4.661314010620117,-1.1035805940628052,-0.0,-0.0,-1.0,0.04413353970746239,1.0
50.88056182861328,-4.564510345458984,-1.0886825323104858,-0.0,-0.0,-1.0,0.059541120493179264,1.0
51.407196044921875,-5.325445175170898,-0.968238115310669,-0.0,-0.0,-1.0,0.0900329377787852,1.0
51.62228775024414,-5.296045303344727,-0.9847033023834229,-0.0,-0.0,-1.0,0.08365340512621262,2.0
51.58442687988281,-5.55988883972168,-0.9799361228942871,-0.0,-0.0,-1.0,0.13759719005924667,1.0
51.670814514160156,-5.819936752319336,-0.9846041202545166,-0.0,-0.0,-1.0,0.12925169143851356,1.0
51.589385986328125,-5.685730934143066,-0.776678204536438,-0.0,-0.0,-1.0,0.1207910897732381,1.0
51.68647003173828,-5.883026123046875,-0.8432843685150146,-0.0,-0.0,-1.0,0.1770804085598079,1.0
51.5526237487793,-5.555834770202637,-0.8482038974761963,-0.8102457970623924,-0.5710311020474009,0.13200465460452257,0.2216739845378059,3.0
51.60216522216797,-5.579123497009277,-0.8520362377166748,-0.5409307943551345,-0.8400472154806412,-0.04140714288072654,0.17732530227897172,4.0
51.50621032714844,-5.850064277648926,-0.7508138418197632,-0.0,-0.0,-1.0,0.11410050452950295,2.0
51.67021942138672,-5.602025032043457,-0.7485626935958862,-0.0,-0.0,-1.0,0.15027631842507683,2.0
51.43896484375,-6.18588924407959,-0.9846675395965576,-0.0,-0.0,-1.0,0.061447103406750546,1.0
51.389095306396484,-5.91402530670166,-0.9803769588470459,-0.0,-0.0,-1.0,0.11442626049184883,1.0
51.327598571777344,-5.51539421081543,-0.9754586219787598,-0.0,-0.0,-1.0,0.12053635351958683,1.0
51.65520095825195,-5.380342483520508,-1.008080244064331,-0.0,-0.0,-1.0,0.09516548749692968,1.0
51.550323486328125,-5.771145820617676,-0.7642908096313477,-0.0,-0.0,-1.0,0.09120823210037991,2.0
51.705413818359375,-5.555473327636719,-0.7776224613189697,-0.0,-0.0,-1.0,0.18006601707211004,1.0
50.501556396484375,-5.9839277267456055,-0.9675405025482178,-0.0,-0.0,-1.0,0.10029935977413967,1.0
50.842491149902344,-5.9804182052612305,-1.0013997554779053,-0.0,-0.0,-1.0,0.04744355796894532,2.0
51.076194763183594,-5.925209045410156,-1.022146463394165,-0.0,-0.0,-1.0,0.0716646242872219,2.0
51.222747802734375,-5.645825386047363,-1.0235416889190674,-0.0,-0.0,-1.0,0.09232323972520795,2.0
51.468284606933594,-5.358369827270508,-1.035215139389038,-0.0,-0.0,-1.0,0.07151413042747748,1.0
51.64541244506836,-5.20820426940918,-1.0467724800109863,-0.0,-0.0,-1.0,0.0733930311020416,2.0
51.126487731933594,-4.670594215393066,-1.105278730392456,-0.0,-0.0,-1.0,0.040839186213839376,2.0
50.11380386352539,-4.793268203735352,-1.0324797630310059,-0.0,-0.0,-1.0,0.03494942581815564,1.0
51.12696838378906,-4.576010704040527,-1.0970346927642822,-0.0,-0.0,-1.0,0.043394357936674795,1.0
49.854007720947266,-5.662927627563477,-0.9946168661117554,-0.0,-0.0,-1.0,0.006419120945963905,1.0
49.92961120605469,-5.651418685913086,-0.999426007270813,-0.0,-0.0,-1.0,0.007235957155584936,1.0
50.43163299560547,-6.058195114135742,-1.0778082609176636,-0.0,-0.0,-1.0,0.09247147388188053,1.0
50.418670654296875,-5.5752973556518555,-1.0310524702072144,-0.0,-0.0,-1.0,0.027856779453420383,1.0
50.53699493408203,-5.798765182495117,-1.0616666078567505,-0.0,-0.0,-1.0,0.04074312421355857,2.0
50.87456130981445,-5.561420440673828,-1.0667771100997925,-0.0,-0.0,-1.0,0.030628581097537973,1.0
51.40753173828125,-5.206978797912598,-1.078959584236145,-0.0,-0.0,-1.0,0.050580380392921946,1.0
51.26763916015625,-5.395891189575195,-1.0842334032058716,-0.0,-0.0,-1.0,0.101306564493547,2.0
51.513832092285156,-5.125705718994141,-1.0807632207870483,0.37344716303669967,0.5605960870466767,-0.7391002933349407,0.07184094393301535,3.0
50.38964080810547,-5.95817232131958,-0.9454948902130127,-0.0,-0.0,-1.0,0.08479212885630466,2.0
50.843685150146484,-6.26488733291626,-1.015831708908081,-0.0,-0.0,-1.0,0.054420934626477575,1.0
51.260616302490234,-5.543189525604248,-1.0148725509643555,-0.0,-0.0,-1.0,0.10896508619904902,1.0
51.20378112792969,-5.7652201652526855,-1.0228192806243896,-0.0,-0.0,-1.0,0.06090328757515862,2.0
51.13441467285156,-6.119372844696045,-1.0382347106933594,-0.0,-0.0,-1.0,0.04513300487475301,1.0
51.554420471191406,-5.38623571395874,-1.0380957126617432,-0.0,-0.0,-1.0,0.10224254268326112,2.0
49.97639846801758,-5.810202121734619,-0.9557868242263794,-0.0,-0.0,-1.0,0.007668647822721941,1.0
50.213829040527344,-4.732095241546631,-0.9172965288162231,-0.0,-0.0,-1.0,0.038008603021478224,1.0
50.50714111328125,-5.607577800750732,-1.0066925287246704,-0.0,-0.0,-1.0,0.028015299869142193,1.0
50.50308609008789,-5.920128345489502,-1.0257889032363892,-0.0,-0.0,-1.0,0.03269987937368216,1.0
50.519561767578125,-6.221243381500244,-1.0468302965164185,-0.0,-0.0,-1.0,0.094107461931539,1.0
50.45828628540039,-4.408222675323486,-0.9280787706375122,-0.0,-0.0,-1.0,0.05430207286354055,1.0
50.72705841064453,-4.716528415679932,-0.9795342683792114,-0.0,-0.0,-1.0,0.05235775075006095,1.0
50.7684211730957,-5.561909198760986,-1.0355576276779175,-0.0,-0.0,-1.0,0.024362592699941028,1.0
50.89430236816406,-5.67827844619751,-1.0580230951309204,-0.0,-0.0,-1.0,0.01933165916692862,1.0
51.19996643066406,-5.404122829437256,-1.0787886381149292,-0.0,-0.0,-1.0,0.07073464320991116,1.0
51.02726745605469,-5.630895137786865,-1.0713175535202026,-0.0,-0.0,-1.0,0.048839461197368934,2.0
51.262229919433594,-4.5022454261779785,-1.0337239503860474,-0.0,-0.0,-1.0,0.04297685676356015,1.0
51.58147430419922,-5.009301662445068,-1.102803349494934,-0.0,-0.0,-1.0,0.051052720803500394,1.0
51.4388427734375,-5.1645989418029785,-1.094089388847351,-0.0,-0.0,-1.0,0.045892153283356434,2.0
51.36408233642578,-5.609066486358643,-0.9465510845184326,-0.0,-0.0,-1.0,0.09936031741869336,2.0
51.382625579833984,-5.967498302459717,-0.9696369171142578,-0.0,-0.0,-1.0,0.15909360975723058,2.0
51.33127212524414,-6.298560619354248,-0.9832890033721924,-0.0,-0.0,-1.0,0.07920824381828936,2.0
51.69672775268555,-5.510544300079346,-0.980574369430542,-0.0,-0.0,-1.0,0.10304608034566572,1.0
51.476348876953125,-5.808075428009033,-0.828217625617981,-0.0,-0.0,-1.0,0.09532323459136822,1.0
51.6334114074707,-5.6356072425842285,-0.835373044013977,-0.0,-0.0,-1.0,0.128177196028114,2.0
51.53227615356445,-5.852210521697998,-0.8371568918228149,-0.0,-0.0,-1.0,0.11187468403851658,2.0
50.44921875,-5.71859884262085,-0.9842984676361084,-0.0,-0.0,-1.0,0.041062983863974035,1.0
50.452117919921875,-5.918150424957275,-0.9968795776367188,-0.0,-0.0,-1.0,0.03486186192713694,1.0
50.65541076660156,-4.614415168762207,-0.9518904685974121,-0.0,-0.0,-1.0,0.059314306866826115,1.0
50.710384368896484,-5.67373514175415,-1.0197408199310303,-0.0,-0.0,-1.0,0.02294552987188374,1.0
50.56547927856445,-5.961610317230225,-1.0159635543823242,-0.0,-0.0,-1.0,0.06356895740855961,1.0
50.55308532714844,-6.2645134925842285,-1.0329532623291016,-0.0,-0.0,-1.0,0.08617309630363414,1.0
51.027652740478516,-5.597457408905029,-1.0619165897369385,-0.0,-0.0,-1.0,0.05209710580423696,2.0
50.955055236816406,-5.831854343414307,-1.0648629665374756,-0.0,-0.0,-1.0,0.02062531556332575,1.0
51.40284729003906,-5.138793468475342,-1.0922844409942627,-0.0,-0.0,-1.0,0.04634701251065552,2.0
51.30379867553711,-5.388128757476807,-1.0910181999206543,-0.0,-0.0,-1.0,0.09694553420803889,2.0
49.88998794555664,-4.9091105461120605,-1.0542854070663452,-0.0,-0.0,-1.0,0.028797286662616526,1.0
51.52029800415039,-5.6604461669921875,-0.8486956357955933,-0.0,-0.0,-1.0,0.1472169333000759,2.0
51.5075569152832,-5.89727258682251,-0.858157753944397,-0.0,-0.0,-1.0,0.14604061663226034,2.0
51.70334243774414,-5.557392120361328,-0.869662880897522,-0.0,-0.0,-1.0,0.13477215334239318,1.0
50.459991455078125,-5.981575012207031,-0.9291701316833496,-0.0,-0.0,-1.0,0.09456958688772828,1.0
50.71361541748047,-6.333089828491211,-0.9920639991760254,-0.0,-0.0,-1.0,0.06642909109602955,1.0
51.087371826171875,-5.881815433502197,-1.0202875137329102,-0.0,-0.0,-1.0,0.0730247946509973,2.0
50.89043045043945,-6.091226100921631,-1.0032258033752441,-0.0,-0.0,-1.0,0.05225361749197011,1.0
51.391605377197266,-5.467280387878418,-1.0425992012023926,-0.0,-0.0,-1.0,0.12217431293774533,2.0
51.19579315185547,-5.63691520690918,-1.021972417831421,-0.0,-0.0,-1.0,0.09232323972520798,2.0
51.56278610229492,-5.197298049926758,-1.0540964603424072,-0.0,-0.0,-1.0,0.06760381740725784,1.0
50.42166519165039,-4.855656623840332,-0.8520848751068115,-0.0,-0.0,-1.0,0.04493621288187057,1.0
51.2544059753418,-5.556849479675293,-0.9638938903808594,-0.9484844024250346,-0.194550416425838,0.250054941612754,0.10677617397908218,3.0
51.226802825927734,-5.751848220825195,-0.9707295894622803,-0.0,-0.0,-1.0,0.07687804819144714,1.0
51.25702667236328,-6.210537433624268,-1.0033388137817383,-0.0,-0.0,-1.0,0.08318234549876896,1.0
51.545047760009766,-5.466882705688477,-1.00555419921875,-0.0,-0.0,-1.0,0.11081367778999383,1.0
51.341796875,-5.96115255355835,-1.0013201236724854,-0.0,-0.0,-1.0,0.1488059947902851,1.0
50.32545471191406,-4.852901458740234,-0.7761898040771484,-0.0,-0.0,-1.0,0.04264540288900499,1.0
51.659854888916016,-5.39276123046875,-0.8954923152923584,-0.0,-0.0,-1.0,0.12285109198272012,1.0
51.60076904296875,-5.996918678283691,-0.8483438491821289,-0.0,-0.0,-1.0,0.19594458580057,2.0
51.60468292236328,-5.6019134521484375,-0.8397548198699951,-0.6743821051971124,-0.6881805407185894,-0.2676122560089146,0.16261695451571398,6.0
51.43524932861328,-5.742057800292969,-0.8290994167327881,-0.0,-0.0,-1.0,0.1039569578431519,2.0
51.58949279785156,-6.014909744262695,-0.7605332136154175,-0.0,-0.0,-1.0,0.16241590091368627,1.0
51.532806396484375,-5.7179341316223145,-0.7518314123153687,-0.936897530376062,-0.22924665703278793,0.26394883559987,0.0704484687438003,3.0
51.658729553222656,-5.516879558563232,-0.837355375289917,-0.0,-0.0,-1.0,0.20514639330836462,1.0
51.55386734008789,-5.934110164642334,-0.875079870223999,-0.0,-0.0,-1.0,0.1157478641413528,1.0
51.446807861328125,-5.735170841217041,-0.8504860401153564,-0.0,-0.0,-1.0,0.13573972146479435,2.0
51.50205993652344,-5.6033616065979,-0.8394954204559326,-0.0,-0.0,-1.0,0.14138604571746693,1.0
51.59136962890625,-5.829900741577148,-0.80816650390625,-0.0,-0.0,-1.0,0.11758481937458441,1.0
51.62080383300781,-5.919461250305176,-0.8725990056991577,-0.0,-0.0,-1.0,0.1786033147911129,1.0
51.596473693847656,-5.593613624572754,-0.8817509412765503,-0.9837366661777649,-0.041067725951289304,0.1748588387890259,0.18411943642944906,4.0
51.451316833496094,-5.444755554199219,-0.9393717050552368,-0.0,-0.0,-1.0,0.149067484102385,1.0
51.611289978027344,-5.635695457458496,-0.9543215036392212,-0.27118817640003096,0.913069738735011,-0.30456629030016447,0.15392792615373962,3.0
51.687843322753906,-5.307928085327148,-0.9516831636428833,-0.0,-0.0,-1.0,0.12052089853505422,1.0
50.51055145263672,-5.82730770111084,-1.062243938446045,-0.0,-0.0,-1.0,0.0407431242135586,2.0
51.49933624267578,-5.944540977478027,-0.9337842464447021,-0.0,-0.0,-1.0,0.138935576109197,2.0
51.266014099121094,-5.5833330154418945,-0.9404680728912354,0.33563431361344864,-0.6854259745572373,-0.6461740020516847,0.10344000762032292,4.0
51.58772277832031,-5.216429710388184,-1.0038130283355713,-0.0,-0.0,-1.0,0.08338455692110587,2.0
51.59718322753906,-5.965395927429199,-0.9033699035644531,-0.0,-0.0,-1.0,0.18163710523476098,1.0
51.66191864013672,-6.093851089477539,-0.8968734741210938,-0.0,-0.0,-1.0,0.11405283007542742,1.0
51.4691162109375,-5.708024024963379,-0.916764497756958,-0.0,-0.0,-1.0,0.19494972507757005,1.0
50.68769073486328,-6.1259002685546875,-0.7994890213012695,-0.0,-0.0,-1.0,0.07488741211675737,1.0
51.363258361816406,-5.5993452072143555,-0.9174890518188477,-0.0,-0.0,-1.0,0.1202096222027547,2.0
50.62745666503906,-6.126666069030762,-0.759885311126709,-0.0,-0.0,-1.0,0.08816738835096019,1.0
51.60157012939453,-6.004010200500488,-0.8668982982635498,0.9132385340079139,-0.36586848079886564,0.17926414800792337,0.20671454275440565,3.0
51.397308349609375,-5.6412200927734375,-0.8853886127471924,-0.0,-0.0,-1.0,0.13259577712994194,1.0
51.60205841064453,-6.128284454345703,-0.854379415512085,0.6708518225988447,-0.11984816039489532,-0.7318430505004249,0.13573440029927406,4.0
51.251319885253906,-5.671606063842773,-0.8681647777557373,-0.0,-0.0,-1.0,0.09547588106638936,1.0
51.482513427734375,-5.990107536315918,-0.8570921421051025,-0.0,-0.0,-1.0,0.16215532102449126,2.0
51.256900787353516,-5.461838722229004,-0.8914446830749512,-0.0,-0.0,-1.0,0.09426941110748004,1.0
51.48375701904297,-5.129136085510254,-0.9501564502716064,-0.0,-0.0,-1.0,0.06506646776967165,1.0
51.63685607910156,-4.940807342529297,-0.9858856201171875,-0.0,-0.0,-1.0,0.04227875168988367,1.0
51.17274856567383,-4.481505393981934,-0.9908373355865479,-0.0,-0.0,-1.0,0.045189556388969945,1.0
51.26338195800781,-4.533060073852539,-0.9939897060394287,-0.0,-0.0,-1.0,0.04424537743963081,1.0
51.57807540893555,-6.313333511352539,-0.9225904941558838,-0.0,-0.0,-1.0,0.12701180659530945,1.0
51.41781997680664,-5.997281074523926,-0.94144606590271,-0.0,-0.0,-1.0,0.1597645584234929,1.0
50.767730712890625,-5.329490661621094,-0.9504637718200684,-0.0,-0.0,-1.0,0.01941126741771569,1.0
51.186405181884766,-5.582820892333984,-0.9646511077880859,-0.0,-0.0,-1.0,0.10004891220620139,2.0
51.328399658203125,-5.30800724029541,-1.0112004280090332,-0.0,-0.0,-1.0,0.08604234821829554,1.0
51.43206787109375,-5.08915901184082,-1.047375202178955,-0.0,-0.0,-1.0,0.05338450144588999,2.0
50.91358947753906,-4.701096534729004,-1.0392801761627197,-0.0,-0.0,-1.0,0.050566299322245115,1.0
51.30342102050781,-4.711421966552734,-1.0781874656677246,-0.0,-0.0,-1.0,0.034218206284388875,1.0
51.596229553222656,-6.216312408447266,-0.926170825958252,-0.0,-0.0,-1.0,0.1352691679831801,1.0
51.410614013671875,-5.940362930297852,-0.9390640258789062,-0.0,-0.0,-1.0,0.12089192924541534,2.0
50.5510368347168,-5.460518836975098,-0.9057025909423828,-0.0,-0.0,-1.0,0.021472331970994706,1.0
51.032997131347656,-5.590707778930664,-0.9408283233642578,-0.0,-0.0,-1.0,0.05935596389395271,1.0
51.24299621582031,-5.512324333190918,-0.9725303649902344,-0.0,-0.0,-1.0,0.09580361102674026,2.0
51.411834716796875,-5.210048675537109,-1.0269930362701416,-0.0,-0.0,-1.0,0.06670591120122563,1.0
50.89873123168945,-4.646695137023926,-1.0420794486999512,-0.0,-0.0,-1.0,0.05052664652858748,1.0
51.14708709716797,-4.647722244262695,-1.0678837299346924,-0.0,-0.0,-1.0,0.042650522589688405,2.0
51.415138244628906,-4.846086502075195,-1.0716514587402344,-0.0,-0.0,-1.0,0.028190831344881276,1.0
51.50309753417969,-5.991025924682617,-0.8398220539093018,-0.0,-0.0,-1.0,0.19832575572447186,2.0
51.41584777832031,-5.806205749511719,-0.8456623554229736,-0.0,-0.0,-1.0,0.12201234802521184,2.0
49.95555877685547,-5.907264709472656,-0.9707376956939697,-0.0,-0.0,-1.0,0.010540235722319182,1.0
50.39892578125,-5.849713325500488,-1.041851282119751,-0.0,-0.0,-1.0,0.03686183256046397,2.0
50.55570983886719,-6.02609920501709,-1.050797700881958,-0.0,-0.0,-1.0,0.09842424486120811,1.0
51.677005767822266,-6.299142837524414,-0.9134268760681152,-0.0,-0.0,-1.0,0.1363135748306706,1.0
51.57019805908203,-6.033198356628418,-0.9192161560058594,0.35267855402951276,-0.8127314940093581,-0.4637729575697232,0.16415394670957617,3.0
51.486976623535156,-5.944980621337891,-0.9161782264709473,-0.0,-0.0,-1.0,0.13893557610919693,2.0
51.62833023071289,-6.1334991455078125,-0.9664361476898193,-0.0,-0.0,-1.0,0.09663969332202299,1.0
51.49732971191406,-5.817955017089844,-0.9736011028289795,-0.0,-0.0,-1.0,0.14411739335295543,1.0
51.35057067871094,-5.7563066482543945,-0.9619343280792236,-0.0,-0.0,-1.0,0.16594066733472393,2.0
51.2804069519043,-5.662835121154785,-0.9608299732208252,-0.0,-0.0,-1.0,0.1009051043121255,2.0
51.641841888427734,-6.287784576416016,-0.95924973487854,-0.0,-0.0,-1.0,0.13526916798318003,1.0
51.39793395996094,-5.806767463684082,-0.9468224048614502,-0.0,-0.0,-1.0,0.09456474766665897,1.0
51.301475524902344,-5.661799430847168,-0.9406249523162842,-0.0,-0.0,-1.0,0.10074769618063877,2.0
51.33003234863281,-5.748305320739746,-0.9218931198120117,-0.6283067240852339,0.6351752905103831,-0.44920263889956435,0.10847038923960678,3.0
51.5028076171875,-5.885098934173584,-0.8154237270355225,0.7969968769664832,-0.5517288385261118,0.2457463465533111,0.14678799298719833,3.0
51.605037689208984,-5.85906457901001,-0.6582953929901123,-0.0,-0.0,-1.0,0.11792896124636544,1.0
51.6236457824707,-6.106090545654297,-0.7060375213623047,-0.0,-0.0,-1.0,0.13058075235067165,1.0
51.568965911865234,-5.986175537109375,-0.6773536205291748,-0.0,-0.0,-1.0,0.17116652171212915,1.0
51.36284637451172,-6.279057025909424,-0.9804902076721191,-0.08892709875897854,0.2810869124712197,-0.9555533050247423,0.0821670587358891,3.0
51.66825485229492,-5.521700859069824,-0.7758584022521973,-0.0,-0.0,-1.0,0.2349442081676081,2.0
51.496009826660156,-5.6644368171691895,-0.7914018630981445,-0.0,-0.0,-1.0,0.0786459136846645,2.0
51.58806228637695,-6.0458455085754395,-0.8834679126739502,0.8820969909953548,-0.18542918910543177,-0.4330368509776545,0.19238490167937364,4.0
51.55287551879883,-5.565474033355713,-0.8883564472198486,-0.0,-0.0,-1.0,0.17617500453461055,2.0
51.417537689208984,-5.770185947418213,-0.8732900619506836,-0.0,-0.0,-1.0,0.13797814688992602,2.0
51.537418365478516,-6.042304515838623,-0.9281857013702393,-0.0,-0.0,-1.0,0.14537211934117775,2.0
51.47709655761719,-5.551729679107666,-0.9205636978149414,-0.0,-0.0,-1.0,0.1493238376463242,2.0
51.62589645385742,-5.42890739440918,-0.7522256374359131,-0.0,-0.0,-1.0,0.19470441569048552,2.0
51.57041931152344,-5.577875137329102,-0.834317684173584,-0.3909570289273271,-0.5790414930999849,-0.7154463996700642,0.1250461143997027,4.0
51.23229217529297,-6.226863861083984,-1.113938808441162,-0.0,-0.0,-1.0,0.03524032928260188,1.0
51.27949523925781,-6.025673866271973,-1.1314597129821777,-0.0,-0.0,-1.0,0.039372576808694035,1.0
50.53716278076172,-4.808216094970703,-1.0776124000549316,-0.0,-0.0,-1.0,0.04585373626105525,1.0
51.339439392089844,-5.8023223876953125,-0.9852423667907715,-0.0,-0.0,-1.0,0.10890911407706662,1.0
51.5986328125,-5.254953384399414,-0.985999584197998,0.7418133294860589,0.4429157947448423,0.5035261492339321,0.08126497819292669,3.0
51.25502014160156,-5.351959228515625,-0.9462952613830566,-0.0,-0.0,-1.0,0.07636186246671646,1.0
51.515098571777344,-5.693675994873047,-0.8721704483032227,-0.0,-0.0,-1.0,0.14263317025397063,2.0
49.908748626708984,-5.334715843200684,-1.0692148208618164,-0.0,-0.0,-1.0,0.005509111116552777,2.0
49.88389205932617,-5.161407470703125,-1.0445795059204102,-0.0,-0.0,-1.0,0.024435765636507255,1.0
50.00725555419922,-5.02739143371582,-1.0465879440307617,-0.0,-0.0,-1.0,0.029224715231187148,1.0
50.0614128112793,-4.887630462646484,-1.0378541946411133,-0.0,-0.0,-1.0,0.03399766564999899,1.0
50.75245666503906,-4.4448394775390625,-1.087890625,-0.0,-0.0,-1.0,0.04668993857549216,2.0
49.77896499633789,-4.480165481567383,-0.9479122161865234,-0.0,-0.0,-1.0,0.033280964459333394,1.0
51.5772590637207,-5.649230003356934,-0.9645957946777344,-0.0,-0.0,-1.0,0.15257741248848264,2.0
51.181236267089844,-5.766571044921875,-0.9260702133178711,-0.0,-0.0,-1.0,0.09054148082509031,1.0
51.132572174072266,-5.934516429901123,-0.9432516098022461,-0.0,-0.0,-1.0,0.09699306799959623,1.0
49.91456985473633,-6.345650672912598,-0.9269566535949707,-0.0,-0.0,-1.0,0.026166676747076217,1.0
51.35200119018555,-6.203812599182129,-1.038797378540039,-0.0,-0.0,-1.0,0.0503937921677244,1.0
51.467041015625,-6.022451877593994,-1.0698003768920898,-0.0,-0.0,-1.0,0.05773325942179704,1.0
50.364078521728516,-4.591068744659424,-1.0348882675170898,-0.0,-0.0,-1.0,0.048610082360508525,2.0
51.511043548583984,-5.232373237609863,-0.9906291961669922,-0.0,-0.0,-1.0,0.06842384088632189,1.0
