x,y,z,nx,ny,nz,curvature,density
6.241152763366699,6.134250640869141,0.40656566619873047,-0.0,-0.0,-1.0,0.13812268476528092,1.0
5.728123664855957,7.152587890625,0.08639788627624512,-0.0,-0.0,-1.0,0.12321976897560316,2.0
7.4734649658203125,7.47982120513916,0.5027556419372559,-0.0,-0.0,-1.0,0.20416105644674504,1.0
6.271358489990234,7.183028221130371,0.02958202362060547,-0.0,-0.0,-1.0,0.1771231359169126,1.0
5.895873069763184,7.4390363693237305,-0.09956765174865723,-0.0,-0.0,-1.0,0.06944929392946775,1.0
6.339180946350098,7.127229690551758,0.0019843578338623047,-0.0,-0.0,-1.0,0.17358838863275122,1.0
5.903047561645508,6.894522666931152,-0.014388799667358398,-0.3330745509399798,-0.1158559950246662,-0.9357557009887651,0.06170442648607451,3.0
7.6142072677612305,7.632264137268066,0.5047363042831421,-0.0,-0.0,-1.0,0.19583736386212733,2.0
7.662500381469727,7.303243637084961,0.8185157775878906,-0.0,-0.0,-1.0,0.18628409627219758,2.0
7.6243896484375,7.560023784637451,0.7719839811325073,0.3826812808736862,0.17341657773097383,-0.9074589400281162,0.24316325638283032,4.0
7.2474565505981445,6.205854892730713,0.08067893981933594,0.2717354087483771,0.12171057758817179,-0.9546446474660122,0.08373603762027192,3.0
7.702048301696777,6.245947360992432,-0.06142687797546387,-0.0,-0.0,-1.0,0.08552464494014715,2.0
6.668943405151367,6.130638599395752,0.8933099508285522,-0.717127015930685,-0.03625898132094522,0.6959986561020921,0.22565510412072537,5.0
7.706286430358887,7.467394828796387,0.7212798595428467,-0.0,-0.0,-1.0,0.13492804465913033,2.0
5.798839569091797,5.877742767333984,0.21093738079071045,-0.0,-0.0,-1.0,0.14803473905259515,1.0
6.1741790771484375,7.157163619995117,0.16070830821990967,-0.0,-0.0,-1.0,0.12676541752043125,2.0
5.939374923706055,6.8571014404296875,-0.04088282585144043,-0.0,-0.0,-1.0,0.07382231960506407,1.0
5.886869430541992,5.718103408813477,0.28986167907714844,-0.0,-0.0,-1.0,0.16525497642800352,2.0
7.5945963859558105,7.619235992431641,0.5564084649085999,-0.0,-0.0,-1.0,0.2200612099182388,2.0
7.695525169372559,7.609279632568359,0.6669667959213257,-0.9277154999923192,-0.36079370978274594,-0.09576977631384971,0.11783206681445553,5.0
5.727992534637451,7.043613433837891,0.024594902992248535,-0.0,-0.0,-1.0,0.06345235707807115,2.0
7.690750598907471,7.609865665435791,0.5050365924835205,-0.5308127527651613,-0.03990453864190522,-0.8465491416909288,0.1804421182424868,5.0
5.7827277183532715,7.325816631317139,0.07867777347564697,-0.0,-0.0,-1.0,0.0804069099163235,2.0
6.0515594482421875,7.526514530181885,-0.13025856018066406,-0.0,-0.0,-1.0,0.06083417919392889,1.0
6.500307083129883,7.446160316467285,-0.13925576210021973,-0.0,-0.0,-1.0,0.08940244325234166,1.0
5.759875297546387,6.840317249298096,0.11267960071563721,-0.0,-0.0,-1.0,0.1135855355267015,1.0
6.797901153564453,7.397677421569824,-0.11746847629547119,-0.0,-0.0,-1.0,0.11472824215388183,2.0
7.303791046142578,7.164134502410889,-0.1025763750076294,-0.0,-0.0,-1.0,0.05270395499572373,1.0
7.360351085662842,7.49206018447876,-0.058025479316711426,-0.8512716713790089,-0.48168510638471534,0.2081249619693281,0.11591893416062311,3.0
5.8259124755859375,5.776394844055176,0.8209770917892456,-0.0,-0.0,-1.0,0.20518093941471174,2.0
5.960027694702148,7.145802974700928,-0.03513538837432861,-0.0,-0.0,-1.0,0.07010560757844657,1.0
7.641016006469727,6.145724296569824,-0.061870455741882324,-0.0,-0.0,-1.0,0.07242801075550387,2.0
7.694843292236328,6.268367767333984,-0.0778881311416626,-0.0,-0.0,-1.0,0.08667386400892008,2.0
6.025669097900391,5.848280429840088,0.28154826164245605,-0.0,-0.0,-1.0,0.22197030876695886,2.0
6.292932510375977,5.863918781280518,0.19463121891021729,-0.0,-0.0,-1.0,0.19943618555893258,2.0
6.240457534790039,5.785378932952881,0.2872425317764282,-0.0,-0.0,-1.0,0.18395108569681431,2.0
6.598531723022461,6.294554233551025,0.9256819486618042,-0.0,-0.0,-1.0,0.2491406581863383,2.0
7.69603157043457,7.285017967224121,0.7876590490341187,-0.0,-0.0,-1.0,0.15902459842579525,2.0
6.292600631713867,5.899828910827637,1.1321426630020142,0.012763208546811393,-0.36167889431901923,-0.9322153602637977,0.22224226140919087,3.0
7.619441032409668,7.439319610595703,0.7973687648773193,-0.0,-0.0,-1.0,0.2136859383814811,2.0
7.627568244934082,7.42087459564209,0.5509233474731445,-0.2814128448437062,-0.3502421158248503,-0.8933852870175917,0.13648988888299107,3.0
7.6824212074279785,7.397733688354492,0.4685544967651367,-0.0,-0.0,-1.0,0.10214519134055697,2.0
6.9422101974487305,6.195465564727783,0.3005235195159912,0.720697219226685,0.26965927682818586,-0.6386543608395886,0.22197021645217185,4.0
6.539582252502441,5.932577610015869,0.21438932418823242,-0.08509456152731522,-0.8950398562288998,0.43779284069091967,0.1960897706829405,3.0
6.549038887023926,6.218544960021973,0.27362751960754395,-0.0,-0.0,-1.0,0.16765522571454683,1.0
6.388242244720459,6.148549556732178,0.25142407417297363,-0.0,-0.0,-1.0,0.25383628455986257,1.0
7.661548614501953,7.4098591804504395,0.544538140296936,-0.40546681553973335,0.3489032365258503,-0.8449042508106195,0.12494154560395414,4.0
6.248321533203125,5.8510613441467285,0.5648560523986816,-0.0,-0.0,-1.0,0.1568243119911355,2.0
7.5807647705078125,7.467471122741699,0.5552051067352295,-0.0,-0.0,-1.0,0.22700712016429114,2.0
7.483743667602539,7.52114725112915,0.7386233806610107,-0.0,-0.0,-1.0,0.1684807367567483,2.0
6.671805381774902,6.261765003204346,0.8488820791244507,-0.0,-0.0,-1.0,0.17606163975473568,2.0
6.161340236663818,5.638704776763916,0.8362307548522949,-0.0,-0.0,-1.0,0.18219282347778648,1.0
7.034671306610107,6.33531379699707,0.19732952117919922,-0.0,-0.0,-1.0,0.151856499840449,1.0
6.65163516998291,6.154132843017578,0.17934441566467285,-0.0,-0.0,-1.0,0.16953478447639303,1.0
6.965813636779785,6.349145889282227,0.1314716339111328,-0.0,-0.0,-1.0,0.23291414076522246,2.0
5.743474960327148,7.0758056640625,0.23711776733398438,-0.0,-0.0,-1.0,0.1291347121961799,1.0
6.380229949951172,5.914743423461914,0.1398158073425293,-0.0,-0.0,-1.0,0.14308281852752996,2.0
6.946833610534668,6.352544784545898,0.1879594326019287,-0.0,-0.0,-1.0,0.2549116692108505,2.0
6.637578010559082,6.798000335693359,0.14050531387329102,-0.6837174904370548,-0.15475255845958294,-0.7131493805092093,0.13384173763003232,3.0
6.289630889892578,6.017238616943359,0.10515236854553223,0.47781295677624863,-0.0368161545926972,-0.8776897795336035,0.18475767147319389,3.0
6.902649879455566,6.308115005493164,0.14145898818969727,0.13722093818397532,-0.06988707950256863,-0.9880719661251963,0.208197940877107,3.0
5.877779960632324,5.983274459838867,0.08165335655212402,-0.0,-0.0,-1.0,0.17008560051069058,1.0
6.909297943115234,6.436185836791992,0.20693612098693848,-0.0,-0.0,-1.0,0.1929656962820695,2.0
6.151998519897461,6.195163726806641,0.2721109390258789,-0.0,-0.0,-1.0,0.1503584961046949,1.0
6.337776184082031,6.376270294189453,0.16408419609069824,-0.0,-0.0,-1.0,0.1761315243177926,1.0
6.854991436004639,6.401470184326172,0.17459392547607422,-0.0,-0.0,-1.0,0.26904443897099795,2.0
6.255044937133789,7.080049514770508,0.04806113243103027,-0.0,-0.0,-1.0,0.14415121935106462,2.0
5.908719062805176,5.669931411743164,0.2978236675262451,-0.0,-0.0,-1.0,0.20236350308832116,1.0
7.683063507080078,7.563775062561035,0.557305097579956,0.04347376750737167,0.9147630184523303,0.40164493226069314,0.13716649585710516,5.0
6.214298248291016,7.5598602294921875,-0.021648883819580078,-0.0,-0.0,-1.0,0.13787292170637755,1.0
6.211574554443359,6.109879493713379,0.17603707313537598,-0.0,-0.0,-1.0,0.19041501393380447,1.0
6.348628997802734,7.636690139770508,-0.03924870491027832,-0.0,-0.0,-1.0,0.11093586607972472,1.0
6.369752883911133,6.274567604064941,0.19764423370361328,-0.0,-0.0,-1.0,0.16846269964256916,1.0
5.721409797668457,5.637700080871582,0.5980589389801025,-0.0,-0.0,-1.0,0.10710072020276742,1.0
6.290282249450684,6.351967811584473,0.14709258079528809,-0.0,-0.0,-1.0,0.15973286398035116,1.0
6.2504730224609375,7.086576461791992,0.0069005489349365234,-0.09219883643952151,0.9818179175403323,0.1659305618503206,0.14415121935106462,3.0
6.721960067749023,6.073707580566406,0.2742605209350586,-0.0,-0.0,-1.0,0.1744084860985609,2.0
6.427892684936523,5.876595497131348,0.48244166374206543,-0.0,-0.0,-1.0,0.22365174885454064,1.0
6.256648063659668,5.967945098876953,0.5154955387115479,-0.0,-0.0,-1.0,0.20016906466718284,2.0
7.691943645477295,7.4575982093811035,0.5727207660675049,-0.0,-0.0,-1.0,0.1803489091112351,2.0
7.489633560180664,7.509250640869141,0.4621620178222656,-0.0,-0.0,-1.0,0.24858185783214276,1.0
5.721604347229004,5.890879154205322,0.38888978958129883,-0.0,-0.0,-1.0,0.10895625079297307,1.0
7.472285270690918,7.541036128997803,0.6214156150817871,-0.1971369968922086,-0.3061809606513353,-0.9313378676887064,0.2274456396175746,3.0
7.5645647048950195,7.619739532470703,0.5439677238464355,-0.1357842120063099,0.2910008656748848,-0.9470380900187138,0.17238557432788404,4.0
7.549232006072998,7.564063549041748,0.6576962471008301,-0.0,-0.0,-1.0,0.20999379137148813,2.0
7.520319938659668,7.562532901763916,0.3367021083831787,-0.0,-0.0,-1.0,0.13998238407209637,1.0
5.959752082824707,5.667389392852783,0.13398617506027222,-0.0,-0.0,-1.0,0.15417425755398043,1.0
6.866362571716309,7.378297805786133,-0.11743628978729248,-0.0,-0.0,-1.0,0.16457771054512316,2.0
5.85961389541626,5.7410149574279785,0.4163081645965576,-0.0,-0.0,-1.0,0.15010206107131008,2.0
6.207287311553955,5.838205337524414,0.3965608477592468,-0.0,-0.0,-1.0,0.18109851371721178,1.0
6.211953639984131,5.985713958740234,0.3828631043434143,-0.0,-0.0,-1.0,0.21047007499756276,1.0
6.65878438949585,6.090869903564453,0.359245240688324,-0.0,-0.0,-1.0,0.17897289896551663,1.0
7.665874004364014,7.468531608581543,0.20129770040512085,-0.0,-0.0,-1.0,0.08890354016683102,1.0
6.172411918640137,5.805440902709961,0.693647027015686,-0.0,-0.0,-1.0,0.16782203213090816,1.0
6.2457990646362305,5.801506996154785,0.6934990286827087,-0.3931757166045602,-0.15661101042080938,-0.9060275091229094,0.16755643645036655,6.0
6.6262407302856445,6.148024082183838,0.6678590178489685,-0.0,-0.0,-1.0,0.12756713358076688,2.0
7.588627338409424,7.467494487762451,0.5731088519096375,0.7815312194315966,0.5205241012549595,-0.3438947703389487,0.21515784459700119,3.0
6.118042469024658,5.928998947143555,0.979192852973938,-0.0,-0.0,-1.0,0.2360870751662441,1.0
6.7567138671875,7.321425914764404,-0.18196320533752441,-0.0,-0.0,-1.0,0.1067399439421191,1.0
7.626613140106201,7.61659049987793,0.008852720260620117,-0.0,-0.0,-1.0,0.15932809484832097,1.0
5.772462844848633,5.643134117126465,0.2584758996963501,-0.0,-0.0,-1.0,0.117519863796465,1.0
6.239134788513184,5.715072154998779,0.16487407684326172,-0.0,-0.0,-1.0,0.18477224008536544,1.0
5.713637351989746,5.83989953994751,0.2372725009918213,-0.0,-0.0,-1.0,0.15708447042190707,1.0
6.326018810272217,5.87220573425293,0.2785513401031494,-0.0,-0.0,-1.0,0.18065548522755,1.0
6.308473110198975,7.361569881439209,0.22939491271972656,-0.0,-0.0,-1.0,0.13617937566844776,1.0
7.141100883483887,7.393898010253906,0.10930538177490234,-0.44116338027124813,0.5074270088073166,-0.7401977456332228,0.18657735327727426,3.0
7.677011489868164,7.481747150421143,0.3981442451477051,-0.0,-0.0,-1.0,0.11726310071363605,2.0
5.770169734954834,5.870728492736816,0.6598508358001709,-0.0,-0.0,-1.0,0.0631059824189308,1.0
6.334365367889404,5.901206016540527,0.7322032451629639,-0.0,-0.0,-1.0,0.12779317718417885,2.0
6.1467061042785645,5.942066669464111,1.0476936101913452,-0.26645870686829115,0.7806169294595534,-0.5653644549980276,0.2036836389984241,4.0
7.383037567138672,7.467994689941406,-0.12724614143371582,-0.0,-0.0,-1.0,0.09305802127001081,1.0
7.480616092681885,7.409465312957764,-0.138350248336792,-0.0,-0.0,-1.0,0.07162287940036126,1.0
6.473260402679443,6.370614051818848,0.31544923782348633,-0.0,-0.0,-1.0,0.2518750802631923,1.0
6.701350688934326,6.255431652069092,0.28331828117370605,0.9560573769384816,0.1278036046806354,0.26385702687657625,0.23518764975456538,3.0
7.643605709075928,6.127407550811768,0.07087850570678711,-0.0,-0.0,-1.0,0.13899150737811874,2.0
6.178818702697754,7.251486301422119,0.1963791847229004,-0.0,-0.0,-1.0,0.22156843600164566,1.0
6.867217063903809,7.286176681518555,0.03198862075805664,-0.0,-0.0,-1.0,0.09937646879830157,1.0
6.889321804046631,7.491917133331299,-0.01699090003967285,-0.0,-0.0,-1.0,0.20195407786603528,1.0
7.196118354797363,7.455621719360352,-0.0805518627166748,-0.0,-0.0,-1.0,0.13554368402588826,1.0
6.213653564453125,5.944079399108887,0.4644205570220947,-0.0,-0.0,-1.0,0.18929214833608857,2.0
6.144334316253662,6.158113479614258,0.7650980949401855,-0.0,-0.0,-1.0,0.1169004153066353,1.0
6.4739990234375,6.236101150512695,0.513805627822876,-0.0,-0.0,-1.0,0.17865604768642823,1.0
7.466043472290039,7.498177528381348,0.636826753616333,-0.0,-0.0,-1.0,0.14260333776742423,2.0
7.566316604614258,7.46779727935791,0.6229896545410156,0.016275135742339134,-0.6986858583712751,-0.7152434489518676,0.14949163731328272,3.0
6.1365065574646,5.944912433624268,0.8047282695770264,-0.0,-0.0,-1.0,0.17086823012814867,1.0
6.309806823730469,5.734340190887451,1.119114875793457,-0.0,-0.0,-1.0,0.16874326701374398,1.0
5.937069892883301,5.684986591339111,1.106112003326416,-0.0,-0.0,-1.0,0.12005719823399309,1.0
6.111920356750488,6.119808673858643,0.9574017524719238,-0.0,-0.0,-1.0,0.2266807266457034,1.0
6.18491792678833,6.156833171844482,0.9280073642730713,-0.0,-0.0,-1.0,0.20442052989413406,1.0
6.613714694976807,6.308419227600098,0.7694995403289795,-0.0,-0.0,-1.0,0.14277014808551028,1.0
7.599115371704102,7.4783711433410645,0.6134068965911865,-0.3448945709013568,0.9249250387041389,-0.1598793537043354,0.24550249255491952,3.0
6.83851432800293,5.926576614379883,0.07658767700195312,-0.0,-0.0,-1.0,0.07046535581315772,1.0
6.55430269241333,6.298322677612305,0.11219048500061035,-0.0,-0.0,-1.0,0.25727876146058665,1.0
5.985045909881592,7.20179557800293,0.05538797378540039,-0.0,-0.0,-1.0,0.11456452949107224,1.0
6.306807994842529,7.372222900390625,0.06677889823913574,-0.0,-0.0,-1.0,0.14858767203745446,2.0
6.798786163330078,7.462743759155273,0.06737112998962402,-0.0,-0.0,-1.0,0.14327241586398873,1.0
7.193949222564697,7.43394660949707,0.05761432647705078,-0.0,-0.0,-1.0,0.15914928617304439,1.0
5.7845354080200195,7.294107437133789,0.06703877449035645,-0.0,-0.0,-1.0,0.08389221205869683,2.0
5.770592212677002,5.808208465576172,0.9074329137802124,-0.13999848222493474,-0.5066862118194791,-0.8506876675529864,0.1805952505834247,5.0
6.253110408782959,6.218660354614258,0.008341789245605469,-0.0,-0.0,-1.0,0.09340374735971824,1.0
6.693272113800049,6.221233367919922,0.007528066635131836,-0.0,-0.0,-1.0,0.13695863434640726,1.0
7.1694207191467285,6.163019180297852,0.0005447864532470703,-0.0,-0.0,-1.0,0.0819519852548656,1.0
7.501992702484131,6.098642349243164,-0.006882667541503906,-0.0,-0.0,-1.0,0.06134706878941968,2.0
5.842144012451172,6.565378189086914,0.03931021690368652,-0.0,-0.0,-1.0,0.09436993448951049,1.0
6.910756587982178,6.337839126586914,0.017142295837402344,0.6959854310162698,0.261647949944048,0.6686887393273302,0.2500990394932497,3.0
7.324879169464111,6.215259552001953,0.004449367523193359,-0.0,-0.0,-1.0,0.07353242160734534,1.0
6.271441459655762,6.784341812133789,0.0565488338470459,-0.0,-0.0,-1.0,0.13022271591215107,1.0
6.6094865798950195,6.530784606933594,0.03519749641418457,-0.0,-0.0,-1.0,0.12075681072882123,1.0
7.063261032104492,6.371883392333984,0.01957535743713379,-0.0,-0.0,-1.0,0.16037723276528826,1.0
5.987276077270508,7.260078430175781,0.09894323348999023,-0.0,-0.0,-1.0,0.13044442242118398,1.0
5.971004486083984,6.765050888061523,0.03381848335266113,-0.0,-0.0,-1.0,0.10270644564594854,2.0
6.252123832702637,6.578897476196289,0.016602277755737305,-0.0,-0.0,-1.0,0.08306680558855628,1.0
6.86033296585083,6.407154083251953,-0.0009489059448242188,-0.0,-0.0,-1.0,0.27556716033804135,2.0
5.850266456604004,7.0591583251953125,0.060468435287475586,-0.0,-0.0,-1.0,0.10281735819401254,1.0
6.457578659057617,6.745609283447266,0.03136706352233887,-0.0,-0.0,-1.0,0.16845265273068125,1.0
6.680860996246338,6.720329284667969,0.0284271240234375,-0.0,-0.0,-1.0,0.12942236819528272,1.0
7.142492294311523,6.362682342529297,-0.0064966678619384766,-0.0,-0.0,-1.0,0.09297986855898745,1.0
7.496677398681641,6.2355499267578125,-0.020526409149169922,-0.0,-0.0,-1.0,0.07198818004596318,1.0
7.146639347076416,7.363868713378906,0.0854184627532959,-0.44116338027124813,0.5074270088073166,-0.7401977456332228,0.18469271135766793,3.0
5.723756790161133,5.66813850402832,0.9219069480895996,-0.9544211805588677,-0.29594560192178554,-0.03868346938641083,0.12979430000895179,3.0
5.925473213195801,5.686798095703125,0.9212304353713989,-0.0,-0.0,-1.0,0.16291217891874224,1.0
6.33501672744751,5.9158782958984375,0.9303419589996338,-0.0,-0.0,-1.0,0.17672098717479393,2.0
5.741507530212402,5.666259765625,0.6568430662155151,-0.0,-0.0,-1.0,0.10227192214585301,1.0
6.270845413208008,5.8348846435546875,0.6707805395126343,-0.35456558335042804,-0.43465397273402084,-0.8278642226173951,0.13350187393740845,5.0
6.7869768142700195,5.901178359985352,0.6774550676345825,-0.0,-0.0,-1.0,0.146410600537836,2.0
6.988491058349609,5.931247711181641,0.6801192760467529,-0.0,-0.0,-1.0,0.11077063376829373,1.0
5.994428634643555,5.924287796020508,0.30469226837158203,-0.0,-0.0,-1.0,0.26672681231282974,1.0
6.016874313354492,5.751901626586914,0.29055023193359375,-0.0,-0.0,-1.0,0.16744358614244678,1.0
6.3511199951171875,6.11732292175293,0.31714367866516113,-0.0,-0.0,-1.0,0.20102234114188067,2.0
6.46760368347168,6.000036239624023,0.30647778511047363,-0.0,-0.0,-1.0,0.218015873122739,1.0
6.783816337585449,6.318794250488281,0.32917213439941406,-0.0,-0.0,-1.0,0.25516399181618044,1.0
6.950393199920654,6.221721649169922,0.31942033767700195,-0.5262753841073919,0.8471009768923232,-0.07385225135829443,0.170004525595475,4.0
5.777507781982422,5.847469329833984,0.3694312572479248,-0.12217337295522249,-0.20845087095310513,-0.9703720427442435,0.193656754867631,3.0
6.143570423126221,5.945478439331055,0.36550474166870117,-0.0,-0.0,-1.0,0.15244446367434789,2.0
6.419763088226318,6.077581405639648,0.3675804138183594,-0.0,-0.0,-1.0,0.19103398136173724,2.0
6.842959403991699,6.223939895629883,0.3653125762939453,-0.0,-0.0,-1.0,0.18148622153481336,2.0
5.847275733947754,5.969366073608398,0.14882540702819824,-0.0,-0.0,-1.0,0.205701640928327,1.0
6.3036417961120605,6.067514419555664,0.14469265937805176,0.9674415758101478,-0.1720928565549571,-0.18558245099344092,0.20060314696826734,3.0
6.663074493408203,6.19378662109375,0.1457531452178955,-0.0,-0.0,-1.0,0.2111987143278828,2.0
6.92036247253418,6.280567169189453,0.14586734771728516,0.13722093818397532,-0.06988707950256863,-0.9880719661251963,0.19631781786203173,3.0
6.247233867645264,5.878484725952148,1.0408709049224854,-0.3865514311497072,-0.3534639830481705,-0.8518457628959812,0.16858206037642628,3.0
5.797472953796387,7.158296585083008,0.0031332969665527344,-0.0,-0.0,-1.0,0.11387097846880007,2.0
5.933689117431641,6.906772613525391,-0.026812076568603516,-0.3330745509399798,-0.1158559950246662,-0.9357557009887651,0.052199437766300275,3.0
6.2140936851501465,7.207008361816406,0.0014989376068115234,-0.0,-0.0,-1.0,0.18996764186023624,1.0
6.500584125518799,7.269922256469727,0.0032160282135009766,-0.0,-0.0,-1.0,0.0991963533332343,1.0
6.786505222320557,7.071176528930664,-0.024565696716308594,-0.0,-0.0,-1.0,0.17309801265537073,1.0
6.929436683654785,7.379688262939453,0.0068187713623046875,-0.0,-0.0,-1.0,0.20346637358095182,2.0
5.830556869506836,5.707586288452148,0.7444469928741455,-0.0,-0.0,-1.0,0.18673351768429233,2.0
6.171771049499512,5.886131286621094,0.7481107711791992,-0.0,-0.0,-1.0,0.24333746086543256,1.0
6.227663993835449,5.773431777954102,0.7376341819763184,0.9696640238760231,-0.19113140222398634,-0.1523826364270295,0.1085579679232208,5.0
6.661231517791748,5.9732208251953125,0.73970627784729,-0.0,-0.0,-1.0,0.14725004442885048,2.0
7.704598426818848,7.585954666137695,0.832263708114624,-0.0,-0.0,-1.0,0.10299187858495638,1.0
5.714789390563965,5.901350021362305,0.24133062362670898,-0.0,-0.0,-1.0,0.08628805655775991,2.0
6.150630950927734,6.099300384521484,0.25028133392333984,0.6161020482868351,0.7552716013815332,-0.22356894740401906,0.20609659669805558,3.0
5.945159912109375,5.914943695068359,0.23693490028381348,-0.0,-0.0,-1.0,0.17853704184610353,2.0
6.251618385314941,6.128288269042969,0.25055813789367676,-0.0,-0.0,-1.0,0.12607839006868823,1.0
6.417365074157715,6.08952522277832,0.24213886260986328,-0.0,-0.0,-1.0,0.18443712310516175,2.0
6.749538898468018,6.266864776611328,0.25092101097106934,-0.29317877296108424,0.5499586000477554,-0.7820433142214988,0.23835369227284595,5.0
6.896794319152832,6.173786163330078,0.23714590072631836,-0.0,-0.0,-1.0,0.24019422533052873,2.0
6.944801330566406,5.64532470703125,0.18144798278808594,-0.0,-0.0,-1.0,0.1743724842198533,1.0
5.875021934509277,5.96074104309082,1.1093757152557373,-0.0,-0.0,-1.0,0.128492353269824,1.0
6.108314514160156,5.850519180297852,1.0930495262145996,-0.0,-0.0,-1.0,0.2674366798480394,1.0
5.9625444412231445,5.974077224731445,0.4409794807434082,-0.0,-0.0,-1.0,0.17241766506713785,1.0
6.407227516174316,6.078386306762695,0.44207656383514404,-0.10852293079676273,0.18424851663103664,-0.9768701334417711,0.2535133201656973,3.0
6.753451347351074,6.228666305541992,0.449174165725708,-0.0,-0.0,-1.0,0.1578047397029322,2.0
6.864347457885742,5.906925201416016,0.415053129196167,-0.0,-0.0,-1.0,0.26963344870175127,1.0
7.659171104431152,7.6146392822265625,0.5642440319061279,0.38037856650192897,0.7144627031265441,-0.5872437245190871,0.19986630467713756,4.0
5.943058013916016,6.0823822021484375,0.07017135620117188,-0.0,-0.0,-1.0,0.11642389063419809,2.0
6.053624153137207,6.325214385986328,0.09676170349121094,-0.0,-0.0,-1.0,0.07274317013504127,2.0
6.399518013000488,6.522350311279297,0.11570119857788086,-0.0,-0.0,-1.0,0.17310010777761162,2.0
6.418212890625,6.175474166870117,0.07566499710083008,-0.0,-0.0,-1.0,0.1962701339892578,1.0
6.472164154052734,6.875093460083008,0.1553053855895996,-0.0,-0.0,-1.0,0.1481149943695959,1.0
6.709083557128906,6.267183303833008,0.08263015747070312,-0.4930178455159941,0.1953620951966474,-0.8478013067713117,0.21101811334751297,3.0
7.024692535400391,7.196313858032227,0.18577265739440918,-0.0,-0.0,-1.0,0.23057787184512316,1.0
5.825671195983887,5.724529266357422,0.8508433103561401,-0.23448820695749448,-0.6199805625352843,-0.7487585611372277,0.23753299965459898,3.0
6.231564521789551,5.843618392944336,0.850562334060669,-0.6082180808552444,-0.44304054429516687,-0.6586242041038315,0.17370600876345138,3.0
6.602666854858398,6.208118438720703,0.8711150884628296,-0.67344402101901,-0.3362938495508292,0.6583157276778607,0.19802724408148958,4.0
5.784853935241699,5.806709289550781,0.3772622346878052,-0.12217337295522249,-0.20845087095310513,-0.9703720427442435,0.18833717077782888,3.0
5.835721015930176,5.655275344848633,0.3610682487487793,-0.0,-0.0,-1.0,0.14524853508003982,2.0
6.281284332275391,5.985908508300781,0.39061033725738525,-0.0,-0.0,-1.0,0.2732735984617949,1.0
6.661063194274902,6.209201812744141,0.4094165563583374,-0.0,-0.0,-1.0,0.20024913846583314,2.0
7.651553153991699,7.601007461547852,0.5425930023193359,-0.7095564976548054,0.334599036529419,-0.620139549931651,0.2392334214224356,5.0
5.745489120483398,6.767759323120117,0.04256272315979004,-0.0,-0.0,-1.0,0.11905681186371746,1.0
6.0806169509887695,6.771791458129883,0.0504000186920166,-0.0,-0.0,-1.0,0.09210938658696782,1.0
6.175057411193848,6.578527450561523,0.02977728843688965,-0.0,-0.0,-1.0,0.06463409097846277,1.0
6.5059814453125,6.624795913696289,0.041352033615112305,-0.0,-0.0,-1.0,0.16349846040459126,2.0
6.811394691467285,6.47838020324707,0.029206037521362305,-0.0,-0.0,-1.0,0.16847093135469596,1.0
6.904915809631348,6.356227874755859,0.01602625846862793,0.6959854310162698,0.261647949944048,0.6686887393273302,0.2638717239317859,3.0
6.946706771850586,7.3445281982421875,0.13428258895874023,-0.0,-0.0,-1.0,0.1926225926082935,1.0
6.962968826293945,7.228643417358398,0.1208498477935791,-0.02998322735847112,0.1231956907486974,-0.9919293462027027,0.1841299127877463,3.0
5.7104387283325195,5.753477096557617,0.6857621669769287,-0.0,-0.0,-1.0,0.1048327584264808,1.0
6.160432815551758,5.882986068725586,0.6979998350143433,-0.0,-0.0,-1.0,0.21295509902241952,1.0
7.691956520080566,7.509117126464844,0.8403334617614746,-0.0,-0.0,-1.0,0.16683788351194268,1.0
5.850618362426758,5.939765930175781,0.20565056800842285,-0.0,-0.0,-1.0,0.16642411151879274,1.0
6.083135604858398,6.106365203857422,0.22829604148864746,-0.0,-0.0,-1.0,0.16929528316449147,1.0
6.322343826293945,6.148719787597656,0.23689675331115723,0.3009958333640281,-0.7922001789136468,-0.530867577486778,0.2166147254046785,3.0
6.712450981140137,6.236122131347656,0.25245046615600586,-0.7291514723483938,0.20049790276204413,-0.6543231016555903,0.2128082994556264,6.0
5.7265825271606445,5.816179275512695,0.919574499130249,-0.30111730788668417,-0.26902022832579714,-0.9148532579832745,0.15209209367213564,3.0
6.122249603271484,5.917724609375,0.9275691509246826,-0.5078879931155842,0.8538789804768717,0.11375620048508571,0.24173581206702535,3.0
6.354581832885742,6.043598175048828,0.937450647354126,-0.0,-0.0,-1.0,0.09003064718241012,1.0
6.579655647277832,6.231716156005859,0.9523521661758423,-0.0,-0.0,-1.0,0.25814727286493094,2.0
5.991701126098633,7.634145736694336,-0.06650066375732422,-0.0,-0.0,-1.0,0.06510908078225638,2.0
6.429576873779297,7.5466156005859375,-0.055654287338256836,-0.0,-0.0,-1.0,0.10575601353517274,1.0
6.855363845825195,7.572099685668945,-0.032491207122802734,-0.0,-0.0,-1.0,0.1968213151561734,1.0
7.490781784057617,7.485711097717285,-0.01662898063659668,-0.0,-0.0,-1.0,0.12517223835202754,2.0
7.600197792053223,7.430255889892578,-0.019831180572509766,-0.0,-0.0,-1.0,0.08024503480374351,1.0
5.735627174377441,5.749011993408203,0.3887331485748291,-0.7109665606941623,0.5517625780672849,-0.4359869344593451,0.14576635971879429,4.0
6.208085060119629,6.04136848449707,0.43070530891418457,-0.0,-0.0,-1.0,0.18834815452330878,1.0
6.4164276123046875,6.060218811035156,0.437627911567688,-0.10852293079676273,0.18424851663103664,-0.9768701334417711,0.22869372904593205,3.0
6.332180023193359,5.919168472290039,0.42104458808898926,-0.8177423894455075,0.2566441490668936,-0.515200121558295,0.2529542797136064,5.0
5.917082786560059,5.998922348022461,1.1152377128601074,-0.0,-0.0,-1.0,0.12655486730053955,1.0
6.1991682052612305,5.931880950927734,1.1121870279312134,-0.6298320367246247,-0.028632604080924617,-0.7762034395046548,0.1527524874824782,3.0
5.915309906005859,5.869332313537598,0.28144073486328125,-0.0,-0.0,-1.0,0.18601250901032426,1.0
6.351326942443848,6.104047775268555,0.3172719478607178,0.31853012004364467,-0.0041933893464738674,-0.9479034645525726,0.2082448977280542,3.0
7.687112808227539,7.58740234375,0.5190739631652832,-0.6769107973847184,-0.3391492863645669,-0.6532760013519477,0.18670349417087884,7.0
5.754397392272949,5.760287284851074,0.9482285976409912,-0.27642776838075944,-0.06034650058990407,-0.9591381489308961,0.10479681438562372,5.0
6.223720550537109,5.918302536010742,0.9615150690078735,-0.5636563087409749,0.2774937186971988,-0.778003085919393,0.23078566479712914,7.0
6.16285514831543,6.101116180419922,0.290102481842041,-0.0,-0.0,-1.0,0.15660528826562872,2.0
6.410730361938477,6.169313430786133,0.3062145709991455,-0.0,-0.0,-1.0,0.1444960525273177,1.0
7.610433578491211,7.5777482986450195,-0.05872488021850586,-0.0,-0.0,-1.0,0.13200976120317154,2.0
7.676677703857422,7.5684356689453125,0.5139713287353516,-0.5514033606752404,0.6809429446698738,0.48194505904757623,0.19400120329468734,5.0
5.761120796203613,5.850336074829102,0.9020017385482788,-0.9752829368250251,-0.22068633882139443,-0.010987856732015808,0.13673428628725873,3.0
5.718560218811035,5.689469337463379,0.8869295120239258,-0.8029253738115536,0.39926906222209824,0.4426003389536246,0.14054990274107512,4.0
6.147917747497559,5.934774398803711,0.914190411567688,-0.541424603167051,0.16881625992849894,-0.8236264137757817,0.26547376813623985,3.0
6.563451766967773,6.286557197570801,0.9508798122406006,-0.0,-0.0,-1.0,0.19546116753576626,2.0
5.836326599121094,7.132123947143555,-0.005745410919189453,-0.0,-0.0,-1.0,0.11387097846880011,2.0
5.927223205566406,6.926179885864258,-0.02691340446472168,-0.3330745509399798,-0.1158559950246662,-0.9357557009887651,0.046782726451332975,3.0
6.301424026489258,7.090521812438965,0.0190737247467041,-0.0,-0.0,-1.0,0.16381349332592957,2.0
6.354292869567871,6.842116355895996,-0.011350631713867188,-0.0,-0.0,-1.0,0.09865951230870061,2.0
6.713129043579102,6.820436477661133,0.00709986686706543,-0.0,-0.0,-1.0,0.13122835131883182,1.0
7.036683082580566,7.339197158813477,0.0979766845703125,-0.15043410628934914,-0.059952292280944494,-0.9868005382625129,0.2556748422499396,3.0
5.775219917297363,5.834480285644531,0.45123982429504395,-0.0,-0.0,-1.0,0.187971441410761,2.0
7.203675270080566,6.118309020996094,0.5300023555755615,-0.0,-0.0,-1.0,0.12589350675333733,1.0
6.9249067306518555,5.847861289978027,0.49035072326660156,-0.0,-0.0,-1.0,0.17669276739234796,1.0
5.8881683349609375,5.863960266113281,1.0863367319107056,-0.0,-0.0,-1.0,0.12048850702347023,1.0
6.2346391677856445,5.899395942687988,1.0937395095825195,-0.08542774333646161,-0.21472638275427344,-0.9729309745391526,0.23405851585589493,3.0
5.8437347412109375,7.547469139099121,-0.09093332290649414,-0.0,-0.0,-1.0,0.06891584284284366,1.0
6.2217206954956055,7.4900102615356445,-0.06532669067382812,0.4417251401144877,0.2996747065257739,-0.8456204650193415,0.07081316948882048,3.0
6.410266876220703,7.359622955322266,-0.06582379341125488,-0.0,-0.0,-1.0,0.11190542412598224,1.0
6.674496650695801,7.280679702758789,-0.05454826354980469,0.6967352432675138,-0.6593881960137025,-0.2824308902134353,0.10599937180507189,3.0
5.748425483703613,5.882049560546875,0.32195448875427246,-0.0,-0.0,-1.0,0.12587022460980687,1.0
5.848502159118652,5.859121322631836,0.324939489364624,-0.0,-0.0,-1.0,0.13830541348426886,1.0
6.418851852416992,6.3783979415893555,0.4099818468093872,-0.0,-0.0,-1.0,0.2279178738245761,1.0
7.02406120300293,7.6218414306640625,0.017574310302734375,-0.0,-0.0,-1.0,0.1352186507997134,1.0
5.826939582824707,5.678346633911133,0.9346973896026611,-0.0,-0.0,-1.0,0.19504921504295308,2.0
5.772881507873535,5.79930305480957,0.9425801038742065,-0.7453271404659941,0.6205281023923883,0.2437874644564106,0.17070018356086575,6.0
6.219449043273926,5.900383949279785,0.9637837409973145,-0.29221992800178564,0.09820285014358841,-0.9512958077813163,0.27108201833222584,6.0
6.29592227935791,5.6578779220581055,0.9464319944381714,-0.0,-0.0,-1.0,0.1940566121565713,2.0
6.702202796936035,6.237854957580566,1.0045493841171265,-0.0,-0.0,-1.0,0.2210987753162022,2.0
5.712386131286621,7.3487749099731445,-0.03408980369567871,-0.0,-0.0,-1.0,0.0603889659538749,1.0
5.974917411804199,7.044306755065918,-0.04105114936828613,-0.0,-0.0,-1.0,0.06389993603222494,1.0
6.309348106384277,6.772168159484863,-0.04013180732727051,-0.0,-0.0,-1.0,0.07634512501774134,2.0
6.3625993728637695,7.070856094360352,-0.0020720958709716797,-0.0,-0.0,-1.0,0.14436926869135627,1.0
6.425332069396973,6.894433975219727,-0.016054630279541016,-0.0,-0.0,-1.0,0.09433237741255253,2.0
7.684300422668457,6.088178634643555,-0.008426904678344727,-0.0,-0.0,-1.0,0.07426632677982624,1.0
6.837871551513672,6.075468063354492,0.5200768709182739,-0.0,-0.0,-1.0,0.14627443797788445,1.0
6.993138313293457,5.810227394104004,0.5038859844207764,-0.0,-0.0,-1.0,0.126951837068423,1.0
7.075953483581543,7.338205337524414,0.09205031394958496,-0.0125065325599251,0.9694141993033606,-0.24511160077065305,0.23325162471557634,3.0
5.985540390014648,5.9969282150268555,1.0747649669647217,-0.0,-0.0,-1.0,0.15025399752327012,1.0
6.012059211730957,5.847649574279785,1.066344141960144,-0.0,-0.0,-1.0,0.24349740899995537,1.0
6.086613655090332,6.017538070678711,1.0799942016601562,-0.0,-0.0,-1.0,0.11979685256744711,1.0
6.287565231323242,5.848532676696777,1.0767512321472168,-0.0,-0.0,-1.0,0.20308971563825318,2.0
5.932897567749023,6.9817094802856445,-0.0030400753021240234,-0.0,-0.0,-1.0,0.06342183149344904,1.0
6.204109191894531,6.702635765075684,-0.004231929779052734,-0.0,-0.0,-1.0,0.07849438171550323,2.0
5.744140625,7.282746315002441,0.006768465042114258,-0.0,-0.0,-1.0,0.07684388851441441,2.0
5.898704528808594,7.120329856872559,0.007039785385131836,-0.0,-0.0,-1.0,0.051830900199512336,1.0
6.259136199951172,6.95068359375,0.025981903076171875,-0.0,-0.0,-1.0,0.09109094320517001,1.0
7.592490196228027,5.952048301696777,0.036536455154418945,-0.0,-0.0,-1.0,0.07510378057035608,2.0
5.897110939025879,5.650056838989258,0.4866783618927002,-0.5307081199119882,-0.31708275342324627,-0.7860072639238239,0.09893393930942783,3.0
6.402750015258789,5.7054643630981445,0.5238137245178223,-0.0,-0.0,-1.0,0.23597080995147707,2.0
6.235363960266113,5.822315216064453,1.1342304944992065,-0.04183324897460746,0.8330024981825945,-0.5516854332876526,0.22825403284998863,4.0
6.974054336547852,6.167146682739258,0.324634313583374,0.7456984325419757,0.3626254740981705,-0.5589602966575689,0.19064668983849478,3.0
7.441433906555176,7.5494384765625,-0.06750822067260742,-0.0,-0.0,-1.0,0.11945589583835944,1.0
5.7594194412231445,5.731346130371094,0.8170266151428223,-0.18375972660968565,0.03041795194836152,-0.9825004382063147,0.15015060267162386,3.0
7.68476676940918,7.623988151550293,0.5102217197418213,-0.38780386071196926,-0.2378709528443361,-0.8905198343719353,0.18044211824248682,4.0
6.085679054260254,5.820197105407715,0.8418750762939453,-0.0,-0.0,-1.0,0.2609787964906972,2.0
6.246857643127441,5.64521598815918,0.8402752876281738,-0.0,-0.0,-1.0,0.164415596097802,2.0
6.388603210449219,6.014429092407227,0.8717559576034546,-0.0,-0.0,-1.0,0.132565364792873,1.0
6.2512311935424805,5.728266716003418,0.8457906246185303,0.6186190893239405,-0.7540706332965186,-0.2206533533028811,0.24427373410538422,7.0
5.761837005615234,6.524623870849609,0.018602848052978516,-0.0,-0.0,-1.0,0.0792568064922433,1.0
5.790881156921387,6.73350715637207,0.03489542007446289,-0.0,-0.0,-1.0,0.12848037755230807,1.0
7.139244079589844,5.887801170349121,0.13009214401245117,-0.0,-0.0,-1.0,0.07067984861439501,2.0
7.402884483337402,5.7390289306640625,0.146317720413208,-0.0,-0.0,-1.0,0.12369174497613014,1.0
5.728044509887695,7.001043319702148,0.04307913780212402,-0.0,-0.0,-1.0,0.07216877662783272,2.0
6.230711936950684,6.543638229370117,0.07487726211547852,-0.0,-0.0,-1.0,0.0884093180902485,1.0
6.375103950500488,6.580025672912598,0.09402132034301758,-0.0,-0.0,-1.0,0.16566516094391084,1.0
7.496156692504883,5.861469268798828,0.16588377952575684,-0.0,-0.0,-1.0,0.09828994779145958,1.0
6.2603302001953125,7.211544036865234,0.11995887756347656,-0.0,-0.0,-1.0,0.1163467167961089,1.0
5.718266487121582,5.780513763427734,0.6078939437866211,-0.0,-0.0,-1.0,0.07633355691898472,2.0
6.321004867553711,5.9075517654418945,0.665312647819519,-0.15460296966746276,-0.7510745070067336,0.6418605819760189,0.1460133745319365,3.0
7.586138725280762,7.532071113586426,0.8494617938995361,-0.0,-0.0,-1.0,0.12791719418486885,2.0
7.625736236572266,6.474740982055664,-0.11798858642578125,-0.0,-0.0,-1.0,0.04966476419149141,1.0
6.506374359130859,6.01943302154541,0.3352358341217041,-0.0,-0.0,-1.0,0.21426603319358967,1.0
6.671850204467773,6.254836082458496,0.36275243759155273,0.9013724746196172,-0.41538211640312483,-0.12241470242813167,0.21422539485559114,6.0
5.8178510665893555,5.97567081451416,0.9083693027496338,-0.0,-0.0,-1.0,0.10298873434418614,1.0
6.124815940856934,5.805706024169922,0.9319565296173096,-0.42045391883900524,0.5674616937672465,-0.7079588464308718,0.191046832676132,3.0
6.190168380737305,6.09365177154541,0.9420865774154663,-0.0,-0.0,-1.0,0.2149703246106613,2.0
6.527061462402344,6.183856010437012,0.9722127914428711,-0.0,-0.0,-1.0,0.20362307484494777,2.0
6.6802825927734375,5.882319450378418,0.42466580867767334,-0.0,-0.0,-1.0,0.20433632139609959,1.0
6.6738739013671875,6.038773536682129,0.41991913318634033,-0.0,-0.0,-1.0,0.22879779309848297,1.0
6.944644927978516,5.8922834396362305,0.21986031532287598,-0.0,-0.0,-1.0,0.22610664943659908,1.0
6.368198394775391,5.840746879577637,0.7492764592170715,-0.0,-0.0,-1.0,0.1689480060448108,1.0
6.309001922607422,5.676606178283691,0.7468326687812805,-0.0,-0.0,-1.0,0.175182555822335,1.0
6.753910064697266,6.257258892059326,0.42986249923706055,-0.0,-0.0,-1.0,0.18508024384713936,2.0
6.500846862792969,5.9971089363098145,0.4263347387313843,-0.0,-0.0,-1.0,0.1898242630125727,1.0
6.254146575927734,5.649658203125,0.42357027530670166,-0.0,-0.0,-1.0,0.17403127443340619,1.0
6.402671813964844,6.662868499755859,0.14789605140686035,-0.0,-0.0,-1.0,0.18058232363178606,1.0
6.870685577392578,6.404942035675049,0.16292357444763184,-0.0,-0.0,-1.0,0.2485953006734766,2.0
6.500873565673828,5.908774375915527,0.15599846839904785,-0.0,-0.0,-1.0,0.24336799835684356,2.0
6.341030120849609,5.736719608306885,0.1526881456375122,-0.0,-0.0,-1.0,0.26475861940891193,1.0
7.446685791015625,5.728583812713623,0.1838397979736328,-0.0,-0.0,-1.0,0.23965387705926347,1.0
7.49365234375,7.6280035972595215,0.021685481071472168,-0.0,-0.0,-1.0,0.09796259218238222,1.0
7.114139556884766,7.089330196380615,-0.0046694278717041016,-0.0,-0.0,-1.0,0.19315304392791713,1.0
7.5167083740234375,7.434196949005127,0.758488655090332,-0.0,-0.0,-1.0,0.15130755885240488,1.0
6.135066986083984,5.672731399536133,0.7428955435752869,-0.0,-0.0,-1.0,0.15260847740312194,2.0
7.634136199951172,7.529342174530029,0.761792004108429,0.6443802871088028,0.5994005962635535,-0.4748610015409493,0.21570392104211736,6.0
7.706707000732422,7.554238796234131,0.6262792348861694,-0.0,-0.0,-1.0,0.07792071159641285,1.0
6.255908966064453,5.7398905754089355,0.5108309984207153,-0.562670048188209,-0.8123680518418198,0.15316842108804468,0.20602808580356183,4.0
6.233348846435547,5.774832725524902,0.46922123432159424,0.5926522512627557,-0.7902385780198531,-0.1558406201295028,0.13648670095129123,5.0
6.5860595703125,6.108841419219971,0.4142732620239258,-0.0,-0.0,-1.0,0.18142871472239638,2.0
7.633602142333984,7.584437847137451,0.633198618888855,-0.0,-0.0,-1.0,0.1960609527400506,1.0
6.138889312744141,5.745974540710449,0.5874515175819397,-0.0,-0.0,-1.0,0.19416944486445184,2.0
7.6864166259765625,7.617079734802246,0.6983476877212524,-0.9311860495012367,-0.30610071510418074,-0.19797700226791298,0.13368060346576652,6.0
6.3049774169921875,5.822570323944092,0.6525974869728088,0.7566497893415831,0.5807550401066046,0.30034093906777587,0.15925197636664423,6.0
6.261867523193359,5.677463531494141,0.6500258445739746,-0.0,-0.0,-1.0,0.1809596715903215,2.0
6.772251129150391,6.274326801300049,0.2597215175628662,-0.47957438538833685,0.8419375221711644,0.2472844872604808,0.19598805628360164,5.0
6.548969268798828,6.409512519836426,0.2588914632797241,-0.0,-0.0,-1.0,0.1652357151824349,1.0
6.736248016357422,6.0805583000183105,0.2524527311325073,-0.0,-0.0,-1.0,0.24234339785028225,2.0
6.172153472900391,5.650235176086426,0.9063586592674255,-0.0,-0.0,-1.0,0.1342184021608214,1.0
7.689384460449219,7.516574382781982,0.6799410581588745,-0.27596462515795533,0.5484640590515346,-0.7893229387203592,0.09081104553553891,3.0
6.302949905395508,5.827742576599121,0.6173645257949829,-0.9968794057459414,-0.054721110369859,0.056895083087275866,0.18289614376153562,6.0
6.088108062744141,5.778196334838867,0.9317069053649902,0.07586876196512976,-0.09222726723891764,-0.9928434227689276,0.19083480375960482,3.0
7.617132186889648,6.089864730834961,-0.02699720859527588,-0.0,-0.0,-1.0,0.06329558281811268,2.0
7.190391540527344,6.235713958740234,-0.03734719753265381,-0.0,-0.0,-1.0,0.07137029409623293,1.0
6.919816970825195,6.38011360168457,-0.04212832450866699,-0.0,-0.0,-1.0,0.21738830648680235,2.0
6.196075439453125,5.726207733154297,1.0093364715576172,-0.1510265351369546,-0.6024425060185788,-0.7837435885712755,0.15772746064632287,3.0
6.671726226806641,6.264936447143555,0.36239027976989746,0.9013724746196172,-0.41538211640312483,-0.12241470242813167,0.19042199993195508,6.0
6.638813018798828,6.023204803466797,0.354411780834198,0.9763951159491456,-0.1938588132963306,-0.09524357226602183,0.21989188298651804,3.0
6.348014831542969,5.709817886352539,0.33851879835128784,-0.0,-0.0,-1.0,0.21707202483269508,2.0
7.323577880859375,6.053528785705566,0.21668756008148193,-0.0,-0.0,-1.0,0.24020438469351313,1.0
6.78990364074707,6.18501091003418,0.20516443252563477,0.6545264927643721,-0.30449931666411767,-0.6920081187534263,0.1676727060339438,3.0
7.499324798583984,5.642183303833008,0.20835375785827637,-0.0,-0.0,-1.0,0.2160440096494739,1.0
6.641817092895508,5.919216156005859,0.19209980964660645,-0.0,-0.0,-1.0,0.19864547374952576,1.0
7.66044807434082,7.5841169357299805,0.5278811454772949,-0.8091203553968093,-0.0438371219396751,-0.5860055948731095,0.2468012122643369,9.0
6.885763168334961,5.782153129577637,0.4578220844268799,-0.0,-0.0,-1.0,0.15545391348206242,1.0
6.190238952636719,5.833069801330566,0.44451093673706055,-0.0,-0.0,-1.0,0.17930187779910525,1.0
7.684318542480469,5.966161727905273,0.1039266586303711,-0.0,-0.0,-1.0,0.10774093883501068,1.0
7.295158386230469,6.105132102966309,0.09531736373901367,-0.0,-0.0,-1.0,0.1132932198656684,2.0
6.915184020996094,6.206294059753418,0.08566796779632568,-0.0,-0.0,-1.0,0.18617013599989188,1.0
6.281888961791992,5.877410888671875,1.0255906581878662,-0.0,-0.0,-1.0,0.12416147961562549,2.0
6.15312385559082,5.720578193664551,1.0219404697418213,-0.1510265351369546,-0.6024425060185788,-0.7837435885712755,0.16239824414536885,3.0
7.568925857543945,5.74501895904541,0.1617065668106079,-0.0,-0.0,-1.0,0.14369230846286377,1.0
7.255634307861328,5.999338150024414,0.15137112140655518,-0.0,-0.0,-1.0,0.09624140067726782,2.0
6.8745269775390625,6.17387580871582,0.13721656799316406,0.8473844770887414,0.5309791440310457,0.000834621529853551,0.2543458757828451,3.0
6.697669982910156,5.948770523071289,0.12728047370910645,-0.0,-0.0,-1.0,0.26909389358944075,2.0
6.250608444213867,5.809878349304199,1.0471320152282715,-0.8713651654449028,0.44683775295819456,-0.20262963993564403,0.17383436530677276,4.0
5.9173736572265625,5.874231338500977,1.0436129570007324,-0.0,-0.0,-1.0,0.14918592517855786,1.0
6.193870544433594,5.688335418701172,1.0468918085098267,-0.0,-0.0,-1.0,0.13393972842512605,2.0
7.526050567626953,5.898512840270996,0.10488569736480713,-0.0,-0.0,-1.0,0.14386794567065414,2.0
7.122520446777344,6.046010971069336,0.09477567672729492,-0.0,-0.0,-1.0,0.043627450244947956,1.0
6.872480392456055,6.177216529846191,0.08975934982299805,-0.0,-0.0,-1.0,0.21136987108358202,2.0
6.25462532043457,5.7806396484375,0.96455979347229,0.690934194396437,-0.2531629890997213,-0.6771398968926883,0.14946493322450471,4.0
5.779834747314453,5.779597282409668,0.9621152877807617,-0.7282762966753374,0.6440749085122401,0.23405372871587746,0.19681130955394652,4.0
6.5813751220703125,5.957832336425781,0.32541918754577637,-0.0,-0.0,-1.0,0.2239254367984641,1.0
7.130001068115234,5.994874954223633,0.40979665517807007,-0.0,-0.0,-1.0,0.1830782512357137,1.0
6.5035552978515625,5.85843563079834,0.3907332420349121,-0.1422828834817852,-0.985293228543917,0.09461942112279946,0.23573579139571008,3.0
6.534357070922852,5.857478141784668,0.42708051204681396,-0.0,-0.0,-1.0,0.251769557323345,2.0
7.036367416381836,5.956664085388184,0.43772536516189575,-0.0,-0.0,-1.0,0.18394222550355746,1.0
7.312191009521484,6.070535659790039,0.3731023669242859,-0.0,-0.0,-1.0,0.1671005150836241,1.0
7.683691024780273,5.692804336547852,0.3532150387763977,-0.0,-0.0,-1.0,0.25658121327103645,1.0
6.190807342529297,5.688806533813477,1.1154433488845825,-0.8210239331776894,-0.5673049026591188,0.0639128200626804,0.19752466837354715,4.0
6.320375442504883,7.2492265701293945,0.0998769998550415,-0.0,-0.0,-1.0,0.15467586532829752,1.0
7.0579376220703125,6.195948600769043,0.05529522895812988,-0.0,-0.0,-1.0,0.07570265825668997,2.0
7.365976333618164,6.094199180603027,0.0580143928527832,-0.0,-0.0,-1.0,0.04272979906492013,2.0
7.195371627807617,6.194677352905273,0.05945134162902832,0.43434384720422603,0.1756153883415784,-0.8834617466384544,0.08373603762027194,3.0
7.597475051879883,7.6265459060668945,0.8338295817375183,-0.0,-0.0,-1.0,0.1948799461881332,2.0
5.998003005981445,5.723811149597168,0.7413181066513062,-0.0,-0.0,-1.0,0.1503722491878967,1.0
7.14238166809082,6.042259216308594,0.20171737670898438,-0.0,-0.0,-1.0,0.2490869616305871,1.0
6.588203430175781,5.900482177734375,0.1759810447692871,-0.0,-0.0,-1.0,0.20222188405800648,1.0
7.644878387451172,5.813055992126465,0.2054678201675415,-0.0,-0.0,-1.0,0.21442712822731308,1.0
6.661876678466797,6.084770202636719,0.8717750310897827,-0.3439311015429078,-0.9175909054023716,-0.19934474589097634,0.21996878501470793,3.0
6.539241790771484,6.099815368652344,0.8719420433044434,-0.0,-0.0,-1.0,0.16766659407902224,1.0
6.113889694213867,5.7381181716918945,0.8579280376434326,-0.0,-0.0,-1.0,0.21182566955521093,1.0
6.518686294555664,5.694292068481445,0.2000800371170044,-0.0,-0.0,-1.0,0.20504715953539418,2.0
7.514883041381836,6.014557838439941,0.24409377574920654,-0.0,-0.0,-1.0,0.17803922624427612,1.0
7.148659706115723,5.895159721374512,0.22781860828399658,-0.0,-0.0,-1.0,0.1230742754665258,1.0
6.70115852355957,6.068879127502441,0.8771489262580872,-0.0,-0.0,-1.0,0.18867009647497926,2.0
6.268047332763672,5.762383460998535,0.8636558055877686,-0.8481477407495208,-0.15126646953736364,-0.5077045056479063,0.18871984614774298,8.0
6.074165344238281,7.489882946014404,-0.06969225406646729,-0.0,-0.0,-1.0,0.06948614662627267,1.0
5.742938995361328,7.438360691070557,-0.08882641792297363,-0.0,-0.0,-1.0,0.056473988654141265,1.0
6.463051795959473,7.604870796203613,-0.04253733158111572,-0.0,-0.0,-1.0,0.06723063015791643,1.0
7.266022682189941,7.453378677368164,-0.020943403244018555,0.01147719872556198,-0.8549062273006888,-0.5186555855593544,0.1031420146293233,3.0
7.695562362670898,7.576967716217041,0.008529067039489746,-0.0,-0.0,-1.0,0.17807724704481437,1.0
7.630720138549805,6.386316299438477,-0.10392236709594727,-0.0,-0.0,-1.0,0.06165178446820098,1.0
6.388470649719238,6.038930892944336,0.43671858310699463,-0.10852293079676273,0.18424851663103664,-0.9768701334417711,0.237956961049504,3.0
5.751792907714844,5.75214958190918,0.40835148096084595,-0.6483083129044548,0.761178387232357,0.017429693896557383,0.10452532440313371,5.0
6.592194557189941,5.659909248352051,0.40994328260421753,-0.0,-0.0,-1.0,0.17943263958585917,1.0
6.734045028686523,6.155666828155518,0.31036055088043213,0.6874045433955004,0.6270101640631796,-0.3665150036228915,0.22816950461698546,3.0
6.368376731872559,5.824134826660156,0.276020884513855,-0.0,-0.0,-1.0,0.22842048740444712,1.0
7.0590972900390625,6.108404636383057,0.3149150609970093,-0.0,-0.0,-1.0,0.13407039505693732,1.0
6.484907150268555,5.6558027267456055,0.26601290702819824,-0.0,-0.0,-1.0,0.23511903524546227,2.0
7.675256729125977,5.860296249389648,0.31046193838119507,-0.0,-0.0,-1.0,0.17836534824630076,1.0
5.793195724487305,5.719325065612793,0.8653227686882019,-0.4275376445670412,0.2545488149089794,-0.8674194275588368,0.16866409330409043,3.0
6.622369766235352,6.229313373565674,0.8907761573791504,-0.67344402101901,-0.3362938495508292,0.6583157276778607,0.19551967550260885,4.0
6.255825042724609,5.798009872436523,0.8674398064613342,-0.6612669823023287,-0.33182377772696814,-0.6727696178126472,0.128778842526791,4.0
6.817139625549316,6.301657199859619,0.11876308917999268,0.05294927540642871,-0.5381301543334319,-0.8411969515107688,0.20634510945483794,3.0
6.792211532592773,6.144360065460205,0.10851490497589111,-0.0,-0.0,-1.0,0.1552980513993304,2.0
7.225481033325195,6.129262447357178,0.13164889812469482,-0.0,-0.0,-1.0,0.10856282447391263,2.0
7.628936767578125,5.930929660797119,0.1417328119277954,-0.0,-0.0,-1.0,0.15659572172032643,2.0
7.650242805480957,5.704931735992432,0.12901127338409424,-0.0,-0.0,-1.0,0.16506262046685055,1.0
6.079282760620117,5.765506744384766,1.1906754970550537,-0.0,-0.0,-1.0,0.14317073250834295,1.0
6.844925880432129,6.383106231689453,0.003534078598022461,0.8067486545366901,-0.4442371594140516,0.3896279694772627,0.20195401888982142,3.0
