x,y,z,nx,ny,nz,curvature,density
15.152366638183594,8.777853965759277,-0.6483988761901855,-0.0,-0.0,-1.0,0.03280390647479103,2.0
15.268815994262695,8.836009979248047,-0.6423904895782471,-0.0,-0.0,-1.0,0.027774659245134267,2.0
15.609512329101562,8.250259399414062,-0.5938007831573486,-0.0,-0.0,-1.0,0.04225701276953295,1.0
15.560735702514648,7.848311424255371,-0.581918478012085,-0.2905586146362175,0.6399653608396353,-0.7113508476034013,0.014104973850974869,3.0
15.678733825683594,8.490032196044922,-0.5983418226242065,0.15113323262868267,-0.560918574657354,-0.8139589047363305,0.05714173219819514,4.0
14.630060195922852,8.65656852722168,-0.6150424480438232,-0.0,-0.0,-1.0,0.04247170118137703,2.0
14.702707290649414,9.478825569152832,-0.6396129131317139,-0.0,-0.0,-1.0,0.04526004934213102,2.0
14.853065490722656,9.187005043029785,-0.6187721490859985,-0.0,-0.0,-1.0,0.017260348482074216,1.0
14.767229080200195,8.843503952026367,-0.6122403144836426,-0.0,-0.0,-1.0,0.03807200421638877,2.0
14.831710815429688,8.364407539367676,-0.5915908813476562,-0.0,-0.0,-1.0,0.03022772369752635,2.0
15.25924301147461,7.918485641479492,-0.5480104684829712,-0.07768250151477905,0.8493223172297634,-0.5221274082193657,0.05562790915776688,4.0
15.181997299194336,7.76566743850708,-0.5485341548919678,-0.0,-0.0,-1.0,0.042241429051904825,1.0
15.417749404907227,9.340153694152832,-0.6738383769989014,-0.0,-0.0,-1.0,0.022809642906456297,1.0
14.920597076416016,9.485477447509766,-0.7199447154998779,-0.0,-0.0,-1.0,0.019305000863002415,1.0
14.956554412841797,9.228822708129883,-0.7070791721343994,-0.0,-0.0,-1.0,0.018026838608376786,1.0
14.976198196411133,8.978231430053711,-0.6956725120544434,-0.0,-0.0,-1.0,0.03721869775942316,2.0
15.682296752929688,8.50423812866211,-0.6299530267715454,0.15113323262868267,-0.560918574657354,-0.8139589047363305,0.057141732198195155,4.0
15.549722671508789,8.228531837463379,-0.6281116008758545,-0.0,-0.0,-1.0,0.04504009621823618,1.0
15.420612335205078,7.765942573547363,-0.6193923950195312,-0.0,-0.0,-1.0,0.021687581529353024,1.0
15.578933715820312,7.8243608474731445,-0.6108987331390381,0.8969569648728049,0.21221134185856372,0.38785892996391524,0.011182683368708089,3.0
13.980159759521484,9.123472213745117,-0.6117740869522095,0.3941721299252231,0.2641479985779397,-0.8802580115156478,0.006640345342966115,3.0
13.959468841552734,8.926334381103516,-0.6051169633865356,-0.0,-0.0,-1.0,0.018946724984479288,1.0
13.89537239074707,8.803293228149414,-0.6041064262390137,-0.0,-0.0,-1.0,0.03922386548145737,1.0
14.402549743652344,8.359090805053711,-0.5560318231582642,-0.0,-0.0,-1.0,0.07675072849612301,2.0
14.534650802612305,8.051567077636719,-0.5361703634262085,-0.0,-0.0,-1.0,0.0220398516635604,2.0
13.912099838256836,9.080279350280762,-0.5896402597427368,-0.0,-0.0,-1.0,0.009161475883282689,1.0
14.443561553955078,8.336721420288086,-0.5229824781417847,-0.0,-0.0,-1.0,0.04351575593502136,2.0
14.474639892578125,8.076083183288574,-0.5086474418640137,0.6788083087945754,0.34448492348329607,0.6484978160365351,0.036024478396670064,4.0
14.49212646484375,7.681974411010742,-0.4891303777694702,0.17801629687415552,-0.32471855456051285,-0.9289069158808884,0.10261763387219508,4.0
14.440343856811523,7.95012092590332,-0.40772855281829834,-0.0,-0.0,-1.0,0.1469796828688072,1.0
14.464132308959961,7.744786262512207,-0.40725648403167725,-0.7855923533564344,0.6187208047950947,-0.005405558399385979,0.1053921937121121,3.0
14.130640029907227,9.065176010131836,-0.6212750673294067,-0.0,-0.0,-1.0,0.007018960896040764,1.0
13.952177047729492,8.998979568481445,-0.60735023021698,-0.0,-0.0,-1.0,0.014923972650418907,1.0
15.318075180053711,9.550844192504883,-0.7249077558517456,-0.0,-0.0,-1.0,0.02236639651234385,2.0
15.028675079345703,9.327644348144531,-0.6822487115859985,-0.0,-0.0,-1.0,0.01390487746942523,1.0
14.744295120239258,9.10812759399414,-0.6409523487091064,-0.0,-0.0,-1.0,0.038733817570420465,1.0
14.453372955322266,9.006948471069336,-0.6187654733657837,-0.0,-0.0,-1.0,0.02261551257190892,1.0
14.424392700195312,8.270620346069336,-0.5032496452331543,-0.0,-0.0,-1.0,0.13053319700771984,1.0
14.405635833740234,8.034444808959961,-0.4664278030395508,0.9451100152826434,0.19859336496686608,-0.25947588405009603,0.14228544637867516,4.0
14.439493179321289,7.713409900665283,-0.4177819490432739,-0.6840829607376018,0.7082219444133804,-0.17450553080005207,0.12178874007765779,5.0
15.492637634277344,9.596152305603027,-0.6969470977783203,-0.0,-0.0,-1.0,0.039636054378881604,1.0
14.882753372192383,9.346487045288086,-1.0095231533050537,-0.0,-0.0,-1.0,0.1327935194666409,1.0
15.5641508102417,8.609003067016602,-0.9129641056060791,-0.0,-0.0,-1.0,0.1739370297144799,1.0
15.529825210571289,8.43222427368164,-0.9015517234802246,-0.0,-0.0,-1.0,0.18759790708003715,1.0
15.237276077270508,8.48902702331543,-0.9233055114746094,-0.0,-0.0,-1.0,0.197653014418532,1.0
15.012556076049805,8.587823867797852,-0.9442312717437744,-0.0,-0.0,-1.0,0.14033392857041493,1.0
15.38477897644043,7.985710620880127,-0.8766911029815674,-0.0,-0.0,-1.0,0.17162932684597929,1.0
15.257583618164062,7.967336177825928,-0.8830215930938721,-0.0,-0.0,-1.0,0.1569993090881209,1.0
14.463751792907715,7.8299560546875,-0.44139254093170166,-0.5708299521280027,0.08613296772939501,-0.8165379829644603,0.11488329848727617,3.0
14.403275489807129,8.199468612670898,-0.4614180326461792,-0.0,-0.0,-1.0,0.12765095965504228,2.0
14.470927238464355,7.753148078918457,-0.43767237663269043,-0.8482647761554687,0.528519517888005,-0.0333764699353181,0.12770077154561102,5.0
14.411980628967285,8.18286418914795,-0.5614131689071655,-0.0,-0.0,-1.0,0.053180580589722214,2.0
14.417670249938965,7.799534797668457,-0.5212969779968262,-0.0,-0.0,-1.0,0.0955384388367453,1.0
15.540313720703125,9.474891662597656,-0.7389504909515381,-0.0,-0.0,-1.0,0.04425650052825342,1.0
15.222113609313965,9.30579948425293,-0.7158159017562866,-0.15652438729933818,0.086713811276061,-0.9838601684764693,0.02499677863544227,4.0
15.227371215820312,9.354568481445312,-0.7229963541030884,0.6151435564302715,-0.1958391538771993,-0.7637050679359015,0.02608324168118641,4.0
14.971083641052246,9.000497817993164,-0.6726338863372803,-0.0,-0.0,-1.0,0.03135306399029307,2.0
14.631406784057617,8.847860336303711,-0.6533235311508179,-0.0,-0.0,-1.0,0.04109315067968637,2.0
14.419158935546875,8.791397094726562,-0.647205114364624,-0.0,-0.0,-1.0,0.023805328396883648,2.0
14.550731658935547,8.147239685058594,-0.5527215003967285,0.3200304100169039,-0.5509766647235561,-0.7707173616797006,0.02568227298902023,4.0
14.474785804748535,8.535734176635742,-0.6095691919326782,-0.0,-0.0,-1.0,0.08457668788140826,2.0
14.514097213745117,7.676724910736084,-0.48589909076690674,0.09054321518265515,-0.21905021871649463,-0.9715034368774221,0.06878188346062554,3.0
15.582442283630371,9.40786361694336,-0.7161986827850342,-0.0,-0.0,-1.0,0.037212686118322194,2.0
15.194544792175293,9.17987060546875,-0.6854879856109619,-0.0,-0.0,-1.0,0.020963913396803015,1.0
14.919999122619629,8.886109352111816,-0.6449242830276489,0.9343965271580656,0.1931695885721906,-0.299313614935567,0.02740866165481337,3.0
14.68017578125,8.15804386138916,-0.5420684814453125,-0.0,-0.0,-1.0,0.030575975578828202,2.0
14.642970085144043,8.46999454498291,-0.587782621383667,-0.0,-0.0,-1.0,0.060170966452020504,1.0
14.617599487304688,8.792403221130371,-0.635179877281189,-0.0,-0.0,-1.0,0.0340410272768601,1.0
14.619425773620605,7.980297088623047,-0.5175654888153076,-0.0,-0.0,-1.0,0.030216411727942406,1.0
15.076595306396484,7.694761276245117,-0.5733907222747803,-0.0,-0.0,-1.0,0.01794079746348179,2.0
15.160272598266602,7.895575523376465,-0.5746824741363525,-0.0,-0.0,-1.0,0.04215914189943278,2.0
14.954446792602539,8.33165454864502,-0.6207584142684937,-0.0,-0.0,-1.0,0.024483044929989255,1.0
14.979007720947266,8.721068382263184,-0.6395084857940674,-0.0,-0.0,-1.0,0.025529214427547433,2.0
14.960196495056152,9.156134605407715,-0.6660768985748291,-0.0,-0.0,-1.0,0.012448762359317744,1.0
14.961785316467285,9.549429893493652,-0.6886529922485352,-0.0,-0.0,-1.0,0.01814325002889306,1.0
14.90516185760498,8.468092918395996,-0.6335906982421875,0.42839715148003316,-0.19544658862322314,-0.8821998138740101,0.018803792258833833,5.0
15.05241584777832,8.833813667297363,-0.629036545753479,-0.0,-0.0,-1.0,0.03183805233807836,2.0
14.991476058959961,9.221321105957031,-0.662126898765564,-0.0,-0.0,-1.0,0.013888938164792438,2.0
15.02486801147461,9.620401382446289,-0.6857763528823853,-0.0,-0.0,-1.0,0.012797421254420054,1.0
14.926142692565918,8.42774772644043,-0.6172572374343872,0.6136625880361886,-0.0005261558559345115,-0.7895682055432213,0.019190494904747443,3.0
14.97781753540039,8.650609016418457,-0.6256390810012817,-0.0,-0.0,-1.0,0.016410639666107143,1.0
15.522612571716309,8.210603713989258,-0.5333187580108643,-0.0,-0.0,-1.0,0.03999974868490146,1.0
15.232904434204102,8.004054069519043,-0.5541990995407104,0.6105864159598589,0.788615501603904,-0.07259352089076285,0.04014151364029026,4.0
14.927928924560547,7.673924446105957,-0.5700584650039673,-0.542379537474186,-0.6706212068209183,-0.5060549716101435,0.013205077218118257,3.0
15.078572273254395,7.876605033874512,-0.5644994974136353,-0.0,-0.0,-1.0,0.028963575221890258,1.0
14.857084274291992,9.591304779052734,-0.6867494583129883,-0.9791410438016365,0.04888871351896232,0.19721234756856035,0.013920409475513186,3.0
14.886773109436035,9.240631103515625,-0.6600966453552246,-0.0,-0.0,-1.0,0.013458303039428252,1.0
14.899580955505371,9.37038803100586,-0.6668989658355713,-0.8538402250456495,-0.2081392854074249,-0.477111001721907,0.01328264097037279,3.0
14.991409301757812,7.694131851196289,-0.5528141260147095,-0.0,-0.0,-1.0,0.0168641931451317,1.0
14.931713104248047,7.925949573516846,-0.57386314868927,-0.0,-0.0,-1.0,0.012978383320054344,2.0
14.879690170288086,8.296941757202148,-0.6023546457290649,-0.5237414007928826,-0.6723399500266566,-0.523119428709795,0.031066424383182,6.0
14.81745719909668,8.691423416137695,-0.6342910528182983,-0.0,-0.0,-1.0,0.030687265016603082,1.0
14.868609428405762,9.032907485961914,-0.6491066217422485,-0.5826173600976736,0.4555107808036623,-0.6731024738362321,0.022184496312191326,4.0
14.731433868408203,7.713728427886963,-0.5877838134765625,-0.0,-0.0,-1.0,0.033637807518937315,1.0
15.625947952270508,9.190649032592773,-0.6807084083557129,-0.0,-0.0,-1.0,0.04284956047517114,1.0
15.593597412109375,9.39189338684082,-0.7001385688781738,-0.0,-0.0,-1.0,0.03913586051649036,2.0
15.63197135925293,7.971658229827881,-0.5963892936706543,-0.0,-0.0,-1.0,0.01968265805419844,2.0
15.674702644348145,8.32949161529541,-0.6133828163146973,-0.0,-0.0,-1.0,0.041805965510141936,1.0
15.523955345153809,9.187772750854492,-0.6948337554931641,-0.0,-0.0,-1.0,0.048017974945141796,1.0
15.365854263305664,7.791502475738525,-0.6238625049591064,0.9850986840403603,-0.1711468236281934,-0.017010216457477533,0.04354676508156892,3.0
14.469908714294434,7.661073207855225,-0.48648834228515625,0.17801629687415552,-0.32471855456051285,-0.9289069158808884,0.11325782097242026,4.0
14.441482543945312,8.080280303955078,-0.4761698246002197,0.6788083087945754,0.34448492348329607,0.6484978160365351,0.1164401053932693,4.0
14.264371871948242,8.473725318908691,-0.49150848388671875,-0.0,-0.0,-1.0,0.0975389145294366,1.0
13.830243110656738,8.521037101745605,-0.5583293437957764,-0.0,-0.0,-1.0,0.07607565913522037,1.0
13.854256629943848,8.823051452636719,-0.5456104278564453,-0.0,-0.0,-1.0,0.036843530126964154,2.0
15.68929386138916,7.8171586990356445,-0.619131326675415,-0.0,-0.0,-1.0,0.009497104135134365,1.0
15.646479606628418,9.072493553161621,-0.705986499786377,-0.0,-0.0,-1.0,0.037901207272457986,1.0
15.608635902404785,9.59330940246582,-0.7501908540725708,-0.0,-0.0,-1.0,0.041142723726551665,1.0
14.332077980041504,7.92365837097168,-0.4495962858200073,-0.0,-0.0,-1.0,0.09091702122199948,2.0
14.333990097045898,7.6761345863342285,-0.43788206577301025,-0.0,-0.0,-1.0,0.10627689842955128,2.0
14.759971618652344,9.633740425109863,-0.7020888328552246,-0.0,-0.0,-1.0,0.012141440806266177,1.0
14.467204093933105,8.453458786010742,-0.5890367031097412,-0.4525246611111036,-0.7902780679632513,-0.4131367889483477,0.07161066636454083,7.0
14.22523307800293,8.435648918151855,-0.59666907787323,0.800029053989022,-0.28499726006265985,0.5279489317445459,0.08015005894753206,3.0
13.878667831420898,8.455842971801758,-0.6008503437042236,-0.0,-0.0,-1.0,0.06347940810576218,2.0
14.54659652709961,8.378321647644043,-0.6013064384460449,0.24235849236063456,-0.9371553721831302,0.25100232980787046,0.04802110082258497,4.0
13.818992614746094,8.450592994689941,-0.6291637420654297,-0.0,-0.0,-1.0,0.07780604969538824,2.0
14.024575233459473,8.331098556518555,-0.6615241765975952,-0.0,-0.0,-1.0,0.05725815499669402,1.0
14.304533004760742,9.615592956542969,-0.6702002286911011,-0.0,-0.0,-1.0,0.007387340012527184,1.0
13.908296585083008,9.382112503051758,-0.6868340969085693,-0.0,-0.0,-1.0,0.005389452446320676,1.0
14.424578666687012,9.595734596252441,-0.6867573261260986,-0.0,-0.0,-1.0,0.024289573955629532,1.0
14.064552307128906,9.419670104980469,-0.6922969818115234,-0.0,-0.0,-1.0,0.007196569359515496,2.0
14.083535194396973,8.169666290283203,-0.6335619688034058,-0.0,-0.0,-1.0,0.03766131108831526,1.0
13.90479850769043,8.071852684020996,-0.636508584022522,-0.0,-0.0,-1.0,0.037562145919477624,1.0
14.813349723815918,8.501531600952148,-0.6412023305892944,-0.0,-0.0,-1.0,0.02339913999232004,1.0
14.488018035888672,8.433874130249023,-0.621619701385498,0.49300497309163666,0.8554711968445226,-0.15847753114026808,0.040364034838665706,4.0
14.20094108581543,8.29101276397705,-0.620850682258606,-0.0,-0.0,-1.0,0.043949839370760066,1.0
13.825485229492188,8.325492858886719,-0.5799534320831299,-0.0,-0.0,-1.0,0.06098689107421943,2.0
15.680463790893555,8.795928001403809,-0.677858829498291,-0.0,-0.0,-1.0,0.05755798306806755,2.0
15.333908081054688,8.71810531616211,-0.6541168689727783,-0.0,-0.0,-1.0,0.019261001077073805,1.0
14.988197326660156,8.564056396484375,-0.6471810340881348,-0.0,-0.0,-1.0,0.014121236015664243,1.0
14.717941284179688,8.420096397399902,-0.647571325302124,-0.0,-0.0,-1.0,0.018942647335133192,1.0
13.824322700500488,9.602838516235352,-0.6815246343612671,-0.0,-0.0,-1.0,0.005522892934404253,1.0
13.82473087310791,8.649508476257324,-0.5987430810928345,-0.0,-0.0,-1.0,0.05732241440890519,1.0
14.71297836303711,8.847799301147461,-0.6586465835571289,-0.0,-0.0,-1.0,0.036394816093329126,1.0
14.440546035766602,8.74602222442627,-0.6463978290557861,-0.0,-0.0,-1.0,0.02476559879046686,1.0
14.100728988647461,8.668021202087402,-0.6251357793807983,-0.0,-0.0,-1.0,0.02188439537404044,1.0
15.633551597595215,9.244688987731934,-0.7000746726989746,-0.0,-0.0,-1.0,0.04789992793315541,1.0
15.260324478149414,8.995221138000488,-0.7003523111343384,-0.0,-0.0,-1.0,0.028259326393242485,2.0
14.907247543334961,8.906940460205078,-0.671288251876831,-0.0,-0.0,-1.0,0.027639410901743412,2.0
14.119912147521973,7.654003143310547,-0.49178123474121094,-0.1351552112243596,-0.045088045972930896,-0.9897980283821753,0.058518142783361815,3.0
15.25243091583252,7.776315689086914,-0.605475664138794,0.8799785809932151,0.2907087316961079,-0.37566757952850816,0.05218147110028621,6.0
15.514603614807129,7.757744789123535,-0.6436185836791992,-0.0,-0.0,-1.0,0.014885312619552232,1.0
15.149789810180664,7.811988830566406,-0.5856192111968994,0.08609373119633631,0.3290899552482374,-0.9403657112014489,0.04099529560274829,3.0
13.72712516784668,8.756169319152832,-0.6483397483825684,-0.0,-0.0,-1.0,0.048311783943734796,1.0
14.300016403198242,8.835931777954102,-0.6904714107513428,-0.0,-0.0,-1.0,0.019123414727252284,1.0
14.044039726257324,8.785504341125488,-0.6742632389068604,-0.0,-0.0,-1.0,0.011031487152469825,1.0
14.369629859924316,8.875329971313477,-0.6891804933547974,-0.0,-0.0,-1.0,0.016540701813725685,1.0
14.395048141479492,8.961113929748535,-0.67205810546875,-0.0,-0.0,-1.0,0.011708724117859545,1.0
14.805292129516602,9.019349098205566,-0.7071852684020996,-0.0,-0.0,-1.0,0.019916161827988787,1.0
14.557389259338379,9.00244140625,-0.6805863380432129,-0.0,-0.0,-1.0,0.03395758677586556,1.0
14.313899993896484,8.088576316833496,-0.537821888923645,-0.0,-0.0,-1.0,0.10214475596201517,2.0
14.054349899291992,7.741985321044922,-0.5783474445343018,-0.0,-0.0,-1.0,0.07533736474637803,1.0
15.42994213104248,9.237752914428711,-0.7404079437255859,-0.0,-0.0,-1.0,0.03214484255123716,2.0
15.100201606750488,9.093301773071289,-0.728307843208313,-0.0,-0.0,-1.0,0.0310222417486079,2.0
14.591506004333496,7.896113395690918,-0.6059114933013916,-0.0,-0.0,-1.0,0.04027002248525582,2.0
15.618202209472656,9.342409133911133,-0.7433972358703613,-0.0,-0.0,-1.0,0.050028250392039314,1.0
15.322364807128906,8.188328742980957,-0.6373631954193115,-0.0,-0.0,-1.0,0.025070365663987498,2.0
15.099393844604492,8.113146781921387,-0.6239964962005615,-0.46235211397593445,0.8844498188484123,0.0630796372928252,0.024543812320847735,3.0
14.79563045501709,7.915890693664551,-0.6256870031356812,-0.0,-0.0,-1.0,0.02587154675526531,1.0
15.590065002441406,8.18876838684082,-0.6724321842193604,-0.0,-0.0,-1.0,0.04759270440382659,1.0
14.014237403869629,9.175485610961914,-0.6491442918777466,-0.0,-0.0,-1.0,0.006520152502699103,2.0
13.789472579956055,9.128246307373047,-0.6496423482894897,0.4122908151812015,-0.2744559631016825,-0.8687290763150207,0.0060316040894129765,3.0
14.558917045593262,9.382329940795898,-0.6308068037033081,-0.745214814153584,-0.6427580856496011,0.177530065335705,0.0640759285540627,3.0
14.337757110595703,9.20035457611084,-0.6626460552215576,-0.0,-0.0,-1.0,0.006783554111283606,1.0
14.3198881149292,8.540061950683594,-0.5448803901672363,-0.0,-0.0,-1.0,0.12832052250595272,2.0
14.16598129272461,8.355878829956055,-0.5774290561676025,0.029229107874457,-0.8713993377601698,-0.4897028215193386,0.057700471705759676,3.0
13.926275253295898,8.226935386657715,-0.5932320356369019,-0.0,-0.0,-1.0,0.044771044342818554,2.0
14.866393089294434,9.298662185668945,-0.6784770488739014,-0.0,-0.0,-1.0,0.019254977322765862,2.0
14.579324722290039,8.38856029510498,-0.5969009399414062,0.29342453437445815,-0.9373392150124202,0.18787559348417857,0.10268779228535445,5.0
14.329385757446289,7.752104759216309,-0.4095470905303955,-0.9819096244969266,0.14579688154461487,-0.12081704619866392,0.07348035816475029,6.0
14.168355941772461,7.686419486999512,-0.412624716758728,-0.0,-0.0,-1.0,0.107366285397316,1.0
15.298723220825195,9.28099250793457,-0.7249925136566162,-0.1528097350289173,-0.8825432654525295,-0.4447095338361637,0.029463884286658224,4.0
15.076820373535156,8.347298622131348,-0.6450413465499878,-0.0,-0.0,-1.0,0.008642009006383868,2.0
14.852967262268066,8.321093559265137,-0.6325424909591675,0.797577240922305,0.5046125997318014,-0.33050971083264197,0.024285744486525165,4.0
15.543411254882812,9.335372924804688,-0.7372740507125854,-0.0,-0.0,-1.0,0.03437429493313478,1.0
15.586397171020508,8.591575622558594,-0.6377565860748291,-0.33871279111882213,-0.20511335890691892,-0.9182603961461142,0.041117669672109024,3.0
15.347942352294922,8.432910919189453,-0.6500177383422852,-0.0,-0.0,-1.0,0.009348088560781063,1.0
14.246603012084961,8.72851276397705,-0.6642483472824097,-0.0,-0.0,-1.0,0.02518296586670424,1.0
14.028820037841797,8.711172103881836,-0.6556857824325562,-0.0,-0.0,-1.0,0.02137464892611168,1.0
13.771783828735352,7.844113826751709,-0.6109499931335449,-0.0,-0.0,-1.0,0.04130601861915622,1.0
14.480690956115723,8.697711944580078,-0.690083384513855,-0.0,-0.0,-1.0,0.03288599588959468,2.0
14.369470596313477,8.263469696044922,-0.5407145023345947,0.5970779001884375,-0.5767226161245923,0.5575742149319424,0.06607903856238233,5.0
14.273601531982422,8.139162063598633,-0.5654428005218506,-0.0,-0.0,-1.0,0.09472205152051755,2.0
14.028306007385254,7.922534465789795,-0.6042015552520752,-0.0,-0.0,-1.0,0.038555382105375326,1.0
15.116352081298828,8.869071960449219,-0.6989232301712036,-0.0,-0.0,-1.0,0.034754792056962844,1.0
14.872251510620117,8.800110816955566,-0.6945184469223022,-0.0,-0.0,-1.0,0.02343756214348943,1.0
14.739645004272461,8.142036437988281,-0.597233772277832,0.03857161484663122,-0.2771561841516606,-0.9600503529058326,0.028230764367926514,3.0
14.64037799835205,8.131975173950195,-0.592140793800354,0.7324322877039224,0.47174636395896663,0.49091578913322076,0.021907127232656264,3.0
15.381606101989746,8.898836135864258,-0.7197312116622925,-0.885521887401432,0.4150468708021622,0.20877519481571372,0.026049462449438822,4.0
15.122701644897461,8.125982284545898,-0.633126974105835,-0.46235211397593445,0.8844498188484123,0.0630796372928252,0.02337305392073797,3.0
15.70626449584961,8.258438110351562,-0.6585615873336792,-0.0,-0.0,-1.0,0.03502382201827473,1.0
15.473777770996094,8.188915252685547,-0.6510566473007202,-0.0,-0.0,-1.0,0.034348728095172386,1.0
14.393579483032227,7.66888952255249,-0.40753889083862305,-0.9525638386326585,0.000319824338684429,-0.30433867818896587,0.11967452592609283,4.0
14.330034255981445,8.129291534423828,-0.504810094833374,0.43959207764383906,-0.3872444250996111,-0.810432329378613,0.09719613372597159,3.0
14.113259315490723,7.841909408569336,-0.5392855405807495,-0.0,-0.0,-1.0,0.055747870056377755,1.0
14.59912395477295,8.155976295471191,-0.5498638153076172,-0.0,-0.0,-1.0,0.022383005278707582,2.0
14.401124000549316,7.682133674621582,-0.3705301284790039,0.46472907392130564,0.8697955384245056,-0.16577879595735523,0.10906663084826153,4.0
14.993643760681152,8.188346862792969,-0.6229366064071655,0.9993989980203023,-0.0156602281099579,-0.0309257176401758,0.02289450603417707,3.0
15.514734268188477,8.503132820129395,-0.6624906063079834,-0.0,-0.0,-1.0,0.028214789552019424,1.0
15.295328140258789,8.292390823364258,-0.6633161306381226,-0.0,-0.0,-1.0,0.010841842806722792,1.0
15.246932983398438,7.747604846954346,-0.6108933687210083,0.801574764662461,0.15360896488476405,-0.5778253910684022,0.05218147110028624,5.0
13.937721252441406,8.359197616577148,-0.5985603332519531,0.5131217394649993,-0.8521335421331246,0.10283242124966034,0.05217907022414087,3.0
13.968279838562012,8.73472785949707,-0.5994870662689209,-0.0,-0.0,-1.0,0.03900612965734751,1.0
13.975784301757812,8.548628807067871,-0.5943045616149902,-0.0,-0.0,-1.0,0.05101750212706247,2.0
14.45380973815918,8.09321403503418,-0.4959874153137207,0.6788083087945754,0.34448492348329607,0.6484978160365351,0.06502973137107892,4.0
14.518122673034668,7.755401611328125,-0.4810999631881714,-0.0,-0.0,-1.0,0.07770875692980189,2.0
15.22665786743164,8.44287109375,-0.6570752859115601,-0.5521993749017673,-0.29170249258659153,-0.7810156888160873,0.010009716641262396,3.0
15.259267807006836,8.219021797180176,-0.6440931558609009,-0.0,-0.0,-1.0,0.014862647332395331,1.0
15.410179138183594,7.8217668533325195,-0.6026599407196045,-0.0,-0.0,-1.0,0.02548183124998817,1.0
14.62215805053711,7.928589820861816,-0.5894291400909424,-0.0,-0.0,-1.0,0.03226347692415309,2.0
14.5821533203125,7.643930435180664,-0.5845304727554321,-0.0,-0.0,-1.0,0.07841800871494788,2.0
14.59559154510498,9.589278221130371,-0.6989027261734009,-0.0,-0.0,-1.0,0.04140583551925982,1.0
14.654376983642578,9.172467231750488,-0.6571495532989502,-0.0,-0.0,-1.0,0.03425360517898825,1.0
14.569839477539062,8.842935562133789,-0.6506209373474121,-0.0,-0.0,-1.0,0.03718150760889925,1.0
14.616207122802734,8.399942398071289,-0.6149957180023193,-0.34592237553727195,-0.2950292201838649,-0.8906713587740156,0.07404445257718091,3.0
14.689799308776855,8.138856887817383,-0.5869362354278564,-0.5287199123890826,0.6577909816600229,-0.5364385134291013,0.028469258443653545,5.0
14.721635818481445,9.357420921325684,-0.6583268642425537,-0.0,-0.0,-1.0,0.017804888484638258,2.0
14.41191291809082,8.649768829345703,-0.6338214874267578,-0.0,-0.0,-1.0,0.0549079263527662,2.0
14.475675582885742,8.334126472473145,-0.5983407497406006,0.7820762677882178,-0.19398076691502505,-0.5922230774205869,0.05078068189158306,5.0
14.509757041931152,7.644754409790039,-0.5453921556472778,-0.0,-0.0,-1.0,0.07733023925343563,1.0
14.627403259277344,9.443726539611816,-0.6698082685470581,-0.0,-0.0,-1.0,0.043745054212027526,2.0
14.55952262878418,9.04558277130127,-0.6434851884841919,-0.0,-0.0,-1.0,0.03042124334111591,1.0
14.480513572692871,8.671211242675781,-0.6242984533309937,-0.0,-0.0,-1.0,0.044881624538483204,2.0
14.571996688842773,8.206981658935547,-0.5726441144943237,-0.0,-0.0,-1.0,0.01935290772553591,2.0
14.563704490661621,7.854133605957031,-0.5494598150253296,-0.0,-0.0,-1.0,0.06132834014817062,1.0
13.983187675476074,8.788925170898438,-0.6406642198562622,-0.0,-0.0,-1.0,0.02549755809974078,1.0
13.842554092407227,8.476724624633789,-0.6212950944900513,0.4342106204965468,-0.12278734426617714,-0.8924037231746981,0.07150646915416148,3.0
14.253439903259277,9.612112998962402,-0.7148174047470093,-0.0,-0.0,-1.0,0.007393611589023883,2.0
14.183379173278809,9.182208061218262,-0.6653276681900024,-0.0,-0.0,-1.0,0.004912111705229524,1.0
14.301953315734863,8.12939739227295,-0.520092248916626,0.42519147874197716,0.46237905613402286,-0.7780859945107741,0.10184955825105121,3.0
15.58853816986084,7.692079544067383,-0.6326349973678589,-0.0,-0.0,-1.0,0.0142433385316329,1.0
14.38913345336914,7.930501937866211,-0.48589491844177246,-0.0,-0.0,-1.0,0.11320787944911263,2.0
14.730167388916016,7.945206642150879,-0.6328997611999512,-0.0,-0.0,-1.0,0.02633777653695905,1.0
14.615397453308105,7.7370381355285645,-0.6224524974822998,-0.0,-0.0,-1.0,0.043188821722643586,1.0
15.051963806152344,8.856850624084473,-0.7150782346725464,-0.0,-0.0,-1.0,0.03153355135007626,1.0
14.914637565612793,8.529105186462402,-0.6862404346466064,-0.0,-0.0,-1.0,0.015984674773117602,1.0
14.819538116455078,8.124241828918457,-0.6442887783050537,-0.0,-0.0,-1.0,0.0233728073591276,2.0
15.214818954467773,9.2661714553833,-0.7558712959289551,-0.0,-0.0,-1.0,0.01887199089895956,1.0
15.101387977600098,8.99687671661377,-0.7293965816497803,-0.0,-0.0,-1.0,0.027930339851420925,1.0
15.367880821228027,8.019390106201172,-0.6257264614105225,-0.0,-0.0,-1.0,0.03004152583197328,1.0
15.24813175201416,7.755954265594482,-0.6078517436981201,0.9010824321077268,0.4336340777774983,0.003455016191343156,0.05218147110028624,6.0
14.141953468322754,9.347187995910645,-0.6438368558883667,-0.0,-0.0,-1.0,0.007234942781170894,1.0
13.972269058227539,9.100611686706543,-0.6221674680709839,0.5446762385630058,0.18399128931310516,-0.8182145199162357,0.009728293365907843,3.0
14.389123916625977,8.406785011291504,-0.5257519483566284,-0.0,-0.0,-1.0,0.10092301139452475,2.0
14.404274940490723,8.0220365524292,-0.481300950050354,0.945736778782151,0.12774162394283922,-0.29877085328258973,0.1288080527717139,5.0
15.102296829223633,7.825257301330566,-0.5853239297866821,0.08609373119633631,0.3290899552482374,-0.9403657112014489,0.0347040151772982,3.0
14.90090560913086,7.7024030685424805,-0.578835129737854,-0.0,-0.0,-1.0,0.014229519184956364,2.0
15.253363609313965,7.847001075744629,-0.5823482275009155,-0.0,-0.0,-1.0,0.04971581123777809,1.0
15.481073379516602,8.0508451461792,-0.6213792562484741,-0.0,-0.0,-1.0,0.02817586670339443,1.0
13.888442993164062,7.720203399658203,-0.4078834056854248,-0.0,-0.0,-1.0,0.060096900998467546,1.0
15.548598289489746,8.063777923583984,-0.6068222522735596,-0.0,-0.0,-1.0,0.024656698890365876,1.0
14.300140380859375,7.651096343994141,-0.41713547706604004,-0.6923377791635212,0.5325833479924057,-0.4868504667596855,0.1404578177224697,3.0
15.413827896118164,9.536405563354492,-0.7460486888885498,-0.0,-0.0,-1.0,0.0244587880445549,1.0
15.23891830444336,8.859918594360352,-0.6756298542022705,-0.6872180743534726,0.5553954261991895,-0.4682597984441176,0.03593764675590714,3.0
15.613823890686035,8.648082733154297,-0.6404154300689697,-0.9673095035147575,-0.21967469679975835,0.12670971547583618,0.055838838252073565,3.0
15.368431091308594,8.868005752563477,-0.6839356422424316,-0.8741040594189196,0.47742626497331814,0.08947767778050773,0.028615787579412282,3.0
15.226096153259277,8.833152770996094,-0.6885585784912109,-0.0,-0.0,-1.0,0.03593764675590718,2.0
15.273240089416504,9.531976699829102,-0.7269587516784668,-0.07013912108392711,0.2710309325083768,-0.9600118422796744,0.02496528442158924,3.0
14.629779815673828,8.042829513549805,-0.5733234882354736,0.04972368043079743,0.1749916195116846,-0.9833135251307661,0.03305757318355771,3.0
15.528300285339355,9.537805557250977,-0.7454979419708252,-0.0,-0.0,-1.0,0.03992439235798845,2.0
15.389535903930664,9.278667449951172,-0.7161405086517334,-0.0,-0.0,-1.0,0.029413471703681866,2.0
15.256897926330566,9.297819137573242,-0.7270095348358154,-0.3227507813108677,-0.8031169307738723,-0.5008344323901659,0.024581318946263073,5.0
14.598487854003906,7.791881561279297,-0.5515401363372803,0.5693517791028112,-0.21530980916941314,-0.7933979062915999,0.05244877347279092,3.0
15.647933959960938,7.772327423095703,-0.6085531711578369,-0.0,-0.0,-1.0,0.011182683368708089,2.0
14.935175895690918,9.297834396362305,-0.694859504699707,-0.17307147865689299,0.2507544621101983,-0.9524539164743572,0.016891043141549947,3.0
15.065997123718262,9.524211883544922,-0.7215511798858643,-0.0,-0.0,-1.0,0.010538141374450135,1.0
14.66256046295166,8.979007720947266,-0.6638903617858887,-0.0,-0.0,-1.0,0.0333044536395276,1.0
14.52133560180664,7.988626480102539,-0.5184962749481201,-0.0,-0.0,-1.0,0.0612050672004857,2.0
15.53456974029541,9.043148040771484,-0.7016270160675049,-0.0,-0.0,-1.0,0.025691609385549794,1.0
15.109946250915527,8.70612907409668,-0.6686339378356934,-0.0,-0.0,-1.0,0.028666750272766002,1.0
15.269940376281738,8.88589096069336,-0.6903524398803711,-0.0,-0.0,-1.0,0.03512229453928106,2.0
14.891019821166992,8.382026672363281,-0.6253783702850342,-0.0,-0.0,-1.0,0.024434254936148713,2.0
15.003555297851562,8.670204162597656,-0.6693203449249268,-0.0,-0.0,-1.0,0.02467290771646991,1.0
14.660720825195312,8.099031448364258,-0.590834379196167,0.08378911342180445,-0.03522278590241378,-0.995860803438543,0.03579404577872025,4.0
15.444000244140625,8.524165153503418,-0.6461758613586426,-0.0,-0.0,-1.0,0.013012405692676076,2.0
15.19724178314209,8.461197853088379,-0.6431221961975098,-0.512508705927116,-0.21607558072941224,-0.8310512437638007,0.00897535854606589,4.0
14.994314193725586,8.171439170837402,-0.5927090644836426,-0.0,-0.0,-1.0,0.020773749330351452,2.0
14.755319595336914,8.036408424377441,-0.5761198997497559,-0.0,-0.0,-1.0,0.031049393179181085,1.0
15.504585266113281,8.82740592956543,-0.7144386768341064,-0.0,-0.0,-1.0,0.04474871590833529,2.0
15.262598991394043,8.748283386230469,-0.7070472240447998,-0.0,-0.0,-1.0,0.022377106321433533,2.0
15.086148262023926,8.650213241577148,-0.6934061050415039,-0.0,-0.0,-1.0,0.026706639168558855,1.0
14.806449890136719,8.199941635131836,-0.607877254486084,-0.0,-0.0,-1.0,0.024632139234861725,1.0
14.854870796203613,8.436296463012695,-0.6573596000671387,-0.1534691402028012,-0.9709986263098109,-0.18332727759357756,0.017804197810387435,4.0
14.623574256896973,8.019880294799805,-0.577721357345581,-0.0,-0.0,-1.0,0.02937818683828066,2.0
14.110947608947754,9.566056251525879,-0.6883914470672607,-0.5511381378475356,0.6602893100053098,-0.510161523541969,0.005771651571630313,3.0
13.745226860046387,9.316094398498535,-0.6565806865692139,-0.0,-0.0,-1.0,0.006288567032566284,2.0
13.883760452270508,9.42712688446045,-0.6719894409179688,-0.0,-0.0,-1.0,0.0052958244421174175,1.0
13.737545013427734,9.616704940795898,-0.6886911392211914,-0.0,-0.0,-1.0,0.005240787748505739,1.0
15.658227920532227,8.792500495910645,-0.7009363174438477,-0.0,-0.0,-1.0,0.05807195827067466,2.0
15.259393692016602,8.73312759399414,-0.6930360794067383,-0.0,-0.0,-1.0,0.01967364112159924,2.0
14.875185012817383,8.612523078918457,-0.6712601184844971,-0.0,-0.0,-1.0,0.01474126867993712,1.0
14.590606689453125,8.228593826293945,-0.5784430503845215,-0.0,-0.0,-1.0,0.014995526134859759,2.0
13.982126235961914,8.403080940246582,-0.6499335765838623,-0.0,-0.0,-1.0,0.0510303195024213,2.0
13.712981224060059,8.331567764282227,-0.6443803310394287,-0.0,-0.0,-1.0,0.040591312527508,1.0
15.551312446594238,9.215702056884766,-0.7454745769500732,-0.0,-0.0,-1.0,0.05200091731259577,1.0
15.42320728302002,9.292989730834961,-0.7230465412139893,-0.10783367563458382,0.10708385352190296,-0.988385019470669,0.029212292789546113,4.0
14.097047805786133,9.570333480834961,-0.6678392887115479,-0.6795589635397498,0.47559555020694666,-0.5585771994058946,0.005783133124648837,3.0
14.240487098693848,9.578790664672852,-0.6863563060760498,-0.0,-0.0,-1.0,0.005944469480000331,2.0
15.684819221496582,8.976491928100586,-0.7077102661132812,-0.0,-0.0,-1.0,0.04793002653758794,2.0
14.880753517150879,8.683334350585938,-0.6529676914215088,-0.0,-0.0,-1.0,0.01316772427646736,1.0
15.1478853225708,8.787452697753906,-0.6694281101226807,-0.0,-0.0,-1.0,0.03268956450019394,2.0
15.382972717285156,8.894393920898438,-0.6826784610748291,-0.8741040594189196,0.47742626497331814,0.08947767778050773,0.026049462449438825,3.0
14.050565719604492,8.333887100219727,-0.6115322113037109,-0.178354505115244,-0.3138239683063137,-0.932579319640734,0.06177082969607305,3.0
14.25955581665039,8.50405502319336,-0.6102228164672852,-0.0,-0.0,-1.0,0.07715391637735498,1.0
14.60529613494873,8.630218505859375,-0.6300489902496338,0.39240918450971474,0.34267405839968856,-0.853574555391799,0.023332518191728206,4.0
13.75544261932373,8.607610702514648,-0.5453801155090332,-0.0,-0.0,-1.0,0.0591226123068771,1.0
15.582996368408203,9.538599014282227,-0.7495503425598145,-0.0,-0.0,-1.0,0.04330760587287691,1.0
13.980369567871094,9.064218521118164,-0.6249587535858154,-0.0,-0.0,-1.0,0.014478227844516337,2.0
14.274749755859375,9.15388298034668,-0.6451146602630615,-0.0,-0.0,-1.0,0.0063863421863177795,2.0
14.530210494995117,9.413240432739258,-0.6393945217132568,0.4412628464649042,0.16472235536097174,-0.8821301751861932,0.05816866752774164,3.0
14.081466674804688,9.14847183227539,-0.6244921684265137,-0.0,-0.0,-1.0,0.004586963231295059,1.0
14.722417831420898,8.508878707885742,-0.6435918807983398,-0.0,-0.0,-1.0,0.018964145072447317,1.0
15.05569839477539,8.558324813842773,-0.6707017421722412,-0.0,-0.0,-1.0,0.016016727868720285,1.0
15.431356430053711,8.72439193725586,-0.6882970333099365,-0.0,-0.0,-1.0,0.01616918414686065,1.0
13.992757797241211,8.222721099853516,-0.6130053997039795,-0.0,-0.0,-1.0,0.05993218793930492,1.0
14.188706398010254,8.375110626220703,-0.6102945804595947,0.305667765967255,-0.7725053449394468,-0.5565992354365695,0.05937895132421098,4.0
14.483623504638672,8.539106369018555,-0.6161439418792725,-0.0,-0.0,-1.0,0.06757508508478778,2.0
14.106861114501953,8.366165161132812,-0.6118087768554688,0.7520402217738599,-0.5825623552778589,-0.30831251522998127,0.0710192097804407,3.0
14.427755355834961,8.561023712158203,-0.6100046634674072,-0.0,-0.0,-1.0,0.1026429112656165,2.0
14.818984985351562,8.575651168823242,-0.6412997245788574,-0.0,-0.0,-1.0,0.018064649088011694,1.0
15.220706939697266,8.676513671875,-0.6631591320037842,-0.0,-0.0,-1.0,0.017728047161706062,1.0
15.605931282043457,8.823654174804688,-0.6790554523468018,-0.0,-0.0,-1.0,0.0512013010006353,1.0
13.787546157836914,8.256208419799805,-0.5481348037719727,-0.0,-0.0,-1.0,0.05274659454517572,1.0
14.093954086303711,8.194540023803711,-0.5806252956390381,0.9099367140597086,0.004537176789701506,0.4147223052031315,0.04931973304005242,3.0
14.480369567871094,8.343429565429688,-0.5903832912445068,0.7820762677882178,-0.19398076691502505,-0.5922230774205869,0.05766995254280433,5.0
14.865013122558594,8.299217224121094,-0.6293041706085205,0.797577240922305,0.5046125997318014,-0.33050971083264197,0.028879117315345242,4.0
15.218544006347656,8.421846389770508,-0.6434860229492188,-0.5521993749017673,-0.29170249258659153,-0.7810156888160873,0.010851382782168854,3.0
15.620290756225586,8.611377716064453,-0.654681921005249,-0.6284070909151732,-0.02230935568207467,-0.7775646730250674,0.040787264775898405,5.0
13.883057594299316,7.673343658447266,-0.5178003311157227,-0.0,-0.0,-1.0,0.05159479267784934,1.0
14.696014404296875,7.651763916015625,-0.5758662223815918,-0.0,-0.0,-1.0,0.05603902073663762,1.0
14.122671127319336,7.994619369506836,-0.48596692085266113,-0.0,-0.0,-1.0,0.048644797937435216,1.0
14.396888732910156,7.994068145751953,-0.5046954154968262,-0.6087680252535961,0.5974138915482734,-0.5220135377688828,0.09751354707287628,3.0
14.898845672607422,7.817159652709961,-0.5666794776916504,-0.0,-0.0,-1.0,0.011396996139312675,2.0
15.233339309692383,7.893640518188477,-0.5813207626342773,0.2781755719283295,0.7020327554772747,-0.6555672058754402,0.05167584121648702,4.0
15.644179344177246,7.962926864624023,-0.6045103073120117,-0.0,-0.0,-1.0,0.013520015387272119,2.0
13.819890022277832,8.203210830688477,-0.5236945152282715,-0.0,-0.0,-1.0,0.0392083960163595,1.0
14.209724426269531,8.059000015258789,-0.5718090534210205,-0.0,-0.0,-1.0,0.06641068503510199,1.0
13.81778621673584,8.57652473449707,-0.4659390449523926,-0.0,-0.0,-1.0,0.06469887024180065,2.0
13.983711242675781,8.403886795043945,-0.5034627914428711,-0.0,-0.0,-1.0,0.0507380758265697,1.0
14.520118713378906,8.252574920654297,-0.5636816024780273,-0.0,-0.0,-1.0,0.03065256541524753,1.0
14.856947898864746,8.271312713623047,-0.5854153633117676,0.8662767736280653,-0.4343392861179337,0.24680748774523345,0.02939243688223331,4.0
15.152582168579102,8.197519302368164,-0.6190862655639648,-0.0,-0.0,-1.0,0.01444916220759714,1.0
15.36125373840332,8.201375961303711,-0.6348128318786621,0.08243849813714031,-0.051169143903594054,-0.995281675073477,0.022374530172122306,3.0
15.578291893005371,8.29640007019043,-0.6379733085632324,-0.0,-0.0,-1.0,0.041602072389524215,1.0
14.149759292602539,7.854927062988281,-0.4805331230163574,-0.0,-0.0,-1.0,0.05823742311022733,2.0
14.314908981323242,8.058435440063477,-0.4593007564544678,-0.0,-0.0,-1.0,0.19623276337737922,2.0
14.501662254333496,7.924781799316406,-0.4917924404144287,-0.0,-0.0,-1.0,0.08827897673444082,1.0
15.054686546325684,7.655752182006836,-0.5702047348022461,-0.0,-0.0,-1.0,0.015942277621949302,2.0
15.236106872558594,7.777477264404297,-0.5643572807312012,-0.22980007067360866,0.9143936978916001,-0.33328080168910046,0.051986226015040105,4.0
15.576807975769043,7.790435791015625,-0.587421178817749,0.8315051638489008,-0.35041187707238397,-0.43105762828097716,0.014554050728159264,3.0
14.220747947692871,7.707103729248047,-0.3801298141479492,0.8097323482315929,0.4155533644264461,-0.414305353020223,0.11720597168075149,3.0
14.107385635375977,7.673521041870117,-0.42307233810424805,-0.0,-0.0,-1.0,0.06293089127188645,2.0
14.30757999420166,7.824651718139648,-0.40892815589904785,-0.0,-0.0,-1.0,0.10412099397607347,2.0
13.886299133300781,8.214519500732422,-0.5853786468505859,0.04506576726648206,-0.6336207665108574,-0.7723301113299136,0.03766621722644488,3.0
14.19951343536377,8.35737419128418,-0.5780885219573975,0.305667765967255,-0.7725053449394468,-0.5565992354365695,0.05445225890345904,4.0
14.563255310058594,8.393081665039062,-0.595980167388916,0.24235849236063456,-0.9371553721831302,0.25100232980787046,0.045784174171506764,4.0
14.765909194946289,8.365442276000977,-0.6156702041625977,-0.0,-0.0,-1.0,0.026607217898292606,1.0
15.028118133544922,8.345769882202148,-0.6390914916992188,-0.0,-0.0,-1.0,0.014202611433490749,2.0
15.406676292419434,8.500717163085938,-0.6402192115783691,-0.0,-0.0,-1.0,0.00924906893991544,2.0
13.732232093811035,8.223799705505371,-0.5619909763336182,-0.0,-0.0,-1.0,0.0313869836255929,1.0
14.086584091186523,8.29887580871582,-0.5760259628295898,0.8736605537510261,-0.14953575192063773,-0.46298628026862787,0.07995543215171061,4.0
14.48309326171875,8.444148063659668,-0.5817835330963135,0.24843534943773263,-0.8378558344014789,0.48608381778161763,0.0549389270729872,5.0
14.87087345123291,8.429364204406738,-0.6213326454162598,-0.1534691402028012,-0.9709986263098109,-0.18332727759357756,0.017804197810387452,4.0
15.254400253295898,8.546932220458984,-0.636279821395874,-0.0,-0.0,-1.0,0.011785604785680703,2.0
15.625929832458496,8.701189994812012,-0.6449899673461914,-0.0,-0.0,-1.0,0.054642733532630834,1.0
13.974430084228516,8.379693031311035,-0.6118953227996826,0.821352118491903,-0.49590456731641663,0.2818853624500221,0.05156274861502912,4.0
14.358757019042969,8.49133586883545,-0.6229989528656006,-0.0,-0.0,-1.0,0.1310420328747737,1.0
14.761619567871094,8.575356483459473,-0.6451609134674072,-0.0,-0.0,-1.0,0.017523490746374153,2.0
15.15854263305664,8.694454193115234,-0.6621091365814209,-0.0,-0.0,-1.0,0.026130028465929052,1.0
15.530535697937012,8.813009262084961,-0.6794600486755371,-0.0,-0.0,-1.0,0.04638685780332494,2.0
13.726377487182617,7.969021797180176,-0.5913684368133545,-0.0,-0.0,-1.0,0.03546426730447759,2.0
14.093734741210938,8.154061317443848,-0.5797011852264404,0.9099367140597086,0.004537176789701506,0.4147223052031315,0.03783556473243829,3.0
14.483850479125977,8.317676544189453,-0.5781872272491455,0.9113130100940932,-0.0570896877615645,-0.40773688229608335,0.04343226852579339,4.0
14.879733085632324,8.282883644104004,-0.6267204284667969,-0.5237414007928826,-0.6723399500266566,-0.523119428709795,0.031381475220293734,6.0
15.25421142578125,8.381646156311035,-0.6449425220489502,-0.0,-0.0,-1.0,0.009829263684593862,1.0
15.611749649047852,8.572786331176758,-0.6429111957550049,-0.33871279111882213,-0.20511335890691892,-0.9182603961461142,0.0530168390893378,3.0
13.899125099182129,7.887992858886719,-0.5913283824920654,-0.0,-0.0,-1.0,0.039114195976625535,1.0
14.261139869689941,8.150971412658691,-0.5536055564880371,-0.0,-0.0,-1.0,0.07940335105919866,2.0
14.536961555480957,8.155892372131348,-0.5762672424316406,0.7789331919364669,-0.2830951917240615,-0.5595714386227948,0.025463548864136674,3.0
14.711297988891602,8.137286186218262,-0.597001314163208,-0.17327163035720733,-0.26743318398324967,-0.9478694183366908,0.027168201228252618,4.0
15.092933654785156,8.110990524291992,-0.6411142349243164,-0.46235211397593445,0.8844498188484123,0.0630796372928252,0.02511099847095261,3.0
15.470409393310547,8.243914604187012,-0.6478073596954346,-0.0,-0.0,-1.0,0.038345505498438355,2.0
14.975860595703125,8.744146347045898,-0.6222043037414551,-0.0,-0.0,-1.0,0.021612766435072348,2.0
14.844444274902344,9.032539367675781,-0.6271958351135254,-0.5826173600976736,0.4555107808036623,-0.6731024738362321,0.02084023519701065,4.0
14.648527145385742,9.294820785522461,-0.6076068878173828,-0.0,-0.0,-1.0,0.06286125464194167,1.0
15.129373550415039,8.265168190002441,-0.5950946807861328,-0.0,-0.0,-1.0,0.010177899444986541,1.0
15.064018249511719,8.528400421142578,-0.6158561706542969,-0.0,-0.0,-1.0,0.011584692491761295,1.0
15.277242660522461,7.783131122589111,-0.5686850547790527,-0.14446066874980953,0.9858356856870811,-0.08520044606831872,0.054035222251249265,3.0
15.146749496459961,7.992927074432373,-0.5577540397644043,-0.0,-0.0,-1.0,0.03588258343989235,2.0
14.295530319213867,9.45533561706543,-0.6785616874694824,-0.0,-0.0,-1.0,0.008565958578302361,1.0
14.348833084106445,8.847857475280762,-0.6336913108825684,-0.0,-0.0,-1.0,0.019154752359388287,2.0
14.274307250976562,9.182255744934082,-0.6421055793762207,-0.0,-0.0,-1.0,0.004419105682126314,2.0
14.354841232299805,8.385544776916504,-0.5901055335998535,-0.0,-0.0,-1.0,0.10253646583601031,2.0
14.409034729003906,8.627989768981934,-0.632697582244873,-0.0,-0.0,-1.0,0.0611580917625289,2.0
14.207504272460938,7.804505825042725,-0.484128475189209,-0.0,-0.0,-1.0,0.0832152284401555,2.0
14.209821701049805,8.0269136428833,-0.5053095817565918,-0.0,-0.0,-1.0,0.055993705982191895,1.0
15.184247970581055,7.66921329498291,-0.6262626647949219,-0.0,-0.0,-1.0,0.01910606776092812,1.0
15.235410690307617,7.9302167892456055,-0.6549177169799805,-0.0,-0.0,-1.0,0.050195967507319125,1.0
14.601482391357422,8.486956596374512,-0.4478940963745117,-0.0,-0.0,-1.0,0.09199538752399102,1.0
14.707292556762695,8.806853294372559,-0.5017309188842773,-0.0,-0.0,-1.0,0.029922989390776724,1.0
14.63751220703125,9.209665298461914,-0.49384593963623047,-0.0,-0.0,-1.0,0.05001700765662664,1.0
14.408832550048828,8.065094947814941,-0.3586568832397461,-0.0,-0.0,-1.0,0.1292796990046325,1.0
14.41758918762207,8.348994255065918,-0.37246274948120117,-0.0,-0.0,-1.0,0.12690563861704685,1.0
14.327129364013672,8.246459007263184,-0.3341693878173828,-0.0,-0.0,-1.0,0.21143698195854627,1.0
14.052486419677734,7.8665289878845215,-0.4891653060913086,-0.0,-0.0,-1.0,0.04855326667333949,1.0
14.114416122436523,8.144184112548828,-0.5049362182617188,-0.0,-0.0,-1.0,0.04240661310112074,1.0
14.274829864501953,8.517239570617676,-0.5583348274230957,-0.0,-0.0,-1.0,0.11631319598371012,1.0
14.431953430175781,8.892864227294922,-0.6122064590454102,-0.0,-0.0,-1.0,0.01479529740970053,1.0
14.47719955444336,9.2814359664917,-0.6229276657104492,-0.0,-0.0,-1.0,0.04427048208814265,1.0
13.947240829467773,7.674166679382324,-0.45413780212402344,-0.0,-0.0,-1.0,0.06258028949299708,1.0
13.719552993774414,8.332671165466309,-0.5754027366638184,-0.0,-0.0,-1.0,0.04059131252750797,1.0
13.862947463989258,8.878737449645996,-0.6008286476135254,-0.0,-0.0,-1.0,0.026495679405307476,1.0
13.943777084350586,9.152891159057617,-0.6192378997802734,-0.0,-0.0,-1.0,0.006158771924964294,2.0
14.061710357666016,9.542442321777344,-0.6485958099365234,-0.4023166500866823,-0.11676440942928479,-0.9080238905192198,0.005703602765461592,3.0
15.55839729309082,7.750723361968994,-0.5906524658203125,-0.0,-0.0,-1.0,0.01424333853163293,2.0
15.67744255065918,8.190695762634277,-0.6081490516662598,-0.0,-0.0,-1.0,0.04055876065814219,1.0
15.544586181640625,7.8441596031188965,-0.5790572166442871,-0.0,-0.0,-1.0,0.015384425473958907,2.0
15.622404098510742,8.124914169311523,-0.5909361839294434,0.975088277055735,-0.2105982425500065,-0.06965078738483337,0.040179995678787356,3.0
15.372594833374023,9.195171356201172,-0.7031393051147461,-0.0,-0.0,-1.0,0.022908512018474284,1.0
15.532510757446289,9.553476333618164,-0.7365760803222656,-0.0,-0.0,-1.0,0.039924392357988434,2.0
15.430818557739258,9.394271850585938,-0.7088260650634766,-0.0,-0.0,-1.0,0.021243871763852968,1.0
14.767183303833008,7.946622848510742,-0.5830216407775879,-0.0,-0.0,-1.0,0.02727439376285085,1.0
14.906105041503906,8.25777530670166,-0.6056733131408691,0.7741815822359366,0.5488441396368157,-0.31529825263230615,0.030515005400102938,3.0
15.099664688110352,8.625985145568848,-0.646510124206543,-0.0,-0.0,-1.0,0.022048755073614125,1.0
15.251289367675781,8.972329139709473,-0.6743974685668945,-0.0,-0.0,-1.0,0.02806273083639629,2.0
14.217567443847656,7.708065032958984,-0.38538169860839844,-0.0,-0.0,-1.0,0.11418884369750976,2.0
15.624231338500977,9.436529159545898,-0.7015628814697266,-0.6931162346690007,-0.7120646457142165,-0.11204385553056394,0.039753521681672545,3.0
15.009949684143066,7.838890552520752,-0.5679011344909668,-0.0,-0.0,-1.0,0.011230015254933253,1.0
15.267327308654785,7.723903179168701,-0.6035342216491699,0.5445136440340425,0.21697158392888027,-0.8102025815980601,0.03273519778257958,3.0
14.236689567565918,8.354780197143555,-0.5057330131530762,-0.0,-0.0,-1.0,0.06789061000988275,2.0
14.405343055725098,8.184364318847656,-0.504551887512207,0.6255465444982102,0.7667770985538079,-0.14402916996133885,0.0718915194865975,4.0
14.967024803161621,8.007198333740234,-0.5982756614685059,-0.0,-0.0,-1.0,0.0174115509520168,1.0
14.32138729095459,8.62636947631836,-0.5935702323913574,-0.0,-0.0,-1.0,0.056484450931600434,1.0
13.719449043273926,9.434860229492188,-0.6529097557067871,-0.0,-0.0,-1.0,0.006107712838666511,1.0
14.019001960754395,9.107950210571289,-0.6414732933044434,-0.0,-0.0,-1.0,0.0064444563203481285,2.0
14.236968040466309,8.920412063598633,-0.6465463638305664,-0.0,-0.0,-1.0,0.009802136830590547,1.0
14.264510154724121,7.877464771270752,-0.39485931396484375,-0.0,-0.0,-1.0,0.07506976977655394,1.0
14.335930824279785,7.885528087615967,-0.41429758071899414,0.7379838907023177,0.14398903197060436,-0.6592775862533458,0.08649523480619338,4.0
14.268298149108887,8.228408813476562,-0.48215150833129883,-0.0,-0.0,-1.0,0.17120271189185562,2.0
15.661599159240723,8.475983619689941,-0.6253395080566406,0.15113323262868267,-0.560918574657354,-0.8139589047363305,0.057141732198195155,4.0
15.054911613464355,8.943232536315918,-0.6473121643066406,-0.0,-0.0,-1.0,0.026528949718529992,1.0
15.291693687438965,8.784350395202637,-0.645512580871582,-0.0,-0.0,-1.0,0.029695613580944726,2.0
