x,y,z,nx,ny,nz,curvature,density
36.025753021240234,-4.706477165222168,-0.41277527809143066,-0.0,-0.0,-1.0,0.09018864814829235,1.0
35.750328063964844,-6.854485511779785,-0.5416450500488281,-0.0,-0.0,-1.0,0.026649288726866626,1.0
35.39170837402344,-4.844771385192871,-0.42200303077697754,-0.0,-0.0,-1.0,0.29174722669373654,2.0
35.59886932373047,-5.029353141784668,-0.41884684562683105,-0.0,-0.0,-1.0,0.1493218277526584,1.0
35.46018981933594,-5.4314069747924805,-0.44706082344055176,-0.0,-0.0,-1.0,0.09740099736358052,1.0
35.42723846435547,-5.656970024108887,-0.46033501625061035,-0.0,-0.0,-1.0,0.14472414762504823,1.0
35.45348358154297,-5.88004207611084,-0.47013044357299805,-0.0,-0.0,-1.0,0.17231126328078888,1.0
35.585758209228516,-5.917021751403809,-0.46443653106689453,-0.0,-0.0,-1.0,0.08379541435552998,1.0
35.42700958251953,-5.461524963378906,-0.50740647315979,-0.0,-0.0,-1.0,0.12974796762159532,1.0
35.45636749267578,-5.618709564208984,-0.515892505645752,-0.0,-0.0,-1.0,0.06835106641464446,2.0
35.48591613769531,-5.932844161987305,-0.5344678163528442,-0.0,-0.0,-1.0,0.16602473162800568,2.0
35.37012481689453,-6.2834930419921875,-0.5626263618469238,-0.0,-0.0,-1.0,0.022378591969236018,2.0
35.64302444458008,-6.482461929321289,-0.5623552799224854,-0.0,-0.0,-1.0,0.018077236071180256,1.0
36.005638122558594,-6.692237854003906,-0.5590131282806396,-0.0,-0.0,-1.0,0.042504066026889095,1.0
36.406898498535156,-6.85722541809082,-0.5515470504760742,-0.0,-0.0,-1.0,0.0500269597620241,2.0
35.369876861572266,-4.81005859375,-0.46959495544433594,-0.723066272724102,-0.3300878946882187,-0.6068089872679656,0.15062255345281467,3.0
35.899559020996094,-4.809415817260742,-0.4425731897354126,-0.5151691458874968,-0.8488644452828596,-0.11844789850465873,0.21992881350039273,3.0
35.514373779296875,-5.0022125244140625,-0.4741401672363281,-0.0,-0.0,-1.0,0.1325051046755473,1.0
35.35170364379883,-4.365413665771484,-0.6225820779800415,-0.0,-0.0,-1.0,0.03916986091121894,1.0
36.08599090576172,-4.510875701904297,-0.5934253931045532,-0.8475135797772658,-0.1674289989906483,-0.5036747585397878,0.06137811577896056,5.0
35.7452278137207,-4.493650436401367,-0.6104110479354858,-0.0,-0.0,-1.0,0.047900347708956015,2.0
36.15773010253906,-4.709571838378906,-0.6043171882629395,0.38035534924720416,-0.08989985255254308,-0.9204606590235501,0.06935063813352038,6.0
36.3808479309082,-5.08592414855957,-0.620826244354248,-0.0,-0.0,-1.0,0.06512211894612426,1.0
37.409637451171875,-4.886199951171875,-0.5539495944976807,-0.0,-0.0,-1.0,0.19177805419019958,2.0
37.255950927734375,-5.000507354736328,-0.5703157186508179,0.17220773566307998,-0.4081753225832563,-0.8965140276715414,0.08232516485008289,3.0
36.54852294921875,-5.297266006469727,-0.6282334327697754,-0.0,-0.0,-1.0,0.012736746803579358,2.0
37.496185302734375,-5.362581253051758,-0.58660888671875,-0.0,-0.0,-1.0,0.11211006341198225,1.0
37.15214538574219,-5.453784942626953,-0.6102949380874634,-0.34653332048924307,-0.7653995290547092,-0.5422897921900514,0.07572819903206757,4.0
37.589351654052734,-5.672275543212891,-0.6063967943191528,-0.7838034187353621,0.6199609869771462,-0.03606349130465899,0.14341122751261823,3.0
37.696128845214844,-5.836658477783203,-0.6143090724945068,-0.0,-0.0,-1.0,0.104848586375122,1.0
37.695281982421875,-6.162805557250977,-0.6401722431182861,-0.0,-0.0,-1.0,0.13151444540744198,2.0
35.50553894042969,-6.53312873840332,-0.5667964220046997,0.041210265672639676,0.9764516125463646,-0.21176393073135782,0.015801192675875816,4.0
35.77641296386719,-6.706214904785156,-0.5609791278839111,-0.0,-0.0,-1.0,0.045774301973000725,2.0
35.27675247192383,-4.826332092285156,-0.4840223789215088,-0.5757950966536384,0.3818727207414001,-0.7229337672450967,0.2599399275526895,4.0
35.84374237060547,-4.75438117980957,-0.4444584846496582,-0.08183001560462225,-0.3653761859616735,-0.9272562166296044,0.23001524817352384,6.0
35.37617492675781,-5.009662628173828,-0.4878939390182495,-0.0,-0.0,-1.0,0.19104007201789697,2.0
36.195716857910156,-5.041547775268555,-0.4391047954559326,-0.0,-0.0,-1.0,0.11516713229317237,1.0
35.34451675415039,-5.619844436645508,-0.5240839719772339,-0.0,-0.0,-1.0,0.11360887606870486,1.0
35.34923553466797,-6.048332214355469,-0.5481792688369751,-0.0,-0.0,-1.0,0.13059603667626096,2.0
35.40061569213867,-6.352434158325195,-0.562575101852417,-0.0,-0.0,-1.0,0.019082258164743557,1.0
35.808799743652344,-6.66630744934082,-0.5567759275436401,-0.0,-0.0,-1.0,0.04975942318252517,1.0
35.424598693847656,-4.7124738693237305,-0.5285326242446899,-0.15808796434401856,-0.8894925812679495,-0.4287320181638467,0.11518683147840883,3.0
35.84758758544922,-5.122556686401367,-0.5236034393310547,-0.0,-0.0,-1.0,0.0642592383240225,1.0
35.63533401489258,-4.971891403198242,-0.529083251953125,-0.8548270200845121,-0.4777283311172732,0.2025991297645137,0.13242975853457786,3.0
36.05463409423828,-5.387821197509766,-0.5255557298660278,-0.0,-0.0,-1.0,0.02704225688559807,1.0
36.85252380371094,-5.63066291809082,-0.48889076709747314,-0.0,-0.0,-1.0,0.02986213534304537,1.0
36.085235595703125,-5.782880783081055,-0.5470516681671143,-0.0,-0.0,-1.0,0.010626027136153843,1.0
36.35729217529297,-6.051601409912109,-0.5458548069000244,-0.0,-0.0,-1.0,0.012252885914630852,1.0
36.09211730957031,-6.147172927856445,-0.568539023399353,-0.0,-0.0,-1.0,0.016847826002880487,1.0
36.2748908996582,-6.576572418212891,-0.5831598043441772,-0.0,-0.0,-1.0,0.05981185551730474,2.0
36.001380920410156,-6.238212585449219,0.18923842906951904,-0.0,-0.0,-1.0,0.1256036147544249,1.0
35.440757751464844,-4.922982215881348,-0.28460049629211426,-0.0,-0.0,-1.0,0.1643985603999748,1.0
35.86777114868164,-5.376738548278809,-0.2873344421386719,-0.0,-0.0,-1.0,0.12136246968937281,1.0
35.577606201171875,-5.15670108795166,-0.29019784927368164,-0.0,-0.0,-1.0,0.16277447571581935,1.0
36.299957275390625,-6.351193428039551,-0.32158219814300537,-0.0,-0.0,-1.0,0.08834222380415452,1.0
35.83438491821289,-6.295659065246582,-0.34116387367248535,-0.0,-0.0,-1.0,0.0918736847209669,1.0
35.728946685791016,-5.867033004760742,-0.36285459995269775,-0.0,-0.0,-1.0,0.09151719679525208,1.0
35.24006271362305,-5.801990509033203,-0.36250579357147217,-0.0,-0.0,-1.0,0.08555428062210556,1.0
35.75446319580078,-5.124908447265625,-0.45490360260009766,-0.0,-0.0,-1.0,0.07141771179343982,1.0
35.53928756713867,-4.87407112121582,-0.4396657943725586,-0.0,-0.0,-1.0,0.11426672702661878,1.0
35.30044937133789,-4.701364517211914,-0.43214118480682373,-0.0,-0.0,-1.0,0.17265653507523088,1.0
35.31509017944336,-4.873926162719727,-0.3474404811859131,-0.0,-0.0,-1.0,0.19093118165737016,1.0
37.37104034423828,-4.408658981323242,-0.5524474382400513,0.31211817379237594,-0.7786802870920093,-0.5442786566482449,0.1718255941208044,5.0
37.36842727661133,-4.92962646484375,-0.5982657670974731,-0.0,-0.0,-1.0,0.16048027523046746,1.0
37.21961975097656,-4.973138809204102,-0.60233473777771,0.544288711791461,0.7713967014821131,-0.3296921703027043,0.06877076778082589,3.0
37.37860107421875,-5.238256454467773,-0.6254334449768066,-0.0,-0.0,-1.0,0.07829689468980157,1.0
37.102115631103516,-5.402587890625,-0.6405467987060547,-0.0,-0.0,-1.0,0.08668822562084368,1.0
35.378334045410156,-4.933980941772461,-0.3293118476867676,-0.0,-0.0,-1.0,0.18539039004710325,2.0
37.443626403808594,-5.329767227172852,-0.5780956745147705,-0.0,-0.0,-1.0,0.10616779039502595,2.0
35.240901947021484,-4.755321502685547,-0.2829979658126831,-0.0,-0.0,-1.0,0.2199118996189358,1.0
35.423927307128906,-6.813733100891113,-0.531928300857544,-0.0,-0.0,-1.0,0.01720412707157021,1.0
35.94679641723633,-6.647740364074707,-0.6103942394256592,-0.0,-0.0,-1.0,0.048306132020077,1.0
35.72871398925781,-4.440232276916504,-0.6385033130645752,0.6231608785696204,-0.7648174635046698,-0.16347711441856916,0.04498933736244032,3.0
35.95783233642578,-4.390283584594727,-0.6731036901473999,-0.0,-0.0,-1.0,0.04638269224157967,1.0
35.755828857421875,-4.737092018127441,-0.6341472864151001,-0.0,-0.0,-1.0,0.14916699316755397,1.0
36.210487365722656,-4.633016586303711,-0.6656663417816162,-0.0,-0.0,-1.0,0.04378919371048847,1.0
36.21148681640625,-4.750489234924316,-0.667742133140564,-0.0,-0.0,-1.0,0.06560098169842378,1.0
35.67551040649414,-4.775962829589844,-0.6134532690048218,-0.0,-0.0,-1.0,0.08492787544015457,1.0
36.16132354736328,-4.376011848449707,-0.6563571691513062,-0.0,-0.0,-1.0,0.044171396199694415,1.0
35.9571647644043,-4.778545379638672,-0.6422276496887207,-0.0,-0.0,-1.0,0.03620281490152421,1.0
36.13664245605469,-4.774166107177734,-0.6404941082000732,-0.0,-0.0,-1.0,0.0763832445827461,2.0
35.64841842651367,-4.524693489074707,-0.5874392986297607,-0.7385081129525143,-0.6535925976171235,-0.16559735337081163,0.052452327466600474,3.0
35.73809814453125,-4.874988555908203,-0.6037700176239014,-0.0,-0.0,-1.0,0.15031545992069126,1.0
36.11868667602539,-4.421619415283203,-0.6313142776489258,-0.0,-0.0,-1.0,0.07303183255539117,1.0
36.34931182861328,-5.414093017578125,-0.5684347152709961,-0.0,-0.0,-1.0,0.021954595790587485,2.0
36.771339416503906,-6.1957244873046875,-0.6133521795272827,0.13588925507585367,0.09557339822665319,-0.9861033596466141,0.033274699385410264,4.0
36.367103576660156,-5.1470489501953125,-0.5724273920059204,-0.0,-0.0,-1.0,0.11291281244524036,2.0
36.86103820800781,-6.047445297241211,-0.6249732971191406,0.07906195996435499,0.6271553668725354,-0.774871184320059,0.04305918947126548,3.0
36.60052490234375,-4.5933427810668945,-0.6045975685119629,-0.0,-0.0,-1.0,0.03875863032462942,2.0
36.72706604003906,-4.878579139709473,-0.617507815361023,0.9267404367298228,-0.06289427968552988,0.37040042185809613,0.038628680970371566,3.0
36.93653106689453,-5.253543853759766,-0.6396960020065308,-0.12187194302338039,0.5787532266507293,-0.8063447973076256,0.05691532072922517,3.0
35.51988983154297,-4.800050735473633,-0.47401368618011475,-0.6350098303636856,-0.7183097139226535,0.2842422738190763,0.15069413630050413,4.0
36.2183952331543,-4.777493476867676,-0.5573705434799194,-0.0,-0.0,-1.0,0.0562330453267486,1.0
36.6524658203125,-4.478298187255859,-0.6117862462997437,-0.0,-0.0,-1.0,0.01951204621020767,1.0
35.23191833496094,-5.904966354370117,-0.15773463249206543,0.8500824158042547,0.49922554933927926,-0.16773114566858727,0.0375103139331697,7.0
35.3940544128418,-4.692183494567871,-0.5593664646148682,-0.15808796434401856,-0.8894925812679495,-0.4287320181638467,0.09078536103888737,3.0
35.21824264526367,-4.578580856323242,-0.537279486656189,-0.0,-0.0,-1.0,0.04667368907903645,1.0
35.767921447753906,-4.559948921203613,-0.5915387868881226,-0.0,-0.0,-1.0,0.0424502754087893,1.0
35.97087860107422,-4.560864448547363,-0.6121090650558472,0.8683038431675769,-0.35181953062545185,-0.3496733530180739,0.03676511946388219,3.0
35.46472930908203,-4.491617202758789,-0.6359134912490845,-0.0,-0.0,-1.0,0.031418825441489794,1.0
35.76770782470703,-4.478597640991211,-0.6629691123962402,-0.0,-0.0,-1.0,0.05252020350952336,1.0
35.777976989746094,-5.118020057678223,-0.5750405788421631,-0.0,-0.0,-1.0,0.062134557160388695,2.0
36.1983642578125,-5.12794303894043,-0.615087628364563,-0.0,-0.0,-1.0,0.09923091787407327,1.0
35.93193817138672,-5.016101837158203,-0.5829942226409912,-0.0,-0.0,-1.0,0.0875035304765158,2.0
36.14276123046875,-4.939454078674316,-0.5982649326324463,-0.0,-0.0,-1.0,0.06576127809816217,2.0
36.520145416259766,-4.985648155212402,-0.6374571323394775,0.26444432824090564,0.27104913981687806,-0.9255277203119021,0.021035382879901112,3.0
36.56573486328125,-4.489070892333984,-0.6127002239227295,-0.032849567842854185,-0.1736787734581544,-0.9842543317367766,0.03409071062952839,4.0
36.875816345214844,-4.465044975280762,-0.642540454864502,-0.036045685355697035,0.1059086616517091,-0.9937223273904948,0.019842643090695455,3.0
35.608551025390625,-5.028351783752441,-0.5537276268005371,-0.0,-0.0,-1.0,0.11119531108525953,2.0
35.3740234375,-4.893571853637695,-0.523735523223877,-0.0,-0.0,-1.0,0.218427314361377,1.0
36.038429260253906,-4.6819305419921875,-0.5725038051605225,-0.0,-0.0,-1.0,0.07002955033427995,2.0
35.22615051269531,-6.58115291595459,-0.5222824811935425,-0.0,-0.0,-1.0,0.018871927403482834,1.0
35.31090545654297,-4.957572937011719,-0.3157726526260376,0.07538169745720984,-0.665102002605691,-0.7429380363249476,0.2515879251244804,5.0
35.28871536254883,-5.768840789794922,0.20393860340118408,-0.0,-0.0,-1.0,0.05228022990529151,2.0
37.1327018737793,-6.7478437423706055,-0.6238999366760254,-0.0,-0.0,-1.0,0.056663360188771626,1.0
37.32023239135742,-6.620171546936035,-0.6305850744247437,-0.0,-0.0,-1.0,0.05157334671927985,1.0
37.087310791015625,-6.0154876708984375,-0.5676629543304443,-0.6282418924592971,-0.2011109455965229,-0.7515760188566647,0.046141593684975814,3.0
37.19343566894531,-6.023673057556152,-0.5773657560348511,-0.0,-0.0,-1.0,0.06591791328380543,2.0
37.519657135009766,-6.040996551513672,-0.6069859266281128,-0.04293932676076874,0.4126151035315592,-0.9098928456444597,0.09578022063271152,3.0
37.365684509277344,-5.675671577453613,-0.5679749250411987,0.09956615130095604,0.8239415774072882,0.5578591744649404,0.11539467032620365,3.0
37.448036193847656,-5.142390251159668,-0.5384254455566406,-0.0,-0.0,-1.0,0.12198132790324571,2.0
37.706565856933594,-5.240448951721191,-0.568540096282959,-0.7841671889635636,0.5023899222482714,0.36426115051753544,0.11753491996966058,3.0
37.39177322387695,-5.0353546142578125,-0.5259461402893066,-0.3140167859763767,-0.2708081465951562,-0.9099760468620937,0.15052893528767305,3.0
35.27959060668945,-4.955650329589844,-0.34253084659576416,0.5480603739262615,-0.824646966515012,-0.1399543037901842,0.20615334715184827,5.0
35.43069076538086,-4.767768859863281,-0.5696671009063721,-0.0,-0.0,-1.0,0.10745067081496913,2.0
35.93777084350586,-4.824051856994629,-0.6134679317474365,-0.0,-0.0,-1.0,0.14898015474400284,2.0
35.2515754699707,-4.662803649902344,-0.5461162328720093,-0.0,-0.0,-1.0,0.08075714184658458,2.0
35.56254959106445,-4.667830467224121,-0.5694116353988647,-0.0,-0.0,-1.0,0.0892250005115506,2.0
35.86826705932617,-4.6484785079956055,-0.5908316373825073,0.5488540744582352,-0.8125033410862603,-0.19646252994975397,0.1371157936844931,3.0
36.269012451171875,-4.567302703857422,-0.6147185564041138,-0.0,-0.0,-1.0,0.04027734532803445,2.0
36.611148834228516,-4.54141902923584,-0.6404908895492554,-0.0,-0.0,-1.0,0.03539544551667629,1.0
35.89921188354492,-5.066866874694824,-0.61271071434021,-0.07107036891141068,0.6117849876962888,-0.7878249370845328,0.06600899050875189,3.0
36.029273986816406,-4.948927879333496,-0.6098384857177734,-0.0,-0.0,-1.0,0.06871401669828187,2.0
36.367454528808594,-4.95143985748291,-0.6354787349700928,-0.0,-0.0,-1.0,0.06141014659362982,2.0
36.80473327636719,-4.864876747131348,-0.6611378192901611,-0.0,-0.0,-1.0,0.05125679308198341,1.0
36.733802795410156,-4.711203575134277,-0.63963782787323,0.5419400067129738,-0.8336054526886031,-0.10678472911316172,0.05523079162056271,3.0
37.09246826171875,-4.526575088500977,-0.6507174968719482,-0.0,-0.0,-1.0,0.11163246837491905,1.0
35.50886535644531,-4.83033561706543,-0.5604531764984131,-0.0,-0.0,-1.0,0.11262135402262066,1.0
36.11436080932617,-4.7026824951171875,-0.5905411243438721,-0.017095832028142775,0.18639958266155846,-0.9823252659434462,0.08143447994833033,5.0
36.51459503173828,-4.573400497436523,-0.6080729961395264,0.08635428241601151,-0.8548308162964873,-0.5116710011504433,0.04145896011712255,5.0
36.74741744995117,-5.442743301391602,-0.6441738605499268,-0.0,-0.0,-1.0,0.021026776547007568,1.0
35.87392044067383,-5.239749908447266,-0.5743964910507202,0.39025411128521414,0.11787511471540989,-0.9131304320609493,0.060761007014370434,3.0
36.1917610168457,-5.221680641174316,-0.5887417793273926,0.041707402675360876,-0.057838394374682425,-0.9974543662234548,0.06280699671822766,4.0
36.51163864135742,-5.284090995788574,-0.6131510734558105,-0.0,-0.0,-1.0,0.012789512336397064,2.0
36.970176696777344,-5.240008354187012,-0.6350661516189575,0.24108968503164502,0.14510843442306465,-0.9595933024102602,0.041393697825213814,4.0
37.56024932861328,-5.128536224365234,-0.6602898836135864,-0.0,-0.0,-1.0,0.14096373177560353,2.0
37.180267333984375,-5.011883735656738,-0.6230469942092896,0.34430599699681436,0.928333752267501,0.1401778328872707,0.05214241086541457,3.0
37.64542007446289,-4.813295364379883,-0.6320626735687256,-0.0,-0.0,-1.0,0.10927626199706518,1.0
35.48688888549805,-4.9651288986206055,-0.5247581005096436,-0.0,-0.0,-1.0,0.1265811346677454,1.0
35.88923263549805,-5.071093559265137,-0.5562448501586914,-0.0,-0.0,-1.0,0.0702818937463622,1.0
36.303367614746094,-4.997899055480957,-0.5697720050811768,-0.0,-0.0,-1.0,0.08677800382381652,1.0
35.499488830566406,-4.842689514160156,-0.5114169120788574,-0.0,-0.0,-1.0,0.14467827043444872,1.0
36.21299743652344,-4.8529253005981445,-0.5486875772476196,-0.0,-0.0,-1.0,0.08635358838825942,2.0
37.097984313964844,-4.7496538162231445,-0.5892446041107178,0.6094394476602674,0.6965845160971669,-0.37862061693629934,0.07095361967532193,3.0
37.22339630126953,-4.537903785705566,-0.5742716789245605,0.1654282901569983,0.7003705281191429,-0.6943447300569403,0.10498129499778124,6.0
37.471923828125,-4.6268768310546875,-0.6002848148345947,0.30941188609139847,-0.004626814668355777,-0.9509168614192243,0.20840490773389633,3.0
36.17434310913086,-5.882269859313965,-0.6127403974533081,-0.0,-0.0,-1.0,0.014109393040951856,1.0
36.34196853637695,-5.744537353515625,-0.6052217483520508,-0.0,-0.0,-1.0,0.016746423951257847,2.0
36.80579376220703,-5.735846519470215,-0.6278203725814819,-0.0,-0.0,-1.0,0.04523317282383087,1.0
35.736900329589844,-5.514654159545898,-0.5516459941864014,-0.43136072325570635,-0.62900835171035,-0.6467429318600575,0.014365759075552459,5.0
36.558868408203125,-5.486602783203125,-0.5871434211730957,0.34325496183742943,0.32100054431797015,-0.8826860606815724,0.01733443423450664,3.0
36.890811920166016,-5.658652305603027,-0.6238260269165039,0.6644468570534685,-0.4628996594606019,-0.5867148195017975,0.03504872248802149,3.0
37.160621643066406,-5.520000457763672,-0.623415470123291,-0.0,-0.0,-1.0,0.0603001254242259,1.0
37.628971099853516,-5.438324928283691,-0.6421842575073242,-0.0,-0.0,-1.0,0.10120185157071768,2.0
37.328975677490234,-5.366157531738281,-0.616183876991272,0.8203244223205273,-0.5399826826956153,0.1883787263290081,0.05593807707955859,3.0
37.69553756713867,-5.143871307373047,-0.6142755746841431,-0.0,-0.0,-1.0,0.1486025482266883,2.0
35.347042083740234,-4.933809280395508,-0.46965885162353516,-0.4738629290852437,-0.7361001332728982,0.48333272001218247,0.2128335934890211,6.0
35.852996826171875,-4.880128860473633,-0.4849824905395508,-0.0,-0.0,-1.0,0.16393928043362455,1.0
36.30316925048828,-5.0852460861206055,-0.5293126106262207,-0.0,-0.0,-1.0,0.15726555070552592,2.0
37.004180908203125,-5.129796981811523,-0.5713435411453247,-0.0,-0.0,-1.0,0.0592183925361165,1.0
37.262386322021484,-5.099445343017578,-0.5828790664672852,0.6362756248099845,-0.11291456177617808,-0.7631537400888223,0.04651974157866479,3.0
37.33952713012695,-4.866276741027832,-0.561852216720581,-0.0,-0.0,-1.0,0.17747980434991284,1.0
37.45055389404297,-4.392539024353027,-0.5168380737304688,-0.0,-0.0,-1.0,0.16807610135995962,2.0
35.252220153808594,-5.900449752807617,-0.024684667587280273,0.9068047054508916,-0.03817686197872775,-0.4198187149015378,0.06926191110288472,4.0
35.44807052612305,-4.554032325744629,-0.6026641130447388,-0.5359372788679114,-0.5613613385589878,-0.6305907394585815,0.0639995178978749,3.0
35.871028900146484,-4.5337324142456055,-0.6127158403396606,-0.22198688858815138,-0.7750182914526506,-0.591665842523266,0.04608135743605526,4.0
36.27577209472656,-4.543107032775879,-0.6279162168502808,-0.08375297546524606,-0.37393470429768805,-0.9236656732944657,0.03425374143379754,4.0
36.684165954589844,-4.58811092376709,-0.6497082710266113,-0.0,-0.0,-1.0,0.037539718595181064,1.0
36.92205810546875,-4.477977752685547,-0.6455961465835571,-0.036045685355697035,0.1059086616517091,-0.9937223273904948,0.03779487580560187,3.0
37.61912155151367,-4.5653486251831055,-0.6899420022964478,-0.0,-0.0,-1.0,0.10918972768959827,1.0
37.671630859375,-4.570216178894043,-0.6932635307312012,-0.0,-0.0,-1.0,0.10918972768959828,1.0
36.68331527709961,-4.387259483337402,-0.6237348318099976,-0.0,-0.0,-1.0,0.012820462387053214,1.0
37.105140686035156,-4.38871955871582,-0.6424514055252075,-0.0,-0.0,-1.0,0.07610878006543804,1.0
37.41553497314453,-4.438755035400391,-0.6636539697647095,-0.0,-0.0,-1.0,0.14690364852735116,1.0
35.232398986816406,-5.875774383544922,-0.22157037258148193,0.5720530361064333,0.6035182209680505,0.5554467398778854,0.10111142707842041,3.0
35.861881256103516,-6.394013404846191,-0.6228032112121582,-0.0,-0.0,-1.0,0.08029845464579322,1.0
35.66884231567383,-6.130755424499512,-0.5881006717681885,-0.0,-0.0,-1.0,0.06556242409188084,1.0
35.95857238769531,-6.280701637268066,-0.6109830141067505,-0.0,-0.0,-1.0,0.07611152371462473,1.0
36.30018615722656,-6.123935699462891,-0.5989744663238525,0.4127627264120203,0.5891677773199987,-0.6946281464587573,0.016584785222526367,4.0
35.52909851074219,-5.79140567779541,-0.5453367233276367,-0.0,-0.0,-1.0,0.05087461309757455,2.0
36.74354934692383,-5.785791397094727,-0.5684462785720825,-0.0,-0.0,-1.0,0.017047021186526592,2.0
37.16102981567383,-5.804813385009766,-0.582192063331604,-0.0,-0.0,-1.0,0.1276877880056824,2.0
37.6298942565918,-5.713770866394043,-0.586219310760498,-0.0,-0.0,-1.0,0.14683429205866402,1.0
35.56625747680664,-5.628270149230957,-0.5261452198028564,-0.0,-0.0,-1.0,0.04534597481941936,2.0
36.13728713989258,-5.2742919921875,-0.4933502674102783,-0.0,-0.0,-1.0,0.12868087866766417,1.0
37.285552978515625,-5.481240272521973,-0.5472145080566406,-0.0,-0.0,-1.0,0.043248998648727784,2.0
37.63833236694336,-5.4709978103637695,-0.5576817989349365,-0.0,-0.0,-1.0,0.11163934594445084,1.0
35.225250244140625,-4.864249229431152,-0.43030285835266113,-0.0,-0.0,-1.0,0.20325637325941243,2.0
35.86887741088867,-4.792555809020996,-0.4299570322036743,-0.18248610609733912,-0.4977808571471576,-0.8478873977948201,0.2505396825581084,6.0
36.93115997314453,-4.99643611907959,-0.47861969470977783,-0.0,-0.0,-1.0,0.056862177190377235,1.0
37.63886642456055,-5.2381439208984375,-0.5299160480499268,0.7239084335074616,0.11218802173110955,-0.6807131757773116,0.12715127973953907,5.0
37.33552551269531,-4.777250289916992,-0.4646327495574951,-0.0,-0.0,-1.0,0.18805753439939926,1.0
35.54254150390625,-5.473963737487793,-0.5635074377059937,-0.0,-0.0,-1.0,0.04804655814185053,1.0
35.639827728271484,-5.5692548751831055,-0.5752089023590088,-0.0,-0.0,-1.0,0.02592916940996002,2.0
36.121826171875,-5.828350067138672,-0.6077632904052734,-0.0,-0.0,-1.0,0.010487155653163677,2.0
36.35475158691406,-5.885857582092285,-0.6157059669494629,-0.0,-0.0,-1.0,0.01328432776942182,1.0
35.263919830322266,-4.845762252807617,-0.486233115196228,-0.5757950966536384,0.3818727207414001,-0.7229337672450967,0.2689458380134012,4.0
35.45055389404297,-4.899057388305664,-0.4920377731323242,-0.8058777614551856,0.06526161860014998,0.5884742600400358,0.15248541761019843,3.0
35.8803596496582,-5.380743980407715,-0.5514953136444092,-0.0,-0.0,-1.0,0.038134118537147994,2.0
36.412437438964844,-5.501587867736816,-0.5678554773330688,-0.0,-0.0,-1.0,0.020760439641276045,2.0
36.6196174621582,-5.594850540161133,-0.5807152986526489,-0.0,-0.0,-1.0,0.01952845793485825,2.0
36.98481369018555,-5.725019454956055,-0.5999369621276855,-0.0,-0.0,-1.0,0.03630662051283479,1.0
37.19710159301758,-5.809526443481445,-0.6125719547271729,-0.8044990338540617,0.14143973408924052,-0.576867494446208,0.1509610730994906,5.0
36.27169418334961,-5.096353530883789,-0.5165623426437378,-0.0,-0.0,-1.0,0.15912550002608394,2.0
37.076637268066406,-5.351922988891602,-0.5540457963943481,-0.0,-0.0,-1.0,0.10922343477397986,2.0
37.495567321777344,-5.517881393432617,-0.5798430442810059,-0.0,-0.0,-1.0,0.05526316054809997,2.0
36.911216735839844,-4.722760200500488,-0.4737159013748169,-0.0,-0.0,-1.0,0.13793639264869587,1.0
37.36703872680664,-5.0344743728637695,-0.5176726579666138,0.16184556611274006,0.13860918024655308,-0.9770330126874037,0.12821606887200407,5.0
35.24662780761719,-5.863736152648926,-0.07611751556396484,0.26372144440568374,-0.7669020593973891,0.5850745517048435,0.04642873844195986,8.0
35.523834228515625,-5.621832847595215,-0.5605735778808594,0.6192311415001946,-0.003787507852162263,-0.7851996231409157,0.0541002772963463,4.0
35.90135955810547,-6.025337219238281,-0.6051702499389648,-0.0,-0.0,-1.0,0.022640837309119723,1.0
36.25212860107422,-6.142744064331055,-0.6157386302947998,0.6646067515535761,0.33990939782090607,-0.6654017335883883,0.017164106008156023,5.0
36.546974182128906,-6.210112571716309,-0.6214404106140137,0.45142526013041795,0.2768575378190248,-0.848271853988432,0.009442031193763382,3.0
35.252952575683594,-4.815702438354492,-0.46547794342041016,-0.45150912733992227,0.3895344201822392,-0.8027468115302786,0.2180579913406443,3.0
35.44579315185547,-4.99177360534668,-0.48366212844848633,-0.0,-0.0,-1.0,0.1506661516297347,2.0
36.8146858215332,-6.191252708435059,-0.6172925233840942,-0.1666567402721534,0.294394075420939,-0.941040731997776,0.041383054046852816,4.0
36.99510192871094,-6.304527282714844,-0.6305204629898071,-0.0,-0.0,-1.0,0.061039477451411465,1.0
35.78849792480469,-4.733841896057129,-0.44599032402038574,0.0996120900121714,-0.7909701822956362,-0.6036916449998422,0.14923530712997218,3.0
36.17063522338867,-5.085987091064453,-0.4847841262817383,-0.0,-0.0,-1.0,0.1377936116387778,2.0
37.16251754760742,-5.736421585083008,-0.558990478515625,-0.0,-0.0,-1.0,0.08297792778034976,1.0
37.30567932128906,-5.82392692565918,-0.5695781707763672,-0.0,-0.0,-1.0,0.14837209618432556,2.0
37.450870513916016,-5.431118011474609,-0.5203573703765869,-0.0,-0.0,-1.0,0.0717907178403097,1.0
37.55834197998047,-5.638457298278809,-0.5462615489959717,-0.0,-0.0,-1.0,0.10465968190098376,2.0
37.39155578613281,-5.021571159362793,-0.46924400329589844,-0.0,-0.0,-1.0,0.142278587589825,2.0
37.67347717285156,-5.326503753662109,-0.5074292421340942,-0.0,-0.0,-1.0,0.10460005285904482,1.0
35.4229850769043,-5.674970626831055,-0.5679488182067871,-0.0,-0.0,-1.0,0.09936321199822977,2.0
35.524776458740234,-5.670185089111328,-0.5662809610366821,0.9913978371093206,-0.11937548390895308,-0.053663976897587,0.05484167571112964,4.0
35.9211540222168,-5.970329284667969,-0.6014187335968018,0.6743428123162083,0.3382431943830615,-0.6563941749673057,0.027370637109291954,3.0
36.132293701171875,-6.163164138793945,-0.6249444484710693,-0.0,-0.0,-1.0,0.018531709974773002,2.0
35.3281135559082,-4.905640602111816,-0.47109949588775635,-0.9202842890556595,-0.2952823340247268,0.2566810677284731,0.18687581322094665,5.0
35.43660354614258,-5.232041358947754,-0.5113387107849121,-0.0,-0.0,-1.0,0.07274552543261333,1.0
35.64620590209961,-5.510654449462891,-0.5447392463684082,-0.0,-0.0,-1.0,0.02324445966620325,2.0
36.44630813598633,-6.120508193969727,-0.6185660362243652,-0.0,-0.0,-1.0,0.013895976992548366,2.0
35.81606674194336,-4.732072830200195,-0.4437592029571533,-0.15263716034460587,-0.5301895343900879,-0.8340269509465248,0.18253164327161778,5.0
36.17784118652344,-5.1076459884643555,-0.4893990755081177,-0.0,-0.0,-1.0,0.16119843457176844,2.0
36.88833236694336,-5.891697883605957,-0.589016318321228,-0.21405180241392316,0.9159826717324185,-0.3393487453480429,0.056691683635378326,4.0
36.804283142089844,-6.079715728759766,-0.6130492687225342,-0.0,-0.0,-1.0,0.05716178712751884,1.0
37.107791900634766,-5.687750816345215,-0.5633584260940552,-0.0,-0.0,-1.0,0.06268183049840266,2.0
37.266380310058594,-5.887361526489258,-0.5897035598754883,-0.9497581266841228,-0.23303240702104047,0.2089387423994075,0.16560147882019727,3.0
37.3911018371582,-5.505496025085449,-0.5412111282348633,-0.0,-0.0,-1.0,0.057962757338880386,2.0
37.564064025878906,-5.590292930603027,-0.5532655715942383,-0.9421131082512474,0.15514972109508263,0.2972397269970683,0.09461164333423691,3.0
37.593257904052734,-5.1636152267456055,-0.4986346960067749,-0.0,-0.0,-1.0,0.17218858135273032,1.0
35.42261505126953,-5.602110862731934,-0.49157798290252686,-0.0,-0.0,-1.0,0.12290141011075856,2.0
35.517913818359375,-6.2744035720825195,-0.5739222764968872,-0.0,-0.0,-1.0,0.03198341602385687,1.0
35.823265075683594,-6.523737907409668,-0.5991287231445312,-0.0,-0.0,-1.0,0.04950487360462906,1.0
35.36196517944336,-4.8926801681518555,-0.4041370153427124,0.14673121412844978,-0.987099198744475,-0.06407123097308103,0.19748596553097755,4.0
36.09574508666992,-6.515427589416504,-0.5931788682937622,-0.0,-0.0,-1.0,0.05213881339650356,1.0
36.32130432128906,-6.584866523742676,-0.5984166860580444,-0.0,-0.0,-1.0,0.05093928801064686,2.0
36.57271957397461,-6.623169898986816,-0.5998121500015259,0.01818995706713122,-0.5182831572807932,-0.8550156105831919,0.03769751697465933,3.0
36.870792388916016,-6.768604278564453,-0.6148852109909058,-0.0,-0.0,-1.0,0.021492452189031216,1.0
37.230735778808594,-6.791872024536133,-0.6147327423095703,0.5379822339207253,-0.6719810361225744,-0.5089367377948827,0.09007212709680115,3.0
37.252044677734375,-6.097561836242676,-0.5262867212295532,-0.0,-0.0,-1.0,0.08999313035719207,2.0
37.59274673461914,-6.672494888305664,-0.5974762439727783,-0.0,-0.0,-1.0,0.1126340458730788,1.0
37.596641540527344,-5.881594657897949,-0.4968743324279785,0.4658177213750791,0.8812813973642374,0.07973047794079018,0.11511212136634168,3.0
35.25419235229492,-5.8506879806518555,-0.028467535972595215,0.8950377605181736,-0.1365627018756907,-0.4245680577987751,0.04627821431659797,5.0
35.214263916015625,-5.831906795501709,-0.24494671821594238,-0.0,-0.0,-1.0,0.043273421893211685,2.0
35.516475677490234,-4.6434454917907715,-0.5425117015838623,-0.0,-0.0,-1.0,0.07090091228771316,1.0
35.72709655761719,-4.769178867340088,-0.5672972202301025,-0.0,-0.0,-1.0,0.1653774734686465,2.0
36.11954879760742,-4.6007208824157715,-0.5506172180175781,-0.0,-0.0,-1.0,0.05257167817596745,2.0
35.92660903930664,-4.8306965827941895,-0.5822783708572388,-0.0,-0.0,-1.0,0.1450248932973485,2.0
36.38768005371094,-4.867437839508057,-0.601872444152832,-0.0,-0.0,-1.0,0.05106490934375815,1.0
36.77970886230469,-4.803161144256592,-0.6051400899887085,-0.0,-0.0,-1.0,0.13462279280495035,2.0
37.1661376953125,-4.642880916595459,-0.5946553945541382,0.4526424946804062,-0.018859001516542167,-0.8914926304077323,0.12071684579975926,4.0
37.518890380859375,-4.675321102142334,-0.6156520843505859,-0.0,-0.0,-1.0,0.16805684391257017,2.0
35.27824401855469,-4.99878454208374,-0.45466458797454834,-0.0,-0.0,-1.0,0.16847911161449264,2.0
35.32457733154297,-5.520970821380615,-0.5377187728881836,-0.0,-0.0,-1.0,0.11911135163134097,2.0
35.410186767578125,-5.728505611419678,-0.5726224184036255,-0.0,-0.0,-1.0,0.059030233112312015,1.0
35.746986389160156,-4.85040807723999,-0.44346916675567627,-0.0,-0.0,-1.0,0.11499342106401171,2.0
35.770286560058594,-5.527677059173584,-0.55124831199646,0.26575584767501603,0.6598438486118999,-0.7028370542846823,0.015971547799190355,3.0
35.93183517456055,-5.802384853363037,-0.6000474691390991,-0.19722216161263303,-0.4656901489396472,-0.8626911986043498,0.07046768226165114,3.0
36.38969039916992,-5.487435817718506,-0.5663856267929077,-0.11132697792713937,-0.07602617181257751,-0.9908714978165107,0.02043595217682618,3.0
36.27696990966797,-5.764683246612549,-0.6063408851623535,-0.0,-0.0,-1.0,0.01396590623369689,1.0
36.66336441040039,-5.687861919403076,-0.609633207321167,-0.5599172382442064,-0.08477271330127241,-0.8242003842491952,0.026407684839922816,3.0
36.87336730957031,-4.757676601409912,-0.46985292434692383,-0.0,-0.0,-1.0,0.1599438336396342,2.0
36.978607177734375,-5.397152423858643,-0.5770328044891357,0.3976322153571772,-0.9084122201894227,-0.12913504373587975,0.09450583371382507,3.0
37.077396392822266,-5.495762348175049,-0.5975543260574341,0.7612546322007333,0.2802246433580508,-0.5847781923154964,0.05909012885603489,3.0
37.21985626220703,-4.8743414878845215,-0.5047652721405029,-0.0,-0.0,-1.0,0.15335018960937913,1.0
37.327430725097656,-5.030345439910889,-0.5351934432983398,0.4894390106262233,0.25134087420190154,-0.8350312687753962,0.09731583824383618,4.0
37.514251708984375,-5.48868989944458,-0.6185905933380127,-0.0,-0.0,-1.0,0.08486286530154735,1.0
37.6838264465332,-5.259623050689697,-0.5910476446151733,-0.7841671889635636,0.5023899222482714,0.36426115051753544,0.11968810830249493,3.0
35.23383712768555,-4.538282871246338,-0.6106095314025879,-0.0,-0.0,-1.0,0.056979393362202584,1.0
35.38737106323242,-4.590067386627197,-0.6206122636795044,-0.0,-0.0,-1.0,0.045577735244365467,2.0
35.54077911376953,-4.643415927886963,-0.6313754320144653,-0.0,-0.0,-1.0,0.038490985878815845,2.0
36.36184310913086,-4.861476421356201,-0.6843013763427734,-0.0,-0.0,-1.0,0.05949327917047394,1.0
35.25972366333008,-5.6733880043029785,-0.4165186882019043,-0.0,-0.0,-1.0,0.16608112932529548,2.0
35.27428436279297,-5.958590030670166,-0.4612307548522949,-0.0,-0.0,-1.0,0.23825952808564,1.0
35.349822998046875,-6.522424221038818,-0.5507180690765381,-0.0,-0.0,-1.0,0.019789415275483863,1.0
35.46957015991211,-4.560293674468994,-0.6153626441955566,-0.5359372788679114,-0.5613613385589878,-0.6305907394585815,0.06122908604954855,3.0
35.33745574951172,-4.982223033905029,-0.3098726272583008,-0.0,-0.0,-1.0,0.16621263974819145,2.0
35.60017013549805,-6.587853908538818,-0.5655808448791504,-0.0,-0.0,-1.0,0.0178156573112759,2.0
35.7484245300293,-6.721092700958252,-0.5897753238677979,-0.0,-0.0,-1.0,0.02948606765707276,2.0
35.82432174682617,-4.529066562652588,-0.6117469072341919,-0.35026265246246213,-0.5535751539098364,-0.7555598078667641,0.040192812997741356,4.0
36.02510452270508,-4.6101508140563965,-0.6297210454940796,-0.0,-0.0,-1.0,0.04532599387281192,1.0
36.15381622314453,-6.634883403778076,-0.5862663984298706,-0.0,-0.0,-1.0,0.043426461225596805,1.0
36.05864715576172,-4.443483829498291,-0.5980300903320312,0.7832486790433321,0.012752894249897848,-0.6215777268090658,0.0808021735335077,4.0
36.15196228027344,-4.654594898223877,-0.6402647495269775,-0.0,-0.0,-1.0,0.0464796115965644,1.0
36.204383850097656,-5.1247477531433105,-0.34806859493255615,-0.0005385464297678847,-0.8940811580949297,-0.4479046692180968,0.1240654688855946,4.0
36.52371597290039,-6.630311489105225,-0.5965256690979004,0.01818995706713122,-0.5182831572807932,-0.8550156105831919,0.051996223520201924,3.0
36.662837982177734,-4.699706554412842,-0.6600526571273804,-0.0,-0.0,-1.0,0.04693473303059917,2.0
36.90596389770508,-5.946656703948975,-0.5004992485046387,-0.0,-0.0,-1.0,0.0556299889011991,1.0
36.83161926269531,-6.686790943145752,-0.6160013675689697,-0.0,-0.0,-1.0,0.023155868756048616,2.0
37.0692253112793,-4.599116802215576,-0.6525204181671143,0.588889080739337,-0.7774312245176856,0.22093062651183193,0.12216033520572843,4.0
37.06415557861328,-5.502397060394287,-0.43509697914123535,-0.0,-0.0,-1.0,0.197365903461833,1.0
37.208824157714844,-5.891759395599365,-0.5031532049179077,-0.0,-0.0,-1.0,0.13621640407393173,2.0
37.228790283203125,-6.240410327911377,-0.5598348379135132,-0.0,-0.0,-1.0,0.02063592882507815,1.0
37.398231506347656,-6.446370601654053,-0.5999776124954224,-0.0,-0.0,-1.0,0.02779293137533136,1.0
37.40863037109375,-4.657707691192627,-0.6766061782836914,-0.0,-0.0,-1.0,0.13519306110015256,1.0
37.63282775878906,-4.774514675140381,-0.7090049982070923,-0.0,-0.0,-1.0,0.07834090133895977,2.0
37.66792678833008,-5.746500492095947,-0.4999268054962158,-0.0,-0.0,-1.0,0.13589026443964283,1.0
37.61233901977539,-6.207674503326416,-0.5712617635726929,-0.0,-0.0,-1.0,0.1252216229209866,2.0
35.263790130615234,-4.792852878570557,-0.5634747743606567,-0.0,-0.0,-1.0,0.11527715999017205,1.0
35.23651885986328,-5.990536212921143,-0.4042309522628784,0.8089130265892817,0.08164974736754016,-0.5822310831353691,0.14009557842061093,4.0
35.50291061401367,-4.927022457122803,-0.5859135389328003,-0.0,-0.0,-1.0,0.1112690272238954,1.0
35.76655578613281,-5.8897576332092285,-0.3887976408004761,-0.0,-0.0,-1.0,0.094373925559367,2.0
35.43468475341797,-6.044801235198975,-0.4127703905105591,-0.0,-0.0,-1.0,0.16669337385607333,1.0
35.9252815246582,-5.057100772857666,-0.6074786186218262,-0.06150563947602131,0.5270133487823109,-0.847628448388738,0.04425129308431996,4.0
35.853355407714844,-5.132232189178467,-0.6226273775100708,-0.0,-0.0,-1.0,0.058654966754792794,2.0
36.19560241699219,-4.948480129241943,-0.5856320858001709,-0.0,-0.0,-1.0,0.13187066467460376,1.0
36.39817428588867,-5.212864398956299,-0.6385512351989746,-0.0,-0.0,-1.0,0.04014745844097962,1.0
36.75433349609375,-5.328535556793213,-0.6648004055023193,-0.0,-0.0,-1.0,0.023880252680883167,1.0
36.67753219604492,-5.411308765411377,-0.6802445650100708,-0.0,-0.0,-1.0,0.015200825795804916,1.0
37.17641830444336,-5.1306376457214355,-0.632165789604187,0.34268720917940826,0.8397254868927756,0.42122035008712405,0.045648474195120955,3.0
37.47482681274414,-4.542673587799072,-0.5207571983337402,-0.5695855281057363,-0.22468492691045172,-0.7906257077731249,0.10451696027545092,3.0
37.56129837036133,-5.167372226715088,-0.6488522291183472,-0.0,-0.0,-1.0,0.15424429429435974,2.0
37.486873626708984,-5.321157932281494,-0.6776491403579712,-0.0,-0.0,-1.0,0.07535666238952857,1.0
37.59180450439453,-6.282899379730225,-0.48692870140075684,-0.0,-0.0,-1.0,0.1218885893488563,1.0
35.27659225463867,-4.992307186126709,-0.49586760997772217,0.001544163799612096,-0.9878569044999109,-0.15535878407741865,0.1465682917344336,3.0
35.4295654296875,-5.4011969566345215,-0.5730797052383423,-0.0,-0.0,-1.0,0.0605356483678238,1.0
35.66604995727539,-4.4070587158203125,-0.6641860008239746,-0.0,-0.0,-1.0,0.042729438460653156,1.0
35.739418029785156,-5.4781365394592285,-0.5805783271789551,-0.4741999531755958,-0.6122708494873318,-0.6326601072268776,0.02522044798051787,4.0
35.92754364013672,-5.684232234954834,-0.6192559003829956,-0.0,-0.0,-1.0,0.010375816072655615,1.0
36.11610794067383,-4.469585418701172,-0.6614494323730469,-0.0,-0.0,-1.0,0.0776466786879375,1.0
36.1484260559082,-5.7936577796936035,-0.6390197277069092,-0.0,-0.0,-1.0,0.011069906068087299,1.0
36.42082214355469,-4.555570602416992,-0.6739941835403442,-0.0,-0.0,-1.0,0.03575733828141213,1.0
36.5566291809082,-4.683538436889648,-0.7026140689849854,-0.0,-0.0,-1.0,0.029783316852746686,1.0
36.60285186767578,-5.6847710609436035,-0.6131291389465332,0.6901028435626886,-0.48191285851998883,-0.5399241262434789,0.026992693900822526,3.0
36.82028579711914,-4.557858467102051,-0.6683598756790161,-0.0,-0.0,-1.0,0.02877472254175883,1.0
36.803287506103516,-4.719902515411377,-0.7083654403686523,-0.0,-0.0,-1.0,0.05106801379663611,1.0
36.98052978515625,-5.399684429168701,-0.5533010959625244,-0.4978074867910929,-0.8657250339267452,-0.052037214830076804,0.12399207691398424,3.0
37.04273223876953,-5.632988452911377,-0.6037105321884155,-0.0,-0.0,-1.0,0.04854877448567167,2.0
36.96142578125,-5.844310283660889,-0.6483274698257446,-0.0,-0.0,-1.0,0.040065691090759976,1.0
37.136390686035156,-4.581218719482422,-0.6724095344543457,-0.0,-0.0,-1.0,0.1221774878286762,2.0
37.30281066894531,-4.646418571472168,-0.6893755197525024,-0.0,-0.0,-1.0,0.06910992482426766,1.0
37.42353439331055,-5.594699382781982,-0.6007974147796631,-0.8507115093293912,-0.3884209294691429,0.35414560486449087,0.072102983423805,3.0
37.21019744873047,-5.817046642303467,-0.644960880279541,-0.8718074094537445,0.48608581981737026,-0.06060046694561318,0.14450832467423155,4.0
37.658851623535156,-4.757559299468994,-0.7218787670135498,-0.0,-0.0,-1.0,0.0734858132860297,2.0
35.460323333740234,-5.984346866607666,-0.3392765522003174,-0.0,-0.0,-1.0,0.14947881440209537,1.0
35.5238037109375,-6.010172367095947,-0.34252846240997314,-0.0,-0.0,-1.0,0.12401026999051362,1.0
35.7791633605957,-4.835220813751221,-0.44760608673095703,-0.0,-0.0,-1.0,0.148857575237114,2.0
35.674095153808594,-5.9285101890563965,-0.32672953605651855,-0.5858930159306732,0.8102414166236015,0.015434398965918741,0.0982630707707347,5.0
37.3096809387207,-4.801187038421631,-0.4285813570022583,-0.0,-0.0,-1.0,0.1866611059660437,1.0
35.22483825683594,-6.429749965667725,-0.5656183958053589,-0.0,-0.0,-1.0,0.023320514358184424,2.0
35.32218933105469,-4.899831771850586,-0.5545066595077515,-0.9254001768327494,-0.3782329219176054,-0.023966007084761994,0.13904178740053694,3.0
35.2461051940918,-5.912051677703857,-0.46406280994415283,-0.0,-0.0,-1.0,0.1822203417300182,2.0
35.291988372802734,-6.112613201141357,-0.5003436803817749,-0.0,-0.0,-1.0,0.15587322326908687,2.0
35.477783203125,-6.541895389556885,-0.575048565864563,0.041210265672639676,0.9764516125463646,-0.21176393073135782,0.01399331613903526,4.0
35.676612854003906,-6.743927478790283,-0.6062450408935547,-0.0,-0.0,-1.0,0.0248914595181475,2.0
35.60954666137695,-5.071681499481201,-0.570266604423523,-0.0,-0.0,-1.0,0.07457982550264225,2.0
35.830543518066406,-5.232409477233887,-0.5919873714447021,-0.0,-0.0,-1.0,0.06256673439486814,2.0
35.91386795043945,-6.750168323516846,-0.5985615253448486,-0.0,-0.0,-1.0,0.04625584584733052,1.0
36.20249938964844,-5.346232891082764,-0.5968141555786133,-0.0,-0.0,-1.0,0.04405917426121113,2.0
36.18413162231445,-5.428974628448486,-0.6169339418411255,-0.0,-0.0,-1.0,0.03018915837690165,1.0
36.325347900390625,-6.797489643096924,-0.5955016613006592,-0.0,-0.0,-1.0,0.04249723007530983,1.0
36.57670593261719,-5.61463737487793,-0.6436434984207153,-0.0,-0.0,-1.0,0.03137085636477385,1.0
36.99432373046875,-5.5704264640808105,-0.6195782423019409,-0.0,-0.0,-1.0,0.039190122832406665,1.0
37.07217025756836,-5.754203796386719,-0.6622112989425659,-0.0,-0.0,-1.0,0.05719740787967317,1.0
37.207183837890625,-5.274259567260742,-0.5425952672958374,-0.0,-0.0,-1.0,0.05913998510617273,1.0
37.403324127197266,-5.557938575744629,-0.6090269088745117,-0.0,-0.0,-1.0,0.045885523317035284,2.0
37.486331939697266,-5.72853946685791,-0.6500017642974854,-0.0,-0.0,-1.0,0.1398890119280789,1.0
35.269927978515625,-5.029943466186523,-0.2943068742752075,-0.0,-0.0,-1.0,0.17950535108991675,1.0
35.308799743652344,-5.320555686950684,-0.3469221591949463,-0.0,-0.0,-1.0,0.07311223512163477,2.0
35.27466583251953,-5.668095111846924,-0.41545939445495605,-0.0,-0.0,-1.0,0.16608112932529553,2.0
36.148590087890625,-5.2221503257751465,-0.28340744972229004,-0.0,-0.0,-1.0,0.10434086384766067,1.0
37.17287063598633,-4.752559185028076,-0.41671454906463623,-0.0,-0.0,-1.0,0.21404810520338333,2.0
35.25178146362305,-5.856074333190918,0.17590618133544922,-0.0,-0.0,-1.0,0.07848507617787605,2.0
35.308589935302734,-5.700987815856934,-0.5862114429473877,-0.0,-0.0,-1.0,0.0996083023091519,1.0
35.471805572509766,-5.728247165679932,-0.5802056789398193,-0.0,-0.0,-1.0,0.06178516317324073,2.0
35.6352424621582,-5.934549808502197,-0.6186407804489136,-0.0,-0.0,-1.0,0.10310325814838547,1.0
35.99528884887695,-6.078558444976807,-0.6323024034500122,-0.0,-0.0,-1.0,0.01304787548339905,1.0
36.24354934692383,-6.114376068115234,-0.628502368927002,0.8418044591545804,-0.06769377458182796,-0.5355210597449269,0.018058700016132093,4.0
36.454681396484375,-6.211825847625732,-0.6443657875061035,0.15955349454608556,0.8687141339060295,-0.4689119703420135,0.01622659572179498,3.0
36.818965911865234,-6.229461669921875,-0.6368111371994019,-0.0,-0.0,-1.0,0.03934090604931547,2.0
37.368324279785156,-6.334707736968994,-0.6544487476348877,-0.0,-0.0,-1.0,0.02813587940079548,1.0
37.57952880859375,-6.357680320739746,-0.6598182916641235,-0.0,-0.0,-1.0,0.0895322125360748,1.0
35.333229064941406,-5.03288459777832,-0.4278695583343506,-0.0,-0.0,-1.0,0.20518312591238036,2.0
35.36663818359375,-5.217300891876221,-0.46776413917541504,-0.0,-0.0,-1.0,0.09937760666200604,1.0
35.56006622314453,-5.9639387130737305,-0.3433953523635864,-0.0,-0.0,-1.0,0.1529141862920335,1.0
36.13571548461914,-5.086951732635498,-0.37899959087371826,-0.0,-0.0,-1.0,0.21990032158358638,1.0
37.06012725830078,-5.45185661315918,-0.4286525249481201,-0.0,-0.0,-1.0,0.20009414319139554,1.0
37.14152526855469,-6.022012710571289,-0.5752503871917725,-0.2807295540010999,0.4329132253694027,-0.8566078780927738,0.039854341265625405,3.0
37.266502380371094,-6.1110734939575195,-0.5966649055480957,-0.0,-0.0,-1.0,0.047007998492407055,2.0
37.55166244506836,-5.83159065246582,-0.520106315612793,-0.0,-0.0,-1.0,0.15012942237928648,1.0
37.646793365478516,-6.191107273101807,-0.6154894828796387,-0.0,-0.0,-1.0,0.12868761129745446,1.0
35.307212829589844,-6.480390548706055,-0.6045926809310913,-0.0,-0.0,-1.0,0.02156147906403983,1.0
35.704036712646484,-6.757987022399902,-0.6219285726547241,-0.0,-0.0,-1.0,0.028910989776584736,2.0
35.84343338012695,-6.8039021492004395,-0.6180076599121094,-0.0,-0.0,-1.0,0.04312255353544982,1.0
35.27931213378906,-5.1792168617248535,-0.33114612102508545,-0.0,-0.0,-1.0,0.10297289546367086,2.0
35.261268615722656,-5.594625949859619,-0.4197434186935425,-0.0,-0.0,-1.0,0.17960122803213843,2.0
35.24736785888672,-6.358076095581055,-0.5852153301239014,-0.0,-0.0,-1.0,0.022124363743220368,1.0
35.50893020629883,-6.531040668487549,-0.5921880006790161,-0.3108565787396847,0.9497524527172925,0.03658505175266499,0.015801192675875823,3.0
35.61807632446289,-6.616776466369629,-0.5991146564483643,-0.0,-0.0,-1.0,0.01819499020331746,2.0
35.76527404785156,-5.84963321685791,-0.41014981269836426,-0.0,-0.0,-1.0,0.10919273103913942,2.0
36.05295944213867,-6.787256240844727,-0.5935460329055786,-0.0,-0.0,-1.0,0.0407783743460299,1.0
35.21281433105469,-5.843306064605713,0.023241162300109863,-0.0,-0.0,-1.0,0.02509553560670357,2.0
35.24003982543945,-5.855619430541992,-0.07419717311859131,0.012777582094802167,-0.858317552460647,0.5129597572264075,0.046111927740322786,6.0
35.21644973754883,-5.846332550048828,0.08736121654510498,-0.0,-0.0,-1.0,0.05164096034312107,1.0
37.48869323730469,-4.7979350090026855,-0.4852120876312256,-0.0,-0.0,-1.0,0.11265418913346917,1.0
37.379920959472656,-4.9767231941223145,-0.46024906635284424,-0.0,-0.0,-1.0,0.16738413396022375,2.0
37.18002700805664,-4.488570213317871,-0.41675078868865967,-0.0,-0.0,-1.0,0.10895430721573579,1.0
37.19906234741211,-4.790026664733887,-0.4187709093093872,-0.0,-0.0,-1.0,0.20080412655385965,2.0
37.63710021972656,-5.5319719314575195,-0.6538834571838379,-0.0,-0.0,-1.0,0.10241502671755082,1.0
37.49310302734375,-5.133058547973633,-0.6384991407394409,-0.0,-0.0,-1.0,0.12544359377999992,1.0
37.41725158691406,-4.762073040008545,-0.6371421813964844,-0.0,-0.0,-1.0,0.13642861876091877,1.0
37.340145111083984,-4.389524459838867,-0.6370548009872437,-0.0,-0.0,-1.0,0.13649715485997185,1.0
37.542476654052734,-5.917737007141113,-0.6240231990814209,-0.0,-0.0,-1.0,0.10979151197879287,1.0
37.37110137939453,-5.626379013061523,-0.5984288454055786,-0.0,-0.0,-1.0,0.10509146261567272,1.0
37.29857635498047,-5.265355110168457,-0.5953435897827148,0.39427386820384563,-0.4791059048305217,-0.7842229586081392,0.07791194873742165,3.0
37.278221130371094,-5.919814109802246,-0.5720744132995605,-0.9614935481368814,-0.14695188917401356,0.23223974500360337,0.1541568429813917,4.0
35.94114303588867,-4.465467929840088,-0.660830020904541,-0.0,-0.0,-1.0,0.050169596521716264,2.0
35.730125427246094,-4.602469444274902,-0.6070170402526855,-0.0,-0.0,-1.0,0.06290308405748647,1.0
35.25017547607422,-5.205339431762695,-0.4822194576263428,-0.0,-0.0,-1.0,0.08438943489234808,1.0
37.19789123535156,-4.56318998336792,-0.6011013984680176,0.7895250437731993,-0.22859900709149295,-0.5695548254660922,0.11517762434235727,4.0
37.0239372253418,-4.713379383087158,-0.5602723360061646,-0.0,-0.0,-1.0,0.13589439100147338,2.0
36.28040313720703,-5.1471452713012695,-0.397183895111084,-0.0,-0.0,-1.0,0.10549193696849138,1.0
37.52114486694336,-5.427812099456787,-0.6021387577056885,-0.0,-0.0,-1.0,0.09873828779391426,1.0
37.59489440917969,-5.184378623962402,-0.6071969270706177,-0.0,-0.0,-1.0,0.13953517657017575,2.0
37.27934265136719,-6.329736709594727,-0.6013789176940918,-0.0,-0.0,-1.0,0.01775095040733919,2.0
37.41740798950195,-5.802301406860352,-0.5989283323287964,-0.0,-0.0,-1.0,0.12732246135952321,2.0
37.07910919189453,-6.72810697555542,-0.5910278558731079,-0.0,-0.0,-1.0,0.05618734467896919,2.0
37.2149658203125,-6.478851795196533,-0.5986994504928589,-0.0,-0.0,-1.0,0.06646562710482012,1.0
37.465187072753906,-5.318731307983398,-0.5878260135650635,-0.0,-0.0,-1.0,0.09814142146064048,2.0
37.5535888671875,-4.9635796546936035,-0.5928257703781128,-0.0,-0.0,-1.0,0.11923951477821942,2.0
