x,y,z,nx,ny,nz,curvature,density
47.614013671875,-2.0157299041748047,-0.8988641500473022,-0.0,-0.0,-1.0,0.038749479026746844,2.0
46.05517578125,-1.5040836334228516,-0.7062336206436157,-0.7098671670294822,0.6897230098199405,0.1427262235836858,0.12286783226737909,5.0
46.515018463134766,-1.544778823852539,-0.7512089014053345,-0.0,-0.0,-1.0,0.07373234837720075,1.0
46.72512435913086,-1.4747047424316406,-0.7642306089401245,-0.0,-0.0,-1.0,0.015612852243332071,1.0
46.23456573486328,-1.1794109344482422,-0.6921766996383667,-0.0,-0.0,-1.0,0.15077247316757625,2.0
47.346153259277344,-1.1325798034667969,-0.7930761575698853,-0.0,-0.0,-1.0,0.0674070942074099,1.0
47.61404800415039,-1.1541900634765625,-0.8218392133712769,-0.0,-0.0,-1.0,0.11410906754347332,2.0
46.0819091796875,-1.0690765380859375,-0.6683565378189087,0.9616645028729631,-0.25157867121683125,-0.1091309126822939,0.1928574817053288,4.0
45.93495178222656,-2.2281646728515625,-0.7032978534698486,-0.0,-0.0,-1.0,0.14927079308832641,2.0
47.40885925292969,-2.2062835693359375,-0.8334603309631348,-0.0,-0.0,-1.0,0.035754850568181576,1.0
47.68214416503906,-2.183683395385742,-0.8578429222106934,0.35895345788600563,0.9191931305261755,-0.16197655344267695,0.03896551420428423,3.0
46.04823303222656,-1.9274406433105469,-0.6845197677612305,-0.0,-0.0,-1.0,0.06054776270221245,2.0
46.682064056396484,-1.7204608917236328,-0.7207481861114502,-0.0,-0.0,-1.0,0.034181103958694,1.0
46.91817092895508,-1.7277870178222656,-0.7430884838104248,-0.14083281353664034,0.12674569947480324,-0.9818867787560828,0.033296110997939776,3.0
47.148983001708984,-1.789724349975586,-0.7703378200531006,-0.0,-0.0,-1.0,0.027350226970976377,1.0
46.2218132019043,-1.4489688873291016,-0.6544861793518066,-0.0,-0.0,-1.0,0.06137769137651638,1.0
46.49348831176758,-1.5758190155029297,-0.6902961730957031,-0.0,-0.0,-1.0,0.050170001807637025,1.0
46.981109619140625,-1.6178627014160156,-0.7386977672576904,-0.0,-0.0,-1.0,0.03308911850853262,1.0
47.54048156738281,-1.0072078704833984,-0.7363665103912354,0.1534893446490277,-0.8556534970559604,-0.4942652264271865,0.1628328305564656,4.0
47.603092193603516,-1.0152568817138672,-0.743323564529419,-0.0,-0.0,-1.0,0.13235418833968113,1.0
47.34715270996094,-0.9955425262451172,-0.71628737449646,-0.0,-0.0,-1.0,0.12355050964989332,1.0
45.829402923583984,-0.5561904907226562,-1.0403642654418945,-0.5528934293465244,-0.29850184093064175,-0.7779495528287533,0.16658654073737816,4.0
46.10518264770508,-2.344278335571289,-0.6312820911407471,-0.0,-0.0,-1.0,0.08143494074357475,2.0
46.204288482666016,-2.2034568786621094,-0.6252480745315552,-0.0,-0.0,-1.0,0.07179530230427075,1.0
46.58317947387695,-2.131633758544922,-0.647371768951416,0.8288382211892937,-0.4978303632425029,-0.2553275005353025,0.10286712286564907,4.0
46.94918441772461,-2.205669403076172,-0.6836035251617432,0.2339934976160507,0.6854346996928441,-0.6895116500323895,0.039187336960858174,3.0
47.276241302490234,-2.2830371856689453,-0.7178916931152344,-0.16562950374384167,0.5741002376675979,-0.8018577084493085,0.036194967984642,4.0
45.8745002746582,-0.7238426208496094,-1.0080872774124146,-0.0,-0.0,-1.0,0.0872111428383591,1.0
45.755958557128906,-0.5352249145507812,-0.9757980108261108,-0.9882569486327837,-0.042246485176981215,-0.14684494533081682,0.1879832582690342,3.0
46.15388870239258,-0.5100002288818359,-0.9958640336990356,-0.0,-0.0,-1.0,0.0784842623251069,1.0
46.51319885253906,-0.41213226318359375,-1.0053941011428833,-0.0,-0.0,-1.0,0.009548837953775553,2.0
46.78193664550781,-0.39493370056152344,-1.0210109949111938,-0.044504350496107625,-0.2313292370177548,-0.9718570609342216,0.01883064787792612,3.0
45.91800308227539,-0.7400798797607422,-0.9184622764587402,-0.0,-0.0,-1.0,0.09959468186082272,1.0
46.43120193481445,-0.7078399658203125,-0.936016321182251,-0.0,-0.0,-1.0,0.04057655042640308,2.0
46.76887130737305,-0.7503108978271484,-0.957709789276123,-0.0,-0.0,-1.0,0.032394796646040606,2.0
46.03096389770508,-0.5784378051757812,-0.9014067649841309,-0.0,-0.0,-1.0,0.08068352088494651,2.0
46.23737716674805,-0.45119667053222656,-0.8930449485778809,-0.0,-0.0,-1.0,0.1360719495870821,2.0
46.95640182495117,-0.5907821655273438,-0.9458177089691162,0.13093543170080776,-0.10164618134218144,-0.9861662976110445,0.016241685678920904,4.0
47.07014083862305,-0.49344825744628906,-0.9387569427490234,0.4171221777558955,0.43310172831788585,-0.7990193875947187,0.03308864093007233,6.0
45.75868225097656,-1.9579906463623047,-0.6799923181533813,-0.0,-0.0,-1.0,0.03634888130857537,2.0
46.49101638793945,-1.8988914489746094,-0.6854348182678223,-0.0,-0.0,-1.0,0.1362667143684353,2.0
46.698463439941406,-2.1103687286376953,-0.7129112482070923,-0.0,-0.0,-1.0,0.10186145635273505,1.0
47.11121368408203,-2.1676464080810547,-0.7281821966171265,-0.0,-0.0,-1.0,0.02298765764918561,1.0
46.031253814697266,-1.5472831726074219,-0.638721227645874,-0.0,-0.0,-1.0,0.08553990448062022,1.0
46.311614990234375,-1.753122329711914,-0.6660727262496948,-0.0,-0.0,-1.0,0.07265041373901203,2.0
45.828651428222656,-0.8587913513183594,-0.9438121318817139,-0.0,-0.0,-1.0,0.10213918669797512,2.0
46.0089225769043,-0.5925064086914062,-0.909088134765625,0.2687758623350867,0.10186174616108432,-0.9578015037026437,0.08205605909283141,3.0
46.39458084106445,-0.8024253845214844,-0.9413304328918457,-0.0,-0.0,-1.0,0.05224557622544805,1.0
46.82463073730469,-0.7918529510498047,-0.9457452297210693,-0.0649475441220778,0.9972499111662602,-0.03569917634059385,0.04680044486885343,3.0
47.05481719970703,-0.6385040283203125,-0.9285643100738525,0.5509866224516577,-0.3053512891170988,-0.7766429888396859,0.01356157161524221,6.0
47.26934051513672,-0.4542999267578125,-0.9073646068572998,0.6478814531998076,-0.23224155910245142,-0.7254746589822196,0.07251870455496236,3.0
45.843414306640625,-0.6801891326904297,-0.9401900768280029,0.5770616861957844,-0.12272251405224989,-0.8074273929398071,0.12461821403537231,4.0
46.291046142578125,-0.7861080169677734,-0.964015007019043,-0.0,-0.0,-1.0,0.07540259041594533,2.0
46.13593292236328,-0.5403299331665039,-0.9254317283630371,0.8794937612569944,0.1536578492135357,0.45042201243400093,0.07004552242871162,3.0
46.37013244628906,-0.7179679870605469,-0.9559719562530518,0.4873363812031507,0.08469808095986404,-0.8690969374227101,0.06173793752032013,3.0
46.70867156982422,-0.7667312622070312,-0.9710128307342529,-0.875168231985573,0.28927500874584056,-0.3878150784050815,0.03559861522435748,4.0
46.95952606201172,-0.5515069961547852,-0.9463753700256348,0.13093543170080776,-0.10164618134218144,-0.9861662976110445,0.016971968992889896,4.0
46.022613525390625,-0.4107627868652344,-0.9943419694900513,0.9487099150596392,0.3068569982999601,-0.07608074435670294,0.09652198871137714,3.0
46.23979187011719,-0.49509143829345703,-1.0011268854141235,-0.0,-0.0,-1.0,0.03752907173404927,1.0
46.5544319152832,-0.46692848205566406,-0.9901190996170044,-0.0,-0.0,-1.0,0.00943523478037992,1.0
46.831268310546875,-0.4151191711425781,-0.9770885705947876,-0.0,-0.0,-1.0,0.020461213437524252,2.0
45.9046745300293,-2.3521623611450195,-0.662205696105957,-0.0,-0.0,-1.0,0.14068876442309144,2.0
46.235416412353516,-2.3218507766723633,-0.6547814607620239,-0.0,-0.0,-1.0,0.08270037617776069,2.0
46.46533966064453,-2.2571840286254883,-0.645086407661438,-0.0,-0.0,-1.0,0.03668458607925723,2.0
46.77354431152344,-0.36557769775390625,-1.0276142358779907,-0.044504350496107625,-0.2313292370177548,-0.9718570609342216,0.019602080803509055,3.0
45.750919342041016,-2.0236263275146484,-0.7180477380752563,-0.0,-0.0,-1.0,0.03317888765327728,2.0
46.084075927734375,-1.8880558013916016,-0.69636070728302,-0.0,-0.0,-1.0,0.043427621455521925,2.0
46.378753662109375,-1.5073165893554688,-0.645283579826355,0.13328139767882521,0.6465087684218324,-0.7511740686328733,0.11521642754129985,4.0
46.498619079589844,-1.813340187072754,-0.6820000410079956,0.036521719397533535,0.8863485818814795,-0.46157594760660786,0.15957976547646582,3.0
46.7622184753418,-2.0400543212890625,-0.7080289125442505,-0.0,-0.0,-1.0,0.07402292228760235,1.0
47.257843017578125,-2.3007259368896484,-0.7383676767349243,-0.961103352252697,0.26457110434620784,-0.07926207815630407,0.0283451962925091,4.0
46.003116607666016,-1.5036211013793945,-0.799690842628479,0.4852551799940364,0.43955132409212927,-0.755858481316318,0.12478699662190335,3.0
46.007240295410156,-0.9742412567138672,-0.7287143468856812,-0.0,-0.0,-1.0,0.13904544250051612,1.0
46.28602600097656,-1.2167901992797852,-0.7546015977859497,-0.0,-0.0,-1.0,0.15353303231384033,2.0
46.518798828125,-1.1610870361328125,-0.7421568632125854,-0.0,-0.0,-1.0,0.021689029776029142,2.0
46.783809661865234,-1.3665075302124023,-0.7650130987167358,-0.0,-0.0,-1.0,0.024753583960366497,2.0
46.94676208496094,-1.4857378005981445,-0.7786015272140503,-0.0,-0.0,-1.0,0.037427492941963646,2.0
47.043067932128906,-1.6521024703979492,-0.7999705076217651,-0.0,-0.0,-1.0,0.032027771864333074,1.0
47.36206817626953,-2.0851945877075195,-0.8558145761489868,-0.0,-0.0,-1.0,0.03739165863205227,2.0
47.60443878173828,-2.1496315002441406,-0.8624931573867798,-0.0,-0.0,-1.0,0.04461401887099266,2.0
46.17424392700195,-0.8107967376708984,-0.7026435136795044,-0.0,-0.0,-1.0,0.2142309511631301,2.0
47.38302230834961,-0.9487857818603516,-0.6988788843154907,-0.0,-0.0,-1.0,0.16321527254392482,1.0
47.47822189331055,-1.2323875427246094,-0.7368217706680298,-0.0,-0.0,-1.0,0.028522641619207215,1.0
47.69515609741211,-0.989232063293457,-0.7010661363601685,-0.0,-0.0,-1.0,0.12897459769826752,1.0
45.81309509277344,-0.576171875,-0.9603923559188843,-0.0,-0.0,-1.0,0.21333136838426664,2.0
46.18174362182617,-0.5521841049194336,-0.9423309564590454,0.35178963906648963,0.6488503794826291,-0.6747127054463384,0.06270871149069526,4.0
46.35771179199219,-0.7406177520751953,-0.9651440382003784,0.4873363812031507,0.08469808095986404,-0.8690969374227101,0.06666121992122871,3.0
46.46031188964844,-0.6710243225097656,-0.9507945775985718,-0.0,-0.0,-1.0,0.024763048956794566,2.0
46.611595153808594,-0.7792291641235352,-0.9626818895339966,-0.0,-0.0,-1.0,0.04791397525760336,1.0
47.12508773803711,-0.37986278533935547,-0.884487509727478,0.1407196436656075,0.5295056566852082,-0.8365534898767628,0.03399081027766253,3.0
46.878204345703125,-0.6837711334228516,-0.9394441843032837,-0.0,-0.0,-1.0,0.05497113225845796,2.0
47.29764175415039,-0.43442535400390625,-0.8884526491165161,0.6478814531998076,-0.23224155910245142,-0.7254746589822196,0.07140911015340383,3.0
47.56102752685547,-0.72528076171875,-0.9280270338058472,-0.0,-0.0,-1.0,0.09665654734020965,1.0
45.90925598144531,-2.3157854080200195,-0.6492388248443604,-0.0,-0.0,-1.0,0.14927213046834198,2.0
46.111148834228516,-2.33614444732666,-0.6472338438034058,-0.0,-0.0,-1.0,0.06216702774934035,2.0
46.30872344970703,-2.2612314224243164,-0.6339600086212158,-0.0,-0.0,-1.0,0.06707257058749456,2.0
46.379600524902344,-2.343648910522461,-0.6427257061004639,-0.0,-0.0,-1.0,0.036697707982748864,1.0
46.04119110107422,-0.9362945556640625,-0.7430393695831299,-0.0,-0.0,-1.0,0.18912424224416946,1.0
45.75665283203125,-1.3012199401855469,-0.8076963424682617,-0.0,-0.0,-1.0,0.08610301843709635,2.0
46.17207717895508,-0.7992439270019531,-0.7175147533416748,-0.0,-0.0,-1.0,0.21423095116313007,2.0
46.35742950439453,-1.0290603637695312,-0.7385828495025635,-0.0,-0.0,-1.0,0.056151148255558614,1.0
46.1116828918457,-1.400925636291504,-0.8015079498291016,-0.8332210352076809,0.38284629442403423,-0.39896293227971197,0.1738338678955052,6.0
46.65037155151367,-1.243997573852539,-0.7531158924102783,-0.0,-0.0,-1.0,0.02327972203962773,1.0
46.59709930419922,-1.3975238800048828,-0.7764644622802734,-0.0,-0.0,-1.0,0.018437302036967567,1.0
46.86068344116211,-1.3311700820922852,-0.7549245357513428,-0.0,-0.0,-1.0,0.022035095012783758,2.0
47.0054931640625,-1.554208755493164,-0.779059886932373,-0.0,-0.0,-1.0,0.03921973897959474,1.0
47.437461853027344,-0.9521951675415039,-0.6776494979858398,-0.0,-0.0,-1.0,0.11747909639644713,2.0
47.177978515625,-1.7000093460083008,-0.7917046546936035,-0.0,-0.0,-1.0,0.023708805194379012,1.0
47.36164474487305,-2.0182838439941406,-0.8283956050872803,-0.0,-0.0,-1.0,0.04013109966649932,1.0
47.68688201904297,-2.18222713470459,-0.8390793800354004,0.35895345788600563,0.9191931305261755,-0.16197655344267695,0.03896551420428424,3.0
46.204490661621094,-1.2250490188598633,-0.7077209949493408,-0.0,-0.0,-1.0,0.14400752010722329,1.0
45.8802375793457,-1.4117498397827148,-0.7502450942993164,-0.0,-0.0,-1.0,0.1415368489406419,1.0
46.51226806640625,-1.4283552169799805,-0.7190892696380615,-0.0,-0.0,-1.0,0.03476504101873049,1.0
46.78490447998047,-1.6759099960327148,-0.7395012378692627,-0.0,-0.0,-1.0,0.030230352707872114,2.0
46.97893142700195,-1.7990455627441406,-0.7474634647369385,-0.0,-0.0,-1.0,0.028329481691826666,1.0
47.23854446411133,-1.8112592697143555,-0.7380673885345459,-0.0,-0.0,-1.0,0.026780810042884563,1.0
47.09947204589844,-2.100069999694824,-0.7835409641265869,-0.0,-0.0,-1.0,0.029168623746010078,1.0
47.46504211425781,-2.2641420364379883,-0.791553258895874,-0.0,-0.0,-1.0,0.033055240668205255,1.0
46.252220153808594,-0.8320226669311523,-0.7182478904724121,-0.0,-0.0,-1.0,0.18006647580630566,1.0
45.96427536010742,-1.1336631774902344,-0.7756659984588623,-0.0,-0.0,-1.0,0.19636285794471206,2.0
45.75666046142578,-1.2629241943359375,-0.8044757843017578,-0.0,-0.0,-1.0,0.059945065100964395,2.0
46.52241897583008,-1.1466302871704102,-0.7528994083404541,-0.0,-0.0,-1.0,0.021579768783531027,2.0
46.134117126464844,-1.3756732940673828,-0.8033294677734375,-0.8161691748303965,0.5761597470256533,-0.0436786442555735,0.1848198194542458,4.0
46.034690856933594,-1.4411640167236328,-0.8174145221710205,0.11350335740943479,0.993352220551976,0.019192544939233152,0.1684662917263158,3.0
46.835384368896484,-1.3502235412597656,-0.7707951068878174,0.19074454242973388,0.466263452464723,-0.863837318265973,0.024757893288531386,3.0
47.45234298706055,-0.9049663543701172,-0.6824109554290771,-0.0,-0.0,-1.0,0.1925748554087706,2.0
47.08729934692383,-1.6200141906738281,-0.8021783828735352,-0.0,-0.0,-1.0,0.029246402214808464,2.0
47.328067779541016,-2.069045066833496,-0.8621330261230469,-0.0,-0.0,-1.0,0.031510019093521,2.0
47.595977783203125,-2.144047737121582,-0.8657619953155518,-0.0,-0.0,-1.0,0.04461401887099273,2.0
46.191436767578125,-0.8491182327270508,-0.805782675743103,-0.0,-0.0,-1.0,0.20139161711953305,1.0
45.982444763183594,-1.1457843780517578,-0.8623265027999878,-0.0,-0.0,-1.0,0.12796039432974518,1.0
46.530208587646484,-1.0961380004882812,-0.8303910493850708,-0.0,-0.0,-1.0,0.021720227975593625,2.0
47.359893798828125,-1.0228729248046875,-0.7881568670272827,-0.49544579102122704,0.19459097131532896,-0.8465623556725796,0.11210262982302274,3.0
46.94344711303711,-1.2062711715698242,-0.8321593999862671,-0.0,-0.0,-1.0,0.018399141422690564,1.0
46.71116638183594,-1.1641159057617188,-0.8339768648147583,-0.0,-0.0,-1.0,0.012054248052843462,1.0
47.59975051879883,-1.2454757690429688,-0.81721031665802,-0.0,-0.0,-1.0,0.04455307606801975,1.0
47.41530990600586,-1.5937118530273438,-0.8792835474014282,-0.0,-0.0,-1.0,0.022677089766374725,2.0
47.65167236328125,-1.838547706604004,-0.9126478433609009,-0.0,-0.0,-1.0,0.022959391780541162,1.0
46.629390716552734,-0.6922101974487305,-0.980434775352478,-0.0,-0.0,-1.0,0.028929304774518914,1.0
46.27688980102539,-0.6596546173095703,-0.9954820871353149,-0.0,-0.0,-1.0,0.02762620203238319,1.0
45.77688980102539,-0.6950006484985352,-1.033950924873352,-0.0,-0.0,-1.0,0.13671799947318394,1.0
46.748931884765625,-0.7476644515991211,-0.9837270975112915,-0.6351041262640368,0.7724090808465826,-0.005192362480790241,0.031909594804873105,5.0
46.50308609008789,-0.8207988739013672,-1.0104094743728638,-0.0,-0.0,-1.0,0.0369813375264179,1.0
46.077171325683594,-0.3645286560058594,-0.9563382863998413,-0.0,-0.0,-1.0,0.0776325098017601,1.0
47.0851936340332,-0.5021953582763672,-0.9224458932876587,0.2505720611886027,0.5618098036287592,-0.7884055978354736,0.03131060012282708,5.0
47.45883560180664,-0.6130523681640625,-0.9247831106185913,-0.0,-0.0,-1.0,0.06281305763009871,1.0
47.098697662353516,-0.5760593414306641,-0.9349693059921265,-0.0,-0.0,-1.0,0.01681732328238046,1.0
46.07563781738281,-1.2927675247192383,-0.6469621658325195,-0.0,-0.0,-1.0,0.15710877871653306,1.0
46.24843978881836,-1.5510540008544922,-0.675132155418396,-0.6866196374646871,-0.11979099290312771,-0.7170799059150553,0.12906381039323947,3.0
45.82048416137695,-1.8262958526611328,-0.7356125116348267,-0.6271197023446001,0.7367667120721321,-0.2527759698105028,0.04016643095841828,4.0
46.683349609375,-1.991652488708496,-0.7186073064804077,-0.0,-0.0,-1.0,0.10635095716945703,2.0
46.50584030151367,-1.824193000793457,-0.7022689580917358,0.036521719397533535,0.8863485818814795,-0.46157594760660786,0.1554358075999505,3.0
45.80292892456055,-2.0178871154785156,-0.7635174989700317,-0.0,-0.0,-1.0,0.03660541225250415,1.0
46.836605072021484,-2.103189468383789,-0.7284387350082397,-0.0,-0.0,-1.0,0.060073797208722725,1.0
47.34050369262695,-2.360300064086914,-0.7470637559890747,-0.09058312422580318,0.2726188931914576,-0.9578484413938131,0.030032795263341867,3.0
46.328857421875,-0.8688154220581055,-1.0108060836791992,-0.0,-0.0,-1.0,0.06224922568861429,2.0
45.932865142822266,-0.883702278137207,-1.0374960899353027,-0.0,-0.0,-1.0,0.10329710051858074,1.0
46.23091125488281,-0.5535793304443359,-0.9601309299468994,-0.0,-0.0,-1.0,0.04226180199632136,2.0
46.33264923095703,-0.6790170669555664,-0.976607084274292,-0.0,-0.0,-1.0,0.029043370013264583,2.0
46.09858703613281,-0.7175731658935547,-0.9974675178527832,-0.0,-0.0,-1.0,0.06945312366571518,1.0
45.93748092651367,-2.1147327423095703,-0.7638814449310303,-0.0,-0.0,-1.0,0.06322193815503038,1.0
45.7317008972168,-0.4035816192626953,-0.5296883583068848,-0.0,-0.0,-1.0,0.22790961513916838,1.0
47.55858612060547,-0.8931694030761719,-0.7019140720367432,-0.0,-0.0,-1.0,0.14581569154958768,1.0
47.383270263671875,-1.0529937744140625,-0.7330958843231201,-0.0,-0.0,-1.0,0.09969015053130123,1.0
47.29816818237305,-0.8258466720581055,-0.7000813484191895,-0.0,-0.0,-1.0,0.1337774046453444,1.0
47.3569221496582,-1.8217554092407227,-0.8559136390686035,-0.0,-0.0,-1.0,0.029399881479129995,1.0
47.07479476928711,-1.5864028930664062,-0.8288049697875977,-0.0,-0.0,-1.0,0.03415542707391529,2.0
46.768497467041016,-1.2153091430664062,-0.7823154926300049,-0.0,-0.0,-1.0,0.0209339696153387,1.0
47.636375427246094,-1.0000953674316406,-0.6159929037094116,-0.0,-0.0,-1.0,0.1326568613308362,1.0
47.517066955566406,-2.1510238647460938,-0.7995716333389282,-0.0,-0.0,-1.0,0.050334402068120905,1.0
47.17604064941406,-1.7447948455810547,-0.744841456413269,-0.0,-0.0,-1.0,0.02737023071949196,1.0
46.892425537109375,-1.6760311126708984,-0.7315655946731567,-0.0,-0.0,-1.0,0.03642373726082757,2.0
46.648162841796875,-1.6322917938232422,-0.7221218347549438,-0.0,-0.0,-1.0,0.029570407264438745,1.0
47.35501480102539,-1.9671173095703125,-0.774640679359436,-0.0,-0.0,-1.0,0.036534662652893915,1.0
46.83391571044922,-1.748270034790039,-0.7391566038131714,-0.0,-0.0,-1.0,0.033175472474771234,1.0
46.64020538330078,-0.6336488723754883,-0.9538029432296753,-0.0,-0.0,-1.0,0.020875152888127052,1.0
46.23137664794922,-0.4350700378417969,-0.9163545370101929,-0.0,-0.0,-1.0,0.05263249885457707,2.0
45.79121017456055,-0.6140460968017578,-0.9311109781265259,-0.0,-0.0,-1.0,0.18916869425116087,2.0
46.723880767822266,-2.349029541015625,-0.5225242376327515,-0.0,-0.0,-1.0,0.09791296100849117,1.0
45.742523193359375,-0.6675252914428711,-0.988123893737793,0.4074403983122133,0.18322417009202238,-0.8946626321230113,0.19174290449565337,3.0
46.05302047729492,-2.2687950134277344,-0.5285651683807373,-0.0,-0.0,-1.0,0.1259253124213732,1.0
46.0560302734375,-2.1317882537841797,-0.5871068239212036,-0.0,-0.0,-1.0,0.08764119182948961,1.0
46.586669921875,-1.7521905899047852,-0.6301589012145996,-0.0,-0.0,-1.0,0.085829678236762,1.0
46.83489227294922,-2.2277984619140625,-0.6453307867050171,0.17280965765177744,0.56729645101236,-0.8051779672166001,0.05408849374698741,3.0
45.981163024902344,-1.4119653701782227,-0.7909562587738037,-0.0,-0.0,-1.0,0.09543235045560858,2.0
46.233245849609375,-0.9153738021850586,-0.8228001594543457,-0.0,-0.0,-1.0,0.22227194159597202,2.0
46.254844665527344,-1.2037887573242188,-0.8191351890563965,-0.0,-0.0,-1.0,0.1330249599991746,1.0
47.0592041015625,-0.668609619140625,-0.9013752937316895,0.3455151784554073,0.2573179307460278,-0.9024448703236725,0.01580218248448669,6.0
45.807151794433594,-1.1662073135375977,-0.8020941019058228,-0.0,-0.0,-1.0,0.13978812174044014,1.0
45.99766540527344,-1.3151865005493164,-0.8152245283126831,-0.0,-0.0,-1.0,0.13886678314698167,2.0
45.97214126586914,-0.8574361801147461,-0.8294826745986938,-0.0,-0.0,-1.0,0.11253060314458614,1.0
46.12629699707031,-1.0389347076416016,-0.8378525972366333,0.1057570889696755,0.39031761066535403,-0.9145860270839202,0.16665543423747675,3.0
46.96908950805664,-0.582789421081543,-0.9369148015975952,0.13093543170080776,-0.10164618134218144,-0.9861662976110445,0.01796836217858088,4.0
47.605926513671875,-0.8685722351074219,-0.7165565490722656,-0.0,-0.0,-1.0,0.13493020884347398,1.0
46.80753707885742,-2.276148796081543,-0.5442051887512207,-0.0,-0.0,-1.0,0.11408252180014541,2.0
45.80741882324219,-1.0845680236816406,-0.8410869836807251,-0.0,-0.0,-1.0,0.17285494240040872,1.0
45.933433532714844,-0.7485189437866211,-0.8590461015701294,0.9764685725553225,0.1496927019355165,-0.15524568206238662,0.08509686096354317,3.0
46.02710723876953,-0.9340677261352539,-0.865470290184021,-0.0,-0.0,-1.0,0.12939357387756525,2.0
46.724185943603516,-0.7813243865966797,-0.9383481740951538,-0.0,-0.0,-1.0,0.0414893343556753,2.0
46.837345123291016,-0.735102653503418,-0.9506179094314575,-0.0,-0.0,-1.0,0.06259386653367369,2.0
46.79742431640625,-0.5717144012451172,-0.9494849443435669,-0.0,-0.0,-1.0,0.045486220752380326,2.0
46.85652542114258,-0.44898414611816406,-0.9577280282974243,-0.0,-0.0,-1.0,0.04326751860982828,2.0
45.81525421142578,-1.1246337890625,-0.8916813135147095,0.21985925900431577,-0.13636695604080953,-0.9659533940777045,0.1275820051929325,4.0
45.82677459716797,-0.7169923782348633,-0.8953887224197388,-0.0,-0.0,-1.0,0.10736331719230773,1.0
46.735923767089844,-0.7927312850952148,-0.9915450811386108,-0.40329794598503566,0.26817977541777677,-0.874888778543377,0.03694788313804288,3.0
46.76984405517578,-0.5389642715454102,-0.9974938631057739,-0.0,-0.0,-1.0,0.04423305064113735,2.0
45.920833587646484,-1.2630510330200195,-0.8731915950775146,-0.0,-0.0,-1.0,0.07571142002264251,1.0
46.821598052978516,-0.7933177947998047,-0.9811480045318604,-0.0,-0.0,-1.0,0.06070949342120385,2.0
46.8411979675293,-0.5821437835693359,-0.9862542152404785,-0.35030071463388585,0.047949449488823265,-0.9354091402272632,0.04640355737474432,3.0
46.97623062133789,-0.37697410583496094,-1.0048987865447998,-0.8201677642785076,0.5005937035086442,0.27700321739267564,0.03031145466199674,3.0
45.87065124511719,-1.0994701385498047,-0.8690485954284668,0.8895349533253495,-0.06581778436062052,-0.4521013006775444,0.1466883164144567,3.0
45.977317810058594,-0.8047618865966797,-0.8842391967773438,0.31788967288321723,0.26511117963872294,-0.9103088587423314,0.07877735676692964,5.0
45.907588958740234,-0.6150884628295898,-0.9857391119003296,-0.0,-0.0,-1.0,0.1090382239774839,2.0
46.01413345336914,-0.38204383850097656,-0.9842542409896851,0.9487099150596392,0.3068569982999601,-0.07608074435670294,0.11474787813799252,3.0
46.300960540771484,-0.37337398529052734,-1.0106202363967896,-0.0,-0.0,-1.0,0.03485580037374591,2.0
45.83648681640625,-0.5897159576416016,-0.978056788444519,-0.0,-0.0,-1.0,0.12280157271818017,2.0
46.24629592895508,-2.3427505493164062,-0.6492708921432495,0.5959251089580617,0.10013051803396616,-0.7967729562877822,0.0560307948645245,3.0
46.612586975097656,-2.3438425064086914,-0.6865968704223633,-0.0,-0.0,-1.0,0.08267809572356143,2.0
46.51227951049805,-1.8756914138793945,-0.6712157726287842,-0.40272224230886183,0.7174595851346459,-0.5683894257005002,0.14412909327860426,3.0
46.59526062011719,-2.109365463256836,-0.6822186708450317,0.9212414490045371,-0.38158572647754485,0.07554155137820184,0.11333493108580792,3.0
46.411651611328125,-1.5904741287231445,-0.6579900979995728,-0.0,-0.0,-1.0,0.09502388805294397,1.0
47.45970916748047,-0.9962882995605469,-0.7629369497299194,-0.0,-0.0,-1.0,0.15993611552062348,1.0
46.684051513671875,-0.9111948013305664,-0.947452187538147,-0.0,-0.0,-1.0,0.027096910635254573,2.0
46.85394287109375,-0.7117795944213867,-0.9649423360824585,-0.7882996924830903,0.6100782410535595,0.07992580699661363,0.06260117536552023,3.0
45.90135955810547,-1.3278255462646484,-0.8608585596084595,0.9752861499243033,-0.05355158933097113,-0.21435753554740375,0.0710752866695683,3.0
45.98344802856445,-1.0942802429199219,-0.8657270669937134,-0.0,-0.0,-1.0,0.15937158361624554,2.0
45.770660400390625,-0.4393434524536133,-0.826823353767395,-0.0,-0.0,-1.0,0.26543973697863,1.0
45.94004821777344,-0.7866058349609375,-0.8541654348373413,0.9764685725553225,0.1496927019355165,-0.15524568206238662,0.07029761436351183,3.0
45.88763427734375,-1.3799829483032227,-0.8393139839172363,-0.0,-0.0,-1.0,0.058083676693713,2.0
45.98006820678711,-1.2908611297607422,-0.8482778072357178,-0.0,-0.0,-1.0,0.1103233920407591,2.0
46.09443664550781,-0.9069042205810547,-0.8524229526519775,-0.0,-0.0,-1.0,0.12270682106421614,2.0
46.55988693237305,-0.9250726699829102,-0.9114303588867188,-0.0,-0.0,-1.0,0.03228997926471207,2.0
46.80366134643555,-0.8417520523071289,-0.940418004989624,-0.0,-0.0,-1.0,0.046217533645373086,2.0
47.02928924560547,-0.4617290496826172,-0.9610729217529297,-0.0,-0.0,-1.0,0.03863140921085015,2.0
47.120201110839844,-0.36962223052978516,-0.9709494113922119,-0.0,-0.0,-1.0,0.04292223602338867,2.0
46.175899505615234,-2.329789161682129,-0.6706440448760986,-0.0,-0.0,-1.0,0.08413852128000682,2.0
46.32362747192383,-1.9875669479370117,-0.6735142469406128,0.7287127732032951,-0.4864432896945231,-0.48202761340148687,0.07375968313649263,3.0
46.5683479309082,-2.0274829864501953,-0.701848030090332,-0.0,-0.0,-1.0,0.07823908048786438,1.0
46.41313552856445,-1.3163738250732422,-0.659164309501648,-0.0,-0.0,-1.0,0.0253422614056961,1.0
46.9083251953125,-1.5480451583862305,-0.7226506471633911,0.809931051758301,-0.5756662661138725,-0.11233895787394799,0.045078823060142034,5.0
46.9567985534668,-1.6669998168945312,-0.7321438789367676,-0.0,-0.0,-1.0,0.03706351386885754,1.0
47.65291976928711,-1.234609603881836,-0.7974348068237305,-0.0,-0.0,-1.0,0.07820434907741934,2.0
47.55973815917969,-1.0089826583862305,-0.7799496650695801,0.2697514556312344,-0.942030135365513,0.19953289515281303,0.15963636440401813,4.0
45.98987579345703,-0.4510660171508789,-1.0931355953216553,-0.0,-0.0,-1.0,0.10626723680366346,1.0
46.63811111450195,-2.167173385620117,-0.6616483926773071,-0.0,-0.0,-1.0,0.10507248802143647,2.0
46.553192138671875,-1.8062191009521484,-0.6382192373275757,-0.7947694942071989,0.44392648828257775,-0.41384867292131283,0.12252347441673245,4.0
47.40044403076172,-2.049384117126465,-0.7433643341064453,-0.0,-0.0,-1.0,0.040320654353997766,1.0
46.262115478515625,-2.1494836807250977,-0.6550899744033813,-0.2293685672396613,-0.9731243600918557,-0.02047047039619669,0.06661780044845537,4.0
46.50590896606445,-2.1112585067749023,-0.6786030530929565,-0.0,-0.0,-1.0,0.05473994023237114,1.0
46.57612609863281,-1.974989891052246,-0.6782536506652832,0.2873019361197213,0.9533588920916933,0.09254415363251615,0.137964501932442,4.0
47.10923767089844,-1.7901735305786133,-0.7255955934524536,-0.0,-0.0,-1.0,0.032247732794247135,2.0
47.53886413574219,-1.0456066131591797,-0.7346216440200806,0.7523274695041967,-0.061494687415114595,-0.6559129378577079,0.1388726925460656,3.0
45.91572570800781,-0.5104475021362305,-1.0641950368881226,-0.0,-0.0,-1.0,0.11661728682873801,2.0
46.44497299194336,-1.5368576049804688,-0.6393939256668091,-0.0,-0.0,-1.0,0.06159480520855222,1.0
46.15921401977539,-1.6327543258666992,-0.8571929931640625,-0.0,-0.0,-1.0,0.15522893017658304,1.0
47.16614532470703,-0.6430625915527344,-0.9151244163513184,-0.0,-0.0,-1.0,0.043455587189169254,1.0
47.340858459472656,-0.6180219650268555,-0.9368135929107666,-0.0,-0.0,-1.0,0.1085014985809994,2.0
47.25341796875,-0.3691387176513672,-0.9088437557220459,-0.0,-0.0,-1.0,0.052815933145334455,1.0
46.10851287841797,-1.2752313613891602,-0.8236026763916016,-0.0,-0.0,-1.0,0.15484836149815376,2.0
46.256980895996094,-0.9453573226928711,-0.8177535533905029,0.15218851779945228,-0.04570123499896456,-0.9872943087902288,0.16393755891528636,3.0
46.575584411621094,-1.0405235290527344,-0.8653953075408936,-0.0,-0.0,-1.0,0.02324634850269871,1.0
45.92519760131836,-0.5977210998535156,-0.952440619468689,-0.06349015538990474,0.82135208211713,-0.5668771977866292,0.10523717688745929,5.0
46.35055923461914,-0.6256599426269531,-1.0050159692764282,-0.0,-0.0,-1.0,0.033047577367265143,1.0
46.7468376159668,-0.37584495544433594,-1.0239473581314087,-0.044504350496107625,-0.2313292370177548,-0.9718570609342216,0.01960208080350911,3.0
46.002288818359375,-2.3112096786499023,-0.6369215250015259,-0.0,-0.0,-1.0,0.17380955796515654,1.0
46.46843338012695,-2.300609588623047,-0.6752595901489258,-0.0,-0.0,-1.0,0.03323687679635374,1.0
46.23590087890625,-2.1506290435791016,-0.6409581899642944,-0.0,-0.0,-1.0,0.09561378772988854,2.0
46.53280258178711,-2.031291961669922,-0.6552046537399292,-0.0,-0.0,-1.0,0.12341911087836899,2.0
46.936546325683594,-2.226893424987793,-0.7089909315109253,0.2339934976160507,0.6854346996928441,-0.6895116500323895,0.0391873369608582,3.0
47.27313232421875,-2.3528528213500977,-0.7506157159805298,0.2819008619648289,0.14429910605955779,-0.9485302694241755,0.02839453686165949,4.0
45.78649139404297,-1.4114408493041992,-0.8592414855957031,-0.0,-0.0,-1.0,0.06470321623064251,1.0
45.90518569946289,-1.013096809387207,-0.8223273754119873,-0.0,-0.0,-1.0,0.13972134356738408,2.0
46.129520416259766,-0.8068609237670898,-0.8206534385681152,-0.0,-0.0,-1.0,0.1914064539407746,1.0
46.4990348815918,-0.9950389862060547,-0.8814947605133057,-0.0,-0.0,-1.0,0.026000471405284425,2.0
47.03038024902344,-0.7468852996826172,-0.9100124835968018,-0.0,-0.0,-1.0,0.019252697848587637,2.0
47.2591438293457,-0.5235042572021484,-0.9105081558227539,-0.0,-0.0,-1.0,0.0838195641219966,2.0
46.04632568359375,-0.7658214569091797,-0.8523528575897217,0.6908004908547062,-0.37184882085027193,-0.6200992954899719,0.1788332874036479,3.0
46.42021942138672,-0.8957271575927734,-0.9110567569732666,-0.0,-0.0,-1.0,0.047399609352602935,1.0
46.58097457885742,-0.900848388671875,-0.9303145408630371,-0.0,-0.0,-1.0,0.03338336965373914,2.0
47.05235290527344,-0.45565032958984375,-0.9345171451568604,0.6531925684348056,0.3808078177450341,-0.6544653348236305,0.040112548683269536,3.0
47.03228759765625,-0.6042995452880859,-0.9490776062011719,-0.2592385339568898,-0.6165812112880644,-0.7433861664023792,0.014833926931439404,3.0
45.950706481933594,-2.331808090209961,-0.5473878383636475,-0.5025229855183969,-0.2451380185239916,-0.8290826260993581,0.1776551077875868,3.0
46.535057067871094,-1.9001703262329102,-0.553329348564148,-0.0,-0.0,-1.0,0.13347554328632388,1.0
46.03168869018555,-0.6528711318969727,-0.836897611618042,-0.0,-0.0,-1.0,0.09728839200653015,1.0
45.9224967956543,-1.6254968643188477,-0.7524582147598267,-0.0,-0.0,-1.0,0.08095540269576892,2.0
45.88473129272461,-1.84161376953125,-0.7759181261062622,0.38308632283572935,0.8707170048660335,0.30837763649999494,0.05016050092336662,3.0
45.79469299316406,-0.5661544799804688,-1.036007046699524,-0.059366751448597245,-0.2190768040614623,-0.9738998627911681,0.17798905419200328,3.0
46.0137825012207,-0.3857994079589844,-1.0387402772903442,-0.0,-0.0,-1.0,0.10602336337009514,1.0
46.558135986328125,-1.2308216094970703,-0.7696167230606079,-0.0,-0.0,-1.0,0.02372616864859091,1.0
46.78448486328125,-1.302835464477539,-0.8022333383560181,-0.0,-0.0,-1.0,0.017356195030321823,1.0
46.99454116821289,-1.3863840103149414,-0.8346167802810669,-0.0,-0.0,-1.0,0.028295242847387242,1.0
47.35095977783203,-0.838627815246582,-0.8114310503005981,-0.0,-0.0,-1.0,0.17732397307917336,1.0
47.281333923339844,-1.1646976470947266,-0.8404163122177124,-0.0,-0.0,-1.0,0.03988865374821373,2.0
47.56343078613281,-1.556818962097168,-0.916406512260437,-0.0,-0.0,-1.0,0.014092127645029026,2.0
47.541385650634766,-1.8074684143066406,-0.9429017305374146,-0.0,-0.0,-1.0,0.026410037171731012,1.0
47.420562744140625,-0.4176778793334961,-0.7730902433395386,-0.0,-0.0,-1.0,0.12881851053758944,1.0
47.67445755004883,-1.0072822570800781,-0.8668900728225708,-0.0,-0.0,-1.0,0.15143236690905212,1.0
46.10012435913086,-1.2941808700561523,-0.7294617891311646,-0.1848981585777076,0.31588075749676947,-0.9306084128127359,0.2377387666199049,5.0
46.265159606933594,-1.08343505859375,-0.7211054563522339,-0.0,-0.0,-1.0,0.19178836219679088,1.0
45.81517791748047,-0.4454617500305176,-0.8838686943054199,-0.0,-0.0,-1.0,0.2830189025784843,2.0
45.871341705322266,-0.6743483543395996,-0.9194333553314209,-0.07454385500908609,0.9815793044856675,-0.1759127132580746,0.10856727271703075,3.0
46.14996337890625,-0.5471968650817871,-0.9504849910736084,0.3921380736221378,0.919036946655547,-0.039985271012809756,0.0700455224287116,4.0
46.622833251953125,-0.41789674758911133,-1.0152668952941895,-0.0,-0.0,-1.0,0.01522655917865773,2.0
46.898643493652344,-1.7540764808654785,-0.7436811923980713,-0.14083281353664034,0.12674569947480324,-0.9818867787560828,0.03102561883454697,3.0
47.07136535644531,-1.9835801124572754,-0.7880451679229736,-0.0,-0.0,-1.0,0.023197443347068067,1.0
47.56715774536133,-1.7474932670593262,-0.8353264331817627,-0.0,-0.0,-1.0,0.021509389970020835,2.0
47.69919204711914,-2.0396761894226074,-0.879387617111206,-0.0,-0.0,-1.0,0.03851237841284742,2.0
46.145286560058594,-2.264160633087158,-0.6910507678985596,-0.0,-0.0,-1.0,0.12436687543524377,1.0
46.3526496887207,-1.5079007148742676,-0.6471288204193115,0.16414032581326243,0.6394502276156226,-0.7511067566226817,0.10776303394773963,6.0
46.464561462402344,-1.816495418548584,-0.690753698348999,0.036521719397533535,0.8863485818814795,-0.46157594760660786,0.15454305534135424,3.0
46.38619613647461,-2.026822566986084,-0.6999855041503906,-0.0,-0.0,-1.0,0.08192847945880397,1.0
46.835472106933594,-1.6300740242004395,-0.7238993644714355,-0.0,-0.0,-1.0,0.03226330748955896,2.0
47.514244079589844,-1.018725872039795,-0.765380859375,0.5330751470836398,-0.830529811758446,-0.16140359147873962,0.1372121150093273,5.0
45.8403205871582,-0.4862484931945801,-0.8824321031570435,-0.0,-0.0,-1.0,0.24857759651098182,2.0
45.8336296081543,-0.8005986213684082,-0.9147869348526001,-0.0,-0.0,-1.0,0.0788507866400552,1.0
45.73687744140625,-1.1224441528320312,-0.9331198930740356,-0.0,-0.0,-1.0,0.11857003281640645,2.0
46.06355667114258,-0.5508947372436523,-0.929214596748352,-0.0,-0.0,-1.0,0.055529840898264855,2.0
46.13475799560547,-0.6603655815124512,-0.953520655632019,-0.0,-0.0,-1.0,0.07348752889342794,1.0
46.60874557495117,-0.4422307014465332,-1.0172568559646606,-0.8642009648385786,0.5024606709140891,-0.026267214481810797,0.015737492569568252,3.0
46.43449020385742,-0.6123085021972656,-1.0025397539138794,-0.0,-0.0,-1.0,0.018229809318010305,2.0
47.648529052734375,-2.1375184059143066,-0.9102059602737427,-0.0,-0.0,-1.0,0.037123854219847166,1.0
45.95359802246094,-2.3583178520202637,-0.6816725730895996,-0.0,-0.0,-1.0,0.11514240240114733,2.0
46.36295700073242,-1.3699851036071777,-0.6535836458206177,-0.0,-0.0,-1.0,0.05793535110163733,1.0
46.314002990722656,-1.504289150238037,-0.6577843427658081,0.2475646069757988,0.6640125668451953,-0.7055487768004236,0.09313135051930346,4.0
46.325767517089844,-1.9590001106262207,-0.6991075277328491,0.7287127732032951,-0.4864432896945231,-0.48202761340148687,0.06922268622298478,3.0
46.237220764160156,-2.308128833770752,-0.717416524887085,-0.0,-0.0,-1.0,0.07488082699921955,1.0
46.814308166503906,-1.6177902221679688,-0.7417863607406616,0.702712903928857,0.5453455730729576,-0.4569384866495708,0.03274657663756429,3.0
46.944068908691406,-1.526909351348877,-0.753766655921936,0.9619411635359214,0.07720283152106339,0.2621238651864575,0.04321772086483413,5.0
47.4193000793457,-0.47512292861938477,-0.7448018789291382,-0.0,-0.0,-1.0,0.12403383146948088,1.0
47.358333587646484,-1.213235855102539,-0.7914906740188599,-0.0,-0.0,-1.0,0.03747128786766339,2.0
47.31893539428711,-1.3714299201965332,-0.7979885339736938,-0.0,-0.0,-1.0,0.02152309270635553,2.0
47.660545349121094,-1.9741206169128418,-0.8986059427261353,-0.0,-0.0,-1.0,0.03233796743203207,1.0
47.59904098510742,-2.037597179412842,-0.8945108652114868,-0.0,-0.0,-1.0,0.04178711600006954,2.0
47.70487594604492,-1.8608250617980957,-0.8961373567581177,-0.0,-0.0,-1.0,0.028162764369101194,1.0
45.872135162353516,-0.5223512649536133,-1.0643737316131592,-0.14835502266238515,0.5555448824347384,-0.8181446515448328,0.15157858089588144,3.0
45.894065856933594,-1.5062389373779297,-0.8096082210540771,-0.0,-0.0,-1.0,0.10728722671340742,2.0
45.9127082824707,-1.6701569557189941,-0.8305222988128662,-0.0,-0.0,-1.0,0.04089720411708735,1.0
46.09709548950195,-1.1511330604553223,-0.8077008724212646,0.27549831261369356,-0.6783073446760736,-0.6811753268472825,0.23858777295041805,4.0
46.193878173828125,-1.5672683715820312,-0.8676636219024658,-0.0,-0.0,-1.0,0.17762142636555167,1.0
46.66389083862305,-0.9813809394836426,-0.8915774822235107,-0.41484091227701225,-0.09794371460176735,-0.9046071226069269,0.025777455992039133,3.0
47.09965515136719,-0.47615814208984375,-0.9244518280029297,-0.4808684686757774,0.15803031968251272,-0.8624337272477555,0.03059784053691923,5.0
46.57001495361328,-2.1679253578186035,-0.5849969387054443,-0.0,-0.0,-1.0,0.06994330918832166,1.0
46.85981750488281,-2.2145943641662598,-0.6306781768798828,-0.0,-0.0,-1.0,0.04150564346198617,2.0
47.06768798828125,-2.25028657913208,-0.6637574434280396,-0.0,-0.0,-1.0,0.022467905290209898,1.0
47.25819396972656,-2.330018997192383,-0.6979981660842896,-0.0,-0.0,-1.0,0.026356264190902257,2.0
47.68424987792969,-2.3405566215515137,-0.7614805698394775,-0.0,-0.0,-1.0,0.02764073597620936,1.0
45.779579162597656,-2.303380012512207,-0.7016657590866089,-0.0,-0.0,-1.0,0.1077887437825856,1.0
45.79696273803711,-0.6391239166259766,-0.8593777418136597,-0.0,-0.0,-1.0,0.1073343696169384,1.0
45.827510833740234,-1.0762381553649902,-0.9178012609481812,-0.0,-0.0,-1.0,0.10720914081444485,2.0
45.82331085205078,-1.1943669319152832,-0.9315117597579956,-0.0,-0.0,-1.0,0.07365292961316297,1.0
46.05756378173828,-2.0790042877197266,-0.7220450639724731,-0.0,-0.0,-1.0,0.06260294335679321,1.0
46.33049774169922,-0.7041316032409668,-0.9768482446670532,0.48440321296197064,0.03520033551263823,-0.8741364102083367,0.02904337001326455,4.0
46.296024322509766,-1.7748608589172363,-0.7291059494018555,-0.0,-0.0,-1.0,0.05960115806840228,1.0
46.23643493652344,-1.9012413024902344,-0.7323864698410034,-0.0,-0.0,-1.0,0.061090017991174486,1.0
46.580039978027344,-0.5147356986999512,-1.0082234144210815,-0.0,-0.0,-1.0,0.015411175359998058,2.0
46.562782287597656,-0.7354936599731445,-1.0286699533462524,-0.0,-0.0,-1.0,0.026500843404793212,1.0
46.76616287231445,-1.4010820388793945,-0.7717326879501343,-0.0,-0.0,-1.0,0.023755840841142708,2.0
46.80157470703125,-1.4855341911315918,-0.7861543893814087,-0.0,-0.0,-1.0,0.03121579486354782,1.0
47.26625442504883,-1.2797765731811523,-0.8479043245315552,-0.0,-0.0,-1.0,0.028440276678849036,1.0
47.20552062988281,-1.5411181449890137,-0.861768364906311,-0.0,-0.0,-1.0,0.024502428963314137,1.0
47.37297058105469,-0.5427231788635254,-0.8020685911178589,-0.0,-0.0,-1.0,0.1336064691812004,2.0
47.37834167480469,-1.0879597663879395,-0.8503707647323608,-0.0,-0.0,-1.0,0.08993803251405325,1.0
47.5832633972168,-1.5590205192565918,-0.9298790693283081,-0.0,-0.0,-1.0,0.013039734217929737,2.0
46.14847946166992,-1.608647346496582,-0.6868555545806885,-0.9717553278885733,-0.22944022046038284,-0.05521564955030348,0.13346172270509443,3.0
46.20786666870117,-1.3928356170654297,-0.6747705936431885,-0.0,-0.0,-1.0,0.14242826167215392,1.0
46.277870178222656,-1.5528950691223145,-0.7030048370361328,-0.0,-0.0,-1.0,0.12693155433786563,2.0
46.45641326904297,-0.39852237701416016,-1.0576262474060059,-0.0,-0.0,-1.0,0.029431016495078084,1.0
45.86981201171875,-1.8865156173706055,-0.7324457168579102,-0.0,-0.0,-1.0,0.04144059512632776,2.0
45.796634674072266,-2.1461009979248047,-0.7436032295227051,-0.0,-0.0,-1.0,0.053291806603681616,1.0
45.91904830932617,-0.5726790428161621,-0.9348940849304199,-0.07325043068937863,0.8177866046794224,-0.5708409967852016,0.13392923690684486,4.0
45.89291763305664,-0.8214030265808105,-0.9518494606018066,-0.0,-0.0,-1.0,0.12031107272975973,1.0
46.096317291259766,-1.317072868347168,-0.7276623249053955,-0.29950708675042054,-0.04960645107157309,-0.952803602532211,0.21161657405692894,4.0
46.05961227416992,-1.692051887512207,-0.7536344528198242,-0.9585299770051188,0.2541812207368018,-0.12888828576451636,0.10346778180862307,3.0
46.044525146484375,-1.9713058471679688,-0.7770636081695557,-0.0,-0.0,-1.0,0.045400119172464684,2.0
46.2891845703125,-0.465106725692749,-1.0199525356292725,-0.0,-0.0,-1.0,0.03441356164603199,1.0
46.28410720825195,-0.9766449928283691,-0.7399075031280518,-0.0,-0.0,-1.0,0.14336109367611005,1.0
46.507137298583984,-1.0987820625305176,-0.7984964847564697,-0.0,-0.0,-1.0,0.02337804877668569,2.0
46.98698043823242,-0.9101738929748535,-0.8902838230133057,-0.0,-0.0,-1.0,0.03438124168525313,2.0
46.87318801879883,-1.093245506286621,-0.8786420822143555,-0.0,-0.0,-1.0,0.021543794897340752,2.0
47.18230438232422,-0.7141070365905762,-0.9205710887908936,-0.0,-0.0,-1.0,0.05636050753173387,1.0
46.672508239746094,-2.0291357040405273,-0.5623455047607422,-0.0,-0.0,-1.0,0.10501945181812937,1.0
45.83671569824219,-0.6319215297698975,-0.9331499338150024,-0.37791343162808144,-0.14234996121155583,-0.9148321850143645,0.13904435173681717,4.0
45.71879577636719,-0.9803013801574707,-0.929681658744812,-0.0,-0.0,-1.0,0.0785288092885095,1.0
46.27183532714844,-0.38455891609191895,-1.0406674146652222,-0.0,-0.0,-1.0,0.03890259581091482,2.0
46.33620834350586,-0.39133238792419434,-1.0599931478500366,-0.0,-0.0,-1.0,0.03276886127162267,1.0
47.071144104003906,-0.5166559219360352,-0.9577978849411011,0.3795836376470082,0.7728619261043869,-0.5085279787866959,0.02375295288553461,4.0
47.00290298461914,-0.674705982208252,-0.9489291906356812,0.45388009992383,0.21254933480912588,-0.8653413402613633,0.01571579352581719,4.0
45.86247634887695,-1.5054121017456055,-0.7245393991470337,-0.0,-0.0,-1.0,0.16244403178580757,2.0
45.894432067871094,-1.7696254253387451,-0.7564972639083862,-0.0,-0.0,-1.0,0.05303591850654685,1.0
45.75776290893555,-2.0986275672912598,-0.7564505338668823,-0.0,-0.0,-1.0,0.0530075955985842,1.0
45.985538482666016,-1.0457572937011719,-0.7169603109359741,-0.0,-0.0,-1.0,0.19574731272220705,2.0
46.150390625,-1.2989966869354248,-0.7775996923446655,-0.0,-0.0,-1.0,0.20766937057632112,2.0
46.187137603759766,-1.5888447761535645,-0.8106876611709595,-0.0,-0.0,-1.0,0.19746728623211854,2.0
46.40537643432617,-1.9124870300292969,-0.575867772102356,-0.0,-0.0,-1.0,0.10148100153368471,1.0
46.63022994995117,-0.9964282512664795,-0.8745118379592896,-0.41484091227701225,-0.09794371460176735,-0.9046071226069269,0.02661033141334657,3.0
46.533016204833984,-1.8101699352264404,-0.5950961112976074,0.19414462776232302,0.9644670035113069,0.179196156903405,0.13178162836939203,3.0
46.606468200683594,-2.1171445846557617,-0.6329847574234009,0.6329583904734021,-0.4483941012536333,-0.631115208096166,0.11373613016260718,4.0
47.00898742675781,-0.5158660411834717,-0.9416705369949341,-0.0,-0.0,-1.0,0.022318385283246783,1.0
46.87990188598633,-0.8149762153625488,-0.926024317741394,-0.0,-0.0,-1.0,0.03935188311675262,2.0
47.12966537475586,-1.7934041023254395,-0.7198368310928345,-0.0,-0.0,-1.0,0.02819861662938832,2.0
47.034278869628906,-1.959794044494629,-0.7111412286758423,-0.0,-0.0,-1.0,0.01677827853670854,1.0
47.107181549072266,-2.3253860473632812,-0.7526668310165405,-0.0,-0.0,-1.0,0.01756357052228109,1.0
47.48058319091797,-1.0799298286437988,-0.7543681859970093,-0.0,-0.0,-1.0,0.0657239920631927,1.0
47.451595306396484,-2.009733200073242,-0.8025611639022827,-0.0,-0.0,-1.0,0.04114812192340725,1.0
47.55168914794922,-2.258516311645508,-0.8404639959335327,-0.0,-0.0,-1.0,0.0377110492757159,1.0
47.667015075683594,-1.2461299896240234,-0.8035029172897339,-0.0,-0.0,-1.0,0.07820434907741934,2.0
45.80887985229492,-0.8550169467926025,-0.9368150234222412,-0.0,-0.0,-1.0,0.10041292493262807,2.0
45.88365173339844,-1.114669680595398,-0.8412566184997559,-0.2695846148025505,-0.8923714293582898,-0.3619355847755273,0.18607880906161986,3.0
45.98834991455078,-1.5958939790725708,-0.7747302055358887,-0.0,-0.0,-1.0,0.11017114135140466,1.0
45.84181213378906,-1.829729676246643,-0.7561564445495605,-0.37808899002182794,0.4447522302124617,-0.8119385255949588,0.04016643095841828,5.0
46.171653747558594,-1.165892481803894,-0.7909975051879883,0.27365593618700235,0.11512433877326421,-0.9549129882935063,0.26363300566298753,3.0
46.18583679199219,-1.4015947580337524,-0.8121206760406494,-0.09411249284856536,-0.4052123265474764,-0.9093656080498154,0.1758526089649331,3.0
46.88376235961914,-1.5743733644485474,-0.707343578338623,0.8554291706694307,-0.5146959780744703,-0.057697349347907864,0.04468385387093339,4.0
46.88905334472656,-1.8032902479171753,-0.7239236831665039,-0.0,-0.0,-1.0,0.017663207093614658,1.0
46.6435661315918,-2.1949472427368164,-0.6956859827041626,-0.0,-0.0,-1.0,0.06374973881538772,2.0
47.060359954833984,-1.7885171175003052,-0.7629203796386719,-0.0,-0.0,-1.0,0.03293057496774736,1.0
47.354347229003906,-1.3173786401748657,-0.8036661148071289,-0.0,-0.0,-1.0,0.02034752941362909,1.0
47.704471588134766,-1.6791924238204956,-0.9078965187072754,-0.0,-0.0,-1.0,0.017238854650257367,1.0
47.55231475830078,-1.9946743249893188,-0.8922579288482666,-0.0,-0.0,-1.0,0.04227019693726573,1.0
46.507991790771484,-1.969502568244934,-0.6469287872314453,-0.0,-0.0,-1.0,0.12265491943939458,1.0
46.444583892822266,-2.249088764190674,-0.654330849647522,-0.0,-0.0,-1.0,0.05226709063431664,2.0
46.65904998779297,-1.903006911277771,-0.6772317886352539,-0.0,-0.0,-1.0,0.13254361068598283,2.0
46.047584533691406,-0.9016486406326294,-0.835378885269165,0.6461833835058762,-0.6969038396572196,0.3110821003399617,0.14678126184807497,3.0
46.620914459228516,-0.5483378171920776,-0.9976475238800049,-0.0,-0.0,-1.0,0.01574551054839707,2.0
46.1402587890625,-1.099365472793579,-0.8541347980499268,0.7319719038903845,-0.6677871695271034,0.135194038811131,0.1805481439708122,4.0
47.38610076904297,-0.470806360244751,-0.8544619083404541,-0.0,-0.0,-1.0,0.13124392413363914,1.0
47.58137130737305,-0.5964823961257935,-0.895195722579956,-0.0,-0.0,-1.0,0.08117938131989824,1.0
47.54725646972656,-0.9223172664642334,-0.8796989917755127,-0.0,-0.0,-1.0,0.0744103532437096,1.0
45.7186393737793,-0.7023434638977051,-1.055123209953308,-0.0,-0.0,-1.0,0.17913039837194877,1.0
46.21793746948242,-0.5715327262878418,-0.5677984952926636,-0.0,-0.0,-1.0,0.13783226062238138,1.0
46.00860595703125,-0.8705852031707764,-0.7809914350509644,-0.0,-0.0,-1.0,0.118110067274394,1.0
45.88949966430664,-0.48314619064331055,-0.7849756479263306,-0.0,-0.0,-1.0,0.13707970956605858,1.0
45.943359375,-0.9734008312225342,-0.768964409828186,-0.0,-0.0,-1.0,0.1512826180476642,1.0
45.976898193359375,-0.9729337692260742,-1.3164539337158203,-0.0,-0.0,-1.0,0.1415405465152482,1.0
45.93574523925781,-1.341914415359497,-1.2775492668151855,-0.0,-0.0,-1.0,0.12033391194004985,1.0
45.957767486572266,-1.0346648693084717,-1.3082952499389648,-0.0,-0.0,-1.0,0.0925356533246668,1.0
47.156009674072266,-0.4094221591949463,-0.8979959487915039,0.6989534286092188,0.4955033744685453,0.5156942025325685,0.05272446725470527,3.0
46.22618103027344,-0.807013750076294,-0.7745063304901123,-0.0,-0.0,-1.0,0.19382234367366877,1.0
46.11427688598633,-0.7017431259155273,-0.772568941116333,-0.0,-0.0,-1.0,0.11393454173533862,1.0
46.14796447753906,-1.557729959487915,-0.7049765586853027,-0.9167627085664083,-0.11512548421447735,-0.382481710760613,0.18135711928122547,4.0
