x,y,z,nx,ny,nz,curvature,density
18.8085880279541,3.7706737518310547,-0.2215290069580078,0.4001532035765537,-0.8537275481719871,0.33320667334203935,0.19533998188698176,8.0
18.867584228515625,3.8467559814453125,-0.23393702507019043,0.3450305731618964,0.10139183009200037,-0.9330989231448978,0.16392490262188486,6.0
18.183774948120117,3.324552536010742,-0.16289901733398438,-0.45317605376720216,0.8770084216381606,-0.15964865382372803,0.14281392889741,3.0
17.920026779174805,3.2802352905273438,-0.16765379905700684,-0.0,-0.0,-1.0,0.11631065428200515,2.0
17.76592445373535,3.4159488677978516,-0.2023911476135254,-0.0,-0.0,-1.0,0.1156885118255929,2.0
18.476526260375977,4.981992721557617,0.19710135459899902,-0.0,-0.0,-1.0,0.15590929952043206,1.0
18.411861419677734,4.955501556396484,0.19838404655456543,-0.0,-0.0,-1.0,0.12834922626936437,2.0
18.219284057617188,5.047430038452148,0.1747133731842041,-0.0,-0.0,-1.0,0.22677688634382825,1.0
18.55313491821289,5.033275604248047,0.8569858074188232,-0.0,-0.0,-1.0,0.25639245744196887,2.0
18.421300888061523,5.048999786376953,0.8491544723510742,-0.0,-0.0,-1.0,0.182884930482296,2.0
18.260116577148438,5.151819229125977,0.8290567398071289,0.5250906537152787,0.128825484511375,-0.841239442680424,0.10745691656173827,3.0
18.272193908691406,4.837501525878906,1.520717978477478,-0.0,-0.0,-1.0,0.09676086513649544,1.0
19.607481002807617,5.626869201660156,-0.722205638885498,-0.0,-0.0,-1.0,0.02191105992020422,1.0
19.371198654174805,5.486576080322266,-0.7015380859375,-0.0,-0.0,-1.0,0.028910695491335438,2.0
19.067434310913086,5.272375106811523,-0.6684772968292236,-0.0,-0.0,-1.0,0.02842355119041245,2.0
18.647676467895508,4.949151992797852,-0.6184992790222168,-0.18268477176536288,-0.6121041007296756,-0.7693860175717729,0.0684823501535712,5.0
18.83890151977539,3.865774154663086,-0.3782668113708496,0.7260086160488801,-0.5482801888495331,0.4150907418118483,0.25164711036587345,3.0
18.401140213012695,4.814130783081055,-0.6017026901245117,-0.0,-0.0,-1.0,0.07636656835576885,2.0
18.559926986694336,5.076745986938477,-0.0038046836853027344,-0.0,-0.0,-1.0,0.14994863008077744,2.0
18.38127326965332,5.170347213745117,-0.029312610626220703,-0.0,-0.0,-1.0,0.08147842869555248,2.0
18.441747665405273,4.956798553466797,0.011616945266723633,-0.0,-0.0,-1.0,0.10960596978823253,1.0
18.19169807434082,5.143529891967773,-0.03438568115234375,-0.0,-0.0,-1.0,0.16369691764580016,1.0
18.311595916748047,3.3321590423583984,-0.2895328998565674,-0.0,-0.0,-1.0,0.18757801956927322,1.0
18.472135543823242,5.026508331298828,0.6371703147888184,-0.0,-0.0,-1.0,0.208007975640745,2.0
18.13167953491211,5.159429550170898,0.6008732318878174,-0.9536205012394413,0.2760316871400585,-0.12006018203571782,0.21037478735247853,3.0
19.975608825683594,3.3634490966796875,-0.6011307239532471,-0.1496070513649244,0.6876049062897485,-0.7105049071105413,0.11598618495341288,5.0
19.627527236938477,3.2846946716308594,-0.5861694812774658,-0.0,-0.0,-1.0,0.032560297023463775,1.0
18.597166061401367,5.106599807739258,-0.44930601119995117,-0.0,-0.0,-1.0,0.20417259098261895,1.0
19.291820526123047,3.164419174194336,-0.5622577667236328,-0.0,-0.0,-1.0,0.011969904803664647,1.0
19.16478157043457,3.186277389526367,-0.5704491138458252,-0.0,-0.0,-1.0,0.018704601928384277,1.0
18.10409927368164,3.3762950897216797,-0.0941004753112793,-0.0,-0.0,-1.0,0.1294231124346074,1.0
17.842031478881836,3.338359832763672,-0.0968465805053711,-0.9432570749305846,0.2971157813918315,0.14828453405975567,0.17816951922540564,4.0
17.71415138244629,3.508742332458496,-0.13940739631652832,-0.0,-0.0,-1.0,0.07877805244181492,1.0
18.477895736694336,5.034215927124023,0.17185211181640625,-0.0,-0.0,-1.0,0.15533573276529813,1.0
18.3902530670166,4.996488571166992,0.17522454261779785,-0.0,-0.0,-1.0,0.11738059233945172,2.0
18.234169006347656,5.100963592529297,0.15012860298156738,-0.0,-0.0,-1.0,0.18392929617893822,1.0
18.47224235534668,5.057241439819336,0.7706108093261719,-0.0,-0.0,-1.0,0.12522008991913333,1.0
18.197019577026367,5.165866851806641,0.7435610294342041,-0.0,-0.0,-1.0,0.12466745015235199,2.0
19.709444046020508,5.532758712768555,-0.7132744789123535,-0.0,-0.0,-1.0,0.03633076198030132,2.0
19.65890121459961,5.572408676147461,-0.7242250442504883,-0.0,-0.0,-1.0,0.027835098004355616,1.0
19.31171417236328,5.408346176147461,-0.6950747966766357,-0.0,-0.0,-1.0,0.029766189499508183,2.0
18.9853515625,5.234870910644531,-0.664370059967041,-0.0,-0.0,-1.0,0.035993038959403846,1.0
18.633642196655273,4.993072509765625,-0.6194818019866943,-0.60354468947727,-0.20030467745252897,-0.7717589286781354,0.07451990868059873,4.0
18.476343154907227,4.816921234130859,-0.5834453105926514,0.6384483874779187,0.015503283256965908,-0.7695084825621485,0.08472972731776368,4.0
18.735990524291992,3.8191967010498047,-0.3323526382446289,0.9507918345287795,-0.291273073233393,-0.1056166852470414,0.19245118241129835,6.0
18.392471313476562,4.525185585021973,-0.5165483951568604,0.8745305141640056,0.03839131183632069,-0.4834485360113592,0.21937341351370557,4.0
18.177715301513672,3.35524845123291,-0.24318790435791016,-0.0,-0.0,-1.0,0.19836296013755522,2.0
18.025737762451172,3.3321657180786133,-0.24461865425109863,-0.0,-0.0,-1.0,0.08045949845699192,1.0
17.800891876220703,3.306229591369629,-0.2494063377380371,-0.0,-0.0,-1.0,0.21031218766963736,2.0
18.39276885986328,5.072236061096191,-0.06147193908691406,0.1650606478858178,0.9805969273105409,-0.10575749934940795,0.08266498044642699,3.0
18.786346435546875,4.035215377807617,0.1681056022644043,0.6094959290921221,-0.2519071551944907,-0.7517030647682299,0.15862434191559718,4.0
18.252826690673828,5.182184219360352,-0.09065413475036621,-0.0,-0.0,-1.0,0.15034540960797196,2.0
18.39725112915039,4.951416015625,0.5383615493774414,-0.0,-0.0,-1.0,0.1947161117300572,2.0
18.195274353027344,4.997527122497559,0.5204150676727295,-0.0,-0.0,-1.0,0.1103840763794319,1.0
18.356277465820312,5.135379791259766,1.0799164772033691,-0.0,-0.0,-1.0,0.11251603245819985,1.0
18.23504638671875,5.036391258239746,1.0867667198181152,-0.0,-0.0,-1.0,0.24070782694818618,1.0
18.706546783447266,5.057980537414551,-0.4374518394470215,-0.0,-0.0,-1.0,0.23874165684112103,1.0
18.427440643310547,5.000700950622559,0.12476062774658203,-0.0,-0.0,-1.0,0.14296296713139098,1.0
18.21940040588379,5.001352310180664,0.1254582405090332,-0.0,-0.0,-1.0,0.1300501053165686,1.0
18.1015682220459,3.360515594482422,-0.026410818099975586,-0.0,-0.0,-1.0,0.15313604332693634,2.0
17.826595306396484,3.3787355422973633,-0.028991222381591797,-0.0,-0.0,-1.0,0.15672498348954653,1.0
17.756315231323242,3.5731029510498047,-0.07531476020812988,-0.0,-0.0,-1.0,0.061308376171783835,1.0
18.440845489501953,4.981929779052734,0.6653432846069336,-0.0,-0.0,-1.0,0.09949720139257279,2.0
18.171804428100586,5.1183624267578125,0.6424036026000977,-0.0,-0.0,-1.0,0.1460827642364931,2.0
18.351299285888672,4.956360816955566,1.1990773677825928,-0.22280611759224517,-0.5282990437988498,-0.8193030906109725,0.2025973167531691,3.0
18.300193786621094,4.963370323181152,1.1978850364685059,-0.0,-0.0,-1.0,0.15997459000526462,1.0
18.6246395111084,5.014653205871582,-0.34554481506347656,-0.0,-0.0,-1.0,0.13177638013478232,1.0
18.059675216674805,5.174953460693359,-0.37849926948547363,-0.0,-0.0,-1.0,0.21344137863884244,1.0
18.30998420715332,5.080097198486328,0.15671253204345703,-0.0,-0.0,-1.0,0.14441296166730497,2.0
18.87649154663086,3.78656005859375,-0.04547691345214844,-0.3546646928311693,0.9272540958199758,-0.12005331084168892,0.13685563024902064,3.0
18.183917999267578,3.6284360885620117,0.009469032287597656,0.8611195271422286,0.5068031745943844,0.04029518824126143,0.22770031549411016,8.0
18.055112838745117,3.5327186584472656,0.03540444374084473,0.5719677760597072,-0.030899655980018186,0.8196938906748229,0.16851403581671012,3.0
18.443021774291992,4.928739547729492,0.18831968307495117,-0.0,-0.0,-1.0,0.12781687388836463,2.0
18.266206741333008,5.015453338623047,0.17092084884643555,-0.0,-0.0,-1.0,0.14265994232160492,1.0
18.394451141357422,5.002392768859863,0.6769013404846191,-0.0,-0.0,-1.0,0.07064596022119385,2.0
18.17898178100586,5.155722618103027,0.6491978168487549,-0.0,-0.0,-1.0,0.15338640531810158,2.0
18.347333908081055,4.994352340698242,1.1756582260131836,-0.22280611759224517,-0.5282990437988498,-0.8193030906109725,0.19126430366552968,3.0
18.674497604370117,5.099051475524902,-0.09316730499267578,-0.0,-0.0,-1.0,0.17149982945740072,1.0
18.485095977783203,5.191733360290527,-0.11167287826538086,-0.0,-0.0,-1.0,0.10807853288365112,1.0
18.917387008666992,3.829648971557617,0.2093818187713623,-0.510595024476875,-0.6411327501824148,-0.5729236577616544,0.0761161909013442,4.0
18.556053161621094,4.948236465454102,0.4272453784942627,-0.0,-0.0,-1.0,0.09823840363397772,2.0
18.386703491210938,5.100455284118652,0.39734983444213867,-0.0,-0.0,-1.0,0.14997266389466307,1.0
18.763410568237305,5.066195487976074,0.8787310123443604,-0.0,-0.0,-1.0,0.17558411931990353,1.0
18.592601776123047,5.0576171875,0.881385326385498,-0.0,-0.0,-1.0,0.1612462984459079,1.0
18.33902931213379,5.1672868728637695,0.8630807399749756,-0.0,-0.0,-1.0,0.17010177969443066,1.0
18.718767166137695,4.958780288696289,1.3676328659057617,-0.0,-0.0,-1.0,0.19385491333695806,1.0
18.70168685913086,4.991966724395752,-0.0012063980102539062,-0.0,-0.0,-1.0,0.12083738854131032,1.0
18.501296997070312,5.09775972366333,-0.02062678337097168,-0.0,-0.0,-1.0,0.1490095523996607,1.0
18.954204559326172,3.884848117828369,0.26433610916137695,0.3226802851966179,0.14449692124931365,-0.9354133168257225,0.18535979039107922,7.0
18.616046905517578,4.963746547698975,0.46562623977661133,-0.0,-0.0,-1.0,0.19311831259276888,2.0
18.446453094482422,5.022501468658447,0.4571661949157715,-0.0,-0.0,-1.0,0.18552881569574378,1.0
18.775972366333008,4.992954730987549,0.9071884155273438,0.15330812310393288,-0.7477314363953378,-0.6460606151256352,0.19762178317897613,3.0
18.635663986206055,5.029306888580322,0.9029543399810791,-0.0,-0.0,-1.0,0.09691831750897852,1.0
18.44731903076172,5.177652835845947,0.878333568572998,0.48628495491182794,-0.7774390254773195,-0.3988928481325247,0.19747012421014937,4.0
17.789932250976562,4.87368631362915,0.9404778480529785,-0.0,-0.0,-1.0,0.19311510155345912,1.0
18.79610824584961,4.87536096572876,1.371298909187317,-0.0,-0.0,-1.0,0.15044628141676006,2.0
18.733278274536133,4.825779438018799,1.3791183233261108,-0.0,-0.0,-1.0,0.13917537845336553,1.0
18.64490509033203,4.990599632263184,0.22178316116333008,-0.0,-0.0,-1.0,0.08970320400400587,2.0
18.530118942260742,5.079937934875488,0.20641469955444336,-0.0,-0.0,-1.0,0.14806746002620894,1.0
18.814260482788086,5.021726608276367,0.6350655555725098,-0.0,-0.0,-1.0,0.15133654932712792,1.0
18.612838745117188,4.99565315246582,0.6501274108886719,-0.0,-0.0,-1.0,0.15368799277995465,2.0
18.466533660888672,5.117575645446777,0.6305203437805176,-0.0,-0.0,-1.0,0.2076572244591121,2.0
18.810014724731445,5.075392723083496,1.050675630569458,-0.0,-0.0,-1.0,0.21082043821739316,1.0
18.738622665405273,5.118259429931641,1.0455045700073242,-0.0,-0.0,-1.0,0.16586595202606247,1.0
18.496305465698242,4.9007463455200195,1.0921075344085693,-0.0,-0.0,-1.0,0.12176597532682193,1.0
18.475788116455078,5.176860809326172,1.0433261394500732,-0.0,-0.0,-1.0,0.22780025087909933,1.0
18.754610061645508,4.825889587402344,1.509188175201416,-0.0,-0.0,-1.0,0.20480227094823356,1.0
18.778091430664062,4.886906623840332,0.4720602035522461,-0.0,-0.0,-1.0,0.1755466497746291,1.0
18.665372848510742,4.95458984375,0.46443605422973633,-0.0,-0.0,-1.0,0.21627034195656894,1.0
18.49661636352539,4.991633415222168,0.46755313873291016,-0.0,-0.0,-1.0,0.15917291454568683,1.0
18.740097045898438,5.004412651062012,0.8497860431671143,-0.0,-0.0,-1.0,0.17732864513262575,1.0
18.49917221069336,5.089716911315918,0.8456785678863525,-0.45215665074217837,0.7216712693458215,-0.5241611795911696,0.17629528145362597,3.0
18.583492279052734,5.011411666870117,1.2518749237060547,-0.0,-0.0,-1.0,0.17539967746457136,2.0
18.54673957824707,5.022407531738281,1.2514322996139526,-0.0,-0.0,-1.0,0.1959620421201921,2.0
18.723920822143555,4.979582786560059,0.6605665683746338,-0.0,-0.0,-1.0,0.17149774812590038,2.0
18.49728775024414,4.993908882141113,0.6781682968139648,0.016027493862729426,-0.08564683948637523,-0.9961966363758087,0.10434567614696837,5.0
18.195003509521484,5.327126502990723,0.6267507076263428,-0.0,-0.0,-1.0,0.16882955072752176,1.0
18.776288986206055,4.834573745727539,1.060490608215332,0.7612283246344246,-0.10393296869689518,-0.6401010668575059,0.15278429971064103,3.0
18.64045524597168,4.985145568847656,1.0415685176849365,-0.0,-0.0,-1.0,0.1757894157061765,2.0
18.372222900390625,4.879670143127441,1.0816123485565186,-0.0,-0.0,-1.0,0.19428370848547674,1.0
18.77295684814453,4.753931999206543,1.440711259841919,-0.0,-0.0,-1.0,0.25851693120300806,2.0
18.743091583251953,4.758167743682861,1.118518590927124,-0.0,-0.0,-1.0,0.11316032001776645,1.0
18.781715393066406,4.7472124099731445,1.460227370262146,-0.0,-0.0,-1.0,0.2711834252917107,2.0
18.687246322631836,4.7890424728393555,0.706857442855835,-0.0,-0.0,-1.0,0.11611362368345159,1.0
18.803190231323242,4.842820644378662,1.341759204864502,-0.0,-0.0,-1.0,0.11508363596809373,2.0
18.770830154418945,4.735715389251709,1.376570224761963,-0.0,-0.0,-1.0,0.21262434790061757,1.0
18.720319747924805,4.737055778503418,0.6499518156051636,-0.0,-0.0,-1.0,0.1053879155138754,1.0
18.594684600830078,4.984076976776123,0.6385343074798584,0.38546241980038776,0.27696703818216717,-0.8801749727652037,0.11568214809672053,3.0
18.388652801513672,5.244503021240234,0.6368269920349121,-0.0,-0.0,-1.0,0.16328526016928577,1.0
18.42805290222168,5.095889091491699,0.6520043611526489,-0.0,-0.0,-1.0,0.21337312574844067,2.0
18.266040802001953,5.190755367279053,0.6660866737365723,-0.0,-0.0,-1.0,0.12843397158661907,1.0
18.778915405273438,4.727729320526123,1.0969886779785156,-0.0,-0.0,-1.0,0.08145086630859472,1.0
18.544475555419922,5.0004754066467285,0.9490346908569336,-0.0,-0.0,-1.0,0.12909256169230607,2.0
18.39362907409668,5.216294288635254,0.9442490339279175,-0.0,-0.0,-1.0,0.25210935494885767,1.0
18.43981170654297,5.002535343170166,0.9642957448959351,-0.0,-0.0,-1.0,0.16624180314042838,2.0
18.48935317993164,4.968642234802246,0.7449463605880737,-0.0,-0.0,-1.0,0.1298400401664502,1.0
18.347583770751953,5.005311965942383,0.7682945728302002,-0.0,-0.0,-1.0,0.0720055762800871,1.0
18.673967361450195,4.9659881591796875,1.012702226638794,-0.6657002253135189,-0.6702609725892845,-0.32801438785699166,0.1507880076393607,3.0
18.54412269592285,5.201243877410889,1.013134479522705,-0.0,-0.0,-1.0,0.17278785057081136,2.0
18.708545684814453,4.175165176391602,0.6032013893127441,-0.0,-0.0,-1.0,0.13025569722830535,2.0
18.610321044921875,4.281736373901367,0.6176692247390747,-0.0,-0.0,-1.0,0.13748517118059725,1.0
18.310977935791016,5.173762321472168,0.6054866313934326,-0.0,-0.0,-1.0,0.24482722159500064,1.0
18.302812576293945,5.36890983581543,0.586857795715332,-0.0,-0.0,-1.0,0.2308754526121458,1.0
18.165245056152344,4.266989707946777,0.7181110382080078,-0.0,-0.0,-1.0,0.17227678305872338,1.0
18.089717864990234,4.587350845336914,0.7088500261306763,-0.0,-0.0,-1.0,0.1581495554876061,1.0
17.989831924438477,4.288696765899658,0.7554614543914795,-0.0,-0.0,-1.0,0.1691915064065424,2.0
17.9893798828125,4.3966851234436035,0.7469401359558105,-0.0,-0.0,-1.0,0.18047995165615294,1.0
18.607460021972656,5.246844291687012,1.1497056484222412,-0.0,-0.0,-1.0,0.18728904681992542,1.0
18.498327255249023,5.528417587280273,0.8380646705627441,-0.0,-0.0,-1.0,0.09360057836583335,1.0
18.323543548583984,5.228113174438477,0.8970737457275391,-0.0,-0.0,-1.0,0.2414369592463899,1.0
18.387725830078125,5.405635833740234,0.8693259954452515,-0.0,-0.0,-1.0,0.20121849703778416,1.0
18.202144622802734,4.362465858459473,0.9880276918411255,-0.0,-0.0,-1.0,0.17508599522359442,2.0
18.157615661621094,4.460868835449219,0.9894324541091919,-0.0,-0.0,-1.0,0.18571108833811492,1.0
19.166622161865234,4.393439292907715,0.6295499801635742,-0.0,-0.0,-1.0,0.07007686466787597,2.0
18.793785095214844,5.552814960479736,0.6361844539642334,-0.0,-0.0,-1.0,0.1844159353745943,1.0
19.004384994506836,4.0056328773498535,0.51544189453125,-0.0,-0.0,-1.0,0.11521010304899669,2.0
19.01188087463379,4.208532333374023,0.505859375,-0.0,-0.0,-1.0,0.16386750283324,1.0
18.698875427246094,5.131959438323975,0.5235497951507568,-0.0,-0.0,-1.0,0.24071406952119678,2.0
18.687410354614258,5.3274688720703125,0.5122385025024414,-0.0,-0.0,-1.0,0.13905425817937223,1.0
19.17629623413086,4.144603252410889,0.9659512042999268,-0.0,-0.0,-1.0,0.15485450137701126,1.0
19.23428726196289,4.309765338897705,0.9500366449356079,-0.0,-0.0,-1.0,0.08005448206180191,1.0
18.859542846679688,5.11385440826416,0.9759082794189453,-0.0,-0.0,-1.0,0.21238943215154996,1.0
18.792461395263672,5.479455471038818,0.9651808738708496,-0.0,-0.0,-1.0,0.15664502943039335,1.0
19.14345932006836,4.203902244567871,0.9694836139678955,-0.0,-0.0,-1.0,0.10444761278077593,1.0
18.693798065185547,5.111179351806641,0.8465144634246826,-0.0,-0.0,-1.0,0.12350949196099038,1.0
18.710416793823242,5.347354888916016,0.9871033430099487,-0.0,-0.0,-1.0,0.2136969209426574,2.0
18.931194305419922,5.088857650756836,1.6038150787353516,-0.0,-0.0,-1.0,0.10359329889127157,1.0
19.254831314086914,5.159294128417969,0.41395998001098633,-0.0,-0.0,-1.0,0.21682048289254996,2.0
19.18411636352539,5.457526206970215,0.40729379653930664,-0.0,-0.0,-1.0,0.1707527614297539,1.0
19.154224395751953,3.9023094177246094,0.5015995502471924,-0.0,-0.0,-1.0,0.17962126996190989,1.0
19.18572235107422,5.229789733886719,0.4241149425506592,-0.0,-0.0,-1.0,0.24380578878468362,1.0
19.163076400756836,5.338405609130859,0.421032190322876,-0.0,-0.0,-1.0,0.19705671494281546,1.0
19.200571060180664,5.181005001068115,0.763068437576294,-0.0,-0.0,-1.0,0.21594738656532794,2.0
19.1968994140625,5.424051761627197,0.7471964359283447,-0.0,-0.0,-1.0,0.23251855110050965,1.0
19.028465270996094,3.599055767059326,0.8666634559631348,-0.0,-0.0,-1.0,0.2133450689828086,2.0
19.04304313659668,3.752626895904541,0.6963647603988647,-0.0,-0.0,-1.0,0.15082321432360019,1.0
19.19066619873047,5.161109447479248,0.7662149667739868,-0.0,-0.0,-1.0,0.2207530497707361,2.0
18.87185287475586,3.4458742141723633,0.5764815807342529,-0.0,-0.0,-1.0,0.1418853996891849,1.0
19.508695602416992,5.282725811004639,1.045790433883667,-0.0,-0.0,-1.0,0.192401056698303,1.0
19.493642807006836,5.363595485687256,1.0430681705474854,-0.0,-0.0,-1.0,0.20906112941214755,1.0
19.27564811706543,3.5997610092163086,1.1536545753479004,-0.0,-0.0,-1.0,0.16197414528495338,1.0
19.62865447998047,4.836084842681885,0.23324155807495117,-0.0,-0.0,-1.0,0.09852806172544831,1.0
19.64942169189453,5.207881927490234,0.20837640762329102,-0.0,-0.0,-1.0,0.19802943637026066,1.0
19.470298767089844,4.8865742683410645,0.2676990032196045,-0.0,-0.0,-1.0,0.1740869315823819,1.0
19.42184829711914,5.067240238189697,0.26942920684814453,-0.0,-0.0,-1.0,0.1357932815250082,1.0
18.923019409179688,3.701389789581299,0.43435049057006836,-0.0,-0.0,-1.0,0.09918172896381364,2.0
18.890520095825195,3.5318760871887207,0.4440009593963623,-0.0,-0.0,-1.0,0.09469516755151962,1.0
19.70455551147461,5.275389194488525,0.5546556711196899,-0.0,-0.0,-1.0,0.16982198877610133,1.0
19.37482452392578,4.8607940673828125,0.6417074203491211,-0.0,-0.0,-1.0,0.2803343966655595,2.0
19.422035217285156,5.04841947555542,0.6228346824645996,-0.0,-0.0,-1.0,0.23459246905449527,1.0
19.000171661376953,3.49452543258667,0.7584482431411743,-0.0,-0.0,-1.0,0.21033085221434564,1.0
19.01553726196289,3.7501039505004883,0.7509996891021729,-0.0,-0.0,-1.0,0.20645662831876557,2.0
19.574920654296875,4.881044864654541,0.9542328119277954,-0.0,-0.0,-1.0,0.23071627769187167,1.0
19.55854034423828,5.098926544189453,0.9458246231079102,-0.0,-0.0,-1.0,0.1800718217273115,1.0
19.355857849121094,3.77215838432312,1.0306031703948975,-0.0,-0.0,-1.0,0.19279652387057541,1.0
19.252660751342773,3.6518912315368652,1.0499978065490723,-0.0,-0.0,-1.0,0.20260874653110936,1.0
19.2346248626709,3.736177444458008,1.0508463382720947,-0.0,-0.0,-1.0,0.1926088725853987,1.0
19.612998962402344,4.72095251083374,1.6530637741088867,-0.0,-0.0,-1.0,0.11228232758737808,1.0
19.526287078857422,5.352892875671387,0.4624614715576172,-0.0,-0.0,-1.0,0.265979986925301,1.0
19.396453857421875,5.121984481811523,0.4922926425933838,-0.0,-0.0,-1.0,0.28374791427935653,1.0
19.416725158691406,5.270817756652832,0.48637962341308594,-0.0,-0.0,-1.0,0.2773551762781691,1.0
19.017498016357422,3.532200813293457,0.5503404140472412,-0.0,-0.0,-1.0,0.14476363808267495,1.0
19.021224975585938,3.770151376724243,0.5566623210906982,-0.0,-0.0,-1.0,0.1482903405186223,1.0
19.472030639648438,5.129591941833496,0.8371435403823853,-0.0,-0.0,-1.0,0.22962166886835644,1.0
19.572237014770508,5.361545562744141,0.8165358304977417,-0.0,-0.0,-1.0,0.26408092663238697,1.0
19.240394592285156,3.9500694274902344,0.8749794960021973,-0.0,-0.0,-1.0,0.14780180987706207,1.0
19.447315216064453,5.085628509521484,0.8419691324234009,-0.0,-0.0,-1.0,0.2386779019403192,1.0
19.121736526489258,3.5782439708709717,0.887418270111084,-0.0,-0.0,-1.0,0.20481459632959706,1.0
19.095306396484375,3.7735962867736816,0.8959071636199951,-0.0,-0.0,-1.0,0.23080722303641363,2.0
19.79119873046875,5.593458652496338,0.15123510360717773,-0.0,-0.0,-1.0,0.2175126490279722,1.0
19.741661071777344,5.214662075042725,0.15907788276672363,-0.0,-0.0,-1.0,0.13445838034699562,1.0
19.74203872680664,5.563312530517578,0.16222810745239258,-0.0,-0.0,-1.0,0.19520650796778768,1.0
19.63471221923828,5.428728103637695,0.18549036979675293,-0.0,-0.0,-1.0,0.20603401229262575,1.0
19.152816772460938,3.9397239685058594,0.25022077560424805,-0.0,-0.0,-1.0,0.11567138004505195,1.0
19.177658081054688,3.408923625946045,0.597766637802124,-0.0,-0.0,-1.0,0.23694602283338298,1.0
19.07320785522461,3.7051916122436523,0.25532102584838867,-0.0,-0.0,-1.0,0.2221842084278081,1.0
19.061664581298828,3.9126198291778564,0.26863741874694824,-0.0,-0.0,-1.0,0.16543304192161956,1.0
19.792644500732422,5.449967384338379,0.9165780544281006,-0.0,-0.0,-1.0,0.2584091569827652,1.0
19.840288162231445,5.635753631591797,0.908576488494873,-0.0,-0.0,-1.0,0.20099437998477748,1.0
19.620037078857422,5.4598517417907715,0.5686485767364502,-0.0,-0.0,-1.0,0.22057642512091277,1.0
19.19198989868164,3.7104015350341797,0.9823763370513916,-0.0,-0.0,-1.0,0.184369209694773,1.0
19.14371681213379,3.9083669185638428,0.6253910064697266,-0.0,-0.0,-1.0,0.17504707922108143,1.0
19.138057708740234,3.4617230892181396,0.6073464155197144,-0.0,-0.0,-1.0,0.12584417894201974,1.0
19.090993881225586,3.6940438747406006,0.6261004209518433,-0.0,-0.0,-1.0,0.13635346308868804,1.0
20.160396575927734,4.938941955566406,-0.2990455627441406,-0.0,-0.0,-1.0,0.1605549512430187,1.0
19.800230026245117,4.857605934143066,-0.22512030601501465,-0.0,-0.0,-1.0,0.11367825019975202,1.0
19.872947692871094,5.195130348205566,-0.21020245552062988,-0.0,-0.0,-1.0,0.10622786893078667,1.0
19.696407318115234,4.788086891174316,-0.20845484733581543,-0.0,-0.0,-1.0,0.062672501971023,1.0
19.19021987915039,3.5472183227539062,-0.2565762996673584,-0.0,-0.0,-1.0,0.1628371280873906,1.0
19.037025451660156,3.689023017883301,-0.20472979545593262,-0.0,-0.0,-1.0,0.21450843494349484,2.0
19.75594711303711,4.860609531402588,0.19193172454833984,-0.0,-0.0,-1.0,0.09968110044243803,1.0
19.785747528076172,5.183128356933594,0.21306633949279785,-0.0,-0.0,-1.0,0.15132817867405637,1.0
19.684770584106445,4.994240760803223,0.2169656753540039,-0.0,-0.0,-1.0,0.13672751559296406,1.0
19.671268463134766,5.057388782501221,0.22484397888183594,-0.0,-0.0,-1.0,0.24890169244121832,1.0
19.112754821777344,3.595574378967285,0.1680436134338379,-0.0,-0.0,-1.0,0.22029025819064005,1.0
19.1097412109375,3.841963768005371,0.1973583698272705,-0.0,-0.0,-1.0,0.20881795219279017,1.0
19.078636169433594,3.5484724044799805,0.16855311393737793,-0.0,-0.0,-1.0,0.2443068562254853,1.0
19.025209426879883,3.7361817359924316,0.2004854679107666,-0.0,-0.0,-1.0,0.20281792992253686,2.0
17.989824295043945,3.715271472930908,0.021139144897460938,-0.41615007243532587,-0.1088978583006215,-0.9027515570020417,0.12001783238596905,5.0
17.711177825927734,3.4419727325439453,0.038811683654785156,-0.0,-0.0,-1.0,0.1330244277515697,1.0
17.7744083404541,3.598938465118408,0.04928112030029297,0.3537435681335961,0.9196570254276362,0.1705767967388982,0.1584370156804493,3.0
19.796428680419922,5.106384754180908,0.6046011447906494,-0.0,-0.0,-1.0,0.14914671456647605,1.0
19.630374908447266,4.955996990203857,0.6196845769882202,-0.0,-0.0,-1.0,0.1667457986531878,1.0
19.64532470703125,5.011053085327148,0.6214392185211182,-0.0,-0.0,-1.0,0.18347771061581952,1.0
18.944183349609375,3.6116466522216797,0.590076208114624,-0.0,-0.0,-1.0,0.16674514984001476,1.0
18.9960880279541,3.8174734115600586,0.6093037128448486,-0.0,-0.0,-1.0,0.1600206574188321,1.0
19.976909637451172,4.798854827880859,0.9579076766967773,-0.0,-0.0,-1.0,0.0963149751745665,1.0
19.069499969482422,3.5574936866760254,0.9558215141296387,-0.0,-0.0,-1.0,0.21586273151599739,2.0
19.138660430908203,3.8305530548095703,0.9758861064910889,-0.0,-0.0,-1.0,0.23629961118025314,1.0
19.027799606323242,3.6103906631469727,0.9653546810150146,-0.0,-0.0,-1.0,0.26191558660607195,1.0
18.996957778930664,3.733201026916504,0.9798314571380615,-0.0,-0.0,-1.0,0.20059734737645718,2.0
19.743968963623047,4.871023178100586,1.3829604387283325,-0.0,-0.0,-1.0,0.21936752330280143,1.0
20.008541107177734,3.952144145965576,-0.12192416191101074,-0.0,-0.0,-1.0,0.1331818494222014,1.0
20.092880249023438,4.096752643585205,-0.12731313705444336,-0.0,-0.0,-1.0,0.047652236046750694,1.0
19.06100082397461,3.6347780227661133,0.03930068016052246,-0.0,-0.0,-1.0,0.2097592057227176,1.0
18.9851016998291,3.4167933464050293,0.03221249580383301,-0.0,-0.0,-1.0,0.16375019553932674,1.0
19.004417419433594,3.518059730529785,0.03876328468322754,-0.0,-0.0,-1.0,0.23011041615102215,2.0
18.77994155883789,3.961541175842285,0.1267104148864746,0.04797582344055217,0.7617003208062066,-0.6461508660126694,0.09465616332988613,3.0
20.17867660522461,4.354679584503174,0.3179922103881836,-0.0,-0.0,-1.0,0.15203427569403055,1.0
20.0424747467041,4.181075096130371,0.3304562568664551,-0.0,-0.0,-1.0,0.20830321856452702,2.0
18.846424102783203,3.4001383781433105,0.47146129608154297,-0.0,-0.0,-1.0,0.09544690830487315,2.0
18.90591049194336,3.6127161979675293,0.4797849655151367,-0.0,-0.0,-1.0,0.07624093826685625,1.0
20.016891479492188,4.147873878479004,0.767342209815979,-0.0,-0.0,-1.0,0.20694816970645513,2.0
19.02811050415039,3.6805872917175293,0.8751052618026733,-0.0,-0.0,-1.0,0.23268552793788877,1.0
18.926132202148438,3.3544087409973145,0.8665974140167236,-0.0,-0.0,-1.0,0.16869504805986607,2.0
18.922483444213867,3.545198917388916,0.880141019821167,-0.0,-0.0,-1.0,0.18523510388767753,1.0
20.088775634765625,4.09420108795166,-0.23117303848266602,-0.0,-0.0,-1.0,0.09228936749982136,1.0
19.470985412597656,3.3218703269958496,-0.18608880043029785,-0.0,-0.0,-1.0,0.0927110153497187,1.0
19.227510452270508,3.2975144386291504,-0.14294195175170898,-0.0,-0.0,-1.0,0.16020317394880368,1.0
20.184545516967773,4.268898963928223,0.22975540161132812,-0.0,-0.0,-1.0,0.15519305518707804,1.0
20.05706787109375,4.137078762054443,0.24195075035095215,-0.0,-0.0,-1.0,0.15537275213825374,1.0
20.079206466674805,4.200033187866211,0.24269580841064453,-0.0,-0.0,-1.0,0.14475585298930746,1.0
19.45195198059082,3.511725902557373,0.2920706272125244,-0.0,-0.0,-1.0,0.1875813705802631,1.0
19.235227584838867,3.3931007385253906,0.31609320640563965,-0.0,-0.0,-1.0,0.21922518445289296,1.0
18.82834815979004,3.7920727729797363,-0.015031814575195312,-0.15232337703240045,0.6894539233646269,-0.7081319625370459,0.17172649336901222,8.0
20.023700714111328,4.146081924438477,0.7040882110595703,-0.0,-0.0,-1.0,0.21996195155929874,1.0
19.403772354125977,3.543259620666504,0.749380350112915,-0.0,-0.0,-1.0,0.15481485995607192,1.0
19.233684539794922,3.2444944381713867,0.7505871057510376,-0.0,-0.0,-1.0,0.18439809813608055,2.0
19.26107406616211,3.352426528930664,0.7546855211257935,-0.0,-0.0,-1.0,0.16474479824571975,1.0
19.300048828125,3.4802727699279785,0.7584511041641235,-0.0,-0.0,-1.0,0.13681195602209942,1.0
20.052745819091797,4.183170318603516,0.5892735719680786,-0.0,-0.0,-1.0,0.15650499583925473,2.0
20.164386749267578,4.251687526702881,0.5813174247741699,-0.0,-0.0,-1.0,0.1319984387740665,1.0
19.99266815185547,4.220949172973633,0.6617783308029175,-0.0,-0.0,-1.0,0.13352041637629425,1.0
20.065155029296875,4.268762588500977,0.6587988138198853,-0.0,-0.0,-1.0,0.19751054825606845,1.0
18.92648696899414,3.9166526794433594,-0.2714266777038574,-0.0,-0.0,-1.0,0.2179006493199782,1.0
17.858734130859375,3.434846878051758,-0.20497536659240723,-0.0,-0.0,-1.0,0.17653604766349829,2.0
17.993915557861328,3.966571807861328,-0.17922759056091309,-0.0,-0.0,-1.0,0.1669563301637164,2.0
18.194059371948242,4.053186416625977,-0.19187521934509277,-0.0,-0.0,-1.0,0.23714180031903787,1.0
17.80921745300293,3.8737030029296875,-0.16875386238098145,-0.2072359237335642,-0.9737905376820953,-0.09372972119403607,0.1995529543939559,4.0
20.084331512451172,3.6711997985839844,0.5083019733428955,-0.0,-0.0,-1.0,0.0863605585922943,1.0
20.138320922851562,4.029380798339844,0.5174930095672607,-0.0,-0.0,-1.0,0.17339736750390145,1.0
19.667932510375977,3.196533203125,0.5219919681549072,-0.0,-0.0,-1.0,0.10357320538953017,1.0
20.059110641479492,4.126459121704102,0.5274443626403809,-0.0,-0.0,-1.0,0.17220400511924927,1.0
20.136455535888672,3.540067672729492,-0.48154473304748535,-0.0,-0.0,-1.0,0.10771286771029905,1.0
18.861553192138672,3.9284210205078125,-0.3252696990966797,-0.0,-0.0,-1.0,0.14489634130860998,1.0
17.833419799804688,3.833789825439453,-0.23145008087158203,0.9957014251065016,0.08762261023429281,0.030015832765570894,0.18951109463322804,7.0
18.087512969970703,3.9921493530273438,-0.24459028244018555,-0.0,-0.0,-1.0,0.17826085564728952,2.0
19.764820098876953,3.169351577758789,0.4651679992675781,-0.0,-0.0,-1.0,0.14490897633588085,1.0
20.045764923095703,3.7137832641601562,0.4630310535430908,-0.0,-0.0,-1.0,0.08305691304984686,1.0
20.053550720214844,3.8546104431152344,0.4676485061645508,-0.0,-0.0,-1.0,0.13431784119388382,2.0
20.096940994262695,4.021879196166992,0.47022175788879395,-0.0,-0.0,-1.0,0.19938217349314283,2.0
19.266067504882812,5.548347473144531,-0.6836788654327393,-0.0,-0.0,-1.0,0.09644556226918703,1.0
18.650522232055664,5.551095962524414,-0.6191267967224121,-0.0,-0.0,-1.0,0.024254510623669373,1.0
18.969898223876953,5.603792190551758,-0.6474683284759521,-0.0,-0.0,-1.0,0.018156860897412,1.0
17.855224609375,5.183286666870117,-0.5736639499664307,0.4392435408124226,0.3862617226992437,-0.8110900032869217,0.0877294505278279,6.0
18.173358917236328,5.448665618896484,-0.5801301002502441,-0.0,-0.0,-1.0,0.062728531162607,1.0
20.14688491821289,3.997049331665039,0.9418551921844482,-0.0,-0.0,-1.0,0.15067727518371438,2.0
19.92186164855957,3.8676586151123047,-0.13120365142822266,-0.0,-0.0,-1.0,0.12476403241092301,1.0
20.195171356201172,4.034624099731445,-0.1464405059814453,-0.0,-0.0,-1.0,0.06745019348461509,2.0
17.78255271911621,3.4505691528320312,0.02869892120361328,0.06942024494637002,0.5353619591690852,-0.8417650517016162,0.1570471990988526,3.0
17.893611907958984,3.7145614624023438,0.03763628005981445,-0.0,-0.0,-1.0,0.08797512356866666,2.0
18.082263946533203,3.8208885192871094,0.02908182144165039,-0.8346877535390268,0.436599173927669,0.33567471667918386,0.22725471717226706,3.0
19.745132446289062,3.170621871948242,0.7881141901016235,-0.0,-0.0,-1.0,0.06884076739823779,1.0
20.18457794189453,4.109651565551758,0.7871496677398682,-0.0,-0.0,-1.0,0.19060510756527926,2.0
20.12267303466797,5.626020431518555,-0.7361805438995361,-0.0,-0.0,-1.0,0.01709108648189497,2.0
19.284425735473633,5.35289192199707,-0.6701648235321045,0.5677004793570888,0.7588074926531163,-0.31926063777299957,0.024802983505544787,3.0
19.66758918762207,5.513591766357422,-0.6964681148529053,-0.0,-0.0,-1.0,0.03511322918354991,2.0
17.792293548583984,4.914255142211914,-0.5626716613769531,-0.0,-0.0,-1.0,0.08820875717531051,2.0
18.103363037109375,5.220277786254883,-0.5632059574127197,-0.0,-0.0,-1.0,0.08591201998775638,2.0
18.468032836914062,5.335823059082031,-0.5882327556610107,-0.0,-0.0,-1.0,0.02105163667585008,1.0
18.898883819580078,5.352535247802734,-0.6302881240844727,-0.7722376198121259,0.10195394663404106,-0.6271000329394391,0.021495864508903863,4.0
20.198062896728516,3.9470672607421875,0.044283151626586914,-0.0,-0.0,-1.0,0.05730934556681657,2.0
18.86612892150879,3.8387317657470703,0.14902853965759277,0.5266150088780571,0.5749713402781801,-0.6261665834928252,0.13832889457678707,6.0
20.166370391845703,3.984090805053711,0.978697657585144,-0.0,-0.0,-1.0,0.10030670017743314,2.0
19.97408103942871,5.358795166015625,-0.7131071090698242,-0.0,-0.0,-1.0,0.023309432064928113,1.0
20.1977481842041,5.486469268798828,-0.7236828804016113,0.6691561086410666,0.4514376974108662,-0.5902830741472436,0.01589906828900084,3.0
17.834074020385742,4.973230361938477,-0.5525364875793457,-0.0,-0.0,-1.0,0.12035216885176589,1.0
18.730987548828125,5.3341217041015625,-0.5958328247070312,-0.0,-0.0,-1.0,0.013858489191200824,1.0
19.027021408081055,5.307275772094727,-0.6261510848999023,-0.0,-0.0,-1.0,0.029394759397701666,2.0
19.443790435791016,5.307476043701172,-0.6658952236175537,-0.10805104602160044,0.6775174058409287,-0.7275267254446508,0.013211941957897471,3.0
19.74757194519043,5.403257369995117,-0.6863503456115723,-0.0,-0.0,-1.0,0.040935992299302996,1.0
20.176437377929688,5.52583122253418,-0.7177379131317139,0.07025580666367348,0.1860533221205691,-0.980024633852607,0.019683220910448985,3.0
17.977201461791992,5.1558837890625,-0.5461690425872803,-0.0,-0.0,-1.0,0.11327505668088414,1.0
18.203075408935547,5.269603729248047,-0.5545356273651123,0.17405953851522502,-0.052231790585745314,-0.9833489294772603,0.09728670582679196,6.0
18.54618263244629,5.336912155151367,-0.5786125659942627,-0.0,-0.0,-1.0,0.025630568282827542,1.0
20.1796875,3.929922103881836,0.06096076965332031,-0.0,-0.0,-1.0,0.07043437718334579,2.0
17.88904571533203,4.826360702514648,-0.5352828502655029,-0.0,-0.0,-1.0,0.04438825699689954,2.0
18.100528717041016,4.980398178100586,-0.5385687351226807,-0.0,-0.0,-1.0,0.15174045044838733,2.0
18.777389526367188,5.078634262084961,-0.5919609069824219,-0.0,-0.0,-1.0,0.06066322107764749,1.0
19.099937438964844,5.031454086303711,-0.6279475688934326,-0.0,-0.0,-1.0,0.03712334917733213,1.0
18.222801208496094,5.0965118408203125,-0.5380220413208008,0.46494280124032134,0.21456563759407213,-0.8589469010006686,0.13546499448543312,4.0
18.573328018188477,5.125261306762695,-0.5678863525390625,0.3660953595321444,0.7363999015818844,-0.5689370551117414,0.07976935069762339,4.0
18.93858528137207,5.12938117980957,-0.6024858951568604,-0.0,-0.0,-1.0,0.03069390267167804,2.0
19.496614456176758,5.171749114990234,-0.6536505222320557,-0.0,-0.0,-1.0,0.009387257465956892,1.0
19.8900089263916,5.183378219604492,-0.692695140838623,-0.8508893566797773,-0.45798963675710647,-0.25735733001445327,0.04905961401791413,4.0
19.815988540649414,3.521738052368164,0.07815933227539062,-0.0,-0.0,-1.0,0.24996663034383634,1.0
18.749671936035156,3.730915069580078,0.1777350902557373,-0.0,-0.0,-1.0,0.10923953719736489,1.0
20.033992767333984,3.7930126190185547,0.07793164253234863,-0.0,-0.0,-1.0,0.1778448680719618,1.0
20.007675170898438,3.6181468963623047,0.9872535467147827,-0.0,-0.0,-1.0,0.09245608050126712,1.0
20.061506271362305,3.813831329345703,0.9902809858322144,-0.0,-0.0,-1.0,0.09209889652369592,1.0
20.181272506713867,3.871335983276367,0.9839643239974976,-0.0,-0.0,-1.0,0.09320505644149392,2.0
19.14807891845703,3.9811859130859375,-0.5931487083435059,-0.0,-0.0,-1.0,0.13068749565958723,2.0
19.435096740722656,4.077400207519531,-0.6088588237762451,-0.0,-0.0,-1.0,0.015449575396423604,1.0
19.607540130615234,4.102289199829102,-0.6219773292541504,-0.0,-0.0,-1.0,0.03832684769218078,1.0
19.742298126220703,4.214771270751953,-0.6229803562164307,-0.0,-0.0,-1.0,0.02290338245188844,2.0
18.17636489868164,3.8120288848876953,-0.5287659168243408,-0.0,-0.0,-1.0,0.2105345902570395,2.0
18.40213966369629,3.7732715606689453,-0.5512394905090332,-0.0,-0.0,-1.0,0.10745685670362211,2.0
17.760828018188477,4.186649322509766,-0.4558076858520508,-0.0,-0.0,-1.0,0.10185695682829288,2.0
18.039936065673828,4.030097961425781,-0.4946565628051758,-0.0,-0.0,-1.0,0.14181444039510904,2.0
18.654361724853516,4.073831558227539,-0.5409376621246338,-0.0,-0.0,-1.0,0.13290824506146223,2.0
19.06819725036621,4.069799423217773,-0.5770692825317383,-0.0,-0.0,-1.0,0.054074842925678004,1.0
19.28738021850586,4.09535026550293,-0.5937685966491699,-0.0,-0.0,-1.0,0.05330794663165984,1.0
18.293872833251953,4.305171966552734,-0.48643946647644043,-0.0,-0.0,-1.0,0.19557949968050023,1.0
19.874732971191406,4.341615676879883,-0.6225447654724121,-0.0,-0.0,-1.0,0.03022278427367903,2.0
20.00542640686035,4.470075607299805,-0.6220149993896484,0.05888869133714019,-0.5572361948415535,-0.8282632100915173,0.03292166422110338,3.0
19.76845932006836,3.478351593017578,0.20861601829528809,-0.0,-0.0,-1.0,0.12379284953107719,1.0
20.02083969116211,3.3317813873291016,0.1790599822998047,-0.0,-0.0,-1.0,0.11962998153780828,1.0
19.926515579223633,3.771068572998047,0.21664762496948242,-0.0,-0.0,-1.0,0.16295890672509467,1.0
20.119129180908203,3.7611255645751953,0.2008657455444336,-0.0,-0.0,-1.0,0.13065884526601185,1.0
19.99178123474121,3.8305797576904297,0.21563410758972168,-0.0,-0.0,-1.0,0.1589321361895103,1.0
19.971195220947266,3.6332321166992188,1.1042958498001099,-0.0,-0.0,-1.0,0.10261290468761528,1.0
20.097122192382812,3.6671314239501953,1.0975160598754883,-0.0,-0.0,-1.0,0.10432663321971684,1.0
17.861064910888672,4.741931915283203,-0.5300869941711426,-0.0,-0.0,-1.0,0.08306690343158944,2.0
18.168777465820312,4.838651657104492,-0.5439550876617432,0.12333186879307588,-0.7304597822530117,-0.6717274422344901,0.1372207767013566,6.0
18.367839813232422,4.988792419433594,-0.5433752536773682,-0.0,-0.0,-1.0,0.03424896239178945,2.0
18.619766235351562,5.131040573120117,-0.5486693382263184,0.18880092193922332,0.820805914615503,-0.5391028310138127,0.07279965717552633,4.0
19.010770797729492,5.142324447631836,-0.5810484886169434,-0.639915996095859,-0.18212256743255154,-0.746551330031914,0.033268756169140566,3.0
19.36650848388672,4.924520492553711,-0.6364436149597168,-0.0,-0.0,-1.0,0.02651170008941333,1.0
18.99294662475586,5.180936813354492,-0.5751898288726807,-0.0,-0.0,-1.0,0.03125508984886328,2.0
19.525554656982422,5.069286346435547,-0.6347744464874268,-0.0,-0.0,-1.0,0.026026323098359637,1.0
19.81011962890625,5.132476806640625,-0.6537384986877441,-0.28839851459991983,0.5971824226693342,-0.7484647291832425,0.06837962234744314,5.0
20.044754028320312,5.220285415649414,-0.6659257411956787,-0.8183512193644269,0.4611625843218239,-0.34297281610409336,0.0534334765692895,3.0
20.208274841308594,3.170564651489258,0.004730701446533203,-0.0,-0.0,-1.0,0.06506003832665515,1.0
17.801538467407227,4.363901138305664,-0.45909881591796875,-0.10114917326156893,0.5954387814766032,-0.7970078432877303,0.13529425324896255,3.0
18.132402420043945,4.239015579223633,-0.49889636039733887,-0.0,-0.0,-1.0,0.12589083741719903,1.0
18.45844841003418,4.010133743286133,-0.5506651401519775,-0.0,-0.0,-1.0,0.24436202612850397,2.0
18.161468505859375,4.691761016845703,-0.449542760848999,-0.0,-0.0,-1.0,0.15739148383163812,2.0
18.395320892333984,4.466753005981445,-0.493743896484375,0.772623989081332,0.475759094610053,-0.42036348008821206,0.24040092995052265,5.0
18.680065155029297,4.242677688598633,-0.5421679019927979,-0.4661338798462992,-0.750479600899794,-0.46850781710951417,0.14626565214678294,3.0
18.964933395385742,4.291036605834961,-0.5601606369018555,-0.0,-0.0,-1.0,0.03878023545295998,2.0
19.333316802978516,4.236597061157227,-0.5973584651947021,0.7018117291285813,-0.06092625303268435,-0.7097522726620525,0.021259980951915773,3.0
19.593496322631836,4.24848747253418,-0.6184043884277344,-0.3451804042386908,-0.7068903466928422,-0.6173787543170621,0.018579264152504434,3.0
19.81984519958496,4.340229034423828,-0.62813401222229,-0.0,-0.0,-1.0,0.03489105518326122,1.0
20.14734649658203,4.627458572387695,-0.6258804798126221,-0.8046373701332727,-0.3155451883793247,-0.5029810500164665,0.03623854233178904,4.0
19.258113861083984,3.2500438690185547,0.16815519332885742,-0.0,-0.0,-1.0,0.20709099657214172,1.0
20.00368309020996,3.7853355407714844,1.0107500553131104,-0.0,-0.0,-1.0,0.10613303600774356,1.0
17.955909729003906,3.954313278198242,-0.40176892280578613,-0.0,-0.0,-1.0,0.14044410361139775,1.0
18.40448760986328,3.3839988708496094,-0.5009799003601074,0.8530344845327165,-0.4717613907177479,-0.2230994361849863,0.06877518453113139,3.0
18.60445785522461,3.8603897094726562,-0.46315693855285645,-0.0,-0.0,-1.0,0.2413346309171389,1.0
18.73678207397461,3.419757843017578,-0.5233795642852783,-0.0,-0.0,-1.0,0.08699786848223594,2.0
18.794219970703125,3.792966842651367,-0.48605895042419434,0.7912270637837486,-0.18796960953337305,-0.5819167976850461,0.1953016067992592,7.0
19.20144271850586,3.5893592834472656,-0.5423581600189209,-0.0,-0.0,-1.0,0.22454736757676008,2.0
19.219465255737305,3.527284622192383,-0.5508277416229248,-0.9159479802471374,0.38768525383860064,0.10363127634690984,0.15877626586379168,3.0
19.559913635253906,3.6865081787109375,-0.5619552135467529,-0.0,-0.0,-1.0,0.036342353940276524,1.0
19.920169830322266,3.891742706298828,-0.5707504749298096,-0.0,-0.0,-1.0,0.04707348967097151,2.0
18.19041633605957,3.3583736419677734,0.3470613956451416,-0.0,-0.0,-1.0,0.210180840597226,1.0
18.38892936706543,3.2509002685546875,0.32515954971313477,-0.0,-0.0,-1.0,0.1193582832413746,1.0
18.796676635742188,3.1798038482666016,0.29154491424560547,-0.0,-0.0,-1.0,0.23673768328785047,1.0
19.92032241821289,3.8621883392333984,0.2626922130584717,-0.0,-0.0,-1.0,0.172828950482173,1.0
20.19198989868164,4.173717498779297,0.26553821563720703,-0.0,-0.0,-1.0,0.15519305518707804,1.0
19.50689697265625,3.915668487548828,-0.5976102352142334,-0.18930469593370408,0.5098932994156609,-0.8391499003804144,0.04174612114436692,4.0
20.11634635925293,4.10533332824707,-0.6256353855133057,-0.0,-0.0,-1.0,0.1832150931488607,2.0
17.774478912353516,4.117738723754883,-0.442368745803833,-0.0,-0.0,-1.0,0.15511770915412226,1.0
18.072486877441406,3.9011096954345703,-0.4899911880493164,0.1618943181258596,-0.044904613278871276,-0.9857858821594261,0.16206735599843689,3.0
18.34115982055664,3.809154510498047,-0.5206644535064697,-0.0,-0.0,-1.0,0.1795491571602898,1.0
18.386247634887695,4.495147705078125,-0.44057393074035645,-0.19004132678060345,-0.5876086150347201,-0.7865115445131408,0.10574047056480287,3.0
18.71312713623047,4.0720672607421875,-0.5165259838104248,-0.0,-0.0,-1.0,0.13033171247286893,2.0
18.97064208984375,3.901651382446289,-0.5568485260009766,-0.0,-0.0,-1.0,0.13191950514505474,1.0
19.171443939208984,3.9149246215820312,-0.5709574222564697,-0.4004113071941485,0.3565790766067648,-0.8441102695722521,0.1767488920018879,4.0
19.67087173461914,4.041097640991211,-0.5960237979888916,-0.0,-0.0,-1.0,0.09431692600902811,1.0
19.89015769958496,4.137762069702148,-0.6027286052703857,-0.03407796450211226,-0.6119004045096572,-0.7902003463023224,0.026855872128625537,3.0
18.154626846313477,3.3721866607666016,0.2531163692474365,-0.0,-0.0,-1.0,0.2014573016780694,1.0
18.425506591796875,3.1424598693847656,0.21601223945617676,-0.0,-0.0,-1.0,0.18548050630901738,1.0
19.83600425720215,3.758817672729492,0.1754755973815918,-0.0,-0.0,-1.0,0.18120743088404917,1.0
20.1030216217041,4.09882926940918,0.18536758422851562,-0.7134341265132936,-0.1691689252003564,-0.6799953101843936,0.13831846694432273,4.0
20.15821075439453,4.178886413574219,0.18814969062805176,-0.0,-0.0,-1.0,0.1209661751822745,1.0
17.735183715820312,3.812620162963867,-0.1824648380279541,0.9937719161926509,0.10975105389185766,0.01928949860449402,0.17404272825236441,8.0
17.997358322143555,3.8952274322509766,-0.19420981407165527,-0.0,-0.0,-1.0,0.20500708782149837,2.0
18.797962188720703,3.7965545654296875,-0.2727479934692383,0.9790143726855275,0.17608692156879394,0.10258778741930785,0.2242189474959038,7.0
20.16622543334961,3.998241424560547,-0.37592148780822754,-0.0,-0.0,-1.0,0.0825897252433492,1.0
18.778268814086914,3.2725887298583984,0.4550459384918213,-0.0,-0.0,-1.0,0.2585299197343781,1.0
19.942697525024414,3.9399757385253906,0.4146006107330322,-0.0,-0.0,-1.0,0.14816403513194906,1.0
18.018028259277344,3.8814010620117188,-0.4090893268585205,-0.4077016679312543,0.1490847663154573,-0.9008624103706064,0.2548926760747288,4.0
18.288000106811523,3.5491981506347656,-0.4794185161590576,-0.0,-0.0,-1.0,0.1595966564031318,2.0
18.53875732421875,3.6020336151123047,-0.4999229907989502,-0.0,-0.0,-1.0,0.14475976652517833,1.0
18.480154037475586,3.4087352752685547,-0.5176382064819336,-0.0,-0.0,-1.0,0.0888318281552864,2.0
18.905031204223633,3.769815444946289,-0.5194294452667236,-0.0,-0.0,-1.0,0.12287622086434896,2.0
19.264423370361328,3.822734832763672,-0.5535337924957275,-0.0,-0.0,-1.0,0.15034211057502084,1.0
19.676950454711914,3.9466323852539062,-0.5861940383911133,0.7330028281400428,0.6703029898872604,-0.11576163305213866,0.16248502985276833,3.0
20.034156799316406,4.121040344238281,-0.6075239181518555,-0.0,-0.0,-1.0,0.10565858845176503,2.0
18.39885711669922,4.481960296630859,-0.3749232292175293,-0.09424549026937373,-0.697587463438741,-0.7102742557751821,0.24267407017168097,5.0
18.750734329223633,3.1565170288085938,0.17536497116088867,-0.0,-0.0,-1.0,0.15606253591538502,1.0
18.928749084472656,3.212667465209961,0.16275548934936523,-0.0,-0.0,-1.0,0.19946501661192778,1.0
20.185935974121094,4.04205322265625,0.10579752922058105,-0.0,-0.0,-1.0,0.07085871026938644,1.0
20.114055633544922,3.7225704193115234,0.08551859855651855,-0.0,-0.0,-1.0,0.16667751842265,2.0
18.71243667602539,3.1879615783691406,0.9283902645111084,-0.0,-0.0,-1.0,0.16226619242982765,1.0
18.932106018066406,3.2392234802246094,0.9117826223373413,-0.0,-0.0,-1.0,0.21146944954844546,1.0
17.753376007080078,4.699817657470703,-0.5245664119720459,0.6653229395568584,0.45272619276819404,-0.5936197271663375,0.12501428884815458,5.0
18.12725257873535,4.88824462890625,-0.5436122417449951,-0.0,-0.0,-1.0,0.1665569675426925,2.0
18.441795349121094,5.166664123535156,-0.5438857078552246,-0.536758381072915,-0.7682871894294141,-0.34874809663514267,0.03178470285139808,4.0
18.485530853271484,5.1201324462890625,-0.5562553405761719,-0.12044973356070031,-0.6156262058498111,-0.7787786825254798,0.050387071374256104,3.0
18.691524505615234,5.19862174987793,-0.5720031261444092,-0.3178501334300518,-0.8570495862484059,-0.40550869212624113,0.03068350055540166,3.0
18.88974952697754,5.149799346923828,-0.6052806377410889,-0.0,-0.0,-1.0,0.027696115337604306,1.0
19.253768920898438,5.242397308349609,-0.6417410373687744,-0.0,-0.0,-1.0,0.02338976693728954,1.0
19.664146423339844,5.373279571533203,-0.6809360980987549,-0.0,-0.0,-1.0,0.038256398238860546,2.0
20.04671287536621,5.523721694946289,-0.7154438495635986,-0.10243705175660185,-0.9472928425896102,-0.3035505243051172,0.017091086481894977,3.0
19.9945068359375,5.477094650268555,-0.7141091823577881,0.7029344932642649,0.5748013205825501,-0.41891113620416875,0.01875204401815555,3.0
17.755725860595703,3.6624889373779297,0.018299341201782227,0.35309519344781803,-0.8220426784664543,-0.4467321559321046,0.09276275760753834,3.0
18.013452529907227,3.746868133544922,-0.0008902549743652344,-0.43175420350907484,-0.3768149156653424,-0.8195113343233056,0.08276570120706551,5.0
20.134000778198242,3.985851287841797,-0.22922110557556152,-0.0,-0.0,-1.0,0.0982465408469874,1.0
18.57432746887207,3.149372100830078,0.582533597946167,-0.0,-0.0,-1.0,0.1227989645951761,1.0
18.966352462768555,3.181283950805664,0.5435786247253418,-0.0,-0.0,-1.0,0.1332448291433066,1.0
20.15218162536621,4.081857681274414,0.4780850410461426,-0.0,-0.0,-1.0,0.16743208256158157,2.0
19.982627868652344,4.152099609375,0.5025537014007568,-0.0,-0.0,-1.0,0.16971125584012126,1.0
20.080930709838867,3.9403324127197266,1.1741406917572021,-0.0,-0.0,-1.0,0.10237634490903477,1.0
