x,y,z,nx,ny,nz,curvature,density
29.68930435180664,-29.83570671081543,1.417724609375,-0.0,-0.0,-1.0,0.1499629005186272,1.0
29.548463821411133,-29.423831939697266,1.3074760437011719,-0.0,-0.0,-1.0,0.21425913078977638,1.0
29.655994415283203,-29.94176483154297,1.4211483001708984,-0.0,-0.0,-1.0,0.1943469430254293,1.0
28.848451614379883,-29.760944366455078,1.272360920906067,-0.0,-0.0,-1.0,0.20174084056355027,1.0
28.184694290161133,-29.690725326538086,1.284637212753296,-0.0,-0.0,-1.0,0.09321756010482883,1.0
29.554580688476562,-29.659955978393555,1.261141061782837,-0.0,-0.0,-1.0,0.11767876881872603,1.0
28.981721878051758,-30.050106048583984,1.200080394744873,-0.0,-0.0,-1.0,0.05423411732367503,1.0
29.002769470214844,-29.862194061279297,1.1951754093170166,-0.0,-0.0,-1.0,0.18968064694514508,1.0
28.22434425354004,-29.43660545349121,1.2741601467132568,-0.0,-0.0,-1.0,0.1665819103457717,1.0
29.044870376586914,-29.59371566772461,1.186838150024414,-0.0,-0.0,-1.0,0.18788786768503196,2.0
29.600988388061523,-29.445894241333008,1.1240150928497314,-0.0,-0.0,-1.0,0.17840896382990426,1.0
29.57893943786621,-29.217729568481445,1.123199224472046,-0.0,-0.0,-1.0,0.1614277713738141,2.0
29.553104400634766,-28.78876304626465,1.1199290752410889,-0.0,-0.0,-1.0,0.19109213667796782,1.0
29.38203239440918,-30.1884708404541,1.5422687530517578,-0.0,-0.0,-1.0,0.17602449125354838,2.0
28.900474548339844,-30.079341888427734,1.2727105617523193,-0.0,-0.0,-1.0,0.11586220219395064,1.0
29.057628631591797,-30.059894561767578,1.2685496807098389,-0.0,-0.0,-1.0,0.1348337658830626,1.0
28.86370277404785,-29.626205444335938,1.3043885231018066,-0.0,-0.0,-1.0,0.14428320118233362,1.0
29.054277420043945,-29.541704177856445,1.3032431602478027,-0.0,-0.0,-1.0,0.2305194729809755,1.0
29.620046615600586,-29.554244995117188,1.2819266319274902,-0.0,-0.0,-1.0,0.23425054082087257,1.0
29.006397247314453,-29.968162536621094,1.167679786682129,-0.0,-0.0,-1.0,0.16875505462428753,1.0
28.212120056152344,-29.592283248901367,1.2575955390930176,-0.0,-0.0,-1.0,0.13947369679208618,1.0
28.356666564941406,-29.564191818237305,1.24385404586792,-0.0,-0.0,-1.0,0.1724152265300447,1.0
28.907657623291016,-29.525997161865234,1.189300537109375,-0.0,-0.0,-1.0,0.236673529256311,1.0
28.097692489624023,-29.026268005371094,1.2842864990234375,-0.0,-0.0,-1.0,0.15082465875549333,1.0
29.229469299316406,-29.396533966064453,1.1599674224853516,-0.0,-0.0,-1.0,0.20687793805538748,1.0
29.57727813720703,-29.195938110351562,1.1295280456542969,-0.0,-0.0,-1.0,0.1554046519887573,2.0
29.5206298828125,-28.72572898864746,1.1470856666564941,-0.0,-0.0,-1.0,0.18688074883184422,1.0
29.580039978027344,-28.592899322509766,1.1442317962646484,-0.0,-0.0,-1.0,0.14870434858843104,2.0
29.40804100036621,-30.258777618408203,1.5456180572509766,-0.0,-0.0,-1.0,0.2186815701861196,1.0
29.54578399658203,-30.012121200561523,1.552018642425537,-0.0,-0.0,-1.0,0.22568466879620622,2.0
29.413578033447266,-30.18500518798828,1.6933903694152832,-0.0,-0.0,-1.0,0.1479736461170984,1.0
29.461151123046875,-30.291484832763672,1.375762701034546,-0.0,-0.0,-1.0,0.21379515235171206,1.0
29.449838638305664,-29.372241973876953,1.0951429605484009,-0.0,-0.0,-1.0,0.17138552779984156,1.0
29.40283203125,-30.049983978271484,1.353042721748352,-0.0,-0.0,-1.0,0.17665820903369178,2.0
29.259300231933594,-30.34079360961914,1.3632891178131104,-0.0,-0.0,-1.0,0.12728622174287657,1.0
27.89876365661621,-28.47224235534668,1.1315680742263794,-0.0,-0.0,-1.0,0.061041739665425136,1.0
27.749736785888672,-29.43578338623047,1.1486599445343018,-0.0,-0.0,-1.0,0.08014156375578682,2.0
27.8223819732666,-28.929222106933594,1.1491268873214722,-0.0,-0.0,-1.0,0.11864199240469137,1.0
27.75506591796875,-29.666433334350586,0.9438166618347168,-0.0,-0.0,-1.0,0.09875402185662673,1.0
28.006610870361328,-28.38849449157715,0.93686842918396,-0.0,-0.0,-1.0,0.061640461864592495,1.0
29.088451385498047,-30.085702896118164,1.5047446489334106,-0.0,-0.0,-1.0,0.1562580483164056,1.0
29.237096786499023,-30.06748390197754,1.300795555114746,-0.0,-0.0,-1.0,0.1329622701374343,2.0
27.74153709411621,-29.36697769165039,1.122446060180664,-0.16575891725449265,-0.8817918577426801,-0.44155079092821403,0.07381804062615795,3.0
27.822952270507812,-28.87432861328125,1.1224713325500488,-0.4952057991715977,0.07383853903401526,-0.865632188992612,0.1297426963443988,3.0
29.229890823364258,-30.271303176879883,1.471210241317749,-0.11271988911908745,0.8700622558094772,-0.47988112862739724,0.2098357571015346,3.0
29.02609634399414,-30.278644561767578,1.3523404598236084,-0.0,-0.0,-1.0,0.19004290892013032,2.0
29.693031311035156,-29.761524200439453,1.332604169845581,-0.0,-0.0,-1.0,0.13104596574629193,2.0
29.461578369140625,-30.037307739257812,1.3545570373535156,-0.0,-0.0,-1.0,0.21729004716714445,1.0
29.615703582763672,-29.881114959716797,1.3504712581634521,-0.2073324527600115,0.9732800256488044,-0.0986876167793092,0.1637076803922025,3.0
29.106382369995117,-29.702457427978516,1.4507204294204712,-0.0,-0.0,-1.0,0.1857754701503756,1.0
29.242334365844727,-29.804309844970703,1.44765043258667,-0.0,-0.0,-1.0,0.21320765432325017,1.0
28.787212371826172,-29.30514144897461,1.116389274597168,-0.0,-0.0,-1.0,0.1425326942030225,2.0
28.8398380279541,-29.55957794189453,1.1165151596069336,-0.0,-0.0,-1.0,0.19170201672624795,1.0
29.48813819885254,-29.175437927246094,1.1219578981399536,-0.0,-0.0,-1.0,0.13000029689081727,2.0
28.71493911743164,-29.272003173828125,1.150328278541565,-0.0,-0.0,-1.0,0.12447363380522754,2.0
29.133928298950195,-29.182292938232422,1.1539771556854248,-0.0,-0.0,-1.0,0.237130767843178,1.0
29.526636123657227,-29.134925842285156,1.1573578119277954,-0.0,-0.0,-1.0,0.19712406493699763,1.0
29.62539291381836,-29.298480987548828,1.1581854820251465,-0.2738734051484084,0.19318212342900165,-0.9421645424976879,0.14272700047225484,3.0
29.498838424682617,-29.381746292114258,1.1527020931243896,-0.0,-0.0,-1.0,0.19143499330313052,1.0
29.692419052124023,-30.178401947021484,1.4926416873931885,-0.0,-0.0,-1.0,0.17290305633416145,2.0
29.5206356048584,-30.171218872070312,1.4253051280975342,-0.0,-0.0,-1.0,0.19742047461366602,2.0
29.664581298828125,-30.159351348876953,1.4135022163391113,-0.0,-0.0,-1.0,0.17965812501096473,1.0
29.53658676147461,-30.178104400634766,1.5598249435424805,0.7958718542283179,0.6032675419097743,0.0515389612363098,0.20064554415904715,4.0
27.733165740966797,-30.350570678710938,1.570888876914978,-0.0,-0.0,-1.0,0.06884351640562139,2.0
29.360408782958984,-30.33599090576172,1.4595997333526611,-0.1979044290351777,0.3103990531746706,-0.9297775350891891,0.12520434707542935,3.0
29.388168334960938,-30.27973175048828,1.5007436275482178,-0.0,-0.0,-1.0,0.2388717441755159,1.0
29.651473999023438,-29.779109954833984,1.1866344213485718,-0.0,-0.0,-1.0,0.13434031948219952,1.0
29.427392959594727,-29.475738525390625,1.159915566444397,-0.0,-0.0,-1.0,0.22743416526893678,2.0
29.365272521972656,-29.46511459350586,1.1642563343048096,-0.0,-0.0,-1.0,0.2332955240315505,1.0
29.173805236816406,-29.853256225585938,1.7803456783294678,-0.0,-0.0,-1.0,0.2337411767418384,1.0
29.544788360595703,-29.533538818359375,1.7557271718978882,-0.0,-0.0,-1.0,0.11629537222102251,1.0
29.521631240844727,-30.2208309173584,2.0096166133880615,-0.0,-0.0,-1.0,0.08629983179634959,1.0
29.267059326171875,-30.33181381225586,1.5505259037017822,-0.0,-0.0,-1.0,0.2134325814955158,2.0
29.600658416748047,-30.029308319091797,1.5376267433166504,-0.0,-0.0,-1.0,0.24571102475665382,1.0
29.394908905029297,-29.704097747802734,1.5954194068908691,-0.0,-0.0,-1.0,0.18522312828399534,1.0
29.64089584350586,-30.094404220581055,1.5881519317626953,-0.0,-0.0,-1.0,0.22061799306892252,1.0
28.562274932861328,-29.34295654296875,1.1744065284729004,0.6060570064961771,-0.6712316515846058,-0.42678211629342505,0.1399815044804303,3.0
28.689247131347656,-28.401283264160156,1.1678376197814941,-0.0,-0.0,-1.0,0.047558574703042505,2.0
29.408384323120117,-29.565013885498047,1.7184501886367798,-0.0,-0.0,-1.0,0.1333528615991792,1.0
29.038040161132812,-29.810443878173828,1.7251070737838745,-0.0,-0.0,-1.0,0.11426318901715107,2.0
27.762630462646484,-28.770137786865234,1.2179419994354248,-0.0,-0.0,-1.0,0.07375665254283979,1.0
29.060455322265625,-29.31412696838379,1.2270550727844238,-0.0,-0.0,-1.0,0.22322222340938805,1.0
28.76082992553711,-29.390554428100586,1.2247917652130127,-0.0,-0.0,-1.0,0.17439047051358192,1.0
27.907041549682617,-29.578861236572266,1.2186198234558105,-0.0,-0.0,-1.0,0.14321092963967622,1.0
29.499496459960938,-29.405622482299805,1.2304446697235107,0.6138292664362518,0.4278206981519119,-0.6634629468923969,0.19819432722755423,4.0
29.2332706451416,-29.551359176635742,1.228344202041626,-0.0,-0.0,-1.0,0.19013112829513784,1.0
29.65736961364746,-29.75046157836914,1.2316703796386719,-0.0,-0.0,-1.0,0.16061458715103608,1.0
29.565937042236328,-29.642820358276367,1.7471314668655396,-0.0,-0.0,-1.0,0.10181044966571073,1.0
29.692190170288086,-29.96612548828125,1.745017647743225,-0.0,-0.0,-1.0,0.1372737666659707,1.0
29.48394775390625,-29.527236938476562,1.4738911390304565,-0.0,-0.0,-1.0,0.18033945484475838,1.0
29.393842697143555,-30.173830032348633,1.4775885343551636,-0.0,-0.0,-1.0,0.19930831803618948,1.0
29.49390983581543,-29.08721160888672,1.8389732837677002,-0.0,-0.0,-1.0,0.15037351429748697,1.0
29.511959075927734,-29.575485229492188,1.854330062866211,-0.0,-0.0,-1.0,0.22212163655959113,1.0
29.10915756225586,-30.019027709960938,1.635543704032898,-0.0,-0.0,-1.0,0.1292955842096687,1.0
28.663299560546875,-29.22022247314453,1.6246951818466187,-0.0,-0.0,-1.0,0.09746262499576479,1.0
29.533855438232422,-29.988040924072266,1.5106608867645264,-0.0,-0.0,-1.0,0.2506984032232888,2.0
29.32620620727539,-30.17322540283203,1.523576259613037,-0.0,-0.0,-1.0,0.2590897740608824,2.0
27.716533660888672,-30.308509826660156,1.5389939546585083,-0.0,-0.0,-1.0,0.07871683765672396,2.0
29.31791114807129,-30.287338256835938,1.4323854446411133,0.9343180328737438,0.011802818991346154,0.3562450096644089,0.2611956595015705,4.0
29.640689849853516,-30.013526916503906,1.4040064811706543,0.042938481883152385,0.8780816942101429,-0.47658034481776007,0.1622589389814794,3.0
29.321714401245117,-30.295082092285156,1.4223880767822266,0.9343180328737438,0.011802818991346154,0.3562450096644089,0.2404568877919801,4.0
29.472333908081055,-29.99435043334961,1.4066885709762573,-0.0,-0.0,-1.0,0.26568703358667617,1.0
29.360557556152344,-29.420978546142578,1.2466036081314087,-0.9087870919556491,0.31253046527118294,-0.2764610818400531,0.23306586524630846,4.0
29.284011840820312,-29.882038116455078,1.3552279472351074,-0.0,-0.0,-1.0,0.130195082582692,2.0
29.20227813720703,-30.18301010131836,1.36471426486969,-0.0,-0.0,-1.0,0.19288244371593788,2.0
29.16791534423828,-29.68603515625,1.7471983432769775,-0.0,-0.0,-1.0,0.11843518224693883,1.0
29.116714477539062,-30.105815887451172,1.2409274578094482,-0.0,-0.0,-1.0,0.14261574157897527,1.0
29.235549926757812,-30.024394989013672,1.2413675785064697,-0.0,-0.0,-1.0,0.12486887496009465,1.0
29.406158447265625,-30.264366149902344,1.241805076599121,-0.0,-0.0,-1.0,0.2230318455444673,1.0
29.661706924438477,-29.799877166748047,1.242971658706665,-0.0,-0.0,-1.0,0.15323325043586197,1.0
27.928462982177734,-30.311431884765625,1.3978692293167114,-0.0,-0.0,-1.0,0.13300304859574316,2.0
29.38159942626953,-30.03891372680664,1.3347256183624268,-0.0,-0.0,-1.0,0.14400757392009905,2.0
29.581790924072266,-30.213003158569336,1.94608473777771,-0.0,-0.0,-1.0,0.06482123253576617,1.0
29.48638343811035,-29.605566024780273,1.6901419162750244,-0.0,-0.0,-1.0,0.17934678081839914,1.0
27.82795524597168,-28.861106872558594,1.120737075805664,-0.5496824031219381,0.730667520232827,-0.4049373168465737,0.12974269634439878,4.0
27.776935577392578,-29.3748836517334,1.124945878982544,-0.16575891725449265,-0.8817918577426801,-0.44155079092821403,0.07381804062615793,3.0
29.451467514038086,-29.58350944519043,1.8360811471939087,-0.0,-0.0,-1.0,0.11921283726826166,2.0
27.74163055419922,-28.991470336914062,1.1878018379211426,-0.0,-0.0,-1.0,0.1033618662425103,2.0
28.279407501220703,-28.95885467529297,1.1633106470108032,-0.0,-0.0,-1.0,0.18161900742312653,1.0
29.31022834777832,-30.330028533935547,1.6287671327590942,-0.0,-0.0,-1.0,0.14578423337627722,1.0
29.510847091674805,-29.729106903076172,1.6180740594863892,-0.0,-0.0,-1.0,0.1256766204168028,1.0
29.516260147094727,-29.165908813476562,1.6180195808410645,-0.0,-0.0,-1.0,0.12168450986380905,2.0
27.75033187866211,-29.6109561920166,1.4391779899597168,-0.6387020460949682,0.41617033788560304,-0.6471954466606542,0.17125494461591287,4.0
27.71811294555664,-30.346853256225586,1.4296822547912598,-0.0,-0.0,-1.0,0.061449838122881795,2.0
27.87969398498535,-30.255168914794922,1.4253681898117065,-0.894351936000935,0.4374534408956276,0.09364348146003096,0.12885239596509226,4.0
27.724456787109375,-30.347105026245117,1.4004102945327759,-0.0,-0.0,-1.0,0.07722330124351148,2.0
29.265941619873047,-30.056434631347656,1.3431698083877563,-0.0,-0.0,-1.0,0.1704919561612565,1.0
29.65287971496582,-29.875244140625,1.3302674293518066,-0.2073324527600115,0.9732800256488044,-0.0986876167793092,0.1750107957464937,3.0
28.118858337402344,-30.30308723449707,1.3593688011169434,-0.0,-0.0,-1.0,0.17890027280784182,1.0
29.459583282470703,-30.32038116455078,1.3165091276168823,-0.0,-0.0,-1.0,0.18127719574756854,1.0
27.80937957763672,-30.05632972717285,1.373604416847229,-0.0,-0.0,-1.0,0.12373313596316614,1.0
29.191390991210938,-29.322010040283203,1.3436017036437988,-0.0,-0.0,-1.0,0.16682297358541098,1.0
29.05192756652832,-29.839759826660156,1.7277605533599854,-0.0,-0.0,-1.0,0.1300894841867646,2.0
29.526588439941406,-30.344463348388672,1.706995964050293,-0.0,-0.0,-1.0,0.13386659560375697,1.0
28.508880615234375,-29.39732551574707,1.3529870510101318,-0.3911561800736682,-0.8521690519371466,0.3475697767509719,0.16189123763196703,3.0
28.980287551879883,-29.41440200805664,1.3422942161560059,-0.0,-0.0,-1.0,0.11712574877099197,1.0
29.46778106689453,-29.325790405273438,1.3332912921905518,-0.0,-0.0,-1.0,0.16589803567716374,1.0
29.28371810913086,-29.87108039855957,1.3258767127990723,-0.0,-0.0,-1.0,0.12878162680355681,2.0
29.499610900878906,-29.83330535888672,1.3218448162078857,-0.0,-0.0,-1.0,0.15409229198729774,1.0
29.1895751953125,-30.3131103515625,1.3185956478118896,-0.0,-0.0,-1.0,0.22959130145576018,1.0
29.102611541748047,-29.331409454345703,1.5843068361282349,-0.0,-0.0,-1.0,0.12703446587047332,2.0
29.469133377075195,-30.224193572998047,1.5654494762420654,-0.0,-0.0,-1.0,0.20699194865470916,1.0
29.6661376953125,-30.25809097290039,1.5585627555847168,-0.0,-0.0,-1.0,0.20107211619468576,1.0
29.68982696533203,-29.12167739868164,1.587375521659851,-0.0,-0.0,-1.0,0.10649840097819056,2.0
29.448198318481445,-29.213363647460938,1.592646837234497,-0.0,-0.0,-1.0,0.07197332582961362,1.0
29.087059020996094,-29.394275665283203,1.6002850532531738,-0.635249742628762,0.6039158369331258,-0.4813973684924482,0.11473281142826677,3.0
29.511125564575195,-29.961177825927734,1.5849534273147583,-0.0,-0.0,-1.0,0.22712121048973669,1.0
27.884403228759766,-28.42211151123047,1.08854079246521,-0.0,-0.0,-1.0,0.07163580939577661,1.0
29.086376190185547,-29.300262451171875,1.654995322227478,-0.22316407502216645,-0.8176582103908505,-0.5306909143747729,0.1894458762511957,3.0
29.648086547851562,-30.23117446899414,1.6405959129333496,-0.0,-0.0,-1.0,0.16521755730175938,1.0
29.302825927734375,-30.241840362548828,1.646053433418274,-0.0,-0.0,-1.0,0.20561179737402036,1.0
28.372333526611328,-28.85088348388672,1.3867961168289185,-0.0,-0.0,-1.0,0.15583614739785484,2.0
27.76221466064453,-29.608623504638672,1.4075428247451782,-0.6387020460949682,0.41617033788560304,-0.6471954466606542,0.1712549446159129,4.0
27.750734329223633,-30.27092742919922,1.3997437953948975,-0.0,-0.0,-1.0,0.09827437342953932,2.0
28.926719665527344,-29.27924346923828,1.3538951873779297,-0.7339427681133542,-0.07193642781955684,-0.6753911188982787,0.18003007568319887,4.0
29.387802124023438,-29.635536193847656,1.3266468048095703,-0.0,-0.0,-1.0,0.20677762779110961,1.0
29.05061149597168,-29.822933197021484,1.340716004371643,-0.0,-0.0,-1.0,0.15065557543074076,1.0
29.54513931274414,-29.782085418701172,1.3170390129089355,-0.0,-0.0,-1.0,0.154864967989171,1.0
29.342613220214844,-30.15569305419922,1.3220312595367432,-0.0,-0.0,-1.0,0.21130921978941017,2.0
28.34808921813965,-29.29230499267578,1.378730058670044,-0.0,-0.0,-1.0,0.2421006766832599,1.0
28.634174346923828,-29.3133544921875,1.361512541770935,-0.0,-0.0,-1.0,0.12381314524991095,1.0
28.375629425048828,-29.708541870117188,1.3671813011169434,-0.0,-0.0,-1.0,0.1068215382092997,1.0
28.913969039916992,-29.313674926757812,1.3451274633407593,-0.0,-0.0,-1.0,0.1800300756831988,2.0
29.570087432861328,-29.499588012695312,1.3020384311676025,-0.0,-0.0,-1.0,0.16092240786693962,2.0
29.32565689086914,-29.686752319335938,1.3120806217193604,-0.0,-0.0,-1.0,0.12385201972025423,2.0
29.193557739257812,-30.073429107666016,1.310713768005371,-0.0,-0.0,-1.0,0.15985743042304948,2.0
29.61739730834961,-29.903732299804688,1.289749264717102,-0.0,-0.0,-1.0,0.14711565367443197,2.0
28.304462432861328,-28.85860252380371,1.3653252124786377,-0.0027584247228588333,0.9216309569888012,-0.38805768928466605,0.1759100265673595,4.0
28.379779815673828,-29.169715881347656,1.3503718376159668,-0.0,-0.0,-1.0,0.16588387320306075,1.0
27.803062438964844,-30.285398483276367,1.343676209449768,-0.8842524707404051,0.09541569627352686,-0.45715797367444716,0.11789900876334672,5.0
28.594308853149414,-29.38716697692871,1.3308831453323364,-0.0,-0.0,-1.0,0.1716603207597784,1.0
29.35280990600586,-29.42302703857422,1.28705894947052,0.7533245466294278,0.6396745305595612,0.1527043627371905,0.14526530825902514,5.0
29.133623123168945,-29.62348747253418,1.2925186157226562,-0.0,-0.0,-1.0,0.1839211091220842,1.0
29.059097290039062,-30.00828742980957,1.2834668159484863,-0.0,-0.0,-1.0,0.1730770627196395,1.0
29.402210235595703,-29.532760620117188,1.8529205322265625,-0.0,-0.0,-1.0,0.21987134129595737,2.0
29.456172943115234,-28.817401885986328,1.3522918224334717,-0.0,-0.0,-1.0,0.15195648919034177,1.0
29.320369720458984,-29.538406372070312,1.3478057384490967,-0.0,-0.0,-1.0,0.2249844267260043,1.0
29.290122985839844,-29.95331573486328,1.3412437438964844,-0.0,-0.0,-1.0,0.1532980763368237,1.0
29.065204620361328,-30.27938461303711,1.352286458015442,-0.0,-0.0,-1.0,0.20729829605007322,2.0
29.69908332824707,-29.5982723236084,1.3157341480255127,-0.0,-0.0,-1.0,0.15891332502389235,1.0
29.636375427246094,-29.880332946777344,1.3147542476654053,-0.37042127675341413,0.8739346893275823,-0.3146843442535284,0.17682422458668537,4.0
27.941438674926758,-28.51894760131836,1.0139175653457642,-0.0,-0.0,-1.0,0.0672081001580479,1.0
29.379011154174805,-29.7981014251709,1.2727410793304443,-0.0,-0.0,-1.0,0.13392716190621753,1.0
29.310911178588867,-30.161792755126953,1.2714720964431763,-0.0,-0.0,-1.0,0.24172436859938426,1.0
29.629446029663086,-29.647005081176758,1.2439026832580566,-0.0,-0.0,-1.0,0.17345668217493315,2.0
27.81184959411621,-30.24999237060547,1.4614540338516235,-0.0,-0.0,-1.0,0.10139086379036952,2.0
28.902965545654297,-29.235801696777344,1.3508427143096924,-0.7783497535254649,-0.45593273107887555,-0.4316213686992401,0.210459154673393,3.0
29.349594116210938,-29.41101837158203,1.2873234748840332,0.9087870919556491,-0.31253046527118294,0.2764610818400531,0.14053114250222676,4.0
29.264083862304688,-29.584001541137695,1.2937891483306885,-0.0,-0.0,-1.0,0.16062776406452978,1.0
29.520286560058594,-29.29287338256836,1.2680115699768066,-0.0,-0.0,-1.0,0.1802503480935374,1.0
27.75757598876953,-28.93535614013672,1.1222748756408691,-0.0,-0.0,-1.0,0.12622837773845066,1.0
27.94620132446289,-28.534912109375,1.1312716007232666,-0.0,-0.0,-1.0,0.07152837422820085,1.0
27.90949249267578,-28.841529846191406,1.1121940612792969,-0.0,-0.0,-1.0,0.08855924130359553,1.0
27.726028442382812,-30.316959381103516,1.543116807937622,-0.2653748524399152,-0.6469927100212972,-0.7148262871997578,0.10576726707736928,3.0
27.910110473632812,-30.288143157958984,1.5268059968948364,-0.0,-0.0,-1.0,0.13857201336949235,1.0
29.372316360473633,-29.928911209106445,1.3959964513778687,-0.0,-0.0,-1.0,0.22028504992108608,1.0
29.30789566040039,-30.251548767089844,1.3888931274414062,-0.0,-0.0,-1.0,0.22307195273777924,2.0
29.64214324951172,-29.77604103088379,1.3740566968917847,-0.0,-0.0,-1.0,0.1319133938699796,1.0
29.615135192871094,-30.032787322998047,1.3662174940109253,-0.0,-0.0,-1.0,0.17290445671730434,2.0
27.882427215576172,-30.323009490966797,1.2854492664337158,-0.9255001465673883,-0.32513471011017403,0.1942598748720789,0.09648836091174703,3.0
28.45703887939453,-29.163753509521484,1.2749741077423096,-0.0,-0.0,-1.0,0.17030186539774517,1.0
28.514753341674805,-29.560340881347656,1.248319387435913,-0.0,-0.0,-1.0,0.2195023335161658,2.0
28.966609954833984,-29.91751480102539,1.1745048761367798,-0.0,-0.0,-1.0,0.19832231747118984,1.0
29.127952575683594,-29.47500228881836,1.1751158237457275,-0.0,-0.0,-1.0,0.2623611893572263,2.0
29.129638671875,-29.910497665405273,1.1542344093322754,-0.0,-0.0,-1.0,0.10220941026131419,2.0
29.42853355407715,-29.360477447509766,1.1414251327514648,-0.0,-0.0,-1.0,0.20378341744728964,2.0
29.092538833618164,-29.319488525390625,1.6820262670516968,-0.34381709926451426,-0.8413484759048094,-0.41704021909881717,0.18765880658250303,4.0
27.754987716674805,-29.622163772583008,1.2237236499786377,-0.09402189239673737,-0.0074548293492003115,-0.9955422187278202,0.17876756953170897,3.0
28.30853843688965,-29.277332305908203,1.195103406906128,-0.0,-0.0,-1.0,0.2146503751388819,1.0
28.552949905395508,-29.645212173461914,1.1441915035247803,-0.0,-0.0,-1.0,0.15086872967066578,1.0
28.339862823486328,-28.962053298950195,1.2143093347549438,-0.8419734952382458,0.057816483393292976,-0.5364120501669629,0.1751706132999678,4.0
28.691816329956055,-29.334087371826172,1.151792049407959,-0.0,-0.0,-1.0,0.18170781270603015,2.0
29.052030563354492,-29.73928451538086,1.0858819484710693,-0.0,-0.0,-1.0,0.13780452122712342,1.0
29.36994171142578,-29.359893798828125,1.0773108005523682,-0.0,-0.0,-1.0,0.16072972941098426,1.0
29.527145385742188,-29.196470260620117,1.0705835819244385,-0.0,-0.0,-1.0,0.10898493712037134,2.0
29.705156326293945,-28.659631729125977,1.0847346782684326,-0.0,-0.0,-1.0,0.17945979442784574,1.0
29.015417098999023,-29.8111572265625,1.5829365253448486,-0.0,-0.0,-1.0,0.10804479511752459,1.0
29.58269500732422,-30.247947692871094,1.5153757333755493,-0.0,-0.0,-1.0,0.1968906213913964,1.0
29.57961654663086,-30.210702896118164,2.0341880321502686,-0.0,-0.0,-1.0,0.07566475836409235,2.0
27.761783599853516,-30.346513748168945,1.2827486991882324,-0.0,-0.0,-1.0,0.06535442325538031,2.0
28.519577026367188,-29.463748931884766,1.2874183654785156,-0.0,-0.0,-1.0,0.21368493355967308,1.0
29.133987426757812,-29.91291046142578,1.2002596855163574,-0.9989272314540971,0.03012824158869111,0.03516639472885371,0.07791756009029871,4.0
28.299015045166016,-28.87091827392578,1.3500280380249023,-0.0027584247228588333,0.9216309569888012,-0.38805768928466605,0.16234279245015704,4.0
28.941648483276367,-29.343372344970703,1.2583844661712646,-0.0,-0.0,-1.0,0.21252330981860348,1.0
29.334840774536133,-29.50226402282715,1.210501790046692,-0.0,-0.0,-1.0,0.29423439984711086,1.0
29.53961181640625,-29.38101577758789,1.1991956233978271,-0.0,-0.0,-1.0,0.24713319644103135,1.0
29.589075088500977,-30.12453842163086,1.6518867015838623,-0.0,-0.0,-1.0,0.21668766790294405,2.0
27.731815338134766,-30.354122161865234,1.293410062789917,-0.0,-0.0,-1.0,0.07432404814271186,2.0
28.472137451171875,-29.612430572509766,1.3032499551773071,-0.0,-0.0,-1.0,0.15622204976128867,1.0
29.139251708984375,-29.97372055053711,1.2239943742752075,-0.0,-0.0,-1.0,0.09855287033949513,2.0
28.303354263305664,-29.315948486328125,1.3392424583435059,-0.0,-0.0,-1.0,0.1894212723920916,1.0
28.52688980102539,-29.42137908935547,1.3142802715301514,-0.3911561800736682,-0.8521690519371466,0.3475697767509719,0.1995487113798355,3.0
28.804771423339844,-29.376815795898438,1.2964911460876465,-0.0,-0.0,-1.0,0.13705544040806164,1.0
29.32683563232422,-29.585098266601562,1.2386789321899414,-0.0,-0.0,-1.0,0.17458222756685565,1.0
29.687633514404297,-29.672901153564453,1.201951026916504,-0.0,-0.0,-1.0,0.1755018575709206,1.0
29.490636825561523,-29.384626388549805,1.2401341199874878,0.6138292664362518,0.4278206981519119,-0.6634629468923969,0.23812155006768698,4.0
29.67588996887207,-30.121967315673828,1.6726665496826172,-0.0,-0.0,-1.0,0.173946119891738,1.0
28.308837890625,-28.861454010009766,1.3748810291290283,-0.0027584247228588333,0.9216309569888012,-0.38805768928466605,0.16234279245015712,4.0
29.431385040283203,-29.127731323242188,1.7325245141983032,-0.0,-0.0,-1.0,0.034571358178168254,2.0
27.75811767578125,-29.514177322387695,1.2116303443908691,-0.32288915376731936,0.05906614068375118,-0.9445918618134246,0.15533183756864713,3.0
28.166244506835938,-29.580018997192383,1.1761419773101807,-0.0,-0.0,-1.0,0.10724091082913349,1.0
28.84742546081543,-29.915294647216797,1.0922789573669434,-0.0,-0.0,-1.0,0.08299470855309111,1.0
28.346874237060547,-29.40118980407715,1.179410696029663,-0.0,-0.0,-1.0,0.17802561295269334,1.0
28.585590362548828,-29.421682357788086,1.158934473991394,0.8052845669861115,-0.06041822245452261,-0.5898020045484982,0.20686174942688254,4.0
29.162498474121094,-29.454734802246094,1.108433723449707,-0.0,-0.0,-1.0,0.18879184621464198,2.0
29.541582107543945,-29.353857040405273,1.084306240081787,-0.0,-0.0,-1.0,0.13195549888705183,1.0
29.489849090576172,-29.22149658203125,1.1007745265960693,-0.0,-0.0,-1.0,0.1368051237004144,2.0
27.794776916503906,-30.319210052490234,1.608154058456421,-0.0,-0.0,-1.0,0.12859685647684937,1.0
29.203651428222656,-30.30031967163086,1.5185561180114746,-0.0,-0.0,-1.0,0.2064107466586584,1.0
29.50133514404297,-30.294654846191406,1.4975943565368652,0.1394464001009102,0.5554660716571873,-0.8197634687741521,0.22289657922175907,3.0
29.669418334960938,-30.105979919433594,1.496170997619629,-0.466402388271646,-0.32001965909422847,-0.8246552188689029,0.18581431412383367,4.0
27.94373893737793,-29.12976837158203,1.235137701034546,-0.0,-0.0,-1.0,0.07724039522128082,2.0
28.340795516967773,-29.233007431030273,1.195647120475769,-0.0,-0.0,-1.0,0.17894414863958172,2.0
27.943317413330078,-28.974483489990234,1.2499029636383057,-0.17372822768572205,0.7658565397021259,-0.6190979433826799,0.0876927821517059,3.0
28.331357955932617,-28.917274475097656,1.2259145975112915,-0.27791868488434307,0.1911922673499916,-0.9413855328704211,0.1849295356965487,3.0
28.62008285522461,-29.112777709960938,1.1848363876342773,-0.0,-0.0,-1.0,0.1008115588759712,1.0
29.690109252929688,-28.52174949645996,1.1439329385757446,-0.0,-0.0,-1.0,0.1446717997909975,1.0
29.150264739990234,-29.35400390625,1.5775765180587769,-0.0,-0.0,-1.0,0.17985127264066636,2.0
29.010589599609375,-29.810245513916016,1.0988909006118774,-0.0,-0.0,-1.0,0.1748864354030884,1.0
29.124584197998047,-29.4711856842041,1.1270365715026855,0.35496475444815745,-0.9296585475058027,-0.09866614489763277,0.2084817918267615,3.0
29.38728141784668,-29.43304443359375,1.113528847694397,-0.0,-0.0,-1.0,0.20980041201795796,1.0
27.803617477416992,-30.274368286132812,1.580548882484436,-0.26512085542801245,0.7941090459231661,-0.5469019612326487,0.10017456318946673,3.0
29.49049186706543,-30.148021697998047,1.5073456764221191,-0.0,-0.0,-1.0,0.18293584505417562,2.0
27.798622131347656,-29.512691497802734,1.1978776454925537,-0.10232683665673255,-0.9108800408787753,-0.39978340339302093,0.1230259653399258,3.0
28.543563842773438,-29.493656158447266,1.160269856452942,-0.0,-0.0,-1.0,0.27854162562850765,2.0
27.85247802734375,-29.220399856567383,1.2266415357589722,-0.0,-0.0,-1.0,0.04242292901942706,2.0
28.30854034423828,-29.330045700073242,1.190934181213379,-0.0,-0.0,-1.0,0.2041930987760018,1.0
28.60527801513672,-29.37896728515625,1.1687949895858765,0.8968462890021917,-0.3513153261045195,-0.26878295248596484,0.17121479857158997,3.0
29.10671043395996,-29.40792465209961,1.1347404718399048,-0.0,-0.0,-1.0,0.24548065301150326,1.0
29.404560089111328,-29.282238006591797,1.1278783082962036,-0.0,-0.0,-1.0,0.19272588286618056,2.0
28.29964256286621,-28.917293548583984,1.235273838043213,-0.0,-0.0,-1.0,0.18492953569654874,2.0
29.0145206451416,-29.862911224365234,1.5533559322357178,-0.0,-0.0,-1.0,0.13174807427813084,2.0
29.13030433654785,-29.295759201049805,1.5870013236999512,-0.5247945854037338,0.4617064162551349,-0.7151348322657504,0.06286301009812979,3.0
27.810436248779297,-30.296730041503906,1.3761894702911377,-0.3592234927368226,-0.9035821104267051,-0.23344775000581952,0.11789900876334675,3.0
29.24655532836914,-30.12403106689453,1.3359782695770264,-0.0,-0.0,-1.0,0.16528638017104746,2.0
29.573444366455078,-30.04254150390625,1.3271310329437256,-0.0,-0.0,-1.0,0.1493535580112306,1.0
29.316991806030273,-29.84228515625,1.3584494590759277,-0.0,-0.0,-1.0,0.1624167490791872,1.0
29.701339721679688,-29.78390121459961,1.3438527584075928,-0.0,-0.0,-1.0,0.1310459657462919,2.0
27.715391159057617,-28.99405288696289,1.0877313613891602,-0.0,-0.0,-1.0,0.10336186624251029,1.0
29.22608184814453,-29.358314514160156,0.9720079898834229,-0.0,-0.0,-1.0,0.13458010656760735,1.0
27.85480308532715,-28.722328186035156,1.1178808212280273,-0.0,-0.0,-1.0,0.06303976894205096,1.0
28.152719497680664,-28.555835723876953,1.1277427673339844,-0.0,-0.0,-1.0,0.06660550054029045,1.0
29.150279998779297,-28.695476531982422,1.059987187385559,-0.0,-0.0,-1.0,0.03695267348904142,1.0
28.240690231323242,-28.512474060058594,1.1295419931411743,-0.0,-0.0,-1.0,0.07519685680454162,1.0
28.940536499023438,-28.445362091064453,1.1034770011901855,-0.0,-0.0,-1.0,0.04052898228549205,1.0
29.40416717529297,-28.53909683227539,1.0642926692962646,-0.0,-0.0,-1.0,0.04668286165583332,1.0
27.715824127197266,-29.68741798400879,1.4365990161895752,-0.0,-0.0,-1.0,0.19084197493615485,1.0
29.381725311279297,-29.732807159423828,1.3652539253234863,-0.0,-0.0,-1.0,0.16113053444326958,1.0
29.662647247314453,-29.66924285888672,1.3562321662902832,-0.0,-0.0,-1.0,0.17515888698059986,2.0
28.80938148498535,-29.23168182373047,1.4385974407196045,-0.0,-0.0,-1.0,0.12256336149450747,1.0
29.041810989379883,-29.759716033935547,1.8240277767181396,-0.0,-0.0,-1.0,0.16634134335601902,1.0
29.437406539916992,-29.526988983154297,1.820892333984375,-0.0,-0.0,-1.0,0.23838903151900226,2.0
27.794677734375,-30.29708480834961,1.4566401243209839,-0.0,-0.0,-1.0,0.08743632991948093,2.0
28.9011287689209,-29.86396598815918,1.0287044048309326,-0.0,-0.0,-1.0,0.08870164388686815,1.0
29.322040557861328,-30.24728012084961,1.4200294017791748,0.9388838772856328,-0.06432063836893805,-0.3381714364829012,0.26046397118423104,4.0
29.523324966430664,-30.164634704589844,1.419865608215332,-0.0,-0.0,-1.0,0.18663519730513223,2.0
28.911714553833008,-29.641145706176758,1.056431770324707,-0.0,-0.0,-1.0,0.1734274544357347,1.0
27.771499633789062,-28.99077033996582,1.1689386367797852,-0.0,-0.0,-1.0,0.1089191609959963,2.0
28.03419303894043,-29.085281372070312,1.1518537998199463,-0.0,-0.0,-1.0,0.11074818905698446,1.0
28.9158878326416,-29.340036392211914,1.0941638946533203,-0.0,-0.0,-1.0,0.1679779420937313,1.0
29.1672306060791,-29.39195442199707,1.0782115459442139,-0.0,-0.0,-1.0,0.19413157492876584,1.0
29.610567092895508,-29.235260009765625,1.07859206199646,-0.0,-0.0,-1.0,0.16224573880863036,2.0
27.75619888305664,-28.84341812133789,1.1879668235778809,-0.0,-0.0,-1.0,0.09125882935803595,2.0
28.03052520751953,-28.89285659790039,1.1764167547225952,-0.0,-0.0,-1.0,0.08004090406742136,1.0
29.593481063842773,-29.926992416381836,1.438506841659546,-0.0,-0.0,-1.0,0.2020476197118893,1.0
28.990209579467773,-29.8023681640625,1.471879005432129,-0.0,-0.0,-1.0,0.11426359348423161,1.0
29.162092208862305,-29.405925750732422,1.502002239227295,-0.0,-0.0,-1.0,0.11989713062192298,1.0
27.878963470458984,-30.274032592773438,1.4900846481323242,-0.0,-0.0,-1.0,0.143656702992353,2.0
29.305578231811523,-30.291961669921875,1.4646682739257812,0.5590786892708391,0.8069186776394671,0.19056040218202264,0.26710216564542766,4.0
29.39448356628418,-30.311294555664062,1.4605915546417236,-0.0,-0.0,-1.0,0.1316061778472072,2.0
28.44695281982422,-29.815828323364258,1.0913046598434448,-0.0,-0.0,-1.0,0.11233427223300317,1.0
27.86423683166504,-29.302204132080078,1.160733938217163,-0.0,-0.0,-1.0,0.0719669705876441,2.0
28.040067672729492,-29.519371032714844,1.1325628757476807,-0.0,-0.0,-1.0,0.056203185816298164,1.0
28.58687973022461,-29.404781341552734,1.1411460638046265,0.8052845669861115,-0.06041822245452261,-0.5898020045484982,0.20368292506723773,4.0
28.70417022705078,-29.625743865966797,1.1113879680633545,-0.0,-0.0,-1.0,0.14842692850984948,1.0
27.770122528076172,-29.036447525024414,1.1941630840301514,-0.0,-0.0,-1.0,0.08272897310315212,1.0
28.353029251098633,-29.25299835205078,1.1633977890014648,-0.0,-0.0,-1.0,0.18855486429525073,2.0
29.395793914794922,-29.23604393005371,1.1448146104812622,-0.4844378275672166,0.4098876915007295,-0.7728596713363676,0.17235398458851334,6.0
29.686717987060547,-29.30496597290039,1.1270179748535156,-0.0,-0.0,-1.0,0.11697582886690645,1.0
27.94916343688965,-30.230003356933594,1.493488073348999,-0.0,-0.0,-1.0,0.13333548536617587,1.0
29.26097297668457,-30.26911735534668,1.4678723812103271,-0.11271988911908745,0.8700622558094772,-0.47988112862739724,0.25825135684321093,3.0
29.42559814453125,-29.923622131347656,1.4949899911880493,-0.0,-0.0,-1.0,0.21544679843852868,1.0
29.679584503173828,-30.058025360107422,1.475442886352539,-0.0,-0.0,-1.0,0.2114068093821761,2.0
29.49653434753418,-29.609891891479492,1.5215303897857666,-0.0,-0.0,-1.0,0.2032355987833159,1.0
29.160268783569336,-29.306846618652344,1.5578539371490479,-0.0,-0.0,-1.0,0.0628630100981298,2.0
27.85236358642578,-30.113801956176758,1.1427898406982422,-0.0,-0.0,-1.0,0.0954162019115971,1.0
27.912864685058594,-30.019386291503906,1.154293179512024,-0.0,-0.0,-1.0,0.09887889905827751,1.0
27.827964782714844,-30.26934051513672,1.5760464668273926,-0.0,-0.0,-1.0,0.12388273670198345,2.0
27.960323333740234,-30.28206443786621,1.5747634172439575,-0.0,-0.0,-1.0,0.13322253423772273,1.0
29.045127868652344,-29.87588882446289,1.166750192642212,-0.0,-0.0,-1.0,0.1804769487696019,1.0
27.76127815246582,-29.562164306640625,1.2075493335723877,-0.9438534325016791,-0.08921495043977651,0.3180902239504171,0.1869743570410973,3.0
28.580123901367188,-29.354145050048828,1.233830213546753,-0.0,-0.0,-1.0,0.16298142162852186,2.0
29.15696144104004,-29.52556610107422,1.2077183723449707,-0.0,-0.0,-1.0,0.26737789052489735,2.0
29.460966110229492,-29.52065086364746,1.2030954360961914,-0.18206886105117182,-0.08931518753481875,-0.979220979713542,0.20110461479952466,3.0
27.99560546875,-29.064105987548828,1.268183708190918,-0.0,-0.0,-1.0,0.11506494938649463,1.0
28.368488311767578,-28.989315032958984,1.2781054973602295,-0.0,-0.0,-1.0,0.1671439189939548,1.0
29.18987274169922,-29.340604782104492,1.229630708694458,-0.0,-0.0,-1.0,0.21078120193301678,2.0
29.4677791595459,-29.373855590820312,1.220889925956726,0.3533304560715529,0.8897476624053066,-0.2889752343308352,0.2371114217181646,5.0
28.353010177612305,-28.826454162597656,1.2975808382034302,-0.0,-0.0,-1.0,0.1649060082425455,1.0
29.413959503173828,-30.19240951538086,1.5657942295074463,-0.0,-0.0,-1.0,0.22443057913008968,2.0
29.515886306762695,-29.84183692932129,1.5938870906829834,-0.0,-0.0,-1.0,0.20740742875754864,1.0
29.14145278930664,-29.261354446411133,1.6509382724761963,-0.0,-0.0,-1.0,0.11829036636899573,2.0
29.605937957763672,-29.10299301147461,1.6555893421173096,-0.0,-0.0,-1.0,0.1618036496945771,1.0
29.595678329467773,-30.16558837890625,2.003635883331299,-0.0,-0.0,-1.0,0.06049527406610214,1.0
29.441471099853516,-28.819835662841797,0.9650182723999023,-0.0,-0.0,-1.0,0.058146135406580056,1.0
29.507347106933594,-28.387432098388672,1.0306782722473145,-0.0,-0.0,-1.0,0.05176854495127674,1.0
27.83704376220703,-30.33381462097168,1.632702112197876,-0.0,-0.0,-1.0,0.13674531833519946,1.0
27.82442855834961,-29.608779907226562,1.2565081119537354,-0.0,-0.0,-1.0,0.19470997086395297,1.0
29.132719039916992,-29.93166160583496,1.2329866886138916,-0.9846458895752624,-0.13102588902674014,-0.11534595158605349,0.10043606146244397,4.0
28.638957977294922,-29.382150650024414,1.2942020893096924,-0.0,-0.0,-1.0,0.11820915703225009,2.0
28.93667984008789,-29.572166442871094,1.2740882635116577,-0.0,-0.0,-1.0,0.16919799510699698,1.0
29.343873977661133,-29.514892578125,1.2810850143432617,-0.0,-0.0,-1.0,0.19903281190076508,2.0
29.656570434570312,-29.630359649658203,1.2660119533538818,-0.7121485560552233,0.35972308744186954,0.6028629483305051,0.20206781768373477,3.0
28.92186164855957,-29.232553482055664,1.31333589553833,-0.1918100848022193,0.9813629674150263,-0.011645495031962792,0.21646896593448792,3.0
29.469512939453125,-29.20409393310547,1.3170086145401,-0.0,-0.0,-1.0,0.19824472513325883,2.0
28.399250030517578,-28.781286239624023,1.3596584796905518,-0.0,-0.0,-1.0,0.14896278315380312,1.0
29.39691925048828,-30.356765747070312,1.630206823348999,-0.0,-0.0,-1.0,0.14178258338438757,1.0
29.698802947998047,-30.029390335083008,1.6535892486572266,-0.0,-0.0,-1.0,0.1830910614878932,1.0
29.53071403503418,-29.085235595703125,1.7330090999603271,-0.0,-0.0,-1.0,0.16228411740885296,1.0
29.647319793701172,-30.15450668334961,2.0808420181274414,-0.0,-0.0,-1.0,0.06568790803200612,2.0
28.297544479370117,-29.704105377197266,1.1466530561447144,-0.0,-0.0,-1.0,0.15228415331463455,1.0
28.655487060546875,-29.752103805541992,1.1497652530670166,-0.0,-0.0,-1.0,0.1332287814453456,1.0
29.008342742919922,-29.806434631347656,1.1504881381988525,-0.0,-0.0,-1.0,0.1814297626613541,1.0
28.42290687561035,-29.473114013671875,1.1788148880004883,-0.0,-0.0,-1.0,0.26397469213293384,2.0
28.883413314819336,-29.45828628540039,1.1920580863952637,-0.0,-0.0,-1.0,0.21859599581813882,1.0
29.219270706176758,-29.511760711669922,1.1917507648468018,-0.0,-0.0,-1.0,0.20481517379736838,1.0
29.504383087158203,-29.521282196044922,1.1950803995132446,-0.0,-0.0,-1.0,0.18762863037240163,2.0
27.963760375976562,-28.990652084350586,1.2241649627685547,-0.07069260176850793,0.6684114807002284,-0.7404246406781227,0.09359945533754044,4.0
29.19833755493164,-29.338665008544922,1.2135766744613647,-0.0,-0.0,-1.0,0.24626339197938618,2.0
29.281736373901367,-30.295717239379883,1.5360267162322998,0.6138997102275078,-0.4962132481358624,-0.6139214592739363,0.21343258149551583,3.0
29.56498908996582,-30.106287002563477,1.5553058385849,-0.0,-0.0,-1.0,0.287217980173101,2.0
29.05866241455078,-29.472293853759766,1.6111774444580078,-0.0,-0.0,-1.0,0.1747156934449142,1.0
29.626001358032227,-29.188005447387695,1.642261266708374,-0.0,-0.0,-1.0,0.12794788853862768,1.0
29.142364501953125,-28.72779083251953,0.9917765855789185,-0.0,-0.0,-1.0,0.03479375182656849,2.0
29.673185348510742,-28.552000045776367,1.0306106805801392,-0.0,-0.0,-1.0,0.14467179979099742,1.0
27.89324951171875,-29.40748405456543,1.2428417205810547,-0.0,-0.0,-1.0,0.0914861460103922,1.0
28.20457649230957,-29.49966812133789,1.246130108833313,-0.0,-0.0,-1.0,0.14840057451142327,2.0
28.699121475219727,-29.801597595214844,1.2326276302337646,-0.0,-0.0,-1.0,0.12798742149727935,1.0
28.38351058959961,-29.330224990844727,1.2719123363494873,-0.0,-0.0,-1.0,0.253539301879826,1.0
28.64068603515625,-29.432571411132812,1.271043300628662,-0.0,-0.0,-1.0,0.19290427399494176,2.0
29.055862426757812,-29.49030876159668,1.28025221824646,-0.0,-0.0,-1.0,0.17891271953919496,2.0
29.485130310058594,-29.821027755737305,1.2725273370742798,-0.0,-0.0,-1.0,0.1632614089438568,2.0
28.879838943481445,-29.240909576416016,1.3013155460357666,0.1466920035113845,0.4945957431849618,-0.8566542516845005,0.21045915467339307,3.0
29.246904373168945,-29.420387268066406,1.2947754859924316,-0.0,-0.0,-1.0,0.22083638909795353,2.0
29.671289443969727,-29.652925491333008,1.2968640327453613,-0.4094932190461688,0.6321918673417052,0.657760401987087,0.18394572793334543,3.0
29.459383010864258,-28.974586486816406,1.3518283367156982,-0.0,-0.0,-1.0,0.09914478934539778,1.0
29.648685455322266,-28.829509735107422,1.3744823932647705,-0.0,-0.0,-1.0,0.09090043581646304,1.0
28.893491744995117,-30.294496536254883,1.6278374195098877,-0.0,-0.0,-1.0,0.12006972482819778,1.0
29.068485260009766,-30.182571411132812,1.6407992839813232,-0.0,-0.0,-1.0,0.19276208820174676,1.0
29.233516693115234,-30.207962036132812,1.647750973701477,-0.0,-0.0,-1.0,0.24441065758641276,1.0
28.695384979248047,-29.315303802490234,1.6984468698501587,-0.0,-0.0,-1.0,0.049635398900393216,1.0
29.081710815429688,-29.780054092407227,1.6724028587341309,-0.0,-0.0,-1.0,0.16405020279891355,1.0
29.114273071289062,-29.09115219116211,1.7266414165496826,-0.0,-0.0,-1.0,0.04097457849304321,1.0
29.309463500976562,-29.132061004638672,1.7283262014389038,-0.0,-0.0,-1.0,0.0341084224400287,1.0
29.512649536132812,-29.662986755371094,1.705979585647583,-0.0,-0.0,-1.0,0.11504525892806754,1.0
28.831148147583008,-29.258075714111328,1.0561734437942505,-0.0,-0.0,-1.0,0.1465854664752274,1.0
29.00733757019043,-29.440866470336914,1.0427744388580322,-0.0,-0.0,-1.0,0.13085199244714465,1.0
28.590736389160156,-28.40866470336914,1.1485384702682495,-0.0,-0.0,-1.0,0.04500212057070275,1.0
28.730117797851562,-28.660198211669922,1.125932216644287,-0.0,-0.0,-1.0,0.04032510571697607,1.0
28.839675903320312,-28.99940299987793,1.0896841287612915,-0.0,-0.0,-1.0,0.13058016658272248,1.0
29.364843368530273,-29.20829200744629,1.0917418003082275,-0.0,-0.0,-1.0,0.10628535555995514,2.0
29.62090492248535,-29.321517944335938,1.0897574424743652,-0.0,-0.0,-1.0,0.10279764622444452,1.0
28.711387634277344,-28.375072479248047,1.1605067253112793,-0.0,-0.0,-1.0,0.05091386887703,2.0
29.676164627075195,-28.366222381591797,1.2172247171401978,-0.0,-0.0,-1.0,0.1426527992886434,1.0
29.292360305786133,-30.099220275878906,1.4012837409973145,-0.0,-0.0,-1.0,0.18066909899205527,2.0
29.214872360229492,-29.440074920654297,1.4619935750961304,-0.0,-0.0,-1.0,0.10717849452750715,1.0
29.400226593017578,-29.97007179260254,1.4178650379180908,-0.0,-0.0,-1.0,0.1832162498570699,1.0
29.68037223815918,-30.00440216064453,1.4243937730789185,-0.0,-0.0,-1.0,0.12793323035390639,2.0
29.65514373779297,-29.62993812561035,1.46027410030365,-0.0,-0.0,-1.0,0.1479041257347554,1.0
29.10886573791504,-29.843761444091797,1.8385334014892578,-0.0,-0.0,-1.0,0.20280616958784084,2.0
28.085493087768555,-29.067794799804688,1.091815710067749,-0.0,-0.0,-1.0,0.11167430903881202,1.0
28.147192001342773,-29.035715103149414,1.099794864654541,-0.0,-0.0,-1.0,0.09607009163184306,1.0
28.399473190307617,-29.226680755615234,1.0923000574111938,-0.0,-0.0,-1.0,0.13732206425665905,2.0
28.67900276184082,-29.492847442626953,1.0754977464675903,-0.0,-0.0,-1.0,0.15982686618143732,1.0
29.048980712890625,-29.363513946533203,1.1124093532562256,-0.0,-0.0,-1.0,0.23725643205791272,2.0
28.654186248779297,-28.39137840270996,1.2116230726242065,-0.0,-0.0,-1.0,0.0475585747030425,1.0
29.358367919921875,-29.246623992919922,1.1436032056808472,-0.013508921996835087,0.8616064672833995,-0.5073970876561116,0.19553543127605608,4.0
29.571067810058594,-29.351539611816406,1.1402225494384766,-0.4021066903892731,0.80864947123672,-0.4294138356093783,0.15432321557747272,3.0
27.737369537353516,-29.616804122924805,1.424594759941101,-0.6387020460949682,0.41617033788560304,-0.6471954466606542,0.1712549446159129,4.0
29.222692489624023,-30.125102996826172,1.4399222135543823,-0.0,-0.0,-1.0,0.17908415666477262,1.0
29.39802360534668,-30.351516723632812,1.4237267971038818,-0.0,-0.0,-1.0,0.11407288754660776,1.0
29.340774536132812,-29.542015075683594,1.5005513429641724,-0.0,-0.0,-1.0,0.13429187786864172,1.0
29.527727127075195,-29.92440414428711,1.4698140621185303,-0.0,-0.0,-1.0,0.22940815289469285,1.0
29.42361068725586,-29.488292694091797,1.50889253616333,-0.0,-0.0,-1.0,0.1589210806651417,1.0
29.119516372680664,-29.824316024780273,1.8708571195602417,-0.6952295227821231,0.2070321965334592,-0.6883266522884848,0.10860339548610194,4.0
28.79305648803711,-29.287607192993164,0.9452567100524902,-0.0,-0.0,-1.0,0.1171080933459517,1.0
28.967927932739258,-29.308212280273438,0.9545600414276123,-0.0,-0.0,-1.0,0.09592430810784036,1.0
27.865535736083984,-30.031339645385742,1.179855465888977,-0.0,-0.0,-1.0,0.06631083121029643,1.0
27.7696475982666,-29.59860610961914,1.2221627235412598,0.35129642247748655,-0.2778529170867844,-0.8940853315097415,0.178767569531709,3.0
28.456308364868164,-29.36145782470703,1.290300726890564,-0.0,-0.0,-1.0,0.16808775041099538,1.0
28.51653480529785,-29.549156188964844,1.2722582817077637,-0.0,-0.0,-1.0,0.18127872751005025,2.0
28.669631958007812,-30.22805404663086,1.2012377977371216,-0.0,-0.0,-1.0,0.11366492368961349,1.0
28.31197738647461,-28.874595642089844,1.336289644241333,-0.0027584247228588333,0.9216309569888012,-0.38805768928466605,0.17694035818411114,4.0
28.529409408569336,-29.34384536743164,1.296494483947754,-0.0,-0.0,-1.0,0.22930148301084546,2.0
28.744537353515625,-29.373394012451172,1.3050506114959717,-0.0,-0.0,-1.0,0.12410133060281328,2.0
28.851858139038086,-28.57306480407715,1.0533556938171387,-0.0,-0.0,-1.0,0.04292095654390482,1.0
28.904102325439453,-29.093122482299805,0.9816968441009521,-0.0,-0.0,-1.0,0.10001156907331614,1.0
29.18807601928711,-29.411556243896484,1.3233400583267212,0.23474549919819948,-0.6324551212477741,-0.7381700821718877,0.20240404443541052,4.0
29.352153778076172,-29.668004989624023,1.3005096912384033,-0.0,-0.0,-1.0,0.1406593441101592,2.0
29.484939575195312,-29.910263061523438,1.2770787477493286,-0.0,-0.0,-1.0,0.20331443868823543,1.0
29.001829147338867,-28.453880310058594,1.0820027589797974,-0.0,-0.0,-1.0,0.041286643195986454,2.0
29.16353988647461,-28.799911499023438,1.0432524681091309,-0.0,-0.0,-1.0,0.06653322022155013,1.0
29.461217880249023,-29.10995101928711,1.0169415473937988,-0.0,-0.0,-1.0,0.10803715093371645,1.0
29.699674606323242,-29.655588150024414,1.3170945644378662,-0.34128196496062907,0.7423683479684463,0.5765551632994118,0.1331874810542988,3.0
27.836957931518555,-30.32924461364746,1.5623806715011597,-0.0,-0.0,-1.0,0.13674531833519937,1.0
29.201602935791016,-30.2509822845459,1.6160824298858643,-0.0,-0.0,-1.0,0.24370091964026935,1.0
29.56696891784668,-29.95040512084961,1.653254508972168,-0.0,-0.0,-1.0,0.16731244959518077,1.0
29.478931427001953,-29.063400268554688,1.729651927947998,-0.0,-0.0,-1.0,0.06912693413475861,1.0
28.595203399658203,-29.461511611938477,1.1054822206497192,-0.0,-0.0,-1.0,0.20409537512495385,2.0
29.302410125732422,-28.568233489990234,0.9596003293991089,-0.0,-0.0,-1.0,0.049849170707280906,1.0
29.60302734375,-28.503767013549805,1.0065629482269287,-0.0,-0.0,-1.0,0.14265279928864336,1.0
29.648189544677734,-28.911043167114258,0.9518622159957886,-0.0,-0.0,-1.0,0.07339182516727033,2.0
27.819482803344727,-30.32237434387207,1.3253846168518066,-0.0,-0.0,-1.0,0.09307326906170232,2.0
28.076705932617188,-28.89645767211914,1.1087546348571777,-0.0,-0.0,-1.0,0.08082009793888108,1.0
28.2990779876709,-28.74416732788086,1.151064157485962,-0.0,-0.0,-1.0,0.19144686825284354,1.0
28.37228012084961,-29.125160217285156,1.1182565689086914,-0.0,-0.0,-1.0,0.15929018965158218,2.0
28.579635620117188,-29.329402923583984,1.1187528371810913,-0.0,-0.0,-1.0,0.15407732038657246,1.0
28.929086685180664,-29.409561157226562,1.1471898555755615,-0.0,-0.0,-1.0,0.20012710098925482,1.0
29.24180793762207,-30.281888961791992,1.4492181539535522,-0.11271988911908745,0.8700622558094772,-0.47988112862739724,0.24971085319814879,3.0
29.360660552978516,-29.35001564025879,1.1985595226287842,-0.0,-0.0,-1.0,0.26340990658639785,1.0
29.549467086791992,-29.64178466796875,1.530854344367981,-0.0,-0.0,-1.0,0.18592762168015184,1.0
29.463348388671875,-30.116024017333984,1.4813940525054932,-0.0,-0.0,-1.0,0.14986095796786794,2.0
29.132457733154297,-29.792377471923828,1.8413652181625366,-0.48041373157688244,-0.4819555338386277,-0.7327492817565218,0.12638213253525057,3.0
29.615291595458984,-30.168190002441406,1.8492134809494019,-0.0,-0.0,-1.0,0.06972716166780982,1.0
27.82039451599121,-29.290796279907227,1.1290961503982544,-0.0,-0.0,-1.0,0.042647041572207285,1.0
