x,y,z,nx,ny,nz,curvature,density,label
25.667224884033203,27.292919158935547,-2.0943617820739746,-0.0,-0.0,-1.0,0.157635646411259,2.0,0.0
25.21480369567871,27.3388671875,-2.1727938652038574,-0.0,-0.0,-1.0,0.1748330666305748,1.0,0.0
25.33670997619629,26.88935089111328,-2.066101551055908,-0.0,-0.0,-1.0,0.0979816377908737,2.0,0.0
25.580913543701172,26.430583953857425,-2.027859687805176,-0.0,-0.0,-1.0,0.0195739327684886,1.0,0.0
26.002193450927734,26.97538375854492,-2.1268868446350098,-0.0,-0.0,-1.0,0.04569758959796,1.0,0.0
27.09171485900879,27.751651763916016,-2.184253692626953,-0.0,-0.0,-1.0,0.0618167552463108,1.0,0.0
27.058687210083008,26.43885040283203,-2.0386667251586914,-0.0,-0.0,-1.0,0.1325047983753417,1.0,0.0
26.148775100708008,25.86268424987793,-1.9593732357025144,-0.0,-0.0,-1.0,0.0376319385544754,1.0,0.0
26.331546783447266,26.238000869750977,-2.0463180541992188,-0.0567013775625626,-0.2253387615324467,-0.9726291155078232,0.0079652750015137,3.0,0.0
27.0524959564209,25.828542709350582,-1.569326639175415,-0.5158680064665148,0.1471519436750528,-0.8439351310242499,0.2558336737915958,3.0,0.0
26.969791412353516,25.9818058013916,-1.885939121246338,-0.0,-0.0,-1.0,0.1280144601014572,2.0,0.0
27.21649169921875,26.15858459472656,-1.9256904125213623,-0.0,-0.0,-1.0,0.1185265814162241,1.0,0.0
27.155967712402344,25.780014038085938,-1.587656021118164,-0.2750644386769666,-0.9494629137120236,-0.1511943453334141,0.233240382675046,4.0,0.0
27.435312271118164,27.883817672729492,-2.268819570541382,-0.0,-0.0,-1.0,0.1230704532565431,2.0,0.0
27.20863914489746,25.90522193908691,-2.0893666744232178,-0.0,-0.0,-1.0,0.0623776538756,1.0,0.0
27.219486236572266,26.821435928344727,-2.135495901107788,-0.0,-0.0,-1.0,0.1417354564896542,1.0,0.0
25.624351501464844,27.337121963500977,-2.1287643909454346,0.6160522270327466,-0.6827330604271684,-0.3928806711556894,0.2099686671898923,3.0,0.0
25.987476348876953,26.759828567504883,-2.1560661792755127,-0.0,-0.0,-1.0,0.0356958415679653,1.0,0.0
25.454551696777344,25.906036376953125,-2.0645456314086914,-0.0,-0.0,-1.0,0.02809515305025,1.0,0.0
27.06396484375,27.346332550048828,-2.337681531906128,-0.0,-0.0,-1.0,0.0870819475517958,1.0,0.0
26.008785247802734,27.0517578125,-2.1106481552124023,-0.0,-0.0,-1.0,0.0420477798071964,1.0,0.0
26.592302322387695,27.24242401123047,-2.2477917671203613,-0.0,-0.0,-1.0,0.0209750085562762,1.0,0.0
26.041637420654297,26.81253433227539,-2.041656494140625,-0.0,-0.0,-1.0,0.0713431204608086,1.0,0.0
27.006702423095703,25.79364013671875,-1.5614395141601562,-0.0,-0.0,-1.0,0.2558336737915958,1.0,0.0
27.590070724487305,27.35925674438477,-2.2602415084838867,-0.0,-0.0,-1.0,0.0487249437408907,1.0,0.0
25.7663631439209,26.90667724609375,-2.122300148010254,-0.0,-0.0,-1.0,0.0528990611429892,1.0,0.0
26.634864807128903,25.918689727783203,-2.133821487426758,-0.0,-0.0,-1.0,0.0683588367986246,1.0,0.0
27.63220596313477,27.7360897064209,-2.0871903896331787,-0.0,-0.0,-1.0,0.1443026647160265,1.0,0.0
27.66132926940918,27.84245491027832,-2.2506103515625,-0.0,-0.0,-1.0,0.2198628162612495,1.0,0.0
25.68208122253418,27.249927520751953,-2.0375189781188965,0.551138571058565,-0.8187995111011886,0.1606662257973907,0.1924223756159952,3.0,0.0
27.15101623535156,27.5428524017334,-2.2108120918273926,-0.0,-0.0,-1.0,0.0981792185880064,1.0,0.0
27.400083541870117,27.36812973022461,-2.20022964477539,-0.0,-0.0,-1.0,0.0649729638509045,1.0,0.0
25.41835594177246,27.696813583374023,-2.099079132080078,-0.0,-0.0,-1.0,0.2035131292625575,2.0,0.0
25.71834945678711,27.712135314941406,-2.1253881454467773,-0.0,-0.0,-1.0,0.055543058578931,2.0,0.0
26.2667236328125,27.760093688964844,-2.177855968475342,-0.0,-0.0,-1.0,0.0098493831184828,1.0,0.0
26.711740493774418,27.858728408813477,-2.2319154739379883,-0.0,-0.0,-1.0,0.1712968039336491,1.0,0.0
26.99875259399414,27.63365364074707,-2.2145743370056152,-0.0,-0.0,-1.0,0.147936589010893,2.0,0.0
25.58660316467285,26.2395076751709,-2.074866771697998,-0.0,-0.0,-1.0,0.0258988050108618,1.0,0.0
25.375253677368164,26.39649200439453,-2.080578327178955,-0.0,-0.0,-1.0,0.010835180658753,1.0,0.0
27.472307205200195,27.875900268554688,-2.223734140396118,-0.0,-0.0,-1.0,0.1687635413654681,2.0,0.0
27.41937255859375,28.057287216186523,-2.251094102859497,-0.0,-0.0,-1.0,0.1424413684356836,1.0,0.0
26.931825637817383,27.577871322631836,-2.126264810562134,-0.0,-0.0,-1.0,0.1790152336473845,1.0,0.0
26.83626365661621,27.6218318939209,-2.126116991043091,-0.0,-0.0,-1.0,0.1511734724126961,1.0,0.0
26.72722053527832,27.91659927368164,-2.16945481300354,-0.0,-0.0,-1.0,0.155525546459333,1.0,0.0
25.94817543029785,28.063505172729492,-2.1340935230255127,-0.0,-0.0,-1.0,0.0156326915375971,1.0,0.0
25.67278289794922,27.237192153930664,-1.9641320705413816,0.321375446780839,0.7388677015119162,-0.59227725084534,0.1679342864202686,4.0,0.0
25.310306549072266,27.411291122436523,-1.967434644699097,-0.0,-0.0,-1.0,0.1153637899201276,1.0,0.0
26.956382751464844,27.497787475585938,-2.070704698562622,-0.0,-0.0,-1.0,0.1252361002475361,1.0,0.0
26.806285858154297,27.63873291015625,-2.078197240829468,-0.0,-0.0,-1.0,0.1007304639672923,1.0,0.0
27.00160217285156,25.93677520751953,-1.8453748226165771,-0.0,-0.0,-1.0,0.1748534138274367,1.0,0.0
25.811046600341797,27.304710388183594,-1.9397575855255127,-0.0,-0.0,-1.0,0.1346557140276432,1.0,0.0
25.37997817993164,27.383556365966797,-1.9149153232574463,-0.0,-0.0,-1.0,0.1718987646474474,1.0,0.0
25.33892822265625,27.671066284179688,-1.955834150314331,-0.0,-0.0,-1.0,0.1910582423873263,2.0,0.0
27.59188461303711,27.773820877075195,-2.2008731365203857,0.3810946702497916,-0.7164901531446705,-0.5843019020625632,0.2407553296880277,3.0,0.0
26.89561462402344,27.53824806213379,-2.0977795124053955,-0.0,-0.0,-1.0,0.1488613572015554,1.0,0.0
25.730060577392575,27.3240909576416,-1.9534075260162351,-0.0,-0.0,-1.0,0.2216568364342747,1.0,0.0
25.348543167114254,27.440155029296875,-1.9340336322784424,-0.0,-0.0,-1.0,0.1381943539873939,1.0,0.0
27.255599975585938,27.35500717163086,-2.0985183715820312,-0.0,-0.0,-1.0,0.0743086488438251,1.0,0.0
27.141857147216797,27.580039978027344,-2.1132946014404297,-0.0,-0.0,-1.0,0.065939287219256,2.0,0.0
26.947996139526367,26.54376983642578,-1.9526896476745603,-0.0,-0.0,-1.0,0.1216297042630558,1.0,0.0
26.90139961242676,26.694738388061523,-1.9660110473632812,-0.0,-0.0,-1.0,0.1842692567965179,1.0,0.0
27.03916358947754,27.67708969116211,-2.1129026412963867,-0.0,-0.0,-1.0,0.0955284612206762,1.0,0.0
26.85072898864746,27.9560546875,-2.126254081726074,-0.0,-0.0,-1.0,0.1192655109531288,1.0,0.0
26.72923469543457,26.64223861694336,-1.9365081787109375,-0.0,-0.0,-1.0,0.0603659476117332,1.0,0.0
26.650606155395508,28.08555030822754,-2.118602752685547,-0.0,-0.0,-1.0,0.1008832678224818,1.0,0.0
26.19115447998047,28.04544448852539,-2.056257724761963,-0.0,-0.0,-1.0,0.0230151570568263,1.0,0.0
26.706186294555664,26.088115692138672,-1.8619298934936523,-0.0,-0.0,-1.0,0.0810728905067783,1.0,0.0
25.734943389892575,27.2166690826416,-1.8862104415893557,-0.0,-0.0,-1.0,0.195065347624548,1.0,0.0
25.535099029541016,27.47013282775879,-1.8965649604797363,-0.0,-0.0,-1.0,0.2110577133007752,2.0,0.0
25.355926513671875,27.393178939819336,-1.864126205444336,-0.0,-0.0,-1.0,0.2188671482453218,1.0,0.0
27.554542541503903,27.74762535095215,-2.1931066513061523,0.3810946702497916,-0.7164901531446705,-0.5843019020625632,0.2569848014597145,3.0,0.0
26.94427490234375,25.99159240722656,-1.8933935165405271,-0.0,-0.0,-1.0,0.1199438404390377,2.0,0.0
26.468320846557617,27.29195785522461,-2.2025020122528076,-0.0,-0.0,-1.0,0.0242947176134842,2.0,0.0
26.288846969604492,26.63451385498047,-2.081787347793579,-0.0,-0.0,-1.0,0.0264116053451494,1.0,0.0
26.249040603637695,27.24915313720703,-2.1656854152679443,-0.0,-0.0,-1.0,0.0166733109128101,1.0,0.0
26.25768661499023,27.51085662841797,-2.205519437789917,-0.0,-0.0,-1.0,0.0141104697994403,1.0,0.0
25.751811981201172,27.16368103027344,-2.0844738483428955,-0.0,-0.0,-1.0,0.1840786338540302,1.0,0.0
25.790861129760746,27.574417114257812,-2.151348352432251,-0.0,-0.0,-1.0,0.1238475630511553,1.0,0.0
25.377973556518555,27.68078231811523,-2.112321615219116,-0.0,-0.0,-1.0,0.1732237890130679,2.0,0.0
26.407814025878903,26.16086196899414,-2.0312812328338623,-0.0,-0.0,-1.0,0.0228591039193249,2.0,0.0
26.386159896850582,26.25086212158203,-2.040884256362915,-0.0,-0.0,-1.0,0.0064097202472278,2.0,0.0
26.32915306091309,25.74260711669922,-1.961153268814087,-0.0,-0.0,-1.0,0.0367900164088464,1.0,0.0
26.297475814819336,25.939056396484375,-1.9840233325958252,-0.0,-0.0,-1.0,0.0279784614879899,2.0,0.0
26.29627990722656,26.404247283935547,-2.049827814102173,-0.0,-0.0,-1.0,0.0087244779929815,2.0,0.0
26.120107650756836,26.695629119873047,-2.0667965412139893,-0.6631166801768302,0.1493765035629002,-0.7334595617036989,0.0499191040349532,3.0,0.0
25.357681274414062,26.22832679748535,-2.128473997116089,-0.0,-0.0,-1.0,0.0137905944362213,1.0,0.0
25.397872924804688,25.68275260925293,-2.0568888187408447,-0.0,-0.0,-1.0,0.0307376022586694,1.0,0.0
27.152572631835938,25.741378784179688,-1.6515626907348633,-0.0,-0.0,-1.0,0.2267732337507409,2.0,0.0
26.846210479736328,27.669723510742188,-2.0562665462493896,-0.0,-0.0,-1.0,0.1019116498718839,1.0,0.0
26.724687576293945,25.790210723876953,-1.983414649963379,-0.0,-0.0,-1.0,0.1052250172234001,1.0,0.0
26.63204765319824,25.99833297729492,-2.000121593475342,-0.5749932077624486,-0.1229794842874411,-0.8088626938309398,0.0834032437838041,3.0,0.0
26.622194290161133,26.31905174255371,-2.0487895011901855,-0.0,-0.0,-1.0,0.0144154423205478,2.0,0.0
26.626619338989254,26.77814483642578,-2.122964382171631,-0.0,-0.0,-1.0,0.0398665039010852,2.0,0.0
26.599781036376953,27.226154327392575,-2.191539764404297,-0.0,-0.0,-1.0,0.0316710183912946,1.0,0.0
26.55580139160156,27.456783294677734,-2.2225637435913086,-0.0,-0.0,-1.0,0.0207894322048919,2.0,0.0
26.438447952270508,27.164825439453125,-2.155411720275879,-0.0,-0.0,-1.0,0.0322515693113391,1.0,0.0
26.470523834228516,27.635326385498047,-2.2388315200805664,-0.0,-0.0,-1.0,0.0322719159729885,1.0,0.0
25.99384307861328,27.72389793395996,-2.1787896156311035,-0.0,-0.0,-1.0,0.0126610219774484,1.0,0.0
26.040935516357425,27.827823638916016,-2.2038559913635254,-0.0,-0.0,-1.0,0.0189013929067244,1.0,0.0
25.705223083496097,27.26208114624023,-2.054965019226074,0.3668363731030384,-0.6995647938969382,-0.6132211464949189,0.1924223756159952,4.0,0.0
25.479198455810547,27.736486434936523,-2.103522777557373,-0.0,-0.0,-1.0,0.1708045647475911,1.0,0.0
25.26754379272461,27.84652328491211,-2.09132719039917,-0.0,-0.0,-1.0,0.2185146170086913,2.0,0.0
27.579051971435547,27.915367126464844,-2.2621166706085205,-0.0,-0.0,-1.0,0.1621430898935441,1.0,0.0
27.69890594482422,26.508270263671875,-2.16813063621521,-0.0,-0.0,-1.0,0.0375303318119816,1.0,0.0
27.61877822875977,26.319095611572266,-2.1360719203948975,-0.0,-0.0,-1.0,0.0337967464040976,1.0,0.0
27.64593505859375,26.560834884643555,-2.1608617305755615,-0.0,-0.0,-1.0,0.0406549312435706,1.0,0.0
27.09860610961914,26.30301094055176,-2.022592782974243,-0.2566686128284072,-0.6729370039058719,-0.6937413148738728,0.1903107662315986,6.0,0.0
27.17581558227539,26.533504486083984,-2.057807683944702,-0.0,-0.0,-1.0,0.0798412230050923,2.0,0.0
26.894119262695312,27.61606216430664,-2.0928280353546143,0.8724079028630255,-0.042622842894082,-0.486916568095361,0.1856885504620194,3.0,0.0
26.71957015991211,27.767379760742188,-2.0710556507110596,-0.0,-0.0,-1.0,0.143284180486605,2.0,0.0
25.361587524414062,27.5850830078125,-1.7782728672027588,-0.0,-0.0,-1.0,0.1739748283132129,1.0,0.0
27.148685455322266,25.84458923339844,-1.6112947463989258,-0.0,-0.0,-1.0,0.2306858887004809,2.0,0.0
27.51556396484375,27.192541122436523,-2.1492416858673096,-0.0,-0.0,-1.0,0.0296136327254328,1.0,0.0
27.596145629882812,27.508365631103516,-2.1963999271392822,-0.0,-0.0,-1.0,0.0665698661384453,2.0,0.0
27.47274398803711,27.82775497436523,-2.2067959308624268,-0.0,-0.0,-1.0,0.1959573551298624,1.0,0.0
27.339412689208984,26.96794891357422,-2.093688726425171,-0.0,-0.0,-1.0,0.0746616953492512,1.0,0.0
26.901580810546875,27.64376449584961,-2.0818841457366943,-0.0,-0.0,-1.0,0.1565087200290111,2.0,0.0
26.774215698242188,27.732711791992188,-2.068077325820923,0.2158349640260667,0.9437290160887803,-0.2505809499861655,0.0903444613626177,3.0,0.0
27.112503051757812,25.951953887939453,-1.953498125076294,-0.0,-0.0,-1.0,0.1386989530376281,1.0,0.0
27.077075958251953,26.25322723388672,-1.9747631549835205,-0.0,-0.0,-1.0,0.1826464906081419,2.0,0.0
27.169612884521484,26.709064483642575,-2.0361368656158447,-0.0,-0.0,-1.0,0.1735597442779774,1.0,0.0
26.975242614746097,25.764936447143555,-1.9100391864776611,-0.0,-0.0,-1.0,0.2155464652899894,1.0,0.0
25.309669494628903,27.472211837768555,-1.7734792232513428,0.2742511884937248,0.2918667638179023,-0.9162969375634976,0.1706574471403626,3.0,0.0
25.842517852783203,26.0438232421875,-2.070145606994629,-0.0,-0.0,-1.0,0.0280106482458243,1.0,0.0
25.786548614501953,25.69597816467285,-2.0226263999938965,-0.0,-0.0,-1.0,0.0269665228739685,1.0,0.0
25.78759002685547,26.2335205078125,-2.078458309173584,-0.0,-0.0,-1.0,0.0273476544137131,2.0,0.0
25.704280853271484,26.590267181396484,-2.0996174812316895,-0.0,-0.0,-1.0,0.0291415693020413,1.0,0.0
25.687591552734375,26.98998260498047,-2.1414785385131836,-0.0,-0.0,-1.0,0.0561856377995871,2.0,0.0
25.60424041748047,27.394189834594727,-2.1718592643737793,-0.0,-0.0,-1.0,0.1238904127671309,2.0,0.0
25.476150512695312,27.663848876953125,-2.1785550117492676,-0.0,-0.0,-1.0,0.0757654642154439,1.0,0.0
25.249835968017575,27.412446975708008,-2.101506233215332,0.1030686636119246,0.249759147197006,-0.9628069479250118,0.1996228955570398,3.0,0.0
25.337406158447266,27.739599227905273,-2.159879684448242,-0.0,-0.0,-1.0,0.1343956864278902,1.0,0.0
27.080982208251953,25.73164176940918,-1.583216667175293,-0.7774847351057568,0.3305410532715362,-0.5350328015922714,0.2297201581671552,3.0,0.0
26.348861694335938,27.343976974487305,-2.2223472595214844,-0.0,-0.0,-1.0,0.0192907586371181,1.0,0.0
26.186912536621097,25.661590576171875,-1.994680404663086,-0.0,-0.0,-1.0,0.0314540484639566,2.0,0.0
26.192401885986328,26.128658294677734,-2.0462965965270996,-0.0,-0.0,-1.0,0.0172380403576477,1.0,0.0
26.156200408935547,26.51580047607422,-2.082663059234619,-0.0,-0.0,-1.0,0.0441938387955903,1.0,0.0
26.09545135498047,26.91542053222656,-2.1171979904174805,-0.0,-0.0,-1.0,0.0584910411433704,1.0,0.0
26.08123016357422,27.670143127441406,-2.2088727951049805,-0.3856982253319813,0.4584470675896996,-0.8006642025182374,0.012338806775591,3.0,0.0
25.80526351928711,27.38629150390625,-2.1159520149230957,-0.0,-0.0,-1.0,0.1954415517209076,1.0,0.0
25.706565856933594,27.71228408813477,-2.1383538246154785,0.6541718652382971,0.4743781374152776,-0.5890878996152097,0.0552935207360506,3.0,0.0
25.315399169921875,27.459869384765625,-2.025758743286133,-0.0,-0.0,-1.0,0.2173050875629946,1.0,0.0
25.69916725158691,26.870447158813477,-2.123810291290283,-0.0,-0.0,-1.0,0.0616709027758749,1.0,0.0
25.62384796142578,27.179275512695312,-2.1381945610046387,-0.0,-0.0,-1.0,0.1829083004817712,1.0,0.0
25.53803443908691,27.626482009887695,-2.1667566299438477,-0.0,-0.0,-1.0,0.0884053867385634,1.0,0.0
25.75863265991211,26.06351852416992,-2.061347484588623,-0.0,-0.0,-1.0,0.0401243945873701,1.0,0.0
25.68339157104492,26.41711807250977,-2.0762882232666016,-0.0,-0.0,-1.0,0.0166392895709149,1.0,0.0
25.67829132080078,26.660860061645508,-2.098344326019287,-0.0,-0.0,-1.0,0.0305205353450068,2.0,0.0
25.30129623413086,27.47610092163086,-2.09702730178833,-0.0,-0.0,-1.0,0.2245465507570448,2.0,0.0
27.081174850463867,25.77106475830078,-1.6501598358154297,0.2661954832920368,-0.3729946036587683,-0.8888278744033388,0.205170197783051,5.0,0.0
27.06381607055664,25.766624450683594,-1.8568358421325684,-0.8424014984877459,-0.4990926901783916,0.203140842658723,0.1514264769548588,5.0,0.0
27.037330627441406,26.246950149536133,-1.870936393737793,-0.0,-0.0,-1.0,0.095214633540041,2.0,0.0
27.706207275390625,27.87877082824707,-2.2528769969940186,-0.0,-0.0,-1.0,0.1896074894748187,1.0,0.0
27.274885177612305,26.02596664428711,-2.054654836654663,-0.0,-0.0,-1.0,0.0737407475226086,1.0,0.0
27.253578186035156,26.36600685119629,-2.064528703689575,-0.0,-0.0,-1.0,0.0399505294251795,1.0,0.0
27.360998153686523,26.688064575195312,-2.1049678325653076,-0.0,-0.0,-1.0,0.0727298078184048,1.0,0.0
27.04378890991211,25.768516540527344,-1.989954710006714,-0.0,-0.0,-1.0,0.2149851080836379,2.0,0.0
27.092121124267575,26.365163803100582,-2.0265843868255615,-0.0,-0.0,-1.0,0.127880746477264,1.0,0.0
27.63592529296875,25.70562744140625,-2.045092821121216,-0.0,-0.0,-1.0,0.0979007559476035,2.0,0.0
26.99907684326172,26.088865280151367,-1.905046224594116,-0.0,-0.0,-1.0,0.099512854078475,2.0,0.0
27.06407165527344,26.22850227355957,-1.9249207973480225,-0.3206728293133637,-0.8201097186723982,0.4739082040640803,0.1058589785723302,3.0,0.0
27.102813720703125,26.777870178222656,-1.9544708728790283,-0.0,-0.0,-1.0,0.1878836254293558,2.0,0.0
27.055654525756836,25.777658462524418,-1.8119235038757324,0.7129371865678193,-0.6231952873509157,-0.3214781514074813,0.1067651938100976,5.0,0.0
26.477230072021484,26.842939376831055,-2.131026029586792,-0.0,-0.0,-1.0,0.0209459930155003,1.0,0.0
26.598064422607425,27.168682098388672,-2.1803996562957764,-0.0,-0.0,-1.0,0.0374579347613215,1.0,0.0
26.777687072753903,27.61128616333008,-2.2538349628448486,-0.0,-0.0,-1.0,0.1762092694641449,1.0,0.0
26.685039520263672,28.046117782592773,-2.2587945461273193,-0.0,-0.0,-1.0,0.0857599087260337,1.0,0.0
26.14688491821289,25.967788696289062,-2.0045902729034424,-0.6823974084477763,-0.5092698961836166,-0.5243833996084232,0.0355697657480898,3.0,0.0
26.30823135375977,26.391632080078125,-2.0647709369659424,-0.0,-0.0,-1.0,0.0087814718803491,2.0,0.0
26.386993408203125,26.735387802124023,-2.1018617153167725,-0.0,-0.0,-1.0,0.0200901846674406,2.0,0.0
25.628448486328125,27.32604598999023,-1.9369943141937256,-0.0,-0.0,-1.0,0.1153235285889366,1.0,0.0
25.480304718017575,27.77279281616211,-1.9275577068328855,-0.0,-0.0,-1.0,0.1870055861956756,2.0,0.0
27.07208251953125,25.82980155944824,-1.5810797214508057,-0.5158680064665148,0.1471519436750528,-0.8439351310242499,0.2558336737915958,3.0,0.0
27.076324462890625,25.777517318725582,-1.6995530128479004,-0.673760170931965,-0.7382267870788515,0.0326870449102591,0.1648024026132842,3.0,0.0
27.35639762878418,26.978525161743164,-2.2016501426696777,-0.0,-0.0,-1.0,0.0698969673849536,1.0,0.0
27.522674560546875,27.32062339782715,-2.2552361488342285,0.8699370304845094,0.3612775310745644,-0.3356904951476298,0.0478146761264574,3.0,0.0
27.47760581970215,27.718137741088867,-2.2590909004211426,-0.0,-0.0,-1.0,0.1118513523051425,1.0,0.0
27.4761905670166,27.987579345703125,-2.2703166007995605,-0.0,-0.0,-1.0,0.1701072316403076,1.0,0.0
26.958106994628903,26.49285888671875,-2.087528705596924,-0.0,-0.0,-1.0,0.1037085651561226,2.0,0.0
27.05577278137207,26.733373641967773,-2.1182031631469727,-0.0,-0.0,-1.0,0.1695451048445733,2.0,0.0
26.88705062866211,27.600332260131836,-2.1041159629821777,-0.0,-0.0,-1.0,0.1689310446800577,2.0,0.0
26.567514419555664,25.701929092407227,-1.9751548767089844,-0.0,-0.0,-1.0,0.0330359896916913,2.0,0.0
26.707904815673828,26.08205795288086,-2.0159173011779785,-0.0,-0.0,-1.0,0.0465664229296895,1.0,0.0
26.79888916015625,27.72213363647461,-2.0866641998291016,0.3040905174813413,0.8559236811680792,-0.4182386988235481,0.1013867173415891,4.0,0.0
26.7089786529541,27.774368286132812,-2.263827085494995,-0.0,-0.0,-1.0,0.1744157625966258,1.0,0.0
26.704652786254883,27.91868782043457,-2.266587972640991,-0.0,-0.0,-1.0,0.1546592083618058,2.0,0.0
26.316551208496097,26.887468338012695,-2.1434876918792725,-0.0,-0.0,-1.0,0.0158589269847119,1.0,0.0
26.427978515625,27.057373046875,-2.17510724067688,-0.0,-0.0,-1.0,0.0355665072531315,1.0,0.0
26.42609405517578,28.122209548950195,-2.198742151260376,-0.0,-0.0,-1.0,0.037624302560549,2.0,0.0
25.939319610595703,25.970956802368164,-2.040329694747925,-0.9447807297813076,0.2235401280671042,0.239623003440075,0.0220999524142847,3.0,0.0
26.08994483947754,26.372608184814453,-2.079974889755249,-0.0,-0.0,-1.0,0.0330321058174413,1.0,0.0
26.15196990966797,26.68351173400879,-2.0980708599090576,-0.6631166801768302,0.1493765035629002,-0.7334595617036989,0.036523999929525,3.0,0.0
25.6246280670166,27.21395492553711,-1.965350866317749,-0.0,-0.0,-1.0,0.1323097187034869,2.0,0.0
25.76817512512207,27.465532302856445,-2.0078165531158447,-0.0,-0.0,-1.0,0.1954750702003987,1.0,0.0
27.040687561035156,25.759784698486328,-1.654543161392212,0.2028977453008968,-0.4135797687932201,-0.8875721265321252,0.1633755318589072,4.0,0.0
25.385805130004883,27.574312210083008,-1.909116506576538,-0.0,-0.0,-1.0,0.21370642195368,1.0,0.0
27.609834671020508,26.395727157592773,-2.1307806968688965,-0.0,-0.0,-1.0,0.035179855272813,2.0,0.0
25.24437713623047,28.087562561035156,-2.179959774017334,-0.0,-0.0,-1.0,0.1492111966710982,1.0,0.0
27.37358665466309,25.972881317138672,-2.0803637504577637,-0.0,-0.0,-1.0,0.0450133006868464,2.0,0.0
27.453819274902344,26.3902587890625,-2.0941195487976074,-0.0,-0.0,-1.0,0.0243769932851016,2.0,0.0
27.543081283569336,27.785503387451172,-2.112999439239502,-0.0,-0.0,-1.0,0.2133490686104325,2.0,0.0
27.121620178222656,25.792301177978516,-2.024096965789795,-0.0,-0.0,-1.0,0.2042128379903338,1.0,0.0
27.18070411682129,26.334911346435547,-2.030096530914306,-0.0,-0.0,-1.0,0.0795763489783936,1.0,0.0
25.792011260986328,27.654754638671875,-2.2217042446136475,-0.0,-0.0,-1.0,0.069633366954126,1.0,0.0
25.641891479492188,27.921188354492188,-2.177581548690796,-0.0,-0.0,-1.0,0.0252773538964612,2.0,0.0
27.52457046508789,25.732563018798828,-2.0095794200897217,-0.0,-0.0,-1.0,0.0535016739482249,2.0,0.0
27.03192901611328,25.813556671142575,-1.8958837985992432,-0.0,-0.0,-1.0,0.1954747689922935,1.0,0.0
27.021564483642575,26.191814422607425,-1.883988618850708,-0.0,-0.0,-1.0,0.1511281128860694,2.0,0.0
26.83948516845703,26.169086456298828,-1.8431212902069092,-0.0,-0.0,-1.0,0.1387583767079011,1.0,0.0
25.508041381835938,27.251529693603516,-2.154127836227417,-0.0,-0.0,-1.0,0.177922687776067,1.0,0.0
25.56996154785156,27.75580787658691,-2.160827398300171,-0.0,-0.0,-1.0,0.0423527925844083,1.0,0.0
25.607440948486328,27.92676544189453,-2.168326616287231,-0.0,-0.0,-1.0,0.0625910104724588,2.0,0.0
25.210025787353516,26.774019241333008,-2.0877320766448975,-0.0,-0.0,-1.0,0.0917292274420402,1.0,0.0
25.537647247314453,28.057025909423828,-2.1479694843292236,-0.0,-0.0,-1.0,0.0889176417812185,1.0,0.0
26.8660831451416,27.370206832885746,-2.280601978302002,-0.0,-0.0,-1.0,0.1209179002755782,1.0,0.0
27.011552810668945,28.00630760192871,-2.305607318878174,-0.0,-0.0,-1.0,0.0216509325425486,1.0,0.0
26.042774200439453,26.402912139892575,-2.1024508476257324,-0.0,-0.0,-1.0,0.0325543954232858,1.0,0.0
26.15412139892578,26.632478713989254,-2.1222362518310547,-0.0,-0.0,-1.0,0.049635832930511,1.0,0.0
26.403791427612305,26.992359161376953,-2.1737136840820312,-0.0,-0.0,-1.0,0.0274750936436769,1.0,0.0
26.66678047180176,27.29025650024414,-2.23207950592041,-0.0,-0.0,-1.0,0.0293248607099325,2.0,0.0
26.812150955200195,27.684955596923828,-2.2604269981384277,0.518230012856846,0.4903479169348794,-0.7007114770945442,0.2541354162890832,3.0,0.0
26.931129455566406,28.0234432220459,-2.284940719604492,-0.0,-0.0,-1.0,0.0579781393069779,1.0,0.0
25.770883560180664,25.964679718017575,-2.0524721145629883,-0.0,-0.0,-1.0,0.0369197720482093,1.0,0.0
25.932403564453125,26.30257225036621,-2.078819274902344,-0.0,-0.0,-1.0,0.0283457576359743,1.0,0.0
27.002761840820312,25.858551025390625,-1.6616129875183103,-0.0,-0.0,-1.0,0.1455570438844324,1.0,0.0
27.600738525390625,25.642288208007812,-2.031313180923462,-0.0,-0.0,-1.0,0.1141056822386993,1.0,0.0
25.234119415283203,26.61507797241211,-2.0874135494232178,-0.0,-0.0,-1.0,0.0673023315191492,2.0,0.0
25.57292938232422,27.377391815185547,-2.1507022380828857,-0.0,-0.0,-1.0,0.1519590830557061,2.0,0.0
25.73644638061523,27.715604782104492,-2.1855266094207764,-0.0,-0.0,-1.0,0.0489493543780551,1.0,0.0
25.601272583007812,28.04520797729492,-2.141622304916382,-0.0,-0.0,-1.0,0.0731071197615429,1.0,0.0
26.88300323486328,25.976335525512695,-1.856445074081421,-0.0,-0.0,-1.0,0.1613319208169531,2.0,0.0
26.95716857910156,26.08871078491211,-1.870133638381958,-0.0336674832046626,0.4976491853141438,-0.866724748077977,0.1044488921205862,3.0,0.0
25.26238250732422,27.435657501220703,-1.4446218013763428,-0.6427430969844861,-0.4789967035228787,-0.5978657619340706,0.1049910683146692,3.0,0.0
26.887271881103516,25.65801048278809,-1.9519858360290527,-0.0,-0.0,-1.0,0.1045145163038789,2.0,0.0
27.152976989746097,25.91326904296875,-1.997298240661621,-0.0,-0.0,-1.0,0.1365374240289017,1.0,0.0
27.279800415039062,26.144962310791016,-2.013078212738037,-0.0,-0.0,-1.0,0.0554011870099078,1.0,0.0
27.212512969970703,26.100818634033203,-2.000084400177002,-0.0,-0.0,-1.0,0.0790470728638077,1.0,0.0
27.327129364013672,26.338951110839844,-2.013317108154297,-0.0,-0.0,-1.0,0.0494474857602811,1.0,0.0
27.628643035888672,27.687633514404297,-2.0194807052612305,-0.0,-0.0,-1.0,0.140961985038281,1.0,0.0
25.220722198486328,27.00350570678711,-2.1042275428771973,-0.0,-0.0,-1.0,0.0504201537441263,2.0,0.0
25.25469970703125,27.728984832763672,-2.066657066345215,-0.0,-0.0,-1.0,0.2441815327612305,2.0,0.0
25.54391098022461,27.944915771484375,-2.1321964263916016,-0.0,-0.0,-1.0,0.1281454375731131,1.0,0.0
26.184925079345703,25.79911231994629,-2.034812688827514,-0.0,-0.0,-1.0,0.0376319385544754,1.0,0.0
26.42743492126465,26.097652435302734,-2.0632317066192627,-0.0,-0.0,-1.0,0.0321793909365526,1.0,0.0
26.741796493530273,26.418054580688477,-2.108593225479126,-0.0,-0.0,-1.0,0.0534947803729312,2.0,0.0
27.091140747070312,26.59951400756836,-2.1762855052948,-0.0,-0.0,-1.0,0.0676084339467508,1.0,0.0
27.28675079345703,26.79449462890625,-2.2069737911224365,-0.0,-0.0,-1.0,0.0780425162826757,1.0,0.0
26.869529724121097,27.152204513549805,-2.077558755874634,-0.0,-0.0,-1.0,0.0467437255689651,1.0,0.0
27.31945037841797,27.03247833251953,-2.195759534835815,-0.0,-0.0,-1.0,0.0611574752943962,2.0,0.0
27.534400939941406,27.319683074951172,-2.2258594036102295,0.8699370304845094,0.3612775310745644,-0.3356904951476298,0.0478146761264574,3.0,0.0
25.354461669921875,26.792015075683594,-1.7455756664276123,-0.0,-0.0,-1.0,0.11573870462116,1.0,0.0
26.91907501220703,27.19510078430176,-2.100318431854248,-0.0,-0.0,-1.0,0.0684105559298429,1.0,0.0
27.038917541503903,27.3171443939209,-2.1188058853149414,-0.0,-0.0,-1.0,0.1109872834869869,1.0,0.0
27.111652374267575,27.551189422607425,-2.115971088409424,-0.0,-0.0,-1.0,0.0922741142625513,2.0,0.0
27.359508514404297,27.80655288696289,-2.1560158729553223,-0.0,-0.0,-1.0,0.1579766841777072,1.0,0.0
27.51925277709961,27.96545028686523,-2.1829962730407715,-0.0,-0.0,-1.0,0.2060408519541613,1.0,0.0
25.57873916625977,25.831342697143555,-1.917187213897705,-0.0,-0.0,-1.0,0.0326140250380932,1.0,0.0
25.787628173828125,26.056671142578125,-1.9412899017333984,-0.0,-0.0,-1.0,0.1059301854727012,1.0,0.0
25.87109375,26.289331436157227,-1.9356565475463867,-0.0,-0.0,-1.0,0.0906901566137665,1.0,0.0
26.028121948242188,26.52474594116211,-1.9483399391174316,-0.0,-0.0,-1.0,0.0471275425715691,1.0,0.0
26.14687728881836,26.698875427246097,-1.959102153778076,-0.0,-0.0,-1.0,0.0797702219255579,1.0,0.0
26.45728874206543,26.8991641998291,-2.014939308166504,-0.0,-0.0,-1.0,0.0243070599214795,1.0,0.0
26.701990127563477,27.083057403564453,-2.057194232940674,-0.0,-0.0,-1.0,0.045869909436646,1.0,0.0
26.00086975097656,27.419185638427734,-1.8518853187561035,-0.0,-0.0,-1.0,0.1284842069093978,1.0,0.0
25.50397491455078,27.43377685546875,-1.727830410003662,-0.0,-0.0,-1.0,0.1587276665154977,1.0,0.0
25.700225830078125,27.59614944458008,-1.7607660293579102,-0.0,-0.0,-1.0,0.1234650226869412,1.0,0.0
25.61717987060547,27.748111724853516,-1.725992202758789,-0.0,-0.0,-1.0,0.2537781340740819,2.0,0.0
27.27667236328125,25.75760078430176,-1.6615657806396484,-0.0,-0.0,-1.0,0.1758049715453783,1.0,0.0
25.949928283691406,26.019058227539062,-2.043375015258789,-0.0,-0.0,-1.0,0.0220169185344061,2.0,0.0
26.208396911621097,26.58988571166992,-2.0811142921447754,-0.0,-0.0,-1.0,0.0375287405276698,1.0,0.0
26.323341369628903,26.84881591796875,-2.099717617034912,-0.0,-0.0,-1.0,0.0288218125179396,1.0,0.0
26.56821060180664,27.086021423339844,-2.157245635986328,0.8718039860785912,-0.2974917806203985,-0.3891740617266058,0.0430794844163648,3.0,0.0
26.907888412475582,27.479339599609375,-2.2372493743896484,-0.2725891104069834,0.1299907193387814,-0.9533087588883862,0.1332150747251733,3.0,0.0
26.98770523071289,27.808366775512695,-2.248567581176758,-0.0,-0.0,-1.0,0.0748684517981093,1.0,0.0
25.674991607666016,25.714643478393555,-1.9887614250183103,-0.0,-0.0,-1.0,0.0329041501857008,1.0,0.0
25.843032836914062,25.912944793701172,-2.02105712890625,-0.0,-0.0,-1.0,0.0340524558707167,1.0,0.0
27.189647674560547,25.783885955810547,-1.7417378425598145,-0.0,-0.0,-1.0,0.1301159234379242,1.0,0.0
25.99338722229004,26.248872756958008,-2.0412116050720215,-0.0,-0.0,-1.0,0.0281597669830629,1.0,0.0
26.12240219116211,26.472034454345703,-2.0637574195861816,-0.0,-0.0,-1.0,0.028096605648828,1.0,0.0
26.213214874267575,26.700281143188477,-2.0766453742980957,-0.0,-0.0,-1.0,0.0280688569346431,1.0,0.0
25.415470123291016,27.468263626098633,-1.8150901794433592,-0.0,-0.0,-1.0,0.1864949443522426,1.0,0.0
25.84546661376953,27.46888732910156,-1.9362783432006836,-0.0,-0.0,-1.0,0.1830842721366213,1.0,0.0
25.56174087524414,27.75271797180176,-1.843944072723389,-0.0,-0.0,-1.0,0.2001913229042863,2.0,0.0
25.35647964477539,25.92531967163086,-2.065373420715332,-0.0,-0.0,-1.0,0.0227558879396049,1.0,0.0
25.480695724487305,26.03673934936523,-2.0830812454223633,-0.0,-0.0,-1.0,0.0307125477824128,1.0,0.0
25.635223388671875,26.348573684692383,-2.084105968475342,-0.0,-0.0,-1.0,0.022479087147916,2.0,0.0
25.93640518188477,26.792367935180664,-2.1105690002441406,-0.0,-0.0,-1.0,0.0483943481817489,1.0,0.0
26.27231216430664,27.03623390197754,-2.1728692054748535,-0.0,-0.0,-1.0,0.0182049106273243,1.0,0.0
25.510486602783203,27.67493438720703,-1.9004340171813965,-0.0,-0.0,-1.0,0.1780753665885694,2.0,0.0
26.742164611816406,27.415225982666016,-2.259371757507324,-0.0,-0.0,-1.0,0.0760212359637131,2.0,0.0
26.871604919433594,27.72900390625,-2.2638068199157715,-0.0,-0.0,-1.0,0.1626642183873704,1.0,0.0
27.11838150024414,28.09298515319824,-2.2978010177612305,-0.0,-0.0,-1.0,0.0623461330209154,1.0,0.0
26.85845947265625,26.018339157104492,-1.8153972625732424,-0.0,-0.0,-1.0,0.1583814974701264,1.0,0.0
25.323715209960938,27.47087860107422,-1.8720064163208008,-0.0,-0.0,-1.0,0.173360240246376,1.0,0.0
25.407413482666016,27.82568359375,-1.85711669921875,-0.0,-0.0,-1.0,0.176705643905704,2.0,0.0
27.515539169311523,27.23749542236328,-2.2719876766204834,-0.0,-0.0,-1.0,0.0297399879110086,2.0,0.0
26.19812393188477,25.952903747558594,-2.007502317428589,-0.0,-0.0,-1.0,0.0371840352670287,2.0,0.0
26.459659576416016,26.22088050842285,-2.055001974105835,-0.0,-0.0,-1.0,0.0048254515516083,1.0,0.0
26.73668670654297,26.520462036132812,-2.106365442276001,-0.0,-0.0,-1.0,0.0547952547645177,1.0,0.0
27.01021957397461,26.816551208496097,-2.159512758255005,-0.0,-0.0,-1.0,0.1238055588999421,1.0,0.0
27.32705307006836,27.067367553710938,-2.230355978012085,-0.0,-0.0,-1.0,0.0575177975517687,2.0,0.0
26.686447143554688,27.78330421447754,-2.0031936168670654,-0.0,-0.0,-1.0,0.1427070801482691,1.0,0.0
27.52983283996582,27.40166473388672,-2.2656614780426025,-0.0,-0.0,-1.0,0.0520859579915998,1.0,0.0
27.084123611450195,25.87679100036621,-1.638324499130249,-0.0,-0.0,-1.0,0.2351791718606791,2.0,0.0
27.605525970458984,25.835037231445312,-2.0793042182922363,-0.0,-0.0,-1.0,0.0279823131316646,1.0,0.0
26.841320037841797,26.009525299072266,-1.8658547401428225,-0.0,-0.0,-1.0,0.2008614945971741,1.0,0.0
27.448898315429688,25.724016189575195,-2.0486769676208496,-0.0,-0.0,-1.0,0.0534151381075772,1.0,0.0
26.540573120117188,26.0967960357666,-2.041757106781006,-0.0,-0.0,-1.0,0.0486619911374616,1.0,0.0
26.83124732971191,26.398941040039062,-2.0911478996276855,-0.0,-0.0,-1.0,0.0307824260959837,2.0,0.0
27.08752822875977,26.703453063964844,-2.133358955383301,-0.0,-0.0,-1.0,0.1726743968541592,2.0,0.0
27.45363998413086,27.08489418029785,-2.20253324508667,0.6602005240765465,0.5386418827005537,-0.5234502748206906,0.0350046485478943,3.0,0.0
27.39874267578125,26.90817642211914,-2.202540397644043,-0.0,-0.0,-1.0,0.0457291650455128,1.0,0.0
27.69822120666504,27.30398941040039,-2.254091262817383,-0.0,-0.0,-1.0,0.0477706909674993,2.0,0.0
26.32160186767578,25.93321418762207,-1.99912691116333,-0.0,-0.0,-1.0,0.0279784614879898,2.0,0.0
26.230960845947266,25.728349685668945,-1.9975886344909668,-0.0,-0.0,-1.0,0.0342911171506801,1.0,0.0
27.05782890319824,25.76779556274414,-1.636770725250244,0.2028977453008968,-0.4135797687932201,-0.8875721265321252,0.205170197783051,4.0,0.0
25.29998016357422,25.666126251220703,-1.9906349182128904,-0.0,-0.0,-1.0,0.0307376022586694,1.0,0.0
25.648029327392575,26.384933471679688,-2.009746551513672,-0.0,-0.0,-1.0,0.0176009435431962,1.0,0.0
25.614028930664062,26.106197357177734,-2.0318942070007324,-0.0,-0.0,-1.0,0.0321667971499575,1.0,0.0
25.490863800048828,25.868120193481445,-2.0229039192199707,-0.0,-0.0,-1.0,0.0312400312982732,1.0,0.0
25.87125587463379,26.605060577392575,-2.054570198059082,-0.0,-0.0,-1.0,0.026060269215307,1.0,0.0
26.18613624572754,26.903987884521484,-2.121352195739746,-0.0,-0.0,-1.0,0.054843499624332,1.0,0.0
26.101524353027344,26.854595184326172,-2.0998854637145996,-0.0,-0.0,-1.0,0.0686328174342896,1.0,0.0
26.529945373535156,27.222827911376953,-2.198613166809082,-0.0,-0.0,-1.0,0.0277049040761993,1.0,0.0
26.803449630737305,27.721460342407227,-2.241316795349121,-0.0,-0.0,-1.0,0.2353068635635977,2.0,0.0
26.71737289428711,27.4295597076416,-2.239001750946045,-0.1734865414292585,0.6935694716328771,-0.6991879632558083,0.0724584245106256,3.0,0.0
27.45995330810547,26.01527214050293,-2.022152900695801,-0.0,-0.0,-1.0,0.0389721084455173,1.0,0.0
27.343486785888672,25.737627029418945,-2.0167174339294434,-0.0,-0.0,-1.0,0.1084129551469471,1.0,0.0
26.981903076171875,27.959169387817383,-2.2789249420166016,-0.0,-0.0,-1.0,0.0229959987168641,1.0,0.0
27.564308166503903,25.97131729125977,-2.055062770843506,-0.0,-0.0,-1.0,0.0203090332300499,1.0,0.0
25.276628494262695,27.493022918701172,-1.7767395973205566,-0.0,-0.0,-1.0,0.1658054213059997,2.0,0.0
25.267852783203125,27.301313400268555,-1.792933464050293,-0.0,-0.0,-1.0,0.1280184445262961,1.0,0.0
26.923763275146484,26.091354370117188,-1.8673181533813477,-0.2208689546333045,0.0147029307217416,-0.9751926623531284,0.1644634704699242,5.0,0.0
27.050952911376953,26.296316146850582,-1.883162498474121,-0.9082086476894295,-0.0286021386762927,-0.4175391837004997,0.1685280132373148,3.0,0.0
26.062671661376953,25.827484130859375,-2.0148916244506836,-0.0,-0.0,-1.0,0.0299464345604577,1.0,0.0
26.3438663482666,26.303630828857425,-2.070237159729004,-0.0,-0.0,-1.0,0.0074899376826748,1.0,0.0
26.20999336242676,26.076583862304688,-2.043142318725586,-0.0,-0.0,-1.0,0.0193996684205041,1.0,0.0
26.612585067749023,26.77647399902344,-2.1275954246520996,-0.0,-0.0,-1.0,0.0398383070439308,2.0,0.0
26.45784568786621,26.541330337524418,-2.091461181640625,-0.0,-0.0,-1.0,0.0124256748049591,1.0,0.0
26.969276428222656,27.19536018371582,-2.222111701965332,-0.0,-0.0,-1.0,0.0612748270502476,1.0,0.0
26.7884521484375,27.0101261138916,-2.172208309173584,-0.0,-0.0,-1.0,0.030985732865254,2.0,0.0
27.13870620727539,27.750709533691406,-2.2539706230163574,-0.0,-0.0,-1.0,0.0479893989183957,1.0,0.0
27.09626007080078,27.390121459960938,-2.254927158355713,-0.0,-0.0,-1.0,0.1087360408083679,1.0,0.0
27.29058837890625,27.99878692626953,-2.295633316040039,-0.0,-0.0,-1.0,0.072066468949214,2.0,0.0
25.310489654541016,27.421873092651367,-1.6640009880065918,-0.0,-0.0,-1.0,0.1049910683146692,2.0,0.0
25.68160057067871,27.26816749572754,-1.7943077087402344,-0.0,-0.0,-1.0,0.2054510502617358,2.0,0.0
27.1358642578125,26.06785011291504,-1.7946791648864746,-0.0,-0.0,-1.0,0.1592642027326642,1.0,0.0
27.08588409423828,25.767353057861328,-1.7979164123535156,0.2178514334522546,-0.5563538912183131,-0.8018797295536526,0.1369628105052877,4.0,0.0
26.848615646362305,25.719640731811523,-1.9773786067962649,-0.0,-0.0,-1.0,0.1091051311654538,1.0,0.0
27.128868103027344,26.28300666809082,-2.025557279586792,-0.3398408241224586,-0.6619295198121381,-0.6680999364324469,0.1418047465913914,5.0,0.0
27.061260223388672,25.954532623291016,-2.0271732807159424,-0.0,-0.0,-1.0,0.0734911401564122,1.0,0.0
27.342220306396484,26.48626708984375,-2.0809285640716553,-0.0,-0.0,-1.0,0.036309692108824,1.0,0.0
27.565738677978516,26.591936111450195,-2.1464765071868896,-0.0,-0.0,-1.0,0.0498864807412997,2.0,0.0
27.644147872924805,26.382877349853516,-2.1311750411987305,-0.0,-0.0,-1.0,0.0351798552728129,2.0,0.0
27.551149368286133,26.23464012145996,-2.105647563934326,-0.0,-0.0,-1.0,0.0136413325578925,1.0,0.0
27.326040267944336,25.931320190429688,-2.0436301231384277,-0.0,-0.0,-1.0,0.0477187197170042,1.0,0.0
27.18855094909668,25.676525115966797,-2.0105443000793457,-0.0,-0.0,-1.0,0.1734764510338357,1.0,0.0
27.42896270751953,26.354713439941406,-2.059877872467041,-0.0,-0.0,-1.0,0.0245013222288925,1.0,0.0
27.452484130859375,26.063175201416016,-2.0799317359924316,-0.0,-0.0,-1.0,0.03900749510087,1.0,0.0
27.09454345703125,25.834381103515625,-1.7347309589385986,-0.0,-0.0,-1.0,0.1910528955496696,1.0,0.0
27.074424743652344,25.660810470581055,-1.7335731983184814,-0.0,-0.0,-1.0,0.1164068646160622,1.0,0.0
26.886661529541016,26.138755798339844,-1.8301782608032229,-0.0,-0.0,-1.0,0.1387583767079011,1.0,0.0
27.154865264892575,26.440649032592773,-1.971008777618408,-0.0,-0.0,-1.0,0.0938944715609338,1.0,0.0
27.39672088623047,26.84737014770508,-2.1260719299316406,-0.0,-0.0,-1.0,0.0535990710546922,1.0,0.0
27.423141479492188,27.556903839111328,-2.2849531173706055,-0.0,-0.0,-1.0,0.048126125360352,1.0,0.0
27.52762985229492,27.18071746826172,-2.234231948852539,-0.0,-0.0,-1.0,0.0231534152987689,1.0,0.0
25.51495361328125,27.78592300415039,-1.922395944595337,-0.0,-0.0,-1.0,0.1448710497149058,2.0,0.0
25.26461410522461,27.55435562133789,-1.7996962070465088,-0.0,-0.0,-1.0,0.0814819288639604,2.0,0.0
25.281408309936523,27.43622589111328,-1.4655311107635498,-0.0,-0.0,-1.0,0.1049910683146692,2.0,0.0
25.72085952758789,27.774030685424805,-2.147369384765625,-0.0,-0.0,-1.0,0.0463853947275092,1.0,0.0
26.008392333984375,27.872819900512695,-2.1647849082946777,-0.0,-0.0,-1.0,0.0185831677099217,1.0,0.0
26.141921997070312,27.98318099975586,-2.194146633148194,-0.0,-0.0,-1.0,0.0233166342727351,1.0,0.0
26.317148208618164,28.04878616333008,-2.2081260681152344,0.8559227820846169,0.3724731904164299,-0.3586919479574849,0.0354800287908802,3.0,0.0
25.951435089111328,27.803558349609375,-2.144951343536377,-0.0,-0.0,-1.0,0.0123902216553561,2.0,0.0
26.94856071472168,27.490320205688477,-2.2473819255828857,-0.0,-0.0,-1.0,0.132437273541105,2.0,0.0
27.236759185791016,27.503868103027344,-2.243937730789185,-0.0,-0.0,-1.0,0.0795898430883036,1.0,0.0
25.518753051757812,25.777362823486328,-1.964268922805786,-0.0,-0.0,-1.0,0.0328002230277257,1.0,0.0
27.055025100708008,25.73893928527832,-1.8654156923294067,0.4044140566113654,0.115819935023465,-0.9072127718822636,0.1271218629195642,5.0,0.0
26.529081344604492,26.175405502319336,-2.0265073776245117,-0.0,-0.0,-1.0,0.02808223842198,1.0,0.0
26.683589935302734,26.35364151000977,-2.0529541969299316,-0.0,-0.0,-1.0,0.0227986439112586,1.0,0.0
27.013484954833984,26.254179000854492,-1.9945303201675415,-0.938940085470929,0.0268220491129714,0.3430336624549049,0.2231209604247803,3.0,0.0
26.776153564453125,26.460224151611328,-2.069153308868408,-0.0,-0.0,-1.0,0.0508106645318946,1.0,0.0
25.67387008666992,27.248058319091797,-1.8319810628890991,-0.0,-0.0,-1.0,0.2697184934722611,2.0,0.0
25.30131149291992,27.654830932617188,-1.9491485357284544,-0.0,-0.0,-1.0,0.1869372185420315,2.0,0.0
26.524507522583008,26.413177490234375,-2.067110776901245,-0.0,-0.0,-1.0,0.010025937577476,2.0,0.0
26.56879997253418,26.510272979736328,-2.082213878631592,-0.0,-0.0,-1.0,0.0321131261593739,1.0,0.0
26.839916229248047,26.735565185546875,-2.09774112701416,-0.0,-0.0,-1.0,0.0952640038141402,2.0,0.0
26.810855865478516,27.024147033691406,-2.1635665893554688,-0.0,-0.0,-1.0,0.030985732865254,2.0,0.0
26.914718627929688,27.445533752441406,-2.243812084197998,-0.0,-0.0,-1.0,0.1101134843448979,2.0,0.0
27.139638900756836,27.578624725341797,-2.2479681968688965,-0.0,-0.0,-1.0,0.077566560758794,1.0,0.0
27.17356300354004,27.6999568939209,-2.2712721824645996,-0.0,-0.0,-1.0,0.0505303325270103,2.0,0.0
27.097187042236328,25.721858978271484,-1.8507804870605469,0.0098070687891527,-0.6372913942363881,-0.7705605104299114,0.1187410289814345,4.0,0.0
27.050697326660156,26.21314239501953,-1.9605512619018557,-0.568793567522622,-0.7410758437253101,0.3567638874545866,0.0971598049537589,4.0,0.0
26.854721069335938,26.506893157958984,-2.0468695163726807,-0.0,-0.0,-1.0,0.0923972046181335,1.0,0.0
27.243776321411133,26.73978805541992,-2.0513226985931396,-0.0,-0.0,-1.0,0.1229631311235969,1.0,0.0
27.485836029052734,26.40692710876465,-2.0590009689331055,-0.0,-0.0,-1.0,0.0378069120750813,1.0,0.0
27.527172088623047,26.650632858276367,-2.103654384613037,-0.0,-0.0,-1.0,0.0511818340057829,2.0,0.0
27.586261749267575,27.02768325805664,-2.1743762493133545,-0.0,-0.0,-1.0,0.0261868214861857,1.0,0.0
27.70897674560547,27.27611541748047,-2.2112886905670166,-0.0,-0.0,-1.0,0.0459635999462903,2.0,0.0
27.28864288330078,27.5943546295166,-2.2128541469573975,-0.0,-0.0,-1.0,0.0834690643469171,1.0,0.0
27.391149520874023,27.689037322998047,-2.2209360599517822,-0.0,-0.0,-1.0,0.055964827941227,1.0,0.0
25.6541805267334,28.092679977416992,-2.148934841156006,-0.0,-0.0,-1.0,0.0434688875158945,1.0,0.0
25.467208862304688,27.69820785522461,-2.140037775039673,-0.0,-0.0,-1.0,0.157257228122285,1.0,0.0
25.237117767333984,27.234073638916016,-2.1315319538116455,-0.0,-0.0,-1.0,0.1827944005274544,2.0,0.0
25.52250099182129,27.364437103271484,-2.112380266189575,-0.0,-0.0,-1.0,0.1568052249121453,2.0,0.0
25.413942337036133,26.653911590576172,-2.076698303222656,-0.0,-0.0,-1.0,0.0266348246504845,1.0,0.0
25.28511619567871,26.42965316772461,-2.075159072875977,-0.0,-0.0,-1.0,0.0106828984101863,1.0,0.0
25.223459243774418,27.759349822998047,-2.066316604614258,-0.0,-0.0,-1.0,0.2182146206174329,2.0,0.0
25.512836456298828,27.33407974243164,-2.0132827758789062,-0.0,-0.0,-1.0,0.1818812600306424,1.0,0.0
27.645584106445312,27.844810485839844,-2.166226387023926,-0.0,-0.0,-1.0,0.1794841639000495,1.0,0.0
27.050580978393555,28.012550354003903,-2.2375025749206543,-0.0,-0.0,-1.0,0.0547137707971572,1.0,0.0
26.966285705566406,27.654937744140625,-2.2140426635742188,-0.0,-0.0,-1.0,0.1725533148742732,2.0,0.0
26.80537796020508,27.543792724609375,-2.21981430053711,-0.0,-0.0,-1.0,0.1100712051571261,1.0,0.0
26.7675724029541,27.45327377319336,-2.2156224250793457,-0.0,-0.0,-1.0,0.1167902677101449,2.0,0.0
27.44072723388672,26.66965103149414,-2.0829591751098633,-0.0,-0.0,-1.0,0.0611848444276219,2.0,0.0
27.417760848999023,26.404701232910156,-2.0626492500305176,-0.0,-0.0,-1.0,0.025916163181174,2.0,0.0
27.37729263305664,26.215625762939453,-2.0506558418273926,-0.0,-0.0,-1.0,0.0305846544619243,1.0,0.0
27.330623626708984,26.076562881469727,-2.043614387512207,-0.0,-0.0,-1.0,0.063004664964857,1.0,0.0
26.017751693725582,27.9337158203125,-0.8554894924163818,-0.0,-0.0,-1.0,0.0807249519489072,1.0,0.0
26.77752113342285,28.053001403808594,-0.8085756301879883,-0.0,-0.0,-1.0,0.111850751342815,1.0,0.0
26.233945846557617,28.00479507446289,-0.8435475826263428,-0.0,-0.0,-1.0,0.0949042683959518,1.0,0.0
26.533451080322266,27.43175888061523,-0.7978506088256836,-0.0,-0.0,-1.0,0.2054598321228656,1.0,0.0
26.956239700317383,27.00475311279297,-0.7499938011169434,-0.0,-0.0,-1.0,0.0486545388522131,1.0,0.0
27.00813102722168,26.567310333251953,-0.7284066677093506,-0.0,-0.0,-1.0,0.0308335842092845,1.0,0.0
26.946447372436523,26.680889129638672,-0.7373692989349365,-0.0,-0.0,-1.0,0.0340329846395634,1.0,0.0
27.266189575195312,25.916271209716797,-0.684251070022583,-0.0,-0.0,-1.0,0.0221160399396808,1.0,0.0
26.91865921020508,26.323169708251953,-0.7253057956695557,-0.0,-0.0,-1.0,0.0265628821048776,1.0,0.0
25.25090217590332,27.93459701538086,-1.9342718124389648,-0.0,-0.0,-1.0,0.1720511275262042,1.0,0.0
25.370445251464844,27.021163940429688,-1.879404067993164,-0.0,-0.0,-1.0,0.1635480720272788,1.0,0.0
25.214082717895508,26.78356552124023,-1.8864684104919431,-0.0,-0.0,-1.0,0.1073206037426943,1.0,0.0
26.571880340576172,28.137218475341797,-2.185926675796509,-0.0,-0.0,-1.0,0.057539031427766,1.0,0.0
26.719581604003903,27.68407440185547,-2.140018939971924,0.0248748758101729,-0.531422673902912,-0.8467415084990858,0.1597052110331973,3.0,0.0
26.3226261138916,27.597835540771484,-2.1857736110687256,-0.0,-0.0,-1.0,0.0176460028740041,1.0,0.0
26.28706169128418,27.848735809326172,-2.205010890960694,-0.0,-0.0,-1.0,0.0302233088022814,1.0,0.0
27.39168930053711,26.5296688079834,-1.9864189624786377,-0.0,-0.0,-1.0,0.0469223577890738,2.0,0.0
27.102649688720703,26.533296585083008,-2.0240180492401123,-0.0,-0.0,-1.0,0.1147191486935736,1.0,0.0
26.596698760986328,27.009963989257812,-2.1166000366210938,-0.0,-0.0,-1.0,0.042452219800037,1.0,0.0
26.38824462890625,27.382274627685547,-2.1648452281951904,-0.0,-0.0,-1.0,0.0194376439204854,1.0,0.0
27.06468391418457,26.038270950317383,-2.0013787746429443,-0.0,-0.0,-1.0,0.1003968435937952,1.0,0.0
27.099761962890625,26.275537490844727,-2.009937524795532,-0.2593078913916904,-0.6765109483287027,-0.6892694351655198,0.1816387253823052,7.0,0.0
27.102140426635746,25.817058563232425,-1.9844281673431396,-0.0,-0.0,-1.0,0.2160402570461967,1.0,0.0
26.94260597229004,25.924427032470703,-2.0111827850341797,-0.0,-0.0,-1.0,0.0882415817365446,1.0,0.0
25.473224639892575,27.902584075927734,-2.0294952392578125,-0.0,-0.0,-1.0,0.2274224049849673,1.0,0.0
25.21424102783203,28.097347259521484,-2.072227954864502,-0.0,-0.0,-1.0,0.189504917509567,1.0,0.0
25.594078063964844,27.38517189025879,-1.9807604551315308,-0.0,-0.0,-1.0,0.0859757474642041,1.0,0.0
26.71141815185547,27.70178985595703,-1.876801609992981,-0.0,-0.0,-1.0,0.0776057624152088,1.0,0.0
25.62848663330078,27.253576278686523,-1.9680894613265991,0.0518510817010599,-0.0636377980517865,-0.9966251531973044,0.1194795836312911,4.0,0.0
27.035053253173828,25.837779998779297,-1.7130526304244995,0.371417685751479,-0.0536405390111306,-0.926915096050124,0.1321904888514072,3.0,0.0
27.103979110717773,25.8126277923584,-1.651881217956543,0.2803416121103264,-0.2502058339845911,-0.9267176598940254,0.191884899502922,5.0,0.0
27.330360412597656,27.884960174560547,-2.2659873962402344,-0.0,-0.0,-1.0,0.0691056325864133,2.0,0.0
27.30569076538086,27.523143768310547,-2.2440438270568848,-0.0,-0.0,-1.0,0.0658963477943151,2.0,0.0
27.47422218322754,26.98669815063477,-2.1804466247558594,-0.0,-0.0,-1.0,0.0534306072003345,2.0,0.0
27.67583465576172,26.339542388916016,-2.104872226715088,-0.0,-0.0,-1.0,0.0314823502586964,1.0,0.0
27.547954559326172,26.635101318359375,-2.1449198722839355,-0.8824138385405637,-0.3523111834346406,-0.3118054643186856,0.0505790946877887,3.0,0.0
25.47378158569336,27.717756271362305,-1.8232675790786743,-0.0,-0.0,-1.0,0.1569281277268784,1.0,0.0
26.42458152770996,28.069589614868164,-2.240664005279541,-0.0,-0.0,-1.0,0.0413802774070284,1.0,0.0
26.724040985107425,27.72295379638672,-2.1642889976501465,-0.0,-0.0,-1.0,0.2190315434486185,2.0,0.0
26.331146240234375,27.672677993774418,-2.2183570861816406,-0.0,-0.0,-1.0,0.0133869981576294,1.0,0.0
26.327495574951172,27.4206485748291,-2.196277618408203,-0.0,-0.0,-1.0,0.0159679604013763,2.0,0.0
27.50881004333496,27.84189224243164,-2.0603585243225098,-0.0,-0.0,-1.0,0.136263409315904,2.0,0.0
27.17940139770508,26.828449249267575,-2.014942169189453,-0.0,-0.0,-1.0,0.14873192020934,2.0,0.0
26.665863037109375,27.018516540527344,-2.1093645095825195,-0.0,-0.0,-1.0,0.0452637846657722,1.0,0.0
