x,y,z,nx,ny,nz,curvature,density
38.813045501708984,19.627704620361328,-1.9161667823791504,-0.0,-0.0,-1.0,0.1289699301211732,1.0
38.8214111328125,19.29089736938477,-1.9344840049743652,-0.0,-0.0,-1.0,0.0855039703863296,1.0
39.07497024536133,20.061613082885746,-1.9318809509277344,-0.0,-0.0,-1.0,0.2316426420231734,2.0
39.060272216796875,19.895343780517575,-1.9379048347473145,-0.0,-0.0,-1.0,0.12557826158695,1.0
39.256309509277344,20.19483184814453,-1.9513530731201172,-0.0,-0.0,-1.0,0.1723667129536067,1.0
38.67849349975586,18.415393829345703,-1.6401891708374023,-0.0,-0.0,-1.0,0.11905507915058,1.0
39.07378005981445,18.252456665039062,-1.5676112174987793,-0.0,-0.0,-1.0,0.2171833230559037,2.0
39.62313079833984,18.139835357666016,-1.6493468284606934,0.2243093257561241,-0.8600182721419275,-0.4583163732192495,0.0742608695617198,4.0
39.748817443847656,18.25402069091797,-1.665394306182861,-0.0,-0.0,-1.0,0.0794340142553551,2.0
39.73443603515625,20.339675903320312,-1.6295723915100098,-0.0,-0.0,-1.0,0.1498325181532699,1.0
40.140892028808594,18.18003845214844,-1.7236905097961426,-0.0,-0.0,-1.0,0.1065658555492869,1.0
39.67636489868164,18.15865135192871,-1.5063388347625732,-0.9873017154854024,-0.1351188804937361,0.0835356853907403,0.0753060193879181,3.0
39.734615325927734,18.235504150390625,-1.6254196166992188,-0.0,-0.0,-1.0,0.0922522815715249,2.0
39.6571159362793,20.430458068847656,-1.5753908157348633,-0.0,-0.0,-1.0,0.1273894712752388,1.0
37.74486541748047,19.636350631713867,-2.0024421215057373,-0.0,-0.0,-1.0,0.0441672214293096,2.0
37.752784729003906,19.49694442749023,-2.007481336593628,-0.0,-0.0,-1.0,0.0467805793439164,2.0
39.78913116455078,18.274200439453125,-1.460971117019653,-0.6543110712557502,-0.5528859340099215,-0.5159400798601799,0.0951757693721301,3.0
37.798641204833984,18.99427032470703,-1.9475808143615725,-0.0,-0.0,-1.0,0.0254581553853484,2.0
37.8985710144043,19.664140701293945,-1.9373879432678225,-0.0,-0.0,-1.0,0.1084239974168368,2.0
37.90248107910156,19.39960479736328,-1.948869705200195,-0.6796047409070286,-0.3176882410882477,-0.6612197649881212,0.0723778883535919,4.0
37.938751220703125,19.16661262512207,-1.9650373458862305,-0.0,-0.0,-1.0,0.0226604681673457,1.0
38.39122772216797,20.514028549194336,-1.993519306182861,-0.3736365232055066,-0.6134329235655902,-0.6957699309489264,0.0909716662647413,3.0
37.84744644165039,18.19086647033691,-1.9098284244537351,-0.0,-0.0,-1.0,0.1623373090972575,1.0
38.053836822509766,19.414310455322266,-1.9103171825408936,-0.1210302620458931,-0.5252339538418318,-0.8423069330124134,0.0405901766639544,3.0
38.11446762084961,19.0098876953125,-1.9328291416168213,-0.0,-0.0,-1.0,0.0319470443067594,1.0
37.98523712158203,18.755298614501953,-1.9168217182159424,-0.0,-0.0,-1.0,0.0235763149712113,1.0
37.9741096496582,18.404380798339844,-1.9258129596710205,-0.0,-0.0,-1.0,0.0966463285431026,2.0
38.306396484375,19.63731384277344,-1.9507911205291748,-0.0,-0.0,-1.0,0.1295643789358847,1.0
38.166961669921875,19.209266662597656,-1.936737298965454,-0.8664501608935276,-0.3834444451870652,-0.3197412643728729,0.0485386971208579,3.0
38.24033737182617,18.84814453125,-1.9605867862701416,-0.0,-0.0,-1.0,0.0223989568316039,2.0
38.533416748046875,20.471410751342773,-1.972940683364868,-0.8287974798822021,0.1161852083793631,0.5473533910507493,0.1421148427132073,4.0
38.64231491088867,20.08670997619629,-2.0016558170318604,-0.0,-0.0,-1.0,0.1079928172400206,1.0
38.431884765625,19.816814422607425,-1.9693100452423096,-0.0,-0.0,-1.0,0.0885950561645076,1.0
38.74613952636719,20.164691925048828,-2.0189898014068604,-0.0,-0.0,-1.0,0.1460798345314926,1.0
38.61332702636719,18.592472076416016,-1.6568424701690674,-0.0,-0.0,-1.0,0.2211687155826968,1.0
39.21906280517578,19.966039657592773,-1.7547624111175537,-0.8255355312876418,-0.0207112638857031,-0.5639699727200803,0.224382539048439,3.0
39.11406707763672,19.73743057250977,-1.7369725704193115,-0.3606757790759274,0.2539173977954256,-0.8974624992080577,0.1568592554140789,5.0
39.13059997558594,19.437183380126953,-1.7412211894989014,0.6670834559030387,-0.6382614133399565,0.3842161255097704,0.1256782975777537,5.0
39.57373046875,18.156492233276367,-1.8294131755828855,-0.0,-0.0,-1.0,0.1399520486427427,2.0
39.819557189941406,18.53275680541992,-1.8687360286712649,-0.0032808929954883,-0.4547656877206685,-0.8906050780301555,0.0218135013504698,5.0
39.8157958984375,18.225900650024418,-1.8710358142852783,-0.0,-0.0,-1.0,0.1161021125084869,1.0
40.132381439208984,18.985254287719727,-1.9202511310577393,0.6832780395903933,-0.7025527392930084,-0.1988737517255585,0.0251668442608272,3.0
40.020530700683594,18.789321899414062,-1.9019477367401123,-0.0,-0.0,-1.0,0.0152168449566127,1.0
39.23839569091797,18.22664451599121,-1.8550150394439695,-0.0,-0.0,-1.0,0.1221420364535894,1.0
39.09331512451172,19.8741455078125,-1.8303043842315672,-0.0,-0.0,-1.0,0.1686790200178478,1.0
39.09415435791016,19.524633407592773,-1.8289148807525637,0.18639495937615,-0.0882902793757703,-0.9784997423029358,0.1321800250246763,3.0
39.074974060058594,19.25942611694336,-1.8245770931243896,0.4519384863017638,0.8557222809323901,-0.2519741703332658,0.056245062905418,4.0
39.29584503173828,18.78275680541992,-1.8647844791412351,-0.0,-0.0,-1.0,0.1404084185024395,1.0
39.454689025878906,18.375553131103516,-1.8943746089935305,-0.0,-0.0,-1.0,0.1645728968738321,1.0
39.302490234375,20.13010597229004,-1.8705666065216064,-0.0,-0.0,-1.0,0.2526669482299503,1.0
39.651145935058594,19.06404685974121,-1.9304187297821045,-0.0,-0.0,-1.0,0.103100673023612,1.0
39.593299865722656,18.909677505493164,-1.919572114944458,-0.0,-0.0,-1.0,0.0570929931880255,1.0
39.78937911987305,18.17058563232422,-1.752274751663208,-0.0,-0.0,-1.0,0.0834531378434639,1.0
40.058570861816406,18.37218475341797,-1.802753210067749,-0.0,-0.0,-1.0,0.0333894514538554,1.0
40.13457489013672,18.61180305480957,-1.818855047225952,-0.0,-0.0,-1.0,0.0100020249318663,1.0
39.12934875488281,18.669593811035156,-1.901118755340576,-0.1040193141349901,-0.195624005579068,-0.9751467739412806,0.1014951947158747,5.0
39.23819732666016,18.49026107788086,-1.9158940315246584,-0.0,-0.0,-1.0,0.1041318847173763,2.0
39.29650115966797,18.899898529052734,-1.9431447982788088,-0.0,-0.0,-1.0,0.066593646016671,1.0
39.56015396118164,18.430051803588867,-1.977294921875,-0.0,-0.0,-1.0,0.0574549148084421,1.0
38.98503875732422,18.230484008789062,-1.7008287906646729,-0.0,-0.0,-1.0,0.2198477399838531,1.0
39.102561950683594,18.377296447753903,-1.7309601306915283,-0.0,-0.0,-1.0,0.1572169062277118,1.0
39.54935836791992,18.14001846313477,-1.804945707321167,-0.0888752660345563,-0.7829601771222722,-0.6156903021227047,0.1116771245682901,3.0
38.98095703125,19.76110458374023,-1.7843687534332275,-0.0,-0.0,-1.0,0.2099345074946435,2.0
39.080039978027344,19.46797561645508,-1.7862589359283447,0.1314268895753656,0.0214180354685288,-0.9910944659583226,0.224544791754583,4.0
39.73908233642578,18.674346923828125,-1.86911940574646,-0.0,-0.0,-1.0,0.0189498899322825,1.0
39.75734329223633,18.420013427734375,-1.8593080043792725,-0.0,-0.0,-1.0,0.0547800757269242,1.0
39.1400260925293,19.96061897277832,-1.826981782913208,-0.6471348537440869,-0.0014348907677632,-0.7623742008738912,0.2202078898779249,3.0
39.904930114746094,18.910863876342773,-1.9138495922088623,-0.0,-0.0,-1.0,0.0228446057642873,2.0
39.28364562988281,20.1923828125,-1.8688075542449951,-0.0,-0.0,-1.0,0.1684708414109115,2.0
39.95687484741211,19.14859390258789,-1.9369466304779053,0.176349654676179,-0.8790795287144442,-0.4428543569739192,0.0495002557015192,3.0
40.0826530456543,20.48630142211914,-2.0408575534820557,-0.0,-0.0,-1.0,0.1763107519647086,1.0
38.57923126220703,18.58864974975586,-1.6121885776519775,0.4049599727476941,-0.609798429353653,-0.681287968505246,0.2172927241740037,6.0
39.12309265136719,19.329788208007812,-1.763404130935669,0.5083033702400584,0.8246647207187277,-0.2481043776407444,0.10976630270408,4.0
39.893211364746094,18.37858009338379,-1.8546106815338137,-0.0,-0.0,-1.0,0.0713907687181269,2.0
39.08721923828125,19.729053497314453,-1.7824842929840088,-0.0,-0.0,-1.0,0.1378013804985035,1.0
39.11956024169922,19.47653007507324,-1.7721788883209229,0.397174679852767,-0.8737562103683638,-0.2807175778724367,0.1433174377422213,5.0
40.010589599609375,18.864301681518555,-1.9063489437103271,-0.0,-0.0,-1.0,0.0174476867751144,1.0
40.01795196533203,18.68600845336914,-1.8969547748565672,-0.0,-0.0,-1.0,0.0101710147006493,1.0
39.25887680053711,20.001585006713867,-1.8339874744415283,-0.0500400639508863,0.9944461427025086,-0.0925897470775977,0.1312168944152334,3.0
40.09599685668945,19.14801025390625,-1.940436601638794,-0.0,-0.0,-1.0,0.0458749937892175,1.0
39.50457000732422,20.62605094909668,-1.9249279499053955,-0.0,-0.0,-1.0,0.0826018770388219,1.0
38.424285888671875,18.454113006591797,-1.8971362113952637,-0.0,-0.0,-1.0,0.0997890689748977,1.0
38.503929138183594,18.216726303100582,-1.9024229049682615,-0.0,-0.0,-1.0,0.058092134300567,2.0
38.55365753173828,18.761449813842773,-1.9416723251342771,-0.7509893932097291,-0.0925023573236405,-0.6538029100394497,0.1120117269486326,3.0
38.55860137939453,18.559158325195312,-1.9318962097167969,-0.0,-0.0,-1.0,0.1922921151344671,2.0
38.13591384887695,19.442392349243164,-1.8897767066955569,0.1597252865829124,-0.2442731789260811,-0.9564614194432272,0.1594334457693297,3.0
38.37666320800781,19.361717224121097,-1.9373960494995115,-0.0,-0.0,-1.0,0.1089824770714801,1.0
38.52073669433594,18.997478485107425,-1.9475584030151367,-0.6596549413278874,-0.7514640165559361,-0.0125375517275598,0.0555350773941984,3.0
38.35483169555664,19.739229202270508,-1.9555439949035645,-0.0,-0.0,-1.0,0.0645265052915455,1.0
38.35646438598633,19.603364944458008,-1.9474754333496096,-0.0,-0.0,-1.0,0.1807177397604147,2.0
38.29578399658203,20.411680221557617,-1.986598014831543,-0.0,-0.0,-1.0,0.0442420109526879,1.0
38.50659942626953,20.208641052246097,-2.0186538696289062,-0.0,-0.0,-1.0,0.0532822187632738,1.0
39.72479248046875,18.204198837280273,-1.419163942337036,-0.0,-0.0,-1.0,0.0749112111094103,1.0
38.271263122558594,18.166826248168945,-1.8710370063781736,-0.0,-0.0,-1.0,0.0422636690554919,1.0
38.31962203979492,18.584012985229492,-1.9183282852172852,-0.0,-0.0,-1.0,0.0240582582193312,1.0
38.52181243896485,18.37308692932129,-1.9453682899475095,-0.0,-0.0,-1.0,0.1298714348942392,2.0
38.2247200012207,19.15964126586914,-1.9496030807495115,-0.0,-0.0,-1.0,0.051375453186213,2.0
38.428714752197266,18.855484008789062,-1.9673514366149905,-0.0,-0.0,-1.0,0.042706404378842,1.0
38.02061462402344,19.64937973022461,-1.9508042335510256,-0.0,-0.0,-1.0,0.0454723138884694,1.0
38.032352447509766,20.129608154296875,-2.001614570617676,-0.0,-0.0,-1.0,0.043082329254736,1.0
38.10095977783203,20.05364990234375,-2.00927209854126,-0.0,-0.0,-1.0,0.0532351309218574,1.0
38.15239334106445,20.45918083190918,-2.0626649856567383,-0.0,-0.0,-1.0,0.0504090837455702,2.0
39.68193435668945,18.14304542541504,-1.4657564163208008,-0.9873017154854024,-0.1351188804937361,0.0835356853907403,0.0749615024011665,3.0
38.154144287109375,18.242849349975582,-1.9030890464782717,-0.0,-0.0,-1.0,0.0924912486764892,1.0
37.93013000488281,18.742267608642575,-1.89974308013916,-0.0,-0.0,-1.0,0.0275086049239979,1.0
38.10527801513672,18.599655151367188,-1.9268865585327148,-0.0,-0.0,-1.0,0.0327795437213539,1.0
37.96134185791016,19.083446502685547,-1.943004131317139,-0.0,-0.0,-1.0,0.0265011672448348,2.0
38.09715270996094,18.884227752685547,-1.954118251800537,-0.0,-0.0,-1.0,0.0203843247585663,2.0
37.829200744628906,19.621938705444336,-1.9708847999572752,-0.0,-0.0,-1.0,0.0416158347792429,1.0
37.941184997558594,19.3897762298584,-1.9714579582214355,-0.6796047409070286,-0.3176882410882477,-0.6612197649881212,0.0445838513294581,4.0
37.73057174682617,19.965993881225582,-1.9872407913208008,-0.0,-0.0,-1.0,0.042233595694314,1.0
37.84550094604492,20.523155212402344,-2.080965995788574,-0.0,-0.0,-1.0,0.0811270942404099,1.0
39.45905303955078,19.658369064331055,-1.6652445793151855,-0.0,-0.0,-1.0,0.0723110871640032,1.0
39.521759033203125,19.505102157592773,-1.661954402923584,-0.0,-0.0,-1.0,0.044234696380773,1.0
39.40729522705078,19.8563232421875,-1.675675392150879,-0.0,-0.0,-1.0,0.0557848223080099,1.0
37.87464904785156,18.360794067382812,-1.938169002532959,-0.0,-0.0,-1.0,0.1762722958606487,1.0
40.19426727294922,18.56722640991211,-1.87503719329834,-0.0,-0.0,-1.0,0.008833786940533,1.0
37.777435302734375,19.096830368041992,-1.9892992973327637,-0.0,-0.0,-1.0,0.022693722673188,1.0
40.19239807128906,18.92530059814453,-1.9087133407592771,0.7434563216069521,-0.0815772230423588,-0.6637905200764453,0.0230093591361941,3.0
37.74798583984375,19.48232078552246,-2.024752616882324,-0.0,-0.0,-1.0,0.0472195014228551,2.0
37.722503662109375,19.823204040527344,-2.0580649375915527,-0.0,-0.0,-1.0,0.033319236652814,1.0
39.062557220458984,18.26899528503418,-1.595233917236328,-0.0,-0.0,-1.0,0.2657835334197439,2.0
39.40399932861328,18.612857818603516,-1.703256130218506,-0.0,-0.0,-1.0,0.1737282502198535,1.0
39.16861343383789,19.46759033203125,-1.735992431640625,0.4249079185320367,0.1304747444527285,-0.8957843500691263,0.1591982550740566,6.0
39.35138702392578,19.28799819946289,-1.7579336166381836,-0.0,-0.0,-1.0,0.1402217362347472,1.0
39.20151138305664,19.831188201904297,-1.7818989753723145,-0.0,-0.0,-1.0,0.1714810835541444,1.0
39.167381286621094,20.17343521118164,-1.811966896057129,-0.0,-0.0,-1.0,0.2535908686899394,2.0
39.68833923339844,20.211671829223633,-1.930922508239746,-0.0,-0.0,-1.0,0.1890591600227499,1.0
39.520118713378906,20.505849838256836,-1.9271469116210935,-0.9771610287846751,-0.0114293503906281,-0.212192586520178,0.143473412339166,3.0
38.55064010620117,18.34311294555664,-1.91772723197937,-0.0,-0.0,-1.0,0.1319722895507015,2.0
38.570106506347656,18.72732162475586,-1.955737829208374,-0.6697364295979569,-0.5350343343922949,0.5149673541990553,0.0858623781856942,3.0
38.31499481201172,19.27885055541992,-1.9393112659454343,-0.0,-0.0,-1.0,0.0524869304803049,1.0
38.479095458984375,19.080623626708984,-1.963782548904419,-0.0,-0.0,-1.0,0.058087122205668,1.0
38.2660026550293,19.560012817382812,-1.95430588722229,-0.0,-0.0,-1.0,0.0997483120253251,1.0
38.32489013671875,19.90300178527832,-2.005152940750122,0.3500266861729278,-0.1318353770131005,-0.9274161699768948,0.0729467526734823,3.0
38.320777893066406,20.2712345123291,-2.043968439102173,-0.0,-0.0,-1.0,0.0419249201066417,2.0
39.63365173339844,18.169330596923828,-1.5647649765014648,-0.92560091206637,0.2961885430797332,-0.2356592848376849,0.1072382846412349,3.0
39.920379638671875,19.471195220947266,-1.7371509075164795,-0.0,-0.0,-1.0,0.1855065457669948,1.0
39.570953369140625,19.814361572265625,-1.6894080638885498,-0.0,-0.0,-1.0,0.08455910344832,1.0
40.18977355957031,20.148210525512695,-1.860922574996948,-0.0,-0.0,-1.0,0.2705766052895503,1.0
39.54426193237305,20.63157081604004,-1.7637250423431396,-0.0,-0.0,-1.0,0.1602022782663927,1.0
38.79742813110352,19.587047576904297,-1.4931957721710205,-0.0,-0.0,-1.0,0.2152848412705431,1.0
39.07289123535156,18.330381393432617,-1.9091262817382812,-0.0,-0.0,-1.0,0.1311263240146562,1.0
38.136573791503906,18.52639389038086,-1.672752857208252,-0.0,-0.0,-1.0,0.1573216960818411,1.0
38.935665130615234,18.8106632232666,-1.915900707244873,-0.0,-0.0,-1.0,0.0600273772892552,1.0
39.048492431640625,18.606718063354492,-1.927412986755371,-0.0,-0.0,-1.0,0.037051578920741,1.0
38.898704528808594,19.08172607421875,-1.9324097633361816,-0.0,-0.0,-1.0,0.0666261665077876,1.0
39.01996994018555,18.98716163635254,-1.9557557106018064,-0.0,-0.0,-1.0,0.0640074785013809,1.0
38.80965042114258,19.46686553955078,-1.9478683471679688,-0.0,-0.0,-1.0,0.1826757049021732,2.0
38.588253021240234,19.748594284057617,-1.9187002182006836,-0.0,-0.0,-1.0,0.1448912974171252,2.0
38.771690368652344,19.912805557250977,-1.986189365386963,-0.0,-0.0,-1.0,0.1221553478507851,1.0
38.58184051513672,20.400270462036133,-1.9919829368591309,0.2505097079763861,-0.9678225076255638,0.0237587866472833,0.0947561530351323,3.0
38.79730224609375,20.230255126953125,-2.0292983055114746,-0.0,-0.0,-1.0,0.1192495359108554,1.0
38.59109878540039,20.54092788696289,-2.011415958404541,-0.0,-0.0,-1.0,0.126959036223293,2.0
39.68044662475586,18.15353202819824,-1.4663777351379397,-0.9873017154854024,-0.1351188804937361,0.0835356853907403,0.0749615024011665,3.0
39.51488494873047,20.598243713378903,-1.6601619720458984,-0.0,-0.0,-1.0,0.1078046245282249,1.0
38.487117767333984,18.239622116088867,-1.8903682231903076,-0.0125679408096862,0.4585976205865241,-0.8885551582519696,0.0718589898831501,3.0
38.581993103027344,18.20134162902832,-1.9154431819915771,-0.0,-0.0,-1.0,0.0563636223073612,1.0
38.58495330810547,18.612503051757812,-1.9580881595611572,-0.0,-0.0,-1.0,0.1388538640520984,1.0
38.50901794433594,19.119016647338867,-1.990818738937378,-0.0,-0.0,-1.0,0.0401695049144165,2.0
38.56396484375,18.93157958984375,-1.9862325191497805,-0.0,-0.0,-1.0,0.0571504252085047,1.0
38.310691833496094,19.375978469848633,-1.961414098739624,-0.0,-0.0,-1.0,0.0933710052908036,1.0
38.28971862792969,19.790111541748047,-2.006720781326294,-0.0,-0.0,-1.0,0.0314078084522908,2.0
38.308128356933594,20.195789337158203,-2.066016912460327,-0.0,-0.0,-1.0,0.0417887111817552,1.0
38.32908630371094,20.6259765625,-2.132460832595825,-0.0,-0.0,-1.0,0.0709709211485868,1.0
39.64057540893555,18.16166305541992,-1.6753590106964111,0.2243093257561241,-0.8600182721419275,-0.4583163732192495,0.0777685869605922,4.0
39.35769271850586,18.570388793945312,-1.637800931930542,-0.0,-0.0,-1.0,0.1692953613172705,2.0
39.164852142333984,19.468320846557617,-1.6798045635223389,0.6860140821768398,-0.4807437896569963,-0.546141087779795,0.196953655558655,6.0
39.37303924560547,19.351472854614254,-1.722038507461548,-0.0,-0.0,-1.0,0.1657892509991179,1.0
39.15500259399414,19.801992416381836,-1.7152011394500732,-0.0,-0.0,-1.0,0.2449147113081174,2.0
39.63932418823242,20.155853271484375,-1.8842217922210691,-0.0,-0.0,-1.0,0.1547378519222285,1.0
39.54158782958984,20.546245574951172,-1.906582593917847,-0.1141362704054308,0.0935218327326122,-0.9890533749905877,0.1444460254904119,4.0
39.349456787109375,18.146419525146484,-1.9089410305023191,-0.0,-0.0,-1.0,0.0822286415796569,1.0
39.163822174072266,18.70445442199707,-1.9087803363800049,-0.0803621741663522,-0.3688174182244238,-0.926021399848582,0.1271913086698075,5.0
39.43798828125,18.481164932250977,-1.9698359966278076,-0.0,-0.0,-1.0,0.1124823919425151,1.0
39.574554443359375,18.49959373474121,-2.0139434337615967,-0.0,-0.0,-1.0,0.0542027626836212,1.0
39.135963439941406,18.952329635620117,-1.927917242050171,-0.0,-0.0,-1.0,0.0430946921757379,1.0
39.20848083496094,18.90144157409668,-1.944350004196167,-0.0,-0.0,-1.0,0.0881035495843204,1.0
39.00935363769531,19.351226806640625,-1.9360568523406985,-0.0,-0.0,-1.0,0.1325542656279489,1.0
38.90390396118164,19.9146671295166,-1.97577166557312,-0.0,-0.0,-1.0,0.1270228992908822,1.0
38.89470291137695,20.18827438354492,-2.0103046894073486,-0.0,-0.0,-1.0,0.1712116602605183,1.0
38.77734375,20.618846893310547,-2.036452531814575,-0.0,-0.0,-1.0,0.0736281497863099,1.0
38.88018035888672,20.47426414489746,-2.0462844371795654,-0.0,-0.0,-1.0,0.0961643762264109,1.0
39.19697570800781,18.16730308532715,-1.8634836673736572,-0.0,-0.0,-1.0,0.1522701295891202,1.0
38.527198791503906,18.49017333984375,-1.689119577407837,-0.0,-0.0,-1.0,0.1584311499145634,1.0
39.13373947143555,18.626317977905273,-1.8910424709320068,-0.4170305838941024,-0.3333317919582752,-0.8455621849200855,0.1249466235483859,5.0
39.02180862426758,19.129314422607425,-1.9131596088409424,-0.0,-0.0,-1.0,0.0494374070587187,1.0
38.142765045166016,19.45216941833496,-1.683713674545288,-0.0,-0.0,-1.0,0.2452190615038729,2.0
38.78012466430664,19.551658630371097,-1.8908183574676511,-0.0,-0.0,-1.0,0.1878034224484466,1.0
38.95704650878906,19.36173439025879,-1.9213826656341553,-0.0,-0.0,-1.0,0.1031599519429118,1.0
38.86166763305664,19.7442626953125,-1.9404799938201904,-0.0,-0.0,-1.0,0.1167030998961619,1.0
39.53857421875,20.30130386352539,-1.6851818561553955,-0.0,-0.0,-1.0,0.2054456592579559,2.0
39.613792419433594,20.5231990814209,-1.73356032371521,-0.0,-0.0,-1.0,0.1440755471104049,1.0
39.368919372558594,18.52350616455078,-1.6378977298736572,-0.0,-0.0,-1.0,0.2390526293381148,2.0
40.191139221191406,18.473472595214844,-1.8882181644439695,-0.0,-0.0,-1.0,0.0150919993574653,1.0
40.145992279052734,18.894607543945312,-1.9232141971588137,-0.0,-0.0,-1.0,0.0212018624152266,2.0
39.10710525512695,19.53554916381836,-1.6854956150054932,-0.4606420083686773,0.1710851408859284,-0.870941338262293,0.1372225208627795,8.0
39.23796463012695,19.422409057617188,-1.7102525234222412,-0.0,-0.0,-1.0,0.1509105924201677,1.0
39.56425476074219,19.323898315429688,-1.7974112033843994,-0.0,-0.0,-1.0,0.1544364669390088,2.0
39.105003356933594,19.580013275146484,-1.6910130977630615,0.7765014218432641,0.0287107257959358,-0.6294610679777262,0.1965742440638529,9.0
39.15447235107422,19.751543045043945,-1.73032546043396,-0.322009147423668,0.9454229938544604,-0.0498545049795034,0.194066717081929,3.0
39.07445526123047,20.100322723388672,-1.7569644451141355,-0.0,-0.0,-1.0,0.1499624503893746,1.0
39.27894592285156,19.967622756958008,-1.79935622215271,-0.0,-0.0,-1.0,0.1477053254317936,2.0
39.34282684326172,18.548404693603516,-1.5073391199111938,-0.0,-0.0,-1.0,0.1368410658107686,1.0
39.39516067504883,19.25736427307129,-1.6109081506729126,-0.0,-0.0,-1.0,0.0566814877024443,1.0
39.74580001831055,19.4917049407959,-1.7409919500350952,-0.0,-0.0,-1.0,0.1879273400828304,1.0
39.0953369140625,19.59605407714844,-1.5740090608596802,-0.0,-0.0,-1.0,0.2113423237460207,1.0
39.41010665893555,19.7741641998291,-1.687343716621399,-0.0011176749849501,0.5439446119595954,-0.8391203786839847,0.0738558957405213,4.0
39.559600830078125,19.558835983276367,-1.698144555091858,-0.0,-0.0,-1.0,0.0393558047037633,2.0
39.0931396484375,20.247488021850582,-1.6717859506607056,-0.0,-0.0,-1.0,0.1805691340164232,1.0
39.155147552490234,20.212038040161133,-1.683135151863098,-0.0,-0.0,-1.0,0.1488575568559041,1.0
39.667842864990234,20.124608993530273,-1.810472846031189,-0.0,-0.0,-1.0,0.1713475120590369,1.0
39.4693603515625,20.559383392333984,-1.824207425117493,-0.0,-0.0,-1.0,0.1352027299670956,2.0
39.01372528076172,18.237163543701172,-1.6199884414672852,-0.8193864201176579,-0.3180838697278918,-0.4768946910437341,0.2090852209086194,3.0
39.81084060668945,18.16386985778809,-1.856781244277954,-0.0,-0.0,-1.0,0.1056869506278666,1.0
39.83244323730469,18.589622497558594,-1.909505605697632,0.0982140150514598,-0.3873453334016509,-0.9166883875884082,0.0181409381827432,3.0
39.302093505859375,18.8192138671875,-1.775207757949829,-0.0,-0.0,-1.0,0.1392483171198962,1.0
39.886871337890625,18.968719482421875,-1.970916986465454,-0.0,-0.0,-1.0,0.026496103160614,2.0
39.14847946166992,19.44527053833008,-1.8115522861480713,0.6875295081982795,0.4643941482795757,-0.5582483769795658,0.2409611714768369,4.0
39.521026611328125,19.290000915527344,-1.9015552997589111,-0.0,-0.0,-1.0,0.093902034745012,2.0
39.7635612487793,19.24094581604004,-1.9679954051971436,-0.0,-0.0,-1.0,0.044109999316515,2.0
39.116981506347656,19.79582977294922,-1.852897882461548,-0.0,-0.0,-1.0,0.1003551259459709,2.0
39.24796295166016,20.113101959228516,-1.9396543502807615,-0.0,-0.0,-1.0,0.1874419100512761,1.0
39.49260330200195,20.327308654785156,-1.8468241691589355,-0.0,-0.0,-1.0,0.1895140882009452,1.0
39.51030731201172,20.52511215209961,-1.8830022811889648,-0.8571486362264344,0.3746044268601883,-0.3535077634110927,0.1525777996297485,4.0
39.3769416809082,20.595779418945312,-1.663829326629639,-0.9001354810305949,0.3742861093733305,0.2228587537432506,0.1725362493801561,3.0
39.55147171020508,19.516645431518555,-1.7051541805267334,-0.0,-0.0,-1.0,0.0764499597910311,2.0
39.62149429321289,19.44102668762207,-1.7135374546051023,-0.0,-0.0,-1.0,0.1235904229777574,1.0
39.4061393737793,19.754392623901367,-1.7029800415039062,0.5089001158249589,0.2400668230820867,-0.8266732078449245,0.092559355496791,5.0
39.18732452392578,20.291162490844727,-1.7371394634246826,-0.0,-0.0,-1.0,0.2042519407515275,1.0
39.301517486572266,20.054243087768555,-1.725853443145752,-0.0,-0.0,-1.0,0.1930862135577834,2.0
39.47087097167969,20.57815742492676,-1.873981475830078,-0.0,-0.0,-1.0,0.1071544220010465,2.0
39.6666145324707,20.60235023498535,-1.9348366260528564,-0.0,-0.0,-1.0,0.0730439680438383,1.0
39.412593841552734,18.556989669799805,-1.5145344734191897,-0.0,-0.0,-1.0,0.1787860114806932,2.0
39.04401397705078,19.551971435546875,-1.5602734088897705,-0.0,-0.0,-1.0,0.0814782779035349,1.0
39.49608612060547,19.2956485748291,-1.652151107788086,-0.0,-0.0,-1.0,0.1239855340113241,1.0
39.22850799560547,19.6600341796875,-1.633683204650879,-0.0,-0.0,-1.0,0.0760918474076745,1.0
39.1282844543457,20.0040283203125,-1.666057825088501,-0.0,-0.0,-1.0,0.1453304789671565,1.0
40.004146575927734,20.212495803833008,-1.5902595520019531,-0.0,-0.0,-1.0,0.1059353247921431,1.0
40.02559280395508,20.262638092041016,-1.6046931743621826,-0.0,-0.0,-1.0,0.1377580033266772,1.0
38.80763244628906,18.4993896484375,-1.949590086936951,-0.0,-0.0,-1.0,0.0784581182985754,1.0
39.08320617675781,18.713205337524418,-1.9152473211288452,-0.0,-0.0,-1.0,0.0409495469467449,2.0
39.070648193359375,18.487890243530273,-1.890243649482727,-0.0,-0.0,-1.0,0.1016666065275913,1.0
39.314998626708984,19.112239837646484,-1.916258215904236,-0.0,-0.0,-1.0,0.0545480563273459,1.0
39.18292236328125,18.977088928222656,-1.9269136190414429,-0.0,-0.0,-1.0,0.0921967797669246,1.0
39.535362243652344,19.224132537841797,-1.884240984916687,-0.0,-0.0,-1.0,0.1396446850395805,1.0
39.7182502746582,20.59773063659668,-2.0844550132751465,-0.0,-0.0,-1.0,0.1140010629607123,2.0
37.975074768066406,18.418291091918945,-1.6834789514541626,-0.0,-0.0,-1.0,0.1753066187176618,2.0
38.04876327514648,19.302112579345703,-1.7474137544631958,-0.0,-0.0,-1.0,0.2305620784134193,1.0
39.2300910949707,18.477266311645508,-1.9245857000350952,-0.0,-0.0,-1.0,0.0864135275088612,2.0
39.344879150390625,20.481163024902344,-1.6334866285324097,-0.0,-0.0,-1.0,0.2205315008174072,1.0
39.3748779296875,18.957836151123047,-1.9456764459609983,-0.0,-0.0,-1.0,0.088619187812258,1.0
39.32374572753906,18.582002639770508,-1.9147793054580688,-0.0,-0.0,-1.0,0.130771157521777,1.0
39.79692077636719,20.14474868774414,-2.004695415496826,-0.0,-0.0,-1.0,0.175160353912569,1.0
39.77114486694336,19.75982666015625,-1.9585245847702024,-0.0,-0.0,-1.0,0.054048710139629,1.0
39.68616485595703,19.328948974609375,-1.921784520149231,-0.0,-0.0,-1.0,0.0617401509723824,2.0
39.03485107421875,19.828432083129883,-1.6157532930374146,-0.0,-0.0,-1.0,0.1301583067212728,1.0
39.623138427734375,20.13747787475586,-1.5435782670974731,-0.0,-0.0,-1.0,0.104264932102123,1.0
39.921180725097656,20.06052589416504,-1.481352686882019,-0.0,-0.0,-1.0,0.1495433659495963,1.0
38.85483932495117,18.9851016998291,-1.9522857666015625,-0.0,-0.0,-1.0,0.0480827455563187,2.0
39.36075592041016,20.53535842895508,-2.060361862182617,-0.0,-0.0,-1.0,0.171392391142776,1.0
39.43752670288086,20.237762451171875,-2.002953290939331,-0.0,-0.0,-1.0,0.097486585459575,1.0
38.79380416870117,18.61311912536621,-1.9201724529266355,-0.0,-0.0,-1.0,0.0668162930891154,1.0
38.69017791748047,18.290855407714844,-1.904726266860962,-0.0,-0.0,-1.0,0.1909877557498772,1.0
39.15838241577149,19.065223693847656,-1.900681495666504,-0.0,-0.0,-1.0,0.0836285488995106,2.0
39.020606994628906,18.68323135375977,-1.8818182945251465,-0.0,-0.0,-1.0,0.0397087549223092,1.0
38.83576965332031,18.188318252563477,-1.8628220558166504,-0.0,-0.0,-1.0,0.1171442340683063,1.0
39.539268493652344,20.06817054748535,-1.959263563156128,-0.0,-0.0,-1.0,0.1254292612455451,1.0
39.641151428222656,19.744550704956055,-1.8943841457366943,-0.0,-0.0,-1.0,0.0849923748496581,1.0
39.58341217041016,19.340221405029297,-1.8511452674865725,-0.0,-0.0,-1.0,0.1013153842612718,2.0
39.36149597167969,19.16589736938477,-1.8725039958953855,-0.0,-0.0,-1.0,0.1110818689000789,1.0
39.530765533447266,20.457332611083984,-2.051744222640991,-0.0,-0.0,-1.0,0.1476682166031368,1.0
39.58567810058594,20.138599395751953,-1.9936306476593015,-0.0,-0.0,-1.0,0.1834738458701924,2.0
38.926395416259766,18.585264205932617,-1.9124178886413576,-0.0,-0.0,-1.0,0.0560084495680435,1.0
39.62517547607422,19.961341857910156,-1.960099458694458,-0.0,-0.0,-1.0,0.108755543156664,2.0
39.7180061340332,19.55760955810547,-1.8839619159698489,-0.0,-0.0,-1.0,0.1080243850932706,1.0
39.481544494628906,19.2169132232666,-1.882953405380249,0.8783377463945841,0.2291116999116014,-0.4195600460269059,0.0667841633026808,3.0
39.213623046875,18.885770797729492,-1.8923263549804688,-0.0,-0.0,-1.0,0.0881035495843204,1.0
39.1328125,18.609664916992188,-1.8733172416687012,-0.3578174664423272,-0.5593217581188579,-0.7477471709098095,0.1040387947323066,4.0
38.92098236083984,18.19541358947754,-1.8662497997283936,-0.0,-0.0,-1.0,0.1264512307188055,1.0
39.74626541137695,19.41127014160156,-1.8576931953430176,-0.0,-0.0,-1.0,0.1297451851988486,2.0
39.48284149169922,20.461559295654297,-1.5432136058807373,-0.0,-0.0,-1.0,0.1788099717905138,1.0
38.10054016113281,19.758136749267575,-2.000233888626098,-0.0,-0.0,-1.0,0.02523930518426,2.0
37.97517013549805,19.7139835357666,-2.0184946060180664,-0.0,-0.0,-1.0,0.0367341587498653,1.0
38.308311462402344,19.77978515625,-1.963892698287964,-0.0,-0.0,-1.0,0.0736354007680542,2.0
38.2659797668457,19.329608917236328,-1.9168286323547363,-0.0,-0.0,-1.0,0.0682768442392199,2.0
37.77938461303711,18.669601440429688,-1.9359781742095947,-0.0,-0.0,-1.0,0.0266730844740606,1.0
39.61981964111328,20.573741912841797,-1.8327367305755615,-0.0,-0.0,-1.0,0.1668753068836155,2.0
39.12981033325195,20.321338653564453,-1.884094476699829,-0.0,-0.0,-1.0,0.2410357939396562,1.0
38.610103607177734,19.590972900390625,-1.883697271347046,-0.0,-0.0,-1.0,0.1824555768859944,1.0
37.98809814453125,18.56218910217285,-1.8831419944763184,-0.0,-0.0,-1.0,0.0456834189787614,1.0
37.764923095703125,18.42003631591797,-1.9121034145355225,-0.0,-0.0,-1.0,0.1270447022852945,1.0
39.65638732910156,20.29989242553711,-1.7873828411102295,-0.0,-0.0,-1.0,0.1388943387931359,1.0
39.93364715576172,20.27145767211914,-1.7345948219299316,-0.0,-0.0,-1.0,0.1481815464427463,1.0
39.62602996826172,19.84792709350586,-1.7302849292755127,-0.0,-0.0,-1.0,0.059344393048912,1.0
39.32166290283203,19.313709259033203,-1.7158398628234863,0.2536780133604298,-0.708086506997226,-0.6589847981144736,0.1070210309333269,3.0
39.68852996826172,19.65920639038086,-1.6935460567474363,-0.0,-0.0,-1.0,0.1919906758348185,1.0
39.54417037963867,19.41916275024414,-1.6883046627044678,-0.0,-0.0,-1.0,0.100398007667517,2.0
39.08954620361328,18.19977569580078,-1.6272506713867188,-0.0,-0.0,-1.0,0.2058259118757291,1.0
37.90740585327149,19.845312118530273,-1.9800313711166384,-0.0,-0.0,-1.0,0.0600467624632583,2.0
38.15754318237305,19.437280654907227,-1.8848592042922976,0.1597252865829124,-0.2442731789260811,-0.9564614194432272,0.1559225992516852,3.0
38.88453674316406,19.51606178283691,-1.7588013410568235,-0.0,-0.0,-1.0,0.188695877250326,1.0
40.12248611450195,19.531982421875,-2.018332004547119,-0.0,-0.0,-1.0,0.0529248310620204,1.0
40.072872161865234,19.230628967285156,-1.9821354150772097,-0.0,-0.0,-1.0,0.0357367428261459,2.0
40.18949508666992,19.19900894165039,-1.9529672861099243,-0.0,-0.0,-1.0,0.0292282713364299,1.0
40.1752815246582,19.071243286132812,-1.936604142189026,-0.0,-0.0,-1.0,0.029370751746259,1.0
40.04070663452149,18.364662170410156,-1.863228678703308,-0.0,-0.0,-1.0,0.0333894514538554,2.0
39.66611099243164,20.250816345214844,-1.7144612073898315,-0.0,-0.0,-1.0,0.2158558686454118,1.0
39.473690032958984,19.741493225097656,-1.6803232431411743,0.4213144369767091,-0.7581529333918191,-0.4976929523153593,0.075238451423419,3.0
39.41130828857422,19.610103607177734,-1.6745611429214478,-0.0,-0.0,-1.0,0.0692013394534171,2.0
39.3508186340332,19.40047836303711,-1.6589540243148804,0.0917350700199399,-0.5425676972959761,-0.8349880063685818,0.0889342912943917,3.0
39.427223205566406,18.53445816040039,-1.540190577507019,-0.8930236291591935,-0.0744774039644775,-0.4438039139778445,0.1572123970119883,3.0
39.43728256225586,20.489418029785156,-2.034346580505371,-0.0,-0.0,-1.0,0.1930564342627509,2.0
39.73998260498047,20.627582550048828,-2.003573417663574,-0.0,-0.0,-1.0,0.1181392217846615,1.0
39.606727600097656,19.958351135253903,-1.918529391288757,-0.0,-0.0,-1.0,0.1154118719269869,2.0
39.78084945678711,19.572738647460938,-1.826093316078186,-0.0,-0.0,-1.0,0.130629666700454,1.0
39.548885345458984,19.334869384765625,-1.8324700593948364,0.5618534255131922,0.752268239175506,0.3441122267035493,0.064008910608837,4.0
39.13782501220703,19.16702651977539,-1.8850737810134888,-0.6774044087522831,0.654514945860438,-0.335758026930523,0.0792244296498853,3.0
38.786075592041016,19.14807510375977,-1.9500669240951536,-0.0,-0.0,-1.0,0.0698328637847462,1.0
39.51323699951172,19.290237426757812,-1.8324216604232788,-0.0,-0.0,-1.0,0.1064443631633929,2.0
39.294883728027344,19.16684341430664,-1.8551381826400757,-0.0,-0.0,-1.0,0.1209395619338755,2.0
38.41236877441406,18.6607666015625,-1.9555214643478391,-0.0,-0.0,-1.0,0.0208805292033452,1.0
38.37651824951172,18.49460220336914,-1.9404314756393433,-0.0,-0.0,-1.0,0.0508896728837752,1.0
39.4333381652832,18.621307373046875,-1.7493959665298462,-0.0,-0.0,-1.0,0.1705512537622931,1.0
38.995582580566406,18.214786529541016,-1.7793480157852173,-0.0,-0.0,-1.0,0.2037070264680924,1.0
38.44438171386719,18.23406219482422,-1.892633318901062,-0.0,-0.0,-1.0,0.0709213516183057,2.0
39.134220123291016,18.182567596435547,-1.7473851442337036,-0.0,-0.0,-1.0,0.1986067431376768,1.0
39.361297607421875,20.486003875732425,-2.020202875137329,-0.0,-0.0,-1.0,0.213196392318092,1.0
39.46936798095703,20.09992218017578,-1.9364964962005615,-0.0,-0.0,-1.0,0.127771692568957,1.0
39.71125030517578,19.664321899414062,-1.820899486541748,-0.0,-0.0,-1.0,0.0918120163557428,2.0
38.71204376220703,19.405744552612305,-1.969437837600708,-0.0,-0.0,-1.0,0.1227280747073486,1.0
39.73113632202149,19.4787654876709,-1.7872071266174316,-0.0,-0.0,-1.0,0.1311700024962796,1.0
39.52972412109375,19.35911750793457,-1.8059604167938232,-0.0,-0.0,-1.0,0.0759699146363896,2.0
39.277923583984375,19.21985626220703,-1.8320541381835935,-0.0,-0.0,-1.0,0.1569632337104607,1.0
38.78749465942383,19.20271110534668,-1.9243381023406985,-0.0,-0.0,-1.0,0.0732903317969335,1.0
38.27858352661133,18.804439544677734,-1.9673247337341309,-0.0,-0.0,-1.0,0.0181857084543144,2.0
38.972618103027344,18.298398971557617,-1.7563636302947998,-0.0,-0.0,-1.0,0.2111512453247667,1.0
38.3012809753418,18.368160247802734,-1.9023842811584473,-0.0,-0.0,-1.0,0.0526900396720441,1.0
38.14783477783203,18.33125877380371,-1.928905248641968,-0.0,-0.0,-1.0,0.0650348155457426,2.0
38.985008239746094,18.155672073364254,-1.7339394092559814,-0.0,-0.0,-1.0,0.1944822994655632,1.0
37.75016021728515,20.42501640319824,-2.0955028533935547,-0.0,-0.0,-1.0,0.0745711837714153,1.0
40.105255126953125,19.6884708404541,-2.021315574645996,-0.0,-0.0,-1.0,0.0630647138904061,1.0
39.91449737548828,19.520618438720703,-2.0238499641418457,-0.0,-0.0,-1.0,0.0795659262722192,1.0
37.84774017333984,19.97547912597656,-2.006096839904785,-0.0,-0.0,-1.0,0.0562146493135214,1.0
39.504173278808594,18.963611602783203,-1.997581124305725,-0.0,-0.0,-1.0,0.0618511239998058,1.0
39.544776916503906,20.543079376220703,-1.815395474433899,-0.0,-0.0,-1.0,0.2328687356151657,1.0
39.43423843383789,19.726577758789062,-1.690999150276184,0.1941273636418169,-0.685826445777356,-0.7013962168117798,0.0909550712243862,4.0
38.80473327636719,19.625932693481445,-1.7815996408462524,-0.0,-0.0,-1.0,0.1928157080613966,1.0
38.010719299316406,19.926300048828125,-1.9693318605422976,-0.0,-0.0,-1.0,0.0457221469941115,2.0
40.0260124206543,19.147018432617188,-1.928737759590149,-0.0,-0.0,-1.0,0.0458589474485959,2.0
39.78847885131836,19.15433120727539,-1.9768465757369995,-0.0,-0.0,-1.0,0.0348685029229157,2.0
39.30677795410156,19.452381134033203,-1.666376709938049,0.1426175947899111,0.7767771022449177,-0.6134146681359428,0.0612966760611904,3.0
39.134788513183594,19.46057891845703,-1.6972981691360474,0.9207952517456685,-0.2907695340904407,-0.2599791961051096,0.158152444200719,9.0
38.700008392333984,19.306201934814453,-1.7483876943588257,-0.0,-0.0,-1.0,0.1241377870424078,1.0
40.19178009033203,19.038488388061523,-1.8751846551895144,-0.0,-0.0,-1.0,0.0282237442843891,1.0
39.61024856567383,18.91646957397461,-1.967492938041687,-0.0,-0.0,-1.0,0.0612242030171561,1.0
39.58078384399414,18.503374099731445,-1.897204041481018,-0.0,-0.0,-1.0,0.1114278611928553,1.0
39.433319091796875,18.700420379638672,-1.963433861732483,-0.0,-0.0,-1.0,0.1002500596185688,1.0
38.547149658203125,18.53311538696289,-1.6569231748580933,-0.0,-0.0,-1.0,0.1991270871815875,2.0
39.43359375,18.49818420410156,-1.4899648427963257,-0.0,-0.0,-1.0,0.0691192159323373,2.0
39.828155517578125,18.237882614135746,-1.378447651863098,-0.0,-0.0,-1.0,0.0733427208956386,2.0
39.709251403808594,18.14386558532715,-1.3851836919784546,-0.0,-0.0,-1.0,0.0751652127523639,1.0
39.3513298034668,20.43747329711914,-1.8081293106079104,-0.0,-0.0,-1.0,0.2033557681303499,1.0
39.244407653808594,20.43009376525879,-1.827853202819824,-0.0,-0.0,-1.0,0.1727382684793578,1.0
38.294315338134766,19.65494155883789,-1.901400804519653,-0.0,-0.0,-1.0,0.1265924918158997,1.0
38.186767578125,19.57870101928711,-1.9134340286254885,-0.0,-0.0,-1.0,0.1128689770197627,1.0
37.905128479003906,19.58362197875977,-1.975391149520874,-0.0,-0.0,-1.0,0.0511804890776145,1.0
39.37639617919922,20.142017364501953,-1.7540757656097412,-0.0,-0.0,-1.0,0.1171461160115508,2.0
39.29385757446289,19.59402084350586,-1.682279348373413,-0.0673199966212693,-0.2329077915217101,-0.970165954207522,0.0939183233381368,4.0
39.150291442871094,19.316207885742188,-1.6690127849578855,-0.0,-0.0,-1.0,0.18278528268956,2.0
38.654842376708984,19.400514602661133,-1.7865421772003174,-0.0,-0.0,-1.0,0.1302105494359544,1.0
38.23148727416992,18.28105354309082,-1.7257969379425049,-0.0,-0.0,-1.0,0.133733343148417,1.0
37.71639633178711,18.183895111083984,-1.833442449569702,-0.0,-0.0,-1.0,0.1798663602438288,1.0
39.81053924560547,20.263107299804688,-2.0205676555633545,-0.0,-0.0,-1.0,0.124316889825351,2.0
39.74249649047851,20.592988967895508,-2.1006948947906494,-0.0,-0.0,-1.0,0.1277419156107269,2.0
39.711158752441406,19.967151641845703,-1.984567642211914,-0.0,-0.0,-1.0,0.1053907265365082,1.0
39.638336181640625,19.501140594482425,-1.9123823642730713,-0.0,-0.0,-1.0,0.1193780744485022,1.0
39.69127655029297,19.700477600097656,-1.9378390312194824,-0.0,-0.0,-1.0,0.0587029146893561,1.0
39.337738037109375,19.245542526245117,-1.9347467422485352,-0.0,-0.0,-1.0,0.0572260874745743,2.0
37.78517150878906,20.563770294189453,-2.040322542190552,-0.0,-0.0,-1.0,0.0838260756520472,1.0
39.15459442138672,18.881858825683594,-1.9139254093170168,-0.0,-0.0,-1.0,0.0836358378821369,1.0
39.24233627319336,18.30169677734375,-1.7947967052459717,-0.0,-0.0,-1.0,0.1958999938361486,1.0
38.94373321533203,18.52580451965332,-1.9050805568695068,-0.0,-0.0,-1.0,0.0574753808983896,2.0
37.901710510253906,19.58759498596191,-1.8701326847076416,-0.0,-0.0,-1.0,0.1295143520482256,2.0
38.784454345703125,18.141098022460938,-1.8828186988830569,-0.0,-0.0,-1.0,0.085613706073481,1.0
39.45521926879883,20.454364776611328,-1.6907517910003662,-0.0,-0.0,-1.0,0.1975405833988051,1.0
39.749454498291016,19.580190658569336,-1.488867998123169,-0.0,-0.0,-1.0,0.1784209701616355,1.0
39.0638542175293,19.83053207397461,-1.6657044887542725,-0.3586811948384765,0.8238895273976383,-0.4388095795601311,0.1753914056807872,3.0
38.88608169555664,20.19852066040039,-1.7599594593048096,-0.0,-0.0,-1.0,0.2460930998468894,1.0
38.9797477722168,19.68677520751953,-1.6602487564086914,-0.0,-0.0,-1.0,0.2732707772908436,1.0
39.660675048828125,18.15776252746582,-1.6687500476837158,0.2243093257561241,-0.8600182721419275,-0.4583163732192495,0.0774386338459904,4.0
38.59349060058594,19.34549140930176,-1.6881499290466309,-0.0,-0.0,-1.0,0.1325250580280073,1.0
38.33205032348633,19.50963973999023,-1.7674837112426758,-0.0,-0.0,-1.0,0.2010491117289111,2.0
38.50461196899414,18.643627166748047,-1.6063344478607178,0.190290938757154,-0.1250963866609087,-0.9737249368642596,0.2086552581651768,3.0
38.28047180175781,19.39118003845215,-1.7610046863555908,-0.0,-0.0,-1.0,0.1769807003305982,1.0
38.438987731933594,18.621742248535156,-1.6176247596740725,-0.0,-0.0,-1.0,0.2138823020479704,1.0
37.77299499511719,20.40062141418457,-2.0566306114196777,-0.0,-0.0,-1.0,0.0745711837714153,1.0
39.609352111816406,20.281417846679688,-1.6317508220672607,-0.0,-0.0,-1.0,0.2076128096816931,1.0
39.55562973022461,20.455387115478516,-1.6751961708068848,-0.0,-0.0,-1.0,0.1765377403597503,1.0
38.89805603027344,20.32263946533203,-1.7911643981933594,-0.0,-0.0,-1.0,0.2015983708669798,1.0
38.80335235595703,20.03156280517578,-1.7615671157836914,-0.0,-0.0,-1.0,0.1571335795280185,1.0
38.8621826171875,19.62357521057129,-1.678959608078003,-0.0,-0.0,-1.0,0.1721288416567128,1.0
38.46998977661133,19.660566329956055,-1.7748692035675049,-0.0,-0.0,-1.0,0.1670614735080139,2.0
38.363319396972656,19.449750900268555,-1.765790939331055,-0.0,-0.0,-1.0,0.1223625309884406,1.0
37.869728088378906,19.588285446166992,-1.9042418003082275,-0.0,-0.0,-1.0,0.1173350402452179,2.0
40.057891845703125,20.20161819458008,-1.5242915153503418,-0.0,-0.0,-1.0,0.1059353247921431,1.0
39.90984344482422,20.153291702270508,-1.545520305633545,-0.0,-0.0,-1.0,0.1466782894809294,1.0
38.5230598449707,18.59969711303711,-1.5970854759216309,-0.7450738427010388,-0.5300157577131329,-0.4049052549652581,0.2085261310264674,5.0
38.45502471923828,18.561094284057617,-1.6080043315887451,-0.0,-0.0,-1.0,0.1929422150946079,1.0
38.992454528808594,20.520366668701172,-1.7936044931411743,-0.0,-0.0,-1.0,0.0807836443521636,1.0
38.832645416259766,20.11465835571289,-1.7446736097335815,-0.0,-0.0,-1.0,0.2018301739287689,1.0
38.77480697631836,19.965835571289062,-1.7268389463424685,-0.0,-0.0,-1.0,0.1385002239262896,1.0
38.995574951171875,20.39678955078125,-1.7850404977798462,-0.0,-0.0,-1.0,0.2041927914914973,1.0
39.01155853271485,20.321250915527344,-1.7815366983413696,-0.0,-0.0,-1.0,0.2491277238845623,1.0
38.90443420410156,19.861995697021484,-1.73526132106781,-0.0,-0.0,-1.0,0.1681017529811531,1.0
38.14517974853515,18.53437232971191,-1.8970552682876587,0.1514283974876057,0.8606674980285819,-0.4861284791817449,0.1056734913756428,3.0
38.203617095947266,18.337141036987305,-1.8912101984024048,-0.0,-0.0,-1.0,0.0723161300501432,2.0
38.2181396484375,18.679595947265625,-1.9183522462844849,-0.0,-0.0,-1.0,0.0162513071669479,1.0
39.697845458984375,18.273515701293945,-1.3697086572647097,-0.0,-0.0,-1.0,0.0838951464201129,1.0
39.15430450439453,19.362693786621097,-1.68896746635437,0.3225296459220525,0.8907684919802213,0.3201657714320474,0.1944549143550102,4.0
39.350730895996094,19.188861846923828,-1.6943209171295166,-0.0,-0.0,-1.0,0.122860331849161,1.0
39.60977554321289,19.16415786743164,-1.7218148708343506,-0.0,-0.0,-1.0,0.173304610895647,1.0
39.14850234985352,19.598241806030273,-1.711900234222412,0.65205670077642,-0.7578710898325755,0.021294839012174,0.1504615516785079,4.0
39.561012268066406,18.243322372436523,-1.664436101913452,-0.0,-0.0,-1.0,0.0716652703595608,2.0
39.29549026489258,18.969627380371097,-1.7377643585205078,-0.0,-0.0,-1.0,0.1345827518029769,1.0
39.23866271972656,19.434701919555664,-1.7978458404541016,-0.0,-0.0,-1.0,0.1547439894795464,2.0
39.228981018066406,19.16322135925293,-1.758220911026001,-0.0,-0.0,-1.0,0.1285036734095625,1.0
39.71476364135742,18.996871948242188,-1.7854664325714111,-0.0,-0.0,-1.0,0.1069915571442927,1.0
39.36583709716797,19.625347137451172,-1.8382551670074463,-0.0,-0.0,-1.0,0.1235250804417323,1.0
38.56846618652344,20.46074104309082,-1.8783857822418213,-0.0,-0.0,-1.0,0.1130758092256245,1.0
39.22195816040039,19.980701446533203,-1.874600172042847,-0.0,-0.0,-1.0,0.1286714632873231,1.0
39.59663391113281,20.12017059326172,-1.9331614971160889,-0.0,-0.0,-1.0,0.1851890697742232,1.0
39.886592864990234,18.947254180908203,-1.9196933507919312,0.8361108730795519,0.3540311927978433,-0.4190232958252862,0.0642519107846689,3.0
39.040653228759766,19.33413314819336,-1.855547547340393,0.8493173581686702,0.2619023222618446,-0.4583308834316578,0.1391492933132458,4.0
39.4437370300293,19.294910430908203,-1.902504801750183,-0.0,-0.0,-1.0,0.1011846821153973,1.0
39.85169982910156,19.226478576660156,-1.9471296072006223,-0.0,-0.0,-1.0,0.0486166514821159,2.0
38.77671813964844,19.703407287597656,-1.8661760091781616,-0.0,-0.0,-1.0,0.1070334137607052,1.0
39.04969024658203,19.59110641479492,-1.8871763944625857,-0.0,-0.0,-1.0,0.1499096088344369,2.0
39.02249526977539,20.08094024658203,-1.942785143852234,-0.0,-0.0,-1.0,0.2522217455809773,2.0
38.54913330078125,20.45683860778809,-1.9303261041641235,-0.6555729865164194,-0.7413701925437463,0.1435071320791803,0.1286199920941885,5.0
39.24201202392578,20.5671329498291,-2.029730796813965,-0.0,-0.0,-1.0,0.1676335808250845,1.0
37.97063064575195,18.399621963500977,-1.7130025625228882,-0.9108529923885084,0.3967410633703256,-0.1137688660956224,0.2041861318152301,3.0
38.95735168457031,18.679109573364254,-1.8835798501968384,-0.0,-0.0,-1.0,0.0708144380625383,1.0
39.161643981933594,18.63079261779785,-1.903521180152893,-0.5023909903705577,-0.3878828363199351,-0.7727549405101805,0.1247029730840068,6.0
38.872100830078125,18.88434600830078,-1.9028140306472776,-0.0,-0.0,-1.0,0.0554669561161584,1.0
39.11940002441406,18.708797454833984,-1.9092973470687864,-0.0313554414168757,-0.4786089961566028,-0.8774680991873846,0.0396687682197201,5.0
38.12989044189453,19.45572280883789,-1.894187092781067,-0.5448816178539714,-0.8312863038455993,0.1098503689732561,0.155240378023236,4.0
38.46693420410156,19.266450881958008,-1.9078551530838013,-0.0,-0.0,-1.0,0.0535562405005766,2.0
38.84687423706055,19.097373962402344,-1.9311479330062864,-0.0,-0.0,-1.0,0.053611546893926,1.0
38.096343994140625,19.826261520385746,-1.948131203651428,-0.0,-0.0,-1.0,0.0854011634379054,2.0
38.138893127441406,20.231216430664062,-2.0177559852600098,-0.0,-0.0,-1.0,0.0461601043175474,1.0
39.19295883178711,18.62470817565918,-1.925856113433838,-0.0,-0.0,-1.0,0.1244730850565456,2.0
38.85169219970703,18.960411071777344,-1.932943105697632,-0.0,-0.0,-1.0,0.0458074504718693,2.0
39.13508605957031,18.720199584960938,-1.932992935180664,-0.0846214575468398,-0.9657953484194686,-0.2451092692942584,0.0345857100667483,4.0
38.107810974121094,19.50451278686523,-1.9239850044250488,-0.0,-0.0,-1.0,0.0463597944899455,1.0
38.47640609741211,19.269302368164062,-1.9330966472625732,-0.0,-0.0,-1.0,0.0510796741408415,2.0
37.763389587402344,19.887584686279297,-1.945192575454712,-0.0,-0.0,-1.0,0.0468862755179979,2.0
38.072322845458984,19.89874839782715,-1.9864578247070312,-0.0,-0.0,-1.0,0.0504870263325843,1.0
38.042388916015625,20.19489860534668,-2.033698797225952,-0.0,-0.0,-1.0,0.0389456987085028,1.0
38.21609878540039,20.491437911987305,-2.107093334197998,-0.0,-0.0,-1.0,0.0595396912059279,1.0
37.95623016357422,18.36585998535156,-1.7154464721679688,-0.0,-0.0,-1.0,0.222229041579636,2.0
39.85818862915039,19.522483825683594,-1.5477256774902344,-0.0,-0.0,-1.0,0.2311114960818203,1.0
40.05728912353515,20.25481605529785,-1.6720635890960691,-0.0,-0.0,-1.0,0.1634597124669409,1.0
39.09728240966797,19.272850036621097,-1.9062405824661257,-0.0,-0.0,-1.0,0.1143468444591525,1.0
39.35296630859375,19.27627944946289,-1.9241377115249632,-0.0,-0.0,-1.0,0.0871924336737701,2.0
38.58952331542969,19.706674575805664,-1.9849873781204224,-0.0,-0.0,-1.0,0.1148099418015578,1.0
39.060264587402344,19.527978897094727,-1.967939496040344,-0.0,-0.0,-1.0,0.1171140480718427,1.0
39.87043380737305,19.402524948120117,-1.9907158613204956,-0.0,-0.0,-1.0,0.1211804897423531,1.0
38.091278076171875,20.19196319580078,-2.0857625007629395,-0.0,-0.0,-1.0,0.0401476676199536,1.0
38.267974853515625,20.07451057434082,-2.0635318756103516,-0.0,-0.0,-1.0,0.0292772737266355,1.0
38.62607192993164,20.007814407348633,-2.065281867980957,-0.0,-0.0,-1.0,0.047936108697687,1.0
