x,y,z,nx,ny,nz,curvature,density,label
36.3922119140625,6.979017734527588,-1.3272831439971924,-0.0,-0.0,-1.0,0.054238754841351,1.0,0.0
37.0703125,6.3739237785339355,-1.2714893817901611,-0.8362216904264801,0.363734291968791,-0.4104030327693033,0.161292408688704,3.0,0.0
36.63528060913086,6.617215633392334,-1.28255033493042,-0.7087287297356115,-0.4440699476955844,-0.5481837914431503,0.0818755275447081,3.0,0.0
36.406368255615234,6.7299370765686035,-1.2867748737335205,-0.0,-0.0,-1.0,0.1253171102440209,1.0,0.0
37.112770080566406,5.755997180938721,-1.1744043827056885,-0.0,-0.0,-1.0,0.0509955623665442,1.0,0.0
36.15788650512695,6.2026047706604,-1.1841459274291992,-0.0,-0.0,-1.0,0.148809084161002,1.0,0.0
35.429649353027344,6.505979061126709,-1.194133996963501,-0.0,-0.0,-1.0,0.1767089968342179,1.0,0.0
36.27010345458984,7.91687536239624,-0.9425606727600098,-0.0,-0.0,-1.0,0.2175304143358701,1.0,0.0
37.4923210144043,7.736630916595459,-1.4543756246566772,0.1583986715260034,0.0949716544245454,-0.9827971539003671,0.0334544961617181,3.0,0.0
37.16077423095703,7.88439416885376,-1.467232584953308,-0.0,-0.0,-1.0,0.0326099570292988,2.0,0.0
36.89127731323242,8.018487930297852,-1.4809869527816772,-0.0,-0.0,-1.0,0.0451518867941624,1.0,0.0
37.08881378173828,7.798003673553467,-1.4494348764419556,-0.0,-0.0,-1.0,0.0089843292899211,1.0,0.0
36.69038391113281,7.787837505340576,-1.4337142705917358,-0.0,-0.0,-1.0,0.0712663430268004,2.0,0.0
36.312400817871094,7.806746006011963,-1.4252103567123413,-0.4308629189776435,-0.7877227812949611,-0.4402839593705356,0.1204665181643045,3.0,0.0
36.17844772338867,6.977817058563232,-1.2745736837387085,-0.0,-0.0,-1.0,0.1163183306464365,1.0,0.0
35.74284744262695,7.729002475738525,-1.396068453788757,-0.0,-0.0,-1.0,0.0780957044036492,1.0,0.0
35.65688705444336,7.797751903533936,-1.4063400030136108,-0.0,-0.0,-1.0,0.1438743894193546,1.0,0.0
36.80319595336914,6.442875385284424,-1.202936053276062,-0.0,-0.0,-1.0,0.2875562621001327,2.0,0.0
36.14356231689453,6.60027551651001,-1.206897854804993,0.971157904437349,-0.0038296213068861,-0.2384064987568563,0.1581340808833411,5.0,0.0
35.453216552734375,7.280529499053955,-1.30902898311615,-0.0,-0.0,-1.0,0.1619671305694923,1.0,0.0
35.9941291809082,6.1884026527404785,-1.1295264959335327,-0.0,-0.0,-1.0,0.0784514691139294,1.0,0.0
36.15367126464844,8.021490097045898,-0.9222270250320436,-0.0,-0.0,-1.0,0.1688190385053498,1.0,0.0
35.24760055541992,7.131439685821533,-0.7809126377105713,-0.0,-0.0,-1.0,0.1630378405500147,1.0,0.0
37.23103332519531,5.924705982208252,-1.4456011056900024,-0.0,-0.0,-1.0,0.0259357425858677,2.0,0.0
36.40460968017578,5.846965312957764,-1.4090982675552368,-0.0,-0.0,-1.0,0.0751941144219051,1.0,0.0
36.11124038696289,5.773934841156006,-1.3875898122787476,-0.0,-0.0,-1.0,0.0470056766980185,1.0,0.0
35.52881622314453,7.804299831390381,-1.3335717916488647,-0.0,-0.0,-1.0,0.154413763267888,1.0,0.0
35.514984130859375,7.219170093536377,-1.218608021736145,0.9586763231490684,-0.2593293178864568,0.1169957790603067,0.2270637892654787,3.0,0.0
35.24464416503906,7.665904521942139,-1.310503363609314,-0.0,-0.0,-1.0,0.1808248981386588,1.0,0.0
35.68218231201172,6.459530353546143,-1.0684541463851929,-0.2363059422566313,0.4436627495529058,-0.8644783781641744,0.2051880139770022,5.0,0.0
35.57748794555664,6.738580226898193,-1.1236861944198608,-0.0,-0.0,-1.0,0.1447730493911825,1.0,0.0
35.50454330444336,6.9268269538879395,-1.1612385511398315,0.3252653222758713,0.1929906131680999,-0.925719770423952,0.2541981035089909,3.0,0.0
35.377784729003906,6.482194423675537,-1.075482726097107,-0.0,-0.0,-1.0,0.1742375550463828,2.0,0.0
36.90333557128906,8.07376766204834,-1.3917685747146606,-0.0,-0.0,-1.0,0.1262900445328161,1.0,0.0
36.618839263916016,8.076367378234863,-1.3766027688980105,-0.0,-0.0,-1.0,0.1488216883847478,1.0,0.0
36.5141716003418,8.036917686462402,-1.3639477491378784,-0.0,-0.0,-1.0,0.0727690788628556,1.0,0.0
36.33478164672851,8.095704078674316,-1.3654710054397583,-0.5445916629537508,-0.2605958603761634,-0.7971886340108438,0.0430678551059986,3.0,0.0
36.31459426879883,7.214048385620117,-1.2054351568222046,-0.0,-0.0,-1.0,0.2167426944462036,2.0,0.0
35.94375228881836,8.116427421569824,-1.35031259059906,-0.0,-0.0,-1.0,0.1522330177786721,1.0,0.0
35.62834167480469,7.786335945129395,-1.2753525972366333,-0.0,-0.0,-1.0,0.136597246503041,2.0,0.0
35.57892990112305,7.023251533508301,-1.133027195930481,-0.0,-0.0,-1.0,0.1689393087589711,2.0,0.0
35.793121337890625,6.402329444885254,-1.031499981880188,-0.0,-0.0,-1.0,0.1972711443131161,2.0,0.0
35.497703552246094,6.5375165939331055,-1.0405412912368774,-0.9995961607548772,0.0162321696091559,-0.02332449514758,0.1062252195910448,4.0,0.0
37.58795547485352,6.491054534912109,-1.318145751953125,-0.0,-0.0,-1.0,0.1583091738849419,2.0,0.0
36.90582275390625,7.1684465408325195,-1.3752501010894775,-0.0,-0.0,-1.0,0.0243377798278404,1.0,0.0
36.595420837402344,7.4795379638671875,-1.4043986797332764,-0.0,-0.0,-1.0,0.0153426566666405,1.0,0.0
36.40055847167969,7.625001907348633,-1.414855718612671,-0.2270090405872046,-0.3751258144561237,-0.8987477503840032,0.0907711297040818,3.0,0.0
37.23377990722656,6.434174537658691,-1.2781248092651367,-0.0,-0.0,-1.0,0.1329708731033368,1.0,0.0
36.976463317871094,6.497143745422363,-1.266948699951172,0.7544729844512172,-0.1576182461365965,-0.6371240100781768,0.2309754654492656,6.0,0.0
36.719940185546875,6.677331924438477,-1.2762982845306396,-0.0,-0.0,-1.0,0.1024459518816097,1.0,0.0
36.78351211547851,6.505464553833008,-1.2523045539855957,0.5088638904933159,-0.8594719331437032,0.0486367874168562,0.2796017368696616,5.0,0.0
36.33890914916992,6.619946479797363,-1.2358567714691162,-0.0,-0.0,-1.0,0.1623459192132884,2.0,0.0
35.52397155761719,7.662896156311035,-1.3580148220062256,-0.0,-0.0,-1.0,0.1765922989216737,2.0,0.0
35.35416793823242,7.7807769775390625,-1.3674547672271729,-0.0,-0.0,-1.0,0.200648292767921,1.0,0.0
36.12232208251953,8.121878623962402,-0.976264715194702,-0.0,-0.0,-1.0,0.1422564802904042,2.0,0.0
36.2415771484375,6.600530624389648,-1.2248237133026123,-0.2335082727221888,0.7969569333057834,0.5570758772610253,0.1822612449167268,3.0,0.0
35.85350799560547,6.5908050537109375,-1.1930594444274902,-0.0,-0.0,-1.0,0.1916703043371156,1.0,0.0
35.675262451171875,6.845249176025391,-1.2241456508636477,-0.0,-0.0,-1.0,0.142599766948782,2.0,0.0
35.41551208496094,6.3583221435546875,-1.11944842338562,-0.0,-0.0,-1.0,0.1268621100797512,2.0,0.0
35.2318000793457,7.7257490158081055,-0.8719863891601562,-0.0,-0.0,-1.0,0.1322792978986075,2.0,0.0
37.31675338745117,7.3635334968566895,-1.4534697532653809,-0.01404212112186,-0.1385895520471573,-0.9902503496074956,0.0138942715786923,4.0,0.0
37.15786361694336,7.539192676544189,-1.4623897075653076,-0.0,-0.0,-1.0,0.0115865196087719,1.0,0.0
36.92106246948242,7.772014141082764,-1.4717085361480713,-0.0,-0.0,-1.0,0.0270066145106503,1.0,0.0
37.64226150512695,6.448380947113037,-1.3528292179107666,0.7485934782151423,0.1722748247136316,-0.6402571273665313,0.1823337011276093,3.0,0.0
36.626991271972656,7.837099552154541,-1.4491331577301023,-0.0,-0.0,-1.0,0.0900308025245612,1.0,0.0
36.262977600097656,7.996839046478272,-1.4344091415405271,-0.0,-0.0,-1.0,0.0581520157755777,1.0,0.0
37.41389465332031,6.453217029571533,-1.3265502452850342,0.2112477072843064,0.4206695483201426,-0.882276338390218,0.263113480630211,4.0,0.0
37.23993682861328,6.3762640953063965,-1.2944538593292236,-0.0,-0.0,-1.0,0.1009707706430612,2.0,0.0
36.96856689453125,6.513046741485596,-1.2834522724151611,0.6194193241377004,-0.472331861485884,-0.6270744082723153,0.1531922903253297,4.0,0.0
36.7702751159668,6.616285800933838,-1.2762048244476318,-0.0,-0.0,-1.0,0.1831053213230329,1.0,0.0
36.22568130493164,6.584951877593994,-1.2091996669769287,-0.1581389064129447,0.9623494157852044,0.2210784661978502,0.1764819899861894,4.0,0.0
36.124568939208984,6.696291446685791,-1.2150428295135498,-0.0,-0.0,-1.0,0.2072578596885804,2.0,0.0
36.38025665283203,5.993771076202393,-1.136132001876831,-0.0571687203973557,-0.741375202238706,-0.6686512894728064,0.1440070805786329,7.0,0.0
35.22572326660156,7.708108425140381,-1.277242660522461,-0.0,-0.0,-1.0,0.1905657137398866,1.0,0.0
36.141998291015625,8.076400756835938,-0.9376986026763916,-0.0,-0.0,-1.0,0.1755890858587123,2.0,0.0
37.59054946899414,7.437854766845703,-1.457120656967163,-0.0,-0.0,-1.0,0.0348882318727695,2.0,0.0
37.44544982910156,7.788680076599121,-1.482032060623169,-0.0,-0.0,-1.0,0.0108244245621943,2.0,0.0
37.30619812011719,8.085363388061523,-1.5014066696166992,-0.0,-0.0,-1.0,0.034343801957959,2.0,0.0
37.458221435546875,7.584850311279297,-1.457449197769165,-0.0,-0.0,-1.0,0.0319469426096927,2.0,0.0
37.354713439941406,7.855934143066406,-1.4782054424285889,-0.0,-0.0,-1.0,0.0377239718571198,1.0,0.0
37.09241485595703,8.027356147766113,-1.4643957614898682,-0.0,-0.0,-1.0,0.0334819580956469,2.0,0.0
36.639041900634766,8.022771835327148,-1.401911973953247,-0.0,-0.0,-1.0,0.0986816472920102,2.0,0.0
36.34199523925781,8.020391464233398,-1.361445665359497,0.8754746833959439,0.2679396823719342,-0.4021845414025738,0.0740239160896864,3.0,0.0
37.44679641723633,6.425042152404785,-1.3082613945007324,0.0075892973464536,-0.5382028134133959,-0.8427811899892477,0.2051422446013599,3.0,0.0
37.04786682128906,6.417218208312988,-1.2502691745758057,-0.6766538169970807,-0.5405408860380402,-0.4999551604539067,0.1625417333651553,3.0,0.0
36.38644790649414,5.90788459777832,-1.0916321277618408,-0.0,-0.0,-1.0,0.1271332512873288,2.0,0.0
36.17911529541016,6.562434196472168,-1.1467349529266355,-0.0,-0.0,-1.0,0.0855211374872695,1.0,0.0
35.4959831237793,6.5088701248168945,-1.0457589626312256,-0.9995961607548772,0.0162321696091559,-0.02332449514758,0.0999599330738085,4.0,0.0
35.56428527832031,6.924491882324219,-1.1102464199066162,0.2943189723043987,-0.7724549197437396,-0.5627519342528958,0.167616806015208,4.0,0.0
37.54481506347656,7.9279465675354,-1.4226213693618774,-0.0,-0.0,-1.0,0.033365416170226,1.0,0.0
37.6478271484375,6.528648853302002,-1.1949340105056765,-0.7989881953262262,0.6007556079508568,-0.026656392196565,0.1978353645071385,4.0,0.0
37.6539192199707,6.642103672027588,-1.2143317461013794,-0.0,-0.0,-1.0,0.1325294348576533,2.0,0.0
37.36674880981445,8.049617767333984,-1.4257549047470093,-0.0,-0.0,-1.0,0.0345163591923067,1.0,0.0
37.11077880859375,6.466079235076904,-1.1233514547348022,-0.0,-0.0,-1.0,0.2429121556656824,1.0,0.0
37.117401123046875,6.650350093841553,-1.1552294492721558,-0.0,-0.0,-1.0,0.1301674729011076,1.0,0.0
36.776756286621094,8.05213737487793,-1.367021918296814,-0.0,-0.0,-1.0,0.1599563479404703,1.0,0.0
36.81072235107422,6.490628719329834,-1.0941423177719116,-0.0,-0.0,-1.0,0.1437565043848587,1.0,0.0
35.58150863647461,5.6778082847595215,-1.2225769758224487,-0.0,-0.0,-1.0,0.0285614847686781,2.0,0.0
36.135498046875,6.609894275665283,-1.0426074266433716,-0.0,-0.0,-1.0,0.2018724948483545,2.0,0.0
35.559940338134766,6.830599308013916,-1.0245574712753296,-0.0,-0.0,-1.0,0.1547025094575643,1.0,0.0
35.21113204956055,7.635371685028076,-1.1434324979782104,-0.0,-0.0,-1.0,0.2183543836906281,1.0,0.0
37.684871673583984,6.548643589019775,-1.279043197631836,-0.0062517124124702,0.9877210587570808,0.15610261426287,0.2199118179754621,3.0,0.0
37.533416748046875,8.097382545471191,-1.4826490879058838,-0.0,-0.0,-1.0,0.0346579735811503,1.0,0.0
37.58061218261719,6.659688472747803,-1.2788028717041016,-0.4892203922592109,0.3255140190247758,-0.809137832026214,0.0996982009906927,5.0,0.0
37.15602111816406,6.693993091583252,-1.221937656402588,-0.0,-0.0,-1.0,0.1317896959601197,1.0,0.0
36.72951889038086,8.099517822265625,-1.3777010440826416,-0.0,-0.0,-1.0,0.165455128700051,1.0,0.0
36.39491653442383,8.092695236206055,-1.3343281745910645,-0.0,-0.0,-1.0,0.056630032771377,2.0,0.0
36.23667526245117,8.132866859436035,-1.3213133811950684,-0.0,-0.0,-1.0,0.0866753939560817,1.0,0.0
35.974891662597656,7.994573593139648,-1.266232967376709,-0.0,-0.0,-1.0,0.1700984707715195,1.0,0.0
35.99700927734375,5.785471439361572,-1.321000576019287,-0.0,-0.0,-1.0,0.0494743960671979,1.0,0.0
37.05263900756836,6.523212432861328,-1.1829254627227783,-0.0,-0.0,-1.0,0.2053772237632254,1.0,0.0
35.5982666015625,7.385833740234375,-1.1188647747039795,-0.0,-0.0,-1.0,0.173879053663204,2.0,0.0
35.228004455566406,7.690648078918457,-1.1254684925079346,-0.0,-0.0,-1.0,0.2325197189640351,2.0,0.0
37.57189178466797,7.261976718902588,-1.4366239309310913,-0.0,-0.0,-1.0,0.016457872120569,1.0,0.0
37.395469665527344,7.601255893707275,-1.465760350227356,-0.0,-0.0,-1.0,0.0307478838470788,2.0,0.0
37.11247253417969,7.854933738708496,-1.4676073789596558,-0.0,-0.0,-1.0,0.0224542955943416,2.0,0.0
36.742454528808594,7.972663402557373,-1.4357973337173462,-0.0,-0.0,-1.0,0.1222010106469906,2.0,0.0
37.60185241699219,6.492646217346191,-1.3221029043197632,-0.0,-0.0,-1.0,0.158309173884942,2.0,0.0
37.173240661621094,6.464632987976074,-1.250904202461243,-0.5125983689724671,0.8070414191821447,0.2931331776705542,0.1532677671904391,4.0,0.0
37.09956359863281,6.64503812789917,-1.2673839330673218,-0.0,-0.0,-1.0,0.1314817065430698,1.0,0.0
37.01433944702149,6.568268775939941,-1.2423015832901,-0.5399171953544345,0.3253912266854739,-0.77627957061662,0.1979137315111467,6.0,0.0
36.41417694091797,6.486175060272217,-1.1380478143692017,-0.0,-0.0,-1.0,0.2421469883795835,2.0,0.0
36.11082458496094,6.648986339569092,-1.1193238496780396,0.5671683870485115,0.7818882035434072,0.258787283096471,0.2009298469553082,7.0,0.0
35.73285675048828,7.270990371704102,-1.1719824075698853,-0.0,-0.0,-1.0,0.1889936542261562,1.0,0.0
35.48418426513672,6.609106063842773,-1.021733641624451,-0.0,-0.0,-1.0,0.1229927532374003,1.0,0.0
35.590789794921875,6.968100070953369,-1.0988985300064087,-0.0,-0.0,-1.0,0.1763094018494072,2.0,0.0
35.565818786621094,7.153941631317139,-1.1282228231430054,-0.0104476767088348,-0.8349309333271628,0.5502555611939064,0.2556251984433912,3.0,0.0
35.419189453125,7.731451034545898,-1.2136317491531372,-0.0,-0.0,-1.0,0.119347788227968,1.0,0.0
35.221927642822266,6.5470662117004395,-1.3496650457382202,-0.0,-0.0,-1.0,0.1433566796902795,2.0,0.0
35.22617721557617,7.70868444442749,-0.7862735986709595,0.3777027176230259,0.7944131024683823,0.4756558416825552,0.1953477059679241,3.0,0.0
36.89273834228515,5.752583980560303,-1.352824568748474,-0.0,-0.0,-1.0,0.0218906061519581,1.0,0.0
36.90606689453125,6.161800861358643,-1.408940672874451,-0.0,-0.0,-1.0,0.1172924527948823,2.0,0.0
36.62911605834961,6.507601737976074,-1.40272057056427,-0.0,-0.0,-1.0,0.1397510033280753,1.0,0.0
36.35790252685547,6.164952278137207,-1.301228165626526,-0.0,-0.0,-1.0,0.26384901678403,2.0,0.0
36.4158821105957,6.481635570526123,-1.3576866388320925,-0.0,-0.0,-1.0,0.1331920846878992,1.0,0.0
36.329986572265625,7.014404296875,-1.421974778175354,-0.0,-0.0,-1.0,0.0644230665503563,2.0,0.0
36.17121505737305,7.27307653427124,-1.4339874982833862,-0.0,-0.0,-1.0,0.2163912135313837,1.0,0.0
36.01425552368164,7.579227924346924,-1.456529974937439,-0.0,-0.0,-1.0,0.0224854364158789,1.0,0.0
35.99114990234375,6.987586975097656,-1.3546732664108276,-0.0,-0.0,-1.0,0.0920463361426806,1.0,0.0
35.90624237060547,7.304210186004639,-1.3908401727676392,-0.0,-0.0,-1.0,0.1060986920859854,2.0,0.0
35.851463317871094,7.713963031768799,-1.4509035348892212,-0.0,-0.0,-1.0,0.0406149117314024,1.0,0.0
35.730743408203125,7.84478235244751,-1.4527817964553833,-0.0,-0.0,-1.0,0.1096880089124874,1.0,0.0
35.59785842895508,7.389039993286133,-1.3498579263687134,-0.0,-0.0,-1.0,0.2257240465982989,1.0,0.0
37.55020904541016,6.425546169281006,-1.139515995979309,-0.0973514410521502,-0.5400944195077582,-0.8359549718385841,0.16743731770323,3.0,0.0
37.21107482910156,6.530751705169678,-1.0962053537368774,-0.0,-0.0,-1.0,0.226096435193488,2.0,0.0
36.78329849243164,7.911279201507568,-1.2149232625961304,-0.0,-0.0,-1.0,0.1543652538948545,1.0,0.0
36.17102813720703,8.079859733581543,-1.1499634981155396,-0.0,-0.0,-1.0,0.0927627367256626,1.0,0.0
35.5526008605957,6.928542613983154,-1.2644494771957395,0.6205168961293007,0.6132541966537942,0.4887515441454561,0.189496365415868,4.0,0.0
35.53270721435547,7.1917524337768555,-1.3046427965164185,-0.0,-0.0,-1.0,0.1787474646506842,2.0,0.0
35.221309661865234,7.716709136962891,-0.9570585489273072,-0.8622118911580365,0.3061236523911158,-0.4035826609164539,0.0977575457472385,4.0,0.0
37.67398834228515,6.220538139343262,-1.3905954360961914,-0.0,-0.0,-1.0,0.0805837178642694,2.0,0.0
37.37830352783203,7.033883571624756,-1.426391363143921,-0.0,-0.0,-1.0,0.0296497474735288,1.0,0.0
37.31615447998047,7.397717952728272,-1.4614903926849363,-0.1235867547647795,-0.2287256196923399,-0.965614263017622,0.0353460177445935,3.0,0.0
37.2019157409668,7.687641143798828,-1.4791820049285889,-0.0,-0.0,-1.0,0.0123367712758407,2.0,0.0
37.09770965576172,6.484907150268555,-1.3048985004425049,-0.0,-0.0,-1.0,0.1294460991668898,1.0,0.0
37.1788215637207,6.778366565704346,-1.355757713317871,-0.0,-0.0,-1.0,0.0751981811673994,2.0,0.0
37.02448272705078,7.846806049346924,-1.468463659286499,-0.0,-0.0,-1.0,0.0114444130484763,1.0,0.0
36.72208023071289,8.07308578491211,-1.446026086807251,-0.0,-0.0,-1.0,0.093556088831532,2.0,0.0
36.911136627197266,6.567028999328613,-1.2776284217834473,-0.0,-0.0,-1.0,0.1037736052708704,1.0,0.0
36.54122543334961,8.08531379699707,-1.4150047302246094,0.7294389099726909,-0.4864479814056166,-0.48092331821638,0.072396765467614,3.0,0.0
36.3727912902832,6.55264949798584,-1.1703455448150637,-0.0,-0.0,-1.0,0.1859870615230472,2.0,0.0
36.219696044921875,7.228719234466553,-1.230212688446045,-0.1336179874772907,0.9413527649755196,0.3098406127276784,0.2646282334657161,5.0,0.0
36.17451477050781,8.009966850280762,-1.3371624946594238,-0.0,-0.0,-1.0,0.1094130882568873,1.0,0.0
36.34064865112305,6.019131183624268,-1.1008427143096924,-0.4259986813513168,-0.5668301251463082,-0.7051444764823444,0.1485492099836735,6.0,0.0
36.06104278564453,6.617438316345215,-1.1179673671722412,-0.0,-0.0,-1.0,0.1732897247201892,1.0,0.0
35.65046691894531,7.26415491104126,-1.129117727279663,0.480783177443043,-0.457678417058162,-0.7479157725619285,0.174304479422499,3.0,0.0
35.73013687133789,7.385730266571045,-1.1616981029510498,-0.0,-0.0,-1.0,0.2592677971865179,1.0,0.0
35.280189514160156,7.551499843597412,-1.105217695236206,-0.0,-0.0,-1.0,0.2327005441861673,2.0,0.0
37.02482604980469,6.079475402832031,-1.3969073295593262,0.6623364383178821,0.195365859574137,-0.7232859900407591,0.0479496380366295,3.0,0.0
37.005104064941406,6.284635543823242,-1.4088869094848633,-0.2359864414530675,-0.2613585337025403,-0.9359498471131752,0.1288539334282818,3.0,0.0
36.82935333251953,7.224964141845703,-1.458357572555542,-0.0,-0.0,-1.0,0.0228621797303781,1.0,0.0
36.71932601928711,7.608516216278076,-1.4763925075531006,-0.0,-0.0,-1.0,0.0304916948575771,1.0,0.0
36.857078552246094,5.846534729003906,-1.34092116355896,-0.0,-0.0,-1.0,0.0336910841647351,1.0,0.0
36.67893600463867,6.421586036682129,-1.3471744060516355,-0.0,-0.0,-1.0,0.1412564199414532,1.0,0.0
36.546104431152344,6.626272201538086,-1.335998773574829,-0.2892489229111955,-0.132434846547182,-0.9480485599455006,0.065535520720347,3.0,0.0
36.59864807128906,7.759806156158447,-1.4678668975830078,-0.0,-0.0,-1.0,0.0606215510373676,1.0,0.0
36.52292251586914,7.876369476318359,-1.465649127960205,-0.0,-0.0,-1.0,0.0702237630970692,1.0,0.0
36.82501220703125,7.862071990966797,-1.111192226409912,-0.0,-0.0,-1.0,0.1543652538948544,2.0,0.0
36.31295394897461,6.183775424957275,-1.2441620826721191,0.1283914267805778,-0.9666882969696876,-0.2214257844766328,0.2232224217269435,5.0,0.0
36.33084487915039,6.637821197509766,-1.2891454696655271,-0.0,-0.0,-1.0,0.143797586051159,2.0,0.0
35.983909606933594,6.86356258392334,-1.2348568439483645,-0.0,-0.0,-1.0,0.1159312336628368,1.0,0.0
35.52973556518555,6.959170818328857,-1.145643949508667,0.3252653222758713,0.1929906131680999,-0.925719770423952,0.2314304118359124,3.0,0.0
35.51878356933594,7.191357612609863,-1.169367790222168,0.1645843447025527,-0.3129718859105501,-0.9353932820522204,0.2361264591209144,3.0,0.0
35.40342330932617,6.498265743255615,-1.0698931217193604,-0.2798871092732244,0.6816330961190313,-0.6760469867826212,0.1585748940034701,3.0,0.0
35.22454071044922,7.724024295806885,-0.810593843460083,0.5298210685980188,0.7267896937943875,0.4371114002904911,0.1642238725851234,4.0,0.0
37.58970260620117,6.567267417907715,-1.2654283046722412,-0.0,-0.0,-1.0,0.1484581562027239,1.0,0.0
37.20293045043945,6.9333906173706055,-1.171750545501709,-0.0,-0.0,-1.0,0.1251642378012594,1.0,0.0
36.779319763183594,6.542510509490967,-1.085564374923706,-0.0,-0.0,-1.0,0.1824409851013646,1.0,0.0
37.66470718383789,6.541564464569092,-1.2350584268569946,-0.827429144618933,0.5105478426211925,-0.2338843967220286,0.1933223135929461,6.0,0.0
37.585689544677734,6.668260097503662,-1.225554585456848,0.0359207904736262,-0.013410796215135,-0.9992646533109364,0.0923404342266494,4.0,0.0
36.76009368896485,7.852192878723144,-1.1389681100845337,-0.0,-0.0,-1.0,0.1643832841420356,2.0,0.0
36.06060028076172,8.117830276489258,-1.0219517946243286,-0.0,-0.0,-1.0,0.151281938827649,2.0,0.0
37.178165435791016,5.980403423309326,-1.4057835340499878,-0.0,-0.0,-1.0,0.0275402442856635,1.0,0.0
37.16055679321289,6.2618184089660645,-1.4161969423294067,-0.0,-0.0,-1.0,0.0518729600847989,1.0,0.0
36.97822570800781,6.912707805633545,-1.4132603406906128,-0.0,-0.0,-1.0,0.0231714083323461,1.0,0.0
37.118614196777344,7.142878532409668,-1.4618462324142456,-0.0,-0.0,-1.0,0.0142559082159736,1.0,0.0
37.087867736816406,7.549802303314209,-1.485272765159607,-0.6815181330353509,-0.7244665814704813,-0.10334992344692,0.0176868233831005,3.0,0.0
36.984901428222656,7.798407554626465,-1.4812992811203003,-0.0,-0.0,-1.0,0.0270209507982405,1.0,0.0
36.85270309448242,5.786956787109375,-1.3212517499923706,-0.0,-0.0,-1.0,0.0186492497865504,2.0,0.0
36.85077667236328,6.488907814025879,-1.357075333595276,0.1564808837931518,-0.9329344277509324,-0.3242639149278781,0.1286586148187688,3.0,0.0
36.83390426635742,6.760002136230469,-1.3699334859848022,-0.4146806896383185,-0.1425764563211888,-0.8987279230912881,0.0583252803057755,3.0,0.0
36.703575134277344,8.037857055664062,-1.436747431755066,-0.0,-0.0,-1.0,0.093556088831532,2.0,0.0
36.49669647216797,6.661715984344482,-1.2853442430496216,-0.0,-0.0,-1.0,0.1239108036005671,1.0,0.0
36.22071075439453,7.22683048248291,-1.25985586643219,-0.2744714288306094,-0.0933383165923739,-0.9570545404580588,0.255091837415653,4.0,0.0
36.33136367797851,8.06678295135498,-1.3536819219589231,0.9152098390323884,0.1204855494636905,-0.3845441234874646,0.0620676255178647,5.0,0.0
36.03589630126953,6.694217205047607,-1.1804636716842651,-0.0,-0.0,-1.0,0.1511317908932622,1.0,0.0
35.43623733520508,6.668035507202148,-1.4150279760360718,-0.0,-0.0,-1.0,0.0265435902486994,1.0,0.0
35.366676330566406,7.124091148376465,-1.4282993078231812,-0.0,-0.0,-1.0,0.0927638975577308,1.0,0.0
35.234928131103516,6.224628925323486,-1.3349190950393677,-0.0,-0.0,-1.0,0.1169838056606891,1.0,0.0
35.26658630371094,6.546812057495117,-1.3616515398025513,-0.0,-0.0,-1.0,0.13851796667605,2.0,0.0
35.26206588745117,6.963907718658447,-1.388238549232483,-0.0,-0.0,-1.0,0.108957837796135,1.0,0.0
35.6297607421875,6.433603763580322,-1.0705410242080688,-0.1244626491491561,0.3021173228434824,-0.9451106666442088,0.1825485009504325,4.0,0.0
35.391719818115234,6.593046188354492,-1.0247339010238647,-0.0,-0.0,-1.0,0.142302444545956,1.0,0.0
35.495582580566406,6.929267883300781,-1.0706056356430054,-0.0,-0.0,-1.0,0.2265965678729437,2.0,0.0
35.33467102050781,7.658409595489502,-1.088884711265564,-0.0,-0.0,-1.0,0.2343741566695168,1.0,0.0
37.574859619140625,6.0341010093688965,-1.384802222251892,-0.0,-0.0,-1.0,0.0421435559812235,2.0,0.0
37.42853927612305,6.267240047454834,-1.3635884523391724,-0.0,-0.0,-1.0,0.0927754436210168,1.0,0.0
37.369361877441406,6.927227020263672,-1.3863970041275024,-0.0,-0.0,-1.0,0.042034980672263,2.0,0.0
37.51133728027344,7.199432849884033,-1.4347714185714722,-0.0,-0.0,-1.0,0.0162444635973936,2.0,0.0
37.519630432128906,7.602880477905273,-1.4645289182662964,-0.0,-0.0,-1.0,0.0323797875705706,1.0,0.0
37.48538589477539,8.0347261428833,-1.490334391593933,-0.0,-0.0,-1.0,0.0362849511865984,2.0,0.0
35.658939361572266,6.651339054107666,-1.3858765363693235,-0.0,-0.0,-1.0,0.0804152337133899,1.0,0.0
35.549522399902344,6.00153112411499,-1.3309766054153442,-0.0,-0.0,-1.0,0.0283003754596531,1.0,0.0
35.592769622802734,6.26881217956543,-1.3518437147140503,-0.0,-0.0,-1.0,0.0210805198260569,1.0,0.0
37.22679901123047,6.788296222686768,-1.347011923789978,0.1025024751904438,-0.7797665358026149,-0.6176223702410899,0.0956518870217281,5.0,0.0
36.969207763671875,6.458284378051758,-1.2728773355484009,0.9341249674478278,-0.1233080402900672,-0.3349711515793833,0.2205612372447055,3.0,0.0
37.13047790527344,6.678569316864014,-1.319785475730896,-0.0,-0.0,-1.0,0.0884972837917377,2.0,0.0
36.566165924072266,7.925024032592773,-1.28022301197052,-0.0,-0.0,-1.0,0.1545147950684289,1.0,0.0
36.36581802368164,5.969399452209473,-1.1194511651992798,0.3187465532701254,-0.9361345579769386,0.1485015964215102,0.1440070805786328,6.0,0.0
36.113677978515625,6.653057098388672,-1.0962342023849487,0.8758081735291274,0.3454432339553233,-0.3370890317024,0.1940873690028029,7.0,0.0
35.454620361328125,5.713610649108887,-1.2983847856521606,-0.0,-0.0,-1.0,0.0241742962304203,1.0,0.0
35.47895050048828,5.880006790161133,-1.3093689680099487,-0.0,-0.0,-1.0,0.0270618727118895,2.0,0.0
35.5341796875,6.393146991729736,-1.3420697450637815,-0.7307668583152551,0.6825926537883984,0.0068605963416792,0.1209578277687045,4.0,0.0
35.54254150390625,6.816089630126953,-1.36491596698761,-0.0,-0.0,-1.0,0.1329785085112338,2.0,0.0
35.42310333251953,7.061621189117432,-1.3482900857925415,-0.0,-0.0,-1.0,0.1489624014353393,1.0,0.0
35.366703033447266,7.557796478271484,-1.367103934288025,-0.0,-0.0,-1.0,0.1826498248561092,2.0,0.0
37.04951858520508,6.9906744956970215,-1.4262781143188477,-0.0,-0.0,-1.0,0.0255463977480429,2.0,0.0
37.12936019897461,7.239007472991943,-1.450026512145996,-0.0,-0.0,-1.0,0.0148943175475361,1.0,0.0
37.12110900878906,7.607357978820801,-1.458716630935669,-0.6011985486377128,-0.7504856916169885,-0.2744659027895416,0.015166672657368,4.0,0.0
36.91294860839844,6.161968231201172,-1.3853812217712402,0.8432595781355432,-0.4794873904922249,-0.2429097080020109,0.119214110971682,3.0,0.0
36.96600341796875,6.280740737915039,-1.3979406356811523,-0.2359864414530675,-0.2613585337025403,-0.9359498471131752,0.1401518958883335,3.0,0.0
37.042877197265625,7.206817626953125,-1.4298126697540283,-0.0,-0.0,-1.0,0.0179037432231471,2.0,0.0
37.09403610229492,7.539005756378174,-1.4502665996551514,-0.4464114299243928,-0.8742140297780195,-0.1909624711092074,0.0154290422471003,3.0,0.0
36.67283248901367,5.722667694091797,-1.3319029808044434,-0.0,-0.0,-1.0,0.0143702087412675,1.0,0.0
36.78553009033203,5.910048484802246,-1.3564341068267822,-0.0,-0.0,-1.0,0.0188540958972497,1.0,0.0
36.802024841308594,6.482706546783447,-1.362760066986084,0.1654686443161908,-0.862589496988976,-0.4780789552285975,0.198179551069394,3.0,0.0
36.83324432373047,6.785574436187744,-1.3736858367919922,-0.0,-0.0,-1.0,0.0554890239316377,2.0,0.0
36.97119903564453,7.865174770355225,-1.4331161975860596,-0.0,-0.0,-1.0,0.0243933260921523,1.0,0.0
36.31056594848633,6.124619007110596,-1.2503561973571775,-0.0,-0.0,-1.0,0.2301304169447437,2.0,0.0
36.24584197998047,7.1871442794799805,-1.247809886932373,0.8552222572494409,0.4940237313872768,-0.1566379377142158,0.2236008294073203,3.0,0.0
36.382965087890625,7.745896339416504,-1.2944493293762207,-0.0,-0.0,-1.0,0.1678226875550301,2.0,0.0
36.20441436767578,6.6355204582214355,-1.229508638381958,-0.258683853913623,-0.0259849180486425,-0.965612472868076,0.1899091617631411,4.0,0.0
36.0323486328125,7.960852146148682,-1.2218801975250244,-0.0,-0.0,-1.0,0.1357556144835889,1.0,0.0
35.450660705566406,6.47130012512207,-1.058722972869873,-0.0,-0.0,-1.0,0.1536631863430173,2.0,0.0
35.52521896362305,6.815089225769043,-1.078360080718994,-0.4816198395159102,-0.2776248373424698,-0.8312441156936005,0.1846475424393234,3.0,0.0
35.653724670410156,7.17171049118042,-1.1131787300109863,-0.0,-0.0,-1.0,0.180641532460427,1.0,0.0
35.61585998535156,8.12260627746582,-1.132746696472168,-0.0,-0.0,-1.0,0.1282878904734822,1.0,0.0
35.41100311279297,6.385000228881836,-1.0495541095733645,-0.0,-0.0,-1.0,0.1173422782974524,2.0,0.0
37.53739547729492,5.961000919342041,-1.3877125978469849,-0.0,-0.0,-1.0,0.022636892796259,1.0,0.0
37.555118560791016,6.076721668243408,-1.3892031908035278,-0.0,-0.0,-1.0,0.0390459015452832,2.0,0.0
37.678226470947266,7.038311958312988,-1.405743956565857,-0.0,-0.0,-1.0,0.0190938893625207,2.0,0.0
37.46772766113281,5.848995685577393,-1.375788331031799,-0.0,-0.0,-1.0,0.0328672005268996,2.0,0.0
37.49213790893555,6.213164806365967,-1.3738511800765991,-0.0,-0.0,-1.0,0.0382521402663482,1.0,0.0
37.23802947998047,6.760753154754639,-1.3143573999404907,-0.0308559799541312,-0.7155841319448989,-0.6978447238531906,0.0929144815652978,5.0,0.0
37.56556701660156,6.8827056884765625,-1.3824084997177124,-0.8053330185246317,0.0183660013835883,-0.5925381162990138,0.1212928998820499,4.0,0.0
37.04407501220703,6.475865364074707,-1.2768746614456177,-0.0582635841355184,0.8157432719496795,-0.5754722139534754,0.1688869259768672,3.0,0.0
37.073543548583984,6.601858139038086,-1.2814918756484983,-0.4944195602308133,-0.4192998864355106,-0.7614045598079492,0.1806243217198685,3.0,0.0
35.59168243408203,6.630105495452881,-1.3784724473953247,-0.0,-0.0,-1.0,0.0558229128438759,2.0,0.0
35.65281677246094,6.731845378875732,-1.39061176776886,-0.0,-0.0,-1.0,0.0787860875387794,1.0,0.0
35.71288299560547,7.365896701812744,-1.393643498420715,-0.0,-0.0,-1.0,0.107100462267322,2.0,0.0
35.922607421875,7.723690032958984,-1.4433504343032837,-0.0,-0.0,-1.0,0.040315720888461,1.0,0.0
35.22163772583008,6.0962114334106445,-1.3089555501937866,-0.0,-0.0,-1.0,0.0676172260222418,2.0,0.0
35.47517395019531,6.459185600280762,-1.3557032346725464,-0.0,-0.0,-1.0,0.0526517659531913,2.0,0.0
35.54710388183594,6.742856979370117,-1.3646005392074585,-0.0,-0.0,-1.0,0.0922493747123313,2.0,0.0
35.467098236083984,7.173418045043945,-1.335825800895691,-0.0,-0.0,-1.0,0.1733937508727172,1.0,0.0
35.48670959472656,7.506201267242432,-1.3363994359970093,-0.0,-0.0,-1.0,0.2114773883997827,1.0,0.0
36.37553024291992,5.977392196655273,-1.1487315893173218,0.9153413675231676,-0.3177936853516772,0.2473001303101488,0.1305417377687319,4.0,0.0
36.42668914794922,6.478397369384766,-1.1486197710037231,-0.0,-0.0,-1.0,0.2378817985140781,2.0,0.0
36.1210823059082,6.651503562927246,-1.08246910572052,0.7750155675409917,0.2309269318452394,-0.5882377259388074,0.2312086070279303,6.0,0.0
35.47908020019531,6.874051570892334,-0.9457904100418092,-0.0,-0.0,-1.0,0.2343041581485113,1.0,0.0
37.410438537597656,7.077826976776123,-1.4340016841888428,-0.0,-0.0,-1.0,0.0278089520015143,1.0,0.0
37.505035400390625,7.283820629119873,-1.447244644165039,-0.5161163904217764,0.840374110281832,0.1655150334743521,0.0206782508475866,3.0,0.0
37.63045883178711,7.602111339569092,-1.4652457237243652,-0.0,-0.0,-1.0,0.0303533614862545,2.0,0.0
37.01227569580078,6.13616943359375,-1.3944385051727295,-0.0,-0.0,-1.0,0.0573451947787947,1.0,0.0
37.00300979614258,6.6666669845581055,-1.3665342330932615,0.9655211298428216,-0.229781978634846,-0.1223486416830848,0.0783963270542451,3.0,0.0
37.191139221191406,6.845727920532227,-1.3975279331207275,-0.0,-0.0,-1.0,0.0686207657769018,2.0,0.0
36.55292892456055,5.685164928436279,-1.3308186531066897,-0.0,-0.0,-1.0,0.0188710679356562,1.0,0.0
36.85985565185547,6.022658348083496,-1.370389699935913,-0.0,-0.0,-1.0,0.0308005113143601,2.0,0.0
36.786277770996094,6.577362537384033,-1.3267443180084229,-0.0,-0.0,-1.0,0.2008293137320998,1.0,0.0
36.3396110534668,6.195287704467773,-1.257455825805664,0.3273134773976688,-0.9448989597305076,-0.0056429969032818,0.2758741331596987,4.0,0.0
36.27400207519531,6.31344747543335,-1.2377150058746338,-0.0,-0.0,-1.0,0.0746673922730621,1.0,0.0
36.17157745361328,6.579870700836182,-1.2028956413269043,0.1673760439770616,0.911661544688678,-0.3753111880006273,0.10873285442983,6.0,0.0
36.26012420654297,7.234192848205566,-1.1913979053497314,-0.0,-0.0,-1.0,0.2172213583872404,2.0,0.0
35.36204528808594,6.359368324279785,-1.05523943901062,0.1755901037831572,-0.3014509187300537,-0.9371741882116827,0.1061425702328061,3.0,0.0
35.50365447998047,6.528602123260498,-1.0729165077209473,-0.9739599767224124,0.0959110967323602,-0.2054337490931657,0.160779910911306,3.0,0.0
35.58015823364258,6.975200653076172,-1.0642080307006836,0.2571624950629661,-0.7336737228708019,0.6289597121452911,0.1820431404274002,4.0,0.0
37.44457244873047,5.74411153793335,-1.3818700313568115,-0.0,-0.0,-1.0,0.030268216022165,1.0,0.0
37.544898986816406,5.871810436248779,-1.3871779441833496,-0.0,-0.0,-1.0,0.0330784642874983,2.0,0.0
37.29881286621094,5.684048175811768,-1.3632657527923584,-0.0,-0.0,-1.0,0.0316210420958801,1.0,0.0
37.45091247558594,6.572813987731934,-1.3126449584960938,-0.0,-0.0,-1.0,0.2009033473247237,2.0,0.0
37.50999450683594,6.648380279541016,-1.3170177936553955,-0.0,-0.0,-1.0,0.0903730692591848,1.0,0.0
37.14335632324219,6.475149631500244,-1.267674207687378,-0.057746454332437,-0.0780650651251581,-0.9952744308074212,0.1846278431843114,5.0,0.0
36.88839340209961,6.429777145385742,-1.2279691696166992,-0.0,-0.0,-1.0,0.174597788304269,1.0,0.0
36.29542541503906,6.524515151977539,-1.1196041107177734,-0.0,-0.0,-1.0,0.1160210999058817,1.0,0.0
35.64256286621094,6.3890228271484375,-1.0237009525299072,0.2299707973870479,0.7348417206526796,-0.6380604030476851,0.1837975800539778,3.0,0.0
35.574073791503906,6.96800422668457,-0.9593508243560792,-0.0,-0.0,-1.0,0.1896355188660382,1.0,0.0
35.29936599731445,7.695062160491943,-0.8535151481628418,0.0487624860909841,0.5357132340771806,-0.8429908367146077,0.2092149780012217,5.0,0.0
37.32938003540039,6.943483352661133,-1.4087610244750977,-0.0,-0.0,-1.0,0.0394662961181889,2.0,0.0
37.470977783203125,7.085481643676758,-1.4158592224121094,-0.5758780390076078,0.533504810448824,0.6194651736915618,0.0222549219882391,3.0,0.0
37.21000671386719,6.874610900878906,-1.397636890411377,-0.0,-0.0,-1.0,0.0469660294646612,2.0,0.0
36.96808624267578,6.867619037628174,-1.3603017330169678,-0.0,-0.0,-1.0,0.0316547372593687,1.0,0.0
36.79430389404297,7.853819370269775,-1.2252044677734375,-0.0,-0.0,-1.0,0.1554924422870957,1.0,0.0
36.75807189941406,6.630034446716309,-1.3559231758117676,-0.0,-0.0,-1.0,0.1403081560341846,2.0,0.0
36.21990203857422,6.553463459014893,-1.2832841873168943,-0.0,-0.0,-1.0,0.2146293394486971,1.0,0.0
36.18063735961914,6.726491451263428,-1.2554781436920166,-0.0,-0.0,-1.0,0.238056834589339,2.0,0.0
36.11928176879883,6.222613334655762,-1.3112812042236328,-0.0,-0.0,-1.0,0.0362692815621677,2.0,0.0
36.08504867553711,6.452065467834473,-1.2760305404663086,-0.0,-0.0,-1.0,0.0782499645573685,1.0,0.0
35.690284729003906,7.296172618865967,-1.1104490756988523,0.6530435498227475,-0.2803407866157357,-0.7035219722187616,0.1639631863273956,3.0,0.0
35.577545166015625,6.925495624542236,-1.139021396636963,0.0913512529716538,-0.9957915324773214,0.0073601920475211,0.1938454551806029,3.0,0.0
35.4493408203125,7.1879353523254395,-1.086581468582153,-0.0,-0.0,-1.0,0.2474159056539117,2.0,0.0
35.24066162109375,7.696723937988281,-0.992967128753662,-0.8622118911580365,0.3061236523911158,-0.4035826609164539,0.091929892245695,4.0,0.0
35.807769775390625,5.7509355545043945,-1.2749780416488647,-0.0,-0.0,-1.0,0.047578190525882,2.0,0.0
35.58684158325195,5.700356483459473,-1.260311484336853,0.6449138996779128,-0.6927381300030689,-0.3228001630143304,0.0285614847686781,3.0,0.0
35.83384323120117,6.518777847290039,-1.1443212032318115,-0.0,-0.0,-1.0,0.1476626345013242,1.0,0.0
36.68449401855469,6.339861869812012,-1.2177841663360596,-0.0,-0.0,-1.0,0.1333148326288138,1.0,0.0
35.92976379394531,6.031786918640137,-1.191925048828125,-0.0,-0.0,-1.0,0.1035523534709987,1.0,0.0
35.937042236328125,5.879645347595215,-1.2052640914916992,-0.0,-0.0,-1.0,0.0545794287991247,1.0,0.0
35.94816970825195,5.773962020874023,-1.2149522304534912,-0.0,-0.0,-1.0,0.0650484891137395,1.0,0.0
37.59450149536133,6.411822319030762,-1.332930326461792,-0.0,-0.0,-1.0,0.159517495745232,1.0,0.0
37.3648796081543,6.379406929016113,-1.316850185394287,-0.0,-0.0,-1.0,0.1179992857357092,2.0,0.0
37.00059127807617,6.312312126159668,-1.2923436164855957,-0.0,-0.0,-1.0,0.1688705388243432,1.0,0.0
36.26090240478515,7.620511054992676,-1.3424804210662842,-0.0,-0.0,-1.0,0.1700924658186935,1.0,0.0
35.33892822265625,6.141271591186523,-1.3255383968353271,-0.0,-0.0,-1.0,0.0243956313298223,2.0,0.0
35.49131393432617,5.774258613586426,-1.358130931854248,-0.0,-0.0,-1.0,0.0255399162587042,1.0,0.0
36.40831756591797,6.220091819763184,-1.425668716430664,-0.0,-0.0,-1.0,0.1089668549184219,1.0,0.0
36.866172790527344,6.335564613342285,-1.464470148086548,-0.0,-0.0,-1.0,0.125905480461327,1.0,0.0
35.24327850341797,7.896679401397705,-0.9256742000579834,-0.0,-0.0,-1.0,0.1113760977700166,1.0,0.0
35.37019348144531,5.726707935333252,-1.2603598833084106,-0.0,-0.0,-1.0,0.0673173478431029,2.0,0.0
35.43266296386719,5.77073335647583,-1.2702051401138306,-0.0,-0.0,-1.0,0.0245376109943965,1.0,0.0
35.82452392578125,6.100198745727539,-1.332738995552063,-0.0,-0.0,-1.0,0.0271610780168798,1.0,0.0
36.404144287109375,7.1782732009887695,-1.4334222078323364,-0.0,-0.0,-1.0,0.0557350440725956,2.0,0.0
36.52358627319336,7.731388092041016,-1.4598182439804075,0.0623350348112649,0.8781622403254505,-0.4742841164340883,0.0598964515380292,3.0,0.0
36.407623291015625,5.989620208740234,-1.1057913303375244,0.1783152025175929,-0.9835636337810548,-0.0283948385189437,0.1440070805786329,7.0,0.0
36.18830871582031,6.649186134338379,-1.0845234394073486,-0.2677109753089203,0.6643916732774781,-0.6977926183177202,0.2063297106076437,8.0,0.0
37.00348663330078,6.4355034828186035,-1.201719045639038,-0.7560080152409192,-0.5247937026771714,-0.3912076820844282,0.1921303877294515,3.0,0.0
37.31402587890625,6.569540977478027,-1.2504024505615234,-0.0,-0.0,-1.0,0.119687408532591,2.0,0.0
37.56190490722656,6.6165361404418945,-1.288205862045288,-0.4525756086936172,0.3727208790657748,-0.810095342983798,0.1199411947297885,3.0,0.0
35.25920867919922,6.1021833419799805,-1.2996447086334229,0.2031021679937381,0.2124655155509063,-0.9558283915316236,0.0698702415797019,3.0,0.0
35.49588394165039,6.45414924621582,-1.3434457778930664,-0.0,-0.0,-1.0,0.1183396260915559,2.0,0.0
35.525447845458984,6.95404052734375,-1.3528249263763428,-0.0,-0.0,-1.0,0.1283742623484059,1.0,0.0
35.53094482421875,6.795716285705566,-1.3522851467132568,-0.0,-0.0,-1.0,0.107730165406802,2.0,0.0
35.90640640258789,5.832965850830078,-1.273781180381775,-0.0,-0.0,-1.0,0.0720261018356053,1.0,0.0
36.06940460205078,6.106905937194824,-1.3058289289474487,-0.0,-0.0,-1.0,0.0818980141511102,1.0,0.0
35.50537109375,7.080475807189941,-1.2168573141098022,-0.0,-0.0,-1.0,0.1543362609439163,1.0,0.0
35.897483825683594,6.654407978057861,-1.2814143896102903,-0.0,-0.0,-1.0,0.1928101964056314,2.0,0.0
36.046836853027344,6.347522735595703,-1.304377198219299,-0.0,-0.0,-1.0,0.0637920778365619,1.0,0.0
36.270999908447266,6.93815279006958,-1.3539701700210571,-0.0,-0.0,-1.0,0.060024355716708,2.0,0.0
36.432884216308594,7.0997233390808105,-1.3864094018936155,-0.0,-0.0,-1.0,0.0694293590690143,1.0,0.0
36.474876403808594,8.007736206054688,-1.4147111177444458,-0.0,-0.0,-1.0,0.0761300774518793,2.0,0.0
35.307037353515625,7.5722222328186035,-1.430062174797058,-0.0,-0.0,-1.0,0.1302307961225303,1.0,0.0
35.300628662109375,7.221623420715332,-1.43158757686615,-0.0,-0.0,-1.0,0.1059840394608936,1.0,0.0
36.153282165527344,6.773691177368164,-1.13093364238739,-0.0,-0.0,-1.0,0.2109596695288053,2.0,0.0
36.39521789550781,6.151185989379883,-1.184170126914978,-0.0,-0.0,-1.0,0.1200504940105812,2.0,0.0
37.164913177490234,5.660378456115723,-1.3302358388900757,-0.0,-0.0,-1.0,0.049141828017718,1.0,0.0
37.44461441040039,5.888236999511719,-1.373904585838318,0.7324027158527661,0.4556733021944601,-0.5059131382744363,0.0312157300010442,3.0,0.0
37.21207427978515,6.7543625831604,-1.317893147468567,0.0646699834602396,-0.6762204351775378,-0.7338553783188851,0.0849542358734571,4.0,0.0
37.27958679199219,6.481680393218994,-1.333720564842224,-0.0,-0.0,-1.0,0.1183026012591143,1.0,0.0
37.646976470947266,6.209644794464111,-1.4030543565750122,-0.0,-0.0,-1.0,0.0731765063346153,2.0,0.0
37.372318267822266,6.959213733673096,-1.343619465827942,-0.0,-0.0,-1.0,0.050755085722814,1.0,0.0
35.2381706237793,7.829535961151123,-0.9610339403152466,-0.0,-0.0,-1.0,0.0636328391566436,2.0,0.0
35.858985900878906,6.733299732208252,-1.1726157665252686,-0.0,-0.0,-1.0,0.1041667620944699,1.0,0.0
36.33237838745117,6.190880298614502,-1.2766454219818115,0.3188032436695129,-0.7598829732190638,0.5665177480340338,0.2606180650397872,5.0,0.0
36.31775665283203,6.642834663391113,-1.263261318206787,0.6187495812469066,0.7682655183656745,0.1640641612208423,0.1709450789935543,3.0,0.0
36.3676643371582,6.257414817810059,-1.2817363739013672,-0.0,-0.0,-1.0,0.2185902279883926,1.0,0.0
36.54116439819336,6.0284647941589355,-1.3216502666473389,-0.0,-0.0,-1.0,0.1712267894219384,1.0,0.0
36.71197509765625,5.869063854217529,-1.3594751358032229,-0.0,-0.0,-1.0,0.0183061626737239,1.0,0.0
36.06600189208984,8.059815406799316,-1.20153546333313,-0.0,-0.0,-1.0,0.1373973810168484,1.0,0.0
36.28974914550781,7.271054744720459,-1.2482726573944092,-0.0,-0.0,-1.0,0.2181867133661252,1.0,0.0
36.54530334472656,7.146031379699707,-1.299198865890503,-0.0,-0.0,-1.0,0.094475020962683,1.0,0.0
36.86913299560547,6.497572898864746,-1.3731472492218018,-0.0,-0.0,-1.0,0.1156987319859597,2.0,0.0
36.98601531982422,6.274428367614746,-1.4012236595153809,-0.2359864414530675,-0.2613585337025403,-0.9359498471131752,0.132167974823468,3.0,0.0
37.11759948730469,6.9242753982543945,-1.413233757019043,-0.0,-0.0,-1.0,0.0367517001288525,2.0,0.0
36.76485824584961,7.99363899230957,-1.336259126663208,-0.0,-0.0,-1.0,0.2281765469139403,1.0,0.0
37.41571807861328,7.293237686157227,-1.4660868644714355,-0.0,-0.0,-1.0,0.0192466587168215,1.0,0.0
37.3253173828125,7.097137928009033,-1.4509320259094238,0.0184116065141893,0.4006023522179249,-0.9160670107273988,0.0256213016674419,3.0,0.0
37.53715515136719,7.850052356719971,-1.485675811767578,-0.0,-0.0,-1.0,0.0143879365010182,1.0,0.0
37.44949722290039,7.587501049041748,-1.4700491428375244,-0.0,-0.0,-1.0,0.0319469426096927,2.0,0.0
35.32637023925781,6.587766170501709,-1.072286605834961,-0.0,-0.0,-1.0,0.1383113048996312,1.0,0.0
35.54132843017578,6.415430545806885,-1.1177830696105957,-0.0,-0.0,-1.0,0.1129164149110024,1.0,0.0
35.52598190307617,7.199355602264404,-1.1011581420898438,0.4403983921458714,-0.3735757073997582,0.8163886617513142,0.1669826948308843,3.0,0.0
35.58686828613281,6.861284255981445,-1.1177022457122805,-0.0,-0.0,-1.0,0.173433623091857,2.0,0.0
37.35118865966797,6.654417037963867,-1.344184637069702,-0.0,-0.0,-1.0,0.1566464141146637,1.0,0.0
36.653472900390625,8.059028625488281,-1.4225308895111084,-0.0,-0.0,-1.0,0.1000324851276301,2.0,0.0
36.43088912963867,8.075847625732422,-1.4178369045257568,-0.0,-0.0,-1.0,0.0483907496901403,1.0,0.0
36.20439910888672,6.591272354125977,-1.2271625995635986,-0.340365176080717,0.7917654087772964,0.507207141486852,0.2150296283213433,7.0,0.0
37.05596160888672,6.568645477294922,-1.2517850399017334,-0.5465410680829743,-0.3266717663730814,-0.7710891115515852,0.1627328694783802,6.0,0.0
35.62522888183594,6.728122711181641,-1.3466787338256836,-0.0,-0.0,-1.0,0.0780760780545872,1.0,0.0
35.94349670410156,6.39808464050293,-1.317487716674805,0.3765137320147598,-0.616181819868118,-0.6917784142833107,0.0627136388315512,3.0,0.0
36.37082290649414,6.0335540771484375,-1.2897367477416992,-0.0,-0.0,-1.0,0.1690457047799285,2.0,0.0
36.213619232177734,6.090610504150391,-1.2895903587341309,-0.0,-0.0,-1.0,0.117836299785478,1.0,0.0
36.73884582519531,5.724775314331055,-1.2675490379333496,-0.0,-0.0,-1.0,0.1156857591534628,1.0,0.0
36.6274528503418,7.998533248901367,-1.4676761627197266,-0.0,-0.0,-1.0,0.0663521475824401,1.0,0.0
36.35026550292969,7.898721694946289,-1.4417576789855957,0.4964188786561736,0.8183690731671337,-0.2895519935992734,0.1000899027673564,3.0,0.0
36.70767593383789,7.841684341430664,-1.452718734741211,-0.0,-0.0,-1.0,0.0857505517875358,2.0,0.0
36.10113525390625,6.644811630249023,-1.277036190032959,-0.0,-0.0,-1.0,0.2801939987504075,1.0,0.0
37.01279830932617,6.456247329711914,-1.3015170097351074,-0.0,-0.0,-1.0,0.1910622060996564,2.0,0.0
36.879146575927734,7.894706726074219,-1.1774475574493408,-0.0,-0.0,-1.0,0.1584043714530215,1.0,0.0
36.72471237182617,7.826274871826172,-1.1518261432647705,-0.0,-0.0,-1.0,0.1321494501926806,2.0,0.0
36.154823303222656,6.660968780517578,-0.9821169376373292,-0.0,-0.0,-1.0,0.286109495640915,1.0,0.0
36.61528396606445,6.559364318847656,-1.0333926677703855,-0.0,-0.0,-1.0,0.161492174776209,1.0,0.0
37.11381530761719,6.362789154052734,-1.082434892654419,-0.0,-0.0,-1.0,0.1666737408507529,1.0,0.0
36.78067779541016,5.783191680908203,-0.991297483444214,-0.0,-0.0,-1.0,0.1562813817145021,1.0,0.0
35.31983947753906,7.743743896484375,-1.1717514991760254,-0.0,-0.0,-1.0,0.250089651874393,1.0,0.0
37.65727233886719,7.609050750732422,-1.4420857429504397,-0.0,-0.0,-1.0,0.0303533614862544,2.0,0.0
37.52028274536133,7.778715133666992,-1.4602022171020508,-0.0,-0.0,-1.0,0.012914694766733,2.0,0.0
37.51570510864258,6.587497711181641,-1.2832074165344238,-0.0,-0.0,-1.0,0.1379739395849306,2.0,0.0
37.44544219970703,7.666084289550781,-1.439411163330078,-0.0,-0.0,-1.0,0.0308525170133177,2.0,0.0
37.27479934692383,7.87939453125,-1.4626307487487793,-0.0,-0.0,-1.0,0.0336031886101049,1.0,0.0
37.16218566894531,6.517398834228516,-1.2533841133117676,-0.9212552139975072,0.3670228635096775,0.1287751852787012,0.1768135835341963,3.0,0.0
36.189117431640625,6.66453742980957,-1.2248220443725586,-0.2694326249523358,0.0134867265497862,-0.9629247991501024,0.2115890951417852,3.0,0.0
37.654014587402344,6.544260025024414,-1.252542495727539,0.7958113967480728,0.4005723963371758,0.4541211028994072,0.2076094252619292,5.0,0.0
37.152626037597656,6.456470489501953,-1.2032089233398438,-0.6486712339420431,0.7362570747422473,-0.1927463362767131,0.2309132901947446,3.0,0.0
36.23825454711914,6.600414276123047,-1.1578402519226074,-0.0,-0.0,-1.0,0.1454237383786377,2.0,0.0
37.56059265136719,6.371206283569336,-1.363382339477539,-0.0,-0.0,-1.0,0.075122398790025,2.0,0.0
37.18904113769531,6.379251480102539,-1.3317475318908691,-0.0,-0.0,-1.0,0.1234764549505895,2.0,0.0
35.62281036376953,7.154809951782227,-1.315659523010254,-0.0,-0.0,-1.0,0.1702717934358103,2.0,0.0
37.45880126953125,7.513177871704102,-1.6034448146820068,-0.0,-0.0,-1.0,0.033307586251834,1.0,0.0
36.88800048828125,6.318288803100586,-1.522216558456421,-0.0,-0.0,-1.0,0.09288590544481,1.0,0.0
36.73155212402344,6.641082763671875,-1.4632070064544678,-0.0,-0.0,-1.0,0.1180101543808954,1.0,0.0
36.68928527832031,6.500616073608398,-1.4600951671600342,-0.0,-0.0,-1.0,0.1249000982415089,1.0,0.0
36.39141845703125,6.175350189208984,-1.4011366367340088,-0.0,-0.0,-1.0,0.1957318040311095,1.0,0.0
37.654273986816406,6.553918838500977,-1.2285122871398926,-0.9385087980461791,0.2752279022978813,0.208448645442045,0.1993499223005651,6.0,0.0
37.635494232177734,6.692215442657471,-1.229668140411377,0.339506611863927,-0.1266397770187871,-0.932039498828944,0.0945950492275112,3.0,0.0
37.24184036254883,7.306615829467773,-1.4686026573181152,-0.0,-0.0,-1.0,0.0134357955675258,1.0,0.0
37.26276397705078,7.498613834381104,-1.4802165031433103,-0.0,-0.0,-1.0,0.015593748189908,2.0,0.0
36.832271575927734,8.032634735107422,-1.44389009475708,-0.0,-0.0,-1.0,0.1136688024640589,2.0,0.0
36.58039093017578,6.577117919921875,-1.341756820678711,-0.888858960340904,-0.4581734229064398,0.0026197640893295,0.0859111863527709,3.0,0.0
36.16492462158203,6.654327392578125,-1.2845075130462646,-0.0,-0.0,-1.0,0.1532031468976698,1.0,0.0
35.28213882446289,8.105437278747559,-1.2270524501800537,-0.903608825802582,0.2991397732266313,-0.3066047716614963,0.1725903656706741,3.0,0.0
