x,y,z,nx,ny,nz,curvature,density
18.319580078125,17.40228271484375,-0.981691598892212,-0.0,-0.0,-1.0,0.2016492595282971,2.0
18.211071014404297,16.97610092163086,-1.0509109497070312,-0.0,-0.0,-1.0,0.0458801671856753,1.0
18.64324188232422,17.44076919555664,-1.0220136642456057,0.6112452311273535,0.5066108746772502,-0.6080499067369549,0.0770993958799855,3.0
19.100353240966797,17.215425491333008,-1.1360509395599363,-0.0,-0.0,-1.0,0.1162979826861268,1.0
19.636417388916016,17.51137351989746,-1.164689064025879,-0.0,-0.0,-1.0,0.210265152894878,1.0
19.4565486907959,17.356298446655273,-1.1652255058288574,-0.0,-0.0,-1.0,0.0984440482099688,2.0
19.816986083984375,17.669105529785156,-1.164811611175537,-0.0,-0.0,-1.0,0.1318683795269606,1.0
20.204490661621097,18.128252029418945,-1.145254373550415,-0.0,-0.0,-1.0,0.1526448616225215,2.0
20.086071014404297,17.86618423461914,-1.173445701599121,-0.1416205839474599,0.9887831761616218,-0.0474493492275245,0.1161249464212578,3.0
18.90464973449707,16.741661071777344,-0.6479661464691162,0.7290413279850924,-0.4277900327308865,-0.5343167880441709,0.1527536703886575,3.0
19.25893783569336,16.982467651367188,-0.6582620143890381,-0.0,-0.0,-1.0,0.0580582506096689,2.0
19.20500373840332,16.76505470275879,-0.6858229637145996,-0.0,-0.0,-1.0,0.2059102482699592,2.0
19.581533432006836,15.743780136108398,-0.9032478332519532,-0.0,-0.0,-1.0,0.1146131290214072,2.0
19.65026092529297,16.79778480529785,-0.7439088821411133,-0.0,-0.0,-1.0,0.1402353063853518,1.0
19.634109497070312,16.562658309936523,-0.7790873050689697,-0.0,-0.0,-1.0,0.1397884527859083,1.0
19.9622859954834,17.562362670898438,-0.6696574687957764,-0.0,-0.0,-1.0,0.1650037672805889,1.0
19.89651107788086,17.271881103515625,-0.7052013874053955,-0.0,-0.0,-1.0,0.193707128515131,2.0
19.92897605895996,16.948932647705078,-0.7608969211578369,0.7926753934606366,-0.5437625632632588,0.2756592015431292,0.2042875598309752,3.0
20.170663833618164,16.08655548095703,-0.93291974067688,-0.0,-0.0,-1.0,0.1746007236714529,2.0
20.16505241394043,15.889948844909668,-0.9632670879364014,-0.0,-0.0,-1.0,0.1009444673223777,1.0
19.95813369750977,16.166858673095703,-0.3117194175720215,-0.0,-0.0,-1.0,0.2304620201516156,2.0
19.92555046081543,15.81413459777832,-0.3521652221679687,-0.0,-0.0,-1.0,0.108817874960875,2.0
20.148719787597656,16.217689514160156,-0.3303086757659912,0.931942569941409,-0.347515937123304,0.1035167608472842,0.1800642003750472,6.0
17.857528686523438,16.202680587768555,-1.0623745918273926,-0.0,-0.0,-1.0,0.212423002376575,2.0
18.115434646606445,16.025436401367188,-1.1324689388275146,-0.0,-0.0,-1.0,0.0875189506946358,2.0
17.90326690673828,17.973228454589844,-1.1541061401367188,-0.0,-0.0,-1.0,0.0399749564525152,1.0
18.417423248291016,16.240886688232422,-1.1241981983184814,-0.0,-0.0,-1.0,0.0294970073942298,1.0
18.27693748474121,16.112457275390625,-1.1338987350463867,-0.0,-0.0,-1.0,0.0368545375690529,1.0
18.282901763916016,18.08482551574707,-1.1817541122436523,-0.0,-0.0,-1.0,0.0856794146682174,1.0
18.827972412109375,16.595176696777344,-1.103090763092041,-0.0,-0.0,-1.0,0.0282962458824486,1.0
19.052135467529297,16.843364715576172,-1.0818517208099363,-0.0,-0.0,-1.0,0.08960193567393,1.0
18.88686752319336,16.651012420654297,-1.0993449687957764,-0.9192892593772704,-0.3915411183616861,0.0400351124098609,0.0236774841874111,3.0
19.417037963867188,16.98311996459961,-1.105354070663452,-0.0,-0.0,-1.0,0.1382471698681334,1.0
19.877504348754883,17.392515182495117,-1.090731143951416,0.5552796492033869,0.8112976098472203,0.1829226597137455,0.1526261394662994,3.0
19.72266960144043,17.2049617767334,-1.105374097824097,-0.0,-0.0,-1.0,0.1898583743083474,2.0
20.11894989013672,17.488801956176758,-1.1095082759857178,-0.0,-0.0,-1.0,0.2043481757730198,1.0
18.281396865844727,17.306344985961914,-0.8775548934936523,-0.0,-0.0,-1.0,0.1577375674541547,2.0
18.401506423950195,17.386798858642578,-0.8764522075653076,0.1489562220248596,0.3999050764448614,-0.9043715905277596,0.1520216275080382,4.0
19.76615524291992,17.867916107177734,-0.975987195968628,-0.0,-0.0,-1.0,0.2184878384396316,2.0
19.88959503173828,17.481952667236328,-1.0743281841278076,-0.0,-0.0,-1.0,0.1367636518775377,1.0
20.134376525878903,16.067974090576172,-0.8461451530456543,0.8698354487290809,0.2407286684302028,-0.4306228051672369,0.1548956796037941,3.0
20.078636169433594,15.71446418762207,-0.9000468254089355,0.4185199958488784,-0.0583408730994321,-0.9063318131902084,0.1690782837612103,4.0
20.064069747924805,17.643129348754883,-1.0693135261535645,-0.0,-0.0,-1.0,0.230397823707644,1.0
20.191822052001953,18.10605239868164,-0.9968183040618896,-0.0,-0.0,-1.0,0.1372002411492829,1.0
19.070903778076172,16.93714141845703,-0.5527048110961914,-0.0,-0.0,-1.0,0.1043470758450739,2.0
19.910057067871097,17.174442291259766,-0.6240954399108887,-0.0,-0.0,-1.0,0.1724214837301944,2.0
19.06161880493164,16.38723373413086,-0.126004934310913,0.634505656110778,0.1651708514816093,-0.7550636808801435,0.2097662753415646,4.0
19.32836151123047,16.323450088500977,-0.1656322479248047,-0.0,-0.0,-1.0,0.2213093373673141,2.0
19.768983840942383,15.970701217651367,-0.2673268318176269,-0.7507545051843812,-0.1987864026246489,-0.6299616171457637,0.0789560370622879,4.0
20.13604736328125,16.255077362060547,-0.2714951038360595,-0.6044176261924912,0.7311510689962581,-0.3163818064514188,0.1995709701045084,3.0
18.03790855407715,16.665563583374023,-1.1512370109558103,-0.0,-0.0,-1.0,0.0609267566198043,1.0
17.885154724121094,16.364288330078125,-1.2036352157592771,-0.0,-0.0,-1.0,0.1101445438036461,1.0
18.264883041381836,17.33670425415039,-1.0217487812042236,-0.843317975202564,0.2960513211854966,0.4485180129321116,0.1092972902882453,3.0
18.172691345214844,16.91642951965332,-1.1096851825714111,-0.0,-0.0,-1.0,0.0322840168107002,1.0
18.504322052001953,17.48642349243164,-1.0231642723083496,-0.0,-0.0,-1.0,0.0662543821117389,1.0
19.04701042175293,15.76951503753662,-1.0006060600280762,-0.0,-0.0,-1.0,0.2341563716944276,1.0
18.868736267089844,17.318397521972656,-1.1221468448638916,-0.0,-0.0,-1.0,0.0313177928876777,1.0
19.081506729125977,17.23922348022461,-1.1763572692871094,-0.0,-0.0,-1.0,0.1233954869186482,1.0
19.43786239624023,15.808265686035156,-1.0506477355957031,-0.0,-0.0,-1.0,0.0965662738188206,2.0
19.486780166625977,17.405839920043945,-1.2072174549102783,-0.0,-0.0,-1.0,0.0631260857106311,1.0
19.29794692993164,17.287601470947266,-1.2018918991088867,-0.0,-0.0,-1.0,0.0834396428043169,1.0
19.49881362915039,16.015766143798828,-1.017883062362671,-0.0,-0.0,-1.0,0.1145476207418591,1.0
19.735288619995117,17.59701156616211,-1.2077925205230713,-0.0,-0.0,-1.0,0.0619474391725932,2.0
20.19372940063477,18.040252685546875,-1.1933133602142334,-0.0,-0.0,-1.0,0.1484629729199613,1.0
20.05969619750977,17.86074447631836,-1.208083152770996,-0.0272474702223756,0.9963270795361308,0.0811783588740561,0.1161249464212578,4.0
19.135364532470703,16.729366302490234,-0.8180241584777832,-0.0,-0.0,-1.0,0.2723091659999929,1.0
19.125049591064453,15.920841217041016,-0.9810125827789308,-0.5578186647410224,-0.8155553718400734,0.1539732857652337,0.2278063578657613,3.0
19.640838623046875,16.814558029174805,-0.8797304630279541,-0.2042619837062464,0.3603198133856919,-0.9101904603400812,0.1080653237602249,3.0
19.594104766845703,16.103378295898438,-1.0149235725402832,-0.0,-0.0,-1.0,0.1007296425430266,2.0
19.918764114379883,17.577072143554688,-0.7747912406921387,-0.4093084171587174,0.7785629773806242,-0.475716627726258,0.1704275588658966,4.0
19.978466033935547,17.231393814086914,-0.852541446685791,-0.0,-0.0,-1.0,0.1983613182241814,1.0
19.833232879638672,16.96664810180664,-0.8806796073913574,0.6898239036026179,0.1430179244618143,0.7097104024185363,0.2275714348428794,4.0
20.157541275024418,16.434741973876953,-1.0390710830688477,-0.0,-0.0,-1.0,0.1512539012565175,2.0
19.972402572631836,17.61813735961914,-0.7758743762969971,-0.3752373330816214,0.8694679089474928,-0.3212825846077973,0.246695605230452,5.0
20.08523178100586,16.038005828857422,-0.5888769626617432,-0.7411423055666996,-0.5452675641146798,-0.3916520987097103,0.2585702379050604,5.0
20.015403747558594,15.720453262329102,-0.6313138008117676,-0.4345919403035187,-0.8038845101647397,-0.406078243372407,0.1418201048311094,3.0
20.14862823486328,16.361295700073242,-0.0452218055725097,-0.884188207882499,-0.4011740112431173,-0.2393128198501734,0.2654904231279389,13.0
17.725419998168945,16.249937057495117,-0.8276505470275879,-0.0,-0.0,-1.0,0.1530135953471091,1.0
19.023181915283203,16.304637908935547,-1.0035316944122314,0.1552212320593916,-0.8439946713918398,0.513399808901547,0.0902568081862535,4.0
19.02322006225586,15.944751739501951,-1.0888259410858154,-0.0,-0.0,-1.0,0.2340343751822864,2.0
18.901491165161133,15.764967918395996,-1.1126022338867188,-0.0,-0.0,-1.0,0.1070415374770118,2.0
19.369699478149418,16.433963775634766,-1.0296597480773926,-0.0,-0.0,-1.0,0.0627596222465569,1.0
19.20685577392578,16.237815856933594,-1.0488238334655762,-0.0,-0.0,-1.0,0.0391487108112227,1.0
19.621070861816406,16.570722579956055,-1.040550947189331,-0.0,-0.0,-1.0,0.1659205890918501,1.0
20.108417510986328,17.026290893554688,-1.0234034061431885,-0.0,-0.0,-1.0,0.1870317995705906,1.0
20.0134220123291,16.829326629638672,-1.0506463050842283,-0.0,-0.0,-1.0,0.1846243948560203,2.0
20.170169830322266,17.141117095947266,-1.0090093612670898,-0.0,-0.0,-1.0,0.1801913399549686,2.0
19.568056106567383,17.38155174255371,-0.8444018363952637,-0.0078813819673689,0.7505145417634206,-0.6608069358140298,0.1394650265233783,4.0
19.69231414794922,17.246475219726562,-0.897503137588501,-0.0,-0.0,-1.0,0.113536986178107,2.0
19.94896125793457,15.682639122009276,-0.8067030906677246,-0.0,-0.0,-1.0,0.1485324819707368,1.0
19.943897247314453,17.942411422729492,-0.786607027053833,0.4113519463390296,-0.1994273170178082,-0.889392107829933,0.1433371579328844,3.0
20.039936065673828,17.559829711914062,-0.8904683589935303,-0.0,-0.0,-1.0,0.1688953442224967,2.0
20.002761840820312,17.25832748413086,-0.951392650604248,-0.0,-0.0,-1.0,0.2372129568320509,1.0
20.150041580200195,16.185752868652344,-0.7401206493377686,0.2262166716648622,0.898265226038077,-0.3767566869368536,0.2023035867485808,6.0
18.82331085205078,15.68659782409668,-0.1663072109222412,-0.337498698643869,0.8957462109004252,-0.2893671613559937,0.1605005105137413,7.0
19.12332534790039,16.864181518554688,-0.4448177814483642,-0.0,-0.0,-1.0,0.1434085228169537,1.0
19.357425689697266,16.36935806274414,-0.1230313777923584,-0.9375092469062252,-0.3461442853183153,0.0355041646401573,0.2044486989873563,6.0
19.49153709411621,16.25657844543457,-0.1602423191070556,0.4435936242460355,-0.3435727519154589,-0.8277574890446509,0.1759915700201121,5.0
19.742002487182617,16.04464340209961,-0.2302489280700683,-0.0,-0.0,-1.0,0.0880548362842931,2.0
19.80011558532715,16.019807815551758,-0.2425620555877685,-0.0,-0.0,-1.0,0.1006264359308643,2.0
20.16125869750977,16.306541442871094,-0.2484643459320068,-0.103107552929438,-0.9942641092947458,0.0284203007941321,0.1821135330352962,12.0
19.08403205871582,16.433109283447266,-0.0751934051513671,-0.0217082942041458,0.7447042745083807,-0.6670414481062572,0.1664762230577516,5.0
20.18517303466797,16.319551467895508,0.2131750583648681,-0.669046357306651,0.7293050332703715,0.1431472675995016,0.1754052515131256,6.0
17.74188995361328,16.173974990844727,-0.7738826274871826,-0.0,-0.0,-1.0,0.1963093732468222,2.0
18.77381896972656,15.96280002593994,-0.9651458263397216,-0.9928778863759112,0.0856166809303578,-0.0828449557436826,0.1868385346931234,3.0
18.910871505737305,15.793216705322266,-1.0287144184112549,-0.0,-0.0,-1.0,0.146286338040644,1.0
19.090795516967773,16.698577880859375,-0.8229126930236816,-0.0,-0.0,-1.0,0.2802215106033227,1.0
19.28879737854004,15.769370079040527,-1.090895414352417,-0.0,-0.0,-1.0,0.1349636659216777,2.0
19.539047241210938,16.71302032470703,-0.8907957077026367,-0.9683085500588768,-0.2118808624628282,-0.1322310553723454,0.271063375330937,5.0
19.530529022216797,16.200607299804688,-1.018878936767578,0.9658164267718552,0.0035628062114817,-0.2592025003535743,0.0635408011797044,4.0
19.38611602783203,15.989378929138184,-1.0496056079864502,-0.5007752305271915,0.5512983526965558,-0.6673037500303012,0.1820860283863504,3.0
19.75397491455078,16.895524978637695,-0.8812015056610107,0.9474519940207444,-0.118114628888578,-0.2972938840081117,0.0975277682095008,5.0
19.735763549804688,16.435253143310547,-0.9930989742279052,-0.0,-0.0,-1.0,0.0871411391163339,1.0
19.99916076660156,17.538433074951172,-0.7657923698425293,-0.0,-0.0,-1.0,0.2335005985507525,2.0
19.975332260131836,17.152976989746094,-0.855931282043457,-0.0,-0.0,-1.0,0.1753781634307459,2.0
20.11446762084961,16.72089385986328,-0.9870800971984864,-0.0,-0.0,-1.0,0.182265204126774,2.0
20.206741333007812,16.458446502685547,-1.0678606033325195,-0.0,-0.0,-1.0,0.1506315772258148,2.0
19.454181671142575,15.860189437866213,-0.6499373912811279,-0.0,-0.0,-1.0,0.2365897506445217,2.0
20.07760238647461,15.97843074798584,-0.7164590358734131,0.2123344418817255,-0.7602580786285759,-0.6139395236265232,0.141565915812322,3.0
19.92576026916504,17.602394104003906,-0.7368707656860352,0.5269496489473614,0.2764148629761516,-0.8036907931537648,0.2112327348693427,6.0
18.912673950195312,15.654525756835938,-0.1857657432556152,0.8990748293948001,0.198886831233167,0.3900108710161049,0.1429649559127638,6.0
19.10759735107422,16.42167854309082,-0.0660562515258789,0.868656135571041,0.1571444562887138,-0.4698320316799504,0.1607399396409743,9.0
19.284866333007812,16.274391174316406,-0.1160216331481933,-0.4907728456794862,0.0282355899007342,-0.870829929094434,0.2437469835938067,3.0
19.501983642578125,16.2200927734375,-0.1543450355529785,-0.3170475689296373,0.4024358103795666,-0.8587934894722642,0.1677448822243288,9.0
20.18832778930664,16.29470443725586,-0.2345175743103027,-0.4188376987388075,0.9080600888747916,-0.0013627574566726,0.160723012089597,6.0
20.18231201171875,16.258609771728516,0.1856107711791992,-0.0,-0.0,-1.0,0.1567308442951116,2.0
20.147632598876953,16.19852066040039,-0.7184352874755859,-0.6047816597154536,0.4647241968663231,-0.6467384053222544,0.1858216916343617,4.0
20.13728141784668,15.717114448547363,-0.8313741683959961,-0.0,-0.0,-1.0,0.1473337473702324,2.0
19.8980712890625,16.175336837768555,-0.286400556564331,-0.0,-0.0,-1.0,0.200067188198414,2.0
19.79987144470215,15.935657501220703,-0.3205058574676513,-0.3486745220652688,-0.937243681627936,-0.0005990918702023,0.1247931378178737,3.0
20.162391662597656,16.25935173034668,-0.3119454383850097,0.8353910520834282,-0.5241466452821462,0.1655055417151178,0.1733292677629567,12.0
19.079700469970703,16.36473846435547,-0.1228549480438232,-0.0403625025225647,0.8043322695698034,-0.5928072777208502,0.2011505176626861,6.0
19.53567123413086,16.20577621459961,-0.2237696647644043,0.0864323422272105,-0.6008484311611265,-0.7946764203047247,0.2006520924452426,5.0
20.124523162841797,16.34866714477539,0.0967054367065429,0.3378463051039184,-0.5773270712164824,-0.7433393081011045,0.2443514548459258,16.0
18.799402236938477,15.70285987854004,-0.129502534866333,0.5695884588071107,0.7448222663616069,-0.3475755732581044,0.1919025486189397,6.0
19.130855560302734,16.101512908935547,-0.0843164920806884,0.5266361370035869,0.2616589563908563,-0.8088194914456421,0.1225164335813263,8.0
19.03058433532715,15.749850273132324,-0.1509759426116943,0.5048732724675808,-0.42294669402419,-0.7524752971107322,0.2482785750865139,3.0
19.44471740722656,16.25910186767578,-0.0966131687164306,-0.0,-0.0,-1.0,0.1118220593743371,2.0
19.10586929321289,16.38861846923828,-0.0146572589874267,0.7442472529954409,0.6639140192586749,-0.0728985695369416,0.1592996577053926,3.0
19.16335678100586,16.364131927490234,-0.0289723873138427,-0.5743513423829627,0.6346149017711172,0.5170923147300912,0.1566965977994956,3.0
19.261892318725582,16.36444854736328,-0.0440199375152587,0.02654186900882,-0.2862658426264989,-0.957782541360438,0.1813003775518901,5.0
20.157896041870117,16.292076110839844,0.1396126747131347,-0.7720106669618672,0.6250862325260413,0.115181300580835,0.1978535926608998,7.0
20.165542602539062,16.319974899291992,0.0848448276519775,0.63771531392112,-0.7295385635662488,0.2471692995907489,0.2342039929523098,12.0
20.073287963867188,15.98194694519043,-0.4934949874877929,-0.8857536443683747,-0.2073910170691354,0.4152462492632197,0.1984299426371783,3.0
17.833309173583984,15.930612564086914,-0.7761050462722778,-0.0,-0.0,-1.0,0.160738007482916,2.0
19.155427932739254,16.391643524169922,-0.7048624753952026,-0.0,-0.0,-1.0,0.1200831080383889,1.0
19.958213806152344,16.645851135253906,-0.6614061594009399,-0.0,-0.0,-1.0,0.1297691882555385,1.0
20.20036506652832,15.649476051330566,-0.6230330467224121,-0.0,-0.0,-1.0,0.0923112923962436,1.0
19.940317153930664,17.304391860961914,-0.6794577836990356,0.7059396610440785,-0.2369710270346477,-0.6674533147053177,0.1850209543130115,3.0
20.009002685546875,16.967958450317383,-0.6664119958877563,-0.0,-0.0,-1.0,0.2132746045790696,1.0
18.010101318359375,15.93808650970459,-1.0108834505081177,-0.0,-0.0,-1.0,0.1878227676245021,2.0
18.481529235839844,16.924951553344727,-0.981169581413269,-0.0,-0.0,-1.0,0.0656341051695488,1.0
18.572845458984375,17.1441707611084,-0.9758976697921752,-0.0,-0.0,-1.0,0.1018974206994494,1.0
18.590362548828125,17.02688217163086,-0.9740258455276488,-0.0,-0.0,-1.0,0.0968860536458828,1.0
19.141199111938477,15.725997924804688,-0.930383563041687,-0.0,-0.0,-1.0,0.1498753104017714,1.0
20.027374267578125,17.39497947692871,-0.8751605749130249,-0.2818228189462983,0.8904436477726183,0.3573317910046004,0.2133523577460518,3.0
19.770416259765625,17.103174209594727,-0.8913747072219849,-0.0,-0.0,-1.0,0.2123681159326227,2.0
19.81907081604004,16.543689727783203,-0.885069727897644,-0.0,-0.0,-1.0,0.0980320158510611,1.0
19.393978118896484,16.072477340698242,-0.0622448921203613,-0.0,-0.0,-1.0,0.0677375258644528,1.0
19.253597259521484,15.984529495239258,-0.0676373243331909,-0.0,-0.0,-1.0,0.0844571312895059,2.0
19.50011825561523,16.24578857421875,-0.0949294567108154,0.8095096673954073,-0.0492376066181997,-0.5850382521578297,0.1471300542029916,3.0
19.32402229309082,16.053693771362305,-0.1032506227493286,-0.0,-0.0,-1.0,0.0618130466170431,1.0
19.01362419128418,15.708375930786133,-0.1181117296218872,0.8697168753012365,-0.1847465997129737,0.4576693683334595,0.1491874343078824,4.0
17.747251510620117,15.936006546020508,-0.7338259220123291,-0.0,-0.0,-1.0,0.1157791210921074,1.0
20.06318092346191,17.274555206298828,-0.6137311458587646,-0.0,-0.0,-1.0,0.1427324995262063,1.0
20.12636947631836,15.943552017211914,-0.5849735736846924,-0.0812992366327372,0.0194586245240207,-0.996499772230063,0.1723929784118503,6.0
19.7813720703125,16.14450454711914,-0.2403066158294677,-0.0,-0.0,-1.0,0.0972460233872962,1.0
19.387842178344727,15.68726634979248,-0.2500423192977905,-0.0,-0.0,-1.0,0.0691940323735948,2.0
18.46526527404785,17.274423599243164,-1.4266276359558103,-0.0,-0.0,-1.0,0.2293818444337841,1.0
18.609617233276367,17.03696060180664,-1.4232449531555176,-0.0,-0.0,-1.0,0.1961222434996683,1.0
20.020174026489254,17.86886215209961,-1.236686944961548,-0.0,-0.0,-1.0,0.1243246805191062,2.0
19.72480010986328,17.12917709350586,-1.3015131950378418,-0.0,-0.0,-1.0,0.1261888188116559,1.0
20.148500442504883,16.59907341003418,-1.2833786010742188,-0.0,-0.0,-1.0,0.0730466934284605,1.0
19.70762634277344,16.930912017822266,-1.3130381107330322,-0.0,-0.0,-1.0,0.0929698622334651,1.0
19.85592460632324,16.358381271362305,-1.326923131942749,-0.0,-0.0,-1.0,0.1404396130501156,1.0
19.798431396484375,16.018115997314453,-1.3515596389770508,-0.0,-0.0,-1.0,0.129184720258588,1.0
19.212554931640625,16.062808990478516,-0.3910901546478271,-0.0,-0.0,-1.0,0.1460186592442828,1.0
19.046985626220703,15.830894470214844,-0.4171640872955322,-0.0,-0.0,-1.0,0.1104788611525498,1.0
19.972156524658203,16.03676986694336,-0.3384451866149902,-0.0,-0.0,-1.0,0.1162469048258895,2.0
20.049470901489254,15.674705505371094,-0.3785178661346435,-0.0,-0.0,-1.0,0.1354537321317138,1.0
20.01685905456543,17.348005294799805,-1.028254747390747,-0.0,-0.0,-1.0,0.1999355994159144,1.0
20.025056838989254,17.5971736907959,-1.030191421508789,-0.0,-0.0,-1.0,0.1669682966176534,2.0
20.16987419128418,16.838300704956055,-1.0105397701263428,-0.0,-0.0,-1.0,0.2011249903720968,1.0
20.025434494018555,17.148643493652344,-1.0255281925201416,-0.0,-0.0,-1.0,0.160439607732566,1.0
18.75885581970215,17.967876434326172,-1.139099359512329,-0.0,-0.0,-1.0,0.0550473286647635,1.0
20.205089569091797,15.977810859680176,-1.000164031982422,-0.0,-0.0,-1.0,0.1480155344771311,1.0
20.057945251464844,16.14810562133789,-1.013791799545288,-0.0,-0.0,-1.0,0.2173604903160699,1.0
19.995777130126953,16.454715728759766,-1.0215518474578855,-0.0,-0.0,-1.0,0.0981624097066462,2.0
20.10715103149414,16.243576049804688,-0.0353345870971679,-0.0,-0.0,-1.0,0.1782420778037245,2.0
19.348087310791016,16.214157104492188,-0.0722190141677856,-0.0,-0.0,-1.0,0.1886988715983716,2.0
19.22983741760254,15.979082107543944,-0.0773721933364868,-0.0,-0.0,-1.0,0.0863569519149387,2.0
20.161705017089844,18.131649017333984,-0.8096773624420166,-0.0,-0.0,-1.0,0.0771509059453379,2.0
19.965700149536133,17.305479049682617,-0.829826831817627,-0.0,-0.0,-1.0,0.2216318317967084,2.0
19.75720977783203,16.664077758789062,-0.8510410785675049,0.5632183576762244,-0.5853249187038282,-0.58324936444102,0.1584820252624454,3.0
18.52488899230957,17.373462677001953,-0.9469039440155028,-0.9635164257682834,-0.2650719836986183,0.037053214877947,0.0711535795691158,4.0
20.10830307006836,15.93591022491455,-0.8279812335968018,-0.0,-0.0,-1.0,0.1396466466690501,1.0
19.23761749267578,15.860725402832031,-0.8999826908111572,-0.0,-0.0,-1.0,0.2280689582292178,1.0
17.961833953857422,16.129255294799805,-1.002208948135376,-0.013117019916579,0.9994096933870648,0.0317522999557689,0.1725671284343587,3.0
20.117677688598633,16.31340980529785,0.1160476207733154,-0.5587626594313109,-0.6083213856617599,-0.5636748904925651,0.1979441475473616,10.0
19.028703689575195,16.380252838134766,0.0655564069747924,-0.0,-0.0,-1.0,0.2207504820596848,1.0
19.954193115234375,17.19368553161621,-0.619409441947937,-0.0,-0.0,-1.0,0.2175502108745249,2.0
19.084869384765625,16.68555450439453,-0.702818751335144,-0.0,-0.0,-1.0,0.1690662353195986,2.0
17.891765594482422,15.841475486755373,-0.8250981569290161,0.0240593767159043,-0.9790379532400436,0.2022519035944739,0.1700512472944742,3.0
17.895126342773438,16.086477279663086,-0.8167811632156372,-0.0,-0.0,-1.0,0.1250503089970395,2.0
20.035547256469727,15.822639465332031,-0.6529592275619507,-0.329219514005136,-0.5231686453744423,-0.7860719306115013,0.1587271545169888,5.0
20.06190490722656,16.23590850830078,0.2721579074859619,0.3806858047935519,-0.8819140600806696,0.2780394012738396,0.1186038250865051,3.0
19.92371368408203,17.579557418823242,-0.7557516098022461,0.8488499954222444,-0.0106700651206804,-0.5285260967842325,0.1889087889218007,5.0
20.016353607177734,17.2851505279541,-0.752997636795044,-0.8329286044692554,-0.0452974815651866,-0.5515234156595262,0.1764505885329579,3.0
18.46634864807129,17.374021530151367,-0.8846225738525391,-0.0,-0.0,-1.0,0.0906545744688981,2.0
20.141807556152344,15.860469818115234,-0.7698078155517578,-0.8460662776759587,-0.3062177969917407,0.4363513659713612,0.2071955086687167,3.0
20.075681686401367,15.73946475982666,-0.7780590057373047,-0.0,-0.0,-1.0,0.1647655274239305,1.0
17.83858299255371,16.23906898498535,-0.960817813873291,-0.4487986685646346,-0.3875327022607627,-0.8052317428995718,0.1769420278108449,4.0
20.126136779785156,16.281034469604492,0.1088353395462036,-0.6198736871842507,-0.2068118451680315,0.7569580388864339,0.1638678888413809,4.0
19.161468505859375,16.509639739990234,0.0648083686828613,0.0463888671741666,0.5042659794535055,-0.8623015104753642,0.1076803832399166,7.0
20.11947250366211,15.738153457641602,-0.6877297163009644,-0.0,-0.0,-1.0,0.1713471497991635,1.0
17.89788818359375,15.978719711303713,-0.8756934404373169,0.9341810148165434,-0.1845436461253722,-0.3053677688150574,0.1595861516828411,3.0
20.126630783081055,16.37885093688965,0.1626311540603637,-0.7696471735558843,-0.5690746976224165,-0.2894774892170266,0.161625526395579,14.0
20.12367248535156,16.29568862915039,0.15988290309906,-0.5282921214121784,-0.8442870636990952,-0.0899265729591647,0.1844140076031044,8.0
19.976402282714844,17.269350051879883,-0.622844934463501,-0.0,-0.0,-1.0,0.15996047279728,2.0
19.84204864501953,16.881399154663086,-0.6366533041000366,0.3357214288505453,-0.7263291848421161,0.5997808245160349,0.2401119029401984,3.0
17.838062286376953,16.044700622558594,-0.8168731927871704,-0.0,-0.0,-1.0,0.1576231755379418,2.0
17.83114242553711,15.91676902770996,-0.818569540977478,0.7046266221114957,0.6632558019094628,-0.2521766536481494,0.1592676783633024,3.0
20.091947555541992,15.925954818725586,-0.6217026710510254,0.5869910516356928,-0.7756187669729953,0.2320711822241486,0.1744418395342322,6.0
20.088157653808594,16.315837860107422,0.1738759279251098,0.0673431566271525,-0.8392766388390462,0.5395179540613313,0.1862563723213593,8.0
20.034578323364254,16.225421905517578,-0.4833847284317016,0.2809845804977851,-0.4637093857859079,0.8402507191645477,0.1482232680677072,4.0
19.91322135925293,15.859101295471191,-0.4978979825973511,-0.0,-0.0,-1.0,0.0870489376681075,2.0
19.985980987548828,16.368677139282227,0.2718861103057861,-0.0,-0.0,-1.0,0.104761695791377,1.0
20.18169403076172,16.210186004638672,-0.5364042520523071,-0.5798149868540625,-0.4521005215015896,-0.6778050600854306,0.1653769642325376,4.0
20.052759170532227,15.798625946044922,-0.5573493242263794,-0.2068595135224317,0.1603117502843361,-0.9651472863693064,0.1551158465271405,4.0
20.19874382019043,16.336688995361328,0.1808142662048339,-0.669046357306651,0.7293050332703715,0.1431472675995016,0.2189395322852909,6.0
20.014474868774418,17.282745361328125,-0.6716324090957642,-0.6584254332363211,0.0113410060289914,-0.7525605161379474,0.1624337415404572,3.0
20.124509811401367,15.90842628479004,-0.7009052038192749,-0.3665184475890342,-0.5597130604785389,-0.7432264241176251,0.1534169726788262,4.0
17.902385711669922,16.003700256347656,-0.9358493089675904,-0.0,-0.0,-1.0,0.1120764547157833,2.0
17.823640823364258,16.24994659423828,-0.9361835718154908,-0.8181583354863095,-0.5061867946635921,-0.272748724987799,0.1846452976692596,3.0
17.858261108398438,15.796783447265623,-0.9475287199020386,-0.2883654773187254,-0.7498285166725603,-0.5954851358979261,0.1615824665655712,3.0
20.17108154296875,16.285234451293945,-0.0046486854553222,-0.0148614691801879,-0.6362373601322191,0.7713502176740414,0.1964762132870151,8.0
19.271867752075195,16.059642791748047,-0.077280044555664,-0.0,-0.0,-1.0,0.0452693613745,1.0
19.042695999145508,15.652186393737791,-0.1084719896316528,-0.342808326126565,0.8095260830791791,-0.476602530787222,0.2089663628894262,6.0
20.10666275024414,17.893556594848633,-0.78960120677948,-0.0,-0.0,-1.0,0.1201212073813366,1.0
19.940763473510746,17.656131744384766,-0.8125799894332886,-0.0,-0.0,-1.0,0.2133438014715501,1.0
20.02288055419922,17.38665008544922,-0.8066869974136353,-0.2543520818616834,0.944342058464072,-0.2086218949881992,0.2306596737268448,3.0
19.61262321472168,17.38338279724121,-0.8558427095413208,-0.0110610352249706,0.993202834169269,0.1158696841191996,0.0978902176175766,3.0
19.954214096069336,17.073152542114258,-0.819900631904602,0.9358371551595204,-0.3365913726635494,0.1044751973982495,0.1648627610518119,5.0
19.74686813354492,16.867420196533203,-0.8483165502548218,0.3623036337222671,-0.8538776442957704,-0.3736697011580507,0.1455421478361181,4.0
18.513628005981445,17.35806655883789,-0.9879063367843628,-0.0,-0.0,-1.0,0.0958085401552844,2.0
19.6181640625,16.688180923461914,-0.8670326471328735,-0.0,-0.0,-1.0,0.1247370446831871,1.0
18.0739688873291,16.97193145751953,-1.0472840070724487,-0.0,-0.0,-1.0,0.0656621338800675,2.0
20.08967399597168,15.831802368164062,-0.8278754949569702,-0.3137584320120739,-0.9287548324634624,0.1974084788378919,0.1244949479027146,5.0
19.139293670654297,15.9656982421875,-0.9393905401229858,-0.7403469478178719,0.6499764549752263,0.1715138619313304,0.173498498977642,4.0
17.90727424621582,16.165658950805664,-1.0834094285964966,-0.0,-0.0,-1.0,0.2553822224296088,1.0
20.193727493286133,16.082372665405273,-0.8098706007003784,-0.0,-0.0,-1.0,0.0913712219125402,2.0
20.16040802001953,16.324050903320312,-0.1667474508285522,-0.0422792255746601,-0.9857279279209972,-0.1629506649307823,0.2859414468511071,14.0
20.052520751953125,16.46322250366211,-0.1727102994918823,-0.0,-0.0,-1.0,0.1521455526985841,2.0
19.65234375,16.114187240600586,-0.2149977684020996,0.3959850856372784,0.5390065751827563,-0.7434162520839807,0.1001144715707872,10.0
18.929840087890625,16.72112464904785,-0.6937596797943115,-0.0,-0.0,-1.0,0.1481683668819015,2.0
17.85606575012207,16.183984756469727,-0.8217606544494629,0.6254744064214252,0.5533937303755432,-0.5500337681386539,0.1476313973542977,3.0
17.854616165161133,15.839995384216309,-0.8278436660766602,0.0945588261330311,-0.9457953834113094,0.3106923254897,0.1797043865741921,4.0
20.038888931274418,16.150480270385742,-0.5782903432846069,0.8869896232592256,0.2514622129897346,-0.3873192012652639,0.2092968356102536,5.0
20.1849422454834,16.01910972595215,-0.5640838146209717,-0.0,-0.0,-1.0,0.1742052614436507,2.0
20.028636932373047,15.878881454467772,-0.5839245319366455,-0.0,-0.0,-1.0,0.177808476067336,2.0
20.14542007446289,16.374359130859375,0.0418604612350463,-0.8282035378355825,-0.3839083009707957,0.4082809282373373,0.1833037946168945,7.0
19.22097396850586,16.45893096923828,-0.0274360179901123,0.1736334031647324,0.8217402415753345,-0.542765526430285,0.0982504342000087,10.0
19.06451988220215,16.057344436645508,-0.0467737913131713,0.6293609498201541,-0.554799539729168,-0.54415279614992,0.1199690153413109,7.0
20.035276412963867,17.56621551513672,-0.94026517868042,0.4184090774947017,-0.7019046058399905,-0.5764232543631811,0.1374969000685394,4.0
19.889892578125,17.731983184814453,-0.9589123725891112,-0.0,-0.0,-1.0,0.175657505274684,1.0
19.933393478393555,17.374847412109375,-0.9570248126983644,-0.0,-0.0,-1.0,0.1673477021151638,1.0
18.822498321533203,17.722667694091797,-1.109710454940796,-0.0,-0.0,-1.0,0.0820371548692719,1.0
19.73546600341797,16.76079559326172,-0.9946041107177734,-0.0,-0.0,-1.0,0.2002585676906396,2.0
19.099199295043945,17.25009536743164,-1.0768704414367676,-0.0,-0.0,-1.0,0.0747822221097014,1.0
18.976886749267575,17.326824188232422,-1.0930733680725098,-0.0,-0.0,-1.0,0.0869482071511178,1.0
19.8697509765625,16.45640754699707,-0.9813268184661864,-0.0,-0.0,-1.0,0.1314328763550663,2.0
19.576231002807617,16.71792221069336,-1.0179970264434814,-0.0,-0.0,-1.0,0.2151342909864996,2.0
19.923770904541016,16.04898452758789,-0.9824037551879884,-0.0,-0.0,-1.0,0.1291826628735667,1.0
19.732498168945312,16.177846908569336,-1.0066957473754885,-0.0,-0.0,-1.0,0.0367258142259384,1.0
20.131685256958008,17.006221771240234,-0.934255838394165,-0.0,-0.0,-1.0,0.1978270976815951,1.0
20.133398056030273,15.812662124633787,-0.9581344127655028,-0.0,-0.0,-1.0,0.1370822636663552,2.0
20.11056327819824,15.673364639282228,-0.964902639389038,-0.0,-0.0,-1.0,0.1471089299968399,1.0
20.058032989501953,16.259660720825195,-0.3827817440032959,0.1809073239420606,-0.6074780225571758,-0.7734616941091174,0.2509927174782221,5.0
19.96050262451172,15.978957176208496,-0.4001505374908447,-0.0,-0.0,-1.0,0.0958042923776567,1.0
20.112281799316406,16.328903198242188,0.1944750547409057,-0.1121897113593955,-0.7575321019702124,0.6430852067569951,0.2386226454769096,10.0
20.196964263916016,17.73090171813965,-1.1600167751312256,-0.0,-0.0,-1.0,0.1063637900235939,1.0
20.140838623046875,17.364748001098633,-1.1702733039855957,-0.0,-0.0,-1.0,0.1320364254422399,1.0
17.939170837402344,16.19120216369629,-0.9282574653625488,-0.0,-0.0,-1.0,0.150280042474865,1.0
17.88336181640625,15.92241382598877,-0.9409096240997314,-0.0,-0.0,-1.0,0.1483146191247811,2.0
17.879840850830078,15.678943634033203,-0.9466702938079834,-0.4149106657316693,-0.8572128849810038,-0.3050167360730346,0.1245119773963731,5.0
19.770755767822266,16.94137191772461,-0.6813760995864868,-0.0,-0.0,-1.0,0.1379999322053392,1.0
20.17640686035156,15.955289840698242,-0.645538330078125,-0.0,-0.0,-1.0,0.1516079568562358,2.0
20.080015182495117,15.66934585571289,-0.6642054319381714,-0.0,-0.0,-1.0,0.1930447105753862,2.0
20.153751373291016,16.39535903930664,-0.1081236600875854,0.6064095307413484,-0.746749377922126,0.2731901308593978,0.1885248893165164,9.0
20.062192916870117,16.31938934326172,-0.1180932521820068,-0.0,-0.0,-1.0,0.1586232457994997,2.0
19.51656723022461,16.18857192993164,-0.1714705228805542,0.2935125728548202,0.7755028394869385,0.5589684387546753,0.2012683012593793,8.0
19.995651245117188,17.534339904785156,-1.072723627090454,-0.0,-0.0,-1.0,0.1484279727209971,2.0
19.633869171142575,17.92356300354004,-1.1327433586120603,-0.0,-0.0,-1.0,0.2079988331587106,1.0
20.176477432250977,17.208436965942383,-1.0444021224975586,-0.0,-0.0,-1.0,0.1978278230091079,1.0
20.193294525146484,16.795156478881836,-1.0461840629577637,-0.0,-0.0,-1.0,0.1868411635898243,1.0
20.155189514160156,16.309316635131836,-1.0606908798217771,-0.0,-0.0,-1.0,0.1522204050582718,2.0
20.15408515930176,16.528289794921875,-1.0569288730621338,-0.0,-0.0,-1.0,0.1368151485267826,1.0
19.965087890625,17.255216598510742,-0.5711884498596191,-0.0,-0.0,-1.0,0.1948323044268886,2.0
19.156082153320312,16.718521118164062,-0.6891646385192871,-0.0,-0.0,-1.0,0.1614492536321627,1.0
20.083398818969727,15.934917449951172,-0.5794776678085327,0.3306286073987757,0.5288199913177474,-0.7816867280133676,0.229850222057161,6.0
20.032203674316406,16.162429809570312,-0.5811643600463867,0.8891631779822603,0.3427347385917968,-0.303185985630768,0.1926716767389225,6.0
17.961673736572266,16.16054916381836,-0.8630125522613525,-0.0,-0.0,-1.0,0.1732761783823534,2.0
17.884220123291016,15.758056640625,-0.8833906650543213,0.4995269233918868,-0.6676435505133769,-0.5520189691165769,0.129089580923795,4.0
20.168643951416016,16.41045570373535,-0.0629640817642211,0.0359997714551753,-0.9988350625519564,0.0321330713129786,0.1287318209170731,11.0
20.115989685058594,16.341318130493164,-0.0697882175445556,0.0408346990004966,-0.5868411404483511,-0.8086717524650016,0.2449026670185095,6.0
19.56637954711914,16.195959091186523,-0.1284441947937011,-0.0,-0.0,-1.0,0.2047828070489788,2.0
19.95512962341309,17.67072105407715,-0.7650208473205566,-0.0,-0.0,-1.0,0.1971474496231946,1.0
20.01500701904297,17.89785385131836,-0.7510030269622803,0.8021123846014868,0.1518826119759815,-0.5775356219734588,0.1049413310167643,3.0
19.96631622314453,17.340919494628906,-0.7705087661743164,-0.0,-0.0,-1.0,0.2005840370859015,2.0
19.717853546142575,17.295299530029297,-0.8115062713623047,-0.0,-0.0,-1.0,0.180602029809556,1.0
18.501373291015625,17.651079177856445,-0.9985458850860596,-0.0,-0.0,-1.0,0.0849386857272701,1.0
17.726097106933594,17.959270477294922,-1.116229772567749,-0.0,-0.0,-1.0,0.0405940398852112,1.0
19.923534393310547,16.92727279663086,-0.7879750728607178,0.7126672681190004,-0.6106615697191209,0.3452503616507592,0.130563443720204,3.0
19.67394256591797,16.944744110107422,-0.8276183605194092,0.5863205389609567,-0.7185685540314534,-0.3740153188703369,0.1418399488692915,3.0
18.56648826599121,17.28321075439453,-0.9968218803405762,0.5119644080527487,0.8579760275883912,-0.0420663876609742,0.0960771962650471,3.0
20.124832153320312,16.226383209228516,-0.7769730091094971,-0.4063774664065058,0.812847979391707,-0.4172954794816832,0.1982310410065625,6.0
19.653949737548828,16.61563491821289,-0.8403565883636475,-0.0,-0.0,-1.0,0.1581460802428191,2.0
19.53553009033203,16.718862533569336,-0.8563432693481445,-0.989519894914291,-0.1197314745957924,-0.0807140109270229,0.1242871784175927,3.0
18.382522583007812,16.98776626586914,-1.0342986583709717,-0.0,-0.0,-1.0,0.0610277238507594,2.0
20.097599029541016,15.81654930114746,-0.7960367202758789,-0.3754247648976156,-0.8394831154580752,-0.3928413735369203,0.1313148446061444,4.0
18.04992294311523,16.64035987854004,-1.0980157852172852,-0.0,-0.0,-1.0,0.0581972771130128,1.0
17.87651824951172,16.54169273376465,-1.1290509700775146,-0.0,-0.0,-1.0,0.0389304705841998,2.0
19.78262710571289,15.763782501220703,-0.8488223552703857,-0.0,-0.0,-1.0,0.2077066712076368,2.0
19.251699447631836,15.931925773620604,-0.9281508922576904,-0.0,-0.0,-1.0,0.2779290904377689,1.0
18.06229019165039,16.191503524780273,-1.110757827758789,-0.0,-0.0,-1.0,0.177092317797923,2.0
17.864898681640625,16.40957260131836,-1.1351783275604248,-0.0,-0.0,-1.0,0.1020363701359663,2.0
20.102951049804688,16.28323745727539,-0.3126672506332397,-0.5351742200985982,0.4935935656127342,-0.6855318709787054,0.1810514376252074,3.0
20.09720802307129,16.36268424987793,0.1514407396316528,-0.5362789497859398,-0.7599934201268165,-0.3671714713596815,0.2012810228669042,14.0
19.11334228515625,16.538185119628906,0.0686398744583129,-0.120306563325484,0.5009392289345409,-0.8570800544495705,0.1393064787915435,9.0
18.633834838867188,17.858938217163086,-1.062240719795227,-0.0,-0.0,-1.0,0.0697701020541676,1.0
18.32447624206543,17.969032287597656,-1.1157702207565308,-0.0,-0.0,-1.0,0.067885921892558,1.0
19.580638885498047,17.43195152282715,-0.9000977277755737,-0.0,-0.0,-1.0,0.1270453761425822,1.0
18.684402465820312,17.637327194213867,-1.0557619333267212,0.2565722175420467,0.9437664718100116,0.2085078988260144,0.0678938676509872,3.0
18.70672607421875,17.214271545410156,-1.0580493211746216,-0.0,-0.0,-1.0,0.0537918362802863,2.0
19.54763412475586,16.67906951904297,-0.9195750951766968,-0.7294969008035834,-0.5401737416110641,0.4195790754933692,0.2161555055368584,3.0
19.442691802978516,15.978235244750977,-0.9574013948440552,-0.0,-0.0,-1.0,0.198067450089447,1.0
19.157424926757812,16.28866958618164,-0.998775839805603,-0.0,-0.0,-1.0,0.0915022340086422,1.0
18.784629821777344,16.477628707885742,-1.0598849058151243,-0.0,-0.0,-1.0,0.0428548940565545,1.0
19.55413055419922,15.934082984924316,-0.9390383958816528,-0.0,-0.0,-1.0,0.2674559903355377,2.0
19.922466278076172,17.701601028442383,-0.8365455865859985,-0.0,-0.0,-1.0,0.1322625846392424,2.0
19.882091522216797,17.35976219177246,-0.8476897478103638,-0.0,-0.0,-1.0,0.243900536671069,1.0
19.635173797607425,17.513784408569336,-0.8892842531204224,-0.0,-0.0,-1.0,0.0840900268705264,2.0
20.07528305053711,16.809444427490234,-0.8231841325759888,-0.0,-0.0,-1.0,0.1025280101001583,1.0
19.763198852539062,16.781906127929688,-0.8790479898452759,0.2209000217163536,0.5605241953927147,-0.7981326999848235,0.1662155583577402,4.0
19.06757926940918,16.96495246887207,-0.5298856496810913,-0.5269052633400572,0.5005899568469314,-0.6868628236908242,0.1089607252681814,3.0
19.719423294067383,16.509456634521484,-0.8932191133499146,-0.0,-0.0,-1.0,0.1099807916470381,1.0
19.55923843383789,16.330595016479492,-0.9262887239456176,-0.0,-0.0,-1.0,0.0918228824167949,1.0
19.772180557250977,15.745038986206056,-0.9067851305007936,-0.0,-0.0,-1.0,0.182761136470277,2.0
19.60660171508789,15.89137077331543,-0.93112051486969,-0.2721529621256102,0.248798647663189,-0.9295332151823432,0.1856021916239547,3.0
17.736412048339844,16.135669708251953,-0.7395833730697632,-0.0,-0.0,-1.0,0.1271616170046,2.0
17.755403518676758,15.884431838989258,-0.744477391242981,-0.0,-0.0,-1.0,0.1857002422016257,2.0
20.04443359375,16.276002883911133,-0.4084863662719726,0.0176386505069382,-0.646533212319509,-0.762681901828089,0.1972114513942627,6.0
19.98419189453125,16.193506240844727,-0.4193493127822876,-0.0,-0.0,-1.0,0.1757435737093952,2.0
19.930171966552734,15.785272598266602,-0.439572811126709,-0.4452546009238576,0.7014461006064876,-0.5565264668459978,0.1054005834470872,5.0
20.08337783813477,16.322492599487305,0.0258650779724121,-0.0,-0.0,-1.0,0.1743746807850721,2.0
19.17940902709961,16.40599250793457,-0.0678951740264892,0.5758613951550307,0.7760710527902729,-0.2570940967643934,0.1466500748627782,4.0
18.940017700195312,15.694517135620115,-0.1142100095748901,0.7151897060600414,-0.6525848324242435,-0.250273292293792,0.2114245018767139,7.0
20.152599334716797,17.907442092895508,-1.1532554626464844,-0.0,-0.0,-1.0,0.0903296298033816,1.0
20.20047378540039,17.435449600219727,-1.133768081665039,-0.0,-0.0,-1.0,0.1254366938054796,1.0
20.08047866821289,17.450361251831055,-1.1604151725769043,-0.0,-0.0,-1.0,0.1669849236125896,1.0
18.41061019897461,17.853063583374023,-1.074155330657959,-0.0,-0.0,-1.0,0.0395588437082504,1.0
18.041419982910156,18.00994300842285,-1.1444978713989258,-0.0,-0.0,-1.0,0.034563864382049,1.0
18.16752243041992,16.619586944580078,-1.1109662055969238,-0.0,-0.0,-1.0,0.0742629595648346,2.0
18.000802993774414,16.395742416381836,-1.1424508094787598,-0.0,-0.0,-1.0,0.0718122917052938,2.0
18.13138771057129,15.991421699523926,-1.1207706928253174,0.9104040523971938,0.2198346334904516,-0.3504813765335992,0.0813272186888513,4.0
20.000057220458984,17.9379825592041,-0.7831342220306396,-0.5693194341995711,-0.3796032945742654,-0.7292302246828798,0.1578443753586887,3.0
19.96007537841797,17.522981643676758,-0.7842543125152588,-0.1144300787064897,0.9745288739890346,-0.1928710212781859,0.2832520263008856,4.0
18.571800231933594,17.70151138305664,-1.042402267456055,-0.0,-0.0,-1.0,0.1000991148831435,2.0
19.793872833251953,17.155235290527344,-0.8114809989929199,0.922569460006098,0.031961389896416,-0.3845049557807368,0.2142520237541552,3.0
19.68149185180664,17.221607208251953,-0.8326091766357422,-0.0,-0.0,-1.0,0.171760709769427,1.0
18.648284912109375,17.490745544433594,-1.02593994140625,-0.0,-0.0,-1.0,0.0722699710771619,2.0
19.64756965637207,16.777219772338867,-0.8369002342224121,-0.1315613097864764,0.5362188822774356,-0.8337631150731031,0.1412669268990233,3.0
18.482208251953125,17.050006866455078,-1.0533874034881592,-0.0,-0.0,-1.0,0.0994709907908012,1.0
20.118671417236328,16.237905502319336,-0.7507674694061279,-0.3506959344854911,0.71040409370644,-0.610195366403646,0.2326635779409101,5.0
19.48083114624023,16.59242820739746,-0.8676869869232178,-0.0,-0.0,-1.0,0.1461189457558354,1.0
20.126441955566406,15.754948616027832,-0.7540247440338135,-0.0,-0.0,-1.0,0.11071329949223,1.0
19.993873596191406,15.811677932739258,-0.7778065204620361,-0.0,-0.0,-1.0,0.1634502439278631,1.0
19.11705017089844,15.934289932250977,-0.9387588500976562,-0.9076062712742624,-0.2111279723167556,0.3628716517572644,0.2130443252001079,5.0
20.15074157714844,16.25689697265625,-0.3549787998199463,0.9877322935429454,0.1507303385961072,0.0408078585458194,0.192917901801594,7.0
19.896242141723633,15.84605884552002,-0.396125316619873,-0.6916634150783239,-0.5938782656644457,-0.4109870141666043,0.1074977987094406,3.0
20.13586044311523,16.26861000061035,0.0290994644165039,0.544417541228165,-0.822314423755492,0.1655552152206401,0.1931966532051626,3.0
19.308177947998047,16.3544921875,-0.06475830078125,-0.2396194824752401,0.3362701800117175,-0.9107715792959205,0.2408671307770802,4.0
19.13448715209961,16.063962936401367,-0.0860892534255981,0.403465412412924,0.2905096056491077,-0.8676519060153494,0.1384747916825228,7.0
19.001068115234375,15.642210006713867,-0.1046092510223388,0.1953333006169225,0.9097877929313064,0.3662390933574429,0.1247733558463726,8.0
19.737377166748047,17.82930564880371,-0.9264804124832152,-0.0,-0.0,-1.0,0.1841905673940866,1.0
19.617401123046875,17.62350082397461,-0.9528712034225464,-0.0,-0.0,-1.0,0.1933261092730107,2.0
18.800800323486328,17.912137985229492,-1.1275907754898071,-0.0,-0.0,-1.0,0.0826894995953968,1.0
19.76072120666504,17.4002742767334,-0.9236270189285278,-0.0,-0.0,-1.0,0.189867643792443,2.0
18.81267547607422,17.5511531829834,-1.1266471147537231,-0.0,-0.0,-1.0,0.1112433215612155,2.0
19.700443267822266,17.049392700195312,-0.9408761262893676,-0.0,-0.0,-1.0,0.1342864845137117,1.0
18.96582794189453,17.24456214904785,-1.0967379808425903,-0.0,-0.0,-1.0,0.0969410425369421,2.0
19.57067108154297,16.452072143554688,-0.9815441370010376,-0.0,-0.0,-1.0,0.1683777170332229,2.0
19.164501190185547,16.540203094482422,-1.067180037498474,-0.0,-0.0,-1.0,0.0765940383521309,2.0
19.019466400146484,16.71991729736328,-1.094241499900818,-0.0,-0.0,-1.0,0.1160465121780452,2.0
19.519737243652344,16.08506965637207,-1.0037733316421509,-0.0,-0.0,-1.0,0.118094032445311,2.0
19.35307884216309,16.30386734008789,-1.0327295064926147,-0.0,-0.0,-1.0,0.0840206577048056,1.0
19.757946014404297,15.842266082763672,-0.9608031511306764,-0.3658542394531466,0.7989824099694218,-0.477260708663111,0.1157398548912337,3.0
19.963857650756836,17.666162490844727,-0.8782616853713989,-0.4110906386450991,0.0477201438389599,-0.91034459117982,0.2313598461308351,3.0
19.938873291015625,17.33730697631836,-0.8856889009475708,-0.0,-0.0,-1.0,0.2009537140637235,1.0
19.81092071533203,16.79248809814453,-0.9215034246444702,0.6701750631241437,-0.7412385702902072,-0.0378254766087527,0.2157032434748708,4.0
19.874427795410156,16.59514045715332,-0.9121276140213012,-0.0,-0.0,-1.0,0.1039199942439371,2.0
18.897998809814453,16.716175079345703,-0.7173786163330078,-0.0,-0.0,-1.0,0.1389160310351661,2.0
19.884220123291016,15.748619079589844,-0.7541805505752563,-0.0,-0.0,-1.0,0.1278778064582152,1.0
17.899391174316406,16.117877960205078,-0.913227915763855,-0.1790721285698031,0.982148452663842,-0.0575985216780887,0.197587933576405,3.0
17.883342742919922,15.731002807617188,-0.9289120435714722,-0.6637637546877089,-0.4633369214284619,0.5871427213242709,0.187674434958936,4.0
20.17918586730957,16.27821159362793,-0.4979002475738525,0.6335365213697877,0.6257624026304649,-0.4550306490169827,0.1353639231396134,3.0
20.13222885131836,16.374061584472656,-0.1496561765670776,-0.2244283672344824,-0.9733124611792972,0.0479036626320281,0.2378546457332118,8.0
20.1947021484375,16.08930206298828,-0.5008969306945801,0.6258480584917604,0.0340758933686872,-0.7792002574263049,0.158195817815011,4.0
20.04003143310547,15.958854675292969,-0.5331684350967407,-0.5109302805309281,-0.1526926188728212,-0.8459522519494506,0.1446671748408913,4.0
19.682514190673828,16.09864616394043,-0.2223575115203857,-0.1126902505008051,0.9925293034709034,0.0467599101114317,0.089469594079264,7.0
20.04945945739746,15.660561561584473,-0.5422420501708984,0.6119432484077073,0.1066785267633406,-0.7836741367786906,0.1482748670819433,5.0
20.08547592163086,16.36648941040039,0.1955007314682006,-0.9557591744552209,-0.2831743934330389,-0.0796031616740496,0.1491987514563021,11.0
19.088397979736328,16.56455421447754,0.0920917987823486,-0.1100125184960961,0.4464373408906623,-0.8880264334087247,0.1662635107365651,5.0
20.044347763061523,18.08857154846191,-1.1974128484725952,-0.0,-0.0,-1.0,0.1295176181042738,1.0
20.033781051635746,17.9289493560791,-1.0297335386276243,-0.0,-0.0,-1.0,0.2073881584740012,1.0
20.025169372558594,17.522869110107422,-1.029377818107605,-0.0,-0.0,-1.0,0.1557144624630594,2.0
19.674100875854492,17.646221160888672,-0.94973886013031,-0.0,-0.0,-1.0,0.2448093766736134,2.0
18.85997009277344,17.869983673095703,-1.1473170518875122,-0.0,-0.0,-1.0,0.0878362154676311,2.0
20.04893493652344,17.265233993530273,-1.0238810777664185,-0.0,-0.0,-1.0,0.1092938879743511,2.0
19.694290161132812,17.373964309692383,-0.9451860189437866,-0.0,-0.0,-1.0,0.1624070225322831,2.0
19.039745330810547,17.290695190429688,-1.1049853563308716,-0.0,-0.0,-1.0,0.0927771292455671,2.0
18.901321411132812,17.54759407043457,-1.1370996236801147,-0.0,-0.0,-1.0,0.1150451785177092,2.0
18.414215087890625,17.372329711914062,-0.8715099096298218,0.5753087550256616,0.2380139455917111,-0.7825402213910089,0.1515592629859736,3.0
19.9845027923584,16.75557518005371,-0.8825689554214478,-0.0,-0.0,-1.0,0.1399748186997889,1.0
19.281673431396484,16.802595138549805,-1.052993893623352,-0.0,-0.0,-1.0,0.1649030611736984,2.0
19.117477416992188,16.968069076538086,-1.0901035070419312,-0.0,-0.0,-1.0,0.0893354269512883,1.0
19.770139694213867,16.51953887939453,-0.9405630826950072,-0.0,-0.0,-1.0,0.1042123386510486,1.0
19.406749725341797,16.4722843170166,-1.0305362939834597,-0.0,-0.0,-1.0,0.134996849334775,1.0
19.184249877929688,16.683334350585938,-1.0793131589889526,-0.0,-0.0,-1.0,0.1806303401083015,2.0
19.7097225189209,15.939863204956056,-0.9752756357192992,-0.0,-0.0,-1.0,0.1251726732227417,1.0
