x,y,z,nx,ny,nz,curvature,density
32.5202751159668,14.015423774719238,-1.4976534843444824,-0.0,-0.0,-1.0,0.1208213228639106,1.0
31.837345123291016,14.045783996582031,-1.653975486755371,-0.0,-0.0,-1.0,0.0358129569679807,2.0
31.773908615112305,14.291500091552734,-1.6663110256195068,-0.0,-0.0,-1.0,0.0289332784310593,1.0
31.94656753540039,13.841140747070312,-1.6314289569854736,-0.0,-0.0,-1.0,0.058656580077199,1.0
33.65145492553711,15.574472427368164,-1.7452934980392456,-0.0,-0.0,-1.0,0.1442426690391451,2.0
33.62898254394531,15.195159912109377,-1.7438584566116333,-0.0,-0.0,-1.0,0.0327362374863489,1.0
32.38474655151367,15.574652671813965,-1.6919633150100708,-0.0,-0.0,-1.0,0.1003350326776541,1.0
33.65911102294922,14.84378433227539,-1.730327010154724,-0.0,-0.0,-1.0,0.0340769689984582,2.0
32.31465148925781,15.177525520324709,-1.7070592641830444,-0.0,-0.0,-1.0,0.0567855866310778,2.0
33.33707809448242,14.390697479248049,-1.436267971992493,0.5597597882802832,0.7333359897829885,0.3858591783454391,0.139157961099753,3.0
32.29914855957031,14.77256202697754,-1.710922360420227,-0.0,-0.0,-1.0,0.0603250422048943,1.0
33.10414505004883,14.214041709899902,-1.50041401386261,0.3930166706422073,-0.2135471197308427,-0.8943911472347967,0.2435902608524522,4.0
32.38410949707031,14.20535373687744,-1.6932717561721802,-0.0,-0.0,-1.0,0.0263301003598725,1.0
32.347015380859375,14.414728164672852,-1.700487494468689,-0.0,-0.0,-1.0,0.0335126950082438,1.0
32.84192657470703,13.7089262008667,-1.5801938772201538,-0.0,-0.0,-1.0,0.0407729834587717,2.0
32.46635437011719,14.021048545837402,-1.6741615533828735,-0.0,-0.0,-1.0,0.1068963211081154,1.0
33.4785270690918,14.628084182739258,-1.3971959352493286,-0.0,-0.0,-1.0,0.1981899734947701,1.0
33.43510437011719,14.415520668029783,-1.4099003076553345,0.6801527251559772,0.4305347614979026,-0.5933229218602988,0.2027983312981227,6.0
32.88856506347656,15.318359375,-1.651943325996399,-0.0,-0.0,-1.0,0.1457922921984444,1.0
32.60084533691406,15.587315559387209,-1.7487698793411257,-0.0,-0.0,-1.0,0.0590164232380521,1.0
32.53276062011719,15.075262069702148,-1.7514358758926392,-0.0,-0.0,-1.0,0.0314120329110104,1.0
33.372962951660156,14.441604614257812,-1.4831846952438354,0.497715365734264,-0.7868277954033276,0.364940317165351,0.2102374557981411,3.0
32.573368072509766,14.600589752197266,-1.728584885597229,-0.0,-0.0,-1.0,0.0105242675885302,1.0
32.511077880859375,14.804460525512695,-1.751196026802063,-0.0,-0.0,-1.0,0.0146092235659688,1.0
32.98406219482422,14.106464385986328,-1.5986722707748413,-0.0,-0.0,-1.0,0.1642330860053132,2.0
32.60261154174805,14.201456069946287,-1.7154163122177124,-0.0,-0.0,-1.0,0.0198084646220129,2.0
32.896575927734375,13.803804397583008,-1.6255069971084597,0.2944683244033894,-0.2675512017515312,-0.9174446906295612,0.0576041495977774,6.0
31.79787826538086,15.584086418151855,-1.6295756101608276,0.395721697422943,-0.8024979742841121,-0.4465437710444532,0.0918650085870769,3.0
32.39703369140625,14.039813041687012,-1.4277137517929075,-0.0,-0.0,-1.0,0.0893630361049177,1.0
31.73880386352539,14.169167518615724,-1.6265562772750854,0.4995046181817907,0.416168343136538,-0.7598019785352312,0.0337456273830731,3.0
31.72957420349121,13.90883445739746,-1.6317065954208374,-0.0,-0.0,-1.0,0.0259735261419396,2.0
31.776092529296875,13.639531135559082,-1.6216479539871216,-0.0,-0.0,-1.0,0.0701376875822769,1.0
32.87140655517578,14.530000686645508,-1.7155742645263672,-0.0,-0.0,-1.0,0.0109478875403124,2.0
32.75691604614258,14.27807331085205,-1.7003059387207031,-0.2434135813637139,-0.4062151430853019,-0.8807605156544417,0.0166469635556173,3.0
32.507118225097656,13.95537567138672,-1.6549723148345947,-0.0,-0.0,-1.0,0.0674573166897882,2.0
32.32416534423828,13.714229583740234,-1.6236746311187744,-0.0,-0.0,-1.0,0.0516322149517579,1.0
32.501708984375,13.792646408081056,-1.665231227874756,-0.0,-0.0,-1.0,0.0398222456932132,2.0
33.5504264831543,14.408355712890623,-1.4695472717285156,-0.0,-0.0,-1.0,0.1529737220001143,1.0
33.50780487060547,14.288738250732422,-1.466716766357422,0.7707574430689196,-0.3513748032713152,-0.531477856151981,0.1933289989256786,4.0
31.7426700592041,15.161096572875977,-1.7224023342132568,-0.0,-0.0,-1.0,0.0471844503186729,1.0
33.47467041015625,15.313648223876951,-1.751634120941162,-0.0,-0.0,-1.0,0.0388851731253052,2.0
33.532718658447266,15.187922477722168,-1.767939805984497,-0.0,-0.0,-1.0,0.0337316277413252,1.0
33.498992919921875,14.923134803771973,-1.764530897140503,-0.8798818713838831,-0.3171444336427803,-0.3538746962123685,0.0375636841449671,3.0
33.40651321411133,14.69874668121338,-1.7465121746063232,-0.0,-0.0,-1.0,0.0338147334656272,1.0
33.157386779785156,15.533818244934082,-1.6705491542816162,-0.0,-0.0,-1.0,0.12852073648912,1.0
33.006797790527344,15.409250259399414,-1.6347696781158447,0.122608921869932,-0.8895960209128397,-0.4399840586361456,0.1534212872516465,4.0
33.33119201660156,14.566631317138672,-1.7311365604400637,-0.0,-0.0,-1.0,0.0492834847836528,2.0
33.56395721435547,14.621580123901367,-1.331962823867798,-0.0,-0.0,-1.0,0.1700777068520051,1.0
31.907546997070312,15.585609436035156,-1.5828801393508911,-0.0,-0.0,-1.0,0.0829901118201042,1.0
32.26652145385742,15.234251976013184,-1.658385157585144,-0.0,-0.0,-1.0,0.0685840079215303,2.0
32.35641860961914,15.06573486328125,-1.67520272731781,-0.0,-0.0,-1.0,0.0865539177752263,2.0
32.36079788208008,14.918338775634766,-1.6719359159469604,-0.0,-0.0,-1.0,0.0580255701262625,2.0
31.75543212890625,15.577959060668944,-1.713334560394287,-0.0,-0.0,-1.0,0.0861822434923399,1.0
31.819664001464844,15.41723918914795,-1.7269434928894043,-0.0,-0.0,-1.0,0.0579664437747898,1.0
31.89936065673828,15.158512115478516,-1.7438859939575195,-0.0,-0.0,-1.0,0.0464551598115619,1.0
31.88531494140625,14.88442325592041,-1.7381134033203125,-0.0,-0.0,-1.0,0.0978076725077117,1.0
31.95325469970703,14.718120574951172,-1.7542028427124023,-0.0,-0.0,-1.0,0.0469171873019981,1.0
33.08087921142578,15.047731399536133,-1.6766482591629028,-0.0,-0.0,-1.0,0.0762647645303804,1.0
33.09083557128906,14.973672866821287,-1.6719485521316528,-0.0,-0.0,-1.0,0.0422099829137291,1.0
33.236270904541016,14.754558563232422,-1.6806970834732056,-0.0,-0.0,-1.0,0.0339865997622048,1.0
33.21895217895508,14.525542259216309,-1.6573773622512815,-0.0,-0.0,-1.0,0.0901438244761599,1.0
33.05373764038086,13.927566528320312,-1.60301673412323,-0.7564909077389141,-0.014523706115467,-0.6538429233914101,0.0539996027308385,3.0
33.241573333740234,13.770475387573242,-1.630266785621643,-0.0,-0.0,-1.0,0.0486813257350011,1.0
33.3082275390625,13.908561706542969,-1.6535190343856812,-0.0,-0.0,-1.0,0.0364305060671312,1.0
32.4863395690918,14.330116271972656,-1.6823755502700806,-0.0,-0.0,-1.0,0.0252433524069377,2.0
32.57018280029297,13.940546035766602,-1.6685229539871216,-0.0,-0.0,-1.0,0.0708391026942277,1.0
32.14772033691406,15.149904251098633,-1.6829317808151243,-0.0,-0.0,-1.0,0.0840422083933533,1.0
32.377410888671875,14.807024955749512,-1.7006150484085083,-0.0,-0.0,-1.0,0.0557528218086265,1.0
32.437435150146484,14.593276977539062,-1.694440484046936,-0.0,-0.0,-1.0,0.0194857490135996,2.0
32.4005012512207,14.053010940551758,-1.6403487920761108,0.2025389194078401,-0.1159183438300308,-0.9723892860828982,0.1013276698119029,3.0
32.412147521972656,13.753461837768556,-1.618939995765686,-0.0,-0.0,-1.0,0.0620386015724158,1.0
31.72229385375977,14.782054901123049,-1.5565372705459597,-0.0,-0.0,-1.0,0.1213623047536301,2.0
32.414363861083984,14.102642059326172,-1.647478461265564,-0.0,-0.0,-1.0,0.0986312831840982,1.0
31.82605361938477,15.46912670135498,-1.645527482032776,-0.0,-0.0,-1.0,0.0917309863338767,2.0
32.04779815673828,15.18120574951172,-1.664512276649475,-0.0,-0.0,-1.0,0.1216642534041289,2.0
33.48883056640625,14.369157791137695,-1.4119125604629517,0.3777261147326136,0.8565626839169368,-0.3516011245289436,0.1544321990150968,6.0
31.939788818359375,13.801446914672852,-1.512582302093506,-0.0,-0.0,-1.0,0.0682244471482474,1.0
32.67500686645508,13.948232650756836,-1.6945505142211914,-0.0,-0.0,-1.0,0.0671067423526207,1.0
32.653011322021484,13.789325714111328,-1.670095682144165,-0.0,-0.0,-1.0,0.0427847333150808,2.0
31.907222747802734,14.845144271850586,-1.6450920104980469,-0.0,-0.0,-1.0,0.0922435308907802,1.0
32.438350677490234,14.543006896972656,-1.7191035747528076,-0.0,-0.0,-1.0,0.0210592022930791,2.0
32.62628936767578,14.25588607788086,-1.722843885421753,-0.0,-0.0,-1.0,0.0177946330605065,2.0
31.81734848022461,15.22517204284668,-1.6807916164398191,-0.0,-0.0,-1.0,0.0595123027638543,2.0
32.12643051147461,14.927000045776367,-1.7041778564453125,-0.0,-0.0,-1.0,0.0268065295850899,1.0
32.3559684753418,14.7174711227417,-1.7247514724731443,-0.0,-0.0,-1.0,0.0295572281871304,1.0
33.47160339355469,14.328462600708008,-1.454562425613403,0.8194626268754487,-0.5106599426648727,0.2602065066671044,0.2463770838149326,5.0
32.890968322753906,15.302555084228516,-1.4634060859680176,-0.0,-0.0,-1.0,0.0994621752277159,1.0
33.14254379272461,13.88542366027832,-1.641174077987671,-0.0,-0.0,-1.0,0.0502126080555334,2.0
31.768386840820312,14.659793853759766,-1.4967834949493408,-0.0,-0.0,-1.0,0.0783258847887098,1.0
33.11377716064453,14.465725898742676,-1.736983060836792,-0.0,-0.0,-1.0,0.0619005013857686,2.0
33.25660705566406,14.237822532653809,-1.7262065410614014,-0.0,-0.0,-1.0,0.1331375462322732,1.0
31.991344451904297,15.168134689331056,-1.6397528648376465,-0.0,-0.0,-1.0,0.0519742323638867,1.0
32.28667449951172,15.047567367553713,-1.6756675243377686,-0.0,-0.0,-1.0,0.0893380386315654,1.0
32.781864166259766,14.844125747680664,-1.7380566596984863,-0.0,-0.0,-1.0,0.0148441746652897,1.0
32.9864501953125,14.638265609741213,-1.7419755458831787,-0.0,-0.0,-1.0,0.0289434511504904,2.0
31.73620986938477,15.558338165283203,-1.6670582294464111,-0.0,-0.0,-1.0,0.0821920815684006,1.0
31.84317970275879,15.340618133544922,-1.644221305847168,-0.0,-0.0,-1.0,0.0706749674211478,2.0
33.56452941894531,14.20327854156494,-1.3413128852844238,-0.0,-0.0,-1.0,0.1489502760998764,1.0
33.489463806152344,15.370842933654783,-1.5219876766204834,-0.0,-0.0,-1.0,0.0970532729613004,1.0
31.760608673095703,13.716440200805664,-1.6140531301498413,-0.9963586081787044,-0.0832514251021411,0.0184044594231246,0.0656505767348882,3.0
31.75617027282715,14.058721542358398,-1.67166268825531,-0.0,-0.0,-1.0,0.0373720004957619,1.0
31.89815139770508,13.929154396057127,-1.6868242025375366,-0.0,-0.0,-1.0,0.033047073067365,1.0
33.060707092285156,13.95878791809082,-1.6117738485336304,0.2349620029399521,-0.3107718491753284,-0.9209851871417876,0.0781314399976589,3.0
33.381690979003906,13.926518440246582,-1.6833637952804563,-0.0,-0.0,-1.0,0.0385264779432414,1.0
33.11024475097656,14.157217979431152,-1.65253484249115,-0.9522708154729812,-0.2911479382823466,0.0917233450783495,0.2085929758301893,4.0
33.20353698730469,14.279794692993164,-1.6928547620773315,-0.0213575344363894,-0.0227859050817823,-0.9995122101567356,0.1620146144639514,4.0
33.11293029785156,14.797932624816896,-1.7518519163131714,-0.0,-0.0,-1.0,0.0325607213717931,2.0
33.26300048828125,14.618066787719728,-1.758269429206848,-0.0,-0.0,-1.0,0.0352666486057704,2.0
32.31517028808594,15.339550018310549,-1.6626056432724,-0.0,-0.0,-1.0,0.1107041392515286,1.0
32.796905517578125,15.317472457885742,-1.7660073041915894,-0.0,-0.0,-1.0,0.0693278466731954,2.0
32.934326171875,15.090675354003906,-1.7589317560195925,-0.0,-0.0,-1.0,0.0662332412000694,1.0
32.72343063354492,15.42816162109375,-1.7687360048294067,-0.0,-0.0,-1.0,0.0509519500328729,2.0
33.490562438964844,14.546256065368652,-1.390945315361023,-0.0,-0.0,-1.0,0.1792667625185964,2.0
32.1871337890625,15.36893081665039,-1.639567732810974,0.5009317591985603,-0.4234884689243332,-0.7548012250350155,0.0999656786903176,3.0
32.11543273925781,15.472906112670898,-1.6424978971481323,-0.0,-0.0,-1.0,0.1053361502496523,1.0
33.1413459777832,14.18204402923584,-1.5107301473617554,-0.8627229984836744,-0.3976031892450736,-0.3124431656949533,0.2001808312208607,5.0
33.44944763183594,14.3819580078125,-1.6209999322891235,0.6442356487919327,0.3253816030272639,-0.6921612826769825,0.2250208865622487,3.0
33.66773986816406,14.742790222167969,-1.7408350706100464,-0.0,-0.0,-1.0,0.0300608788232744,2.0
32.93948745727539,15.311649322509766,-1.6904805898666382,0.152219199447423,-0.3481076005727065,-0.925013737056428,0.1522689673481689,3.0
33.103172302246094,15.250919342041016,-1.7141355276107788,0.2671549842506408,-0.4697651962527842,-0.8413969781141496,0.1327073570360637,3.0
33.513206481933594,15.04467487335205,-1.7647444009780884,-0.0,-0.0,-1.0,0.0457972805738036,2.0
32.90365982055664,15.565189361572266,-1.7374645471572876,-0.0,-0.0,-1.0,0.0830882657883229,1.0
33.55815887451172,14.56765365600586,-1.3058651685714722,-0.0,-0.0,-1.0,0.1593666808225258,2.0
33.5013427734375,14.515483856201172,-1.4847297668457031,-0.5433922463445904,-0.0079856952556245,-0.839440942106033,0.1768473162116067,3.0
33.63814163208008,15.53984260559082,-1.7454447746276855,-0.0,-0.0,-1.0,0.143932462684797,2.0
33.50048828125,14.369489669799805,-1.45349383354187,0.1004300448965217,-0.9462474352153192,0.3074566594343227,0.1826743617337071,6.0
32.31521224975586,15.506879806518556,-1.656011939048767,-0.3388131210866978,0.1584084724176544,-0.927422462983184,0.1172146630935601,3.0
32.49409866333008,15.567404747009276,-1.7257720232009888,-0.0,-0.0,-1.0,0.0816864343555653,1.0
33.05862808227539,14.161856651306152,-1.4934102296829224,0.0958745045919782,-0.7354856267562903,-0.6707227237869235,0.2262264869016773,4.0
32.9835205078125,14.203932762145996,-1.502435564994812,-0.0,-0.0,-1.0,0.1654077726260283,2.0
31.800012588500977,14.01799201965332,-1.6091101169586182,-0.0,-0.0,-1.0,0.0377144571494654,2.0
31.785438537597656,14.898101806640623,-1.4825211763381958,-0.0,-0.0,-1.0,0.1269846865686021,2.0
33.18312072753906,15.35304069519043,-1.6332459449768066,-0.0,-0.0,-1.0,0.0679740324191588,2.0
33.14583206176758,14.095129013061523,-1.4634032249450684,-0.0,-0.0,-1.0,0.2184607026572541,1.0
32.22874069213867,15.330467224121094,-1.6183772087097168,0.4950003937938341,-0.8688471829163787,0.0088984763989057,0.1003160520574821,4.0
31.752573013305664,13.773858070373535,-1.572710037231445,-0.0,-0.0,-1.0,0.0678437629216269,2.0
32.27112579345703,15.55943489074707,-1.576668381690979,-0.0,-0.0,-1.0,0.100889336862403,1.0
32.11966323852539,15.627065658569336,-1.5877074003219604,-0.0,-0.0,-1.0,0.0764858602081805,1.0
33.473121643066406,15.322211265563965,-1.763283133506775,-0.0,-0.0,-1.0,0.0392224782050482,2.0
33.14464569091797,15.22707748413086,-1.7316240072250366,-0.0,-0.0,-1.0,0.0764457255565209,2.0
32.93598937988281,15.207470893859863,-1.720033049583435,0.5766429974274696,0.7513284526294471,-0.3209180733260502,0.1126814623292238,3.0
32.598297119140625,15.415318489074709,-1.7501615285873413,-0.0,-0.0,-1.0,0.0802401056397017,1.0
32.352542877197266,15.301027297973633,-1.7198759317398071,-0.0,-0.0,-1.0,0.0804464036742226,1.0
31.9572696685791,15.24141788482666,-1.697327733039856,-0.0,-0.0,-1.0,0.0642532900023558,1.0
32.066368103027344,13.786636352539062,-1.6121666431427002,-0.0,-0.0,-1.0,0.0716782380299979,1.0
31.82501792907715,13.737785339355469,-1.5895917415618896,-0.0,-0.0,-1.0,0.070137687582277,1.0
32.674339294433594,15.321691513061523,-1.475935697555542,-0.0,-0.0,-1.0,0.1624636311200121,2.0
33.613525390625,14.030731201171877,-1.6448125839233398,-0.0,-0.0,-1.0,0.139057362766772,2.0
33.36640930175781,14.221912384033203,-1.6606476306915283,-0.0,-0.0,-1.0,0.1566195241623625,2.0
33.145469665527344,14.755775451660156,-1.753582239151001,0.1976482254168906,0.6371827801092269,-0.7449384429077549,0.0345350308486401,4.0
33.115936279296875,13.655925750732422,-1.518686056137085,-0.0,-0.0,-1.0,0.0525636907486638,2.0
32.685611724853516,14.922136306762695,-1.751206636428833,-0.0,-0.0,-1.0,0.0119907137646724,2.0
32.30738067626953,14.973749160766602,-1.7333941459655762,-0.0,-0.0,-1.0,0.0732210909786969,2.0
31.910551071166992,14.926490783691406,-1.694453477859497,-0.0,-0.0,-1.0,0.1045370317343898,1.0
33.464378356933594,14.71342658996582,-1.7386773824691772,-0.0,-0.0,-1.0,0.0284195361991318,2.0
33.403167724609375,14.773273468017578,-1.745951771736145,-0.0,-0.0,-1.0,0.0253702600229024,2.0
33.376953125,14.240272521972656,-1.6180256605148315,-0.0,-0.0,-1.0,0.1799515419014528,2.0
33.132137298583984,14.831136703491213,-1.730291724205017,-0.0,-0.0,-1.0,0.0274579868064756,2.0
32.96177291870117,14.978391647338867,-1.7478972673416138,-0.0,-0.0,-1.0,0.0421818246157137,2.0
32.74542999267578,15.030235290527344,-1.7388018369674685,-0.0,-0.0,-1.0,0.0337511125652379,2.0
32.387550354003906,15.086158752441406,-1.718227744102478,-0.0,-0.0,-1.0,0.1013834584549253,2.0
31.98545837402344,15.098575592041016,-1.685238480567932,-0.0,-0.0,-1.0,0.034402450878695,1.0
31.73341178894043,15.255681991577148,-1.7043427228927612,-0.0,-0.0,-1.0,0.053646993695938,1.0
31.719661712646484,14.90398406982422,-1.6125541925430298,-0.0,-0.0,-1.0,0.1296009685036484,2.0
33.28876876831055,13.75288200378418,-1.5947061777114868,-0.0,-0.0,-1.0,0.0448423305407691,1.0
33.11469650268555,14.481388092041016,-1.7243555784225464,-0.0,-0.0,-1.0,0.059721971729506,2.0
32.885826110839844,14.637042045593262,-1.7226356267929075,-0.0,-0.0,-1.0,0.0133870467421319,2.0
32.71830749511719,14.800664901733398,-1.7338138818740845,-0.0,-0.0,-1.0,0.0154149431303899,1.0
32.341766357421875,14.93728733062744,-1.7085462808609009,-0.0,-0.0,-1.0,0.0594643837035089,2.0
31.999601364135746,15.000164985656738,-1.6734200716018677,-0.0,-0.0,-1.0,0.0283335535567977,1.0
31.78632354736328,15.161249160766602,-1.6820687055587769,-0.0,-0.0,-1.0,0.0469649130053964,2.0
31.72766494750977,14.924489974975586,-1.616611361503601,-0.0,-0.0,-1.0,0.1295995422096228,2.0
33.51301574707031,14.462371826171877,-1.3615831136703491,-0.0,-0.0,-1.0,0.1232850004280147,2.0
32.959510803222656,15.440991401672363,-1.4815038442611694,0.9775245195614848,-0.1694612228456684,-0.1254141443687255,0.1051243787631424,3.0
32.69871520996094,15.293380737304688,-1.4183086156845093,-0.0,-0.0,-1.0,0.1600830325882152,2.0
32.34921646118164,13.652626037597656,-1.4157081842422483,-0.0,-0.0,-1.0,0.0512617292931231,1.0
33.620872497558594,14.303510665893556,-1.6422985792160034,-0.9671335757140213,0.0345944012552661,-0.2519044940615422,0.1377732238809848,4.0
33.64838790893555,14.773919105529783,-1.7503362894058228,-0.0,-0.0,-1.0,0.0329167360927946,2.0
33.4886474609375,15.024102210998535,-1.7808414697647097,-0.0,-0.0,-1.0,0.041867965335032,2.0
33.140663146972656,14.154253005981444,-1.528969168663025,-0.9836731318040588,0.1761543695891122,0.0368348726271305,0.2768438355051066,5.0
33.127410888671875,15.15311336517334,-1.7535260915756226,-0.0,-0.0,-1.0,0.0973276354348459,1.0
32.90656661987305,15.22328758239746,-1.73587167263031,0.5766429974274696,0.7513284526294471,-0.3209180733260502,0.1015001442547344,3.0
32.75984573364258,15.399614334106444,-1.755822777748108,-0.0,-0.0,-1.0,0.0709148713536352,2.0
32.2244758605957,13.849441528320312,-1.6692289113998413,-0.0,-0.0,-1.0,0.0208094399309181,1.0
32.232547760009766,15.35158634185791,-1.6669915914535522,0.5778134298505303,-0.6470611732906928,-0.4974369088678869,0.1299978252969607,4.0
32.054935455322266,13.992587089538574,-1.6742254495620728,-0.0,-0.0,-1.0,0.025414266730209,1.0
31.83280372619629,14.114838600158691,-1.6657112836837769,-0.0,-0.0,-1.0,0.0360587584747285,2.0
31.93451690673828,15.493106842041016,-1.6600595712661743,-0.0,-0.0,-1.0,0.0583524398478481,2.0
33.157501220703125,14.028056144714355,-1.611269235610962,-0.0,-0.0,-1.0,0.1568135897452234,1.0
33.27833557128906,14.425167083740234,-1.7188389301300049,-0.5009663561331162,0.1279312108025877,-0.8559592953670704,0.1154713999691994,5.0
33.12908935546875,14.730119705200195,-1.7508628368377686,-0.0,-0.0,-1.0,0.0323166233479921,2.0
33.045387268066406,15.490699768066406,-1.5035066604614258,-0.0,-0.0,-1.0,0.1443246480999668,2.0
32.939632415771484,14.942777633666992,-1.7568309307098389,-0.0,-0.0,-1.0,0.0328857420931967,2.0
32.7158088684082,15.10322380065918,-1.7464866638183594,-0.0,-0.0,-1.0,0.0591622095490722,1.0
32.92340850830078,15.483543395996094,-1.480844020843506,-0.0,-0.0,-1.0,0.1256742503617316,1.0
32.38068389892578,15.252037048339844,-1.7129864692687988,-0.0,-0.0,-1.0,0.0693604101619426,1.0
32.018348693847656,15.290849685668944,-1.651158094406128,-0.9233450867540144,-0.1372350279511334,-0.3586089762826264,0.0806014598343026,4.0
31.86844825744629,15.45212173461914,-1.6611778736114502,-0.0,-0.0,-1.0,0.0907516199897487,2.0
33.49805450439453,14.41703987121582,-1.379586935043335,-0.3822533128002479,0.3681530449307371,-0.8475527950289955,0.1652298637419517,4.0
32.7365837097168,15.36802864074707,-1.4249889850616455,-0.0,-0.0,-1.0,0.1590667340841396,1.0
33.46780776977539,14.392314910888672,-1.4061719179153442,0.5447559660025194,0.5030387872992355,-0.6709641689219897,0.1556758445976672,9.0
33.49162673950195,14.540143966674805,-1.4377976655960083,0.3211487423007111,-0.9381085758265486,0.1296756927082193,0.2175639686603507,3.0
32.95881271362305,15.450637817382812,-1.4999793767929075,0.9775245195614848,-0.1694612228456684,-0.1254141443687255,0.1286461033816886,3.0
32.070594787597656,14.135015487670898,-1.6358566284179688,-0.0,-0.0,-1.0,0.0178633530301661,1.0
32.69801330566406,14.61203384399414,-1.7104871273040771,-0.0,-0.0,-1.0,0.0102728099586018,1.0
32.4870719909668,14.322948455810549,-1.691047191619873,-0.0,-0.0,-1.0,0.0265185396733649,2.0
32.15210723876953,14.024858474731444,-1.6533536911010742,-0.0,-0.0,-1.0,0.0182848297014847,2.0
32.25524139404297,13.64920139312744,-1.5772874355316162,-0.0,-0.0,-1.0,0.0587292487415435,1.0
31.757898330688477,14.971890449523926,-1.5877790451049805,-0.0,-0.0,-1.0,0.1035700824087546,1.0
32.51232147216797,13.805648803710938,-1.627978801727295,-0.0,-0.0,-1.0,0.068722720414341,2.0
32.72245788574219,14.49452781677246,-1.706916332244873,-0.0,-0.0,-1.0,0.0094495844139695,2.0
32.80254364013672,14.199913024902344,-1.699740648269653,-0.0,-0.0,-1.0,0.0559405920143367,2.0
32.685791015625,15.286401748657228,-1.7555410861968994,-0.0,-0.0,-1.0,0.0792363920114042,1.0
32.73760986328125,14.984390258789062,-1.7427573204040527,-0.0,-0.0,-1.0,0.0136682766350782,2.0
32.90348815917969,14.61983585357666,-1.743905544281006,-0.0,-0.0,-1.0,0.0167321588451376,2.0
32.151039123535156,13.728623390197754,-1.6024281978607178,-0.0,-0.0,-1.0,0.062097928491479,2.0
31.715404510498047,14.878186225891112,-1.5422332286834717,-0.0,-0.0,-1.0,0.1294430659106215,1.0
32.383392333984375,14.041312217712402,-1.6425178050994873,-0.0,-0.0,-1.0,0.0996236364194166,2.0
32.146148681640625,15.34421730041504,-1.6196773052215576,-0.0,-0.0,-1.0,0.0721524297548767,2.0
32.68993377685547,14.49283504486084,-1.6968190670013428,-0.0,-0.0,-1.0,0.0088940267795704,2.0
32.71359634399414,14.333691596984863,-1.69905686378479,-0.0,-0.0,-1.0,0.018010602911075,1.0
32.21873474121094,15.428378105163574,-1.632981777191162,0.7514477936545442,-0.1241291101480662,-0.648010939279243,0.1827766336897678,3.0
32.787139892578125,15.107922554016112,-1.720576286315918,-0.0,-0.0,-1.0,0.0472868546990534,1.0
32.7955322265625,14.794021606445312,-1.7176671028137207,-0.0,-0.0,-1.0,0.0157690525500367,1.0
32.84162902832031,15.24135398864746,-1.7315104007720947,-0.0,-0.0,-1.0,0.0843764971184666,1.0
33.524009704589844,14.429646492004396,-1.4187393188476562,0.4085369137334608,-0.9124527485413718,-0.0229689311121507,0.1757154339519901,3.0
33.473655700683594,14.353521347045898,-1.4387809038162231,0.3912459247471306,0.5369064182909561,-0.7474343612430056,0.1952859410375064,8.0
33.5794563293457,14.543343544006348,-1.4644087553024292,-0.0,-0.0,-1.0,0.1405590546331357,2.0
33.514137268066406,14.36371612548828,-1.4192315340042114,0.2648141269378173,-0.9642265507102272,0.0118590505361549,0.1487211131385588,4.0
32.98206329345703,13.982629776000977,-1.6323696374893188,0.0422508497269552,0.0414441810251784,-0.9982470864252508,0.0716934975970855,5.0
32.94013977050781,13.788297653198242,-1.6173635721206665,0.495568815595228,-0.4217975719997914,-0.7592748891308231,0.0449232040518034,6.0
33.181304931640625,14.25657558441162,-1.6803232431411743,-0.6376886184036066,0.7349927845646264,0.2305186165940548,0.1478371411756847,3.0
33.218788146972656,14.218116760253906,-1.6858693361282349,-0.0,-0.0,-1.0,0.1771372458554602,1.0
32.319732666015625,15.441339492797852,-1.5723737478256226,-0.0,-0.0,-1.0,0.1567785306018969,1.0
33.38228225708008,14.603161811828612,-1.732056736946106,-0.0947329058807607,-0.0639507260528997,-0.993446516517469,0.0419596128475713,3.0
33.005836486816406,15.392027854919434,-1.6971741914749146,0.7002611255920821,-0.2259257191819192,-0.677194156351517,0.1668949674621042,3.0
33.270877838134766,15.226218223571776,-1.7386146783828735,-0.0,-0.0,-1.0,0.0323614033046612,1.0
33.48426055908203,14.966432571411133,-1.766703724861145,-0.0,-0.0,-1.0,0.0396277571223364,2.0
32.91323471069336,13.787725448608398,-1.5922468900680542,0.1911598214611078,-0.7965794158657782,-0.5735147398959272,0.0510347882802556,5.0
32.99977111816406,13.648807525634766,-1.601014256477356,-0.0,-0.0,-1.0,0.0659256804407872,1.0
33.02418899536133,13.96662139892578,-1.623733639717102,0.3640389221870392,0.5540973974752228,-0.7486332461520019,0.0755195790105624,3.0
33.240867614746094,14.283400535583496,-1.6837633848190308,0.0870048825006031,-0.9954987708236868,0.0375812148497808,0.1727232963453039,3.0
32.21708679199219,15.558785438537598,-1.5751463174819946,-0.0,-0.0,-1.0,0.1095327121005151,1.0
32.31099319458008,15.378019332885742,-1.5796719789505005,0.1216732263458214,-0.9924989838163206,-0.011890883658079,0.199023263696535,4.0
32.979522705078125,15.20208740234375,-1.6930104494094849,-0.0,-0.0,-1.0,0.1717323400781873,2.0
33.280250549316406,14.861000061035156,-1.7272213697433472,-0.0,-0.0,-1.0,0.0202225369305911,2.0
33.40174865722656,14.616399765014648,-1.7347651720046997,-0.0,-0.0,-1.0,0.0367679642610803,2.0
33.0028076171875,15.43019199371338,-1.7130385637283323,0.9056165650811256,0.2220660482611634,0.361310541308075,0.102996867223469,3.0
33.328208923339844,15.101425170898438,-1.7519999742507937,-0.0,-0.0,-1.0,0.0206362118281609,2.0
31.838302612304688,13.96431827545166,-1.6334097385406494,-0.0,-0.0,-1.0,0.0441142487224964,1.0
31.719680786132812,14.583810806274414,-1.6639115810394287,-0.0,-0.0,-1.0,0.0694024755047333,2.0
31.869068145751953,14.300565719604492,-1.6696133613586426,0.4273567701362833,0.576422835019257,-0.696493292348926,0.0309576026403807,3.0
31.719308853149418,13.644135475158691,-1.5805418491363523,-0.0,-0.0,-1.0,0.0695946305164477,1.0
33.330039978027344,14.41740608215332,-1.476818323135376,0.6680072234462557,-0.7318541938601794,-0.1347434167330307,0.1603005494947117,4.0
33.48841094970703,14.286022186279297,-1.4957191944122314,0.7707574430689196,-0.3513748032713152,-0.531477856151981,0.2183399819044322,4.0
32.7624626159668,15.3204927444458,-1.446552276611328,-0.0,-0.0,-1.0,0.1671324244143643,1.0
33.49055480957031,14.41881275177002,-1.5059003829956057,-0.0,-0.0,-1.0,0.2170486072405519,1.0
32.77076721191406,13.885272979736328,-1.6058061122894287,-0.0,-0.0,-1.0,0.064668537761308,2.0
32.900821685791016,14.203624725341797,-1.660590648651123,-0.0,-0.0,-1.0,0.109655409206487,1.0
31.98583984375,15.625492095947266,-1.615373611450195,-0.0,-0.0,-1.0,0.0511196625254963,1.0
32.15380859375,15.43525505065918,-1.6284067630767822,-0.0,-0.0,-1.0,0.0694624203727102,2.0
32.96525192260742,14.83089828491211,-1.7315607070922852,-0.2743429444025355,-0.1080046835279544,-0.9555474541814096,0.0277092464763712,3.0
33.03867721557617,14.533842086791992,-1.718808650970459,-0.0,-0.0,-1.0,0.026393458779231,2.0
32.628822326660156,15.526491165161133,-1.732633113861084,-0.0,-0.0,-1.0,0.0812243178586055,1.0
32.75923156738281,15.304481506347656,-1.736217021942139,-0.0,-0.0,-1.0,0.1036428221627032,2.0
32.887088775634766,15.052040100097656,-1.7369365692138672,-0.1909609566604405,-0.3765842104894602,-0.906486759661364,0.0625460600669902,3.0
33.419593811035156,14.61529541015625,-1.3078744411468506,-0.0,-0.0,-1.0,0.1956588797917233,1.0
33.133636474609375,14.289429664611816,-1.6264792680740356,-0.443414889972769,-0.7452468227366513,0.4979863537802649,0.1671448497790413,3.0
33.33509826660156,14.64491367340088,-1.70425283908844,-0.0,-0.0,-1.0,0.0505343067781771,2.0
32.9774169921875,13.96912670135498,-1.5620650053024292,-0.0,-0.0,-1.0,0.1013628594568494,1.0
31.901622772216797,15.350467681884766,-1.6652532815933228,-0.696343381708868,-0.7093369852508266,0.1093020407198625,0.0689266452003234,3.0
31.762935638427734,14.912186622619627,-1.5786103010177612,-0.0,-0.0,-1.0,0.1351281233959907,1.0
32.12165832519531,15.224727630615234,-1.683799386024475,0.3223048238452127,0.4089229632878751,-0.853757348795294,0.081061490352841,3.0
32.50548553466797,15.237190246582031,-1.7506023645401,-0.0,-0.0,-1.0,0.0840810619760979,2.0
32.660858154296875,15.161015510559082,-1.7666231393814087,-0.0,-0.0,-1.0,0.0643178225138217,1.0
32.829978942871094,14.99054718017578,-1.7725998163223269,-0.0,-0.0,-1.0,0.0142635411558031,1.0
32.91526794433594,14.762946128845217,-1.756595492362976,-0.0,-0.0,-1.0,0.0231142176498508,1.0
32.39146423339844,15.368968963623049,-1.6341047286987305,-0.0,-0.0,-1.0,0.1381769404163925,1.0
32.06307601928711,15.44305419921875,-1.640167236328125,-0.0,-0.0,-1.0,0.0884156977661366,2.0
33.07126998901367,15.331548690795898,-1.635124921798706,-0.0,-0.0,-1.0,0.1907997562553397,2.0
32.29279327392578,15.373809814453123,-1.6190240383148191,0.2914989774612351,-0.9560171976288152,-0.0325494082434881,0.1744582886868231,3.0
33.485618591308594,14.371445655822754,-1.5250773429870603,-0.0,-0.0,-1.0,0.2105177898873595,1.0
33.4124641418457,15.525833129882812,-1.76401686668396,-0.0,-0.0,-1.0,0.0671728017529053,1.0
33.06985092163086,15.196372985839844,-1.6895997524261477,-8.469702165852894e-05,-0.5738491827902324,-0.8189609931110255,0.1777776573695914,3.0
32.30571746826172,15.438867568969728,-1.6687538623809814,-0.0,-0.0,-1.0,0.1697093996457158,1.0
32.168357849121094,15.602046966552734,-1.6832969188690186,-0.0,-0.0,-1.0,0.0830784550651771,1.0
33.16815948486328,14.083745956420898,-1.5362026691436768,-0.0,-0.0,-1.0,0.2291671695629699,1.0
33.26496887207031,15.623605728149414,-1.65696120262146,-0.0,-0.0,-1.0,0.0968947894395482,1.0
32.28773880004883,15.368013381958008,-1.5433523654937744,0.4692065272580423,0.7233766957716459,0.5065287660073646,0.141916612808296,4.0
33.43971633911133,14.299395561218262,-1.4449656009674072,0.6703143205397689,-0.7418183629368444,-0.0196017368875345,0.1554905226633968,3.0
32.684288024902344,15.18484592437744,-1.5015108585357666,-0.0,-0.0,-1.0,0.1360618421462996,1.0
33.454811096191406,14.313584327697754,-1.465742111206055,0.8069826169106131,-0.4814299530951854,0.3420588491281377,0.2247717858913748,4.0
33.18050765991211,14.455947875976562,-1.727790355682373,-0.0,-0.0,-1.0,0.1023480029989637,1.0
32.99760437011719,14.83595848083496,-1.7414212226867676,-0.0,-0.0,-1.0,0.0284132695057921,2.0
32.8426399230957,15.104597091674805,-1.7484664916992188,-0.2086548249210789,-0.3514364225035948,-0.9126640153830042,0.0719405673895387,3.0
32.98869323730469,14.031314849853516,-1.659773349761963,-0.0,-0.0,-1.0,0.0801060616778024,2.0
32.70793533325195,15.200763702392578,-1.7406911849975586,-0.0,-0.0,-1.0,0.0851314603510723,1.0
32.83760452270508,13.799766540527344,-1.616593837738037,-0.6989321709938874,0.049634133974793,-0.7134635751699898,0.0525984003877589,5.0
32.01430130004883,15.308143615722656,-1.660968780517578,-0.8890745215120286,-0.3648837776926265,-0.2764169386541192,0.0806014598343026,3.0
31.788219451904297,15.598079681396484,-1.663282871246338,0.395721697422943,-0.8024979742841121,-0.4465437710444532,0.0918650085870768,3.0
33.27387237548828,14.406150817871094,-1.7248082160949707,-0.9755531818621764,0.2012604813751853,0.0882621549431693,0.113943908464954,3.0
33.1843147277832,14.725314140319824,-1.7490692138671875,-0.0,-0.0,-1.0,0.0352241083744577,2.0
32.973052978515625,13.936594009399414,-1.6328730583190918,-0.226139138918648,0.1184619357667689,-0.9668649645237553,0.0597170751597086,5.0
33.089717864990234,14.13132381439209,-1.6698246002197266,-0.0,-0.0,-1.0,0.2063318658534943,2.0
32.87437438964844,15.092400550842283,-1.7510251998901367,-0.2012392345370479,-0.3710717332785792,-0.906536562552539,0.0549543901404676,4.0
32.15652847290039,15.219026565551758,-1.6733660697937012,0.3223048238452127,0.4089229632878751,-0.853757348795294,0.0495530709676654,3.0
31.890159606933594,15.363021850585938,-1.656810283660889,-0.0,-0.0,-1.0,0.0689266452003233,2.0
31.73839950561523,15.621644973754885,-1.669325351715088,-0.0,-0.0,-1.0,0.0861822434923399,1.0
33.64155197143555,13.958823204040527,-1.6765358448028564,-0.0,-0.0,-1.0,0.1071557655923302,1.0
33.587379455566406,14.124663352966309,-1.682567834854126,-0.0,-0.0,-1.0,0.1103697859934705,1.0
33.60978317260742,14.961589813232422,-1.759861707687378,-0.0,-0.0,-1.0,0.0496158849617794,2.0
33.48999786376953,15.250371932983398,-1.7689621448516846,-0.0,-0.0,-1.0,0.0355665884600962,2.0
33.090755462646484,14.159832000732422,-1.6119611263275146,-0.4342911807924033,-0.8904863517399203,-0.1357395581651387,0.1995974188612426,4.0
32.98552703857422,15.35346221923828,-1.7053091526031494,-0.0,-0.0,-1.0,0.1724852289580548,2.0
33.10464096069336,15.622600555419922,-1.7484209537506104,-0.0,-0.0,-1.0,0.1352978230597956,2.0
33.05824661254883,14.244562149047852,-1.6145312786102295,-0.8649110874963328,-0.5000889517084658,0.0428934855780981,0.1790132317304495,3.0
32.24079895019531,15.399520874023438,-1.601867914199829,0.6936317529394729,-0.0167969486617742,-0.7201339138172621,0.1651882453386165,4.0
32.206172943115234,15.601398468017578,-1.6167762279510498,-0.0,-0.0,-1.0,0.0939241193521363,2.0
33.35879135131836,14.332725524902344,-1.5313410758972168,-0.0,-0.0,-1.0,0.1546058827334808,1.0
32.749969482421875,15.214960098266602,-1.5018091201782229,-0.0,-0.0,-1.0,0.1094141689533323,1.0
33.53495788574219,14.475360870361328,-1.4585707187652588,-0.0,-0.0,-1.0,0.1617242585217235,2.0
32.036048889160156,14.752580642700195,-1.6834251880645752,-0.0,-0.0,-1.0,0.0491427510653656,1.0
31.915355682373047,15.08726406097412,-1.6668965816497805,-0.0,-0.0,-1.0,0.0448323561650308,1.0
31.82184600830078,15.373886108398438,-1.655153512954712,-0.0,-0.0,-1.0,0.0884600975630245,2.0
31.93111038208008,14.487977981567385,-1.6631062030792236,-0.0,-0.0,-1.0,0.0360608456906104,1.0
33.54444122314453,15.522509574890137,-1.6843194961547852,0.3387012240236401,-0.8726829647678994,-0.3517185292940901,0.1469668746662173,3.0
33.432472229003906,15.62318515777588,-1.6672120094299316,-0.0,-0.0,-1.0,0.123184935371947,2.0
33.5845832824707,14.649017333984377,-1.6942410469055176,-0.0561207107579662,0.2194258182520457,-0.9740137453385558,0.037269297793079,3.0
33.60577392578125,14.939116477966309,-1.6956653594970703,-0.1465795523443205,-0.4288189628133717,-0.8914195039184427,0.0494896347248671,4.0
33.24079513549805,14.374011993408203,-1.644493579864502,-0.0,-0.0,-1.0,0.1755160535999933,2.0
32.87446594238281,15.25595474243164,-1.583261013031006,-0.0,-0.0,-1.0,0.1844983131190301,1.0
32.986427307128906,15.395291328430176,-1.5998568534851074,0.955340422714452,0.1354423953334181,0.2626405038719623,0.1291320736694291,5.0
33.01718521118164,14.102340698242188,-1.6134819984436035,-0.0,-0.0,-1.0,0.1109830150253053,2.0
32.82413101196289,13.781960487365724,-1.5883569717407229,-0.7020302870881291,-0.4015083383730958,-0.5881704941833064,0.0656675866237306,3.0
32.626136779785156,14.346355438232422,-1.7096657752990725,-0.0,-0.0,-1.0,0.0177176288929986,1.0
32.65875244140625,14.719518661499023,-1.7181105613708496,-0.0,-0.0,-1.0,0.0119877640564155,1.0
32.40291213989258,14.311934471130373,-1.6755948066711426,-0.0,-0.0,-1.0,0.0273458608633999,1.0
32.08513641357422,13.923665046691896,-1.6251163482666016,-0.0,-0.0,-1.0,0.035015231126889,1.0
31.76319694519043,13.69392204284668,-1.575791835784912,-0.9850063425390386,-0.1418253223528667,-0.0982246562598797,0.0695946305164476,4.0
33.5219612121582,13.67112922668457,-1.5357797145843506,-0.0,-0.0,-1.0,0.0597699445032023,1.0
33.70295715332031,14.32218074798584,-1.5643765926361084,-0.0,-0.0,-1.0,0.1013428960521122,2.0
33.25745391845703,14.341279029846191,-1.5023844242095947,-0.0,-0.0,-1.0,0.1574093672986784,1.0
31.760284423828125,14.279914855957031,-1.6110260486602783,-0.0,-0.0,-1.0,0.0284794716811311,1.0
31.932157516479492,14.59856414794922,-1.6396806240081787,-0.0,-0.0,-1.0,0.0562484121911606,2.0
33.612548828125,13.780088424682615,-1.592977523803711,-0.7443585748684053,0.1726045717259436,-0.6450875706748509,0.0845327992933503,5.0
33.68952941894531,14.02326202392578,-1.6066040992736816,-0.0,-0.0,-1.0,0.1316673809805469,2.0
33.43148422241211,13.68820571899414,-1.5646419525146484,-0.0,-0.0,-1.0,0.0484398842792722,2.0
33.073665618896484,14.185673713684082,-1.5131621360778809,-0.4558469519785804,0.3592346062045208,-0.8143427129144835,0.2080621685287759,5.0
33.41298294067383,14.315242767333984,-1.5664677619934082,-0.0,-0.0,-1.0,0.1956575002350983,1.0
32.18971252441406,13.815475463867188,-1.59765625,-0.0,-0.0,-1.0,0.0304711809579931,1.0
32.4391975402832,14.0291166305542,-1.6294403076171875,-0.0,-0.0,-1.0,0.109202045353182,2.0
33.150421142578125,14.76503562927246,-1.718488693237305,-0.0,-0.0,-1.0,0.0345304312619854,2.0
33.188331604003906,14.943347930908203,-1.718183994293213,-0.0,-0.0,-1.0,0.0406884178372742,1.0
32.420433044433594,15.495268821716309,-1.567770004272461,-0.0,-0.0,-1.0,0.0786816410736757,1.0
32.83747482299805,13.842103958129885,-1.5935299396514893,-0.0,-0.0,-1.0,0.0647130582825927,2.0
33.088653564453125,14.105598449707031,-1.6250526905059814,-0.0,-0.0,-1.0,0.1700806980006894,2.0
33.36972427368164,14.400030136108398,-1.661224603652954,-0.0,-0.0,-1.0,0.1856737460985668,2.0
32.997989654541016,15.28360652923584,-1.564391851425171,-0.0,-0.0,-1.0,0.2447459959511009,2.0
33.568939208984375,14.688133239746094,-1.6845276355743408,-0.0,-0.0,-1.0,0.0236035440418189,2.0
33.540679931640625,15.481060981750488,-1.651886224746704,-0.0458641509683163,-0.2577862703927961,-0.9651128008957958,0.1469668746662173,3.0
33.679901123046875,15.172555923461914,-1.686481237411499,-0.0,-0.0,-1.0,0.0342266507821026,1.0
33.16597366333008,14.225038528442385,-1.5577771663665771,-0.6567206468549812,-0.7539214424512691,-0.0179011342258778,0.2046388496142092,3.0
33.39065170288086,13.802630424499512,-1.612731695175171,-0.0,-0.0,-1.0,0.0539537267773452,1.0
33.55092239379883,14.350663185119627,-1.6200144290924072,-0.0,-0.0,-1.0,0.1899264398132711,1.0
33.51747512817383,14.029123306274414,-1.6259663105010986,-0.0,-0.0,-1.0,0.094187905680326,2.0
33.07767868041992,14.086830139160156,-1.4763591289520264,-0.0,-0.0,-1.0,0.1547688143017599,1.0
33.56661605834961,14.150986671447754,-1.5565268993377686,-0.0,-0.0,-1.0,0.1185094213523574,1.0
33.633506774902344,13.78083610534668,-1.584472894668579,0.495055583544944,-0.8140399922663534,-0.3037414364092757,0.0845327992933503,4.0
33.12669372558594,14.12525749206543,-1.503146409988403,-0.7581641482523633,0.5461606569617096,-0.3562241725261243,0.26664952656912,4.0
33.398826599121094,14.259936332702637,-1.5490028858184814,-0.0,-0.0,-1.0,0.1924564429798055,1.0
33.62239074707031,13.734113693237305,-1.6062939167022705,-0.3437646187526604,0.1926197025580106,-0.9190884272366298,0.0845327992933503,3.0
33.675498962402344,14.305960655212402,-1.5986483097076416,-0.0,-0.0,-1.0,0.0911971999537711,2.0
33.649932861328125,13.995404243469238,-1.6031582355499268,0.057286821579675,-0.6259510795063589,-0.7777554025129767,0.1413322309150389,4.0
31.99938201904297,14.534372329711914,-1.660522699356079,0.3811103182077408,0.6952129582103047,-0.6094537456543128,0.0367938434352088,3.0
31.913219451904297,14.300660133361816,-1.645988702774048,0.3319366764001299,0.5485895548407878,-0.7673770541135703,0.029430442376356,4.0
31.855579376220703,15.616217613220217,-1.613969087600708,-0.0,-0.0,-1.0,0.0700204127603697,1.0
31.720237731933594,14.766597747802734,-1.654472827911377,-0.0,-0.0,-1.0,0.1128355748037156,1.0
31.740921020507812,14.54368019104004,-1.6638498306274414,-0.0,-0.0,-1.0,0.0509043649372519,2.0
31.73677635192871,14.14919376373291,-1.638829469680786,0.4995046181817907,0.416168343136538,-0.7598019785352312,0.0336869585413367,3.0
31.967384338378903,14.613521575927734,-1.6740543842315674,-0.0,-0.0,-1.0,0.0262950666843558,2.0
31.906023025512695,14.3748140335083,-1.6683156490325928,-0.0,-0.0,-1.0,0.0326769570246711,1.0
32.76610565185547,13.663732528686523,-1.5849027633666992,-0.0,-0.0,-1.0,0.0437718163892168,2.0
33.0811767578125,14.180034637451172,-1.6524090766906738,-0.608921579341913,-0.653374400034491,-0.4497959577311909,0.190271458671149,5.0
32.95415496826172,13.963172912597656,-1.6249327659606934,-0.5205714941675138,0.1075671260515116,-0.8470151314192801,0.0588575939697221,5.0
33.0338249206543,15.41976261138916,-1.6450328826904297,-0.0286103722024094,-0.6596616038108274,-0.7510179858433264,0.220813367077563,3.0
32.98016357421875,15.292020797729492,-1.6321077346801758,-0.6033174172410992,0.5165662350808524,-0.6075914900884662,0.206029672172109,3.0
33.3465576171875,14.755816459655762,-1.7117242813110352,-0.0,-0.0,-1.0,0.0220629674124795,2.0
33.2822265625,14.434412956237791,-1.6969151496887207,-0.5009663561331162,0.1279312108025877,-0.8559592953670704,0.104069081271432,5.0
33.35010528564453,15.146724700927734,-1.714127540588379,-0.0,-0.0,-1.0,0.0258085034616925,1.0
33.500389099121094,14.899276733398438,-1.7466206550598145,-0.0,-0.0,-1.0,0.0373694225957682,2.0
33.42569351196289,14.389233589172363,-1.477566480636597,0.8477992027254575,0.1521779303928558,-0.5080141625579212,0.1859453404241052,3.0
32.32829284667969,13.97795295715332,-1.6448140144348145,0.9892588725309432,-0.0145683451545484,-0.1454463696290311,0.0964644175518397,3.0
32.13649368286133,13.768335342407228,-1.6003303527832031,0.5921616557462425,0.2572346539243687,-0.7636588939338551,0.0435327068927337,3.0
33.4777717590332,14.543079376220703,-1.708690166473389,0.8475436702138353,-0.3829177872957779,-0.3674829183145349,0.027960805036665,3.0
33.461273193359375,14.096460342407228,-1.66957426071167,-0.0,-0.0,-1.0,0.0842516901601691,1.0
33.277103424072266,14.498021125793455,-1.6649937629699707,-0.0,-0.0,-1.0,0.0901988143410892,1.0
33.03599548339844,14.821495056152344,-1.6430649757385254,-0.0,-0.0,-1.0,0.0361633223449541,1.0
33.273948669433594,13.69106674194336,-1.5998940467834473,-0.0,-0.0,-1.0,0.0457010231668478,1.0
32.5591926574707,15.209798812866213,-1.5797972679138184,-0.0,-0.0,-1.0,0.1311486807923193,1.0
32.07648849487305,15.455653190612791,-1.5040078163146973,-0.0,-0.0,-1.0,0.0857466325587449,1.0
32.36054992675781,14.94838523864746,-1.5186867713928225,-0.0,-0.0,-1.0,0.1758652476130861,1.0
32.13669967651367,15.251585960388184,-1.4990525245666504,-0.0,-0.0,-1.0,0.1068615586712349,1.0
33.37385177612305,13.655513763427734,-1.5308709144592283,-0.0,-0.0,-1.0,0.0349041691217497,1.0
33.627925872802734,13.94481372833252,-1.5837206840515137,-0.0,-0.0,-1.0,0.1220889925697498,2.0
33.67252731323242,14.41225242614746,-1.58408784866333,-0.0,-0.0,-1.0,0.1122761769172542,1.0
33.255672454833984,13.903193473815918,-1.600316047668457,-0.0,-0.0,-1.0,0.0478148153811434,1.0
33.382843017578125,14.391159057617188,-1.6333599090576172,-0.0,-0.0,-1.0,0.201570571707826,2.0
33.56035232543945,14.525886535644531,-1.6789779663085938,-0.0,-0.0,-1.0,0.1333343423719697,1.0
33.08047866821289,14.12889575958252,-1.555768966674805,-0.0,-0.0,-1.0,0.1706362391212759,2.0
33.22417449951172,14.258976936340332,-1.5926179885864258,-0.0,-0.0,-1.0,0.2160016744324856,2.0
33.590797424316406,14.841195106506348,-1.687906265258789,-0.0,-0.0,-1.0,0.0323365406303748,1.0
33.61232376098633,15.092195510864258,-1.6946382522583008,-0.0,-0.0,-1.0,0.0414474987506356,1.0
33.584529876708984,15.341994285583496,-1.6890850067138672,-0.0,-0.0,-1.0,0.0982584789174907,1.0
33.45539093017578,15.633584022521973,-1.6583518981933594,-0.0,-0.0,-1.0,0.1282187363614408,2.0
33.597164154052734,13.760290145874023,-1.5913724899291992,-0.0145642780622042,0.3570671666177076,-0.9339651601254352,0.0845327992933503,4.0
33.66196060180664,14.16560173034668,-1.5876140594482422,-0.0,-0.0,-1.0,0.1099211602271024,2.0
32.66236877441406,13.792658805847168,-1.657087326049805,-0.0,-0.0,-1.0,0.0431320753866165,2.0
32.790470123291016,13.908584594726562,-1.6826963424682615,-0.0,-0.0,-1.0,0.0528262425649117,2.0
32.98183822631836,14.14471435546875,-1.7151517868041992,-0.0,-0.0,-1.0,0.0578272102048223,1.0
33.115867614746094,14.374427795410156,-1.7321414947509766,-0.0,-0.0,-1.0,0.0663696173614606,1.0
33.23280715942383,14.651721000671388,-1.7402019500732422,-0.0,-0.0,-1.0,0.0349690445012386,2.0
33.350067138671875,14.881443977355955,-1.7531471252441406,-0.0,-0.0,-1.0,0.0130128956148659,1.0
33.379188537597656,15.10738754272461,-1.741506576538086,-0.0,-0.0,-1.0,0.0259762706728579,2.0
33.166534423828125,15.371477127075195,-1.6576595306396484,-0.0,-0.0,-1.0,0.104259758027644,2.0
33.3557243347168,15.555809020996094,-1.696207046508789,-0.0,-0.0,-1.0,0.0637806698680926,1.0
33.4454231262207,14.381975173950195,-1.446815013885498,0.7367828928860229,0.4976005153842992,-0.4577605223692657,0.1957357257032724,7.0
32.02238082885742,13.79226303100586,-1.5237793922424316,-0.0,-0.0,-1.0,0.0670385124115977,1.0
32.08785629272461,13.663652420043944,-1.525926113128662,-0.0,-0.0,-1.0,0.091847549618578,1.0
32.453067779541016,14.178810119628906,-1.6395459175109863,-0.0,-0.0,-1.0,0.0817094484727554,1.0
32.597232818603516,14.419626235961914,-1.6875290870666504,-0.0,-0.0,-1.0,0.0154551869110414,1.0
32.64659881591797,14.94748878479004,-1.7409958839416504,-0.0,-0.0,-1.0,0.0116159999151244,2.0
32.71257781982422,14.730892181396484,-1.735792636871338,-0.8616750170841638,-0.4992496332444113,0.0909173725881208,0.0130706174638944,3.0
32.58506393432617,15.251686096191406,-1.754462718963623,-0.0,-0.0,-1.0,0.0789579134290011,1.0
33.282073974609375,13.642224311828612,-1.4610233306884766,-0.0,-0.0,-1.0,0.0420257823964178,1.0
33.59282302856445,13.650185585021973,-1.502298355102539,-0.0,-0.0,-1.0,0.0621043826260017,1.0
33.62093734741211,13.985316276550291,-1.5796022415161133,-0.6243333916372272,-0.0283472143489943,-0.7806434855460007,0.1116096515421325,3.0
33.63545608520508,14.321406364440918,-1.6555862426757812,-0.701623350113769,0.0436922825033217,-0.7112071843174684,0.1377732238809848,3.0
33.126976013183594,14.601950645446776,-1.653400421142578,-0.0,-0.0,-1.0,0.0459438128669646,1.0
33.49739456176758,14.57193660736084,-1.693502426147461,0.8497191927314454,-0.3395616116116411,-0.4033301444518195,0.0578739233463452,4.0
32.912967681884766,15.207564353942873,-1.7611808776855469,0.5766429974274696,0.7513284526294471,-0.3209180733260502,0.079322998647222,3.0
33.16366958618164,15.026080131530762,-1.7522554397583008,-0.0,-0.0,-1.0,0.0271143884170382,1.0
31.86101722717285,15.5457124710083,-1.705453872680664,-0.0,-0.0,-1.0,0.0844397913197969,1.0
32.43487548828125,15.491864204406738,-1.7649040222167969,-0.0,-0.0,-1.0,0.097012007994477,1.0
32.73691940307617,15.34924602508545,-1.7707576751708984,-0.0,-0.0,-1.0,0.0810604519114136,1.0
33.32674789428711,14.696520805358888,-1.1265764236450195,-0.0,-0.0,-1.0,0.1826231377694823,1.0
33.07980728149414,15.15319538116455,-1.2127103805541992,-0.0,-0.0,-1.0,0.1706952221581708,1.0
31.75707244873047,15.118416786193848,-1.0617790222167969,-0.0,-0.0,-1.0,0.1332051992096638,1.0
31.76304626464844,14.079228401184082,-1.5866546630859375,-0.0,-0.0,-1.0,0.0373332440997653,1.0
31.943084716796875,13.862981796264648,-1.5831947326660156,-0.0,-0.0,-1.0,0.0519309147627298,2.0
31.746810913085938,14.366365432739258,-1.6312923431396484,-0.0,-0.0,-1.0,0.0152528941658355,1.0
31.775386810302734,14.823711395263672,-1.712665557861328,-0.0,-0.0,-1.0,0.1325782464927819,1.0
31.717300415039062,14.148683547973633,-1.6519126892089844,0.4995046181817907,0.416168343136538,-0.7598019785352312,0.0333055686631993,3.0
31.720458984375,14.646631240844728,-1.6795940399169922,-0.0,-0.0,-1.0,0.0794027751358573,2.0
32.81729507446289,13.892070770263672,-1.588022232055664,-0.5345744427655208,-0.4408104108776547,-0.7210522497044206,0.0728168355597933,3.0
