x,y,z,nx,ny,nz,curvature,density
22.63677215576172,11.088501930236816,-0.848851203918457,-0.3756999066686406,-0.7569077721138572,-0.5347337698732071,0.169377415064732,3.0
22.66509056091309,10.931861877441406,-0.8359975814819336,-0.0,-0.0,-1.0,0.1557815369285574,2.0
22.81147003173828,11.453415870666504,-0.9291996955871582,0.7962173215980115,0.5891536152859164,-0.1376081188841101,0.0274877861997558,4.0
23.04785919189453,9.769413948059082,-0.8801536560058594,0.5516162456451806,-0.2617897138202702,-0.7919505434547136,0.1372395263617737,3.0
22.883113861083984,10.088980674743652,-0.8882412910461426,-0.0,-0.0,-1.0,0.1350235900912453,2.0
22.583494186401367,10.474786758422852,-0.877894401550293,-0.0,-0.0,-1.0,0.0935348298611223,1.0
22.72557830810547,10.3687162399292,-0.8933525085449219,-0.0,-0.0,-1.0,0.095436368219502,2.0
22.520893096923828,10.81702995300293,-0.9138727188110352,-0.5551719489701703,-0.4908780204315137,-0.6714334487750078,0.1033914506929938,4.0
22.059370040893555,11.403194427490234,-0.9033689498901368,-0.0,-0.0,-1.0,0.0531040560693192,2.0
22.36071014404297,11.30066204071045,-0.951263427734375,0.443206969119502,0.6928735020193958,0.5687652351570753,0.0557376313682042,4.0
21.741065979003903,11.276013374328612,-0.8174734115600586,0.568166790750552,-0.3500023238025859,-0.7447716906683605,0.0798429472150492,3.0
22.41225242614746,10.019009590148926,-0.9549083709716796,-0.0,-0.0,-1.0,0.1188145208477813,1.0
22.55596160888672,9.831921577453612,-0.948920726776123,-0.0,-0.0,-1.0,0.103911303506612,2.0
21.989574432373047,10.494505882263184,-0.9615092277526855,-0.0,-0.0,-1.0,0.0324462303735379,1.0
22.21821975708008,10.28830623626709,-0.9676394462585448,-0.0,-0.0,-1.0,0.0990883372565949,1.0
23.576215744018555,10.28614902496338,-0.5024003982543945,-0.7313239796850948,-0.6804664144299656,-0.046159458081541,0.2170820375132059,3.0
23.20479202270508,10.841647148132324,-0.5328450202941895,-0.0,-0.0,-1.0,0.0562670311143978,2.0
23.466060638427734,10.715134620666504,-0.5578627586364746,-0.0,-0.0,-1.0,0.1413192135344906,2.0
23.64493179321289,9.904827117919922,-0.7498373985290527,-0.9864518861527524,-0.1373274267314737,-0.0897432681207313,0.1095844556421908,4.0
22.67344665527344,11.326851844787598,-0.8497953414916992,-0.5646343840466865,-0.818462851455933,0.1063323710769325,0.0818216073483208,4.0
22.728710174560547,11.626300811767578,-0.9241256713867188,0.9777484927061492,0.2095906673061284,-0.0089239671125031,0.0250181445545189,3.0
23.398212432861328,10.068411827087402,-0.7324795722961426,-0.4096068397145083,0.8954490768191615,0.1743364209877099,0.1600339768840602,3.0
23.544597625732425,9.923307418823242,-0.7333197593688965,-0.5538387916413844,0.7517176594528631,-0.3580267494753999,0.1147768513056935,4.0
23.107494354248047,10.398398399353027,-0.740781307220459,-0.0027871627852973,-0.7532763751136727,-0.6576982092260958,0.1250839014845439,5.0
21.871761322021484,10.548199653625488,-0.5342636108398438,-0.0,-0.0,-1.0,0.1702460424864939,1.0
22.811866760253903,10.692490577697754,-0.7433876991271973,-0.9172229959088868,-0.2101212458177988,-0.3384538932142781,0.1732065288053489,3.0
22.700441360473633,10.97652530670166,-0.7809853553771973,-0.0,-0.0,-1.0,0.1716226607909484,1.0
23.660064697265625,9.827749252319336,-0.8038859367370605,-0.5200316315956494,0.3667049839460179,-0.7714237207197596,0.1883333901453713,5.0
22.722553253173828,11.47994899749756,-0.929964542388916,-0.3878950336737924,0.4789326572981739,-0.787502985787684,0.0383560278606252,3.0
22.75079917907715,9.888018608093262,-0.6242213249206543,-0.0,-0.0,-1.0,0.1350487769522292,1.0
23.15765380859375,10.06897258758545,-0.7427687644958496,-0.0,-0.0,-1.0,0.2148670592028281,2.0
23.359399795532227,9.958409309387209,-0.764460563659668,-0.979386995082712,0.184738428119824,0.0816873738020283,0.1582073223859091,3.0
23.02143669128418,10.293916702270508,-0.7570018768310547,-0.0,-0.0,-1.0,0.1873454364788689,2.0
22.76437759399414,10.56821346282959,-0.7571182250976562,0.2720508112246975,0.5582808656407765,-0.7837798359050641,0.2157207802366656,4.0
22.62163543701172,10.910794258117676,-0.7955646514892578,-0.0,-0.0,-1.0,0.1497744219331439,1.0
22.855016708374023,9.709057807922363,-0.8860874176025391,-0.0,-0.0,-1.0,0.2505739569359644,2.0
22.712461471557617,9.934188842773438,-0.901597023010254,-0.0,-0.0,-1.0,0.0923340206001373,1.0
22.434734344482425,10.25159740447998,-0.9082283973693848,-0.5414389502795056,0.8035403987397398,0.2473190059688238,0.1799271076672694,4.0
22.25694465637207,10.56381607055664,-0.9367079734802246,-0.0,-0.0,-1.0,0.0703751300299446,2.0
21.99988174438477,11.103766441345217,-0.9995183944702148,-0.0,-0.0,-1.0,0.0268425702425475,2.0
22.053050994873047,11.059751510620115,-1.0009689331054688,0.4458372722058786,-0.265559833023096,-0.8548140744025962,0.0543002576747436,5.0
21.784990310668945,11.189410209655762,-0.973848819732666,-0.4321255980726232,0.8796291645731523,-0.1987963790483011,0.1004552294388208,4.0
23.665142059326172,10.625879287719728,-0.5033268928527832,-0.0524342619374118,-0.8895048383125872,-0.4539072491088646,0.1819131838794333,3.0
23.70624351501465,10.401318550109863,-0.4692158699035644,-0.0,-0.0,-1.0,0.115205860322298,1.0
23.51502227783203,10.01175308227539,-0.7461385726928711,-0.0,-0.0,-1.0,0.1205389034022822,1.0
23.180431365966797,10.318899154663086,-0.7656540870666504,-0.0,-0.0,-1.0,0.0854007191324831,1.0
22.84710121154785,10.58250904083252,-0.7765226364135742,0.8796258366879004,-0.086417604990844,-0.4677503447126018,0.2059319230906226,4.0
22.72142791748047,10.878979682922363,-0.8346705436706543,0.1754701808848448,0.9252204019592952,0.3364185241905091,0.1793272352407632,3.0
22.62729263305664,11.11801815032959,-0.8839707374572754,-0.6977359602312735,-0.629935353038049,-0.3410952664476172,0.1765698848667639,3.0
22.52606964111328,11.521804809570312,-0.9790468215942384,-0.0,-0.0,-1.0,0.0151006050423808,2.0
22.508970260620117,11.612004280090332,-1.0014233589172363,-0.0,-0.0,-1.0,0.0122527269480692,1.0
21.75397491455078,10.47092342376709,-0.5563344955444336,-0.0,-0.0,-1.0,0.1400316827906806,2.0
22.735727310180664,11.320261001586914,-0.2660059928894043,0.5603550356062139,-0.2538295689045535,0.7883988736803771,0.1792682782920283,3.0
22.71563148498535,11.161134719848633,-0.4050369262695312,-0.0406229815109699,-0.717536214890507,-0.6953355691274274,0.1546860343240489,4.0
23.65409469604492,9.884986877441406,-0.7273461818695068,-0.9864518861527524,-0.1373274267314737,-0.0897432681207313,0.1359721370657916,4.0
23.311927795410156,10.0654878616333,-0.6712183952331543,-0.0,-0.0,-1.0,0.2278693727019537,1.0
23.146018981933594,10.337957382202148,-0.6617305278778076,-0.7668638426258665,-0.0509627761507186,-0.6397832776183681,0.1034052726317579,3.0
23.089262008666992,11.051990509033203,-0.725731372833252,0.4773612581056166,0.8675136477177724,-0.1398080837549382,0.2289588319692242,5.0
23.223785400390625,11.179150581359863,-0.7686572074890137,0.6547719502513316,-0.7154094846458687,-0.2438502869442653,0.1096130502750338,5.0
23.418432235717773,11.522576332092283,-0.8492116928100586,-0.3159888976884384,-0.0534174061611888,-0.9472579359692144,0.0863315686052036,4.0
22.931072235107425,10.503742218017578,-0.632239580154419,-0.0,-0.0,-1.0,0.1240180584490202,2.0
22.80362319946289,10.766685485839844,-0.6331079006195068,0.2512979268425098,0.6359318840058812,-0.7296848572290555,0.1357996944258951,6.0
22.769054412841797,11.103219985961914,-0.6635890007019043,-0.9691863747841448,-0.1240004953524677,-0.2128418381923769,0.2437909984849134,4.0
21.807350158691406,10.533699989318848,-0.3947288990020752,0.8559831021088161,-0.2889700452105109,-0.4287064751962622,0.1965268291317998,5.0
23.39706802368164,9.694350242614746,-0.8473880290985107,-0.6337874780444098,0.6572525592958525,-0.4078388235236548,0.1807187533228462,4.0
23.340747833251953,9.826873779296877,-0.8434104919433594,-0.6973413879243892,-0.693069633997352,-0.1826731264265862,0.1851161442229007,4.0
23.15491485595703,11.56497573852539,-0.948127508163452,-0.0,-0.0,-1.0,0.0695185669349568,2.0
23.340255737304688,9.641983032226562,-0.8305277824401855,0.0037085682845531,-0.9943916614573798,0.1056951756009259,0.1318639394683879,3.0
23.14994430541992,9.994226455688477,-0.8112740516662598,-0.0,-0.0,-1.0,0.1801728510085729,2.0
23.13193130493164,10.22176742553711,-0.8243963718414307,-0.5083248918419798,-0.7882777859312776,-0.3467332354146671,0.0877680191742025,3.0
23.015810012817383,10.014660835266112,-0.7817199230194092,-0.0,-0.0,-1.0,0.1963595614955052,2.0
22.898334503173828,10.449102401733398,-0.7892289161682129,-0.0,-0.0,-1.0,0.066381125666553,2.0
22.74309539794922,10.756694793701172,-0.780308723449707,-0.6646980711247454,0.7019494079661608,0.2558192778095503,0.1634075022219306,3.0
22.738746643066406,11.104330062866213,-0.8110301494598389,-0.9485077276319916,-0.0114564180272771,0.3165467439547912,0.2183011415902159,7.0
22.629539489746097,10.257319450378418,-0.7118697166442871,-0.0,-0.0,-1.0,0.2035739089618045,1.0
21.739517211914062,10.429893493652344,-0.5243470668792725,0.4696233690187236,-0.8342008127256879,0.2890724741640164,0.1400316827906806,3.0
22.730974197387695,11.280485153198242,-0.2754337787628174,0.5942812311421689,-0.277625795949306,0.7548203334142919,0.1761903527078523,4.0
23.690757751464844,9.955474853515623,-0.6924834251403809,-0.0,-0.0,-1.0,0.1341695233049198,2.0
23.70257568359375,10.391183853149414,-0.7115354537963867,-0.0,-0.0,-1.0,0.1667146196488137,1.0
23.3402099609375,11.182802200317385,-0.6665771007537842,-0.0,-0.0,-1.0,0.1393051411339315,1.0
23.49109268188477,10.087854385375977,-0.6505119800567627,-0.8171268063370446,-0.036814961021027,-0.5752811843007231,0.1909708795641669,4.0
23.208663940429688,10.259187698364258,-0.5917627811431885,-0.0,-0.0,-1.0,0.1822023817586724,2.0
23.112281799316406,10.993364334106444,-0.6043150424957275,-0.0,-0.0,-1.0,0.2318143714712078,2.0
23.018047332763672,10.380977630615234,-0.5526542663574219,-0.0,-0.0,-1.0,0.1844056491344701,2.0
22.893630981445312,10.63665771484375,-0.5360844135284424,0.7159489192695683,-0.6766103199681798,0.1720918937930969,0.1493427064388693,6.0
22.660743713378903,11.103109359741213,-0.5078668594360352,0.3131630560343555,0.9284547290625804,-0.1997516368307234,0.1925475240641395,3.0
22.59997940063477,11.134578704833984,-0.4959609508514404,-0.0,-0.0,-1.0,0.154438326348091,2.0
23.699188232421875,10.69495964050293,-0.5937111377716064,-0.0,-0.0,-1.0,0.2047062477929563,1.0
23.614479064941406,9.805021286010742,-0.5614430904388428,-0.0,-0.0,-1.0,0.1602159957529334,1.0
23.5449275970459,10.315685272216797,-0.5505990982055664,-0.0,-0.0,-1.0,0.2368660550016301,2.0
22.750579833984375,11.158592224121094,-0.3862283229827881,0.0316474452150057,-0.9809992252111784,-0.1914130594981191,0.2173376629593853,3.0
22.692991256713867,11.299127578735352,-0.3778700828552246,-0.0,-0.0,-1.0,0.1175198028396649,1.0
23.4598388671875,10.015143394470217,-0.746955156326294,-0.8525194178552677,0.5218507867673817,-0.029705193653301,0.117367183562045,3.0
23.275970458984375,10.119065284729004,-0.6998467445373535,0.9318167462061931,-0.2914867859405556,0.2162244322729226,0.2106723410897361,3.0
23.10214614868164,10.371275901794434,-0.6543653011322021,-0.2994262927910091,0.9097659558073584,-0.287523565711328,0.1564795119289357,4.0
23.13910675048828,10.977054595947266,-0.6625347137451172,0.1460242328697812,0.92098087197726,0.3612079136270379,0.2083167657902225,4.0
23.188575744628903,11.113927841186523,-0.6753864288330078,-0.0,-0.0,-1.0,0.0780242503682376,2.0
22.863847732543945,10.558444023132324,-0.5945181846618652,0.5634371576409376,-0.0991471280503625,-0.8201880372139467,0.1393004997940735,4.0
22.80624008178711,10.731674194335938,-0.5801606178283691,0.8193726797441785,-0.0642510973941442,-0.5696491974649768,0.1392971406327424,8.0
22.71721649169922,11.169212341308594,-0.5603523254394531,-0.4550120085386372,0.7788843799871055,-0.431628537862984,0.2046198265595966,6.0
22.568225860595703,11.089656829833984,-0.5232131481170654,-0.0,-0.0,-1.0,0.1836269678845882,2.0
23.698551177978516,10.245515823364258,-0.7497978210449219,-0.0,-0.0,-1.0,0.1808065650433252,2.0
23.270044326782227,10.047870635986328,-0.6455235481262207,-0.0,-0.0,-1.0,0.2141979352308106,1.0
23.20450210571289,10.362211227416992,-0.6281440258026123,-0.0,-0.0,-1.0,0.2203647819479102,1.0
23.095996856689453,10.89663028717041,-0.6037039756774902,-0.0,-0.0,-1.0,0.1854023064047459,1.0
23.254941940307617,11.03904914855957,-0.6440730094909668,-0.0,-0.0,-1.0,0.1750795803075758,2.0
22.972368240356445,10.38127613067627,-0.5712673664093018,-0.0,-0.0,-1.0,0.251468886318288,2.0
22.89795684814453,10.658506393432615,-0.5535807609558105,0.7458169371616248,-0.6324858261510468,0.2090903535816051,0.1574049797602462,6.0
23.24898147583008,9.645669937133787,-0.5901567935943604,-0.0,-0.0,-1.0,0.1191179297107976,1.0
23.394325256347656,10.131881713867188,-0.6003711223602295,-0.4651818505891166,-0.818769471020092,0.3364853625463719,0.1654259397309958,5.0
23.242435455322266,10.560705184936523,-0.5450568199157715,-0.2390456133617306,-0.1612350849867341,-0.9575282983295244,0.0840709328598377,4.0
23.413490295410156,10.912715911865234,-0.5740413665771484,0.971752774572896,-0.1922274267620851,-0.1369129705700151,0.0693540050892629,5.0
23.04108428955078,10.06739616394043,-0.5174999237060547,-0.8748523405699369,0.3268447633800321,-0.3574994865036228,0.1894521991871612,3.0
22.753849029541016,11.266620635986328,-0.4033079147338867,0.1002872649975375,-0.5303075567988494,-0.8418529323351844,0.1997367602003013,3.0
22.677207946777344,10.1965913772583,-0.4228270053863525,-0.0,-0.0,-1.0,0.107580654354592,1.0
23.28886032104492,9.68204402923584,-0.59208083152771,-0.0,-0.0,-1.0,0.1318458352786118,1.0
23.41818618774414,10.056801795959473,-0.6038892269134521,-0.0,-0.0,-1.0,0.2385944961142891,1.0
23.199443817138672,10.523744583129885,-0.5320255756378174,-0.2445868923479325,-0.1482646341851516,-0.958224843312635,0.0940242638749244,5.0
23.322601318359375,10.81851863861084,-0.5509042739868164,-0.0,-0.0,-1.0,0.1118348559426354,2.0
23.451366424560547,11.034146308898926,-0.5748517513275146,-0.3983023392441732,-0.7635562889764136,-0.5082686692264119,0.0733789529608148,3.0
23.044849395751953,10.081128120422363,-0.5141592025756836,-0.8748523405699369,0.3268447633800321,-0.3574994865036228,0.2331357137115921,3.0
23.1563720703125,10.510538101196287,-0.522223949432373,-0.2843977835498587,0.0983442090563043,-0.9536489486477808,0.1055344364529451,6.0
22.9945068359375,11.097278594970703,-0.4641339778900146,-0.0,-0.0,-1.0,0.1032889234565386,2.0
23.56278419494629,9.952427864074709,-0.7470674514770508,-0.865259395095492,0.3940925730003376,-0.3098664601162199,0.1903701856183163,3.0
23.652894973754883,10.24986457824707,-0.7565557956695557,-0.0,-0.0,-1.0,0.1832387606257388,2.0
23.580528259277344,10.213525772094728,-0.740673303604126,-0.0,-0.0,-1.0,0.1564447589420468,2.0
23.427583694458008,10.126490592956545,-0.7077198028564453,-0.992111400828344,-0.0463131112676321,0.1164906179532632,0.2257169275245039,5.0
23.268980026245117,10.415782928466797,-0.6587705612182617,-0.0,-0.0,-1.0,0.1213466283553316,1.0
23.237857818603516,11.12094783782959,-0.6301336288452148,0.5736292801240926,0.4936462870720736,-0.6536534190565149,0.0835771642967418,3.0
23.05068588256836,10.10936164855957,-0.6188673973083496,-0.0,-0.0,-1.0,0.2208074258947664,2.0
23.04706382751465,10.541479110717772,-0.6012380123138428,-0.0,-0.0,-1.0,0.1462236928952466,1.0
22.954010009765625,10.828117370605469,-0.5697643756866455,0.4433076802537045,-0.5875860842450031,-0.6769201535112571,0.1468172245083398,5.0
22.79570579528809,11.23672580718994,-0.5206503868103027,-0.0,-0.0,-1.0,0.1601710569586112,2.0
22.24020195007324,10.875248908996582,-1.0075650215148926,-0.0,-0.0,-1.0,0.0436147214803579,1.0
22.369009017944336,11.28899097442627,-0.9835078716278076,0.9525724373925956,0.2652499386918766,0.1491583773841915,0.0628505504274158,3.0
22.55672264099121,11.489219665527344,-1.0043182373046875,-0.0,-0.0,-1.0,0.0199639925883911,1.0
21.85689926147461,9.80698299407959,-1.0742456912994385,-0.0,-0.0,-1.0,0.0721821924886436,2.0
21.962722778320312,9.98998737335205,-1.0708231925964355,-0.0,-0.0,-1.0,0.0720476368251014,2.0
22.120437622070312,10.48589324951172,-1.03387188911438,-0.0,-0.0,-1.0,0.0321495470592161,1.0
23.460826873779297,11.181143760681152,-0.7115716934204102,-0.0,-0.0,-1.0,0.1735696615561769,2.0
23.212255477905273,9.662632942199709,-0.8563907146453857,-0.4352699855640833,-0.7613782005238152,-0.4804615233649408,0.1597748145092932,7.0
23.217687606811523,10.093891143798828,-0.7980282306671143,0.7105767214783906,-0.6940744957968474,-0.1155046197230809,0.1386115669409547,3.0
23.087751388549805,10.375237464904783,-0.7332861423492432,-0.0158653497391164,-0.7986349384962296,-0.6016066203847656,0.1739973665233646,6.0
23.112369537353516,10.972700119018556,-0.6625514030456543,0.1460242328697812,0.92098087197726,0.3612079136270379,0.2364891576898107,4.0
23.287492752075195,11.121474266052246,-0.6817331314086914,0.551226739959568,0.6986619505233178,-0.4560927099225548,0.1197856065404476,3.0
22.90521240234375,9.673545837402344,-0.7914302349090576,-0.0,-0.0,-1.0,0.199227540220279,1.0
22.664329528808594,9.92277717590332,-0.706413745880127,-0.0,-0.0,-1.0,0.1610875065455976,1.0
22.919204711914062,10.533717155456545,-0.6771574020385742,0.742602214278193,0.3894986854565797,-0.5448235727065426,0.1252912098572816,3.0
22.811691284179688,10.801337242126465,-0.620244026184082,0.5465218001877816,0.4046045143493251,-0.733218322798642,0.2125888423421754,7.0
22.761940002441406,11.099390029907228,-0.5725901126861572,-0.766489220123617,0.5999581373302152,-0.2292258905218788,0.1987991695235098,3.0
22.57592010498047,10.219661712646484,-0.6470770835876465,0.8240162717019057,0.552549975250731,-0.125242599864854,0.1384782296290472,3.0
23.2213134765625,11.535988807678224,-0.92254638671875,-0.0,-0.0,-1.0,0.0745657749619961,1.0
22.857654571533203,9.899055480957031,-0.959409475326538,-0.0,-0.0,-1.0,0.1482060032611453,2.0
22.74993133544922,10.333318710327148,-0.9038715362548828,0.4096321843304263,0.5071588800343161,-0.7582818367619139,0.0819717492747285,3.0
22.671646118164062,10.782024383544922,-0.8554775714874268,-0.0,-0.0,-1.0,0.1364033234094243,2.0
22.775936126708984,11.184650421142578,-0.8504331111907959,-0.0,-0.0,-1.0,0.175499256361812,2.0
23.04568862915039,11.580680847167969,-0.9438068866729736,-0.0,-0.0,-1.0,0.0516006819686282,2.0
22.61536407470703,11.225488662719728,-0.8911387920379639,-0.7171257411481367,0.6926506251188138,-0.0772384807285348,0.1234902696641875,3.0
22.762226104736328,11.411666870117188,-0.9026052951812744,-0.0,-0.0,-1.0,0.0402572449146682,1.0
22.40194320678711,9.764497756958008,-1.0082728862762451,-0.0,-0.0,-1.0,0.0807610545675788,1.0
22.432884216308594,10.349481582641602,-0.9470908641815186,-0.0,-0.0,-1.0,0.0748345967140812,1.0
22.442241668701172,10.698025703430176,-0.9110667705535888,-0.0,-0.0,-1.0,0.1142913491477679,2.0
22.516067504882812,11.042551040649414,-0.8897786140441895,-0.0,-0.0,-1.0,0.0812877812372586,2.0
23.63430404663086,10.20958423614502,-0.6110844612121582,0.3430284218294604,-0.3758761188910338,-0.8608418234871047,0.1622044588284286,3.0
23.189254760742188,10.16022491455078,-0.5432407855987549,-0.0,-0.0,-1.0,0.1272730781579775,2.0
22.95322036743164,10.146003723144531,-0.5063939094543457,-0.0,-0.0,-1.0,0.1538316022547117,1.0
22.66408920288086,11.191116333007812,-0.3652398586273193,-0.0,-0.0,-1.0,0.1850530300715111,1.0
22.458759307861328,9.68199348449707,-0.9895124435424804,-0.0,-0.0,-1.0,0.076127681511338,2.0
23.119325637817383,11.48840045928955,-0.8902440071105957,-0.0,-0.0,-1.0,0.0611026484343011,1.0
22.95189094543457,11.361251831054688,-0.8733198642730713,-0.0,-0.0,-1.0,0.0887630038487057,1.0
22.424015045166016,10.249995231628418,-0.9100232124328612,-0.5414389502795056,0.8035403987397398,0.2473190059688238,0.1656173823472401,4.0
22.45743179321289,10.583118438720703,-0.8745372295379639,-0.120829075316068,-0.9565327521060284,-0.2654155773626178,0.0665727765099213,3.0
22.528289794921875,10.943981170654297,-0.8439736366271973,-0.0,-0.0,-1.0,0.0803154158912884,2.0
22.62728500366211,11.22131633758545,-0.8297243118286133,-0.0496169146251778,-0.6613739062156463,-0.7484134672493109,0.1390793940969312,4.0
23.663007736206055,10.575871467590332,-0.4971179962158203,-0.5870506753287448,-0.5685130634984767,0.5763370552269232,0.2031168648286783,3.0
23.1572265625,10.138572692871094,-0.4675509929656982,-0.0,-0.0,-1.0,0.0970838506847804,1.0
22.978271484375,10.14198112487793,-0.4413094520568847,-0.0,-0.0,-1.0,0.1391336506647809,2.0
22.80702209472656,11.324614524841309,-0.2966847419738769,0.3568091601208373,-0.9191678036198678,0.1667866063042569,0.1713904797035416,4.0
23.390186309814453,11.328941345214844,-0.809725284576416,-0.0,-0.0,-1.0,0.1113212719414849,2.0
22.928098678588867,9.682448387145996,-0.9154272079467772,-0.0,-0.0,-1.0,0.1601792094550675,2.0
22.945703506469727,10.15071964263916,-0.8631443977355957,-0.0,-0.0,-1.0,0.1343241325347199,1.0
22.9405517578125,10.31928253173828,-0.8430233001708984,-0.0,-0.0,-1.0,0.1606434421758744,2.0
22.94615173339844,11.064570426940918,-0.7622616291046143,0.9212320856584038,0.3545029325505296,0.1601846283715843,0.1878462567989751,5.0
23.08905029296875,11.140606880187988,-0.7782163619995117,0.7901075252771784,-0.4427951355658346,0.4238662128780815,0.1305617656636591,3.0
22.73625946044922,10.07882308959961,-0.8378098011016846,-0.0,-0.0,-1.0,0.160743079753501,1.0
22.756206512451172,10.532032012939451,-0.7889425754547119,0.9783238329361404,-0.2064219015784878,-0.0165068609329481,0.2301757732275721,3.0
22.719593048095703,10.876567840576172,-0.7448470592498779,-0.1647235743325912,0.8475849043082978,0.5044462053061644,0.1894466939309488,3.0
22.030019760131836,11.339698791503906,-1.0092973709106443,-0.0,-0.0,-1.0,0.0496308026763402,1.0
22.064342498779297,11.40849494934082,-1.0063250064849854,-0.0,-0.0,-1.0,0.0581485589159046,1.0
21.71372413635254,10.78927993774414,-1.029252529144287,-0.0,-0.0,-1.0,0.0516960831209344,2.0
23.33159637451172,9.75789737701416,-0.8022134304046631,-0.877940752089371,-0.4403205543442328,-0.1879836302520444,0.1677813396065552,3.0
23.297054290771484,9.96688747406006,-0.7735323905944824,-0.0,-0.0,-1.0,0.1929564897315869,1.0
23.227542877197266,10.199790000915527,-0.7374365329742432,0.9247354857857216,0.2372567521896503,-0.2976130287286896,0.1675258700808973,3.0
23.30254173278809,11.157519340515137,-0.6445469856262207,-0.9548824489436202,0.187101771663005,-0.2306348536973531,0.1346949544722966,5.0
22.786222457885746,9.859670639038086,-0.7150187492370605,-0.0,-0.0,-1.0,0.2186025546687451,2.0
23.093215942382812,10.365309715270996,-0.699941873550415,0.9630875418542008,-0.1876151117008762,-0.1930361535741435,0.1842401066520598,4.0
22.807374954223633,10.824392318725586,-0.608593225479126,0.8947189971117804,0.4461672333124563,-0.0203154159592777,0.2176210036898609,6.0
22.99710273742676,11.025934219360352,-0.6140012741088867,0.565346217347145,0.7386900704095105,-0.3670430961204243,0.2474934896527253,3.0
22.72628593444824,9.904239654541016,-0.7015388011932373,0.139803185912812,0.1675275911034629,-0.975904490935306,0.2365523892570903,3.0
22.517667770385746,10.271702766418455,-0.6299881935119629,-0.0,-0.0,-1.0,0.1721979375184054,2.0
21.966419219970703,11.2840576171875,-1.005581617355347,-0.0,-0.0,-1.0,0.0391899532258931,1.0
22.14385223388672,11.621115684509276,-0.9931344985961914,-0.0,-0.0,-1.0,0.0614968273483307,1.0
21.789886474609375,11.182838439941406,-0.988771677017212,-0.0239005923779163,0.3851602562431738,-0.9225401556001112,0.1004552294388208,4.0
23.441240310668945,11.350318908691406,-0.791583776473999,-0.8277378279123632,-0.5444472878155238,0.135746966939386,0.1384589258291813,5.0
23.185108184814453,11.181509017944336,-0.7821917533874512,0.6547719502513316,-0.7154094846458687,-0.2438502869442653,0.1436369465324711,5.0
22.731548309326172,10.12582015991211,-0.8789081573486328,-0.0,-0.0,-1.0,0.1638858643777055,1.0
22.802452087402344,10.379831314086914,-0.8497016429901123,-0.8964191402549372,-0.1462183654148569,-0.4183932535307023,0.1430583342759067,4.0
22.691478729248047,10.881871223449709,-0.7629384994506836,0.3249433653064931,0.91567438825005,-0.2365422246580662,0.2123805576756189,3.0
22.830175399780273,11.10906219482422,-0.747603178024292,-0.0,-0.0,-1.0,0.1736850875011203,1.0
22.529165267944336,9.982101440429688,-0.876488208770752,-0.0,-0.0,-1.0,0.1616148883823258,2.0
23.480541229248047,11.616461753845217,-0.8603780269622803,-0.5455861407340671,-0.675125213641043,-0.496529665725063,0.075539179852643,4.0
22.98727226257324,11.20666217803955,-0.8510572910308838,0.8240831622278231,0.5371653530204067,0.1798341604007796,0.1518657770139175,3.0
23.19445419311523,11.394631385803224,-0.8524227142333984,0.3986283720534282,0.8617800978533986,-0.3137363286867176,0.0938325462270537,3.0
22.56060028076172,10.80394458770752,-0.8532123565673828,-0.0,-0.0,-1.0,0.155537668597135,2.0
22.651294708251953,11.066701889038086,-0.8281970024108887,-0.8523654230793106,-0.5100641674187361,0.1153591377146142,0.185558516468532,4.0
22.47911071777344,10.675189018249512,-0.8613452911376953,-0.0,-0.0,-1.0,0.0951178711489466,2.0
23.349456787109375,11.60932159423828,-0.892920970916748,-0.0,-0.0,-1.0,0.0708254747510112,1.0
22.909324645996097,11.280156135559082,-0.8841590881347656,-0.0,-0.0,-1.0,0.0932095935157225,1.0
23.100181579589844,11.406726837158203,-0.8898046016693115,-0.0,-0.0,-1.0,0.0938164796811877,1.0
22.68170738220215,11.24396800994873,-0.8621420860290527,-0.1700300446819237,-0.7238443448491386,0.668684640421315,0.1733215322095227,4.0
22.936607360839844,10.166282653808594,-0.5516684055328369,0.3142448320022735,0.7296608639903249,-0.6073262789644094,0.1832237808136686,3.0
23.082134246826172,11.036291122436523,-0.5010781288146973,-0.0,-0.0,-1.0,0.1728373261016146,2.0
23.319917678833008,11.146827697753906,-0.5162348747253418,-0.0,-0.0,-1.0,0.1561309285024587,2.0
22.915958404541016,10.97605323791504,-0.4894719123840332,-0.0,-0.0,-1.0,0.1494351278408548,2.0
22.790555953979492,10.206672668457031,-0.8563897609710693,-0.0,-0.0,-1.0,0.151357544825301,2.0
23.072406768798828,11.009710311889648,-0.8133084774017334,-0.0,-0.0,-1.0,0.1721628796415737,1.0
22.57335662841797,10.218307495117188,-0.8349976539611816,0.6659412939398957,0.6814105690310023,-0.3036475414662592,0.2474913194624383,3.0
22.611148834228516,10.756059646606444,-0.7909772396087646,-0.6706655010155622,-0.1087726689191856,-0.7337412978998401,0.1868831210426656,3.0
22.9560546875,11.019384384155272,-0.8011350631713867,-0.0,-0.0,-1.0,0.2601667063970033,2.0
23.0961856842041,11.127197265625,-0.805525541305542,0.7901075252771784,-0.4427951355658346,0.4238662128780815,0.1305617656636591,3.0
23.307905197143555,11.359312057495115,-0.8066790103912354,-0.0,-0.0,-1.0,0.0753311885423739,1.0
23.585939407348633,11.49533462524414,-0.823122501373291,-0.3517751826973858,-0.2285838721415447,-0.9077464592247106,0.161570716005566,4.0
22.728748321533203,11.212923049926758,-0.7623202800750732,-0.0,-0.0,-1.0,0.2506563179348921,2.0
23.126953125,11.232982635498049,-0.7994768619537354,-0.0,-0.0,-1.0,0.1003269471699287,2.0
22.19600486755371,11.047208786010742,-0.9792797565460204,-0.0,-0.0,-1.0,0.0358421518109547,1.0
21.74106216430664,10.77816390991211,-0.9555597305297852,-0.7021786207813211,0.6672030877818148,-0.2485663375681704,0.0725359674320787,3.0
22.08264541625977,11.065587997436523,-0.9653973579406738,0.6506577256816929,0.4461024783735414,-0.6145218489197198,0.0364306870481413,3.0
22.38604736328125,11.461751937866213,-0.9619081020355223,-0.0,-0.0,-1.0,0.0297388358020936,2.0
21.722312927246097,11.18149757385254,-0.9158637523651124,0.5013687479571177,0.8652138887750725,-0.0058570677500113,0.1035876487453266,5.0
21.868988037109375,10.903907775878906,-0.9579217433929444,-0.0,-0.0,-1.0,0.0985588404579497,2.0
22.226886749267575,11.3428955078125,-0.939422607421875,-0.0,-0.0,-1.0,0.0615176347801581,2.0
22.001808166503903,11.336103439331056,-0.9217314720153807,-0.0,-0.0,-1.0,0.0462692854002274,1.0
22.396934509277344,11.513860702514648,-0.9351820945739746,-0.0,-0.0,-1.0,0.0297307174922064,2.0
23.338300704956055,10.044601440429688,-0.4379355907440185,-0.989825937843148,-0.1171302583755565,0.0807781860764898,0.1529942002554321,3.0
22.07668685913086,10.189336776733398,-0.7211136817932129,-0.0,-0.0,-1.0,0.1891717671756027,1.0
22.915748596191406,10.199750900268556,-0.8227701187133789,-0.0,-0.0,-1.0,0.1478245570987245,1.0
22.86954116821289,10.679727554321287,-0.7748868465423584,-0.0,-0.0,-1.0,0.167034723050313,1.0
22.95337677001953,10.807729721069336,-0.7720122337341309,-0.0,-0.0,-1.0,0.2149434541000016,1.0
23.3737850189209,11.056142807006836,-0.7937843799591064,-0.0,-0.0,-1.0,0.1412239844716835,1.0
22.10981178283691,10.414176940917969,-0.7040784358978271,-0.0,-0.0,-1.0,0.2932506827327948,1.0
22.9541072845459,11.092248916625977,-0.746729850769043,0.983312524736676,-0.0775620930023062,0.1645618437703125,0.1882155215647781,4.0
23.049156188964844,11.194093704223633,-0.7475776672363281,-0.0,-0.0,-1.0,0.1059358010974512,2.0
23.450197219848633,11.281267166137695,-0.7821803092956543,-0.0,-0.0,-1.0,0.0816452664957019,2.0
22.44460678100586,10.73797607421875,-0.9484715461730956,-0.0,-0.0,-1.0,0.0968590034471582,1.0
22.574142456054688,11.073156356811523,-0.9201180934906006,-0.0,-0.0,-1.0,0.085099160943277,2.0
22.656360626220703,11.299612045288086,-0.900747776031494,0.6399393265729365,-0.2255566730907904,-0.7345759630763796,0.0905062540292607,4.0
22.979867935180664,11.420440673828123,-0.9115753173828124,0.0021211102498416,-0.8693935933248766,-0.4941156552639942,0.0458058359823289,3.0
23.235124588012695,11.481773376464844,-0.9242072105407716,-0.0,-0.0,-1.0,0.0570743368743251,1.0
21.900218963623047,11.363933563232422,-1.0069258213043213,-0.0,-0.0,-1.0,0.0349386220355698,2.0
21.838830947875977,11.104846954345703,-0.966965675354004,-0.0,-0.0,-1.0,0.130729688847314,2.0
22.094722747802734,11.234474182128906,-0.9709830284118652,-0.0,-0.0,-1.0,0.0521525627708524,1.0
22.42176818847656,11.542598724365234,-0.9596560001373292,-0.0,-0.0,-1.0,0.0319251148594081,2.0
22.44475746154785,10.245613098144531,-0.7826323509216309,-0.0,-0.0,-1.0,0.1305045289760444,2.0
22.78826904296875,9.87873077392578,-0.850177526473999,-0.0,-0.0,-1.0,0.230923226238489,1.0
22.78809356689453,9.664186477661133,-0.8735461235046387,-0.0,-0.0,-1.0,0.160582358239859,2.0
22.582786560058594,10.84968376159668,-0.7280189990997314,-0.0,-0.0,-1.0,0.1601720130305819,1.0
22.990005493164062,11.047002792358398,-0.7403488159179688,-0.0,-0.0,-1.0,0.211472565958987,1.0
23.351655960083008,11.248998641967772,-0.7493417263031006,-0.0,-0.0,-1.0,0.1773434848884688,2.0
22.089832305908203,11.590518951416016,-0.9087038040161132,-0.0,-0.0,-1.0,0.057446588628875,1.0
21.984230041503903,11.252456665039062,-0.9375109672546388,-0.0,-0.0,-1.0,0.0395564881513423,2.0
22.176464080810547,11.586259841918944,-0.9186410903930664,-0.0,-0.0,-1.0,0.0570675115387709,1.0
22.688087463378903,11.304502487182615,-0.2025487422943115,-0.3331980508059899,-0.9288809036485832,-0.161738448663514,0.1778734312487764,4.0
22.656265258789062,10.055614471435549,-0.6252009868621826,-0.0,-0.0,-1.0,0.1869751324007658,1.0
22.869768142700195,10.897428512573242,-0.5718605518341064,0.869769789824225,-0.4196288357936137,-0.2596385042315936,0.2202289753137265,3.0
22.797740936279297,10.69564437866211,-0.5820331573486328,0.960588762122806,0.2779573244249678,-0.0029926379481566,0.1702023082894239,8.0
23.23231506347656,11.035432815551758,-0.6024348735809326,-0.0,-0.0,-1.0,0.1439122223668374,2.0
23.04220199584961,10.899816513061523,-0.5920920372009277,-0.0,-0.0,-1.0,0.2183895117483353,2.0
23.54553985595703,11.08708953857422,-0.6356065273284912,-0.0,-0.0,-1.0,0.088189570251671,2.0
22.733097076416016,10.843719482421877,-0.5963680744171143,-0.0,-0.0,-1.0,0.1925015971840531,2.0
22.754833221435547,9.873493194580078,-0.7027273178100586,-0.0932476893816163,0.1612192119953881,-0.9825035542472996,0.2654248544462533,4.0
23.0494384765625,10.949846267700195,-0.6198351383209229,-0.0,-0.0,-1.0,0.2382232041279985,2.0
23.290924072265625,11.126068115234377,-0.6281530857086182,-0.8094483151576621,0.3001247636630337,-0.5046964942662374,0.1348986832174523,8.0
22.059776306152344,11.053953170776367,-0.9980573654174804,0.4458372722058786,-0.265559833023096,-0.8548140744025962,0.0543002576747436,5.0
22.114809036254883,10.992429733276367,-1.013326644897461,-0.0,-0.0,-1.0,0.0629688060022764,2.0
22.44522476196289,11.582618713378906,-0.9797148704528807,-0.0,-0.0,-1.0,0.0311444159532506,2.0
22.34932327270508,11.469837188720703,-0.981616735458374,0.427463674561047,0.7641775258682428,-0.48301916720629,0.0281363955882127,3.0
22.99062728881836,10.110433578491213,-0.5059013366699219,-0.9331571753915152,0.0176726921357382,0.3590339287142713,0.1804308827195532,4.0
23.56535530090332,10.187223434448242,-0.5678796768188477,-0.0,-0.0,-1.0,0.1755597402846699,2.0
22.400230407714844,10.115964889526367,-0.877983808517456,-0.0,-0.0,-1.0,0.2093437858162478,2.0
22.540395736694336,10.746091842651367,-0.8151276111602783,-0.0,-0.0,-1.0,0.1656965277834714,2.0
22.48303604125977,10.267410278320312,-0.8691887855529785,0.7640758075416573,0.3389393106553072,-0.5489155709415331,0.2118583801881611,3.0
22.7488956451416,11.137338638305664,-0.7930548191070557,-0.0337878332243624,0.4511852560777703,-0.8917904726021912,0.1842116898835181,7.0
23.14165496826172,11.280879974365234,-0.8287520408630371,-0.0,-0.0,-1.0,0.0746907248833241,1.0
23.476451873779297,11.555509567260742,-0.8414504528045654,-0.0,-0.0,-1.0,0.0821484867974874,1.0
22.061431884765625,9.783262252807615,-1.0082814693450928,0.0329486171703425,-0.9959141378091836,-0.0840798355038378,0.2031206805340883,3.0
22.329666137695312,10.482133865356444,-0.9363055229187012,-0.0,-0.0,-1.0,0.0919488665290862,2.0
22.241601943969727,9.94504737854004,-1.005629539489746,-0.13960837581971,0.3831279724308857,-0.91308403673593,0.0760454246344664,4.0
22.44512939453125,10.683341979980469,-0.9207732677459716,-0.0,-0.0,-1.0,0.1117637531848669,2.0
22.57805061340332,11.142765998840332,-0.8698000907897949,-0.3670450049515891,-0.3957181758536375,-0.8418343599777557,0.0938179786152445,3.0
22.83554458618164,11.24155616760254,-0.8884119987487793,-0.3304883660367078,0.8377617403690609,0.4346639003738282,0.0936243441057583,3.0
23.18239974975586,11.42978858947754,-0.9065935611724854,-0.0,-0.0,-1.0,0.0792657957383627,2.0
23.468381881713867,10.19355010986328,-0.4549846649169922,-0.0,-0.0,-1.0,0.1411792968373467,2.0
21.792648315429688,11.39661693572998,-0.9950177669525146,-0.0,-0.0,-1.0,0.10216273249709,1.0
22.464393615722656,10.21372127532959,-0.6783547401428223,-0.439078014805376,0.6010637645348255,0.6677820362047737,0.2335310695208991,3.0
22.545635223388672,10.167951583862305,-0.6951637268066406,-0.0,-0.0,-1.0,0.2019021161781594,1.0
22.82273292541504,10.905341148376465,-0.629845380783081,0.531497972048665,-0.4379685901558932,0.7250471844956131,0.2299806962652525,4.0
22.737628936767575,10.60690689086914,-0.659475564956665,0.3213073369119031,0.7742339397119958,-0.545273694436677,0.1565180496956608,3.0
22.928152084350582,9.89858055114746,-0.7821342945098877,0.8212277822486623,-0.4844240885140078,-0.3015265031971757,0.2512572357101746,5.0
23.019268035888672,9.845450401306152,-0.8014075756072998,0.478533766702989,-0.5911039338534654,-0.6493085349107982,0.1918963495030504,3.0
23.146007537841797,10.965068817138672,-0.6653969287872314,0.1460242328697812,0.92098087197726,0.3612079136270379,0.1896732485357215,4.0
23.46788215637207,11.099919319152832,-0.6915709972381592,-0.4425885623769363,-0.4494385936488112,-0.7759641196550879,0.1720783462351109,4.0
21.712875366210938,11.426478385925291,-1.013824462890625,-0.0,-0.0,-1.0,0.0977533395342576,2.0
22.26448631286621,9.983938217163086,-0.7857363224029541,-0.0,-0.0,-1.0,0.1530276946662445,1.0
22.423168182373047,10.95004940032959,-0.6567907333374023,-0.0,-0.0,-1.0,0.1631360942412305,2.0
22.507579803466797,10.07122802734375,-0.8047940731048584,-0.0,-0.0,-1.0,0.2434508546270912,1.0
22.71575164794922,11.073127746582031,-0.6790733337402344,-0.9602259928203408,-0.1616137332073503,-0.2276994597072517,0.2213226384735236,7.0
22.73660659790039,10.808553695678713,-0.7225861549377441,-0.098701321514974,0.9685433686032442,0.2284333431569873,0.1782433933801689,5.0
22.686710357666016,10.636954307556152,-0.7417995929718018,0.7019070120069844,0.2746567296451794,-0.6571835568211076,0.1293358548180198,3.0
22.728469848632812,10.01834774017334,-0.8430988788604736,-0.0,-0.0,-1.0,0.1930663480574008,1.0
23.13578414916992,10.989093780517578,-0.7525935173034668,-0.0,-0.0,-1.0,0.1816027743999974,2.0
23.395050048828125,11.259154319763184,-0.7506053447723389,-0.0,-0.0,-1.0,0.1349379593034619,2.0
23.39906120300293,11.179019927978516,-0.763235330581665,-0.3702686391354191,-0.86458985352104,-0.3396844418887497,0.1603482561172886,5.0
21.72701072692871,10.28082275390625,-0.9758791923522948,-0.0,-0.0,-1.0,0.1779913450570003,1.0
21.81243133544922,9.968162536621094,-1.0478696823120115,-0.0,-0.0,-1.0,0.0970351344967013,2.0
22.18228530883789,10.663423538208008,-0.975405216217041,-0.0,-0.0,-1.0,0.0402759047667084,1.0
22.065465927124023,10.39653491973877,-1.0064961910247805,0.0095178873064941,-0.7656039118222384,-0.6432418363443932,0.0533247037378404,3.0
22.39374542236328,11.068610191345217,-0.9354877471923828,0.3329519795348415,-0.7364549358042248,-0.5888778369521349,0.0760408868515993,4.0
22.302452087402344,10.86764144897461,-0.9572887420654296,-0.0,-0.0,-1.0,0.0436646978848401,2.0
21.74691390991211,11.168265342712402,-0.8124008178710938,-0.0,-0.0,-1.0,0.0994098527851479,2.0
22.432619094848633,11.218059539794922,-0.9147801399230956,0.281160959516416,0.1886995783272582,-0.9409255996001616,0.0572171501282645,5.0
22.674301147460938,11.367703437805176,-0.9288673400878906,-0.233613631543291,0.3816294991277172,-0.8943062096131745,0.0455579458941603,3.0
22.822284698486328,10.722504615783691,-0.5415747165679932,0.534825853508425,-0.2162096488420139,-0.816832108922389,0.1141501470861067,11.0
23.01012802124023,10.113617897033691,-0.6606130599975586,-0.0,-0.0,-1.0,0.1892668785300899,1.0
22.956485748291016,11.55117130279541,-0.9452698230743408,-0.0,-0.0,-1.0,0.0382808516286274,2.0
22.89970016479492,10.89215850830078,-0.5283393859863281,-0.2216259270340725,0.8755734122739733,-0.4292471877429128,0.1634074561444317,4.0
23.210773468017575,10.996493339538574,-0.5615804195404053,-0.1189464045809803,0.8798258737122285,-0.4601719078602813,0.1659333840205424,5.0
22.03621482849121,11.081360816955566,-0.9917583465576172,0.5200319226074962,0.6224562037922251,-0.5849060384623528,0.0388858037662835,4.0
22.322349548339844,11.428061485290527,-0.9711582660675048,-0.0,-0.0,-1.0,0.0496984575715702,1.0
22.838088989257812,10.18674373626709,-0.8055458068847656,-0.0,-0.0,-1.0,0.2075700076088053,1.0
22.851665496826172,9.879940032958984,-0.8615520000457764,0.6267307597777478,-0.7541227773130058,-0.1962330030502673,0.2323148564465102,4.0
22.733400344848633,10.659735679626465,-0.7056970596313477,-0.0,-0.0,-1.0,0.1119907549591515,1.0
22.51900863647461,10.226494789123535,-0.7465183734893799,-0.0,-0.0,-1.0,0.1309268503319154,2.0
22.764528274536133,11.072887420654297,-0.639503002166748,-0.9865288625453656,-0.0214765124874603,-0.1621713993783216,0.2479867019858996,4.0
22.888181686401367,10.815389633178713,-0.7050375938415527,-0.0,-0.0,-1.0,0.16240176241876,1.0
23.31224250793457,11.165777206420898,-0.7192797660827637,-0.0,-0.0,-1.0,0.1500163091122392,1.0
23.174211502075195,11.018975257873535,-0.7195429801940918,0.1980953023969091,0.6974594444357162,-0.6887006421774986,0.1463917078773726,3.0
23.532238006591797,11.234576225280762,-0.747330904006958,0.0741638410017676,-0.1427885830590613,-0.9869706911736792,0.1006811863912432,5.0
21.917789459228516,11.175915718078612,-1.0075113773345947,-0.0,-0.0,-1.0,0.0477636339564169,2.0
22.189050674438477,11.523649215698242,-0.9809889793395996,-0.0,-0.0,-1.0,0.0464067149442643,1.0
22.621315002441406,10.660457611083984,-0.8027029037475586,-0.0,-0.0,-1.0,0.1237477543693067,2.0
22.614532470703125,10.30524730682373,-0.8713481426239014,0.4547920460098258,0.7681925075353183,-0.4506045564048335,0.1014853268424033,3.0
22.56270408630371,10.145520210266112,-0.8936469554901123,-0.0,-0.0,-1.0,0.1353366283255929,2.0
22.752065658569336,10.875969886779783,-0.7850263118743896,-0.0,-0.0,-1.0,0.1994086610368218,2.0
23.21074485778809,11.18474006652832,-0.8137071132659912,-0.4528858774740846,-0.890690198204711,0.0395645397620299,0.1100458370815126,4.0
23.069475173950195,10.939407348632812,-0.8328685760498047,-0.0,-0.0,-1.0,0.167564537940516,1.0
23.489887237548828,11.37724494934082,-0.8333141803741455,0.062653159950674,-0.9486584259563322,-0.3100351148019354,0.1170598139208937,3.0
22.723384857177734,11.05618667602539,-0.7446169853210449,-0.1891719363208758,0.1937855172861681,-0.962632407411439,0.1724702133997795,3.0
23.43136215209961,10.11604118347168,-0.5728278160095215,-0.1724100213530513,-0.9815704554073228,-0.0824270926849968,0.1504357908166234,5.0
22.91718292236328,11.194805145263672,-0.3118443489074707,-0.0,-0.0,-1.0,0.1451380499044435,1.0
22.17605209350586,10.040419578552246,-1.0149643421173096,-0.0,-0.0,-1.0,0.0500109588685836,2.0
21.959688186645508,9.78506088256836,-1.0361692905426023,-0.0,-0.0,-1.0,0.2041852950177079,2.0
22.520919799804688,10.883841514587402,-0.8856699466705322,-0.0,-0.0,-1.0,0.1196921962379907,1.0
22.351348876953125,10.53932762145996,-0.9316072463989258,-0.0,-0.0,-1.0,0.0703426302422867,2.0
22.81493377685547,11.170854568481444,-0.8807008266448975,-0.0,-0.0,-1.0,0.1284980646815587,1.0
22.72211456298828,11.106478691101074,-0.8759853839874268,-0.5323324298137705,-0.780595901087507,0.3275549165772816,0.18283341417247,4.0
23.05294609069824,9.75749683380127,-0.7850005626678467,-0.0,-0.0,-1.0,0.1756201030810224,1.0
23.15248680114746,11.36840534210205,-0.9084360599517822,0.704687834839011,-0.3438576816927728,-0.6206262564303723,0.0801869150614232,3.0
23.169189453125,9.76819133758545,-0.8035914897918701,-0.4225267772420862,-0.4281471453379034,-0.7988498885600602,0.2357264232394002,3.0
23.416330337524418,11.593438148498535,-0.9174950122833252,-0.0,-0.0,-1.0,0.0937065574675381,2.0
21.75457000732422,10.482250213623049,-0.4194848537445068,0.4282797885805222,0.1077161746783614,-0.8972032369569807,0.1965268291317997,7.0
22.522350311279297,10.082125663757324,-0.6283185482025146,-0.0,-0.0,-1.0,0.1415160558317308,2.0
22.73099708557129,9.855493545532228,-0.7092318534851074,0.139803185912812,0.1675275911034629,-0.975904490935306,0.2207538512433292,3.0
22.88846206665039,10.911415100097656,-0.5318424701690674,0.1733697290109258,0.9609964598630352,-0.2154732957779039,0.1351533658174334,5.0
22.797183990478516,10.71646499633789,-0.5525665283203125,0.6869064762454583,-0.5102723362028004,-0.5174762176160211,0.1358561187623186,8.0
22.98939514160156,10.174437522888184,-0.6923232078552246,-0.0,-0.0,-1.0,0.1991125350592945,1.0
23.211368560791016,10.989631652832031,-0.5775980949401855,-0.1189464045809803,0.8798258737122285,-0.4601719078602813,0.2195339154606706,5.0
22.395111083984375,10.261192321777344,-0.552377462387085,0.4346639242652835,0.687417107053614,-0.5818290074174233,0.1982169403787501,3.0
22.59725570678711,9.970312118530272,-0.6546218395233154,-0.0,-0.0,-1.0,0.1184804366430317,1.0
22.56985855102539,9.708491325378418,-0.6996641159057617,-0.0,-0.0,-1.0,0.1220295498595366,1.0
22.85193634033203,10.141165733337402,-0.6798038482666016,-0.0,-0.0,-1.0,0.1753823566075217,1.0
22.73152732849121,11.129719734191896,-0.4651646614074707,-0.0,-0.0,-1.0,0.210950361154876,1.0
22.795127868652344,10.83290958404541,-0.5358479022979736,-0.0,-0.0,-1.0,0.1634269666253366,2.0
23.125431060791016,11.04637050628662,-0.5765082836151123,0.3020224955287014,0.9342440922106504,0.1896586100447682,0.2264160854116988,3.0
22.81167221069336,10.138859748840332,-0.4907269477844238,-0.0,-0.0,-1.0,0.0942457883623368,1.0
23.218585968017575,10.091562271118164,-0.5881180763244629,-0.0,-0.0,-1.0,0.2539058720000685,1.0
23.65507125854492,10.41432762145996,-0.6282048225402832,-0.0,-0.0,-1.0,0.1856019657043649,1.0
23.57854652404785,10.207674026489258,-0.6477870941162109,0.0867856373399811,-0.6213960066993304,-0.7786753213051117,0.2263446304864872,4.0
22.527172088623047,11.357563018798828,-0.2009010314941406,-0.0,-0.0,-1.0,0.1343035822945777,1.0
23.39759826660156,10.069029808044434,-0.5286355018615723,-0.2483156328015658,-0.3312013157581299,-0.9102994204911052,0.2077869043406896,5.0
22.889421463012695,11.01937198638916,-0.6855589151382446,-0.0,-0.0,-1.0,0.233139088266329,2.0
23.51413345336914,10.583053588867188,-0.6467152833938599,-0.0,-0.0,-1.0,0.1910903231783889,2.0
23.553279876708984,10.873318672180176,-0.6402686834335327,0.9935996937179918,0.039002004213317,0.106011755531435,0.2486940613343798,3.0
23.68080711364746,10.020480155944824,-0.6428142786026001,-0.0,-0.0,-1.0,0.1615263604874605,1.0
23.615013122558594,11.499438285827637,-0.8427110910415649,-0.5649602861545546,0.2597367803253584,-0.7831709136672407,0.1593991154742921,6.0
23.660675048828125,11.324496269226074,-0.8363758325576782,-0.0,-0.0,-1.0,0.0387290909335891,1.0
23.250701904296875,9.639107704162598,-0.8534806966781616,-0.509727377940387,-0.7912427784295013,0.337805958741376,0.2162022850825646,3.0
23.4807071685791,11.122233390808104,-0.7092998027801514,-0.6426038830256398,-0.48800580098838,-0.5906865393100292,0.1497475213540205,4.0
23.50779151916504,10.571697235107422,-0.7082135677337646,-0.0,-0.0,-1.0,0.0971333598126447,1.0
23.466495513916016,10.82634162902832,-0.7110352516174316,-0.0,-0.0,-1.0,0.1175236277136182,2.0
23.4786434173584,10.985909461975098,-0.6162035465240479,0.6307109846770634,-0.1332706444721138,-0.7644884493108293,0.1374064979779302,3.0
23.42620086669922,10.738375663757324,-0.6251742839813232,-0.0,-0.0,-1.0,0.1416458147720801,1.0
22.717872619628903,11.113773345947266,-0.6764974594116211,-0.9544324261306804,0.0419437493148412,-0.2954648301299442,0.2148069810637637,6.0
23.517913818359375,10.17585563659668,-0.6287252902984619,-0.0,-0.0,-1.0,0.1781859007952669,1.0
22.767515182495117,11.176438331604004,-0.6326979398727417,-0.6314376975223136,0.6768191093761675,0.3784208336375927,0.1732376652451653,5.0
23.446678161621097,10.947264671325684,-0.5904583930969238,-0.0715937029473444,-0.8668892887373221,-0.4933328519070946,0.1467420523332181,4.0
23.42317008972168,10.593562126159668,-0.6128098964691162,0.025077249962711,0.9974427944096492,-0.0669253570373577,0.2364760120165968,4.0
23.5487060546875,10.215493202209473,-0.6252708435058594,-0.0,-0.0,-1.0,0.2090336323323887,2.0
23.441694259643555,11.061614990234377,-0.6085375547409058,0.2143333558383879,-0.3372232810826157,-0.916701517000452,0.131965587561475,5.0
23.332035064697266,11.12763214111328,-0.6159471273422241,0.0638802120315082,0.9948104915023146,0.0791921997909676,0.1403262028448204,6.0
23.444974899291992,10.87597942352295,-0.6141736507415771,-0.1066132052012446,-0.7551595065705401,0.6468135311763783,0.1987760638785555,4.0
22.71613311767578,11.15451717376709,-0.6684186458587646,-0.7930716688405031,0.4739315922624451,0.3826567312071268,0.2038348161991537,9.0
23.608243942260746,10.332213401794434,-0.6178916692733765,-0.0,-0.0,-1.0,0.2245138348421114,2.0
23.39590072631836,10.458124160766602,-0.632035493850708,-0.0,-0.0,-1.0,0.1572831374438437,2.0
23.60556411743164,10.06935977935791,-0.6269696950912476,-0.0,-0.0,-1.0,0.178622358205273,2.0
23.43751335144043,9.70457649230957,-0.6540355682373047,-0.0,-0.0,-1.0,0.1533476021588392,2.0
23.410017013549805,10.84736442565918,-0.5625064373016357,-0.0,-0.0,-1.0,0.1038065473215996,2.0
23.392230987548828,11.022791862487791,-0.5571585893630981,0.8169378386143797,-0.5536438686720921,-0.1615271943725404,0.0968525610148902,4.0
22.697708129882812,11.213147163391112,-0.6106566190719604,-0.0,-0.0,-1.0,0.1975510060717155,1.0
23.423402786254883,10.585750579833984,-0.5718032121658325,0.025077249962711,0.9974427944096492,-0.0669253570373577,0.2209958180196886,4.0
