x,y,z,nx,ny,nz,curvature,density,label
36.96952819824219,-3.167412042617798,-0.7173688411712646,-0.1918757104449793,-0.0960197345909035,-0.9767107669675432,0.0717412725868623,5.0,0.0
36.995975494384766,-3.8940348625183105,-0.66481614112854,-0.5682379293217517,0.0294643455868911,-0.8223366147869523,0.0858632520127656,3.0,0.0
35.37392807006836,-2.0284204483032227,-0.761737585067749,-0.9832393720529742,-0.170774418315759,-0.0638469677728468,0.1201861028683712,4.0,0.0
35.60624313354492,-3.0124568939208984,-0.7170307636260986,-0.0,-0.0,-1.0,0.147181254322703,1.0,0.0
35.38226318359375,-3.2491137981414795,-0.639462947845459,-0.762043514704478,0.3617302887857329,0.5370669230848577,0.2492116706867864,9.0,0.0
37.55201721191406,-2.1787068843841553,-0.8070583343505859,-0.0,-0.0,-1.0,0.080628023562984,2.0,0.0
37.657623291015625,-3.2208409309387207,-0.7608052492141724,-0.0,-0.0,-1.0,0.0219573608261542,2.0,0.0
37.46318054199219,-2.9675679206848145,-0.7365409135818481,-0.013087582819106,0.8561968945848454,-0.516483874752368,0.0422740834306315,3.0,0.0
35.9833984375,-2.6959290504455566,-0.7560782432556152,-0.0,-0.0,-1.0,0.0211135643026244,2.0,0.0
35.58303451538086,-2.051650047302246,-0.7061511278152466,-0.0,-0.0,-1.0,0.1573427677600019,1.0,0.0
35.99372482299805,-3.5753188133239746,-0.7087433338165283,-0.0,-0.0,-1.0,0.0232496755921142,1.0,0.0
35.372459411621094,-3.3084921836853027,-0.5737228393554688,-0.0811892564354202,-0.7910262778258366,-0.6063709528238184,0.2044081312677707,8.0,0.0
37.70344924926758,-2.7821338176727295,-0.6111749410629272,-0.0,-0.0,-1.0,0.1334321442189128,1.0,0.0
35.85805130004883,-1.8910291194915771,-0.5748331546783447,-0.0237698941725731,-0.0813988598216761,-0.9963981221132224,0.11495321529758,3.0,0.0
35.50516128540039,-3.4855685234069824,-0.4702223539352417,-0.0,-0.0,-1.0,0.0923137503304747,1.0,0.0
35.416996002197266,-3.0255308151245117,-0.4475421905517578,-0.0,-0.0,-1.0,0.0885798572640347,2.0,0.0
37.52935028076172,-3.5565216541290283,-0.7815723419189453,-0.0,-0.0,-1.0,0.0112059741092877,2.0,0.0
37.544960021972656,-3.037775754928589,-0.7562662363052368,-0.0,-0.0,-1.0,0.0707517813424451,1.0,0.0
37.443241119384766,-2.616000175476074,-0.7185781002044678,-0.0,-0.0,-1.0,0.1348102188193022,2.0,0.0
37.187530517578125,-3.97717809677124,-0.7472800016403198,-0.0,-0.0,-1.0,0.0254156343929812,2.0,0.0
36.96863555908203,-3.651386260986328,-0.6859501600265503,-0.0,-0.0,-1.0,0.0792932197782315,2.0,0.0
36.69742202758789,-4.137948036193848,-0.6721583604812622,-0.0,-0.0,-1.0,0.0285066105542505,1.0,0.0
36.16382598876953,-1.9947162866592407,-0.7802870273590088,-0.0,-0.0,-1.0,0.1129370838010968,1.0,0.0
36.0731315612793,-2.8213186264038086,-0.8001954555511475,-0.0,-0.0,-1.0,0.0417766421890768,1.0,0.0
35.346858978271484,-3.2662627696990967,-0.6737531423568726,0.3128483037899545,-0.7211173820266988,-0.618155045400997,0.1714285171189976,5.0,0.0
35.24521255493164,-3.566448211669922,-0.6773872375488281,0.4913227946500913,-0.7950574408913608,0.3556481085855861,0.0248318837901787,3.0,0.0
37.6268424987793,-3.222959041595459,-0.7648555040359497,-0.0,-0.0,-1.0,0.0121421130282795,2.0,0.0
37.55780792236328,-2.4131317138671875,-0.7244099378585815,-0.3074696021983238,-0.9244925903136944,-0.2253350709034872,0.0945214690242345,3.0,0.0
37.36254119873047,-2.589807510375977,-0.69434654712677,-0.0,-0.0,-1.0,0.1088563113875187,1.0,0.0
36.97991180419922,-3.6168789863586426,-0.6710134744644165,-0.0,-0.0,-1.0,0.0525659611384377,2.0,0.0
36.26231002807617,-1.938620686531067,-0.8195325136184692,0.967279841425272,-0.2477560501038921,-0.0546502333866698,0.1048826650189462,3.0,0.0
35.77983093261719,-2.5940465927124023,-0.7444517612457275,0.1687862537763044,-0.3505534584614327,-0.921207616825268,0.0241024942577622,3.0,0.0
35.25749206542969,-3.352907657623291,-0.6869324445724487,-0.0,-0.0,-1.0,0.2116801142256229,2.0,0.0
36.63523864746094,-3.2204532623291016,-0.7570681571960449,0.4761534470788958,-0.7946310320237796,-0.3766157428729019,0.0162326879234544,3.0,0.0
35.25163269042969,-2.007693290710449,-0.7667518854141235,-0.0,-0.0,-1.0,0.1466685880710335,1.0,0.0
35.69127655029297,-4.115976333618164,-0.6876846551895142,0.984354527735639,0.0767730325469916,-0.1585940263688558,0.0163823216235216,3.0,0.0
35.476356506347656,-2.9993977546691895,-0.5491834878921509,-0.1480309019354287,-0.920334294125452,-0.3620381735795129,0.1336978744552484,3.0,0.0
35.83203887939453,-1.8909531831741333,-0.5287117958068848,0.4096657130769495,-0.7442019212876394,-0.527577012274929,0.1969017334095204,6.0,0.0
36.91865539550781,-3.2283406257629395,-0.75423264503479,0.8785985666356388,0.3392102897918254,-0.3361561214750468,0.0606321997304736,3.0,0.0
37.13319396972656,-2.716315269470215,-0.5684257745742798,-0.0,-0.0,-1.0,0.137028837960545,1.0,0.0
37.27934265136719,-2.464228630065918,-0.7669217586517334,-0.0,-0.0,-1.0,0.1179086282773731,1.0,0.0
36.926475524902344,-3.240323066711426,-0.7458847761154175,-0.0,-0.0,-1.0,0.0693295434238275,2.0,0.0
35.392173767089844,-3.2953615188598633,-0.6187969446182251,0.1014327737076913,-0.9880970407238988,-0.1156530610517417,0.2601449290071614,6.0,0.0
37.54265594482422,-4.340177536010742,-0.5003201961517334,-0.2051805013752204,0.052486432630075,-0.9773157812320346,0.0815571990577543,5.0,0.0
36.97721481323242,-3.476776123046875,-0.614930272102356,-0.0,-0.0,-1.0,0.0467701768792108,1.0,0.0
37.2076416015625,-3.2768454551696777,-0.7352011203765869,-0.0,-0.0,-1.0,0.0436796117236625,1.0,0.0
35.25260543823242,-4.007166385650635,-0.5972613096237183,-0.0,-0.0,-1.0,0.0744046634568098,2.0,0.0
35.63938903808594,-3.978849411010742,-0.6617287397384644,-0.0,-0.0,-1.0,0.0223568157995456,2.0,0.0
36.61601257324219,-3.2426939010620117,-0.7344495058059692,-0.0,-0.0,-1.0,0.0162925886920476,2.0,0.0
35.37782287597656,-3.277132034301758,-0.6522606611251831,-0.6357291539848233,0.4761993318485284,0.6075217190527067,0.2045158849802402,9.0,0.0
36.60882186889648,-2.968766212463379,-0.7197656631469727,0.6279031049478039,0.7746171124648387,0.0755382014185086,0.0239576872854974,3.0,0.0
36.17320251464844,-4.1292548179626465,-0.6132867336273193,0.2379675086046404,-0.1104312395100932,-0.9649748215309892,0.0286008449173089,3.0,0.0
36.37479019165039,-3.9176435470581055,-0.6417636871337891,-0.0,-0.0,-1.0,0.0420100350681452,1.0,0.0
36.21746826171875,-4.108403205871582,-0.6047568321228027,-0.0,-0.0,-1.0,0.0285367844927122,2.0,0.0
36.35888671875,-3.842687606811523,-0.621997594833374,-0.0,-0.0,-1.0,0.0511280338302138,2.0,0.0
36.618743896484375,-3.55418062210083,-0.6633024215698242,0.8148275775458406,-0.1931542488658186,-0.5465779496246249,0.0279389306221304,4.0,0.0
37.47747802734375,-2.6373233795166016,-0.6870063543319702,0.2119455533096587,-0.913513662395544,-0.3472346052007817,0.141941276470887,3.0,0.0
36.67781066894531,-2.415220260620117,-0.6829252243041992,-0.0,-0.0,-1.0,0.031864667031746,1.0,0.0
37.658538818359375,-2.4039459228515625,-0.7305557727813721,-0.0,-0.0,-1.0,0.0932527242170745,2.0,0.0
36.860450744628906,-3.7472238540649414,-0.713284969329834,-0.0,-0.0,-1.0,0.0864516480157949,2.0,0.0
37.239654541015625,-3.812630653381348,-0.7200970649719238,-0.0,-0.0,-1.0,0.0171407708658954,2.0,0.0
35.594566345214844,-2.475543975830078,-0.7409956455230713,-0.0,-0.0,-1.0,0.2102889495756915,1.0,0.0
35.38023376464844,-3.2617759704589844,-0.670405387878418,-0.8451647662774698,0.4156740572323952,0.336023207512679,0.1815166396766906,9.0,0.0
36.59540557861328,-2.470127582550049,-0.7373578548431396,-0.363559676996168,0.1360081177738404,-0.9215889285153436,0.030014226666898,3.0,0.0
37.35881042480469,-2.97367525100708,-0.7229652404785156,-0.0,-0.0,-1.0,0.0819550844445363,2.0,0.0
36.948341369628906,-3.771078586578369,-0.673112154006958,-0.4906095889585346,-0.4279864793218667,-0.7590321500039446,0.0958652387475835,3.0,0.0
37.05655288696289,-2.105588436126709,-0.7749693393707275,0.9544555778236814,0.2733598098078886,0.1195364561255578,0.0343981115459273,4.0,0.0
35.50251007080078,-3.222135066986084,-0.627755880355835,-0.260452142399611,-0.9030077181780308,0.3416749075222801,0.2446064541147633,4.0,0.0
36.84661865234375,-3.819278717041016,-0.6246337890625,-0.0,-0.0,-1.0,0.0801350730802786,2.0,0.0
35.42247772216797,-3.253480911254883,-0.6115725040435791,-0.4083166175945351,-0.8628452562485093,-0.2979523511664283,0.1846252334433649,4.0,0.0
35.977046966552734,-4.150110244750977,-0.5748639106750488,-0.0,-0.0,-1.0,0.0440178626070188,1.0,0.0
36.39578628540039,-3.763080596923828,-0.6073567867279053,-0.0,-0.0,-1.0,0.0529627836245811,1.0,0.0
36.985260009765625,-3.1479568481445312,-0.6525025367736816,-0.0,-0.0,-1.0,0.1178114297323618,2.0,0.0
35.508140563964844,-3.232813835144043,-0.6407017707824707,-0.7128406619872721,0.5169057770394007,0.4739900930197178,0.2143146972246153,5.0,0.0
37.346282958984375,-3.526280403137207,-0.69183349609375,-0.0,-0.0,-1.0,0.01325743649756,1.0,0.0
36.24275970458984,-2.8361053466796875,-0.6969351768493652,-0.0,-0.0,-1.0,0.0486644222914526,1.0,0.0
36.96530532836914,-2.205047607421875,-0.6964492797851562,-0.0,-0.0,-1.0,0.0427498684496743,1.0,0.0
35.941017150878906,-2.9138059616088867,-0.7480831146240234,-0.0,-0.0,-1.0,0.0377098860436249,1.0,0.0
35.467044830322266,-3.152878761291504,-0.5252962112426758,-0.323019377077323,-0.3548764074288744,-0.8773375732766457,0.072880219312486,4.0,0.0
35.377197265625,-3.2393176555633545,-0.5663585662841797,0.0725029221859684,0.6332065820997413,-0.7705794901631232,0.2115436385062492,5.0,0.0
36.95631408691406,-2.7509350776672363,-0.6544609069824219,-0.0,-0.0,-1.0,0.075404623492334,1.0,0.0
35.49260711669922,-3.290506362915039,-0.6629805564880371,-0.5757414100941061,0.0353148123663473,0.8168688344712268,0.1449652523173881,4.0,0.0
37.584171295166016,-2.4168825149536133,-0.7449941635131836,-0.3905588539146752,0.6771853315489933,-0.6236054909666332,0.1143617105403444,3.0,0.0
37.61824035644531,-2.9053094387054443,-0.8786101341247559,-0.0,-0.0,-1.0,0.1199795478470934,1.0,0.0
36.54668426513672,-4.326331615447998,-0.6295957565307617,0.2293461276750887,-0.9542703992043572,-0.1917507729392479,0.0331512926180455,3.0,0.0
36.66623306274414,-3.933861255645752,-0.6591596603393555,-0.7196882228165307,0.3156213849343253,-0.6184108693347182,0.0433180238559821,3.0,0.0
36.73316192626953,-3.5337822437286377,-0.6811070442199707,-0.0,-0.0,-1.0,0.0510251776288007,2.0,0.0
36.72492218017578,-3.1043715476989746,-0.6926050186157227,-0.0,-0.0,-1.0,0.0111703279529986,1.0,0.0
36.68265151977539,-2.713780641555786,-0.6979937553405762,-0.3963091094649356,-0.1878000154702526,-0.8987047590529843,0.0425958292705125,4.0,0.0
36.7700080871582,-2.4299652576446533,-0.7207140922546387,0.5369882261010831,-0.8155871203886425,-0.2155488206531735,0.0532654949211288,3.0,0.0
36.98954391479492,-2.2166640758514404,-0.7621307373046875,0.851530081238619,-0.2915366294619689,-0.4357785153351476,0.0520551759284567,4.0,0.0
35.698699951171875,-1.9568506479263303,-0.5677709579467773,-0.6028471551887526,0.3738579970233114,-0.7048443129816298,0.1307424702788516,3.0,0.0
35.53410720825195,-4.0453691482543945,-0.6435275077819824,-0.0,-0.0,-1.0,0.0325785058547151,2.0,0.0
35.53543472290039,-3.8281633853912354,-0.6494855880737305,-0.0,-0.0,-1.0,0.0257766021844757,2.0,0.0
35.549102783203125,-3.5044734477996826,-0.6606574058532715,0.3818267685989701,-0.8237279741789124,-0.4191426288703803,0.1237383969356034,4.0,0.0
35.72258377075195,-3.032028913497925,-0.7036356925964355,-0.0,-0.0,-1.0,0.0479805583802942,2.0,0.0
35.82007598876953,-2.603971481323242,-0.7333011627197266,0.1687862537763044,-0.3505534584614327,-0.921207616825268,0.0255627373956576,3.0,0.0
35.86061477661133,-2.227027416229248,-0.7523775100708008,-0.0,-0.0,-1.0,0.0228724814878397,1.0,0.0
35.749114990234375,-1.9479750394821167,-0.7429404258728027,-0.9490873304879168,-0.2119742974944041,-0.2330238964335493,0.1922797667092464,5.0,0.0
35.76525115966797,-4.29454231262207,-0.6852021217346191,-0.0,-0.0,-1.0,0.026195995713508,2.0,0.0
36.082122802734375,-3.933063268661499,-0.7527008056640625,-0.0,-0.0,-1.0,0.0575339320421494,1.0,0.0
36.10116958618164,-3.5272767543792725,-0.7687191963195801,-0.0,-0.0,-1.0,0.1001201859252697,1.0,0.0
36.18766021728515,-3.098055124282837,-0.7988414764404297,-0.0,-0.0,-1.0,0.1334680535421144,1.0,0.0
36.23283004760742,-2.6244781017303467,-0.8243374824523926,-0.0,-0.0,-1.0,0.0334190954053357,1.0,0.0
36.30883026123047,-2.788853406906128,-0.8319711685180664,-0.0,-0.0,-1.0,0.0887042973495338,1.0,0.0
35.40283203125,-2.1514463424682617,-0.6920533180236816,-0.0,-0.0,-1.0,0.2167734213949174,1.0,0.0
36.243431091308594,-2.420719623565674,-0.8341946601867676,-0.0,-0.0,-1.0,0.0202387680750769,1.0,0.0
36.258270263671875,-1.9462673664093015,-0.8563680648803711,-0.0,-0.0,-1.0,0.1048826650189462,2.0,0.0
37.17066955566406,-4.3308563232421875,-0.6814641952514648,-0.3696651048351381,-0.3740644655885025,-0.8505430534965378,0.0782943428041843,3.0,0.0
36.93024444580078,-3.961904525756836,-0.645331859588623,0.6224893932294905,-0.4370064866694744,-0.6492551778196177,0.0823724034914834,3.0,0.0
37.554840087890625,-3.684630870819092,-0.7601561546325684,-0.2249518231873376,0.6064303338051487,-0.7626525601384087,0.0156133321163754,6.0,0.0
36.919403076171875,-3.712578535079956,-0.6478900909423828,-0.0,-0.0,-1.0,0.093955113286168,1.0,0.0
37.2334098815918,-3.438997507095337,-0.7085933685302734,-0.0,-0.0,-1.0,0.0101636509035833,2.0,0.0
37.294864654541016,-3.234257221221924,-0.7238044738769531,-0.0,-0.0,-1.0,0.0402679963728519,1.0,0.0
37.3595085144043,-2.964933156967163,-0.7414593696594238,0.9391158053242252,-0.3229855851801861,-0.1172254919206782,0.0823168481806302,3.0,0.0
37.6052131652832,-2.621238946914673,-0.7934293746948242,-0.0,-0.0,-1.0,0.1068413339348247,2.0,0.0
37.6539421081543,-2.3547308444976807,-0.8092350959777832,-0.0,-0.0,-1.0,0.0808199533448833,1.0,0.0
37.61665344238281,-1.9698424339294431,-0.8138647079467773,-0.0,-0.0,-1.0,0.1150655077430281,1.0,0.0
37.11821365356445,-2.593827962875366,-0.4221658706665039,-0.0,-0.0,-1.0,0.1386224755489601,1.0,0.0
35.41834259033203,-2.27970552444458,-0.747553825378418,-0.0,-0.0,-1.0,0.1172665921977303,2.0,0.0
35.338584899902344,-2.0736312866210938,-0.7324590682983398,-0.0,-0.0,-1.0,0.0804794796594899,2.0,0.0
35.38266372680664,-1.8899242877960205,-0.7416610717773438,-0.7831917605403947,-0.6209185318688517,0.0327237376145679,0.1954647988771036,3.0,0.0
37.26581954956055,-4.355480194091797,-0.6289191246032715,0.2055652673144344,0.9742737518209706,-0.0923773640381383,0.0754099385340037,3.0,0.0
37.61432647705078,-2.8694474697113037,-0.6580243110656738,-0.3885055224636735,-0.7371739402118106,-0.5528454041482319,0.1517078880485784,4.0,0.0
35.359500885009766,-2.126941442489624,-0.7630443572998047,-0.0,-0.0,-1.0,0.0785212854616098,1.0,0.0
37.404930114746094,-4.289952754974365,-0.4930510520935058,-0.0,-0.0,-1.0,0.0714362379180593,2.0,0.0
35.40742874145508,-1.9201884269714355,-0.7231976985931396,-0.0,-0.0,-1.0,0.2201815118417592,2.0,0.0
35.36532974243164,-2.051825046539306,-0.7196590900421143,0.680406916813264,-0.6906307607588497,-0.2451032024399517,0.1679246595566975,3.0,0.0
37.4748649597168,-2.150113105773926,-0.833463191986084,-0.0,-0.0,-1.0,0.0843531242060855,1.0,0.0
36.78458786010742,-2.9053421020507812,-0.7771890163421631,-0.0,-0.0,-1.0,0.0578751631869607,1.0,0.0
36.832515716552734,-2.71448278427124,-0.7749900817871094,-0.0,-0.0,-1.0,0.0350357864657241,1.0,0.0
36.735862731933594,-2.693181037902832,-0.7617995738983154,-0.0,-0.0,-1.0,0.0421334826227681,1.0,0.0
36.236331939697266,-3.4198484420776367,-0.7316279411315918,-0.0,-0.0,-1.0,0.02092957175067,1.0,0.0
35.736026763916016,-3.9306211471557617,-0.6941680908203125,-0.0,-0.0,-1.0,0.0248175074456538,1.0,0.0
35.76482009887695,-3.6406679153442383,-0.6832306385040283,0.1990457826737845,0.6242705766911906,0.7554250614570773,0.0343571487410149,3.0,0.0
36.9466438293457,-2.079547882080078,-0.7996666431427002,-0.0,-0.0,-1.0,0.063844525741525,1.0,0.0
36.4433708190918,-2.2208471298217773,-0.7626676559448242,-0.0,-0.0,-1.0,0.0542556955556556,1.0,0.0
36.27916717529297,-2.377121925354004,-0.7603001594543457,-0.0,-0.0,-1.0,0.0234424081672597,1.0,0.0
36.07275390625,-2.5697717666625977,-0.7572481632232666,-0.0,-0.0,-1.0,0.0190057944448894,1.0,0.0
37.69865417480469,-4.03106689453125,-0.687699556350708,-0.0,-0.0,-1.0,0.0503096233833683,1.0,0.0
36.75931930541992,-4.174923896789551,-0.6134161949157715,-0.0,-0.0,-1.0,0.0295689165349238,2.0,0.0
36.91482925415039,-3.902188301086426,-0.607750415802002,-0.0,-0.0,-1.0,0.0754492798361591,1.0,0.0
37.51063919067383,-2.649587631225586,-0.7776787281036377,0.9880810187559146,0.1356000728973131,-0.0728595951437912,0.1561117562810064,6.0,0.0
37.156707763671875,-2.5996599197387695,-0.7420225143432617,-0.0,-0.0,-1.0,0.1676245999184476,1.0,0.0
36.6151237487793,-2.8781051635742188,-0.7200696468353271,-0.0,-0.0,-1.0,0.041086823864888,1.0,0.0
36.69643783569336,-2.6744518280029297,-0.7084658145904541,-0.5779055468434252,-0.3202777405758224,-0.7506312995201097,0.040165938662359,5.0,0.0
36.183555603027344,-3.074838638305664,-0.7009055614471436,-0.98728776018694,-0.155613076901572,0.0323643149515196,0.0353387406809434,3.0,0.0
35.78895950317383,-3.1765260696411133,-0.6764469146728516,-0.0,-0.0,-1.0,0.0331779469009376,2.0,0.0
35.726558685302734,-2.3332691192626953,-0.7343878746032715,0.7204064699230104,-0.2974341648890323,-0.6265360609333118,0.0708201229994189,3.0,0.0
35.6191291809082,-2.394777297973633,-0.7273619174957275,-0.4387412489305478,-0.3697364357278969,-0.8190244712962449,0.1940942437067548,3.0,0.0
35.46421432495117,-2.3435850143432617,-0.7086184024810791,-0.0,-0.0,-1.0,0.2539140339823632,1.0,0.0
36.41439056396485,-2.0468807220458984,-0.7854537963867188,-0.0,-0.0,-1.0,0.1123009749116094,2.0,0.0
35.440277099609375,-2.4002418518066406,-0.7473058700561523,-0.0,-0.0,-1.0,0.2226707319567707,1.0,0.0
35.6347770690918,-2.336650848388672,-0.755185604095459,-0.0,-0.0,-1.0,0.1317425693121394,2.0,0.0
35.451480865478516,-1.9725894927978516,-0.7185370922088623,-0.0,-0.0,-1.0,0.1873721646224682,2.0,0.0
36.60547637939453,-3.4665451049804688,-0.7237699031829834,-0.0,-0.0,-1.0,0.0294055800331635,1.0,0.0
37.21355438232422,-2.974571228027344,-0.7582094669342041,-0.0,-0.0,-1.0,0.0649296226879019,1.0,0.0
37.36294937133789,-2.773937225341797,-0.7646255493164062,-0.0,-0.0,-1.0,0.0785246351683843,2.0,0.0
37.65555191040039,-2.7587356567382812,-0.7874937057495117,-0.0,-0.0,-1.0,0.1797483660587451,1.0,0.0
35.69203567504883,-4.089282989501953,-0.670051097869873,0.7574927390713148,0.3894581460174879,-0.5239533402459212,0.021517960356926,4.0,0.0
36.145633697509766,-3.7670364379882817,-0.6961870193481445,-0.0,-0.0,-1.0,0.0336526948664175,2.0,0.0
36.46178436279297,-3.5375404357910156,-0.7144744396209717,-0.0,-0.0,-1.0,0.0307476801728148,2.0,0.0
36.68101501464844,-3.3162384033203125,-0.7255415916442871,-0.0,-0.0,-1.0,0.0302066348661583,1.0,0.0
36.76759719848633,-2.7623138427734375,-0.7171311378479004,-0.1404680503382353,0.9599385068608308,0.2424598727211849,0.0614711465757812,3.0,0.0
36.98075866699219,-2.0261688232421875,-0.9495582580566406,-0.0,-0.0,-1.0,0.0517375137087564,1.0,0.0
35.2496337890625,-2.3285446166992188,-0.8599460124969482,-0.0,-0.0,-1.0,0.0594424309785872,1.0,0.0
35.66334915161133,-2.0108680725097656,-0.8683514595031738,-0.0,-0.0,-1.0,0.1177247638657779,1.0,0.0
35.89897918701172,-4.2323150634765625,-0.6162910461425781,0.4828746888769846,-0.8693555465352582,-0.1051330992139862,0.0256659479258896,5.0,0.0
36.12555694580078,-3.909423828125,-0.6294302940368652,0.8109779469898107,-0.1891777636387129,-0.5536483931529527,0.0411967492995414,3.0,0.0
36.401092529296875,-3.6852951049804688,-0.6498322486877441,0.8012409744579158,-0.4719042101143272,-0.367857740609196,0.0343756608120657,3.0,0.0
36.28754806518555,-3.893619537353515,-0.6443016529083252,-0.0,-0.0,-1.0,0.0466801184083331,2.0,0.0
36.82432556152344,-3.2695579528808594,-0.6797270774841309,0.8572581358464153,0.4745110799141409,-0.1998692661812831,0.1001205211362198,3.0,0.0
36.71883773803711,-3.4989089965820312,-0.6753232479095459,-0.0,-0.0,-1.0,0.0454792136194232,2.0,0.0
36.98015594482422,-2.989219665527344,-0.6877541542053223,-0.0,-0.0,-1.0,0.0393479066223583,1.0,0.0
37.54773712158203,-2.674243927001953,-0.7345702648162842,0.705395361649161,-0.1099807837937677,-0.7002296844321572,0.1587944072736701,5.0,0.0
37.402061462402344,-2.8475074768066406,-0.7247166633605957,-0.0,-0.0,-1.0,0.0833115959614728,2.0,0.0
35.25019836425781,-3.0940418243408203,-0.7223854064941406,-0.0,-0.0,-1.0,0.0689069374590331,1.0,0.0
35.41621780395508,-3.0864200592041016,-0.7363932132720947,-0.0,-0.0,-1.0,0.1271668659431583,1.0,0.0
35.60057067871094,-3.118581771850586,-0.7535514831542969,-0.0,-0.0,-1.0,0.0467245255925297,1.0,0.0
35.84291076660156,-2.991994857788086,-0.7696528434753418,-0.0,-0.0,-1.0,0.0494313778219492,2.0,0.0
36.32050323486328,-2.476602554321289,-0.7915208339691162,-0.0,-0.0,-1.0,0.0251339235400721,1.0,0.0
36.20858001708984,-2.797769546508789,-0.7939879894256592,-0.0,-0.0,-1.0,0.0869413491693114,1.0,0.0
36.50937271118164,-2.2675724029541016,-0.8001577854156494,-0.0,-0.0,-1.0,0.020039430026649,1.0,0.0
36.82115936279297,-2.103586196899414,-0.8214027881622314,-0.0,-0.0,-1.0,0.0232977738016622,1.0,0.0
35.513427734375,-4.077014923095703,-0.6767535209655762,-0.0,-0.0,-1.0,0.0320438215327722,2.0,0.0
35.73661422729492,-4.059375762939453,-0.6977872848510742,-0.0,-0.0,-1.0,0.0255166202868052,2.0,0.0
36.29099655151367,-3.265003204345703,-0.7277853488922119,0.9058744977247029,-0.388963566051651,-0.1676267838276452,0.026174597938485,3.0,0.0
36.15696334838867,-3.553661346435547,-0.7233366966247559,-0.4778945345523778,-0.8417912914107106,0.251006445236083,0.0248350246405951,3.0,0.0
36.578670501708984,-3.2139892578125,-0.7544364929199219,-0.0,-0.0,-1.0,0.0113435964736343,1.0,0.0
36.79498672485352,-2.5793514251708984,-0.7570629119873047,-0.0,-0.0,-1.0,0.0459973873670795,2.0,0.0
36.67641830444336,-2.869050979614258,-0.7538576126098633,-0.5866868444462473,0.0430337831589301,-0.8086696730190487,0.0443138502061861,3.0,0.0
36.99800109863281,-2.2786788940429688,-0.7683777809143066,0.2045815363354056,0.0494142228075416,-0.9776014676620384,0.0512754509064639,5.0,0.0
37.295501708984375,-2.341093063354492,-0.7996535301208496,-0.0,-0.0,-1.0,0.0275630270677562,1.0,0.0
37.49559020996094,-2.2831478118896484,-0.8178627490997314,-0.0,-0.0,-1.0,0.0658960967009544,1.0,0.0
35.50974655151367,-2.4156570434570312,-0.7837526798248291,-0.0,-0.0,-1.0,0.1739257086122687,2.0,0.0
35.904415130615234,-4.116878509521484,-0.6405761241912842,0.4177200512378236,-0.8716279098180911,0.2564658761317295,0.0348143680684468,3.0,0.0
36.24806213378906,-3.8415603637695312,-0.6626408100128174,-0.3916261048938314,-0.8897091452656053,-0.2346201841198481,0.032638428481578,3.0,0.0
36.5984992980957,-3.575101852416992,-0.6859381198883057,0.8148275775458406,-0.1931542488658186,-0.5465779496246249,0.0304102574083442,4.0,0.0
36.97956085205078,-3.1338977813720703,-0.7061588764190674,0.6110514439204734,0.0804808616747981,-0.7874890245500487,0.0707954412390457,3.0,0.0
36.83870697021485,-3.367218017578125,-0.7011597156524658,-0.0,-0.0,-1.0,0.0606505783631403,1.0,0.0
37.37305450439453,-2.927398681640625,-0.7363567352294922,-0.0,-0.0,-1.0,0.0863427762660989,2.0,0.0
37.253170013427734,-3.1874427795410156,-0.7341506481170654,-0.0,-0.0,-1.0,0.0484573517786902,2.0,0.0
37.52972030639648,-2.7187728881835938,-0.7440073490142822,-0.6581235140893857,0.2881600287499618,-0.6955840984621913,0.1352199888789548,5.0,0.0
35.717689514160156,-3.0210189819335938,-0.744577169418335,-0.0,-0.0,-1.0,0.0479805583802942,2.0,0.0
36.07654571533203,-2.940286636352539,-0.7816123962402344,-0.0,-0.0,-1.0,0.0408890690002501,1.0,0.0
36.184837341308594,-2.7228050231933594,-0.7853991985321045,-0.0,-0.0,-1.0,0.0277322184790918,2.0,0.0
35.26749038696289,-3.159496307373047,-0.7000482082366943,-0.0,-0.0,-1.0,0.0882683739131017,2.0,0.0
35.466514587402344,-3.0554656982421875,-0.7179751396179199,-0.0488501701832603,-0.1292051189172184,-0.9904139024259778,0.2486907327988477,4.0,0.0
35.74797058105469,-1.9779167175292969,-0.7074577808380127,-0.9773419409456914,0.1984523211020238,-0.0736166198472067,0.2280904324970325,6.0,0.0
35.924354553222656,-2.8320541381835938,-0.7603492736816406,-0.0,-0.0,-1.0,0.0318431108359578,2.0,0.0
36.329612731933594,-2.365083694458008,-0.7881259918212891,-0.0,-0.0,-1.0,0.0233401830679889,2.0,0.0
36.63145446777344,-1.9356727600097656,-0.8064839839935303,-0.0,-0.0,-1.0,0.1257794017426641,1.0,0.0
36.46546173095703,-2.176546096801758,-0.7964882850646973,-0.0,-0.0,-1.0,0.0595753863659821,1.0,0.0
35.43788146972656,-4.241910934448242,-0.6112570762634277,-0.0,-0.0,-1.0,0.1100458046618579,1.0,0.0
35.691810607910156,-3.986095428466797,-0.6360757350921631,-0.0,-0.0,-1.0,0.0225880970786241,2.0,0.0
35.93955993652344,-3.651670455932617,-0.6582586765289307,0.6674962879916564,-0.3562814351797833,0.6538442050393916,0.0379597403533013,3.0,0.0
36.07565689086914,-3.706815719604492,-0.6773386001586914,-0.0,-0.0,-1.0,0.0220073399127589,1.0,0.0
36.34516525268555,-3.022178649902344,-0.6934504508972168,-0.6296494172422897,-0.5321917171932322,0.56596253190239,0.0164214072791395,4.0,0.0
36.32709503173828,-3.395101547241211,-0.7011947631835938,-0.0,-0.0,-1.0,0.0171007073635846,2.0,0.0
36.1669921875,-2.062061309814453,-0.644927978515625,-0.0,-0.0,-1.0,0.1163925307687899,1.0,0.0
36.470027923583984,-2.808799743652344,-0.7041056156158447,-0.0,-0.0,-1.0,0.0725211907343048,1.0,0.0
36.898048400878906,-2.5813560485839844,-0.7544221878051758,-0.0,-0.0,-1.0,0.0753903614935393,1.0,0.0
37.20090103149414,-2.0171680450439453,-0.7806038856506348,-0.0,-0.0,-1.0,0.0141883728755723,1.0,0.0
37.1898193359375,-2.4517860412597656,-0.7897546291351318,-0.0,-0.0,-1.0,0.0461776774894119,2.0,0.0
37.53790283203125,-2.075336456298828,-0.8269684314727783,-0.0,-0.0,-1.0,0.0921827514829446,2.0,0.0
37.44585418701172,-2.430990219116211,-0.8232216835021973,-0.0,-0.0,-1.0,0.0689764477664139,2.0,0.0
35.32905197143555,-3.819164276123047,-0.6363348960876465,-0.0,-0.0,-1.0,0.0263096892724537,2.0,0.0
35.53858947753906,-3.514066696166992,-0.6491692066192627,0.4630787208138542,-0.5986425045194167,-0.6535941019563474,0.1159247153267373,4.0,0.0
35.55926513671875,-3.2477893829345703,-0.6387910842895508,-0.0,-0.0,-1.0,0.1319866960887259,2.0,0.0
35.912025451660156,-3.2193870544433594,-0.6859374046325684,-0.1363116107338253,-0.5213651977725903,-0.8423760890069815,0.0127397853672893,4.0,0.0
36.18190002441406,-3.067506790161133,-0.7161569595336914,-0.9458861217105924,0.2402200002058332,0.2181600244233661,0.0342068265123896,3.0,0.0
36.36164474487305,-2.871835708618164,-0.7323417663574219,-0.0,-0.0,-1.0,0.0787470869459924,1.0,0.0
35.50581359863281,-2.055906295776367,-0.5744032859802246,-0.8235237597766822,-0.4485592519897476,-0.3472797352822014,0.1504553453368586,3.0,0.0
36.5032958984375,-2.5042991638183594,-0.7358608245849609,-0.0,-0.0,-1.0,0.0272313314908449,1.0,0.0
35.84307098388672,-1.947551727294922,-0.6169948577880859,-0.8319223390098107,0.0054530449156384,0.5548652864953737,0.1431307389777159,3.0,0.0
36.68746566772461,-2.2206344604492188,-0.7499158382415771,-0.0,-0.0,-1.0,0.0304053808592067,1.0,0.0
36.82511901855469,-2.217679977416992,-0.7696382999420166,0.3607580887139145,0.9262385641156357,-0.1092507380867029,0.0449153997887281,5.0,0.0
37.40480422973633,-4.324440002441406,-0.6932764053344727,-0.0,-0.0,-1.0,0.0952303601356088,1.0,0.0
37.59226989746094,-4.115314483642578,-0.7049102783203125,-0.0,-0.0,-1.0,0.106960730422641,1.0,0.0
37.64585876464844,-2.888765335083008,-0.6464316844940186,-0.0,-0.0,-1.0,0.2066974356046699,2.0,0.0
35.37601852416992,-3.672412872314453,-0.6727790832519531,-0.0,-0.0,-1.0,0.0128637581644471,1.0,0.0
35.325714111328125,-3.3458690643310547,-0.6416547298431396,-0.0,-0.0,-1.0,0.2108678101515264,1.0,0.0
35.52333068847656,-3.2812023162841797,-0.6600058078765869,0.0222976800840084,0.2369114903748426,-0.9712753261517776,0.2160118923125386,3.0,0.0
35.94350051879883,-3.2009506225585938,-0.7041552066802979,-0.1363116107338253,-0.5213651977725903,-0.8423760890069815,0.0095543811429818,4.0,0.0
36.192527770996094,-3.0212554931640625,-0.721005916595459,-0.0,-0.0,-1.0,0.034157986573891,2.0,0.0
36.403804779052734,-2.81195068359375,-0.7317545413970947,-0.0,-0.0,-1.0,0.0695258604905999,1.0,0.0
35.47184753417969,-2.378509521484375,-0.5856258869171143,-0.0,-0.0,-1.0,0.2207401557383876,1.0,0.0
36.564453125,-2.541994094848633,-0.7322499752044678,-0.0,-0.0,-1.0,0.026226120066903,2.0,0.0
36.78761291503906,-2.357696533203125,-0.7474086284637451,0.043683796376883,-0.2042702386013648,-0.9779393619012606,0.0336393781778717,4.0,0.0
37.092769622802734,-2.1489696502685547,-0.7718896865844727,-0.298890789034887,-0.4656802142949992,-0.8329503191933273,0.0337984640622117,3.0,0.0
37.48383331298828,-1.9744396209716797,-0.8109104633331299,-0.0,-0.0,-1.0,0.0925904764988807,2.0,0.0
35.454200744628906,-2.0651092529296875,-0.5601663589477539,-0.0,-0.0,-1.0,0.1729477644114437,2.0,0.0
35.48419952392578,-4.33405876159668,-0.6296215057373047,0.6782585101832065,-0.6151977074646287,0.4018671099932447,0.1165509896573072,3.0,0.0
35.56671142578125,-4.224836349487305,-0.6307926177978516,-0.0,-0.0,-1.0,0.009147324863281,2.0,0.0
35.72245407104492,-4.111637115478516,-0.640444278717041,0.7672953414054382,0.4782696140211365,-0.4272189548247893,0.0203532710515576,3.0,0.0
35.779972076416016,-3.7709426879882817,-0.6212809085845947,0.7412209586743993,0.6288176622027067,0.2349038912485853,0.0362068660410462,3.0,0.0
36.20682144165039,-3.6865310668945312,-0.6664769649505615,-0.0,-0.0,-1.0,0.0184241454332764,2.0,0.0
36.494686126708984,-3.525362014770508,-0.68988037109375,0.6247665586558552,-0.134708249665352,-0.7691036566402588,0.0238881064094489,3.0,0.0
35.399078369140625,-3.19466781616211,-0.5321335792541504,-0.6445417093533737,0.7384322057604351,-0.1982015701239768,0.123145529945277,4.0,0.0
36.68635940551758,-3.366252899169922,-0.7021305561065674,-0.0,-0.0,-1.0,0.0267952184061726,1.0,0.0
36.80793380737305,-3.103076934814453,-0.6984667778015137,-0.0,-0.0,-1.0,0.0648787018441769,2.0,0.0
36.76313018798828,-2.885047912597656,-0.677229642868042,-0.0,-0.0,-1.0,0.055084262967773,2.0,0.0
36.903079986572266,-2.7961883544921875,-0.688772439956665,-0.0,-0.0,-1.0,0.0676469524931162,2.0,0.0
37.40357971191406,-2.8037567138671875,-0.75390625,-0.0,-0.0,-1.0,0.056287507357198,2.0,0.0
37.187110900878906,-2.5093231201171875,-0.4510023593902588,-0.3186242081354922,-0.2905749547457797,-0.9022443181669356,0.2049311362911159,3.0,0.0
35.45245361328125,-2.631511688232422,-0.7151148319244385,-0.0,-0.0,-1.0,0.0673147476412925,1.0,0.0
35.65535354614258,-2.4756946563720703,-0.7228052616119385,-0.0,-0.0,-1.0,0.0930045763567319,1.0,0.0
36.006046295166016,-2.289278030395508,-0.7463757991790771,-0.0,-0.0,-1.0,0.0133783249185293,1.0,0.0
36.19279479980469,-2.172395706176758,-0.7577183246612549,-0.0,-0.0,-1.0,0.0295383558579093,1.0,0.0
35.6169319152832,-1.9485721588134768,-0.661156415939331,-0.0,-0.0,-1.0,0.1021748473752409,2.0,0.0
35.74281692504883,-1.973360061645508,-0.679523229598999,-0.9736676105527916,0.2238196136893193,0.0433147167644185,0.158689256470263,4.0,0.0
36.33722686767578,-1.9756107330322263,-0.7555332183837891,-0.0,-0.0,-1.0,0.1315451215781633,1.0,0.0
36.40983200073242,-1.960798263549805,-0.7634248733520508,-0.0,-0.0,-1.0,0.1050306164502377,2.0,0.0
36.652286529541016,-4.309003829956055,-0.6387624740600586,0.2211020968167874,-0.9141819858969013,-0.3396839110773685,0.0265941035030344,3.0,0.0
37.06428909301758,-4.311040878295898,-0.6801328659057617,0.5625468177157242,-0.4899620749037843,-0.6659416213407076,0.0326668614113523,3.0,0.0
37.413970947265625,-4.235862731933594,-0.7083597183227539,-0.0,-0.0,-1.0,0.1575354288300236,2.0,0.0
35.34884262084961,-4.021661758422852,-0.6346725225448608,-0.0,-0.0,-1.0,0.0732996460614188,1.0,0.0
35.6427001953125,-4.1002197265625,-0.6617821455001831,-0.0,-0.0,-1.0,0.0155099847096868,1.0,0.0
35.760498046875,-3.7419300079345703,-0.6374965906143188,0.9402689278943864,0.1726604103642225,0.2933985786080078,0.0323090940160611,5.0,0.0
36.16931915283203,-3.791667938232422,-0.6713138818740845,0.6960939277389199,-0.053611368092659,-0.7159462724089268,0.0338102385038678,3.0,0.0
36.56242370605469,-3.688644409179687,-0.6913520097732544,-0.0,-0.0,-1.0,0.0495311617256575,1.0,0.0
36.8978385925293,-3.626188278198242,-0.7116552591323853,-0.0,-0.0,-1.0,0.0576777764276878,2.0,0.0
37.52156829833984,-3.68890380859375,-0.7669473886489868,-0.0820196198772303,0.6561858792364098,-0.7501285715435284,0.0156133321163753,4.0,0.0
37.602901458740234,-3.686609268188477,-0.7734280824661255,-0.0593985920600924,0.1241618968951459,-0.9904825241369368,0.01490373421506,4.0,0.0
35.26656723022461,-3.2644996643066406,-0.5599228143692017,0.0039138749725017,-0.9020017942399762,-0.4317145408375344,0.1507760319325087,3.0,0.0
36.923614501953125,-3.395549774169922,-0.6934961080551147,-0.198443695608779,0.8997771624315493,-0.3886144074011659,0.0879841337046635,4.0,0.0
37.209007263183594,-3.324300765991211,-0.7100478410720825,-0.0,-0.0,-1.0,0.0292498773686677,1.0,0.0
37.18524932861328,-2.4792308807373047,-0.4600363969802856,-0.5336864109225316,-0.2732776957011361,-0.800311261840607,0.2119293198667678,3.0,0.0
35.53635787963867,-2.9352970123291016,-0.7097625732421875,-0.0,-0.0,-1.0,0.1757784735408774,2.0,0.0
35.949466705322266,-2.8490066528320312,-0.7355837821960449,-0.0,-0.0,-1.0,0.030964576595528,2.0,0.0
36.33238983154297,-2.543699264526367,-0.7415766716003418,-0.1347127131056772,-0.6595129356757757,-0.7395236119313755,0.0291727054675941,3.0,0.0
35.60969161987305,-1.9841175079345703,-0.6332429647445679,0.0516745806302833,-0.6232801426248292,-0.7802894344576611,0.0779280415241823,3.0,0.0
36.57899475097656,-2.185882568359375,-0.7325868606567383,-0.0,-0.0,-1.0,0.0646185136469584,1.0,0.0
36.80311584472656,-2.235576629638672,-0.7567901611328125,0.0266327105794832,-0.5126020901293233,-0.8582131413129482,0.0470060168269954,4.0,0.0
37.16139221191406,-2.085245132446289,-0.7770321369171143,-0.0,-0.0,-1.0,0.0175864393580249,2.0,0.0
37.47946548461914,-2.0517024993896484,-0.8041377067565918,-0.0,-0.0,-1.0,0.0899656873422213,2.0,0.0
35.45475769042969,-3.62615966796875,-0.6833944320678711,-0.0,-0.0,-1.0,0.0119074616467955,2.0,0.0
35.88017654418945,-3.532716751098633,-0.7021133899688721,-0.0,-0.0,-1.0,0.0264014293960686,1.0,0.0
36.091041564941406,-3.5237064361572266,-0.7152693271636963,-0.0,-0.0,-1.0,0.0259710169104305,1.0,0.0
35.27246856689453,-3.245519638061523,-0.6379673480987549,-0.0331984651137967,-0.998260343632852,-0.0487252321093291,0.2744442449800857,3.0,0.0
35.44807815551758,-3.4754371643066406,-0.6694080829620361,-0.0,-0.0,-1.0,0.039021185408038,1.0,0.0
35.72443389892578,-3.4201526641845703,-0.681959867477417,-0.3215743901328858,0.507309121349298,-0.7995169585483884,0.0242893657084832,4.0,0.0
36.27481842041016,-3.3679275512695312,-0.713982343673706,-0.0,-0.0,-1.0,0.0219884404155288,1.0,0.0
36.56795501708984,-3.4187965393066406,-0.7388861179351807,-0.0,-0.0,-1.0,0.0187143314685776,2.0,0.0
37.099422454833984,-3.2371749877929688,-0.7618319988250732,-0.6590179993453285,0.7520382856672229,-0.0115625874952421,0.032721123608694,5.0,0.0
36.76167297363281,-3.015615463256836,-0.7174479961395264,0.456308758048741,-0.2188635411955277,-0.862485401420435,0.0476327472911427,3.0,0.0
36.99374771118164,-2.8047122955322266,-0.7162094116210938,-0.0,-0.0,-1.0,0.0546545390818322,1.0,0.0
37.36116790771485,-2.876375198364258,-0.7505030632019043,-0.7105404453996631,0.2153482764348266,-0.6698935701197601,0.0527712518035734,3.0,0.0
36.85693359375,-2.5291595458984375,-0.6819901466369629,-0.2663391048194773,-0.7451808019852624,-0.6113665460233825,0.0641521220554248,4.0,0.0
37.44975662231445,-2.5483131408691406,-0.7291853427886963,-0.0,-0.0,-1.0,0.1310784781007947,1.0,0.0
36.384761810302734,-1.958322525024414,-0.5975161790847778,-0.0,-0.0,-1.0,0.1489472518006009,1.0,0.0
35.510833740234375,-3.1959667205810547,-0.6742825508117676,-0.8020334282920978,0.433283725689142,0.411105330730411,0.2296983447355768,3.0,0.0
35.90379333496094,-3.188915252685547,-0.700202226638794,-0.0552451878681038,-0.8103407251494871,-0.5833488479303113,0.0193091730395075,4.0,0.0
36.13768768310547,-3.154367446899414,-0.7132384777069092,-0.0,-0.0,-1.0,0.0389496553734639,1.0,0.0
36.32281494140625,-3.0127201080322266,-0.7131726741790771,-0.6296494172422897,-0.5321917171932322,0.56596253190239,0.0307046498561612,4.0,0.0
36.74321365356445,-2.8680458068847656,-0.7308671474456787,0.77170506732202,-0.2591695472589492,-0.5807774400259608,0.0598307562141363,3.0,0.0
37.167503356933594,-2.763507843017578,-0.7541337013244629,-0.0,-0.0,-1.0,0.0947226748459628,1.0,0.0
36.72011184692383,-2.5547847747802734,-0.6996119022369385,-0.0,-0.0,-1.0,0.0318368246989786,2.0,0.0
37.04938888549805,-2.679433822631836,-0.7368626594543457,-0.0,-0.0,-1.0,0.1275994978902303,1.0,0.0
37.52877426147461,-2.6760196685791016,-0.7753117084503174,0.5894345880989941,-0.6037001176613587,-0.5367616177487274,0.1587944072736701,5.0,0.0
35.708587646484375,-1.941572189331055,-0.5681239366531372,-0.6028471551887526,0.3738579970233114,-0.7048443129816298,0.1479551218472595,3.0,0.0
36.54576110839844,-1.9457778930664065,-0.6291313171386719,-0.0,-0.0,-1.0,0.1541808838226697,1.0,0.0
35.551761627197266,-4.050985336303711,-0.6422736644744873,-0.0,-0.0,-1.0,0.0348207474232519,2.0,0.0
36.57059860229492,-3.940362930297851,-0.6822619438171387,-0.0,-0.0,-1.0,0.038276899542351,1.0,0.0
37.0002326965332,-3.96044921875,-0.7077846527099609,-0.0,-0.0,-1.0,0.0685093362348342,1.0,0.0
36.63685607910156,-3.8968658447265625,-0.6817567348480225,-0.8828795535852205,0.2374796444384117,-0.405126045001512,0.0439919180805409,3.0,0.0
37.20457077026367,-3.886219024658203,-0.7126359939575195,-0.0,-0.0,-1.0,0.0208385950813725,2.0,0.0
37.48611831665039,-3.8802452087402344,-0.7288179397583008,-0.0,-0.0,-1.0,0.0106101479467562,1.0,0.0
37.658695220947266,-3.816202163696289,-0.7334475517272949,-0.0,-0.0,-1.0,0.0213411454099943,2.0,0.0
35.30178451538086,-3.9174880981445312,-0.6185886859893799,-0.0,-0.0,-1.0,0.0294559133032351,2.0,0.0
35.65095520019531,-3.935140609741211,-0.6359249353408813,-0.738047927340186,-0.0777848510339445,-0.6702497847060324,0.0252586377375103,3.0,0.0
36.107540130615234,-3.910245895385742,-0.6555402278900146,0.8109779469898107,-0.1891777636387129,-0.5536483931529527,0.0545853777905942,3.0,0.0
35.862632751464844,-3.7283687591552734,-0.6265237331390381,0.5052301391268791,-0.8374346551773519,-0.2084363327873143,0.0376253736337298,3.0,0.0
36.29801559448242,-3.808462142944336,-0.6556738615036011,-0.7228089856490497,-0.4287159132023952,-0.5419869334513777,0.0293478939807082,7.0,0.0
36.64877700805664,-3.792301177978515,-0.672696590423584,-0.0,-0.0,-1.0,0.0315903557080246,2.0,0.0
37.06621551513672,-3.650335311889648,-0.6827230453491211,-0.0,-0.0,-1.0,0.0277779618743241,2.0,0.0
37.24319839477539,-3.679584503173828,-0.6957278251647949,-0.0,-0.0,-1.0,0.0210863782294806,1.0,0.0
36.868553161621094,-3.473834991455078,-0.6550706624984741,-0.0,-0.0,-1.0,0.0775277281611274,2.0,0.0
37.66932678222656,-2.8233776092529297,-0.6425948143005371,-0.9680992001462042,-0.2292787893331486,-0.1010701510744147,0.1585023905339775,6.0,0.0
37.15925598144531,-2.611745834350586,-0.5917773246765137,-0.0,-0.0,-1.0,0.1359875405268733,1.0,0.0
36.60634994506836,-1.8740692138671875,-0.4914356470108032,-0.0,-0.0,-1.0,0.1442922019289244,2.0,0.0
35.965110778808594,-4.280086517333984,-0.62608802318573,-0.0,-0.0,-1.0,0.0495045325806127,1.0,0.0
36.510345458984375,-4.329143524169922,-0.6590654850006104,0.2293461276750887,-0.9542703992043572,-0.1917507729392479,0.028170901271277,3.0,0.0
37.067840576171875,-4.297039031982422,-0.6874345541000366,0.5625468177157242,-0.4899620749037843,-0.6659416213407076,0.0334472037899686,3.0,0.0
36.12861633300781,-4.207788467407227,-0.6277087926864624,-0.0,-0.0,-1.0,0.0248995878801565,1.0,0.0
36.561424255371094,-4.235845565795898,-0.6531769037246704,-0.0,-0.0,-1.0,0.0375667386317454,1.0,0.0
37.34981155395508,-4.2604827880859375,-0.7009071111679077,-0.0,-0.0,-1.0,0.0996796891102581,2.0,0.0
36.8594856262207,-3.8929386138916016,-0.63817298412323,-0.0,-0.0,-1.0,0.0666335387313248,1.0,0.0
35.339481353759766,-3.2451171875,-0.500625729560852,-0.0,-0.0,-1.0,0.1980621329888194,1.0,0.0
35.42496871948242,-3.055015563964844,-0.4565403461456299,-0.9631687795772256,-0.2678112170274658,0.0241465128328015,0.0885798572640347,3.0,0.0
37.478614807128906,-4.31458854675293,-0.4819381237030029,0.2469956517871805,0.8345100487706376,-0.4925303305371695,0.0851610058008379,3.0,0.0
37.538177490234375,-4.288190841674805,-0.4851782321929931,-0.7091603828230943,0.4491631020188316,-0.5434556644465334,0.0815571990577543,5.0,0.0
35.41000747680664,-3.183103561401367,-0.4892958402633667,-0.7646763932634055,0.644406144342401,-0.0032763881684426,0.074392698812318,4.0,0.0
35.34611511230469,-4.170869827270508,-0.6149189472198486,-0.0,-0.0,-1.0,0.1063611902139956,1.0,0.0
36.06779479980469,-4.262180328369141,-0.6020867824554443,0.1830312250130963,-0.6481966452955599,-0.7391486181396727,0.0328378278092915,3.0,0.0
35.441978454589844,-3.119050979614258,-0.5295991897583008,-0.0916198394664053,-0.1921765559101272,-0.977074191847616,0.0906162594973203,3.0,0.0
36.704776763916016,-2.089447021484375,-0.8138717412948608,-0.0,-0.0,-1.0,0.0546517432098691,1.0,0.0
37.145263671875,-2.213167190551758,-0.809869647026062,-0.0,-0.0,-1.0,0.0194857934864994,2.0,0.0
37.309104919433594,-2.221925735473633,-0.8051320314407349,-0.0,-0.0,-1.0,0.0261959639979815,1.0,0.0
37.01051330566406,-2.0047645568847656,-0.7949115037918091,-0.0,-0.0,-1.0,0.0605993982956253,2.0,0.0
37.49276351928711,-2.1921558380126953,-0.7961593866348267,-0.0,-0.0,-1.0,0.060167127280466,1.0,0.0
35.96905517578125,-3.504974365234375,-0.7286903858184814,-0.0,-0.0,-1.0,0.0205975536570644,2.0,0.0
36.418601989746094,-3.728696823120117,-0.7323169708251953,-0.0,-0.0,-1.0,0.0428494168052006,1.0,0.0
36.63096237182617,-3.867012023925781,-0.7372093200683594,-0.0,-0.0,-1.0,0.046594043192271,1.0,0.0
37.10350036621094,-4.142248153686523,-0.7465672492980957,-0.0,-0.0,-1.0,0.0255651751167361,1.0,0.0
35.42845153808594,-3.2204647064208984,-0.725182294845581,0.0960462568005643,-0.9953692408629397,-0.0038975503249525,0.09770983570325,3.0,0.0
35.68373107910156,-3.265810012817383,-0.7193331718444824,-0.3331626155715528,0.8710442119417618,-0.3609496535921274,0.0336781417336464,3.0,0.0
35.990516662597656,-3.383241653442383,-0.7179620265960693,0.8497382547863785,0.1971656701629502,-0.488948460332778,0.0216409376991819,3.0,0.0
36.88317108154297,-3.842893600463867,-0.7274086475372314,-0.0,-0.0,-1.0,0.0895989761700244,2.0,0.0
37.09363555908203,-3.950515747070313,-0.7304191589355469,-0.0,-0.0,-1.0,0.0461672603405674,1.0,0.0
37.50312042236328,-4.190343856811523,-0.7396061420440674,-0.0,-0.0,-1.0,0.072701322682665,2.0,0.0
35.982994079589844,-3.3431549072265625,-0.7148706912994385,0.8337894576160705,0.1962604356955404,-0.5160203307515082,0.0140342758548464,3.0,0.0
36.37978744506836,-3.5397720336914062,-0.7177870273590088,-0.0,-0.0,-1.0,0.02106983653181,1.0,0.0
37.06387710571289,-3.842071533203125,-0.7219393253326416,-0.0,-0.0,-1.0,0.0515397095200576,1.0,0.0
35.674129486083984,-2.559040069580078,-0.672217845916748,-0.0,-0.0,-1.0,0.042238980298538,1.0,0.0
35.292964935302734,-2.1597671508789062,-0.6561975479125977,-0.0,-0.0,-1.0,0.1440446651751044,1.0,0.0
35.578243255615234,-2.3567047119140625,-0.6599578857421875,-0.0,-0.0,-1.0,0.2196091854838408,2.0,0.0
35.40513229370117,-1.8770408630371096,-0.6293938159942627,-0.0,-0.0,-1.0,0.1230600627924429,1.0,0.0
35.52259826660156,-3.515371322631836,-0.6623823642730713,0.4630787208138542,-0.5986425045194167,-0.6535941019563474,0.1141912312939741,4.0,0.0
35.38768768310547,-3.2878856658935547,-0.6455798149108887,-0.9961514110075196,-0.0552473299340539,0.0680448299497147,0.2045158849802402,8.0,0.0
35.68583679199219,-3.3806838989257812,-0.6469528675079346,0.28061773957158,0.8479210822430597,-0.4497594051551289,0.037393114232962,3.0,0.0
35.97591018676758,-3.5707778930664062,-0.6575918197631836,-0.0,-0.0,-1.0,0.0219242080406611,2.0,0.0
36.291351318359375,-3.779596328735352,-0.6700667142868042,0.6782306518871826,-0.4150993087766424,-0.6063792103080718,0.0496355656729298,6.0,0.0
36.670536041259766,-3.965005874633789,-0.6800627708435059,-0.0,-0.0,-1.0,0.0443785841973291,2.0,0.0
37.03425979614258,-4.2193603515625,-0.6976006031036377,-0.0,-0.0,-1.0,0.0444828426275641,1.0,0.0
37.43721008300781,-4.234628677368164,-0.693268895149231,-0.0,-0.0,-1.0,0.1580645248254681,2.0,0.0
37.70659255981445,-4.24482536315918,-0.6907026767730713,-0.0,-0.0,-1.0,0.1282362082019083,1.0,0.0
35.287940979003906,-3.9868011474609375,-0.6058634519577026,-0.0,-0.0,-1.0,0.0744046634568098,2.0,0.0
35.463226318359375,-4.351676940917969,-0.6211943626403809,0.6782585101832065,-0.6151977074646287,0.4018671099932447,0.1165509896573073,3.0,0.0
35.44873809814453,-3.2480716705322266,-0.5502529144287109,-0.0,-0.0,-1.0,0.1652375317924985,1.0,0.0
35.500972747802734,-2.065643310546875,-0.7181094884872437,-0.0,-0.0,-1.0,0.1643751280457323,2.0,0.0
35.64510726928711,-2.4106292724609375,-0.7341219186782837,-0.4344147166334034,-0.3597842553874413,-0.8257355167047282,0.1686896845290295,3.0,0.0
35.70661163330078,-2.1848697662353516,-0.7141424417495728,-0.0,-0.0,-1.0,0.0611998946675266,1.0,0.0
35.85588836669922,-2.4647607803344727,-0.7255493402481079,0.0723847285928998,-0.7373481907051344,-0.671623478394254,0.0175003638646807,3.0,0.0
36.024078369140625,-2.734304428100586,-0.7356117963790894,-0.0,-0.0,-1.0,0.0229629393603883,1.0,0.0
36.22757339477539,-2.9094009399414062,-0.7370339632034302,-0.0,-0.0,-1.0,0.0274742677273827,1.0,0.0
36.66928482055664,-2.6933345794677734,-0.695846438407898,-0.3963091094649356,-0.1878000154702526,-0.8987047590529843,0.0322476561733311,4.0,0.0
36.5470085144043,-2.894336700439453,-0.7179852724075317,-0.0,-0.0,-1.0,0.0228655325362276,1.0,0.0
36.933292388916016,-2.9096107482910156,-0.6978775262832642,-0.0,-0.0,-1.0,0.0547955825712478,2.0,0.0
37.09966278076172,-3.2353477478027344,-0.7143198251724243,-0.6590179993453285,0.7520382856672229,-0.0115625874952421,0.0636281194371006,5.0,0.0
37.38697814941406,-3.544614791870117,-0.7238563299179077,-0.0,-0.0,-1.0,0.0121122466267714,1.0,0.0
37.480167388916016,-3.79793930053711,-0.7394787073135376,-0.0,-0.0,-1.0,0.0097951109182493,1.0,0.0
37.67543411254883,-2.1108150482177734,-0.8408517837524414,-0.0,-0.0,-1.0,0.1222707400701917,1.0,0.0
35.369178771972656,-3.2292251586914062,-0.5412147045135498,0.0437511781026292,0.5219998718229328,-0.8518227328684491,0.2108623619000176,5.0,0.0
37.58378601074219,-4.316629409790039,-0.5016942024230957,-0.0158892134163457,-0.0346560613612432,-0.9992729808755638,0.0772487177193011,4.0,0.0
37.57978439331055,-1.9349479675292969,-0.8172019720077515,-0.0,-0.0,-1.0,0.1203028606659833,2.0,0.0
37.62522888183594,-2.1614389419555664,-0.8313978910446167,-0.0,-0.0,-1.0,0.0799832279207014,1.0,0.0
36.96039581298828,-2.2887487411499023,-0.69045090675354,-0.0,-0.0,-1.0,0.0679810125251154,1.0,0.0
36.02118682861328,-2.195296287536621,-0.7585347890853882,-0.0,-0.0,-1.0,0.0734636860594952,2.0,0.0
35.75706481933594,-1.960161209106445,-0.7627424001693726,-0.9462950998190346,-0.2315268449028154,-0.2256566067010461,0.2312560400745037,4.0,0.0
36.28156280517578,-2.43524169921875,-0.7558408975601196,-0.0,-0.0,-1.0,0.0285572755819147,1.0,0.0
35.9842643737793,-2.3291015625,-0.771814227104187,-0.0,-0.0,-1.0,0.0099283855643663,2.0,0.0
35.75899124145508,-2.1900510787963867,-0.7797719240188599,-0.0,-0.0,-1.0,0.0366697149081941,1.0,0.0
37.09654998779297,-2.950115203857422,-0.7334104776382446,-0.0,-0.0,-1.0,0.0494373546393535,1.0,0.0
36.66395568847656,-2.9249839782714844,-0.7644151449203491,-0.0,-0.0,-1.0,0.0448893645337788,2.0,0.0
36.387428283691406,-2.7038469314575195,-0.7684255838394165,-0.0,-0.0,-1.0,0.0351622444188002,2.0,0.0
37.5010986328125,-3.3015260696411133,-0.7325743436813354,-0.0,-0.0,-1.0,0.0068445558844099,1.0,0.0
