x,y,z,nx,ny,nz,curvature,density
33.73024368286133,25.79235076904297,-2.213087558746338,-0.0,-0.0,-1.0,0.1493140448557098,1.0
34.7855339050293,26.67883682250977,-2.5037832260131836,-0.0,-0.0,-1.0,0.0501530137919229,1.0
34.6617546081543,26.60093688964844,-2.4965500831604004,-0.0,-0.0,-1.0,0.0630133537055813,1.0
34.3524284362793,26.376419067382812,-2.4752297401428223,-0.0,-0.0,-1.0,0.0602191417716285,1.0
32.7715950012207,25.66370010375977,-2.419525146484375,-0.0,-0.0,-1.0,0.0220161522468141,1.0
35.163856506347656,26.93037986755371,-2.3269059658050537,-0.0,-0.0,-1.0,0.0502784296791501,2.0
34.861019134521484,27.063289642333984,-2.322659492492676,-0.0,-0.0,-1.0,0.0578306515880649,1.0
34.49561309814453,26.912887573242188,-2.285322904586792,-0.0,-0.0,-1.0,0.0562403663401905,1.0
34.188392639160156,26.738679885864254,-2.249020576477051,0.3850551877891157,0.0483560306926297,-0.9216258441755752,0.069690975590358,3.0
33.66432189941406,27.418386459350582,-2.288752794265747,-0.0,-0.0,-1.0,0.2067314977560911,1.0
33.539283752441406,27.643970489501953,-2.304863214492798,-0.0,-0.0,-1.0,0.2670123275914919,1.0
33.70713806152344,26.51943588256836,-2.1978085041046143,-0.0,-0.0,-1.0,0.1668756252186352,1.0
33.867774963378906,26.761005401611328,-2.2323927879333496,-0.0,-0.0,-1.0,0.136795111926177,2.0
33.309471130371094,27.28386116027832,-2.2539219856262207,-0.0,-0.0,-1.0,0.211576974725539,1.0
33.050540924072266,27.04686164855957,-2.2141003608703613,-0.0,-0.0,-1.0,0.1824854344577126,1.0
32.946346282958984,27.04043197631836,-2.207336902618408,-0.0,-0.0,-1.0,0.1288749274115524,1.0
33.47412109375,25.856258392333984,-2.11513352394104,-0.0,-0.0,-1.0,0.1432167670403529,1.0
34.60003662109375,27.54276466369629,-2.202023506164551,-0.0,-0.0,-1.0,0.0970848175449664,2.0
34.41729736328125,27.43380546569824,-2.190889358520508,-0.0,-0.0,-1.0,0.1433185823502342,1.0
34.25063705444336,27.654096603393555,-2.2203683853149414,-0.0,-0.0,-1.0,0.2141396413021193,2.0
33.92735290527344,26.91937255859375,-2.13381290435791,-0.0,-0.0,-1.0,0.0924617672959929,2.0
33.83847427368164,26.99708366394043,-2.1447067260742188,-0.0,-0.0,-1.0,0.1123654090833048,1.0
33.690406799316406,27.301427841186523,-2.184630870819092,-0.0,-0.0,-1.0,0.12005620829789,2.0
33.56626892089844,27.477113723754883,-2.20833158493042,-0.0,-0.0,-1.0,0.2030781133130841,2.0
33.498653411865234,25.889156341552734,-2.0122179985046387,0.224060727473535,0.2608212953080045,-0.9390255812904597,0.2093217610401547,5.0
33.09566116333008,26.96554946899414,-2.1522207260131836,-0.0,-0.0,-1.0,0.08992920336555,1.0
34.324249267578125,27.55559730529785,-2.1465868949890137,-0.0,-0.0,-1.0,0.2412613909825951,1.0
33.769805908203125,27.17886734008789,-2.1065244674682617,-0.0,-0.0,-1.0,0.1310776531101763,1.0
33.60824966430664,26.915679931640625,-2.0762033462524414,-0.0,-0.0,-1.0,0.1288706533265844,2.0
33.56945037841797,27.42829704284668,-2.1395926475524902,-0.7948373105592358,0.5915297116051441,-0.1353744807240126,0.1805401023744086,3.0
33.12190628051758,27.024662017822266,-2.096052408218384,0.3931287637159895,-0.6808334919462992,-0.6179931483304214,0.0872196160501704,4.0
35.15760803222656,27.470521926879883,-2.2987895011901855,-0.0,-0.0,-1.0,0.041110598766304,1.0
34.64046859741211,27.29709815979004,-2.2778878211975098,-0.0,-0.0,-1.0,0.0187034392853384,2.0
34.15080642700195,26.958051681518555,-2.2347826957702637,-0.0,-0.0,-1.0,0.06571748070816,1.0
34.427120208740234,27.240325927734375,-2.271556854248047,-0.0,-0.0,-1.0,0.025526840452671,1.0
33.966278076171875,26.806520462036133,-2.2154321670532227,0.2571726491417953,0.1005687932119437,-0.9611181750259872,0.095280551485836,3.0
33.707210540771484,27.623138427734375,-2.3311519622802734,-0.0,-0.0,-1.0,0.1862270598208486,1.0
33.5998420715332,26.692365646362305,-2.203144073486328,-0.0,-0.0,-1.0,0.1976270915574467,1.0
33.43657684326172,27.51532745361328,-2.3192830085754395,-0.0,-0.0,-1.0,0.209742492012338,2.0
33.067562103271484,27.170106887817383,-2.275847911834717,-0.0,-0.0,-1.0,0.2071898132974968,1.0
33.211238861083984,27.38661003112793,-2.304147720336914,-0.0,-0.0,-1.0,0.2506222747143274,1.0
32.72856140136719,27.073305130004883,-2.26711368560791,-0.0,-0.0,-1.0,0.06111465557609,2.0
33.578773498535156,25.9285945892334,-2.097525119781494,0.4226460535428705,0.0665434639289437,-0.9038485939763222,0.173554860149921,3.0
33.635066986083984,26.473913192749023,-2.172506332397461,-0.0,-0.0,-1.0,0.147631822381832,1.0
32.75774383544922,26.659969329833984,-2.208907127380371,0.9654437113054604,-0.2603277145788694,-0.0121622910210981,0.132977489750285,4.0
33.540225982666016,27.202587127685547,-2.072585105895996,0.4529780580921944,-0.6011103244003797,-0.6583898972389346,0.1009631590832223,3.0
33.46202087402344,27.423236846923828,-2.104684829711914,-0.0,-0.0,-1.0,0.1584171584828857,2.0
33.27982711791992,27.268653869628903,-2.086397409439087,-0.0,-0.0,-1.0,0.130466335913881,1.0
33.275306701660156,27.034156799316406,-1.9258944988250732,-0.3014119589579007,0.2431911516101241,-0.9219592695860824,0.2141456684394687,3.0
33.384098052978516,27.113800048828125,-1.9368791580200195,-0.4046759811218959,0.4704992874953629,-0.7841350462575861,0.2701642605985271,5.0
35.126853942871094,26.93281364440918,-2.3855350017547607,-0.0,-0.0,-1.0,0.0488227545329904,1.0
34.63169479370117,26.91299819946289,-2.360939264297486,-0.0,-0.0,-1.0,0.0474345438792035,1.0
34.50208282470703,26.13445281982422,-2.242164373397827,-0.1423167547359144,-0.3244043011846756,-0.9351512127427946,0.0927114611053818,3.0
34.230987548828125,26.767240524291992,-2.323498010635376,-0.0,-0.0,-1.0,0.0621461413389066,1.0
33.806724548339844,26.517690658569336,-2.2707979679107666,0.7962095102921771,0.5715263207495755,-0.198514685629918,0.1648992029091609,3.0
33.85213088989258,26.771697998046875,-2.310072898864746,-0.0,-0.0,-1.0,0.1249971728577263,1.0
33.66529083251953,27.228193283081055,-2.371464252471924,-0.0,-0.0,-1.0,0.1661660892300627,1.0
33.64632797241211,26.790359497070312,-2.3056490421295166,-0.0,-0.0,-1.0,0.208049871986004,2.0
33.42398452758789,27.281749725341797,-2.3719515800476074,-0.0,-0.0,-1.0,0.1051188866012366,1.0
33.29058074951172,27.448549270629883,-2.3930299282073975,-0.0,-0.0,-1.0,0.1298887794722346,1.0
32.924015045166016,26.90999984741211,-2.301697015762329,-0.0,-0.0,-1.0,0.1096334301607264,2.0
32.775028228759766,27.255605697631836,-2.3501274585723877,-0.0,-0.0,-1.0,0.0913829927332998,2.0
32.78010177612305,26.71178817749023,-2.267955780029297,0.5545370010527729,0.8086298122792023,-0.1964854731441974,0.1324333153260286,3.0
33.515132904052734,25.92403221130371,-2.172555685043335,0.7758661724309687,0.4985964627921774,-0.3865659707843501,0.1709580458110861,3.0
33.14539337158203,26.293672561645508,-2.2154366970062256,-0.0,-0.0,-1.0,0.0620073850126674,2.0
34.59947967529297,25.681581497192383,-2.273543357849121,-0.0,-0.0,-1.0,0.0328890132746313,1.0
34.3345947265625,25.84240341186523,-2.300436019897461,-0.0,-0.0,-1.0,0.0563466472466916,1.0
34.23473358154297,26.1030330657959,-2.345968723297119,-0.0,-0.0,-1.0,0.084515210447103,1.0
33.887107849121094,26.065200805664062,-2.338787078857422,-0.0,-0.0,-1.0,0.0492784899241777,1.0
33.518062591552734,25.848512649536133,-2.300543785095215,-0.0,-0.0,-1.0,0.160632224386981,1.0
32.96575164794922,25.65852165222168,-2.2682900428771973,-0.0,-0.0,-1.0,0.0183181260922629,2.0
33.31090545654297,27.033496856689453,-1.866301417350769,-0.0,-0.0,-1.0,0.167028870617449,2.0
35.09992218017578,27.555007934570312,-2.292381525039673,-0.0,-0.0,-1.0,0.0340607719229114,2.0
34.66460418701172,27.494068145751953,-2.2586452960968018,-0.0,-0.0,-1.0,0.0268978266373886,1.0
34.291664123535156,27.36223602294922,-2.217496395111084,0.2777426912115152,-0.4463480796484835,-0.8506658505386799,0.1480796600738423,3.0
34.359642028808594,27.503421783447266,-2.243786096572876,0.0414687776679532,0.9374620833456008,0.3456084240409245,0.1968418935142948,4.0
33.756561279296875,26.92426300048828,-2.119096279144287,-0.0,-0.0,-1.0,0.1211066968725243,1.0
33.80012130737305,27.18672561645508,-2.16377329826355,-0.0,-0.0,-1.0,0.1757345104912678,1.0
33.77938461303711,27.82696533203125,-2.2663638591766357,-0.0,-0.0,-1.0,0.1236084948939896,1.0
33.696720123291016,26.972187042236328,-2.123777389526367,-0.0,-0.0,-1.0,0.1009499030213365,1.0
33.672637939453125,27.08800888061523,-2.1412832736968994,-0.0,-0.0,-1.0,0.1153206473507755,2.0
33.572792053222656,27.49231338500977,-2.201878309249878,-0.0,-0.0,-1.0,0.1942591529258328,2.0
33.116416931152344,27.240570068359375,-2.1388587951660156,-0.0,-0.0,-1.0,0.1696279380786246,1.0
34.75030517578125,25.85010528564453,-2.3212103843688965,-0.0,-0.0,-1.0,0.0675582235416688,1.0
34.914493560791016,26.119369506835938,-2.3816332817077637,-0.0,-0.0,-1.0,0.0204157334094783,1.0
34.53628158569336,26.13208770751953,-2.3587074279785156,-0.0,-0.0,-1.0,0.0809161969201635,2.0
34.159122467041016,26.18785095214844,-2.3447694778442383,-0.0,-0.0,-1.0,0.0737242582635482,2.0
33.70100402832031,26.24065399169922,-2.3264718055725098,-0.0,-0.0,-1.0,0.0240315003348824,1.0
33.328460693359375,26.374038696289062,-2.329792022705078,-0.0,-0.0,-1.0,0.0505036489978359,1.0
32.99711608886719,26.430679321289062,-2.3220882415771484,-0.0,-0.0,-1.0,0.0525086415222938,1.0
34.08021545410156,25.79593849182129,-2.3872551918029785,-0.0,-0.0,-1.0,0.0615298204005224,1.0
33.949947357177734,25.814037322998047,-2.384352207183838,-0.0,-0.0,-1.0,0.0490303548112903,1.0
33.38771438598633,27.1851749420166,-1.9937970638275144,-0.9644799182527296,0.0835571458573327,-0.2505926787904711,0.0983801821997028,3.0
34.4263916015625,25.925201416015625,-2.3656930923461914,-0.0,-0.0,-1.0,0.0577963643634961,1.0
34.06300735473633,26.070232391357425,-2.378093004226685,-0.0,-0.0,-1.0,0.0758992118161401,1.0
33.641204833984375,26.04115867614746,-2.3500349521636963,-0.0,-0.0,-1.0,0.0646739217630005,2.0
33.24161911010742,26.09465789794922,-2.343714952468872,-0.0,-0.0,-1.0,0.0592618369610913,2.0
32.98049545288086,26.1383056640625,-2.3425774574279785,-0.0,-0.0,-1.0,0.0469335604434445,1.0
34.27513885498047,27.582653045654297,-2.075392246246338,-0.0,-0.0,-1.0,0.2395956136314186,2.0
33.998573303222656,27.486358642578125,-2.0487146377563477,-0.0,-0.0,-1.0,0.1452187349285398,1.0
33.41162872314453,27.05506134033203,-1.9478719234466553,-0.3651018492998653,-0.4937551774427398,-0.789244236207213,0.18449167199699,7.0
33.3415641784668,27.238203048706055,-1.983078956604004,-0.8292445495378954,0.1451434607308161,-0.5397099710666603,0.1929924395016132,3.0
34.93186950683594,26.004653930664062,-2.402462959289551,-0.0,-0.0,-1.0,0.033044935668524,2.0
34.74546432495117,26.031829833984375,-2.3931403160095215,-0.0,-0.0,-1.0,0.0749729224975396,1.0
34.55964660644531,26.10775375366211,-2.3952152729034424,-0.0,-0.0,-1.0,0.0663957597781597,2.0
34.192630767822266,26.18324089050293,-2.3842811584472656,-0.0,-0.0,-1.0,0.0787738653200663,1.0
33.80791473388672,26.18743133544922,-2.3576443195343018,-0.0,-0.0,-1.0,0.0271817316824186,1.0
33.681846618652344,26.33429718017578,-2.382941246032715,-0.0,-0.0,-1.0,0.0462071836349312,2.0
33.29376983642578,26.39118194580078,-2.3712172508239746,-0.0,-0.0,-1.0,0.0503650881742446,1.0
32.92129898071289,26.430130004882812,-2.358317613601685,-0.0,-0.0,-1.0,0.0124487537600704,2.0
32.895294189453125,26.463546752929688,-2.3648343086242676,-0.0,-0.0,-1.0,0.0155231181358071,2.0
34.302215576171875,27.612567901611328,-2.087709903717041,-0.0,-0.0,-1.0,0.1962736170339455,2.0
33.442604064941406,27.120792388916016,-1.9511847496032717,-0.0,-0.0,-1.0,0.1570040722431979,1.0
33.298255920410156,27.100791931152344,-1.9414219856262207,-0.3776328368455009,-0.8619975176611141,-0.3381622688622972,0.1897776095182435,8.0
34.992431640625,27.61603546142578,-2.3178577423095703,-0.0,-0.0,-1.0,0.0283438342307896,2.0
34.90340805053711,27.692947387695312,-2.3223800659179688,-0.0,-0.0,-1.0,0.0131596824249729,1.0
34.5357666015625,27.499652862548828,-2.249147891998291,-0.0,-0.0,-1.0,0.1120686946282583,2.0
34.53852462768555,27.602291107177734,-2.2682604789733887,-0.0,-0.0,-1.0,0.0831726527883736,2.0
34.32160949707031,27.40590476989746,-2.2101516723632812,0.6545538033537847,0.0233941825297162,-0.7556533800221243,0.2109619591848953,3.0
34.287322998046875,27.708290100097656,-2.262500762939453,0.0092171425339179,0.8258048086958089,-0.5638807163030033,0.1843492838192496,3.0
33.5523567199707,26.957305908203125,-2.05081558227539,-0.5824748018278563,0.3697182933259562,-0.7239001925788817,0.0647973161757947,6.0
33.484275817871094,27.315380096435547,-2.1115846633911133,-0.0,-0.0,-1.0,0.1665749630873678,2.0
33.1017951965332,27.959850311279297,-2.2003040313720703,-0.0,-0.0,-1.0,0.1054378951467055,1.0
33.321128845214844,26.96156120300293,-2.0294265747070312,-0.0,-0.0,-1.0,0.1927000945546183,1.0
33.15803146362305,25.707231521606445,-2.3205575942993164,-0.0,-0.0,-1.0,0.0160954245690794,1.0
32.998809814453125,25.83209228515625,-2.327756881713867,-0.0,-0.0,-1.0,0.019563381784244,1.0
32.80079650878906,25.947208404541016,-2.329249858856201,-0.0,-0.0,-1.0,0.0175887436420414,1.0
35.16514587402344,27.311790466308594,-2.3263163566589355,-0.0,-0.0,-1.0,0.0565807669975402,2.0
34.88511657714844,27.32627296447754,-2.29764986038208,-0.0,-0.0,-1.0,0.0522212470104034,1.0
34.59952163696289,27.364891052246097,-2.2733263969421387,-0.0,-0.0,-1.0,0.0355194383562852,2.0
34.40657424926758,27.454010009765625,-2.269327163696289,-0.0,-0.0,-1.0,0.1443203124676145,2.0
34.03622055053711,27.804452896118164,-2.297431468963623,-0.0,-0.0,-1.0,0.0655945588578702,1.0
34.128684997558594,27.323251724243164,-2.21529769897461,-0.0,-0.0,-1.0,0.1124262357855582,1.0
33.65742492675781,27.13699722290039,-2.1311864852905273,-0.2494077448269221,-0.5438790675360687,-0.8012436188304062,0.1376152561579144,3.0
33.48124313354492,27.455562591552734,-2.17495059967041,-0.0,-0.0,-1.0,0.2470792163225025,1.0
33.210105895996094,27.399417877197266,-2.1376290321350098,-0.0,-0.0,-1.0,0.2335084375175989,1.0
32.90592956542969,25.79959487915039,-2.32336950302124,-0.0,-0.0,-1.0,0.0216552106722797,1.0
33.63092803955078,26.924278259277344,-2.0879364013671875,-0.0,-0.0,-1.0,0.0727373819810725,2.0
33.167823791503906,27.071544647216797,-2.0696210861206055,-0.0,-0.0,-1.0,0.1200834660742906,2.0
33.091712951660156,27.4219970703125,-2.130770206451416,-0.0,-0.0,-1.0,0.1520272245713446,2.0
35.06608200073242,27.60161590576172,-2.3412132263183594,-0.0,-0.0,-1.0,0.0289146485665165,1.0
34.81723403930664,27.76211929321289,-2.336005210876465,-0.0,-0.0,-1.0,0.0127687705229345,1.0
34.42273712158203,27.710468292236328,-2.276050567626953,-0.0,-0.0,-1.0,0.1102765016338452,1.0
34.29541778564453,27.905864715576172,-2.2948169708251953,-0.0,-0.0,-1.0,0.0787717665441641,1.0
35.202239990234375,25.869413375854492,-2.0771594047546387,-0.0,-0.0,-1.0,0.0883359637928249,1.0
34.35080337524414,27.15123748779297,-2.168400287628174,-0.0,-0.0,-1.0,0.0586163485209248,1.0
34.27944564819336,27.55841064453125,-2.2307963371276855,-0.0,-0.0,-1.0,0.2207404148642993,2.0
35.09913635253906,25.641178131103516,-2.0264859199523926,-0.0,-0.0,-1.0,0.0901358613699815,1.0
33.49671173095703,27.4962215423584,-2.122427463531494,-0.0,-0.0,-1.0,0.1633867875577061,2.0
33.34662628173828,27.04332733154297,-2.021246910095215,-0.0,-0.0,-1.0,0.1771363416173164,2.0
33.374168395996094,27.39606475830078,-2.0890703201293945,-0.8911424110568819,-0.4094850931618854,-0.1954153568528563,0.2021547364006611,5.0
33.19961166381836,27.154876708984375,-2.0236358642578125,-0.0,-0.0,-1.0,0.1824110085683122,1.0
34.97767639160156,27.348424911499023,-2.3470752239227295,-0.0,-0.0,-1.0,0.0472035559818718,1.0
34.623165130615234,27.445825576782227,-2.3091728687286377,-0.997967989582595,-0.0225272534565613,-0.0596021360370372,0.0298716927958927,3.0
34.374568939208984,27.517810821533203,-2.2841947078704834,0.0414687776679532,0.9374620833456008,0.3456084240409245,0.1633439246114104,4.0
34.206138610839844,27.626739501953125,-2.277785301208496,-0.0,-0.0,-1.0,0.1961509611985831,1.0
35.12725067138672,25.85038185119629,-2.1449925899505615,-0.0,-0.0,-1.0,0.0869983171965769,1.0
33.465049743652344,27.891048431396484,-2.2192108631134033,-0.0,-0.0,-1.0,0.1083267995399226,1.0
33.42778015136719,27.24790954589844,-2.1024649143218994,-0.0,-0.0,-1.0,0.1435945971103344,2.0
33.30126953125,27.476909637451172,-2.1243414878845215,-0.0,-0.0,-1.0,0.2055267161235043,1.0
33.38903045654297,27.028919219970703,-2.0597081184387207,-0.0,-0.0,-1.0,0.2520485775624152,1.0
33.139015197753906,27.179134368896484,-2.0501186847686768,-0.0,-0.0,-1.0,0.0904351246419774,2.0
34.95431900024414,27.843917846679688,-2.3133091926574707,-0.0,-0.0,-1.0,0.0083292488822642,1.0
34.73154067993164,27.97029685974121,-2.29738187789917,-0.0,-0.0,-1.0,0.0217996706627748,2.0
34.998252868652344,27.52310562133789,-2.274078369140625,-0.0,-0.0,-1.0,0.036116426241659,1.0
34.39734649658203,27.765914916992188,-2.216045379638672,-0.0,-0.0,-1.0,0.1609664957009833,1.0
34.19038772583008,27.665264129638672,-2.1695733070373535,-0.0,-0.0,-1.0,0.2087595420491407,1.0
34.17706298828125,27.29936790466309,-2.113478183746338,-0.0,-0.0,-1.0,0.1082915216862663,1.0
35.074188232421875,25.94204330444336,-2.076357841491699,-0.0,-0.0,-1.0,0.1066744791571677,1.0
33.32506561279297,27.178279876708984,-1.96317458152771,-0.0,-0.0,-1.0,0.1315226859540098,2.0
33.31283187866211,27.030841827392575,-1.939036846160889,-0.0,-0.0,-1.0,0.2180955905606443,2.0
32.90361022949219,27.888484954833984,-2.4214305877685547,-0.0,-0.0,-1.0,0.0770852465545267,2.0
33.45274353027344,26.78107452392578,-2.358761787414551,-0.7009407060942268,0.6454109282099721,-0.3035240687116414,0.0360992436104934,3.0
33.377647399902344,26.91926383972168,-2.363896369934082,-0.0,-0.0,-1.0,0.0517536702263516,1.0
33.01292037963867,27.20192527770996,-2.336383819580078,-0.0,-0.0,-1.0,0.1040217970423755,1.0
32.71881103515625,27.70638656616211,-2.359513998031616,-0.0,-0.0,-1.0,0.0175625487762446,1.0
34.24803924560547,25.72443962097168,-2.3789124488830566,-0.0,-0.0,-1.0,0.0498649569891475,2.0
34.06736373901367,26.01740074157715,-2.3783483505249023,-0.0,-0.0,-1.0,0.0680192283836074,1.0
33.74048614501953,26.31063461303711,-2.350839376449585,-0.0,-0.0,-1.0,0.0222272052409646,1.0
33.47594451904297,26.509788513183594,-2.32563853263855,-0.0,-0.0,-1.0,0.0649251224006242,2.0
35.18883514404297,27.202054977416992,-2.1356799602508545,-0.0,-0.0,-1.0,0.0632684517021573,1.0
32.716609954833984,27.29693031311035,-2.295806646347046,-0.8449255072963857,0.022051598158723,-0.5344292414703672,0.1252459435890313,3.0
32.896392822265625,26.850040435791016,-2.262561321258545,-0.0,-0.0,-1.0,0.1070640629277022,1.0
33.52519989013672,25.918792724609375,-2.2565600872039795,-0.0,-0.0,-1.0,0.1648561933893088,1.0
32.74092483520508,26.6685848236084,-2.2067806720733643,0.9654437113054604,-0.2603277145788694,-0.0121622910210981,0.1329774897502849,4.0
33.33636474609375,27.114910125732425,-1.8212857246398928,-0.0,-0.0,-1.0,0.2029927930839315,1.0
34.753177642822266,26.970394134521484,-2.294452667236328,-0.0,-0.0,-1.0,0.0522941142111209,2.0
34.516380310058594,27.148197174072266,-2.25162672996521,-0.0,-0.0,-1.0,0.0314779784735482,1.0
34.233482360839844,27.395275115966797,-2.2035887241363525,-0.3210404068651925,0.7958852212269056,-0.5133222884235897,0.2077737383836906,3.0
33.552886962890625,27.601642608642575,-2.074716806411743,-0.0,-0.0,-1.0,0.0987999778544173,2.0
35.060791015625,26.619165420532227,-2.34798526763916,-0.0,-0.0,-1.0,0.0365908025766186,1.0
34.885520935058594,26.878110885620117,-2.319023370742798,0.3815243235374221,-0.6850722933056659,-0.6205764606349714,0.0643654926660509,3.0
34.54148864746094,27.02687644958496,-2.252014636993408,-0.0,-0.0,-1.0,0.0313306602796511,1.0
34.08362579345703,26.981971740722656,-2.154392957687378,-0.0,-0.0,-1.0,0.0641469422075916,1.0
35.09714889526367,26.08637428283691,-2.3409624099731445,-0.0,-0.0,-1.0,0.0306988941481921,1.0
35.080753326416016,26.30486297607422,-2.3429155349731445,-0.0,-0.0,-1.0,0.0393527449691262,2.0
34.951072692871094,25.76356506347656,-2.3017919063568115,-0.0,-0.0,-1.0,0.089935622937327,1.0
33.48613739013672,27.273677825927734,-2.0444536209106445,-0.1964024714179725,-0.3788415650680615,-0.9043810799644664,0.1181136040855988,5.0
33.99854278564453,26.611576080322266,-2.1218292713165283,-0.0,-0.0,-1.0,0.0931632496369465,1.0
33.70178985595703,26.871910095214844,-2.0702168941497803,-0.0,-0.0,-1.0,0.1018871483212464,1.0
33.490074157714844,26.946455001831055,-2.0296852588653564,-0.0,-0.0,-1.0,0.0984394887912977,2.0
33.498924255371094,25.928958892822266,-1.9920098781585691,0.9938531506073648,-0.1097104818901879,0.0148163825287368,0.2093217610401548,4.0
32.73872375488281,27.22417640686035,-2.198664665222168,-0.0,-0.0,-1.0,0.1130855637124002,1.0
33.143707275390625,27.905731201171875,-2.298645496368408,-0.0,-0.0,-1.0,0.1163492164999279,1.0
33.052310943603516,27.639270782470703,-2.2687435150146484,-0.0,-0.0,-1.0,0.0796368070987383,1.0
33.39988327026367,26.926973342895508,-2.2703676223754883,0.6834382723414365,0.2332135953964333,-0.6917539640805977,0.2400032743830565,3.0
33.37642288208008,27.158185958862305,-2.282085418701172,-0.0,-0.0,-1.0,0.1686512384177435,1.0
33.53346633911133,26.86545181274414,-2.284801959991455,-0.0,-0.0,-1.0,0.1458720742968715,1.0
33.76830291748047,26.593706130981445,-2.299661636352539,-0.363389997133023,0.6012723222982365,-0.7116314386125356,0.1580381533683514,3.0
34.0133056640625,26.439380645751953,-2.323544502258301,-0.0,-0.0,-1.0,0.0833486939001265,1.0
34.110191345214844,26.222686767578125,-2.3230433464050293,-0.0,-0.0,-1.0,0.0510625807497402,1.0
34.021217346191406,25.91490173339844,-2.2910842895507812,-0.0,-0.0,-1.0,0.0622213505704961,1.0
32.8870964050293,27.04774284362793,-1.945605516433716,-0.0,-0.0,-1.0,0.1770145645494431,1.0
33.446044921875,27.506515502929688,-2.250051259994507,-0.0,-0.0,-1.0,0.2707326403150409,2.0
33.599578857421875,27.07416343688965,-1.968412399291992,-0.0,-0.0,-1.0,0.0593158371919836,1.0
33.31745147705078,27.086692810058594,-1.9852893352508545,-0.8563269633130739,0.2168628354561028,-0.4686946153957274,0.2053653410029537,4.0
34.5323486328125,27.54331970214844,-2.2129757404327393,-0.0,-0.0,-1.0,0.1059546932518279,1.0
33.702640533447266,27.428714752197266,-2.21191668510437,-0.0,-0.0,-1.0,0.1841027743131111,2.0
34.56230926513672,27.127946853637695,-2.3232779502868652,-0.0,-0.0,-1.0,0.0290276103815045,1.0
34.208194732666016,26.796571731567383,-2.2858662605285645,-0.0,-0.0,-1.0,0.056180809587378,1.0
34.026615142822266,26.734418869018555,-2.2795863151550293,-0.0,-0.0,-1.0,0.0944674564199575,1.0
33.7295036315918,27.576704025268555,-2.382129669189453,-0.0,-0.0,-1.0,0.1491089464455522,1.0
33.65922927856445,26.650663375854492,-2.272089958190918,-0.0,-0.0,-1.0,0.1959478031885096,2.0
33.540565490722656,27.52235984802246,-2.377110481262207,-0.0,-0.0,-1.0,0.164701792567245,1.0
32.744747161865234,27.07549476623535,-2.330627918243408,-0.614646179582649,-0.2570814476927393,-0.7457340029639652,0.0628456379928428,3.0
34.85099792480469,26.522363662719727,-2.426316976547241,-0.0,-0.0,-1.0,0.0521171829408252,1.0
34.51634216308594,26.54608726501465,-2.4300477504730225,-0.0,-0.0,-1.0,0.072030787048989,1.0
34.27598571777344,26.27638816833496,-2.396909475326538,-0.0,-0.0,-1.0,0.0914432166027561,1.0
34.11970520019531,26.320810317993164,-2.40299916267395,0.4641581437263576,-0.7704872628413503,0.4369285930352309,0.0626416272932271,3.0
33.92837905883789,26.271345138549805,-2.3974902629852295,-0.0,-0.0,-1.0,0.0310749272233396,2.0
33.53652572631836,26.07008171081543,-2.3738582134246826,-0.0,-0.0,-1.0,0.0784255228224771,1.0
33.452369689941406,26.343599319458008,-2.408742666244507,-0.0,-0.0,-1.0,0.0396201353994477,1.0
33.56354522705078,27.315073013305664,-2.071749687194824,-0.4823172395822491,-0.7870360173766727,0.3846353958668195,0.1678241465044218,3.0
33.44476318359375,27.162931442260746,-2.083623170852661,-0.0,-0.0,-1.0,0.1248879613135224,1.0
35.12519073486328,26.4783992767334,-2.339548349380493,-0.0,-0.0,-1.0,0.0391685346069427,1.0
34.945247650146484,26.71586799621582,-2.3139989376068115,-0.0,-0.0,-1.0,0.066498459451432,1.0
34.8038330078125,26.8841609954834,-2.2934463024139404,-0.0,-0.0,-1.0,0.0551328766313679,1.0
34.48439025878906,27.00883674621582,-2.2361209392547607,-0.0,-0.0,-1.0,0.0381703602285178,1.0
34.157691955566406,26.820802688598633,-2.1633899211883545,-0.0,-0.0,-1.0,0.0883965902238038,1.0
33.63703918457031,27.444650650024418,-2.0927693843841553,-0.0,-0.0,-1.0,0.1234326691836796,2.0
33.749168395996094,26.761404037475582,-2.0810368061065674,-0.0,-0.0,-1.0,0.0970137622804368,1.0
33.714866638183594,27.143651962280273,-2.092939615249634,0.9809084922252658,0.1622386169556672,-0.1072248154517769,0.1181856425333999,3.0
33.44013214111328,27.3519344329834,-2.050666570663452,-0.4299663962915978,-0.9028171334138436,-0.0070796662651843,0.1184030155188179,3.0
33.58329772949219,25.851778030395508,-2.0054566860198975,-0.0,-0.0,-1.0,0.1634329527007228,1.0
33.675437927246094,27.16864013671875,-2.1582725048065186,0.9151485560198316,-0.350494803454191,0.1991394314705788,0.1717817039252463,3.0
34.58260726928711,27.542593002319336,-2.2197530269622803,-0.0,-0.0,-1.0,0.0970848175449663,2.0
33.57292175292969,27.4258975982666,-2.170459032058716,-0.719616306233928,0.6813399650549481,-0.1338963174294189,0.2310917088613261,3.0
33.63718795776367,27.275798797607425,-2.0899360179901123,-0.0,-0.0,-1.0,0.0853368174345899,2.0
33.45199966430664,27.22277450561523,-2.0754759311676025,-0.0,-0.0,-1.0,0.1259720609332389,2.0
35.099483489990234,27.006086349487305,-2.286689281463623,-0.0,-0.0,-1.0,0.0595059133014331,1.0
34.99513244628906,27.063745498657227,-2.28564977645874,0.7965976498197609,-0.6022701015887734,-0.0519895088828703,0.0579460799593082,3.0
34.65581512451172,27.159940719604492,-2.271634101867676,-0.0,-0.0,-1.0,0.0472576571604798,1.0
33.83710861206055,26.8057804107666,-2.1676621437072754,-0.0,-0.0,-1.0,0.1783902059340902,2.0
33.85763931274414,27.25884246826172,-2.224729537963867,-0.0,-0.0,-1.0,0.1588366932197664,2.0
33.64310836791992,25.874855041503903,-2.0402321815490723,-0.0,-0.0,-1.0,0.1707311346227813,1.0
35.12507629394531,26.216867446899418,-2.3778839111328125,-0.0,-0.0,-1.0,0.0311747668732317,2.0
34.70512390136719,26.15311050415039,-2.3382039070129395,-0.0,-0.0,-1.0,0.0768357277611551,1.0
34.73792266845703,26.418163299560547,-2.3770837783813477,-0.0,-0.0,-1.0,0.0418843477204404,2.0
34.39052963256836,26.49312400817871,-2.3623738288879395,-0.0,-0.0,-1.0,0.073051720401055,2.0
33.84526443481445,26.565235137939453,-2.3337135314941406,-0.0,-0.0,-1.0,0.083574277842882,1.0
33.5308952331543,26.867277145385746,-2.3544259071350098,-0.0,-0.0,-1.0,0.0764306284764026,1.0
33.46976852416992,26.80754280090332,-2.341796398162842,-0.0,-0.0,-1.0,0.0494941877504429,2.0
35.1224250793457,27.22222900390625,-2.3056204319000244,-0.0,-0.0,-1.0,0.0870487074652764,1.0
34.74909973144531,27.287330627441406,-2.281698942184448,-0.2644979002284409,-0.4720665825130846,-0.8409482757275638,0.0344610475304271,4.0
34.26485824584961,27.687917709350582,-2.29270339012146,-0.0,-0.0,-1.0,0.152658357559006,2.0
33.818843841552734,26.8192081451416,-2.141261339187622,0.7352111895415776,0.6546815746797171,0.1756603044166349,0.1848001471392346,3.0
33.78308868408203,27.07367897033691,-2.1714255809783936,-0.0,-0.0,-1.0,0.1890479543265155,1.0
33.675819396972656,27.34305000305176,-2.1977875232696533,-0.0,-0.0,-1.0,0.1099400555272612,2.0
33.731727600097656,27.900680541992188,-2.276447057723999,-0.0,-0.0,-1.0,0.1166827322522558,1.0
33.462486267089844,27.37993431091309,-2.184847116470337,-0.0,-0.0,-1.0,0.2742750009278019,1.0
34.573028564453125,26.02775001525879,-2.329223871231079,-0.0,-0.0,-1.0,0.0568260463983404,1.0
34.313575744628906,26.24059677124023,-2.3147857189178467,-0.1646731717438463,-0.9856081368346769,0.0382014019781885,0.0986183387981497,3.0
33.28831481933594,28.105335235595703,-2.3632237911224365,-0.0,-0.0,-1.0,0.0994236780212085,1.0
34.55646514892578,25.817981719970703,-2.30899977684021,-0.0,-0.0,-1.0,0.0271251746299604,1.0
34.37126541137695,26.08281135559082,-2.3082425594329834,-0.0,-0.0,-1.0,0.1109098269648717,1.0
34.17691421508789,26.34103012084961,-2.3063933849334717,0.2985579844952155,-0.9466830324092492,-0.1210552189811855,0.0582785089023852,3.0
33.97173309326172,26.51719856262207,-2.296419858932495,0.0913377923332552,0.4075168927997888,-0.9086183961237484,0.1566873111280312,3.0
33.70592498779297,26.655038833618164,-2.275836706161499,0.0019250566176895,-0.6621992722934928,-0.7493253084815614,0.2423778952998208,3.0
33.55000305175781,26.938261032104492,-2.2827885150909424,-0.0,-0.0,-1.0,0.1466500545888029,1.0
33.486549377441406,25.958696365356445,-2.1852147579193115,0.584225172187459,0.606155244335086,0.5396820989690188,0.1938505460882169,6.0
33.27257537841797,27.39606285095215,-2.292280912399292,-0.0,-0.0,-1.0,0.2606829675486549,2.0
33.25580596923828,27.520734786987305,-2.302258253097534,-0.0,-0.0,-1.0,0.1550249206578907,1.0
32.710262298583984,27.282888412475582,-2.2136471271514893,-0.0,-0.0,-1.0,0.1222939254127613,1.0
33.352073669433594,26.961889266967773,-1.8456645011901855,-0.0,-0.0,-1.0,0.1764983249108841,1.0
33.33772277832031,27.078702926635746,-1.858858585357666,-0.0,-0.0,-1.0,0.230017974108544,2.0
34.99082946777344,25.90417861938477,-2.3668417930603027,-0.0,-0.0,-1.0,0.0638656126418655,1.0
34.910675048828125,26.034652709960938,-2.3716440200805664,-0.0,-0.0,-1.0,0.0666708363477155,2.0
34.74004364013672,26.261075973510746,-2.3765769004821777,-0.0,-0.0,-1.0,0.033852737480145,1.0
34.42889404296875,26.49119758605957,-2.3654322624206543,-0.0,-0.0,-1.0,0.0723317130292526,2.0
34.341217041015625,25.950366973876953,-2.2927002906799316,-0.0,-0.0,-1.0,0.0565644507814965,1.0
34.26788330078125,26.517024993896484,-2.349116802215576,0.4546191124778046,-0.7010880647797427,-0.5493605264243955,0.1058344629476633,3.0
33.82232666015625,26.48839950561523,-2.2925500869750977,0.7962095102921771,0.5715263207495755,-0.198514685629918,0.1789725591174544,3.0
33.72627258300781,26.785083770751953,-2.316357135772705,0.2929780468428883,0.9181990362603872,-0.26659781296669,0.2132731724901324,3.0
33.43563461303711,27.161373138427734,-2.327711582183838,0.2310683137330833,0.0835128868819917,-0.9693467037717644,0.1498184006083106,3.0
33.370079040527344,27.355918884277344,-2.343961238861084,-0.0,-0.0,-1.0,0.1077691472136433,1.0
33.31365966796875,27.751068115234375,-2.386526584625244,-0.0,-0.0,-1.0,0.0629852734998183,1.0
33.56480026245117,25.85952377319336,-2.188314914703369,-0.0,-0.0,-1.0,0.0972183488776771,2.0
34.94727325439453,25.963912963867188,-2.357754707336426,-0.0,-0.0,-1.0,0.0849844558181959,2.0
34.78045654296875,26.23135757446289,-2.3609023094177246,-0.0,-0.0,-1.0,0.0561210801117688,1.0
34.26896667480469,26.49432373046875,-2.319249153137207,-0.0,-0.0,-1.0,0.0740478854674405,2.0
33.9472541809082,26.55227279663086,-2.2831497192382812,0.0913377923332552,0.4075168927997888,-0.9086183961237484,0.1529620654380295,3.0
33.74958038330078,27.27170181274414,-2.3302903175354004,0.8568761537293549,0.4944325321998982,-0.1459442642668225,0.1699967920172428,3.0
33.6655387878418,27.343017578125,-2.326971530914306,-0.0,-0.0,-1.0,0.1498918849847879,1.0
33.771507263183594,26.690956115722656,-2.27424955368042,-0.0,-0.0,-1.0,0.2247400537254688,1.0
33.564353942871094,25.87438201904297,-2.1671805381774902,-0.0,-0.0,-1.0,0.1277771501851603,2.0
35.063026428222656,27.571083068847656,-2.284601926803589,-0.0,-0.0,-1.0,0.0316295563373756,2.0
34.23295974731445,27.545799255371097,-2.17677903175354,-0.0,-0.0,-1.0,0.2063592041748826,1.0
33.46144104003906,27.533475875854492,-2.078070878982544,-0.0,-0.0,-1.0,0.0971879000524831,2.0
33.348426818847656,27.708595275878903,-2.079402208328247,-0.0,-0.0,-1.0,0.1215523040342659,1.0
33.38809585571289,27.386211395263672,-2.05582594871521,-0.9460733063376688,-0.3009913280110206,-0.1197894799115262,0.1670868489657848,6.0
33.267738342285156,27.55095672607422,-2.055201292037964,-0.0,-0.0,-1.0,0.0937210566988121,1.0
33.45002365112305,27.064945220947266,-2.035670518875122,-0.0,-0.0,-1.0,0.0989889948386976,2.0
33.320377349853516,27.14979553222656,-1.9204661846160889,-0.0,-0.0,-1.0,0.2001127321624512,2.0
35.12471389770508,26.910541534423828,-2.3246827125549316,-0.0427604308894159,-0.0275537292343205,-0.9987053306934096,0.0588043289178007,3.0
35.16169738769531,25.84255599975586,-2.2590503692626953,-0.0,-0.0,-1.0,0.0950615332433961,1.0
34.964900970458984,27.021793365478516,-2.309976577758789,-0.0,-0.0,-1.0,0.0543157067781487,1.0
34.14641189575195,27.517578125,-2.231642723083496,-0.0,-0.0,-1.0,0.1636649869264644,1.0
33.94955062866211,26.99883460998535,-2.1661434173583984,-0.0,-0.0,-1.0,0.0843899250740417,1.0
33.70574951171875,27.130393981933594,-2.1417465209960938,-0.2196836535656224,-0.9621245634294532,-0.161416903705106,0.160956518346239,4.0
33.44700622558594,27.702571868896484,-2.148988723754883,-0.0,-0.0,-1.0,0.2201148587080255,1.0
33.62123107910156,26.75961685180664,-2.1030502319335938,-0.3921932352034877,-0.4014110172971562,-0.827679685296845,0.1671732377866242,4.0
33.354591369628906,27.438404083251953,-2.116034507751465,-0.0,-0.0,-1.0,0.1833678351490089,1.0
33.501068115234375,25.957500457763672,-2.030512809753418,0.9525523096952092,0.3012354346957316,-0.0436040156177879,0.1959239758268185,5.0
33.21297073364258,25.86922836303711,-2.3350319862365723,-0.0,-0.0,-1.0,0.0375757109051578,1.0
32.770896911621094,26.50963973999023,-2.323150634765625,-0.0,-0.0,-1.0,0.0919204656824732,2.0
32.74342346191406,26.662841796875,-2.3326973915100098,-0.0,-0.0,-1.0,0.1294573163902136,2.0
34.98715591430664,27.050045013427734,-2.249155759811402,0.7709459113524226,-0.6308459636278405,-0.087611482942845,0.0572798758416444,4.0
34.80575180053711,27.251588821411133,-2.237579107284546,-0.0,-0.0,-1.0,0.0382877069074639,2.0
34.65400314331055,28.101459503173828,-2.279470205307007,-0.0,-0.0,-1.0,0.0319429292217319,1.0
33.48916244506836,27.31815719604492,-2.053059339523315,-0.0,-0.0,-1.0,0.0961151014849865,2.0
33.42455291748047,27.62617301940918,-2.066851854324341,-0.0,-0.0,-1.0,0.1289052054601422,1.0
33.35671615600586,27.4565372467041,-2.044328451156616,-0.0,-0.0,-1.0,0.1085193489544985,2.0
33.02644729614258,26.567432403564453,-2.3026010990142822,-0.0,-0.0,-1.0,0.0219629339672031,2.0
32.73247528076172,26.820209503173828,-2.2744457721710205,-0.0,-0.0,-1.0,0.1343958453339392,1.0
32.727237701416016,27.31829833984375,-2.311727285385132,-0.5616950312046637,-0.2962005156518162,-0.7725049815034141,0.1119991581966523,3.0
32.93491744995117,27.85477066040039,-2.387277841567993,-0.0,-0.0,-1.0,0.0870867369559486,1.0
32.849891662597656,28.047229766845703,-2.389383554458618,-0.0,-0.0,-1.0,0.1049947531155519,1.0
33.26335144042969,27.04048728942871,-1.8130061626434328,-0.8827169260456699,0.418000159207757,-0.2146781203913728,0.260263826508372,3.0
34.808189392089844,25.663490295410156,-2.2258214950561523,-0.0,-0.0,-1.0,0.0629172015094243,1.0
35.13258361816406,25.969974517822266,-2.301456928253174,-0.0,-0.0,-1.0,0.1321932067993653,1.0
35.198341369628906,26.374935150146484,-2.34155797958374,-0.0,-0.0,-1.0,0.0339439040238287,1.0
35.12699890136719,26.631366729736328,-2.348456859588623,-0.0,-0.0,-1.0,0.0341901572106731,1.0
33.73612594604492,26.704330444335938,-2.121251106262207,-0.0,-0.0,-1.0,0.1544493733442341,1.0
33.86227798461914,26.905515670776367,-2.1575350761413574,-0.0,-0.0,-1.0,0.1228622220485763,1.0
33.977291107177734,27.251239776611328,-2.203347682952881,-0.0,-0.0,-1.0,0.0919138049766675,1.0
34.105838775634766,27.99539566040039,-2.284346580505371,-0.0,-0.0,-1.0,0.0548043099614895,1.0
33.54074478149414,27.08775520324707,-2.1176881790161133,-0.0,-0.0,-1.0,0.0813353915271573,1.0
33.25461196899414,27.37096405029297,-2.0919113159179688,-0.0,-0.0,-1.0,0.1232820714450989,1.0
33.45472717285156,27.56446075439453,-2.14070987701416,-0.0,-0.0,-1.0,0.2200326996539912,1.0
33.23411178588867,26.96658706665039,-1.811595678329468,-0.0,-0.0,-1.0,0.2551498709702354,1.0
33.27543640136719,27.05946350097656,-1.8257486820220947,-0.7978187944602841,0.2926993909566955,-0.5270789672710517,0.2444498225501178,4.0
33.80449676513672,25.925085067749023,-2.346102714538574,-0.0,-0.0,-1.0,0.0615132135301454,2.0
33.620338439941406,26.224206924438477,-2.328523635864258,-0.0,-0.0,-1.0,0.0712046909818697,1.0
32.76094436645508,26.70113754272461,-2.18312406539917,0.9654437113054604,-0.2603277145788694,-0.0121622910210981,0.1497107943676504,4.0
33.41824722290039,26.64606285095215,-2.3168749809265137,-0.0,-0.0,-1.0,0.0428065165862795,1.0
33.225616455078125,27.183244705200195,-2.3176841735839844,-0.0,-0.0,-1.0,0.0733546742297873,1.0
33.38673400878906,27.02005386352539,-2.3387341499328613,-0.0,-0.0,-1.0,0.0535776702744385,1.0
33.1856575012207,27.510345458984375,-2.335636615753174,-0.0,-0.0,-1.0,0.1291960184747868,1.0
33.297855377197266,27.885730743408203,-2.3903818130493164,-0.0,-0.0,-1.0,0.0464826683222927,2.0
32.92959213256836,26.245708465576172,-2.315450429916382,-0.0,-0.0,-1.0,0.0513765671073418,1.0
32.87772750854492,26.67087745666504,-2.3197920322418213,0.3005512465123,0.6299899463986363,-0.7160877150576921,0.1422342769466884,3.0
33.04487228393555,26.320262908935547,-2.344370603561402,-0.0,-0.0,-1.0,0.0563351831193936,2.0
32.74992752075195,27.223203659057617,-2.3141024112701416,-0.0,-0.0,-1.0,0.0818399875475534,2.0
33.00972366333008,27.65000915527344,-2.392951250076294,-0.0,-0.0,-1.0,0.0355715783191364,2.0
33.08053207397461,28.03205680847168,-2.428248167037964,-0.0,-0.0,-1.0,0.1194881151879847,1.0
33.063575744628906,27.80168914794922,-2.412646532058716,-0.0,-0.0,-1.0,0.0512196942712638,2.0
32.80097198486328,26.699308395385746,-2.2604143619537354,-0.0,-0.0,-1.0,0.1324333153260286,2.0
33.23302459716797,26.411853790283203,-2.346793413162231,-0.0,-0.0,-1.0,0.0660430878575448,1.0
33.256229400634766,26.130388259887695,-2.3403313159942627,-0.0,-0.0,-1.0,0.0625235155576241,2.0
32.909027099609375,27.29373359680176,-2.3142807483673096,-0.0,-0.0,-1.0,0.1177307759890447,1.0
33.085205078125,27.003662109375,-2.3402187824249268,-0.0,-0.0,-1.0,0.1992994917070117,2.0
33.20929718017578,26.561378479003903,-2.347949743270874,-0.0,-0.0,-1.0,0.0158632917009389,2.0
33.1837272644043,27.683897018432617,-2.3980977535247803,-0.0,-0.0,-1.0,0.0662019346832363,1.0
33.616790771484375,25.8482723236084,-2.2546370029449463,-0.0,-0.0,-1.0,0.1378828281592772,1.0
33.9581298828125,26.081701278686523,-2.3397843837738037,-0.0,-0.0,-1.0,0.0711763583751724,2.0
34.135658264160156,25.71741485595703,-2.3673136234283447,-0.0,-0.0,-1.0,0.0444834026646654,1.0
33.3489990234375,26.906524658203125,-1.9067120552062988,-0.0,-0.0,-1.0,0.1887898129769046,1.0
34.22163772583008,27.43509292602539,-2.3899130821228027,-0.0,-0.0,-1.0,0.0988591689893655,1.0
34.23731994628906,27.716609954833984,-2.4237380027770996,-0.0,-0.0,-1.0,0.1015486928789638,1.0
34.093021392822266,28.09991455078125,-2.4408936500549316,-0.0,-0.0,-1.0,0.0498022840908682,1.0
34.95099639892578,25.648700714111328,-2.3251967430114746,-0.0,-0.0,-1.0,0.0867033853454093,1.0
34.40521240234375,26.44436264038086,-2.3140435218811035,-0.0,-0.0,-1.0,0.0753044394243857,1.0
34.260921478271484,26.82217788696289,-2.329650402069092,-0.0,-0.0,-1.0,0.0408085619294865,1.0
34.21276092529297,27.158702850341797,-2.3579764366149902,-0.0,-0.0,-1.0,0.052061948056316,1.0
34.320987701416016,25.977619171142575,-2.2486729621887207,-0.0,-0.0,-1.0,0.069304107878567,1.0
34.3304443359375,26.239181518554688,-2.2785849571228027,-0.6054146855089767,-0.7547624031343445,0.2526000264943303,0.0924114068037723,3.0
34.24604034423828,25.677967071533203,-2.2031426429748535,-0.0,-0.0,-1.0,0.0507733508017589,1.0
33.535247802734375,26.000717163085938,-2.3739466667175293,-0.0,-0.0,-1.0,0.097814326980942,1.0
33.204002380371094,27.030712127685547,-2.441488742828369,-0.0,-0.0,-1.0,0.0643154255686727,1.0
33.05848693847656,27.82813262939453,-2.516204357147217,-0.0,-0.0,-1.0,0.0362556643861941,1.0
33.30683898925781,26.065765380859375,-2.339942455291748,-0.0,-0.0,-1.0,0.0997404865180471,1.0
33.176963806152344,26.25938415527344,-2.3400683403015137,-0.0,-0.0,-1.0,0.0674144934930006,1.0
33.11827850341797,26.647533416748047,-2.3777098655700684,-0.0,-0.0,-1.0,0.011527886722999,1.0
33.0406494140625,27.12317276000977,-2.4233012199401855,-0.0,-0.0,-1.0,0.0765806863959812,1.0
32.933937072753906,28.114538192749023,-2.411561965942383,-0.0,-0.0,-1.0,0.1096798588923027,1.0
35.175384521484375,28.003934860229492,-2.285895347595215,-0.0,-0.0,-1.0,0.0221042413867522,1.0
34.94791030883789,25.879833221435547,-2.2500791549682617,-0.0,-0.0,-1.0,0.1382883416599152,1.0
35.1917839050293,26.20489501953125,-2.3074026107788086,-0.0,-0.0,-1.0,0.0325374494422521,1.0
35.14177703857422,26.958335876464844,-2.2865610122680664,-0.0,-0.0,-1.0,0.0466913490766112,1.0
35.10409164428711,27.257991790771484,-2.27425479888916,-0.0,-0.0,-1.0,0.0765650483973572,1.0
35.14139938354492,27.590482711791992,-2.280667304992676,-0.0,-0.0,-1.0,0.0293873060194018,1.0
33.25446701049805,27.02121353149414,-1.814002990722656,-0.8827169260456699,0.418000159207757,-0.2146781203913728,0.2582890833147246,3.0
33.272499084472656,25.983150482177734,-2.2760300636291504,-0.0,-0.0,-1.0,0.0601758360981081,1.0
33.306758880615234,26.40360641479492,-2.2860121726989746,-0.0,-0.0,-1.0,0.0645266135709675,1.0
33.300804138183594,26.93560028076172,-2.286241054534912,-0.0,-0.0,-1.0,0.1025793352242185,1.0
33.25986099243164,27.213218688964844,-2.2766757011413574,-0.0,-0.0,-1.0,0.1630858412436607,2.0
33.307559967041016,27.464344024658203,-2.290860652923584,-0.0,-0.0,-1.0,0.2517477993969036,1.0
33.43101119995117,27.88888168334961,-2.326627254486084,-0.0,-0.0,-1.0,0.1087658276289898,2.0
34.84549331665039,25.716657638549805,-2.300241470336914,0.469372120550686,0.8793067360587067,-0.0806813260397738,0.0567966264892764,3.0
34.986690521240234,26.05039978027344,-2.351132392883301,-0.0,-0.0,-1.0,0.063646674835926,2.0
35.004302978515625,26.347917556762695,-2.370267868041992,-0.0,-0.0,-1.0,0.0312753285832001,1.0
34.92838668823242,26.54175567626953,-2.3616256713867188,-0.0,-0.0,-1.0,0.0504843741654981,1.0
34.703346252441406,26.818687438964844,-2.3212356567382812,-0.0,-0.0,-1.0,0.0688730012681767,1.0
34.41283416748047,26.978946685791016,-2.2591400146484375,-0.0,-0.0,-1.0,0.0365089196455268,2.0
33.718421936035156,27.118547439575195,-2.098400115966797,0.9486506051886602,0.24832105031941,-0.1959558247244865,0.1127288982993579,4.0
34.50458908081055,28.06113052368164,-2.341266632080078,-0.0,-0.0,-1.0,0.0619746316535023,2.0
33.4423713684082,27.2835750579834,-2.040860176086426,-0.2309918566952432,-0.9562220024696454,-0.1796726026232883,0.1173112367733755,3.0
32.82691192626953,26.92312240600586,-2.327058792114258,-0.0,-0.0,-1.0,0.0938026416658706,2.0
32.90825653076172,27.42430305480957,-2.3549556732177734,-0.0,-0.0,-1.0,0.0679141716661686,2.0
33.058998107910156,27.69680404663086,-2.4024009704589844,-0.0,-0.0,-1.0,0.0456666060816315,1.0
33.169647216796875,28.02632522583008,-2.438882827758789,-0.0,-0.0,-1.0,0.1092249792590627,2.0
32.71742248535156,25.76095199584961,-2.2916955947875977,0.7744459816116215,-0.2727804000851709,-0.5708101916530453,0.0211893986408414,3.0
32.76161193847656,25.973247528076172,-2.3048391342163086,-0.0,-0.0,-1.0,0.0178167207693971,1.0
32.826385498046875,26.58746910095215,-2.32534122467041,-0.0,-0.0,-1.0,0.1061649025612978,2.0
32.99018096923828,28.0919132232666,-2.2987399101257324,-0.0,-0.0,-1.0,0.1194881151879847,2.0
32.773258209228516,26.0832576751709,-2.2773280143737793,0.3111093869169271,0.5053292853411193,-0.8048933238316787,0.0093211847183825,3.0
32.94801712036133,25.906103134155273,-2.271989345550537,-0.0,-0.0,-1.0,0.0086618278597041,1.0
32.80238723754883,25.80142593383789,-2.305790901184082,-0.0,-0.0,-1.0,0.0222694491652653,1.0
32.962303161621094,25.730758666992188,-2.300729751586914,-0.0,-0.0,-1.0,0.0190466377047642,1.0
34.97968292236328,26.735015869140625,-2.24837875366211,-0.0,-0.0,-1.0,0.0400697871771489,1.0
34.933326721191406,27.10950469970703,-2.340085029602051,-0.0,-0.0,-1.0,0.0609632409018896,2.0
33.97303009033203,26.856639862060547,-2.228306770324707,0.2521396984874665,0.9192339747410108,0.3023813356152992,0.1025387309588305,3.0
33.678375244140625,27.091564178466797,-2.273615837097168,-0.0,-0.0,-1.0,0.1902407242033205,1.0
33.25777053833008,27.21518325805664,-2.2852325439453125,-0.0,-0.0,-1.0,0.1630858412436607,2.0
32.80624771118164,27.409435272216797,-2.3141698837280273,-0.0,-0.0,-1.0,0.1741719154133348,1.0
33.02919006347656,25.97283935546875,-2.346597671508789,-0.0,-0.0,-1.0,0.0095022704484198,1.0
32.725440979003906,26.348039627075195,-2.3770923614501953,-0.0,-0.0,-1.0,0.0232115595149533,1.0
33.282310485839844,27.095151901245117,-2.0771255493164062,0.2241986927683681,-0.8326875735101849,-0.5063263286485061,0.2054137060095429,3.0
33.54860305786133,27.00351905822754,-2.0436606407165527,0.69629585750367,0.2474708246020839,-0.673743474769139,0.0714947290212527,4.0
34.853179931640625,27.182722091674805,-2.216343402862549,-0.0,-0.0,-1.0,0.0560261846014399,1.0
35.15623092651367,27.193927764892575,-2.2515244483947754,-0.0,-0.0,-1.0,0.0725397089687188,1.0
33.1799430847168,27.514423370361328,-2.090493679046631,-0.0,-0.0,-1.0,0.1311872980231797,1.0
33.551368713378906,27.41011619567871,-2.112870693206787,-0.7121510167489618,-0.2537822019263823,-0.6545498631340602,0.1849197916859241,3.0
34.642433166503906,27.3304500579834,-2.2180685997009277,-0.0,-0.0,-1.0,0.0245479578184928,1.0
33.540061950683594,28.00552749633789,-2.2129855155944824,-0.0,-0.0,-1.0,0.0670215588830802,1.0
34.497379302978516,25.72904586791992,-2.2496495246887207,-0.0,-0.0,-1.0,0.0398973877185845,1.0
33.952720642089844,26.405555725097656,-2.283392429351806,-0.0,-0.0,-1.0,0.0850208943376923,2.0
34.36003494262695,26.20879364013672,-2.298462390899658,-0.0,-0.0,-1.0,0.1114851469155884,2.0
34.7193603515625,26.09109115600586,-2.3192830085754395,-0.0,-0.0,-1.0,0.0780686243490193,1.0
33.55154800415039,26.5926456451416,-2.267995834350586,-0.0,-0.0,-1.0,0.131870792342191,1.0
33.36952209472656,26.94013786315918,-2.2959256172180176,0.6834382723414365,0.2332135953964333,-0.6917539640805977,0.1205369327086624,3.0
34.72772979736328,25.641996383666992,-1.7650821208953855,-0.0,-0.0,-1.0,0.1215987296219526,1.0
33.80322265625,26.84104347229004,-1.745359182357788,-0.0,-0.0,-1.0,0.1437408723923942,1.0
33.74348068237305,27.19454002380371,-1.7589633464813232,-0.0,-0.0,-1.0,0.2216783540312654,1.0
33.7730712890625,27.01224136352539,-1.7518088817596436,-0.0,-0.0,-1.0,0.2065257766639808,1.0
33.819515228271484,27.45421981811523,-1.7793562412261963,-0.0,-0.0,-1.0,0.177899507189603,1.0
34.818382263183594,27.26492500305176,-1.855255365371704,-0.0,-0.0,-1.0,0.1766525789508368,1.0
33.25131607055664,27.485483169555664,-2.1834611892700195,-0.0,-0.0,-1.0,0.1786743720811807,1.0
0.0,0.0,0.0,0.0,0.0,0.0,0.0,0.0
0.0,0.0,0.0,0.0,0.0,0.0,0.0,0.0
0.0,0.0,0.0,0.0,0.0,0.0,0.0,0.0
0.0,0.0,0.0,0.0,0.0,0.0,0.0,0.0
0.0,0.0,0.0,0.0,0.0,0.0,0.0,0.0
0.0,0.0,0.0,0.0,0.0,0.0,0.0,0.0
0.0,0.0,0.0,0.0,0.0,0.0,0.0,0.0
0.0,0.0,0.0,0.0,0.0,0.0,0.0,0.0
0.0,0.0,0.0,0.0,0.0,0.0,0.0,0.0
0.0,0.0,0.0,0.0,0.0,0.0,0.0,0.0
0.0,0.0,0.0,0.0,0.0,0.0,0.0,0.0
0.0,0.0,0.0,0.0,0.0,0.0,0.0,0.0
0.0,0.0,0.0,0.0,0.0,0.0,0.0,0.0
0.0,0.0,0.0,0.0,0.0,0.0,0.0,0.0
0.0,0.0,0.0,0.0,0.0,0.0,0.0,0.0
0.0,0.0,0.0,0.0,0.0,0.0,0.0,0.0
0.0,0.0,0.0,0.0,0.0,0.0,0.0,0.0
0.0,0.0,0.0,0.0,0.0,0.0,0.0,0.0
0.0,0.0,0.0,0.0,0.0,0.0,0.0,0.0
0.0,0.0,0.0,0.0,0.0,0.0,0.0,0.0
0.0,0.0,0.0,0.0,0.0,0.0,0.0,0.0
0.0,0.0,0.0,0.0,0.0,0.0,0.0,0.0
0.0,0.0,0.0,0.0,0.0,0.0,0.0,0.0
0.0,0.0,0.0,0.0,0.0,0.0,0.0,0.0
0.0,0.0,0.0,0.0,0.0,0.0,0.0,0.0
0.0,0.0,0.0,0.0,0.0,0.0,0.0,0.0
0.0,0.0,0.0,0.0,0.0,0.0,0.0,0.0
0.0,0.0,0.0,0.0,0.0,0.0,0.0,0.0
0.0,0.0,0.0,0.0,0.0,0.0,0.0,0.0
0.0,0.0,0.0,0.0,0.0,0.0,0.0,0.0
0.0,0.0,0.0,0.0,0.0,0.0,0.0,0.0
0.0,0.0,0.0,0.0,0.0,0.0,0.0,0.0
0.0,0.0,0.0,0.0,0.0,0.0,0.0,0.0
0.0,0.0,0.0,0.0,0.0,0.0,0.0,0.0
0.0,0.0,0.0,0.0,0.0,0.0,0.0,0.0
0.0,0.0,0.0,0.0,0.0,0.0,0.0,0.0
0.0,0.0,0.0,0.0,0.0,0.0,0.0,0.0
0.0,0.0,0.0,0.0,0.0,0.0,0.0,0.0
0.0,0.0,0.0,0.0,0.0,0.0,0.0,0.0
0.0,0.0,0.0,0.0,0.0,0.0,0.0,0.0
0.0,0.0,0.0,0.0,0.0,0.0,0.0,0.0
0.0,0.0,0.0,0.0,0.0,0.0,0.0,0.0
