x,y,z,nx,ny,nz,curvature,density,label
8.397195816040039,-1.4155645370483398,0.2728117108345032,-0.0,-0.0,-1.0,0.0869281517270247,2.0,1.0
10.065811157226562,0.0626478195190429,0.3249638676643371,-0.0,-0.0,-1.0,0.1066922283200708,2.0,1.0
9.856781005859377,-1.6018953323364258,0.2208458185195922,-0.0,-0.0,-1.0,0.2317928491883297,1.0,1.0
10.040437698364258,-1.341017723083496,0.2327144145965576,-0.0,-0.0,-1.0,0.2329370430883971,2.0,1.0
8.230081558227539,-1.1873092651367188,0.2148653268814087,-0.0,-0.0,-1.0,0.1910666810574009,2.0,1.0
7.730733394622803,-0.432281494140625,0.3452008962631225,0.9782938710020525,-0.1083317293551212,-0.1766503279780376,0.204533442372371,6.0,1.0
8.069015502929688,-0.6250591278076172,0.2903296947479248,-0.0,-0.0,-1.0,0.1815342907430301,1.0,1.0
9.669979095458984,-1.3627042770385742,0.6157384514808655,-0.0,-0.0,-1.0,0.1974135388481982,1.0,1.0
7.741147994995117,-0.4863491058349609,0.2816749811172485,-0.0,-0.0,-1.0,0.1927123497412486,2.0,1.0
8.248381614685059,-0.8622531890869141,0.2129567861557006,-0.0,-0.0,-1.0,0.2150223156258148,2.0,1.0
8.172664642333984,-1.227191925048828,0.1839091777801513,-0.0,-0.0,-1.0,0.1530530301618985,1.0,1.0
9.614960670471191,-1.5047035217285156,0.6206690073013306,-0.0,-0.0,-1.0,0.2205403796663834,2.0,1.0
10.085790634155272,-0.9789466857910156,0.610724925994873,-0.0,-0.0,-1.0,0.0575921187179844,1.0,1.0
7.895206928253174,-0.6485986709594727,0.357501745223999,0.2430894909300253,-0.5192965227084408,0.8192915359640321,0.179821583685909,3.0,1.0
8.19902515411377,-0.9887094497680664,0.3165563344955444,-0.0,-0.0,-1.0,0.1772288727084755,1.0,1.0
9.507003784179688,-1.460784912109375,0.2078516483306884,-0.0,-0.0,-1.0,0.2080492916693279,1.0,1.0
9.716642379760742,-1.4132108688354492,0.1992839574813842,-0.0,-0.0,-1.0,0.1836936566251257,1.0,1.0
9.76817226409912,-0.73614501953125,0.2546728849411011,-0.0,-0.0,-1.0,0.181209339228137,1.0,1.0
10.075244903564451,-1.0093774795532229,0.2119410037994384,-0.0,-0.0,-1.0,0.2012144353596715,1.0,1.0
9.659038543701172,-0.033111572265625,0.3213536739349365,-0.0,-0.0,-1.0,0.122609625875724,1.0,1.0
9.937772750854492,-0.6118564605712891,0.2550846338272095,-0.0,-0.0,-1.0,0.193263871419776,1.0,1.0
9.872068405151367,0.0694026947021484,0.3178095817565918,-0.0,-0.0,-1.0,0.2289905095703679,2.0,1.0
7.863133907318115,-1.352670669555664,0.1932160854339599,-0.0,-0.0,-1.0,0.1688453624514706,1.0,1.0
8.010757446289062,-1.1554937362670898,0.2072556018829345,-0.0,-0.0,-1.0,0.1951244163246175,1.0,1.0
7.881986618041992,-0.4918127059936523,0.2561349868774414,0.9018432350518204,0.071126457778709,-0.4261687534241807,0.2375625212034012,3.0,1.0
9.082870483398438,-1.8562545776367188,0.1475825309753418,-0.0,-0.0,-1.0,0.1258310651978633,2.0,1.0
9.763938903808594,-1.3899459838867188,0.1757090091705322,-0.0,-0.0,-1.0,0.157605086611968,1.0,1.0
9.92632293701172,-1.3346920013427734,0.1778666973114013,-0.0,-0.0,-1.0,0.1383717202867107,2.0,1.0
9.858799934387209,-0.650965690612793,0.231408953666687,-0.0,-0.0,-1.0,0.239428527081413,2.0,1.0
10.131318092346191,-1.029897689819336,0.1986597776412964,-0.0,-0.0,-1.0,0.1482524487194842,1.0,1.0
9.862820625305176,0.067112922668457,0.2863919734954834,-0.0,-0.0,-1.0,0.1622579485472597,2.0,1.0
10.087732315063477,-0.5187559127807617,0.2387806177139282,-0.0,-0.0,-1.0,0.1195820135239636,1.0,1.0
9.832416534423828,0.6278247833251953,0.3294461965560913,0.0794415461107018,0.9442921413130332,-0.3193765686552275,0.2204659147142821,4.0,1.0
9.957021713256836,-1.1928586959838867,0.7379565238952637,-0.0,-0.0,-1.0,0.1807078924051249,2.0,1.0
7.842992782592773,0.4203567504882812,0.0115832090377807,-0.0,-0.0,-1.0,0.0503925054392961,1.0,1.0
7.870673656463623,0.3105754852294922,0.0040432214736938,-0.0,-0.0,-1.0,0.0582024858297744,1.0,1.0
10.121292114257812,0.4922952651977539,0.0611391067504882,-0.7740776335881332,0.5495005387689084,-0.314408929693918,0.1128675619840514,3.0,1.0
10.187451362609863,0.2137584686279297,0.0376944541931152,-0.0,-0.0,-1.0,0.0547930022217707,2.0,1.0
8.006427764892578,-1.2847585678100586,0.4510425329208374,-0.0,-0.0,-1.0,0.2416934102558419,1.0,1.0
8.070858001708984,-0.5706882476806641,0.4860779047012329,-0.0,-0.0,-1.0,0.1936097303982478,1.0,1.0
8.103767395019531,-0.738062858581543,0.4781770706176758,-0.0,-0.0,-1.0,0.1670693762764947,2.0,1.0
9.97878360748291,-1.404789924621582,0.4407237768173218,-0.0,-0.0,-1.0,0.2273831160816839,1.0,1.0
9.608806610107422,-0.177316665649414,0.5087424516677856,-0.0,-0.0,-1.0,0.0685373048149896,2.0,1.0
10.151573181152344,-0.1626749038696289,0.5069940090179443,-0.0,-0.0,-1.0,0.0708128017345393,2.0,1.0
8.081188201904297,-1.3274869918823242,0.3365963697433471,0.2798993416447577,-0.7764319219927156,0.5646324725496481,0.1569377791282927,3.0,1.0
8.832398414611816,-1.8157463073730469,0.3025676012039184,-0.0,-0.0,-1.0,0.1653643643762552,1.0,1.0
7.976567268371582,-0.6674766540527344,0.3779377937316894,-0.4889160246685888,-0.8379910330135333,-0.2423471671201773,0.2298361676427559,6.0,1.0
8.251639366149902,-1.033792495727539,0.3553874492645263,-0.0,-0.0,-1.0,0.2459316558084464,1.0,1.0
8.843038558959961,-0.5440435409545898,0.3865556120872497,0.8729783902569835,-0.4652943386568177,0.1463212512188179,0.0949851476054006,3.0,1.0
9.913285255432127,-1.3934011459350586,0.3223731517791748,-0.0,-0.0,-1.0,0.2718102083573213,2.0,1.0
10.031177520751951,0.0935029983520507,0.4237643480300903,-0.8026657001310012,0.3608539962858342,-0.4748812137764061,0.1596392153117002,5.0,1.0
7.746560096740723,-1.465256690979004,0.3147192001342773,-0.0,-0.0,-1.0,0.2469702261068843,1.0,1.0
8.717912673950195,-1.6173429489135742,0.3022783994674682,-0.0,-0.0,-1.0,0.1777485462466845,2.0,1.0
7.730382919311523,-0.4314985275268554,0.384563684463501,0.9814624915817296,-0.1725920373351932,0.0833268640155777,0.1825979393074503,5.0,1.0
7.972829818725586,-0.6406936645507812,0.371479868888855,-0.2972862366521975,-0.6797478872004104,-0.6704951180610877,0.2793862358304273,7.0,1.0
9.493379592895508,-1.8201045989990232,0.2816388010978699,-0.0,-0.0,-1.0,0.1516456416708505,1.0,1.0
9.768489837646484,-1.4399385452270508,0.3078492283821106,-0.0,-0.0,-1.0,0.1942508724335929,1.0,1.0
9.9213228225708,-1.2735233306884766,0.3189561367034912,-0.0,-0.0,-1.0,0.2333253996002608,1.0,1.0
9.592308044433594,0.4793577194213867,0.4502748250961303,0.7244682368586706,0.4498813542182246,-0.5222571597495487,0.1965307116314094,5.0,1.0
9.744539260864258,0.4986686706542969,0.4513177871704101,-0.0,-0.0,-1.0,0.1031941323711102,1.0,1.0
10.04593276977539,0.1345052719116211,0.4235723614692688,-0.8026657001310012,0.3608539962858342,-0.4748812137764061,0.1450997459640245,5.0,1.0
8.834383964538574,-1.841716766357422,0.0930646657943725,-0.0,-0.0,-1.0,0.1461567461467017,1.0,1.0
8.454499244689941,-1.3401269912719729,0.1324266195297241,-0.0,-0.0,-1.0,0.1739813025040439,1.0,1.0
8.667709350585938,-1.2823123931884766,0.1389063596725464,-0.0,-0.0,-1.0,0.1553978413530213,2.0,1.0
8.964963912963867,-1.8550910949707031,0.0924986600875854,-0.0,-0.0,-1.0,0.1541952633417644,1.0,1.0
7.807065963745117,-0.3667078018188476,0.2020164728164672,-0.0,-0.0,-1.0,0.1773370748592436,1.0,1.0
9.925073623657228,0.1052827835083007,0.2634043097496032,-0.9936487665984328,-0.1068653486645458,-0.0352409689455,0.230193766072676,5.0,1.0
9.80687427520752,-1.2278261184692385,0.6772406101226807,-0.4076900232542986,-0.3041523659550518,-0.8609762965511036,0.1095603481545512,3.0,1.0
10.0364408493042,-1.1634883880615234,0.6768940091133118,-0.0,-0.0,-1.0,0.1972220332615434,1.0,1.0
10.16571807861328,0.4909229278564453,0.0370329618453979,-0.0,-0.0,-1.0,0.0979018924379221,1.0,1.0
8.000245094299316,-1.1723012924194336,0.3824225664138794,-0.0,-0.0,-1.0,0.2136692451930773,1.0,1.0
7.814943313598633,-0.5682411193847656,0.4153268337249756,0.2557664753147616,-0.8805887290710022,0.3989323255117095,0.2308589710343172,3.0,1.0
7.990195274353027,-0.6621074676513672,0.4126671552658081,0.940716269029946,-0.0048800794167462,-0.3391593814230474,0.178491545961791,4.0,1.0
8.387948036193848,-1.2422809600830078,0.3829156160354614,-0.0,-0.0,-1.0,0.1396753307653576,2.0,1.0
7.738374710083008,-0.3444480895996094,0.426809549331665,-0.0,-0.0,-1.0,0.1455844582294056,1.0,1.0
8.193137168884277,-0.6474523544311523,0.416559100151062,-0.0,-0.0,-1.0,0.1691784526217617,1.0,1.0
9.511063575744627,-1.668203353881836,0.3642245531082153,-0.0,-0.0,-1.0,0.1582161798814743,1.0,1.0
8.804767608642578,-0.5731534957885742,0.4292218685150146,-0.0,-0.0,-1.0,0.1129053649629739,2.0,1.0
10.11590576171875,-0.7949609756469727,0.4261223673820495,-0.0,-0.0,-1.0,0.1173150375472669,1.0,1.0
9.683686256408691,-0.7236490249633789,-0.0361744165420532,-0.0,-0.0,-1.0,0.1816367486174076,1.0,0.0
9.95592212677002,-0.7309207916259766,-0.0245916843414306,-0.0,-0.0,-1.0,0.1372928221228757,1.0,0.0
10.039016723632812,-0.640080451965332,-0.0135848522186279,-0.0,-0.0,-1.0,0.2113434756467578,1.0,0.0
9.993550300598145,0.2270975112915039,0.051720380783081,-0.0,-0.0,-1.0,0.0929527422877337,1.0,1.0
10.195995330810549,0.178532600402832,0.0577738285064697,-0.0,-0.0,-1.0,0.1232992326566136,2.0,1.0
10.064382553100586,0.5645618438720703,0.0803687572479248,-0.5181198928137446,0.7355443380384795,-0.4364931883205155,0.1577499628183011,4.0,1.0
7.725296974182129,-0.4813365936279297,0.4450956583023071,0.7607069643495037,0.4401495136723051,0.4770674166238942,0.1427421352334598,4.0,1.0
7.928496360778809,-0.6439599990844727,0.4438023567199707,0.0368967527210651,-0.9595200337489322,-0.2792130628625541,0.1701670786677843,3.0,1.0
8.8766508102417,-1.755558967590332,0.4122484922409057,-0.0,-0.0,-1.0,0.1523216719038125,1.0,1.0
9.603981971740724,-1.5168590545654297,0.4398245811462402,-0.0,-0.0,-1.0,0.1818740068753673,1.0,1.0
9.84052276611328,-0.5652990341186523,0.4963434338569641,-0.0,-0.0,-1.0,0.1658472727953927,1.0,1.0
8.093541145324707,-1.1040849685668943,0.2788963317871094,-0.0,-0.0,-1.0,0.162465026555738,2.0,1.0
8.2496919631958,-1.339949607849121,0.2730917930603027,0.8663459426406082,-0.4803807447046619,0.1366713129634378,0.1797083243045437,3.0,1.0
7.758130073547363,-0.3939495086669922,0.2984497547149658,-0.0,-0.0,-1.0,0.1776430180631198,2.0,1.0
8.34459400177002,-0.930394172668457,0.296668529510498,-0.0,-0.0,-1.0,0.2361648436196859,2.0,1.0
9.82009220123291,0.5473356246948242,0.422730803489685,0.9539017470602612,0.0336097897096404,-0.2982311838005148,0.2380858645568321,4.0,1.0
10.037354469299316,0.0995702743530273,0.4089584350585937,-0.8026657001310012,0.3608539962858342,-0.4748812137764061,0.1355864253542357,5.0,1.0
8.004741668701172,-0.9055709838867188,0.3269062042236328,-0.0,-0.0,-1.0,0.1907086734507432,1.0,1.0
8.137042999267578,-1.2687253952026367,0.3179285526275635,-0.0,-0.0,-1.0,0.2217425033868073,2.0,1.0
8.87446117401123,-1.6961297988891602,0.3275514841079712,-0.0,-0.0,-1.0,0.1888848399375492,2.0,1.0
8.148011207580566,-0.698878288269043,0.340709924697876,0.9255864970104696,-0.2650806094087328,-0.2702256595280738,0.1133657104694199,4.0,1.0
8.701290130615234,-0.5835895538330078,0.367904782295227,-0.0,-0.0,-1.0,0.1136128013703895,2.0,1.0
10.071551322937012,-0.6171026229858398,0.4195144176483154,-0.0,-0.0,-1.0,0.2532998222423683,1.0,1.0
10.017582893371582,0.110753059387207,0.4484385848045349,-0.7897282079720269,0.328699062931333,-0.5179635928917733,0.1493302597723994,4.0,1.0
10.062514305114746,-1.306501388549805,0.9253531694412231,-0.0,-0.0,-1.0,0.1626595133943817,1.0,1.0
8.641678810119629,-1.1118268966674805,0.0309866666793823,-0.0,-0.0,-1.0,0.136898087972917,1.0,1.0
9.394623756408691,-1.1277751922607422,0.0718345642089843,-0.0,-0.0,-1.0,0.0721725454134877,1.0,1.0
9.893318176269531,-0.5384531021118164,0.1285635232925415,-0.0,-0.0,-1.0,0.2323076100668882,1.0,1.0
9.699300765991213,-1.6655921936035156,0.6250697374343872,-0.0,-0.0,-1.0,0.0845883923987992,1.0,1.0
10.018893241882324,-1.363689422607422,0.6426149606704712,-0.0,-0.0,-1.0,0.1069468296745585,1.0,1.0
8.052748680114746,-1.3066415786743164,0.1816742420196533,-0.0,-0.0,-1.0,0.2097445180659241,2.0,1.0
8.193224906921387,-1.5953989028930664,0.1759359836578369,-0.0,-0.0,-1.0,0.1359363930634813,1.0,1.0
7.938057899475098,-0.5633220672607422,0.2068829536437988,-0.0,-0.0,-1.0,0.1476200822721819,2.0,1.0
8.088142395019531,-0.7427577972412109,0.2067617177963256,0.8908585056620455,-0.0621153406907191,-0.4500142301532954,0.2180774132558874,3.0,1.0
8.274541854858398,-1.1717815399169922,0.197767972946167,0.82156528144439,-0.4591423721510511,0.3379626760763758,0.1901895193835279,3.0,1.0
8.30152702331543,-1.4062261581420898,0.1891071796417236,-0.3844258928233741,-0.7830262016363123,0.4889649276563306,0.1483867897703924,3.0,1.0
8.603312492370605,-0.6593117713928223,0.2347325086593628,-0.0,-0.0,-1.0,0.1516851184834582,1.0,1.0
9.839648246765137,0.5381979942321777,0.3424463272094726,-0.0217249347930021,0.921416068902252,-0.3879696575467727,0.116321300583017,4.0,1.0
9.799811363220217,0.4624695777893066,0.3375140428543091,0.0611922747965741,0.9808973938303234,-0.184650503064845,0.1110239671905903,3.0,1.0
9.944679260253906,-0.0487933158874511,0.3236279487609863,-0.0,-0.0,-1.0,0.1773627467912105,2.0,1.0
7.836306571960449,-0.4514689445495605,0.8060271739959717,-0.0,-0.0,-1.0,0.1428237799918889,2.0,1.0
9.681198120117188,-1.5482149124145508,0.8070926070213318,-0.0,-0.0,-1.0,0.0976061263348451,1.0,1.0
10.163107872009276,-0.8862929344177246,0.8323005437850952,-0.0,-0.0,-1.0,0.0875210005618935,2.0,1.0
7.762712478637695,-0.3296380043029785,0.3379411101341247,-0.0,-0.0,-1.0,0.2117183685344459,2.0,1.0
7.926460266113281,-0.5416073799133301,0.3428199887275696,-0.0,-0.0,-1.0,0.1809009992255928,2.0,1.0
7.9254150390625,-1.0621390342712402,0.334169864654541,-0.0,-0.0,-1.0,0.1557535464855895,1.0,1.0
8.11252212524414,-1.2421011924743652,0.3401850461959839,-0.0,-0.0,-1.0,0.2184407424442196,2.0,1.0
8.161561012268066,-0.9003300666809082,0.3485459685325622,-0.0,-0.0,-1.0,0.1781118750179163,1.0,1.0
8.575254440307617,-0.5641708374023438,0.3745640516281128,-0.0,-0.0,-1.0,0.1286791522841244,1.0,1.0
9.167369842529297,-1.736258029937744,0.3815324306488037,-0.0,-0.0,-1.0,0.2029197332042025,1.0,1.0
9.795732498168944,-1.3432774543762207,0.419394314289093,-0.0,-0.0,-1.0,0.136404229802896,1.0,1.0
9.693635940551758,0.6192398071289062,0.4486333131790161,-0.0,-0.0,-1.0,0.0670978434187938,1.0,1.0
9.906354904174805,-0.5077614784240723,0.440751850605011,-0.0,-0.0,-1.0,0.1445315038444064,1.0,1.0
9.941727638244627,0.2465238571166992,0.4553377628326416,-0.0,-0.0,-1.0,0.0769372920362469,1.0,1.0
9.942757606506348,0.1348891258239746,0.4535906314849853,-0.0,-0.0,-1.0,0.228000996001455,1.0,1.0
9.74265956878662,-1.7364802360534668,0.9622088670730592,-0.0,-0.0,-1.0,0.0984378029715895,1.0,1.0
10.180671691894531,0.6028084754943848,0.0654503107070922,-0.0,-0.0,-1.0,0.1291930926213105,1.0,1.0
7.765137672424316,-0.4110302925109863,0.4324151277542114,-0.0,-0.0,-1.0,0.1350063963573285,2.0,1.0
7.91656494140625,-0.6963353157043457,0.4281162619590759,-0.0,-0.0,-1.0,0.257533047950428,2.0,1.0
8.075967788696289,-0.6703190803527832,0.4352456331253052,-0.0,-0.0,-1.0,0.2832379403947657,2.0,1.0
8.255526542663574,-1.1248531341552734,0.4249354600906372,-0.0,-0.0,-1.0,0.1271059440421777,1.0,1.0
8.44807243347168,-1.7595500946044922,0.4064067602157593,-0.0,-0.0,-1.0,0.2063430835322348,1.0,1.0
8.829747200012207,-1.8395209312438965,0.4167200326919555,-0.0,-0.0,-1.0,0.1274462005670162,1.0,1.0
9.92592430114746,-1.410240650177002,0.4743365049362182,-0.0,-0.0,-1.0,0.2175318172891849,1.0,1.0
9.13535213470459,-0.6499009132385254,-0.0098994970321655,-0.0,-0.0,-1.0,0.0417036160881527,1.0,0.0
7.8140106201171875,-0.4513435363769531,0.4687986373901367,0.8800294564159921,0.206322953107827,0.4277604409725596,0.1627347782577808,3.0,1.0
7.783927917480469,-0.7334818840026855,0.4629780054092407,-0.0,-0.0,-1.0,0.1495881849664683,1.0,1.0
9.139334678649902,-0.4541182518005371,-0.0042029619216918,-0.0,-0.0,-1.0,0.050688938492703,2.0,0.0
9.166996002197266,-0.5572266578674316,-0.0048006772994995,-0.0,-0.0,-1.0,0.0292968951357987,1.0,0.0
10.021093368530272,0.5550177097320557,0.0895808935165405,-0.2349401496502545,-0.4553262722907713,-0.8587672046859418,0.157749962818301,4.0,1.0
10.032356262207031,0.1568210124969482,0.0822889804840087,-0.0,-0.0,-1.0,0.1108638321035115,1.0,1.0
8.108988761901855,-0.6166510581970215,0.479887843132019,-0.0,-0.0,-1.0,0.2132602449045674,2.0,1.0
9.896745681762695,-0.610135555267334,0.5613076686859131,-0.0,-0.0,-1.0,0.1097522583013218,1.0,1.0
9.687945365905762,-1.565805435180664,0.5297122001647949,-0.0,-0.0,-1.0,0.2042381224787429,2.0,1.0
10.025668144226074,-0.6498370170593262,0.5662792921066284,-0.0,-0.0,-1.0,0.1674461030131235,1.0,1.0
10.01877212524414,-1.2324934005737305,0.5525957345962524,-0.0,-0.0,-1.0,0.1236688377261607,1.0,1.0
7.755321502685547,-0.3592085838317871,0.3344411849975586,0.6556739704557318,-0.2482777023176233,0.7130566786719681,0.2011353587730133,3.0,1.0
10.13718032836914,-0.2520921230316162,-0.0280505418777465,-0.0,-0.0,-1.0,0.0797535563796095,1.0,0.0
7.9932756423950195,-0.4302818775177002,0.3465386629104614,-0.0,-0.0,-1.0,0.2237525297463772,2.0,1.0
7.95203971862793,-0.6106901168823242,0.3414700031280517,0.3806814538528758,-0.8759509345335751,-0.2962964579305958,0.2448522872256773,6.0,1.0
8.113197326660156,-0.639672040939331,0.3498642444610595,-0.0,-0.0,-1.0,0.2299572910098913,2.0,1.0
9.573776245117188,0.4595247507095337,0.4450029730796814,-0.6275822761347051,0.2100509220707671,-0.7496793293260817,0.1392679510904292,4.0,1.0
9.580617904663086,0.4095296859741211,0.4448903203010559,-0.0,-0.0,-1.0,0.1194873108097661,2.0,1.0
7.851371765136719,-0.4480135440826416,0.2379986047744751,0.0382939841468137,-0.8965232953681076,-0.44133836411587,0.2035923789010491,6.0,1.0
7.992252349853516,-0.4888108968734741,0.245347261428833,0.2134025577380997,-0.9533168596864466,-0.2136499786763591,0.2006634070840502,3.0,1.0
8.628623008728027,-0.5581570863723755,0.2816992998123169,-0.0,-0.0,-1.0,0.1543667619207607,2.0,1.0
8.896262168884277,-1.7649428844451904,0.2563891410827636,-0.0,-0.0,-1.0,0.2184614870561078,2.0,1.0
9.236488342285156,-1.8342857360839844,0.2735453248023987,-0.0,-0.0,-1.0,0.0979131197111464,2.0,1.0
9.61865234375,0.4138227701187134,0.3667356371879577,-0.0,-0.0,-1.0,0.0830333592270465,1.0,1.0
9.82327938079834,0.5619043707847595,0.3823586702346802,-0.5191109064719213,0.8190481849313561,-0.2443029626151745,0.1249725773607131,4.0,1.0
10.03132152557373,0.0482058525085449,0.3830459713935852,-0.0,-0.0,-1.0,0.1694589141211094,2.0,1.0
7.894294738769531,-0.475924015045166,0.8120508790016174,0.5747508138570467,-0.7763258610173116,-0.2588042879984641,0.1408570393130956,5.0,1.0
8.019346237182617,-0.1285997480154037,-0.0221869945526123,-0.0,-0.0,-1.0,0.0984494981206253,1.0,0.0
8.223493576049805,-0.1814721971750259,-0.004790186882019,-0.0,-0.0,-1.0,0.0967969564294413,1.0,0.0
7.809795379638672,-0.6913272142410278,0.5456626415252686,-0.0,-0.0,-1.0,0.2269945324025692,1.0,1.0
7.892723083496094,-0.5755355358123779,0.5488115549087524,-0.0,-0.0,-1.0,0.2465786907045886,2.0,1.0
9.562015533447266,0.3009643256664276,0.1001816987991333,-0.0,-0.0,-1.0,0.0758527793436418,1.0,1.0
9.462470054626465,0.2209568321704864,0.0930624008178711,-0.0,-0.0,-1.0,0.1289449734042036,1.0,1.0
9.897831916809082,0.4989420175552368,0.1248106956481933,0.356972696625792,-0.1945748523689732,-0.9136252627249876,0.1767495062729625,4.0,1.0
9.957213401794434,0.0940068438649177,0.1356177330017089,-0.2529303952888003,0.6570307155897969,-0.7101667789404194,0.1717999695229081,3.0,1.0
9.989994049072266,-1.184555172920227,0.6508287191390991,-0.8044086507632456,0.263001051723057,-0.5326886232780096,0.1773470788158872,3.0,1.0
8.746711730957031,-1.6539791822433472,0.0126204490661621,-0.0,-0.0,-1.0,0.1794824756270835,2.0,1.0
7.773944854736328,-0.702082097530365,0.501955509185791,-0.0,-0.0,-1.0,0.2061558238316052,2.0,1.0
7.999404907226563,-0.6172943115234375,0.5193678140640259,-0.0211759401412094,-0.3726211675255759,-0.927741906497175,0.2208916209325117,3.0,1.0
9.560080528259276,0.2164632081985473,0.1014872789382934,-0.0,-0.0,-1.0,0.0629985545597224,1.0,1.0
9.744867324829102,-0.0027258992195129,0.1245591640472412,-0.0,-0.0,-1.0,0.1196346988830117,1.0,1.0
9.914738655090332,-1.5694661140441897,0.1450662612915039,-0.0,-0.0,-1.0,0.1684085070366451,1.0,1.0
9.936184883117676,0.5058993101119995,0.1399810314178466,0.356972696625792,-0.1945748523689732,-0.9136252627249876,0.1680181852362551,4.0,1.0
9.9274320602417,0.0496798157691955,0.1446177959442138,0.5177108793606274,0.5730297405907687,0.6353049360662347,0.124806531283304,4.0,1.0
8.829275131225586,-0.5473656058311462,0.5837852954864502,-0.0,-0.0,-1.0,0.0795555636804245,2.0,1.0
8.214874267578125,-1.03725266456604,0.2328951358795166,-0.0,-0.0,-1.0,0.190144178458629,2.0,1.0
8.290399551391602,-1.397816181182861,0.2397838830947876,-0.0,-0.0,-1.0,0.1722489925589776,2.0,1.0
8.730804443359375,-1.5965601205825806,0.2815901041030884,-0.5971346618332308,-0.348693401809012,-0.7223870895663708,0.1861800128708693,3.0,1.0
9.0881929397583,-1.6582660675048828,0.3157724142074585,0.2541335887492877,-0.9570511309688946,-0.1395322607161775,0.1660616427439458,3.0,1.0
9.366907119750977,0.3416019678115845,0.3325380086898803,-0.0,-0.0,-1.0,0.1697361140141713,1.0,1.0
9.674202919006348,0.4057539701461792,0.3606654405593872,-0.0,-0.0,-1.0,0.0861916953981891,2.0,1.0
9.713685989379885,-0.0258307456970214,0.3704588413238525,-0.0,-0.0,-1.0,0.1235510970469706,1.0,1.0
9.853418350219728,0.5589238405227661,0.3749966621398926,-0.5038675606014099,0.8624128102326686,-0.0485965649009822,0.1147848705840267,5.0,1.0
10.009429931640623,-1.3111448287963867,0.4057134389877319,-0.0,-0.0,-1.0,0.1484545084704701,1.0,1.0
10.007525444030762,-1.4928263425827026,0.4051269292831421,0.9053486983590948,-0.2512395909123936,-0.3423775727726126,0.1500598285774332,3.0,1.0
9.970587730407717,-1.8224241733551023,0.3999513387680053,-0.0,-0.0,-1.0,0.1580435372333807,1.0,1.0
10.03796100616455,0.092352271080017,0.3998267650604248,-0.9028862419085834,0.2969249456428225,-0.3108568976670807,0.1649116028696615,5.0,1.0
8.419654846191406,-1.404124140739441,0.0587520599365234,-0.0,-0.0,-1.0,0.1653411593932758,1.0,1.0
8.450658798217773,-0.941603660583496,0.0343905687332153,-0.0,-0.0,-1.0,0.1511561889141885,1.0,1.0
8.388227462768555,-1.0516341924667358,0.035007357597351,-0.0,-0.0,-1.0,0.1485523225880965,1.0,1.0
8.642698287963867,-1.5376564264297483,0.0882563591003418,-0.0,-0.0,-1.0,0.1634543553352246,1.0,1.0
8.822418212890625,-1.4963037967681885,0.1037161350250244,-0.0,-0.0,-1.0,0.2593251686395582,2.0,1.0
9.28590488433838,-1.8153884410858152,0.1668943166732788,-0.0,-0.0,-1.0,0.076617936767871,1.0,1.0
9.96867847442627,-1.388819932937622,0.2106213569641113,-0.0,-0.0,-1.0,0.2033319954188608,1.0,1.0
9.99986171722412,0.3426916599273681,0.0935727357864379,-0.0,-0.0,-1.0,0.0623804631282872,2.0,1.0
10.126444816589355,0.5169098377227783,0.0914726257324218,-0.7740776335881332,0.5495005387689084,-0.314408929693918,0.0574591197282416,3.0,1.0
7.854961395263672,-0.6181056499481201,0.5748356580734253,-0.0,-0.0,-1.0,0.2291821900985246,1.0,1.0
9.952072143554688,-1.19953715801239,0.7409831285476685,-0.0,-0.0,-1.0,0.1807078924051249,2.0,1.0
9.349369049072266,-1.1243023872375488,0.0342104434967041,-0.0,-0.0,-1.0,0.0660836392920975,2.0,1.0
9.59613800048828,-1.2247931957244873,0.0640844106674194,-0.0,-0.0,-1.0,0.0892591758096147,1.0,1.0
9.675572395324709,-1.4928240776062012,0.0837297439575195,-0.0,-0.0,-1.0,0.1974989017036985,1.0,1.0
9.902005195617676,-1.3586740493774414,0.1014673709869384,0.2771783747393139,0.1393208184185843,-0.9506639038756276,0.1741595992493467,4.0,1.0
10.20716667175293,0.3242912292480469,0.0459173917770385,-0.0,-0.0,-1.0,0.0248628381485676,1.0,1.0
7.910968780517578,-0.338982343673706,0.4877340793609619,-0.0,-0.0,-1.0,0.1888136093521516,1.0,1.0
7.856575012207031,-0.6800670623779297,0.4978435039520263,-0.8463871279855097,0.2100328755757835,-0.4894027183800758,0.1712988849520172,3.0,1.0
8.198688507080078,-0.5870459079742432,0.5174343585968018,-0.0,-0.0,-1.0,0.1414110073005686,1.0,1.0
8.778165817260742,-0.5777707099914551,0.5563902854919434,-0.0,-0.0,-1.0,0.088557560956127,2.0,1.0
9.972613334655762,-1.2130675315856934,0.6629979610443115,-0.0,-0.0,-1.0,0.1936870760596899,2.0,1.0
7.982536315917969,-0.5691671371459961,0.1708720922470092,-0.1199621057100532,0.071654515960365,-0.9901892362251246,0.213643765011543,3.0,1.0
8.159645080566406,-0.8587446212768555,0.1952282190322876,-0.0,-0.0,-1.0,0.1633692853393597,1.0,1.0
8.311288833618164,-1.266474723815918,0.2204283475875854,-0.0,-0.0,-1.0,0.1336418006505629,1.0,1.0
8.672159194946289,-0.6130423545837402,0.2309619188308715,-0.0,-0.0,-1.0,0.2089047316518098,2.0,1.0
9.811399459838867,0.4125714302062988,0.2873554229736328,-0.0,-0.0,-1.0,0.1094960936473876,2.0,1.0
10.004817962646484,-1.456834316253662,0.371556282043457,0.712836133517454,-0.6893117868897557,-0.1292822772337285,0.1553279269155898,6.0,1.0
9.897106170654297,0.6339807510375977,0.284784197807312,-0.0,-0.0,-1.0,0.1567100118189749,2.0,1.0
7.960311889648437,-0.5528922080993652,0.8218234777450562,-0.0,-0.0,-1.0,0.1437634019316263,1.0,1.0
7.8386077880859375,-0.0395302772521972,0.1862604618072509,-0.0,-0.0,-1.0,0.1412657116929204,2.0,1.0
7.964651107788086,-0.4878830909729004,0.2136380672454834,0.2134025577380997,-0.9533168596864466,-0.2136499786763591,0.1866032455689605,3.0,1.0
8.088457107543945,-0.5992236137390137,0.2275395393371582,-0.0,-0.0,-1.0,0.1489866288074436,2.0,1.0
8.137821197509766,-0.8015727996826172,0.2388830184936523,-0.0,-0.0,-1.0,0.1953845023365138,2.0,1.0
8.213502883911133,-1.049692153930664,0.2537380456924438,0.7323787408787695,-0.4125487147437162,-0.5416871217521574,0.1848605315648712,4.0,1.0
8.189592361450195,-0.2479481697082519,0.036805510520935,-0.0,-0.0,-1.0,0.1581167032334236,1.0,1.0
8.29951286315918,-0.1553993225097656,0.041979432106018,-0.0,-0.0,-1.0,0.0895457141459983,1.0,1.0
8.478097915649414,-0.7808113098144531,0.0839310884475708,-0.0,-0.0,-1.0,0.1476552287886675,1.0,1.0
8.23495101928711,-1.0355191230773926,0.0734463930130004,-0.0,-0.0,-1.0,0.229225604081935,1.0,1.0
8.877191543579102,-0.5885262489318848,0.1097333431243896,-0.0,-0.0,-1.0,0.1786332441484481,2.0,1.0
8.719074249267578,-0.632598876953125,0.0982407331466674,-0.0,-0.0,-1.0,0.1969586793723274,1.0,1.0
8.586465835571289,-1.4645252227783203,0.1203155517578125,-0.0,-0.0,-1.0,0.2300838634995455,1.0,1.0
10.032585144042969,-1.4737873077392578,0.8435043096542358,-0.0,-0.0,-1.0,0.0842373324726008,1.0,1.0
10.071839332580566,-1.5037312507629397,0.0111947059631347,-0.0,-0.0,-1.0,0.1568619664404176,1.0,1.0
8.124107360839844,-0.5459070205688477,0.4571701288223266,-0.0,-0.0,-1.0,0.1331565259172621,1.0,1.0
10.075751304626465,-1.5302481651306152,0.6151219606399536,-0.0,-0.0,-1.0,0.2271588042137754,1.0,1.0
9.661578178405762,-1.0679750442504885,0.002131700515747,-0.0,-0.0,-1.0,0.0805982226701451,1.0,1.0
7.754446029663086,-0.5935373306274414,0.4983783960342407,-0.0,-0.0,-1.0,0.2034502967246211,2.0,1.0
7.942697525024414,-0.4580106735229492,0.5047509670257568,-0.0,-0.0,-1.0,0.2096720351532673,2.0,1.0
7.8869781494140625,-0.506434440612793,0.5031770467758179,0.7236664163254108,0.6848846663202529,0.0850876707997894,0.2582069510748122,4.0,1.0
10.036778450012209,-1.2476396560668943,0.6558883190155029,-0.0,-0.0,-1.0,0.1337741602497163,2.0,1.0
8.023040771484375,-0.4458065032958984,0.3444072008132934,-0.0,-0.0,-1.0,0.2234099761357387,2.0,1.0
9.840190887451172,0.5322113037109375,0.4206740856170654,0.3262484090431424,0.5391398199735519,-0.7764600634390054,0.1796379848235096,3.0,1.0
9.393946647644045,0.3324127197265625,0.4018161296844482,-0.0,-0.0,-1.0,0.1716382516209961,2.0,1.0
9.850109100341797,0.5049533843994141,0.3013359308242798,-0.0848715164445924,-0.5859655929468118,-0.8058791159838343,0.1473037369075795,5.0,1.0
10.162920951843262,-0.921733856201172,0.3924473524093628,-0.0,-0.0,-1.0,0.1057019968093706,1.0,1.0
10.104866027832031,-1.5428800582885742,0.4161940813064575,-0.0,-0.0,-1.0,0.1194680300085002,1.0,1.0
8.362324714660645,0.2709932327270508,0.0263526439666748,-0.0,-0.0,-1.0,0.0301243327882046,1.0,1.0
8.430888175964355,0.1296272277832031,0.0390336513519287,-0.0,-0.0,-1.0,0.0647638007209364,1.0,1.0
9.887083053588867,-0.6988506317138672,0.1922221183776855,0.6732499902790015,-0.2435536305474153,-0.6981519029813624,0.2190450251406286,4.0,1.0
9.39742374420166,0.0459756851196289,0.0244395732879638,-0.0,-0.0,-1.0,0.080923796982568,2.0,1.0
9.855481147766112,-1.827054023742676,0.7998631000518799,-0.0,-0.0,-1.0,0.2259231883889863,1.0,1.0
7.921830177307129,-0.615086555480957,0.5194652080535889,-0.6995041517048487,0.4464970324571568,-0.5579734238784431,0.2674717384494545,4.0,1.0
7.711263656616211,-0.6577281951904297,0.5144855976104736,-0.4386713838086066,0.8085944343774858,0.392100060853344,0.1496858898777653,3.0,1.0
9.225682258605955,0.5360612869262695,0.4739010334014892,-0.0,-0.0,-1.0,0.1705848180910065,1.0,1.0
9.808419227600098,0.4973945617675781,0.4945316314697265,-0.0,-0.0,-1.0,0.0680384006365576,1.0,1.0
9.659281730651855,0.4126186370849609,0.4972653388977051,-0.0,-0.0,-1.0,0.115990111097535,1.0,1.0
9.123615264892578,-0.3056068420410156,0.1000239849090576,-0.0,-0.0,-1.0,0.0380514115834037,1.0,1.0
9.222293853759766,0.2054615020751953,0.282172679901123,-0.0,-0.0,-1.0,0.099780153123306,1.0,1.0
7.830698013305664,-0.7793312072753906,0.3262300491333008,-0.0,-0.0,-1.0,0.229561147133973,1.0,1.0
7.73570442199707,-0.8394794464111328,0.3281948566436767,-0.0,-0.0,-1.0,0.2046692462196694,1.0,1.0
7.900424957275391,-0.5850925445556641,0.760448694229126,-0.0,-0.0,-1.0,0.1704295765100615,1.0,1.0
7.841596603393555,-0.6255989074707031,0.7570607662200928,-0.0,-0.0,-1.0,0.165039965453614,2.0,1.0
9.453333854675291,0.3108806610107422,0.3712646961212158,0.9505826883066962,-0.0842826690857699,-0.2988126242035179,0.1654414863158002,3.0,1.0
9.169977188110352,0.3939418792724609,0.3495585918426513,-0.0,-0.0,-1.0,0.0801125742204804,1.0,1.0
8.138294219970703,-0.7886123657226562,0.3798933029174804,-0.0,-0.0,-1.0,0.1925524584777932,2.0,1.0
7.730646133422852,-0.7227153778076172,0.3510951995849609,-0.0,-0.0,-1.0,0.1417926824459545,1.0,1.0
9.597671508789062,0.446990966796875,0.4199535846710205,-0.8150725797456024,0.1321262773166814,-0.5640916030125639,0.1652278992358642,4.0,1.0
9.411787033081056,0.4695301055908203,0.4066123962402344,-0.0,-0.0,-1.0,0.1720444732121243,1.0,1.0
8.122852325439453,-0.5403251647949219,0.3930842876434326,-0.0,-0.0,-1.0,0.2104557596610001,2.0,1.0
7.860424041748047,-0.5987834930419922,0.3792958259582519,-0.0,-0.0,-1.0,0.2654580826039973,2.0,1.0
9.812092781066896,0.6141586303710938,0.3091573715209961,-0.8169733949883046,0.5535612620472217,-0.1616304459004275,0.2097027126015055,4.0,1.0
9.576020240783691,0.6367206573486328,0.2921679019927978,-0.0,-0.0,-1.0,0.1845923470804988,1.0,1.0
9.562833786010742,-1.7849845886230469,0.4817407131195068,-0.0,-0.0,-1.0,0.1587770260168756,1.0,1.0
7.955142021179199,-0.4289665222167969,0.2684471607208252,-0.0,-0.0,-1.0,0.236713174085541,1.0,1.0
10.04314422607422,-0.7187461853027344,0.2460417747497558,-0.0,-0.0,-1.0,0.1767766245830644,1.0,1.0
9.026517868041992,0.190927505493164,0.088036298751831,-0.0,-0.0,-1.0,0.0664070084785634,2.0,1.0
8.900936126708984,0.1424388885498047,0.0830028057098388,-0.0,-0.0,-1.0,0.0953247291089637,2.0,1.0
9.369176864624023,0.0439052581787109,0.057363748550415,-0.697175464800435,0.433662039837703,-0.570862160669368,0.0911641721772274,3.0,1.0
9.033000946044922,0.0985317230224609,0.0261225700378417,-0.0,-0.0,-1.0,0.0627761560872157,1.0,1.0
8.8341646194458,0.0020732879638671,0.0202212333679199,-0.0,-0.0,-1.0,0.0591778274017862,1.0,1.0
8.51042652130127,-0.0774612426757812,0.0026659965515136,-0.0,-0.0,-1.0,0.0600571724483767,1.0,1.0
8.801426887512207,-0.5459060668945312,0.5522611141204834,0.623396002997212,-0.5296170613232615,-0.5752244707958912,0.056848594488059,3.0,1.0
7.932019233703613,-0.6024589538574219,0.4744694232940674,0.1416995283305697,-0.8929253419006896,-0.4273237384728709,0.2207892598509021,4.0,1.0
10.084940910339355,-1.4894046783447266,0.0806953907012939,-0.0,-0.0,-1.0,0.1620377320835954,1.0,1.0
9.793508529663086,-1.5022468566894531,0.0513725280761718,-0.0,-0.0,-1.0,0.1360504700119433,1.0,1.0
9.83699893951416,-1.3852615356445312,0.0438599586486816,-0.0815827797781741,0.7782327174663499,0.6226540672866487,0.1542416468899167,3.0,1.0
9.485481262207031,-1.398611068725586,0.0080177783966064,-0.0,-0.0,-1.0,0.1751167617121558,1.0,1.0
9.964418411254885,-1.3369216918945312,0.8132030963897705,-0.0,-0.0,-1.0,0.1038609326018971,2.0,1.0
10.077519416809082,-1.8063411712646484,0.1681437492370605,-0.0,-0.0,-1.0,0.2210347167516408,2.0,1.0
9.984291076660156,-1.4700183868408203,0.1214838027954101,-0.0,-0.0,-1.0,0.1809021055994536,1.0,1.0
9.704010009765623,-1.316843032836914,0.075016975402832,-0.0,-0.0,-1.0,0.1538441337220024,1.0,1.0
9.464125633239746,-1.350749969482422,0.0531322956085205,-0.0,-0.0,-1.0,0.1434055672781416,1.0,1.0
9.185603141784668,-1.0772228240966797,-0.0064785480499267,0.3637677114996973,0.6798154635645962,-0.6368076535098538,0.03716530959012,3.0,0.0
9.36782169342041,-0.8169994354248047,-0.0153470039367675,-0.0,-0.0,-1.0,0.0232630630374867,2.0,0.0
9.931744575500488,-1.289113998413086,0.827007532119751,-0.0,-0.0,-1.0,0.1475933410142844,2.0,1.0
9.805861473083496,-1.229726791381836,0.8114614486694336,-0.0,-0.0,-1.0,0.182339358220654,2.0,1.0
9.133398056030272,0.2495975494384765,0.1374959945678711,-0.0,-0.0,-1.0,0.0842123904445122,2.0,1.0
8.91707706451416,0.1803359985351562,0.1169052124023437,-0.0,-0.0,-1.0,0.0683809903741533,1.0,1.0
8.576436042785645,-0.54327392578125,0.1377248764038086,-0.0,-0.0,-1.0,0.1601258407797211,2.0,1.0
8.352063179016113,0.0784568786621093,0.0550742149353027,-0.0,-0.0,-1.0,0.0761908281055038,1.0,1.0
8.29589557647705,0.5411167144775391,0.0073716640472412,-0.0,-0.0,-1.0,0.0255398814126921,1.0,1.0
8.11302375793457,0.5410709381103516,-0.01564621925354,-0.0,-0.0,-1.0,0.016939138500003,1.0,0.0
10.038103103637695,-1.4515275955200195,0.4015994071960449,0.1879884386883925,-0.9815511048943766,-0.0348966388084696,0.1438096238948921,3.0,1.0
9.64565372467041,-1.829925537109375,0.3856723308563232,-0.0,-0.0,-1.0,0.1570806185555338,1.0,1.0
7.880871772766113,-0.4691886901855469,0.7969846725463867,-0.2393410386960079,-0.9555691927293484,-0.1720563428139094,0.1527035504466797,6.0,1.0
10.064663887023926,-1.4457769393920898,0.1538372039794922,-0.0,-0.0,-1.0,0.1519096577719966,1.0,1.0
9.777429580688477,-1.6404190063476562,0.1371517181396484,-0.0,-0.0,-1.0,0.2449055183470771,2.0,1.0
9.839618682861328,-1.343374252319336,0.1128153800964355,-0.0,-0.0,-1.0,0.2076725691216002,2.0,1.0
9.323358535766602,-0.8343601226806641,-0.011808156967163,-0.0,-0.0,-1.0,0.0241622809705103,2.0,0.0
9.164678573608398,-1.0671758651733398,-0.0077059268951416,-0.0,-0.0,-1.0,0.031245204393938,2.0,0.0
7.883647918701172,-0.5967626571655273,0.4824299812316894,-0.1818791049350211,-0.1985948269822124,-0.9630576752635022,0.2649790397213207,3.0,1.0
9.724250793457031,-1.6581106185913086,0.7782444953918457,-0.0,-0.0,-1.0,0.0723085365799816,1.0,1.0
9.17478084564209,-0.0224580764770507,-0.0053644180297851,-0.0,-0.0,-1.0,0.0310632046402613,1.0,0.0
8.918067932128906,-0.6136627197265625,0.032966136932373,-0.0,-0.0,-1.0,0.1119864607987687,2.0,1.0
8.90749740600586,-0.2094888687133789,-0.0160799026489257,-0.0,-0.0,-1.0,0.0355032197978162,1.0,0.0
8.685450553894043,-0.730891227722168,0.017024278640747,-0.0,-0.0,-1.0,0.1527668737959202,1.0,1.0
10.17225456237793,-1.849687576293945,0.3365700244903564,-0.0,-0.0,-1.0,0.230228827271065,1.0,1.0
10.011399269104004,-1.4109020233154297,0.2642405033111572,0.8456950007482318,-0.3720066593607847,0.3826369181099457,0.1781853331267541,4.0,1.0
9.686744689941406,-1.4694862365722656,0.2307744026184082,-0.0,-0.0,-1.0,0.2180275157766676,2.0,1.0
7.726277351379395,-0.6880006790161133,0.5664656162261963,-0.9648251741016576,-0.1113187652403648,0.2381606934929999,0.2521748319970424,4.0,1.0
9.946976661682127,-1.7700490951538086,0.2803282737731933,-0.0,-0.0,-1.0,0.2352997348076583,1.0,1.0
10.020566940307615,-1.3834285736083984,0.2389078140258789,0.9372770887878492,-0.2702239412776411,0.2202059953628705,0.2153837416998727,4.0,1.0
9.20946216583252,-0.3189277648925781,-0.0064876079559326,-0.0,-0.0,-1.0,0.0448796440475278,1.0,0.0
9.444708824157717,-1.7414417266845703,0.2101459503173828,-0.0,-0.0,-1.0,0.1633388570353578,1.0,1.0
9.63741970062256,-1.4307899475097656,0.1954100131988525,-0.0,-0.0,-1.0,0.2432478001453078,2.0,1.0
8.906893730163574,-0.7278108596801758,0.0075821876525878,-0.0,-0.0,-1.0,0.1453555782089417,2.0,1.0
9.01546859741211,-0.3653678894042969,-0.0254352092742919,-0.0,-0.0,-1.0,0.0462471402038223,1.0,0.0
9.17951774597168,-1.8551454544067385,0.1888866424560547,-0.0,-0.0,-1.0,0.0966894921524206,1.0,1.0
8.830485343933105,-0.8270597457885742,0.0102560520172119,-0.0,-0.0,-1.0,0.1500314603037648,1.0,1.0
9.961854934692385,-1.1253328323364258,0.7811107635498047,-0.0,-0.0,-1.0,0.228664125215596,1.0,1.0
7.927003860473633,-0.5781450271606445,0.4997470378875732,-0.9567779983498356,0.236884541961075,-0.1687055886850634,0.2512135180075718,4.0,1.0
7.751090049743652,-0.6154298782348633,0.4831271171569824,-0.7563346562101442,0.4480232749627778,-0.4766896610029535,0.204785258551207,3.0,1.0
10.07404327392578,-1.3845319747924805,0.8199944496154785,-0.0,-0.0,-1.0,0.1163355775296021,1.0,1.0
9.807045936584473,-1.779158592224121,0.8313274383544922,-0.0,-0.0,-1.0,0.1886911731424952,2.0,1.0
9.208621978759766,0.2346029281616211,0.0875270366668701,-0.0,-0.0,-1.0,0.0604409007589106,1.0,1.0
9.009530067443848,0.1612501144409179,0.0704259872436523,-0.0,-0.0,-1.0,0.0672971556611014,2.0,1.0
8.720773696899414,-0.485321044921875,0.1146373748779296,-0.0,-0.0,-1.0,0.1294180867505232,1.0,1.0
8.701105117797852,0.002756118774414,0.0489661693572998,-0.0,-0.0,-1.0,0.0492081402877082,1.0,1.0
8.551553726196289,0.1380434036254882,0.0109431743621826,-0.0,-0.0,-1.0,0.0427498963562039,1.0,1.0
8.212369918823242,-0.1046648025512695,-0.0052952766418457,-0.0,-0.0,-1.0,0.1188343150860444,1.0,0.0
9.91552734375,-1.737706184387207,0.4416837692260742,-0.0,-0.0,-1.0,0.2046867803792815,1.0,1.0
9.447725296020508,-1.6322250366210938,0.3629531860351562,-0.0,-0.0,-1.0,0.1530892478895243,1.0,1.0
9.353293418884276,-0.0301990509033203,-0.0171787738800048,-0.0,-0.0,-1.0,0.0553332218870737,1.0,0.0
9.089478492736816,-0.1287164688110351,-0.0407116413116455,-0.0,-0.0,-1.0,0.0262690136039559,1.0,0.0
8.881834030151367,-0.6099987030029297,-0.0005943775177001,-0.0,-0.0,-1.0,0.1080457149098582,2.0,0.0
8.937795639038086,-0.2871608734130859,-0.0395035743713378,-0.0,-0.0,-1.0,0.0321189898155403,1.0,0.0
8.646764755249023,-0.7055540084838867,-0.0221502780914306,-0.0,-0.0,-1.0,0.15040116349401,1.0,0.0
10.026205062866213,-1.28338623046875,0.2670364379882812,-0.0831712115323456,-0.2473885123160613,-0.9653400818086276,0.2703702656274888,3.0,1.0
9.93041706085205,-1.3179521560668943,0.2582547664642334,-0.0,-0.0,-1.0,0.1975106218476428,2.0,1.0
9.65722942352295,-1.4406108856201172,0.2361342906951904,0.676275116009921,0.7200909872879335,-0.1553091674449939,0.2254400987855481,3.0,1.0
9.585996627807615,-1.6716461181640625,0.2590856552124023,-0.0,-0.0,-1.0,0.2216353993025943,2.0,1.0
9.711642265319824,-1.4495906829833984,0.7517328262329102,-0.0,-0.0,-1.0,0.1464099757276483,1.0,1.0
9.790422439575195,-1.799851417541504,0.8028099536895752,-0.0,-0.0,-1.0,0.1110748965855828,2.0,1.0
7.960179328918457,-0.4900398254394531,0.4146924018859863,-0.0,-0.0,-1.0,0.2671491666299697,1.0,1.0
10.201078414916992,-1.630030632019043,0.1498582363128662,-0.0,-0.0,-1.0,0.1110975035598292,1.0,1.0
9.898073196411133,-1.5109539031982422,0.0789594650268554,-0.0,-0.0,-1.0,0.1312845542110092,1.0,1.0
9.834341049194336,-1.387608528137207,0.0464451313018798,-0.0815827797781741,0.7782327174663499,0.6226540672866487,0.1530334110771217,3.0,1.0
9.589052200317385,-1.5837650299072266,0.0408222675323486,-0.0,-0.0,-1.0,0.2146751899176138,1.0,1.0
9.539871215820312,-1.519627571105957,0.0212676525115966,-0.0,-0.0,-1.0,0.1784219290063572,1.0,1.0
8.418747901916504,0.4010467529296875,0.0468125343322753,-0.0,-0.0,-1.0,0.0371460657651885,1.0,1.0
8.039772033691406,0.0291128158569335,0.04716157913208,-0.0,-0.0,-1.0,0.1105168970272441,1.0,1.0
7.853106498718262,0.0898618698120117,0.0108039379119873,-0.0,-0.0,-1.0,0.0909738638966129,1.0,1.0
10.160792350769045,-1.4335412979125977,0.5693700313568115,-0.0,-0.0,-1.0,0.0989367454439898,1.0,1.0
9.736473083496094,-1.6766853332519531,0.5458204746246338,-0.0,-0.0,-1.0,0.1994875579183642,1.0,1.0
9.023545265197754,0.184758186340332,0.1646726131439209,-0.0,-0.0,-1.0,0.0516061196558048,1.0,1.0
8.6808500289917,0.3534107208251953,0.0911223888397216,-0.0,-0.0,-1.0,0.085909498410656,1.0,1.0
8.408512115478516,-0.0191545486450195,0.1080305576324462,-0.0,-0.0,-1.0,0.0835163315443223,1.0,1.0
8.682141304016113,-0.7763442993164062,0.2595274448394775,-0.0,-0.0,-1.0,0.1676553941413523,1.0,1.0
8.300408363342285,0.0357379913330078,0.0842428207397461,-0.0,-0.0,-1.0,0.0914484385275545,1.0,1.0
7.972715377807617,-0.2250013351440429,0.0743272304534912,-0.9377071191121256,0.2623352240505507,-0.2277840841428255,0.0738260847975167,3.0,1.0
7.943727493286133,-0.6052799224853516,0.6531021595001221,-0.0,-0.0,-1.0,0.1519845389159553,2.0,1.0
7.798458099365234,-0.5899267196655273,0.6328012943267822,-0.0,-0.0,-1.0,0.1968233024174254,1.0,1.0
7.769163131713867,-0.6389646530151367,0.6346962451934814,-0.0,-0.0,-1.0,0.2628431227725212,1.0,1.0
9.364879608154297,-0.2244558334350586,-0.0075159072875976,-0.0,-0.0,-1.0,0.075575449174617,2.0,0.0
10.01492691040039,-1.7919034957885742,-0.0522601604461669,-0.0,-0.0,-1.0,0.2038690758256087,1.0,0.0
9.179571151733398,-0.3623685836791992,-0.0175890922546386,-0.0,-0.0,-1.0,0.0289904336755526,1.0,0.0
8.929802894592285,-0.819483757019043,0.0124850273132324,-0.0,-0.0,-1.0,0.1001705351353297,1.0,1.0
9.065841674804688,-0.6272897720336914,0.0060150623321533,-0.0,-0.0,-1.0,0.0751290840516951,1.0,1.0
9.867778778076172,0.5919599533081055,0.4303522109985351,-0.7489633917737766,-0.1382993020278353,-0.6480178553414512,0.1186131636374132,5.0,1.0
9.686851501464844,0.3888444900512695,0.4328711032867431,-0.0,-0.0,-1.0,0.093058816687981,2.0,1.0
10.045525550842283,-1.3700532913208008,0.308229923248291,-0.0,-0.0,-1.0,0.2889124569788814,2.0,1.0
9.4652738571167,0.3009634017944336,0.4120454788208008,-0.0,-0.0,-1.0,0.1545103482998304,2.0,1.0
9.125936508178713,0.4995126724243164,0.3317437171936035,-0.0,-0.0,-1.0,0.1922504017961009,1.0,1.0
9.918861389160156,-1.7823028564453125,0.3541083335876465,-0.0,-0.0,-1.0,0.1618763511660544,1.0,1.0
9.859346389770508,-1.500349044799805,0.2963008880615234,-0.0,-0.0,-1.0,0.1997542519794422,1.0,1.0
9.480825424194336,-1.7554025650024414,0.2681810855865478,-0.0,-0.0,-1.0,0.1838004380885216,2.0,1.0
8.095946311950684,-0.4499149322509765,0.2964010238647461,-0.0,-0.0,-1.0,0.1265442574548157,1.0,1.0
7.909473419189453,-0.0790119171142578,0.2162201404571533,-0.0,-0.0,-1.0,0.1580834819026653,1.0,1.0
7.877494812011719,0.0374078750610351,0.1954352855682373,-0.0,-0.0,-1.0,0.1100763341386709,1.0,1.0
8.0477933883667,-0.8276147842407227,0.3377718925476074,-0.0,-0.0,-1.0,0.2340358650837474,1.0,1.0
7.9910478591918945,-0.7245168685913086,0.3146753311157226,-0.0,-0.0,-1.0,0.1889152052320362,1.0,1.0
7.825321197509766,-0.0553998947143554,0.1990857124328613,-0.0,-0.0,-1.0,0.108739253851903,2.0,1.0
9.898691177368164,-1.2290420532226562,0.6952834129333496,-0.0,-0.0,-1.0,0.1575269796098853,1.0,1.0
7.880088806152344,-0.5166254043579102,0.7661428451538086,-0.0,-0.0,-1.0,0.1581386479548476,1.0,1.0
9.4587984085083,0.3559865951538086,0.3759260177612304,-0.830894733190657,0.1558627231237539,-0.5341542416722671,0.1401606180341353,3.0,1.0
9.983402252197266,-1.3156166076660156,0.3421144485473633,-0.0,-0.0,-1.0,0.1738623556269706,2.0,1.0
9.215436935424805,0.4051580429077148,0.3291051387786865,-0.0,-0.0,-1.0,0.079089310278955,1.0,1.0
9.08220672607422,-0.2488832473754882,-0.029142141342163,-0.0,-0.0,-1.0,0.0343515674408023,1.0,0.0
8.897817611694336,-0.7107019424438477,0.0198073387145996,-0.0,-0.0,-1.0,0.1453555782089416,2.0,1.0
8.971041679382324,-0.4405117034912109,-0.0149171352386474,-0.0,-0.0,-1.0,0.0538524679319247,1.0,0.0
8.927268981933594,-1.7299814224243164,0.2047100067138672,-0.0,-0.0,-1.0,0.2140949985485359,1.0,1.0
8.647602081298828,-0.7896022796630859,-0.0163831710815429,-0.0,-0.0,-1.0,0.1520936262669898,1.0,0.0
8.171533584594727,-0.6124296188354492,0.3073678016662597,0.5406865669708392,-0.8397127568407793,-0.0504035940796485,0.1974881187305692,5.0,1.0
8.25350570678711,-0.1160955429077148,0.2484757900238037,-0.0,-0.0,-1.0,0.1354443778377423,1.0,1.0
7.943309783935547,0.0269594192504882,0.1719138622283935,-0.0,-0.0,-1.0,0.1360917094953943,1.0,1.0
7.957718849182129,-0.6908769607543945,0.2793784141540527,-0.0,-0.0,-1.0,0.2427364696225493,1.0,1.0
7.781570434570312,-0.0372190475463867,0.152339220046997,-0.0,-0.0,-1.0,0.1137063148597987,1.0,1.0
7.732131004333496,-0.7644920349121094,0.2477822303771972,-0.0,-0.0,-1.0,0.2455945187637346,1.0,1.0
9.876131057739258,0.5638761520385742,0.405571699142456,0.350529264399059,0.7501897323052827,-0.5606644275710584,0.1147848705840267,4.0,1.0
9.700117111206056,0.4120082855224609,0.4042222499847412,-0.0,-0.0,-1.0,0.100382778052131,2.0,1.0
10.071285247802734,-1.3146333694458008,0.3585305213928222,-0.0,-0.0,-1.0,0.2294001927631756,1.0,1.0
9.586776733398438,0.0958480834960937,0.4389529228210449,-0.0,-0.0,-1.0,0.1335015010033845,1.0,1.0
9.840524673461914,-1.473348617553711,0.5392110347747803,-0.0,-0.0,-1.0,0.129751288898457,1.0,1.0
8.880743026733398,-0.5793027877807617,0.4286954402923584,-0.0,-0.0,-1.0,0.1005751280423374,1.0,1.0
7.983155250549316,-1.028498649597168,0.3320863246917724,-0.0,-0.0,-1.0,0.1631808551116276,1.0,1.0
8.066974639892578,-1.2953405380249023,0.3851795196533203,-0.0,-0.0,-1.0,0.2024958793504281,2.0,1.0
9.728740692138672,-1.7185602188110352,0.7502806186676025,-0.0,-0.0,-1.0,0.1155127883939757,2.0,1.0
9.932504653930664,0.4551343917846679,0.1322219371795654,-0.0497762306638514,0.0929142235348648,-0.9944291196087394,0.1410031456754219,4.0,1.0
9.685697555541992,0.2815170288085937,0.1236336231231689,-0.0,-0.0,-1.0,0.0659487864084218,1.0,1.0
9.305997848510742,0.1219081878662109,0.0840282440185546,-0.0,-0.0,-1.0,0.099805453801378,1.0,1.0
9.13893699645996,0.1605310440063476,0.0431001186370849,-0.0,-0.0,-1.0,0.0550408465199449,1.0,1.0
8.898536682128906,0.0232725143432617,0.0223681926727294,-0.0,-0.0,-1.0,0.0686510399010175,2.0,1.0
8.85406494140625,-0.5696048736572266,0.1299548149108886,-0.0,-0.0,-1.0,0.2397238125650171,2.0,1.0
8.626778602600098,-0.503331184387207,0.0687286853790283,-0.0,-0.0,-1.0,0.1454866861019125,1.0,1.0
8.60899829864502,-0.0978364944458007,-0.0136306285858154,-0.0,-0.0,-1.0,0.027611145245796,1.0,0.0
8.568827629089355,-0.7177023887634277,0.096930980682373,-0.0,-0.0,-1.0,0.1589781029426539,1.0,1.0
8.432807922363281,-0.5668954849243164,0.0387930870056152,-0.0,-0.0,-1.0,0.1333694830088933,1.0,1.0
7.83046817779541,-1.4750547409057615,0.0645725727081298,-0.0,-0.0,-1.0,0.2408608100096317,1.0,1.0
10.032588958740234,-0.654050350189209,0.3861560821533203,-0.0,-0.0,-1.0,0.1576888744269113,1.0,1.0
9.379364013671877,0.6016368865966797,0.4141924381256103,-0.0,-0.0,-1.0,0.1425645152593541,1.0,1.0
9.99519157409668,-0.7190456390380859,0.3923738002777099,0.3821722573356637,-0.490044339976396,-0.7834544725636977,0.2219356034531689,4.0,1.0
9.291497230529783,0.4516868591308594,0.426166296005249,-0.0,-0.0,-1.0,0.0994486857627581,2.0,1.0
9.661877632141112,-1.5303239822387695,0.4871993064880371,-0.0,-0.0,-1.0,0.22987824559529,2.0,1.0
9.795705795288086,-1.3342843055725098,0.4768600463867187,-0.0,-0.0,-1.0,0.1273089370646946,1.0,1.0
9.320263862609863,-1.840980052947998,0.4718561172485351,-0.0,-0.0,-1.0,0.1477187208271646,1.0,1.0
8.940564155578613,-1.8148174285888672,0.3818221092224121,-0.0,-0.0,-1.0,0.1537856697656944,1.0,1.0
