x,y,z,nx,ny,nz,curvature,density,label
28.99277114868164,30.471715927124023,-2.3775572776794434,-0.0,-0.0,-1.0,0.1295012700636176,1.0,0.0
28.95505142211914,30.403295516967773,-2.3751182556152344,-0.0,-0.0,-1.0,0.0871454825206382,1.0,0.0
28.89394760131836,30.045942306518555,-2.3445115089416504,-0.0,-0.0,-1.0,0.0846152806867958,1.0,0.0
28.8218994140625,30.087385177612305,-2.3587570190429688,-0.0,-0.0,-1.0,0.0731205595904451,1.0,0.0
28.837366104125977,29.665916442871097,-2.311295509338379,-0.0,-0.0,-1.0,0.0559786289340033,1.0,0.0
28.657087326049805,29.253705978393555,-2.2927393913269043,-0.9051631970634322,-0.0729771165942856,-0.4187528234358424,0.1321825487560171,3.0,0.0
28.581314086914062,29.257179260253903,-2.3036999702453613,-0.0,-0.0,-1.0,0.116553132506636,1.0,0.0
28.534557342529297,28.846439361572266,-2.267566680908203,-0.0,-0.0,-1.0,0.2168115916221154,1.0,0.0
28.27700424194336,28.96691513061523,-2.316728115081787,-0.0,-0.0,-1.0,0.1831768498410733,1.0,0.0
28.556398391723633,28.292274475097656,-2.207787036895752,-0.0,-0.0,-1.0,0.0574811563358778,1.0,0.0
28.114337921142575,28.505006790161133,-2.2932376861572266,-0.0,-0.0,-1.0,0.0718077659995599,2.0,0.0
29.86890411376953,28.53192901611328,-2.484039306640625,-0.0,-0.0,-1.0,0.0310041010740059,1.0,0.0
29.81578826904297,28.334625244140625,-2.465578079223633,-0.0,-0.0,-1.0,0.0086931971253992,1.0,0.0
28.744338989257812,30.238704681396484,-2.1353650093078613,-0.0,-0.0,-1.0,0.1203715523264108,1.0,0.0
28.641357421875,29.901042938232425,-2.1125121116638184,0.8877128371089701,0.3893115519057512,-0.2457690671843767,0.1304805710916495,4.0,0.0
28.34906578063965,29.855323791503903,-2.146390914916992,-0.8126930729791991,0.4446341330298716,-0.3766038460722362,0.0761387916051276,5.0,0.0
28.47423934936523,28.933080673217773,-2.0331149101257324,-0.0,-0.0,-1.0,0.0496238518356543,1.0,0.0
28.498262405395508,28.80272674560547,-2.016393661499023,-0.0,-0.0,-1.0,0.2438362098371983,2.0,0.0
30.005260467529297,28.52066421508789,-2.445113182067871,-0.0,-0.0,-1.0,0.076611554194854,1.0,0.0
29.877511978149418,28.376800537109375,-2.4407076835632324,-0.0,-0.0,-1.0,0.0304257913246375,1.0,0.0
29.18558120727539,30.619863510131836,-2.166786193847656,-0.0,-0.0,-1.0,0.1017643678779776,1.0,0.0
28.78022193908691,30.16131019592285,-2.1549887657165527,-0.0,-0.0,-1.0,0.1026840260835626,1.0,0.0
29.286733627319336,29.740995407104492,-2.0405473709106445,-0.0,-0.0,-1.0,0.0871283248677706,1.0,0.0
28.657209396362305,29.86018943786621,-2.1316275596618652,0.8322790819734257,0.4645094223661482,-0.30255995479002,0.0948472109901722,3.0,0.0
28.353282928466797,29.864656448364254,-2.169538974761963,-0.8126930729791991,0.4446341330298716,-0.3766038460722362,0.0913089384954764,5.0,0.0
27.722362518310547,30.10840606689453,-2.278886318206787,-0.0,-0.0,-1.0,0.2125970602942311,2.0,0.0
28.274404525756836,29.739513397216797,-2.163787364959717,-0.0,-0.0,-1.0,0.0802637859965963,1.0,0.0
28.51947784423828,29.19891357421875,-2.0660505294799805,-0.8983905372060735,-0.1683615483161765,-0.4056461903027837,0.1797825286257188,3.0,0.0
28.072513580322266,28.796695709228516,-2.0746498107910156,-0.0,-0.0,-1.0,0.12764263798953,1.0,0.0
29.577957153320312,30.51969337463379,-2.5994391441345215,-0.0,-0.0,-1.0,0.0610462303611469,1.0,0.0
29.65948486328125,30.064014434814453,-2.51936674118042,-0.0,-0.0,-1.0,0.0919337457872457,1.0,0.0
29.515586853027344,29.689029693603516,-2.484403610229492,-0.0,-0.0,-1.0,0.0731878294361777,1.0,0.0
29.39249038696289,29.414995193481445,-2.4605770111083984,-0.0,-0.0,-1.0,0.0409982350856108,1.0,0.0
29.268983840942383,29.258251190185547,-2.455225944519043,-0.0,-0.0,-1.0,0.0122494730103212,1.0,0.0
29.172924041748047,29.01150894165039,-2.432882308959961,-0.4122376401981583,0.1207356593378915,-0.9030409894174782,0.0510165068467009,3.0,0.0
29.149967193603516,28.71928977966309,-2.393122673034668,-0.0,-0.0,-1.0,0.0464952167672406,2.0,0.0
29.034658432006836,28.611316680908203,-2.395150661468506,-0.0,-0.0,-1.0,0.0729350348883784,1.0,0.0
29.000171661376953,28.40351104736328,-2.3702807426452637,-0.0,-0.0,-1.0,0.0192532876507828,1.0,0.0
28.830677032470703,29.80974578857422,-1.9236887693405151,-0.0,-0.0,-1.0,0.1879265160676194,2.0,0.0
30.18395614624023,28.920425415039062,-2.2699942588806152,-0.0,-0.0,-1.0,0.1636696609782544,1.0,0.0
28.162097930908203,29.45180320739746,-1.9700249433517456,-0.0,-0.0,-1.0,0.1709804409624835,2.0,0.0
28.983062744140625,29.584564208984375,-1.87692391872406,-0.0,-0.0,-1.0,0.142472161994389,1.0,0.0
28.33295249938965,29.057666778564453,-1.9013265371322632,-0.0,-0.0,-1.0,0.163569022427496,2.0,0.0
30.177471160888672,30.25329971313477,-2.5595412254333496,-0.0,-0.0,-1.0,0.0479834527759191,1.0,0.0
30.13118553161621,29.949108123779297,-2.5128097534179688,-0.0,-0.0,-1.0,0.0171172520263474,2.0,0.0
30.053380966186523,29.84101676940918,-2.5051369667053223,-0.0,-0.0,-1.0,0.0167844811490984,1.0,0.0
29.87586975097656,29.725177764892575,-2.5108633041381836,-0.3073489459425046,-0.4642236538995541,-0.8306822645200621,0.0081884456994889,3.0,0.0
29.73278427124023,29.449493408203125,-2.4847798347473145,-0.0,-0.0,-1.0,0.060204525731316,1.0,0.0
29.553176879882812,29.143943786621097,-2.460169792175293,-0.0,-0.0,-1.0,0.0263111879772304,1.0,0.0
29.417678833007812,28.755868911743164,-2.4161500930786133,-0.0,-0.0,-1.0,0.0553960391464887,1.0,0.0
29.24542236328125,28.433528900146484,-2.390287399291992,-0.0,-0.0,-1.0,0.0662938401356351,1.0,0.0
29.178512573242188,28.16964530944824,-2.3579912185668945,-0.0,-0.0,-1.0,0.0402659496885469,1.0,0.0
28.86216735839844,30.460601806640625,-2.1150460243225098,-0.0,-0.0,-1.0,0.1256241088578314,1.0,0.0
28.781768798828125,30.08627700805664,-2.0744128227233887,-0.0,-0.0,-1.0,0.1266730489173906,1.0,0.0
28.716419219970703,30.19365692138672,-2.097968101501465,-0.0,-0.0,-1.0,0.0941129120415196,1.0,0.0
28.57766342163086,29.934633255004883,-2.081735610961914,-0.0,-0.0,-1.0,0.0708190810972227,2.0,0.0
28.42045021057129,29.04015731811523,-1.9844592809677124,-0.0,-0.0,-1.0,0.1672569616916989,1.0,0.0
29.53316116333008,30.429641723632812,-2.528958320617676,-0.0,-0.0,-1.0,0.0694202564461386,1.0,0.0
29.763538360595703,30.103836059570312,-2.43973445892334,-0.0,-0.0,-1.0,0.0473272708801697,1.0,0.0
29.573213577270508,30.07992935180664,-2.4597442150115967,-0.0,-0.0,-1.0,0.0945931491576355,1.0,0.0
29.42206764221191,29.926319122314453,-2.451548337936402,-0.0,-0.0,-1.0,0.0427878582407815,2.0,0.0
29.236391067504883,29.53166961669922,-2.405174970626831,-0.0,-0.0,-1.0,0.0737386892348878,2.0,0.0
29.057907104492188,29.229347229003903,-2.375840663909912,-0.0,-0.0,-1.0,0.0442598846470528,2.0,0.0
28.96978187561035,29.12503242492676,-2.3697376251220703,-0.0,-0.0,-1.0,0.0467964139425968,2.0,0.0
28.81643867492676,28.86565399169922,-2.3461833000183105,-0.0,-0.0,-1.0,0.1106866411978375,1.0,0.0
28.56092643737793,28.600078582763672,-2.3375818729400635,-0.0,-0.0,-1.0,0.1225782220742394,1.0,0.0
28.33606338500977,28.427690505981445,-2.3419196605682373,-0.0,-0.0,-1.0,0.0310140799497725,2.0,0.0
28.32201385498047,29.05764389038086,-1.8395297527313232,-0.0,-0.0,-1.0,0.1789124764059323,2.0,0.0
30.09953498840332,29.25855255126953,-2.497321605682373,-0.0,-0.0,-1.0,0.0649556741081027,1.0,0.0
30.0220947265625,29.37401008605957,-2.5320518016815186,-0.0,-0.0,-1.0,0.0233159557652256,2.0,0.0
29.701637268066406,29.066539764404297,-2.508770227432251,-0.0,-0.0,-1.0,0.0324726258052028,1.0,0.0
29.547719955444336,28.77357482910156,-2.4682207107543945,-0.0,-0.0,-1.0,0.038355866323798,1.0,0.0
29.38657569885254,28.60381507873535,-2.4554967880249023,-0.0,-0.0,-1.0,0.0715437381063005,1.0,0.0
29.286468505859375,28.462947845458984,-2.4407713413238525,-0.0,-0.0,-1.0,0.0733472028607642,1.0,0.0
29.240886688232425,30.6151180267334,-2.271970510482788,-0.0,-0.0,-1.0,0.1341351083118749,1.0,0.0
28.860916137695312,30.4564266204834,-2.288569927215576,-0.0,-0.0,-1.0,0.1182350794555001,1.0,0.0
28.83173942565918,30.11280059814453,-2.2315242290496826,0.7652336777908029,-0.4866288736722657,0.4214377269339138,0.1829788084693085,3.0,0.0
29.305253982543945,29.663061141967773,-2.0945510864257812,-0.0,-0.0,-1.0,0.1762243090123013,1.0,0.0
28.653226852416992,29.79576873779297,-2.1982955932617188,-0.0,-0.0,-1.0,0.184241588452618,1.0,0.0
28.40544891357422,29.750343322753903,-2.22213363647461,0.611467571534806,0.7908431284836341,-0.0259721984349624,0.1319101645745407,5.0,0.0
28.093395233154297,29.83198356628418,-2.2769949436187744,-0.0,-0.0,-1.0,0.1731566147033528,1.0,0.0
28.539058685302734,29.200592041015625,-2.1101131439208984,-0.0,-0.0,-1.0,0.1824525289042629,2.0,0.0
27.78590202331543,29.442672729492188,-2.252650499343872,-0.0,-0.0,-1.0,0.0841767310848193,1.0,0.0
28.50390625,28.8084716796875,-2.0478382110595703,0.5607358109932765,0.7908748871855869,0.2451372331754139,0.2466444376490918,3.0,0.0
28.00982093811035,29.06416702270508,-2.158219337463379,-0.0,-0.0,-1.0,0.155905232210622,1.0,0.0
29.218582153320312,28.259599685668945,-2.408883810043335,0.1374952356832736,0.553724551424216,-0.8212698590076537,0.0497535212414978,3.0,0.0
30.154027938842773,30.620447158813477,-2.6600193977355957,-0.0,-0.0,-1.0,0.0664496229417379,1.0,0.0
30.09394264221191,30.27901077270508,-2.5877153873443604,-0.0,-0.0,-1.0,0.0496281932408811,1.0,0.0
29.740676879882812,29.905359268188477,-2.5374069213867188,-0.0,-0.0,-1.0,0.032409191954058,1.0,0.0
29.57165145874023,29.743377685546875,-2.5181362628936768,-0.0,-0.0,-1.0,0.0149082209630374,1.0,0.0
29.458372116088867,29.600608825683594,-2.4982075691223145,-0.0,-0.0,-1.0,0.0257631122633713,1.0,0.0
29.1824951171875,29.300275802612305,-2.461970090866089,-0.0,-0.0,-1.0,0.0135699876585685,1.0,0.0
28.635217666625977,30.20592498779297,-2.1275060176849365,-0.0,-0.0,-1.0,0.0510967594177622,2.0,0.0
28.419818878173828,30.13986015319824,-2.1368725299835205,-0.0,-0.0,-1.0,0.0802512853975017,1.0,0.0
28.390459060668945,29.942611694335938,-2.103632926940918,-0.0,-0.0,-1.0,0.1422613775339786,2.0,0.0
28.359207153320312,30.010005950927734,-2.119254350662231,-0.0,-0.0,-1.0,0.1152935819090145,1.0,0.0
28.972381591796875,28.943553924560547,-2.408003330230713,-0.0,-0.0,-1.0,0.0322118553449521,1.0,0.0
28.85530662536621,28.598800659179688,-2.347338914871216,-0.0,-0.0,-1.0,0.1192979253370934,2.0,0.0
28.59584045410156,28.545082092285156,-2.3680262565612793,-0.0,-0.0,-1.0,0.0808555547901823,1.0,0.0
28.34832000732422,28.31368637084961,-2.3507392406463623,-0.0,-0.0,-1.0,0.0514045511948068,2.0,0.0
29.088254928588867,29.713359832763672,-1.991464376449585,-0.0,-0.0,-1.0,0.0652231932524067,1.0,0.0
28.34479522705078,29.03641891479492,-1.9434475898742676,-0.0653269709645047,0.9975288993860256,0.0258550141037858,0.1514677691756568,4.0,0.0
29.7243595123291,30.129486083984375,-2.397954225540161,-0.0,-0.0,-1.0,0.0458661062095674,1.0,0.0
29.41317367553711,30.23685646057129,-2.4514622688293457,-0.0,-0.0,-1.0,0.0513352394213106,2.0,0.0
29.16000747680664,30.00091552734375,-2.423267602920532,-0.0,-0.0,-1.0,0.0231650215642156,1.0,0.0
28.967121124267575,29.75733184814453,-2.388400077819824,-0.0,-0.0,-1.0,0.1642990409673186,1.0,0.0
28.971698760986328,29.58504867553711,-2.3494720458984375,-0.0,-0.0,-1.0,0.0200627874750903,1.0,0.0
28.86737823486328,29.407012939453125,-2.3211076259613037,-0.0,-0.0,-1.0,0.0460495746187628,2.0,0.0
28.669116973876953,29.3004150390625,-2.3195724487304688,-0.0,-0.0,-1.0,0.0674261872964399,2.0,0.0
28.441104888916016,29.06807327270508,-2.294846296310425,-0.0,-0.0,-1.0,0.1440465869437059,1.0,0.0
28.087791442871097,29.069765090942383,-2.3378868103027344,-0.0,-0.0,-1.0,0.1555905045419803,1.0,0.0
27.85822296142578,28.704044342041016,-2.2882015705108643,-0.0,-0.0,-1.0,0.0705116434764297,1.0,0.0
28.94135856628418,30.60384750366211,-2.384751081466675,-0.0,-0.0,-1.0,0.1513018156506438,1.0,0.0
29.489809036254883,29.76931381225586,-2.139385223388672,-0.0,-0.0,-1.0,0.196382770536406,1.0,0.0
28.85139274597168,30.139137268066406,-2.2934041023254395,-0.0,-0.0,-1.0,0.1295226150442689,1.0,0.0
29.422100067138672,29.735103607177734,-2.1392662525177,-0.3565850878620149,0.4609768021371204,-0.8126176610226197,0.2354753971751687,3.0,0.0
28.74125289916992,29.79372787475586,-2.2313010692596436,0.806730719702577,-0.5772841790174819,-0.1262082506980994,0.1628580568569601,5.0,0.0
28.531503677368164,29.755756378173828,-2.249015092849731,0.6374063431718393,-0.4490788133076374,-0.6261320732261744,0.208082407179363,6.0,0.0
28.41629409790039,29.63146209716797,-2.2367923259735107,-0.0,-0.0,-1.0,0.1131066342712425,2.0,0.0
28.028053283691406,29.59429931640625,-2.279940128326416,-0.0,-0.0,-1.0,0.0664402600230652,2.0,0.0
27.711898803710938,29.567554473876953,-2.317671298980713,-0.0,-0.0,-1.0,0.0951339061967256,1.0,0.0
28.610389709472656,28.78956413269043,-2.030681610107422,-0.0,-0.0,-1.0,0.2030885288787398,1.0,0.0
27.894775390625,29.38032341003418,-2.2526779174804688,-0.0,-0.0,-1.0,0.087883861390923,1.0,0.0
28.539796829223633,28.77992248535156,-2.0378286838531494,-0.0,-0.0,-1.0,0.2453589494547667,2.0,0.0
28.233360290527344,28.216964721679688,-1.4735326766967771,0.4550365138407659,0.655983787068568,0.6021852224812744,0.0637547281118316,3.0,0.0
28.82167625427246,30.115863800048828,-2.176699161529541,-0.3390769745852817,-0.5299984543812861,-0.777256999749465,0.1097713634464701,3.0,0.0
27.740564346313477,30.51717758178711,-2.366286277770996,-0.8228965846504406,0.5592671731418128,0.1003067296675852,0.1209898823513394,3.0,0.0
28.636674880981445,29.90625,-2.144126892089844,0.9798559933139036,-0.1140758008132776,-0.163917491548745,0.1190229736705032,3.0,0.0
28.28597068786621,29.91671371459961,-2.177703857421875,-0.9281145541737604,-0.1986494706396891,0.3148678487007102,0.1074332768711109,4.0,0.0
27.71455764770508,30.09481430053711,-2.273441791534424,-0.0,-0.0,-1.0,0.2155432997423542,2.0,0.0
28.60938835144043,29.654937744140625,-2.0886473655700684,-0.0,-0.0,-1.0,0.1230578011988879,1.0,0.0
28.642009735107425,29.16143798828125,-1.9726210832595823,-0.0,-0.0,-1.0,0.1937259893745735,1.0,0.0
28.35842514038086,29.06214141845703,-1.976256251335144,-0.0,-0.0,-1.0,0.1642598995778094,2.0,0.0
29.66461753845215,30.10008430480957,-2.4085800647735596,-0.0,-0.0,-1.0,0.0897566352505449,1.0,0.0
29.414648056030273,30.19422149658203,-2.44734525680542,-0.0,-0.0,-1.0,0.0654037655985429,2.0,0.0
29.57591438293457,30.030248641967773,-2.395134687423706,-0.0,-0.0,-1.0,0.0460264275932589,1.0,0.0
29.209701538085938,30.081544876098633,-2.430448532104492,-0.0,-0.0,-1.0,0.0430960242376037,2.0,0.0
28.95872688293457,29.988521575927734,-2.4224839210510254,-0.0,-0.0,-1.0,0.0727691702760991,1.0,0.0
28.88129234313965,29.71504592895508,-2.3565969467163086,-0.0,-0.0,-1.0,0.1464153395301764,1.0,0.0
28.75452041625977,29.48724937438965,-2.3064820766448975,-0.0,-0.0,-1.0,0.0885951886058375,2.0,0.0
28.600053787231445,29.31140518188477,-2.2725143432617188,-0.0,-0.0,-1.0,0.1086912470722651,1.0,0.0
28.15386009216309,29.39317321777344,-2.3300130367279053,-0.0,-0.0,-1.0,0.0725618798187732,1.0,0.0
27.795522689819336,29.32778549194336,-2.344977617263794,-0.0,-0.0,-1.0,0.0918748213211719,1.0,0.0
28.514759063720703,28.914981842041016,-2.176600933074951,0.4926348172116234,0.6448685670671731,-0.5843419102542632,0.2625756301700107,3.0,0.0
28.274131774902344,29.105377197265625,-2.2455339431762695,-0.0,-0.0,-1.0,0.199249367705402,1.0,0.0
28.20633125305176,28.15546607971191,-1.557197332382202,0.7255981677534135,0.2203296962073906,0.651891190247305,0.0301490559056577,3.0,0.0
28.63995933532715,30.14751625061035,-2.0683116912841797,-0.0,-0.0,-1.0,0.0551861843679769,1.0,0.0
28.40184783935547,30.341609954833984,-2.127135753631592,-0.0,-0.0,-1.0,0.0741941400069457,2.0,0.0
28.115230560302734,30.31913375854492,-2.137728691101074,-0.0,-0.0,-1.0,0.2453338416248543,2.0,0.0
28.351093292236328,28.91627311706543,-1.7887898683547974,-0.0,-0.0,-1.0,0.0954519024587365,1.0,0.0
29.315919876098633,30.613710403442383,-2.113771438598633,-0.0,-0.0,-1.0,0.242508383011457,2.0,0.0
29.280561447143555,30.634918212890625,-2.046924829483032,-0.0,-0.0,-1.0,0.1810200474613582,1.0,0.0
28.792911529541016,30.298322677612305,-2.10439133644104,0.4000134656951071,0.8626331564500495,-0.3096017839994041,0.1423867454688565,3.0,0.0
28.619495391845703,30.42207908630371,-2.115153551101685,-0.0,-0.0,-1.0,0.1102977030824753,2.0,0.0
28.851747512817383,29.821727752685547,-2.0079736709594727,-0.0,-0.0,-1.0,0.1717810212893497,1.0,0.0
28.358394622802734,29.025699615478516,-1.7908353805541992,-0.0,-0.0,-1.0,0.2289232043585523,1.0,0.0
28.280452728271484,28.923185348510746,-1.7616353034973145,-0.0,-0.0,-1.0,0.1723224670789748,2.0,0.0
29.29408836364746,29.93804168701172,-2.449885606765747,-0.0,-0.0,-1.0,0.038425491226775,1.0,0.0
29.935762405395508,29.960960388183594,-2.5325536727905273,-0.0,-0.0,-1.0,0.0311558428902578,1.0,0.0
29.530597686767575,29.93719482421875,-2.477708101272583,-0.0,-0.0,-1.0,0.0654191223948423,2.0,0.0
27.869094848632812,30.125905990600582,-2.342996597290039,-0.0,-0.0,-1.0,0.1011435215642684,2.0,0.0
29.123912811279297,29.88095474243164,-2.41774582862854,-0.0,-0.0,-1.0,0.0161561083033448,1.0,0.0
28.277576446533203,29.76675033569336,-2.3012657165527344,-0.0,-0.0,-1.0,0.1440437332384704,2.0,0.0
28.041013717651367,29.86724281311035,-2.3004190921783447,-0.0,-0.0,-1.0,0.1006687199198102,2.0,0.0
28.77120018005371,29.531539916992188,-2.301002740859986,-0.0,-0.0,-1.0,0.0846851657735064,2.0,0.0
28.58987045288086,29.523202896118164,-2.2793538570404053,-0.3135405242894406,-0.8922424107407662,-0.3249551047511163,0.1569589534827075,3.0,0.0
28.654521942138672,29.23114013671875,-2.221550464630127,-0.0,-0.0,-1.0,0.1202108223651511,1.0,0.0
28.230484008789062,28.889026641845703,-2.0996105670928955,-0.0,-0.0,-1.0,0.1893798825032773,1.0,0.0
28.699859619140625,28.83333969116211,-2.1388561725616455,-0.0,-0.0,-1.0,0.1881077110608754,1.0,0.0
28.26081657409668,28.19312858581543,-1.4683141708374023,0.4550365138407659,0.655983787068568,0.6021852224812744,0.0637547281118316,3.0,0.0
28.07918930053711,29.06368827819824,-2.2284979820251465,-0.0,-0.0,-1.0,0.1776933729507378,2.0,0.0
28.48962020874023,28.811382293701172,-2.228921890258789,-0.0,-0.0,-1.0,0.1755965862172904,2.0,0.0
28.500877380371097,29.191192626953125,-2.021651268005371,-0.0,-0.0,-1.0,0.1622338407250694,2.0,0.0
28.60776138305664,29.94350242614746,-2.1250104904174805,0.2189613278633982,-0.6456714745011906,-0.7315492354693265,0.1113622826719909,3.0,0.0
28.729326248168945,29.841941833496097,-2.1040854454040527,0.9738080444854244,0.2045801530309543,0.0992212350321484,0.160405807499964,3.0,0.0
28.491844177246097,30.01727867126465,-2.141655921936035,-0.0,-0.0,-1.0,0.0769155601496827,1.0,0.0
28.874467849731445,29.954214096069336,-2.113247871398926,-0.0,-0.0,-1.0,0.1600009162098083,1.0,0.0
28.77185440063477,29.910736083984375,-2.3268439769744873,-0.0,-0.0,-1.0,0.107551309553496,1.0,0.0
28.116107940673828,29.329763412475582,-2.263552188873291,-0.7743161364962644,0.6020829909254938,-0.1947577798181892,0.1165537526831281,3.0,0.0
27.91532516479492,29.20723533630371,-2.250749111175537,-0.0,-0.0,-1.0,0.1096349513502708,1.0,0.0
28.637500762939453,29.38713264465332,-2.26854944229126,-0.0,-0.0,-1.0,0.0633727594961583,2.0,0.0
28.50467109680176,29.038389205932617,-2.2299904823303223,-0.0,-0.0,-1.0,0.2531581819840104,2.0,0.0
28.710102081298828,29.76198387145996,-2.1858577728271484,0.456100561345032,-0.8862366137723062,-0.0809749489048504,0.1207514192804043,6.0,0.0
28.351009368896484,29.835580825805664,-2.1852469444274902,-0.0440089099518132,0.6156457163070372,-0.7867932179662256,0.1105627061936026,6.0,0.0
28.858898162841797,29.99108505249023,-2.188120603561402,-0.0,-0.0,-1.0,0.0970716561795585,1.0,0.0
28.096864700317383,30.100303649902344,-2.238588809967041,-0.7369555058376243,0.4173325955158005,0.5317236943522985,0.1342038305980895,4.0,0.0
28.726661682128903,29.758167266845703,-2.1735589504241943,0.5038670870619217,-0.7505907988419384,-0.4274709478661144,0.1043674898546001,5.0,0.0
28.574142456054688,29.626705169677734,-2.1695220470428467,-0.0,-0.0,-1.0,0.2151075464242187,1.0,0.0
28.58970069885254,28.79601669311523,-2.0924220085144043,0.4377683105873592,0.8938492997155462,-0.0969140631875337,0.1605502790715748,4.0,0.0
28.764509201049805,29.804763793945312,-2.5454368591308594,-0.0,-0.0,-1.0,0.1610604768148986,1.0,0.0
28.583599090576172,29.526546478271484,-2.5229804515838623,-0.0,-0.0,-1.0,0.18924728706339,1.0,0.0
29.693923950195312,30.04007911682129,-2.437323570251465,0.7631485895516972,-0.0748290161132564,-0.6418760383538062,0.0490305784992998,3.0,0.0
29.46779441833496,29.9340877532959,-2.4334940910339355,-0.0,-0.0,-1.0,0.051301201053311,2.0,0.0
29.122249603271484,29.211336135864254,-2.3699541091918945,-0.0,-0.0,-1.0,0.040513880772036,1.0,0.0
29.041728973388672,28.998319625854492,-2.350654125213623,-0.0,-0.0,-1.0,0.0599951470934128,1.0,0.0
28.84903335571289,28.737585067749023,-2.3303942680358887,-0.0,-0.0,-1.0,0.0848327773237865,1.0,0.0
28.56339454650879,28.702695846557617,-2.3369321823120117,-0.0,-0.0,-1.0,0.1376757831654875,1.0,0.0
28.488527297973633,28.20020866394043,-2.287907123565674,-0.0,-0.0,-1.0,0.06200337562876,1.0,0.0
28.126861572265625,28.26939582824707,-2.308502197265625,-0.0,-0.0,-1.0,0.0680557937428246,1.0,0.0
28.943483352661133,30.3057861328125,-2.036515712738037,-0.0,-0.0,-1.0,0.1097390484098938,1.0,0.0
29.92156219482422,29.704137802124023,-2.4939985275268555,-0.0,-0.0,-1.0,0.0079446434497941,2.0,0.0
29.87131118774414,30.459123611450195,-2.044126510620117,-0.0,-0.0,-1.0,0.11136935767534,1.0,0.0
29.22374725341797,30.460939407348633,-2.01282262802124,-0.0,-0.0,-1.0,0.2393170076677974,1.0,0.0
29.560150146484375,30.13185691833496,-2.000093460083008,-0.0,-0.0,-1.0,0.162302920315431,1.0,0.0
29.365903854370117,30.20075035095215,-1.996745467185974,-0.0,-0.0,-1.0,0.1798690120895852,1.0,0.0
28.929262161254883,30.124086380004883,-2.4308648109436035,-0.0,-0.0,-1.0,0.0749090769553177,1.0,0.0
28.835861206054688,29.51902198791504,-2.377289295196533,-0.0,-0.0,-1.0,0.0546455123364318,1.0,0.0
28.660659790039062,29.26116371154785,-2.363736152648926,-0.0,-0.0,-1.0,0.0927652675501256,2.0,0.0
28.355167388916016,29.27437400817871,-2.3860583305358887,-0.0,-0.0,-1.0,0.0716756342417924,1.0,0.0
28.058639526367188,29.161378860473633,-2.3954319953918457,-0.0,-0.0,-1.0,0.13208256321618,1.0,0.0
28.05447769165039,28.419038772583008,-2.322214126586914,-0.0,-0.0,-1.0,0.087849243058383,2.0,0.0
27.7751407623291,28.910032272338867,-2.3902945518493652,-0.0,-0.0,-1.0,0.0682440093588826,1.0,0.0
28.72161865234375,30.335126876831055,-2.11917781829834,-0.0,-0.0,-1.0,0.1050267595467793,2.0,0.0
29.045475006103516,29.4985408782959,-2.026181697845459,-0.0,-0.0,-1.0,0.1665642946840853,1.0,0.0
29.668006896972656,29.523780822753903,-2.2776265144348145,-0.0,-0.0,-1.0,0.1527761515988467,1.0,0.0
29.24045753479004,30.341358184814453,-2.3387558460235596,-0.0,-0.0,-1.0,0.0537610550738796,1.0,0.0
28.881607055664062,30.066146850585938,-2.289900302886963,-0.0,-0.0,-1.0,0.1402640598521921,1.0,0.0
28.418872833251953,29.749507904052734,-2.2309858798980713,-0.0,-0.0,-1.0,0.1285391989089394,2.0,0.0
28.744260787963867,28.898313522338867,-2.1604292392730713,-0.0,-0.0,-1.0,0.1819222893796561,1.0,0.0
28.632070541381836,28.891387939453125,-2.1534249782562256,-0.0,-0.0,-1.0,0.1203651444934629,2.0,0.0
28.189960479736328,29.937885284423828,-2.2378597259521484,-0.7131916534651218,-0.229747603980085,0.6622489742484289,0.1684272342833844,5.0,0.0
28.074607849121097,30.07027816772461,-2.245241165161133,-0.7369555058376243,0.4173325955158005,0.5317236943522985,0.1120833145784339,4.0,0.0
28.516611099243164,28.677242279052734,-2.1246368885040283,-0.0,-0.0,-1.0,0.1551066828130128,1.0,0.0
30.13246726989746,29.72389030456543,-2.560394287109375,-0.0,-0.0,-1.0,0.0112789188187039,1.0,0.0
30.183462142944336,28.99334144592285,-2.4672789573669434,-0.0,-0.0,-1.0,0.1599309754678523,1.0,0.0
29.777454376220703,29.33876037597656,-2.521310806274414,-0.0,-0.0,-1.0,0.0351010955026792,1.0,0.0
29.95225715637207,29.54680824279785,-2.542837619781494,-0.0,-0.0,-1.0,0.0099733464472952,1.0,0.0
29.67698860168457,29.398775100708008,-2.5315589904785156,-0.0,-0.0,-1.0,0.061230382192022,1.0,0.0
29.673337936401367,29.67133140563965,-2.502340793609619,-0.0,-0.0,-1.0,0.0401187709628023,2.0,0.0
29.90021514892578,29.81492042541504,-2.5136282444000244,-0.0,-0.0,-1.0,0.0092231000879697,2.0,0.0
29.445642471313477,29.705982208251953,-2.166116714477539,-0.0,-0.0,-1.0,0.1938352331549026,2.0,0.0
28.852312088012695,30.13933563232422,-2.2382397651672363,-0.0,-0.0,-1.0,0.1260355562389361,2.0,0.0
28.727680206298828,29.769804000854492,-2.1987624168395996,0.5759385034330561,-0.7940275055947925,-0.1944612059568776,0.1019196731365844,7.0,0.0
28.57181739807129,28.737163543701172,-2.0815796852111816,-0.0,-0.0,-1.0,0.2396096342330852,1.0,0.0
28.51095390319824,29.549135208129883,-2.180382251739502,-0.0,-0.0,-1.0,0.1459850667242878,2.0,0.0
28.25339126586914,29.952226638793945,-2.2378973960876465,-0.9781152909289196,-0.1860880202707534,0.093068396154371,0.1807561778342941,5.0,0.0
27.986616134643555,29.111814498901367,-2.147937774658203,-0.0,-0.0,-1.0,0.1697624388782328,1.0,0.0
28.23041725158691,28.157913208007812,-1.584833741188049,0.7255981677534135,0.2203296962073906,0.651891190247305,0.0360768832842847,3.0,0.0
29.920087814331055,29.71942901611328,-2.5240111351013184,-0.2086881837712506,-0.7231228865067432,-0.6584394679576951,0.0081612116492215,4.0,0.0
28.869598388671875,28.201934814453125,-2.346133232116699,-0.0,-0.0,-1.0,0.0561641521768378,1.0,0.0
28.2464542388916,28.19259452819824,-1.4568796157836914,0.4550365138407659,0.655983787068568,0.6021852224812744,0.0637547281118316,3.0,0.0
29.22340202331543,30.13368225097656,-2.3824899196624756,-0.1747193175459559,0.5591996765896255,-0.8104127848068128,0.0622002649191436,3.0,0.0
28.830785751342773,29.4544677734375,-2.2961623668670654,-0.9062072947363234,0.028448025031056,-0.4218756319562754,0.0499045538772133,3.0,0.0
28.827407836914062,29.418794631958008,-2.2913119792938232,-0.3575026422487015,-0.0925050648927958,-0.9293194680810128,0.0512895397877054,3.0,0.0
28.599475860595703,28.918119430541992,-2.226682186126709,-0.0,-0.0,-1.0,0.2554555163796485,2.0,0.0
28.501121520996097,29.33397674560547,-2.2864158153533936,-0.0,-0.0,-1.0,0.0746210184853479,1.0,0.0
28.13749885559082,29.34663200378418,-2.296449661254883,-0.7743161364962644,0.6020829909254938,-0.1947577798181892,0.0771086355193222,3.0,0.0
28.14291763305664,29.45780372619629,-2.31170392036438,-0.0,-0.0,-1.0,0.0488203371414511,1.0,0.0
30.159908294677734,28.92816734313965,-2.5811245441436768,-0.0,-0.0,-1.0,0.1234677913713005,1.0,0.0
29.92928695678711,28.833635330200195,-2.567044973373413,-0.0,-0.0,-1.0,0.052957398032354,2.0,0.0
29.22684860229492,30.580013275146484,-2.3438353538513184,-0.0,-0.0,-1.0,0.1402314637197675,1.0,0.0
28.90444564819336,30.11997985839844,-2.2876577377319336,-0.0,-0.0,-1.0,0.1165254996819084,1.0,0.0
28.65118408203125,28.80668067932129,-2.099733829498291,-0.0,-0.0,-1.0,0.2049960169629266,2.0,0.0
28.58485984802246,29.632986068725582,-2.227613925933838,0.2865819689749607,-0.958051273861658,-0.0029209091887874,0.1897773077990207,4.0,0.0
28.576122283935547,28.86717987060547,-2.1120901107788086,-0.0,-0.0,-1.0,0.154601973813538,1.0,0.0
28.48856544494629,29.53794860839844,-2.217416763305664,-0.0,-0.0,-1.0,0.1596802022022324,2.0,0.0
28.219215393066406,29.773286819458008,-2.26507568359375,-0.2382339217865126,0.8657127236634597,-0.4402114021665183,0.1013132368312787,3.0,0.0
29.26332092285156,30.629329681396484,-2.1401214599609375,-0.0,-0.0,-1.0,0.1180057602932076,1.0,0.0
28.79207420349121,29.237672805786133,-1.9374910593032837,-0.0,-0.0,-1.0,0.1426564835940112,1.0,0.0
28.73541831970215,30.27157211303711,-2.0822958946228027,-0.0,-0.0,-1.0,0.1318393414840337,2.0,0.0
28.277454376220703,29.037670135498047,-1.9025324583053589,-0.0,-0.0,-1.0,0.1625215728040718,1.0,0.0
28.3706111907959,30.41122817993164,-2.097365379333496,0.5941051442358499,-0.7782716000962019,-0.2033036991207912,0.1187088783609204,3.0,0.0
28.13958168029785,29.560710906982425,-1.974673867225647,-0.0,-0.0,-1.0,0.1975272186920982,1.0,0.0
28.319490432739254,28.169111251831055,-1.780624508857727,-0.0,-0.0,-1.0,0.0267229030291928,1.0,0.0
28.353450775146484,29.003759384155273,-1.898694634437561,-0.0,-0.0,-1.0,0.1648137261164077,2.0,0.0
27.97748565673828,30.21868133544922,-2.303189277648926,-0.1576049333901534,-0.85094855002199,0.501046155744716,0.0681883322190993,3.0,0.0
28.56513023376465,28.819881439208984,-2.0841121673583984,-0.0,-0.0,-1.0,0.237316963344639,2.0,0.0
28.49686813354492,29.86778259277344,-2.2481937408447266,-0.0,-0.0,-1.0,0.118375679468262,1.0,0.0
28.31114196777344,29.147846221923828,-2.1351280212402344,-0.0,-0.0,-1.0,0.1413134694622529,1.0,0.0
28.261646270751953,29.90306854248047,-2.253551959991455,-0.9786891123453122,0.1276131837834378,0.1608803801008671,0.1533878185261182,3.0,0.0
28.180198669433594,29.92198181152344,-2.256509780883789,-0.9877226831725928,0.1473616995924395,0.0518500784913699,0.14487255656112,6.0,0.0
28.004018783569336,29.223522186279297,-2.1469173431396484,-0.0,-0.0,-1.0,0.229539413428646,1.0,0.0
30.194154739379883,28.636940002441406,-2.2597105503082275,-0.0,-0.0,-1.0,0.0998342294202917,1.0,0.0
30.144906997680664,29.961158752441406,-2.4831840991973877,0.6845641701453953,0.5073385163757164,-0.5234305367045696,0.0190026614330005,3.0,0.0
29.801837921142575,30.01892852783203,-2.484095811843872,-0.0,-0.0,-1.0,0.0534003921311414,1.0,0.0
29.30107879638672,29.675151824951172,-2.413372755050659,-0.0,-0.0,-1.0,0.1485527010581658,1.0,0.0
29.50537109375,29.911338806152344,-2.4584949016571045,-0.0,-0.0,-1.0,0.0609225742329408,2.0,0.0
29.06726837158203,29.52159881591797,-2.3819220066070557,-0.0,-0.0,-1.0,0.0177644451904854,1.0,0.0
28.559307098388672,28.93429946899414,-2.2707736492156982,-0.0,-0.0,-1.0,0.2223668147214971,2.0,0.0
28.692150115966797,29.153789520263672,-2.3110854625701904,-0.0,-0.0,-1.0,0.117904353622934,1.0,0.0
28.34229850769043,29.17640686035156,-2.308311939239502,-0.0,-0.0,-1.0,0.2162826176941047,1.0,0.0
29.381107330322266,29.70962142944336,-2.1008830070495605,-0.0,-0.0,-1.0,0.1601614703400193,1.0,0.0
28.722705841064453,29.88268661499023,-2.123119354248047,0.9877517600977194,-0.0331784282742773,0.1524652495524986,0.1883919448826781,4.0,0.0
28.559059143066406,29.79157257080078,-2.106541633605957,-0.0,-0.0,-1.0,0.1731701775678193,2.0,0.0
28.390928268432617,29.876087188720703,-2.1196045875549316,0.0702476874190996,-0.920713864662456,-0.3838635718983937,0.1514769205121047,5.0,0.0
28.029956817626953,29.876686096191406,-2.11780309677124,-0.0,-0.0,-1.0,0.1741595275073239,1.0,0.0
28.209245681762695,30.100242614746097,-2.1562986373901367,-0.4635844175194483,0.248438124813255,-0.850510426727637,0.1800353458730965,4.0,0.0
30.06197166442871,30.11226463317871,-2.5344555377960205,-0.0,-0.0,-1.0,0.0334657012182113,1.0,0.0
29.808887481689453,29.951566696166992,-2.5046944618225098,-0.0,-0.0,-1.0,0.0498657348517416,1.0,0.0
29.11149024963379,29.318344116210938,-2.38626480102539,-0.0,-0.0,-1.0,0.017022168774622,1.0,0.0
29.36069107055664,29.520320892333984,-2.423438787460327,-0.0,-0.0,-1.0,0.1123041111693552,2.0,0.0
28.593660354614254,28.251291275024418,-2.1798925399780273,-0.0,-0.0,-1.0,0.0606397140746297,1.0,0.0
28.892507553100582,29.086523056030273,-2.3429722785949707,-0.0,-0.0,-1.0,0.0588831179600699,2.0,0.0
28.579769134521484,28.845104217529297,-2.2995846271514893,-0.0,-0.0,-1.0,0.2559448260854322,1.0,0.0
28.431137084960938,29.070877075195312,-2.347816228866577,-0.0,-0.0,-1.0,0.1542579518969143,2.0,0.0
28.156871795654297,28.63130760192871,-2.264622688293457,-0.0,-0.0,-1.0,0.0648783833138991,1.0,0.0
28.246788024902344,28.210494995117188,-1.5454418659210205,-0.0,-0.0,-1.0,0.1156222743320989,1.0,0.0
30.110549926757812,29.887889862060547,-2.535543441772461,-0.0,-0.0,-1.0,0.0177337086189348,1.0,0.0
30.138404846191406,29.07583999633789,-2.3584511280059814,-0.0,-0.0,-1.0,0.1569410981247769,1.0,0.0
29.92414665222168,29.81501007080078,-2.5232574939727783,-0.0,-0.0,-1.0,0.0108163874812222,2.0,0.0
29.48260498046875,29.497703552246097,-2.463459014892578,-0.0,-0.0,-1.0,0.0725478165063834,1.0,0.0
29.04220962524414,29.107372283935547,-2.3888914585113525,-0.0,-0.0,-1.0,0.0486969781656254,2.0,0.0
29.25677490234375,29.364994049072266,-2.439892053604126,-0.0,-0.0,-1.0,0.0329134692114135,2.0,0.0
28.74610710144043,28.757301330566406,-2.32019567489624,-0.0,-0.0,-1.0,0.170919841488579,2.0,0.0
28.677562713623047,28.869945526123047,-2.34712290763855,-0.0,-0.0,-1.0,0.1346914160874706,1.0,0.0
28.217788696289062,28.690834045410156,-2.322575569152832,-0.0,-0.0,-1.0,0.0216235601782611,1.0,0.0
28.005481719970703,28.499710083007812,-2.287864923477173,-0.0,-0.0,-1.0,0.0737883134342573,2.0,0.0
28.992942810058594,29.48241424560547,-1.8252980709075928,-0.0,-0.0,-1.0,0.2005085869844592,1.0,0.0
28.816274642944336,29.868438720703125,-1.9032540321350095,-0.0,-0.0,-1.0,0.1910393905485202,2.0,0.0
27.762142181396484,30.07168960571289,-1.985928297042847,-0.0,-0.0,-1.0,0.1731097109540731,1.0,0.0
28.27827835083008,28.14196014404297,-1.6037976741790771,-0.0,-0.0,-1.0,0.0267229030291926,1.0,0.0
29.919363021850582,30.06287384033203,-2.5510289669036865,-0.0,-0.0,-1.0,0.0556901491855002,2.0,0.0
29.685977935791016,29.955080032348633,-2.530083179473877,-0.0,-0.0,-1.0,0.0454688109456499,2.0,0.0
29.51325225830078,29.792314529418945,-2.495811939239502,-0.0,-0.0,-1.0,0.0170485502373178,1.0,0.0
29.253677368164062,29.50722312927246,-2.435363531112671,0.6118010998504331,0.7485054416830468,-0.2558105118885212,0.0783250999132565,3.0,0.0
28.958938598632812,29.168500900268555,-2.363722801208496,-0.0,-0.0,-1.0,0.0486653720616536,2.0,0.0
28.899898529052734,29.228147506713867,-2.379061460494995,-0.0,-0.0,-1.0,0.0319202242656659,1.0,0.0
28.53852653503418,29.006330490112305,-2.3373868465423584,-0.0,-0.0,-1.0,0.1944299170293979,2.0,0.0
28.355213165283203,29.083587646484375,-2.3609628677368164,-0.0,-0.0,-1.0,0.1811535257026124,1.0,0.0
27.97644805908203,28.920333862304688,-2.3358078002929688,-0.0,-0.0,-1.0,0.1004898006754822,1.0,0.0
28.21297836303711,29.11005592346191,-2.3718862533569336,-0.0,-0.0,-1.0,0.1277577375968035,2.0,0.0
27.792604446411133,28.943161010742188,-2.3483355045318604,-0.0,-0.0,-1.0,0.0799474035942221,1.0,0.0
28.849624633789062,29.89645004272461,-1.9070985317230225,-0.0,-0.0,-1.0,0.1885158800527316,2.0,0.0
28.28671646118164,28.96761703491211,-1.744741678237915,0.2280330431499122,0.3177791621207325,-0.9203354471895756,0.1486186654712973,3.0,0.0
29.623188018798828,30.015811920166016,-2.4120912551879883,-0.0,-0.0,-1.0,0.0437490151370413,2.0,0.0
29.307876586914062,30.094802856445312,-2.4187002182006836,-0.0,-0.0,-1.0,0.0583705935880254,1.0,0.0
29.13227653503418,30.124717712402344,-2.419926643371582,-0.0,-0.0,-1.0,0.0594735697862108,1.0,0.0
28.66689682006836,29.534332275390625,-2.2777276039123535,0.5354229721338413,-0.8440853207842547,-0.0290208915766923,0.1254414975181242,3.0,0.0
28.584043502807617,29.658727645874023,-2.303062915802002,-0.0,-0.0,-1.0,0.0983717430627451,2.0,0.0
28.46789932250977,29.436199188232425,-2.2512969970703125,-0.0,-0.0,-1.0,0.1053403250092059,2.0,0.0
28.27051544189453,29.71310043334961,-2.308424949645996,0.2734760516977094,0.9612920662239162,0.0335918526250833,0.1385376962053398,3.0,0.0
28.06279945373535,29.80223846435547,-2.3244056701660156,-0.0,-0.0,-1.0,0.121425835814432,2.0,0.0
27.9418888092041,29.916730880737305,-2.348029613494873,-0.0,-0.0,-1.0,0.1540354306116252,2.0,0.0
28.609590530395508,28.79753875732422,-2.114342212677002,-0.1611285573175112,0.9860859641912127,0.0408908209976721,0.2113913109302153,4.0,0.0
28.248760223388672,29.011444091796875,-2.152671813964844,-0.0,-0.0,-1.0,0.1928535153771508,1.0,0.0
30.091806411743164,30.043289184570312,-2.4742393493652344,-0.0,-0.0,-1.0,0.0343173584557458,1.0,0.0
29.723968505859375,30.12529754638672,-2.4768028259277344,-0.0,-0.0,-1.0,0.0956843233892237,1.0,0.0
29.399702072143555,29.983966827392575,-2.432192802429199,-0.0,-0.0,-1.0,0.0486884707416928,1.0,0.0
29.2186336517334,30.06077003479004,-2.443103313446045,-0.0,-0.0,-1.0,0.0441702793113245,2.0,0.0
28.989500045776367,29.827693939208984,-2.3821663856506348,-0.0,-0.0,-1.0,0.167556189387954,1.0,0.0
28.6063175201416,29.525320053100582,-2.3010363578796387,-0.0,-0.0,-1.0,0.1381660681570772,2.0,0.0
28.587011337280273,28.79789352416992,-2.1335840225219727,-0.0285262011297807,0.997219727616568,-0.0688409086331779,0.1613194162301448,4.0,0.0
28.66874313354492,28.955677032470703,-2.172361373901367,-0.0,-0.0,-1.0,0.1882121755354479,2.0,0.0
28.464208602905273,29.521373748779297,-2.296137809753418,-0.0,-0.0,-1.0,0.132519405101125,1.0,0.0
28.211387634277344,29.618921279907227,-2.3123483657836914,-0.0,-0.0,-1.0,0.1132068505287056,1.0,0.0
28.19391632080078,28.91314697265625,-2.1487011909484863,-0.0,-0.0,-1.0,0.2361878755024902,1.0,0.0
27.97448348999023,29.598957061767575,-2.302611827850342,-0.0,-0.0,-1.0,0.0617490011238667,2.0,0.0
27.88119125366211,29.83641815185547,-2.356112003326416,-0.0,-0.0,-1.0,0.1218220978767709,1.0,0.0
29.37757110595703,29.674396514892575,-2.2108802795410156,-0.0,-0.0,-1.0,0.1452630628457061,2.0,0.0
28.823463439941406,29.83973693847656,-2.2222752571105957,-0.0,-0.0,-1.0,0.2325269048102425,2.0,0.0
28.69148826599121,29.87767791748047,-2.2255845069885254,-0.0,-0.0,-1.0,0.2415441206326314,1.0,0.0
28.269840240478516,29.924694061279297,-2.2208590507507324,-0.9055496491721444,-0.2441925456232669,0.3469147352682423,0.1753240220711954,5.0,0.0
28.066322326660156,30.15829849243164,-2.269376754760742,-0.0,-0.0,-1.0,0.1221416961075835,2.0,0.0
28.34657096862793,29.810279846191406,-2.19688081741333,-0.0668076049591889,0.3375604293396861,-0.9389300828409024,0.163657377393296,5.0,0.0
28.237842559814453,29.010826110839844,-2.006709098815918,-0.0,-0.0,-1.0,0.154443296463669,1.0,0.0
29.56956672668457,29.63448715209961,-2.145817518234253,-0.0,-0.0,-1.0,0.1578898178946805,1.0,0.0
29.471479415893555,29.613170623779297,-2.133652687072754,-0.0,-0.0,-1.0,0.091161716399723,1.0,0.0
28.89052391052246,29.81466293334961,-2.1373820304870605,-0.0,-0.0,-1.0,0.2091830879920629,1.0,0.0
28.549781799316406,29.792339324951172,-2.110886335372925,-0.0,-0.0,-1.0,0.1692369021073583,2.0,0.0
28.29172134399414,30.01942443847656,-2.147765636444092,-0.0,-0.0,-1.0,0.1171236869362265,2.0,0.0
28.319379806518555,29.520584106445312,-2.0351672172546387,-0.0,-0.0,-1.0,0.1882340182651644,1.0,0.0
27.822853088378903,29.983463287353516,-2.115190029144287,-0.0,-0.0,-1.0,0.2375294554670562,1.0,0.0
28.376371383666992,28.986064910888672,-1.9174535274505615,-0.0,-0.0,-1.0,0.1621752463032294,2.0,0.0
29.382492065429688,30.626689910888672,-2.1417622566223145,-0.0,-0.0,-1.0,0.1629345687563305,2.0,0.0
28.86633682250977,29.81207275390625,-1.930119276046753,-0.0,-0.0,-1.0,0.1533556834533866,2.0,0.0
29.57915687561035,29.65687370300293,-2.216282367706299,-0.0,-0.0,-1.0,0.1792563190417412,1.0,0.0
29.41196060180664,29.678041458129883,-2.1986875534057617,-0.0,-0.0,-1.0,0.1303616183462705,2.0,0.0
28.737180709838867,29.82421112060547,-2.1446149349212646,-0.0,-0.0,-1.0,0.187994052827828,2.0,0.0
28.20480155944824,30.17871856689453,-2.158906936645508,0.1156660203840802,-0.8282955035502354,0.5482225191717058,0.1595468743314689,4.0,0.0
28.624467849731445,29.73923683166504,-2.1133158206939697,0.4581443903406708,-0.3236178711560307,-0.8278738980471687,0.1663448557366838,3.0,0.0
28.43007469177246,29.839815139770508,-2.111849784851074,-0.0,-0.0,-1.0,0.1329852342060704,1.0,0.0
28.244922637939453,30.00649642944336,-2.1262693405151367,-0.0,-0.0,-1.0,0.1313573971665026,2.0,0.0
28.74378967285156,29.060089111328125,-1.9869801998138428,-0.0,-0.0,-1.0,0.194471326685305,1.0,0.0
28.325115203857425,29.097579956054688,-1.9429731369018557,-0.0,-0.0,-1.0,0.1619141132772924,1.0,0.0
29.384498596191406,30.60103225708008,-2.128892421722412,-0.0,-0.0,-1.0,0.1858815510468532,2.0,0.0
28.32372283935547,28.953784942626953,-1.7403485774993896,0.296852225938625,0.8976513257589351,0.3257312593511858,0.1357709418217809,3.0,0.0
28.25141143798828,29.986255645751953,-2.2437429428100586,-0.4773365407912441,-0.0469525815246471,0.8774652596619539,0.1312419180104395,4.0,0.0
28.164705276489254,30.20406723022461,-2.252988815307617,-0.0,-0.0,-1.0,0.1401652913059171,1.0,0.0
28.32579040527344,29.871652603149418,-2.244964599609375,-0.0,-0.0,-1.0,0.1308897450797132,1.0,0.0
27.821517944335938,28.68242835998535,-2.2073140144348145,-0.0,-0.0,-1.0,0.1011927716551664,2.0,0.0
27.893070220947266,29.450977325439453,-2.2979302406311035,-0.0,-0.0,-1.0,0.0898828411935929,2.0,0.0
28.092430114746097,29.28870010375977,-2.3088645935058594,-0.0,-0.0,-1.0,0.1115452266862135,2.0,0.0
28.334434509277344,29.01211929321289,-2.314046859741211,-0.0,-0.0,-1.0,0.2467196928592833,1.0,0.0
28.48491859436035,28.9510440826416,-2.328951835632324,-0.0,-0.0,-1.0,0.2175820803530508,1.0,0.0
28.26918029785156,30.079465866088867,-2.151433229446411,-0.5141616490569139,0.5376574062656431,0.6682531796608051,0.126480296367614,3.0,0.0
27.92035484313965,29.827062606811523,-2.124063730239868,-0.0,-0.0,-1.0,0.1976742475082149,1.0,0.0
28.811460494995117,30.15689468383789,-2.200220823287964,0.9684771173041298,0.1981045601192087,-0.1510187290313951,0.1120484249779502,4.0,0.0
29.61770820617676,30.06715202331543,-2.422213554382324,-0.0,-0.0,-1.0,0.0840564153107478,1.0,0.0
29.42881774902344,30.0793399810791,-2.4304065704345703,-0.0,-0.0,-1.0,0.0639107939403848,1.0,0.0
29.02346420288086,29.16521644592285,-2.3457679748535156,-0.0,-0.0,-1.0,0.045481577992681,1.0,0.0
28.823331832885746,30.13508415222168,-2.1905274391174316,0.941585188725176,0.3122019776624937,0.1262824513422277,0.0841692323066495,4.0,0.0
29.877357482910156,30.135480880737305,-2.5073461532592773,-0.0,-0.0,-1.0,0.0675955834368861,1.0,0.0
29.665836334228516,29.949708938598633,-2.4862399101257324,-0.0,-0.0,-1.0,0.0430586323117076,2.0,0.0
29.40516662597656,29.575265884399418,-2.4403328895568848,-0.0,-0.0,-1.0,0.1509132757277861,1.0,0.0
27.787097930908203,30.164852142333984,-2.434988260269165,-0.0,-0.0,-1.0,0.1310477050826594,1.0,0.0
28.303306579589844,29.699478149414062,-2.3756940364837646,-0.0,-0.0,-1.0,0.1670266784620489,2.0,0.0
28.482526779174805,29.90542984008789,-2.138148784637451,-0.0,-0.0,-1.0,0.1681797564634526,1.0,0.0
28.243877410888672,30.063365936279297,-2.1579480171203613,-0.5712175230344572,0.3994864008493513,0.7170224242761243,0.1154626450862836,4.0,0.0
28.670862197875977,29.249845504760746,-2.3218419551849365,-0.4866017048961296,-0.8659621158542234,-0.1154486669366808,0.0789719154259275,3.0,0.0
28.454442977905273,29.437379837036133,-2.3468239307403564,-0.0,-0.0,-1.0,0.1006041433819328,1.0,0.0
27.88022232055664,29.436464309692383,-2.340827226638794,-0.0,-0.0,-1.0,0.089882841193593,2.0,0.0
28.596599578857425,29.637710571289062,-2.2717788219451904,0.3274662140232162,-0.8812469472295366,-0.3408367595666927,0.0964120442382917,5.0,0.0
27.821598052978516,30.200260162353516,-2.340294599533081,-0.0,-0.0,-1.0,0.0831045597457755,1.0,0.0
28.660297393798828,30.272106170654297,-2.1379711627960205,-0.0,-0.0,-1.0,0.0917142826328896,1.0,0.0
28.41965675354004,30.366012573242188,-2.1474740505218506,-0.0,-0.0,-1.0,0.1181968751841534,2.0,0.0
28.00830841064453,28.411630630493164,-2.3677568435668945,-0.0,-0.0,-1.0,0.088601605671324,2.0,0.0
28.18926239013672,30.13939094543457,-2.2574210166931152,-0.2532384046443958,-0.4193556965322415,-0.8717861608210582,0.1517225979245773,3.0,0.0
28.6666259765625,29.61469268798828,-2.2080607414245605,-0.611305086697065,-0.7493036184435076,0.2546569817730514,0.1198892825523106,3.0,0.0
28.448974609375,29.841123580932617,-2.2285399436950684,0.6332976134325939,0.6201722113783594,-0.4629476871684924,0.167731030475549,4.0,0.0
28.23918914794922,30.014856338500977,-2.2423386573791504,-0.652639676441266,-0.3127839703927184,0.6900924869899737,0.1120198286407043,3.0,0.0
29.01112174987793,28.335670471191406,-2.3916449546813965,-0.0,-0.0,-1.0,0.017720179290067,1.0,0.0
28.028575897216797,28.301673889160156,-2.31632137298584,-0.0,-0.0,-1.0,0.0722762528319896,1.0,0.0
27.749452590942383,28.544654846191406,-2.3320446014404297,-0.0,-0.0,-1.0,0.0872271789198539,1.0,0.0
30.20528030395508,29.739391326904297,-2.57957124710083,-0.0,-0.0,-1.0,0.0114234554455262,1.0,0.0
29.993350982666016,29.65262985229492,-2.5548105239868164,-0.0,-0.0,-1.0,0.0066747465536305,1.0,0.0
28.78052520751953,28.79709243774414,-2.3576178550720215,-0.0,-0.0,-1.0,0.1471869797184713,2.0,0.0
28.58460235595703,28.898591995239254,-2.3637685775756836,-0.0,-0.0,-1.0,0.1704581434155971,1.0,0.0
28.271316528320312,29.022104263305664,-2.367952346801758,-0.0,-0.0,-1.0,0.169711381046054,1.0,0.0
28.086692810058594,28.40557098388672,-2.260781764984131,0.5497819325617677,0.5300327973196142,0.6456044147883386,0.0815492322020662,3.0,0.0
27.825252532958984,28.76178550720215,-2.304859161376953,-0.0,-0.0,-1.0,0.065232887478346,1.0,0.0
28.56360626220703,29.728010177612305,-2.154188394546509,-0.844481300220615,-0.411406554319883,0.3429227035941782,0.2202077843355695,5.0,0.0
28.28036880493164,29.95614242553711,-2.170811891555786,-0.8356365460504037,-0.148486376073088,-0.5288320707234319,0.1110160491949037,5.0,0.0
28.213115692138672,30.27695655822754,-2.215702772140503,-0.9569217209488396,0.041515391027455,0.2873626494242919,0.1503116793472156,3.0,0.0
29.402944564819336,29.768325805664062,-2.1120145320892334,-0.0,-0.0,-1.0,0.1976693500062715,2.0,0.0
28.603513717651367,30.2908992767334,-2.094378709793091,-0.0,-0.0,-1.0,0.0718770723866276,2.0,0.0
28.362255096435547,30.40147399902344,-2.0844438076019287,0.5941051442358499,-0.7782716000962019,-0.2033036991207912,0.1187088783609204,3.0,0.0
28.17483711242676,29.49444580078125,-1.956714391708374,-0.0,-0.0,-1.0,0.1766937358680164,2.0,0.0
28.716197967529297,29.05117416381836,-2.0710606575012207,-0.0,-0.0,-1.0,0.2529050855738514,1.0,0.0
28.551910400390625,29.760536193847656,-2.1599040031433105,-0.3538441075395065,-0.3994633050047076,-0.8457088243091034,0.1351756628894238,5.0,0.0
28.236888885498047,30.082340240478516,-2.178591251373291,-0.4079997410140618,-0.61318617792686,0.6764162346750019,0.1397792607197477,5.0,0.0
28.90609359741211,29.788232803344727,-2.049391746520996,-0.0,-0.0,-1.0,0.1710471535517721,1.0,0.0
28.80590057373047,30.20818519592285,-2.09348726272583,-0.0,-0.0,-1.0,0.1083328663276662,2.0,0.0
28.68069648742676,30.28730583190918,-2.0906596183776855,0.6511203084369092,0.3104650717093555,-0.6925704174952385,0.0917142826328897,3.0,0.0
28.35964584350586,29.881675720214844,-2.14399790763855,0.2557700749478959,0.6755340309885914,-0.6915456902746572,0.0857335593822165,7.0,0.0
28.135807037353516,30.12340927124023,-2.144338369369507,-0.0,-0.0,-1.0,0.2483979572806766,2.0,0.0
30.04405212402344,29.77344512939453,-2.509280204772949,-0.0,-0.0,-1.0,0.0144714419439121,1.0,0.0
30.13618850708008,29.17080307006836,-2.4583325386047363,-0.0,-0.0,-1.0,0.0855714846165062,1.0,0.0
28.47796058654785,29.417442321777344,-2.253516674041748,-0.0,-0.0,-1.0,0.1044263760693169,2.0,0.0
28.17192649841309,29.767364501953125,-2.2511305809020996,-0.2382339217865126,0.8657127236634597,-0.4402114021665183,0.0832200605535998,3.0,0.0
27.98815536499023,29.99103546142578,-2.2520241737365723,-0.0,-0.0,-1.0,0.1745861518526702,2.0,0.0
28.587038040161133,29.040912628173828,-2.2270774841308594,-0.0,-0.0,-1.0,0.2081303412283048,2.0,0.0
28.49681854248047,28.86835479736328,-2.195786952972412,-0.0,-0.0,-1.0,0.1982889648047145,2.0,0.0
28.11419677734375,28.252599716186523,-1.4940006732940674,-0.0,-0.0,-1.0,0.066190462811179,1.0,0.0
28.011106491088867,28.349140167236328,-2.319300413131714,0.0262930357320256,0.0911480946125238,-0.9954901813280234,0.07966723647135,4.0,0.0
27.821292877197266,28.54979133605957,-2.317277193069458,-0.0,-0.0,-1.0,0.0876780306554351,1.0,0.0
28.460439682006836,29.847232818603516,-2.168452262878418,0.2631091157323434,0.0971401897609463,-0.959863207312246,0.1809932656809595,6.0,0.0
28.25458717346191,29.893314361572266,-2.1450014114379883,-0.0,-0.0,-1.0,0.0856474573764386,1.0,0.0
