x,y,z,nx,ny,nz,curvature,density
13.369531631469728,-11.2801513671875,1.5021514892578125,-0.0,-0.0,-1.0,0.160580926896289,1.0
12.715063095092772,-11.786735534667969,0.7071249485015869,-0.0,-0.0,-1.0,0.1665871318336005,1.0
12.983966827392578,-11.670141220092772,0.9162670373916626,-0.0,-0.0,-1.0,0.1784619202470085,1.0
13.317413330078123,-11.00038242340088,0.8553444147109985,-0.0,-0.0,-1.0,0.2535016114794935,2.0
13.23263168334961,-11.213464736938477,1.6710659265518188,-0.0,-0.0,-1.0,0.1671300654154715,1.0
13.179443359375,-11.27028465270996,0.8605058193206787,-0.0,-0.0,-1.0,0.2039743090442573,1.0
13.018795013427734,-10.370387077331545,0.6595330238342285,-0.0,-0.0,-1.0,0.1886584259474027,1.0
13.397832870483398,-11.038562774658203,0.7190101146697998,-0.7105270261470937,-0.4917442259633562,-0.5033278865175926,0.2383457417002877,4.0
13.22215461730957,-11.345608711242676,1.5429507493972778,-0.0,-0.0,-1.0,0.2003663372425672,2.0
12.952142715454102,-10.2791748046875,0.6293129920959473,-0.0,-0.0,-1.0,0.1700863157906833,1.0
13.43645477294922,-10.991568565368652,0.7044925689697266,-0.0,-0.0,-1.0,0.2552488125407244,1.0
13.216962814331056,-11.301959037780762,1.5275460481643677,-0.5878597383904399,-0.3305041250909749,-0.7383684387061601,0.2003663372425672,3.0
13.950307846069336,-10.261570930480955,0.9811875820159912,-0.0,-0.0,-1.0,0.0483881679293189,1.0
13.31594467163086,-11.272282600402832,0.99871826171875,-0.0,-0.0,-1.0,0.1910529250450859,1.0
13.030994415283203,-11.360943794250488,1.2038378715515137,0.1573845194958161,0.115330682091193,-0.9807797646727076,0.1204115265231416,3.0
13.966331481933594,-10.15707778930664,0.6139070987701416,-0.0,-0.0,-1.0,0.2253929418747622,2.0
15.00102424621582,-10.379528999328612,0.7126600742340088,-0.0,-0.0,-1.0,0.1612599368214857,1.0
14.901932716369627,-10.757450103759766,0.724651575088501,-0.0,-0.0,-1.0,0.1736997348622211,2.0
13.259637832641602,-11.139586448669434,1.3581523895263672,0.1775141641941837,-0.5354429382262756,-0.8257055052584144,0.1619306400131875,3.0
12.74298095703125,-11.417579650878906,1.3333189487457275,-0.1512591827086148,0.9884402317944546,0.0103231689149579,0.096267224286582,3.0
13.466249465942385,-10.893718719482422,1.028663158416748,-0.0,-0.0,-1.0,0.2051821736231183,1.0
13.240604400634766,-11.034262657165527,1.0187005996704102,-0.0,-0.0,-1.0,0.2241345931030058,2.0
15.1988525390625,-10.635765075683594,1.1458083391189575,-0.0,-0.0,-1.0,0.142296291987551,1.0
13.070051193237305,-11.555079460144045,1.0332348346710205,-0.0,-0.0,-1.0,0.0973763661539646,1.0
13.44386386871338,-10.59611701965332,1.015913724899292,-0.0,-0.0,-1.0,0.2022916559969843,1.0
13.256413459777832,-11.201991081237791,1.0387823581695557,-0.0,-0.0,-1.0,0.1612330751112145,1.0
13.91059684753418,-10.107330322265623,1.0369715690612793,0.7210995772946075,0.6746821604496538,-0.1575416833619783,0.0696540332984828,3.0
13.033379554748535,-10.21269702911377,0.978198766708374,-0.0,-0.0,-1.0,0.2126708451833989,1.0
13.594223022460938,-10.601091384887695,1.047649621963501,-0.0,-0.0,-1.0,0.2251815894507133,1.0
13.444022178649902,-11.046918869018556,1.066211223602295,-0.0,-0.0,-1.0,0.1308785474109,1.0
15.102285385131836,-10.909479141235352,0.667609453201294,-0.0,-0.0,-1.0,0.1977964366625585,1.0
14.754436492919922,-10.779720306396484,0.6231012344360352,0.96282197214234,-0.2701309912602655,0.0017599774661951,0.1062085625667291,3.0
14.429171562194824,-11.358149528503418,0.6452109813690186,-0.0,-0.0,-1.0,0.0922804756746214,1.0
14.160696029663086,-11.346498489379885,0.6178381443023682,-0.0,-0.0,-1.0,0.1229798305816781,1.0
13.743865966796877,-10.71444034576416,1.2174105644226074,-0.0,-0.0,-1.0,0.1988706341243261,1.0
13.311814308166504,-11.156718254089355,1.211675763130188,0.7030758683557411,-0.0055565394210373,-0.7110931360978554,0.1669997984875715,3.0
13.064046859741213,-11.38779354095459,1.2059844732284546,0.1573845194958161,0.115330682091193,-0.9807797646727076,0.1421645835705749,3.0
14.282637596130373,-10.7485933303833,0.4575769901275635,-0.0,-0.0,-1.0,0.1198332281555137,1.0
12.814557075500488,-10.967881202697754,0.4541785717010498,-0.0,-0.0,-1.0,0.2220116484140873,1.0
14.150216102600098,-11.21798324584961,0.5280961990356445,-0.0,-0.0,-1.0,0.0808437348037796,2.0
12.738423347473145,-11.54710292816162,0.5375134944915771,-0.0,-0.0,-1.0,0.1484271534056181,1.0
13.617536544799805,-11.577367782592772,0.569307804107666,-0.0,-0.0,-1.0,0.1210522780063038,1.0
13.518152236938477,-11.657424926757812,0.5784993171691895,-0.0,-0.0,-1.0,0.0893226676152714,1.0
13.316812515258787,-9.447114944458008,0.9655702114105223,-0.0,-0.0,-1.0,0.1151468479713878,1.0
14.62440299987793,-10.900044441223145,0.4880781173706054,-0.0,-0.0,-1.0,0.049301395197472,1.0
14.453130722045898,-11.356411933898926,0.5564391613006592,0.9864759013988804,-0.0717285730627595,-0.1473781115554376,0.0766701349647896,4.0
13.806961059570312,-11.608872413635254,0.5793931484222412,-0.0,-0.0,-1.0,0.0836247019479825,1.0
15.167559623718262,-10.510841369628906,1.0983799695968628,-0.0107591995717303,0.973430369336856,0.2287303121085778,0.2001176809065839,3.0
14.943275451660156,-10.579968452453612,1.108747482299805,-0.0,-0.0,-1.0,0.2092949250782284,2.0
13.726069450378418,-10.676959037780762,1.122610569000244,-0.0,-0.0,-1.0,0.1758713626315914,1.0
15.087533950805664,-10.620312690734863,1.1133241653442385,0.4819504290159812,-0.4884934716338938,-0.7273911685897612,0.1773682739003427,4.0
13.44922161102295,-11.075918197631836,1.1714749336242676,-0.0,-0.0,-1.0,0.1694870009148357,2.0
13.283289909362791,-11.182839393615724,1.183677077293396,0.7030758683557411,-0.0055565394210373,-0.7110931360978554,0.1732594446756832,3.0
13.013113975524902,-11.275251388549805,1.1929466724395752,-0.0,-0.0,-1.0,0.197947175934227,2.0
13.308564186096191,-9.69472312927246,0.5806148052215576,-0.0,-0.0,-1.0,0.2171999458209757,1.0
12.988043785095217,-9.676700592041016,0.5597553253173828,-0.0,-0.0,-1.0,0.0442064415985288,1.0
13.266464233398438,-9.756851196289062,0.5852973461151123,-0.0,-0.0,-1.0,0.1679814513817415,1.0
14.15173053741455,-10.120046615600586,0.677351713180542,-0.0,-0.0,-1.0,0.1740630259544633,1.0
13.973822593688965,-10.095703125,0.664679765701294,-0.0,-0.0,-1.0,0.1963407295054243,1.0
13.01393985748291,-10.1236572265625,0.6119048595428467,-0.0,-0.0,-1.0,0.1748601733616784,2.0
14.690160751342772,-10.376696586608888,0.7364926338195801,-0.0,-0.0,-1.0,0.1872450140183007,1.0
14.366786003112791,-10.189817428588867,0.6972219944000244,-0.0,-0.0,-1.0,0.0791467038282924,1.0
13.908225059509276,-10.293984413146973,0.6839492321014404,-0.0,-0.0,-1.0,0.1597761884017637,2.0
13.179758071899414,-10.227313995361328,0.6336362361907959,-0.0,-0.0,-1.0,0.1461199208470342,1.0
15.011789321899414,-10.632163047790527,0.7836203575134277,-0.0,-0.0,-1.0,0.1298121916229795,1.0
13.530692100524902,-11.29045867919922,0.7742555141448975,-0.0,-0.0,-1.0,0.1657215420901775,1.0
13.111964225769045,-11.142242431640623,0.731266975402832,-0.0,-0.0,-1.0,0.220978768518129,2.0
13.067896842956545,-11.614482879638672,0.7798418998718262,-0.0,-0.0,-1.0,0.1859384011831737,2.0
13.341501235961914,-10.965653419494627,1.4073765277862549,-0.0,-0.0,-1.0,0.0818898399472509,2.0
12.719223976135254,-11.470446586608888,1.4219622611999512,-0.0,-0.0,-1.0,0.0990759070912591,1.0
13.278488159179688,-9.623764038085938,0.8658971786499023,-0.7599437002530652,0.6489439782831949,-0.0368413557793433,0.1858603042687009,3.0
12.744282722473145,-9.422182083129885,0.8037550449371338,-0.0,-0.0,-1.0,0.1087277410617119,2.0
12.939092636108398,-10.162606239318848,0.8786749839782715,-0.5013283568200069,-0.555722929761919,0.6632057780093457,0.2124041785875913,4.0
13.940664291381836,-10.160439491271973,0.9652211666107178,-0.0,-0.0,-1.0,0.1009951615161844,2.0
15.060178756713867,-10.62635898590088,1.0958044528961182,0.4819504290159812,-0.4884934716338938,-0.7273911685897612,0.2056884956929722,4.0
13.655630111694336,-10.904858589172363,0.9996826648712158,-0.1839001703156111,0.9626282911647236,-0.1988152418884771,0.2265043379312664,3.0
13.288029670715332,-10.847654342651367,0.9626643657684326,-0.0,-0.0,-1.0,0.2237455202617098,2.0
13.342134475708008,-11.082671165466309,0.9855647087097168,0.7586895577829442,0.0258631124878581,-0.6509387485190611,0.1215449438343606,4.0
13.049307823181152,-11.61256980895996,0.9988617897033693,-0.0,-0.0,-1.0,0.1553576294430776,1.0
13.498661041259766,-11.039155960083008,1.6581355333328247,0.9709079267445242,0.0441688197313379,-0.235344243924066,0.1365546882738593,3.0
13.11615753173828,-11.188095092773438,1.6391923427581787,-0.0,-0.0,-1.0,0.1621844648701009,1.0
13.24466609954834,-9.55500030517578,0.8886396884918213,-0.0,-0.0,-1.0,0.2200727445809059,1.0
12.763134002685549,-9.452852249145508,0.8425920009613037,0.8426965389358555,-0.5379504680058141,0.0217218147919565,0.103130028534538,3.0
14.654866218566896,-11.343510627746582,0.5368621349334717,-0.0,-0.0,-1.0,0.0553343841374135,1.0
15.081424713134766,-10.64853572845459,1.121066331863403,0.3707798697259679,0.9006281226760946,0.2266964332558584,0.172525253127727,4.0
13.930200576782228,-10.056822776794434,0.9843204021453856,-0.0,-0.0,-1.0,0.1047090977885416,1.0
13.19625473022461,-9.611461639404297,0.889826774597168,-0.0,-0.0,-1.0,0.1813401712005614,1.0
13.68858814239502,-10.907620429992676,1.039566993713379,0.5426079027981393,0.8399809356659965,-0.0029481415641497,0.2570410526978604,3.0
13.28363800048828,-10.673344612121582,0.98761248588562,-0.0,-0.0,-1.0,0.2203351621921886,2.0
13.33405303955078,-11.18081283569336,1.0343561172485352,-0.0,-0.0,-1.0,0.2126485915741096,1.0
13.30871295928955,-10.929619789123535,1.011249303817749,-0.0,-0.0,-1.0,0.187260686749993,2.0
13.509371757507324,-11.110428810119627,1.6821651458740234,-0.0,-0.0,-1.0,0.1518292472037414,1.0
12.7742919921875,-9.36927604675293,0.590327262878418,0.3887543724093635,0.4551966597585149,-0.801040597521307,0.2120107818224053,3.0
14.653168678283691,-10.224383354187012,0.8245849609375,-0.0,-0.0,-1.0,0.1415302629241344,1.0
14.346051216125488,-10.11343765258789,0.7899096012115479,-0.0,-0.0,-1.0,0.119971777785991,1.0
13.931665420532228,-10.174644470214844,0.7644970417022705,-0.0,-0.0,-1.0,0.1503996694753935,2.0
13.784868240356444,-10.41636848449707,0.7778291702270508,-0.0,-0.0,-1.0,0.123270949029398,1.0
13.16005039215088,-10.056861877441406,0.6911683082580566,-0.0,-0.0,-1.0,0.160956789728486,1.0
12.984356880187988,-10.149335861206056,0.686166524887085,-0.0,-0.0,-1.0,0.1722249917009244,1.0
13.36820125579834,-10.865077018737791,0.7895364761352539,-0.0550415961192123,-0.5809514088814965,-0.8120750477728359,0.2191917730201074,3.0
13.42086696624756,-11.096475601196287,0.8170225620269775,-0.0,-0.0,-1.0,0.2293727594361954,2.0
13.256020545959473,-11.080690383911133,0.8016953468322754,-0.4831797495876957,-0.5474684893458779,0.6832390377911043,0.2143290005876199,3.0
13.057167053222656,-11.542442321777344,0.8302023410797119,0.7989443291964486,0.5768920569959002,0.169951503140973,0.1490793740887147,5.0
13.455378532409668,-11.042769432067873,1.444462776184082,-0.0,-0.0,-1.0,0.134889274710847,1.0
14.449158668518066,-9.71428394317627,0.8194100856781006,-0.0,-0.0,-1.0,0.2241635993053584,1.0
14.252577781677246,-9.70833683013916,0.8024122714996338,-0.0,-0.0,-1.0,0.2129139909568963,2.0
14.90039348602295,-10.574535369873049,0.9436230659484864,-0.0,-0.0,-1.0,0.1529552305771837,1.0
13.981942176818848,-10.105690002441406,0.8188502788543701,0.1851987171082403,0.7795356623277214,-0.598352393110233,0.1513651141639815,3.0
13.294634819030762,-9.441532135009766,0.6936123371124268,-0.0,-0.0,-1.0,0.1471899779448962,1.0
14.0809326171875,-11.261260986328123,0.9404411315917968,-0.0,-0.0,-1.0,0.2254669851839582,1.0
13.437420845031738,-11.064210891723633,0.8629512786865234,0.4812398504173992,-0.5653471548827075,-0.6699185031302446,0.1499029364061263,3.0
13.333542823791504,-10.886767387390137,0.8364739418029785,-0.0,-0.0,-1.0,0.1554000281709655,2.0
13.094358444213867,-11.407452583312988,0.8630256652832031,-0.0,-0.0,-1.0,0.1592643256237499,2.0
12.738736152648926,-11.641121864318848,0.850266695022583,-0.0,-0.0,-1.0,0.1462747853924582,1.0
14.551796913146973,-11.367894172668455,0.463158369064331,-0.0,-0.0,-1.0,0.06917615721264,1.0
15.155759811401367,-10.516244888305664,0.9718954563140868,-0.0,-0.0,-1.0,0.1844982148410684,2.0
15.05185890197754,-10.445026397705078,0.9554860591888428,-0.0,-0.0,-1.0,0.1059491976008265,2.0
14.475279808044434,-9.532601356506348,0.8077671527862549,0.8676767402322357,0.387937870807081,0.3108718109665616,0.1856257975696624,4.0
14.350556373596191,-9.489771842956545,0.7926802635192871,-0.0,-0.0,-1.0,0.1855874088616039,1.0
14.077784538269045,-9.918469429016112,0.8161032199859619,-0.0,-0.0,-1.0,0.2180489147403219,1.0
13.299382209777832,-9.386552810668944,0.6939682960510254,-0.0,-0.0,-1.0,0.1305996299981055,1.0
13.563881874084473,-10.857304573059082,0.8751499652862549,0.0241136900940866,0.9354119838904392,0.3527363751361618,0.1872697512701075,3.0
13.26927089691162,-10.95636749267578,0.858696699142456,0.7483448965399628,-0.5035837144546401,-0.4317213897395635,0.2378358038003891,3.0
13.164454460144045,-11.138009071350098,0.867882490158081,-0.0,-0.0,-1.0,0.2155234426881046,1.0
12.956546783447266,-11.53276538848877,0.8889989852905273,-0.0,-0.0,-1.0,0.121632629789419,2.0
13.168082237243652,-11.150799751281738,1.452136754989624,-0.0,-0.0,-1.0,0.1747486598987943,2.0
15.0389986038208,-9.378677368164062,0.5194272994995117,-0.0,-0.0,-1.0,0.1291247461820533,2.0
14.850045204162598,-9.859742164611816,0.5621907711029053,-0.0,-0.0,-1.0,0.1417158958653405,1.0
14.886788368225098,-10.600482940673828,0.6619184017181396,-0.0,-0.0,-1.0,0.1333227380361677,1.0
14.904022216796877,-10.339231491088867,0.6301298141479492,-0.0,-0.0,-1.0,0.1899631829241948,1.0
14.757312774658203,-10.76916790008545,0.6692295074462891,0.7580212959576426,0.6239420688575253,-0.1900000252223329,0.1222228288125829,3.0
14.244712829589844,-10.43740177154541,0.5694615840911865,-0.0,-0.0,-1.0,0.0787646262548569,1.0
14.221381187438965,-10.24395751953125,0.5422892570495605,-0.0,-0.0,-1.0,0.1071316627093163,2.0
14.234572410583496,-10.574400901794434,0.5856361389160156,-0.0,-0.0,-1.0,0.13545259055891,1.0
13.887171745300291,-10.382394790649414,0.521693229675293,-0.0,-0.0,-1.0,0.1529777059808318,1.0
14.050942420959473,-11.302770614624023,0.6555249691009521,-0.0,-0.0,-1.0,0.1485892276915402,2.0
13.64412784576416,-10.358738899230955,0.4906411170959472,-0.0,-0.0,-1.0,0.1254259774605854,1.0
13.673725128173828,-11.53983211517334,0.6396617889404297,-0.0,-0.0,-1.0,0.1054712275565345,2.0
13.330873489379885,-11.769487380981444,0.6255662441253662,-0.0,-0.0,-1.0,0.082248806284317,1.0
14.891965866088867,-9.37245273590088,1.074742078781128,-0.0,-0.0,-1.0,0.0946474759066629,1.0
15.052743911743164,-10.624333381652832,1.2129762172698977,-0.1951546600155423,-0.3164031546938484,-0.9283338313203924,0.1824707111829736,3.0
13.365778923034668,-11.041632652282717,1.0921385288238523,0.5927161657255996,-0.6779035295518664,0.4348957938502806,0.133020392228795,3.0
12.928947448730469,-10.090137481689451,0.9601263999938964,-0.95839474082896,0.1083763931495518,0.2640721078782928,0.2040759125152174,4.0
13.20108699798584,-11.136813163757324,1.084557056427002,-0.0,-0.0,-1.0,0.1966544424357919,2.0
13.493828773498535,-11.003931045532228,1.6448110342025757,0.7645447397759838,0.2613851720502865,-0.5891936292197292,0.0998337383302949,4.0
15.200965881347656,-10.768120765686035,0.5675983428955078,-0.0,-0.0,-1.0,0.1798705671581311,1.0
14.903104782104492,-11.636540412902832,0.6635549068450928,-0.2529553085545889,0.3410371141975382,-0.9053768820849512,0.0546615525462204,3.0
14.86826515197754,-10.879169464111328,0.546807050704956,-0.0,-0.0,-1.0,0.1032983670929999,2.0
14.505781173706056,-11.301072120666504,0.5667784214019775,-0.0,-0.0,-1.0,0.0746811486351976,2.0
14.330324172973633,-11.452178955078123,0.5676758289337158,-0.0,-0.0,-1.0,0.0815834222558069,2.0
13.88734531402588,-11.809112548828123,0.5634336471557617,-0.0,-0.0,-1.0,0.1122544333373452,1.0
15.171409606933594,-10.648275375366213,1.0398786067962646,0.3783778932409443,0.3537844942409684,-0.8553751817426121,0.1978949412572125,4.0
13.961466789245604,-9.81246852874756,0.8247053623199463,-0.5619112630444582,0.7431040172478652,-0.3633898072509272,0.1855721010811299,3.0
13.641556739807127,-10.90613079071045,0.9199926853179932,-0.0,-0.0,-1.0,0.2567429251835333,1.0
13.465417861938477,-10.704408645629885,0.8787009716033936,-0.0,-0.0,-1.0,0.1984912038983728,1.0
13.328028678894045,-9.529703140258787,0.7290298938751221,-0.5188601893066188,-0.2614433810626768,0.8138989264344899,0.183809777457944,3.0
13.30811882019043,-11.049307823181152,0.9013566970825196,-0.0841685613607819,-0.7349803713528239,0.6728443408430521,0.1637810919152045,4.0
13.334559440612791,-10.829778671264648,0.8793661594390869,-0.0,-0.0,-1.0,0.2007453813504134,2.0
13.032729148864746,-11.51655101776123,0.9237620830535888,-0.0,-0.0,-1.0,0.1401480259677525,2.0
13.003812789916992,-11.397333145141602,0.9074938297271729,-0.0,-0.0,-1.0,0.1396269166109718,1.0
13.236394882202148,-11.131168365478516,1.4157147407531738,0.70226175024791,0.6230426571657263,-0.3444506952970394,0.1874722512206295,4.0
15.045239448547363,-10.961285591125488,0.6826403141021729,-0.0,-0.0,-1.0,0.2039890941301512,1.0
14.96758270263672,-10.415159225463867,0.5871095657348633,-0.0,-0.0,-1.0,0.1782837715857313,1.0
14.805514335632324,-10.753303527832031,0.6214122772216797,-0.0,-0.0,-1.0,0.1132510148037775,2.0
14.665910720825195,-10.624917984008787,0.5844268798828125,-0.0,-0.0,-1.0,0.0840413239180782,1.0
14.310541152954102,-11.228562355041504,0.6340024471282959,-0.0,-0.0,-1.0,0.0770998382892532,1.0
14.545429229736328,-10.771169662475586,0.5928294658660889,-0.0,-0.0,-1.0,0.0769797855764389,1.0
14.278210639953612,-10.664758682250977,0.5435769557952881,-0.0,-0.0,-1.0,0.1112553832278772,2.0
14.08782196044922,-11.191690444946287,0.6000936031341553,-0.0,-0.0,-1.0,0.0649025497627129,1.0
14.004549026489258,-10.663905143737791,0.509319543838501,-0.0,-0.0,-1.0,0.1642906086377106,1.0
13.664828300476074,-11.536672592163086,0.5961627960205078,0.9583625823935544,0.221753974114667,-0.179906463564567,0.1060893025086329,3.0
13.439947128295898,-11.67764663696289,0.5865237712860107,-0.0,-0.0,-1.0,0.0965831385271729,1.0
12.85494613647461,-11.755702018737791,0.5169637203216553,-0.0,-0.0,-1.0,0.2116310547541712,1.0
13.384541511535645,-11.00525188446045,0.966822385787964,-0.0,-0.0,-1.0,0.2478599522915364,2.0
13.659558296203612,-10.815762519836426,0.9737937450408936,-0.0,-0.0,-1.0,0.2270795559095708,1.0
13.374016761779783,-9.539862632751465,0.7869229316711426,-0.3167277286591025,-0.9471137474509618,0.0515664162788283,0.1997995126307458,6.0
13.31193733215332,-10.833375930786133,0.9382901191711426,-0.7442647112725721,0.1268016894218465,-0.655737272933391,0.1829316556675685,3.0
13.19182300567627,-10.44318389892578,0.8782808780670166,-0.0,-0.0,-1.0,0.2237813315315896,1.0
12.87106990814209,-9.944933891296388,0.7834055423736572,-0.0,-0.0,-1.0,0.1373519936375555,1.0
12.93614101409912,-11.638800621032717,0.9907324314117432,-0.0,-0.0,-1.0,0.1969813213790679,1.0
15.100969314575195,-10.52279281616211,1.0843355655670166,0.7173322841092402,-0.3619237658550742,-0.5953533252480425,0.1900453395254689,5.0
12.732102394104004,-11.302297592163086,1.4161837100982666,-0.0,-0.0,-1.0,0.0757408362519181,1.0
13.25711727142334,-11.148796081542969,1.4493696689605713,0.4633411786363894,0.8696773087724675,0.1702243542684757,0.1831680149381916,3.0
14.92491340637207,-10.841744422912598,0.577833890914917,-0.0,-0.0,-1.0,0.1103595432526499,1.0
15.026662826538086,-10.248730659484863,0.4998507499694824,-0.0,-0.0,-1.0,0.1430274595977858,1.0
14.459210395812988,-11.320063591003418,0.5756494998931885,0.9864759013988804,-0.0717285730627595,-0.1473781115554376,0.0794348537628742,4.0
14.575807571411133,-10.943451881408691,0.5377058982849121,-0.0,-0.0,-1.0,0.0382878864930196,1.0
14.305137634277344,-9.902584075927734,0.8007352352142334,-0.0,-0.0,-1.0,0.1757193314827869,1.0
14.32534408569336,-11.448579788208008,0.5723342895507812,-0.0,-0.0,-1.0,0.0821034792727513,2.0
14.31418514251709,-10.857759475708008,0.4820213317871094,-0.0,-0.0,-1.0,0.088387564988271,2.0
13.900915145874023,-10.115717887878418,0.7714271545410156,-0.0,-0.0,-1.0,0.1741118951882004,1.0
13.735118865966797,-10.376391410827637,0.7797958850860596,-0.0,-0.0,-1.0,0.1874160821769366,1.0
13.27590274810791,-10.974141120910645,0.7829952239990234,-0.0,-0.0,-1.0,0.2582969782833466,1.0
13.303963661193848,-10.75676727294922,0.7620000839233398,-0.7672890800686475,-0.5082365314484122,-0.3911049676349,0.2070882433515336,3.0
13.086018562316896,-9.73542022705078,0.6085388660430908,-0.0,-0.0,-1.0,0.1165343020924492,1.0
13.289045333862305,-9.525846481323242,0.6121625900268555,-0.0,-0.0,-1.0,0.1670774422345725,2.0
13.020174026489258,-11.15203094482422,0.7644212245941162,-0.0,-0.0,-1.0,0.235219474269199,1.0
12.760204315185549,-10.735511779785156,0.6774208545684814,-0.0,-0.0,-1.0,0.0792612329120776,1.0
12.747615814208984,-10.441908836364746,0.6418614387512207,-0.0359787101011948,0.977956478126748,0.2056858267100121,0.1809443559661003,4.0
12.817790985107422,-9.572492599487305,0.5499083995819092,-0.0,-0.0,-1.0,0.1087978001483114,1.0
15.10362434387207,-10.622220039367676,1.0005340576171875,-0.0,-0.0,-1.0,0.2367322467855122,1.0
14.965126037597656,-10.605429649353027,0.9797840118408204,-0.0,-0.0,-1.0,0.1965317857707381,2.0
13.867095947265623,-11.265824317932127,0.9055685997009276,-0.0,-0.0,-1.0,0.178669414285114,1.0
13.543859481811523,-11.28086280822754,0.8589944839477539,-0.0,-0.0,-1.0,0.145193259645365,1.0
13.265871047973633,-11.096818923950195,0.7957379817962646,-0.0,-0.0,-1.0,0.176012175024647,2.0
13.3451509475708,-9.467205047607422,1.1073920726776123,-0.6722286976463877,0.6229366219811883,-0.4000731721264349,0.1463746653068325,7.0
13.00177764892578,-11.521181106567385,0.8030173778533936,0.1710036664929301,0.953251371208967,-0.2491376513781064,0.1425941232591743,5.0
13.93503189086914,-10.10789966583252,1.238622784614563,-0.0,-0.0,-1.0,0.1113552197888523,1.0
13.23269271850586,-10.669082641601562,1.204746961593628,-0.0,-0.0,-1.0,0.184636035538182,2.0
14.671141624450684,-10.33583641052246,0.6597108840942383,-0.0,-0.0,-1.0,0.167737789119459,1.0
14.262592315673828,-10.767948150634766,0.660790205001831,-0.0,-0.0,-1.0,0.1509601854436758,1.0
14.240493774414062,-10.23887825012207,0.5767788887023926,-0.0,-0.0,-1.0,0.104444810668758,2.0
14.372950553894045,-10.126718521118164,0.5804319381713867,-0.0,-0.0,-1.0,0.1081737954922699,1.0
13.952041625976562,-11.307148933410645,0.6883265972137451,-0.0,-0.0,-1.0,0.2062676940817912,1.0
13.92219352722168,-10.30611801147461,0.5356504917144775,-0.0,-0.0,-1.0,0.1800578327237811,1.0
13.560796737670898,-11.544479370117188,0.6537020206451416,-0.0,-0.0,-1.0,0.1073045485582894,2.0
13.521236419677734,-10.398449897766112,0.483076810836792,-0.0,-0.0,-1.0,0.117419802195149,2.0
13.324124336242676,-9.541096687316896,0.7883648872375488,-0.0123825390063514,-0.5066633333069536,-0.862055067504416,0.2036907865856758,3.0
13.253849029541016,-11.687838554382324,0.6182053089141846,-0.0,-0.0,-1.0,0.0514311034323455,1.0
12.897855758666992,-10.040424346923828,0.7877779006958008,0.0062585754864198,-0.9611213234631912,0.2760554868450266,0.1394880875666078,3.0
12.781099319458008,-11.78978157043457,0.5452735424041748,-0.0,-0.0,-1.0,0.202169077000009,1.0
15.027198791503906,-10.531501770019531,1.1446490287780762,0.4083293796236289,0.848392565970113,0.3368934130297442,0.2237153421612796,7.0
15.128217697143556,-10.475743293762209,1.150663137435913,-0.0,-0.0,-1.0,0.1292006819183829,1.0
14.904523849487305,-10.619274139404297,1.1397056579589844,-0.0,-0.0,-1.0,0.199084963028323,1.0
13.912129402160645,-10.12383270263672,0.9422051906585692,0.139677167767386,0.9368532814956064,0.3206184925349682,0.1029312502479729,4.0
13.555913925170898,-10.85456371307373,0.9796440601348876,-0.0,-0.0,-1.0,0.2098773544827962,2.0
13.25430679321289,-10.95246410369873,0.9464592933654784,-0.4332106561342021,-0.6839218832786603,0.5870088457462502,0.2537099156882431,3.0
13.272846221923828,-10.613358497619627,0.9099526405334472,-0.0,-0.0,-1.0,0.1751455126564427,1.0
12.883966445922852,-11.646761894226074,0.9669272899627686,-0.0,-0.0,-1.0,0.14215715335172,1.0
13.230371475219728,-11.174216270446776,1.386913180351257,-0.5066474659308845,0.7839820937232854,-0.3587205346604334,0.184018751293156,5.0
15.113263130187988,-10.861973762512209,0.620405912399292,-0.0,-0.0,-1.0,0.0974030383782956,1.0
14.74813175201416,-10.94565200805664,0.5675477981567383,-0.0,-0.0,-1.0,0.1113050595131814,1.0
14.612133979797363,-10.19726276397705,0.7958517074584961,-0.0,-0.0,-1.0,0.116139882615393,1.0
14.42961311340332,-11.417407989501951,0.5894639492034912,-0.0,-0.0,-1.0,0.0848047064574652,1.0
14.476502418518066,-11.048829078674316,0.533973217010498,0.8026962064968047,0.4661864710017467,-0.3719529195080703,0.0538877690643711,3.0
14.263967514038086,-10.086590766906738,0.7220127582550049,-0.0,-0.0,-1.0,0.142699673440528,1.0
14.037900924682615,-9.962300300598145,0.6656341552734375,-0.0,-0.0,-1.0,0.2128370987635521,1.0
14.004669189453123,-11.3726167678833,0.6863524913787842,-0.0,-0.0,-1.0,0.2362312763427509,2.0
13.930716514587402,-11.01948356628418,0.8072445392608643,-0.0,-0.0,-1.0,0.2246835386835447,1.0
13.810836791992188,-10.084864616394045,0.6467912197113037,-0.0,-0.0,-1.0,0.2378565945710316,1.0
13.860307693481444,-9.968567848205566,0.6371757984161377,-0.0,-0.0,-1.0,0.2695621060219488,2.0
13.523834228515623,-11.46623992919922,0.7979724407196045,-0.0,-0.0,-1.0,0.1017327693488234,1.0
13.501179695129396,-11.125890731811523,0.7464995384216309,-0.0,-0.0,-1.0,0.174938958997321,1.0
13.488311767578123,-10.845715522766112,0.7042346000671387,-0.0,-0.0,-1.0,0.17370206989723,1.0
13.58204460144043,-10.099669456481934,0.6105132102966309,-0.0,-0.0,-1.0,0.0739120363599334,1.0
13.377845764160156,-10.008393287658691,0.5618937015533447,-0.0,-0.0,-1.0,0.0676331635840337,1.0
13.058693885803224,-11.562162399291992,0.725144624710083,-0.8686406732407146,0.4948557089761678,0.0241082576229048,0.2575177094028283,3.0
13.046520233154297,-11.16497039794922,0.6691181659698486,-0.0,-0.0,-1.0,0.2032998194511965,1.0
13.078505516052246,-10.184182167053224,0.5361535549163818,-0.0,-0.0,-1.0,0.1764938222409187,1.0
12.782599449157717,-11.78782844543457,0.702380895614624,-0.0,-0.0,-1.0,0.2496410106618276,1.0
12.92991828918457,-11.317359924316406,0.6684305667877197,-0.0,-0.0,-1.0,0.1582947445191405,1.0
14.038253784179688,-11.334492683410645,0.8720970153808594,-0.0,-0.0,-1.0,0.1472500791150592,2.0
13.371814727783203,-11.02840805053711,1.1045265197753906,-0.0,-0.0,-1.0,0.1277062943339741,2.0
12.973000526428224,-11.410303115844728,1.0856082439422607,-0.0,-0.0,-1.0,0.1087571546328057,2.0
13.212373733520508,-11.089675903320312,1.0870487689971924,-0.0,-0.0,-1.0,0.2604674291580026,2.0
12.926177024841309,-10.126479148864746,0.9305124282836914,-0.9814591261328046,0.0975129373838853,-0.1650127594260442,0.2065288591944662,4.0
13.448389053344728,-11.024124145507812,1.5036131143569946,-0.6045553482662915,-0.3894356328911162,-0.6948760455774241,0.1577697346744747,3.0
15.12125301361084,-10.450517654418944,0.5170559883117676,-0.0,-0.0,-1.0,0.1613828571073527,1.0
15.17805004119873,-10.830546379089355,0.7648625373840332,-0.0,-0.0,-1.0,0.200115569314784,1.0
15.11320686340332,-10.4188232421875,0.6799252033233643,-0.0,-0.0,-1.0,0.1589301792567942,1.0
14.866270065307615,-10.913991928100586,0.5432746410369873,0.6612513793999301,0.0381136661666851,-0.749195543028003,0.1018201080340869,3.0
14.545385360717772,-10.15414810180664,0.6853611469268799,-0.0,-0.0,-1.0,0.1220676850520094,1.0
14.529349327087402,-11.322471618652344,0.5319674015045166,-0.0,-0.0,-1.0,0.0746811486351976,2.0
14.62944221496582,-11.047147750854492,0.5093843936920166,-0.0,-0.0,-1.0,0.0490718817846698,2.0
14.191460609436035,-10.697765350341797,0.6930832862854004,-0.0,-0.0,-1.0,0.1809205929130632,1.0
14.201221466064451,-10.128308296203612,0.6080725193023682,-0.0,-0.0,-1.0,0.1530534645317817,1.0
14.434889793395996,-11.800128936767578,0.5869686603546143,-0.0,-0.0,-1.0,0.0313985032378502,1.0
14.35667610168457,-11.531537055969238,0.522871732711792,-0.0,-0.0,-1.0,0.0476546317879615,1.0
13.968461036682127,-10.940499305725098,0.6785995960235596,-0.0,-0.0,-1.0,0.1711977628886901,1.0
13.85214614868164,-10.238494873046877,0.5489494800567627,-0.0,-0.0,-1.0,0.2381407146717779,1.0
13.70158576965332,-11.472911834716797,0.6901741027832031,-0.0,-0.0,-1.0,0.1632516368524988,1.0
13.735466003417969,-11.219975471496582,0.664034366607666,-0.0,-0.0,-1.0,0.1732421549651165,2.0
13.657515525817873,-10.883963584899902,0.5994789600372314,-0.0,-0.0,-1.0,0.2367691866101429,1.0
13.49687671661377,-10.415571212768556,0.4958827495574951,-0.0,-0.0,-1.0,0.125663482877946,2.0
13.254828453063965,-9.529268264770508,0.7130482196807861,-0.0995978817925323,0.1149214487601673,-0.9883690214476092,0.1828988222536191,3.0
13.330543518066406,-11.676836967468262,0.6275296211242676,-0.0,-0.0,-1.0,0.0895250033436366,1.0
12.909579277038574,-10.040220260620115,0.7077815532684326,-0.0,-0.0,-1.0,0.1423849388160009,2.0
12.876924514770508,-10.931289672851562,0.8022458553314209,-0.0,-0.0,-1.0,0.1949697063618176,2.0
12.756690979003906,-10.406108856201172,0.7192049026489258,-0.0,-0.0,-1.0,0.1014193715036174,1.0
15.083471298217772,-10.523992538452148,1.1864607334136963,0.9308330216908212,-0.0962609569515649,-0.3525389537295194,0.1576578918957102,4.0
13.931270599365234,-9.80712604522705,0.877539873123169,-0.8183405084940796,0.5242273882359956,-0.2355938402864512,0.1546502374076311,3.0
13.891524314880373,-10.02366065979004,1.0816569328308103,-0.0,-0.0,-1.0,0.0458603422546101,1.0
13.54885959625244,-10.822626113891602,0.9279890060424804,-0.0,-0.0,-1.0,0.2231450548997025,1.0
13.22857666015625,-11.127116203308104,0.8967552185058594,-0.2288879344036171,-0.9710756181348588,-0.0679886560276575,0.2080383509295022,5.0
13.273599624633787,-10.976188659667969,0.8893206119537354,0.6351049634378594,-0.7463400900278854,-0.1990430994376911,0.2158725907394894,5.0
13.060186386108398,-10.554767608642578,0.9897284507751464,-0.0,-0.0,-1.0,0.0921058819893791,1.0
13.00583839416504,-11.486675262451172,0.8880634307861328,0.9169482819461516,0.3899478846853194,0.0845369473392854,0.1559401778431878,6.0
13.898404121398926,-10.05331325531006,1.2691032886505127,0.6763432875856157,-0.590934694507843,-0.439722576364693,0.1159540997241121,3.0
13.262911796569824,-11.06769561767578,1.4339861869812012,-0.0,-0.0,-1.0,0.1011714015125115,1.0
13.462830543518066,-10.993736267089844,1.6350834369659424,0.371795851104188,0.2886008005625488,-0.8823136760905209,0.1419199462009784,3.0
13.97490692138672,-9.99112033843994,0.6043975353240967,-0.0,-0.0,-1.0,0.1537911974331932,1.0
13.867927551269531,-10.149502754211426,0.6058096885681152,-0.0,-0.0,-1.0,0.2318407866840462,1.0
13.716306686401367,-10.080535888671877,0.5581741333007812,-0.0,-0.0,-1.0,0.1656729555262655,1.0
13.284473419189451,-10.529075622558594,0.5235960483551025,-0.0,-0.0,-1.0,0.1216684033688761,1.0
13.374919891357422,-10.225162506103516,0.499096155166626,-0.0,-0.0,-1.0,0.0975020771606499,1.0
13.087861061096191,-11.012065887451172,0.5434958934783936,-0.0,-0.0,-1.0,0.2737726612763134,1.0
13.24260139465332,-10.81382656097412,0.5551574230194092,-0.0,-0.0,-1.0,0.2442777225248744,1.0
12.854650497436523,-11.20640754699707,0.5085058212280273,-0.0,-0.0,-1.0,0.209784373565089,1.0
12.729846954345703,-10.9896879196167,0.4469594955444336,-0.0,-0.0,-1.0,0.1718945777685048,1.0
12.726902961730955,-11.374908447265623,0.4964423179626465,-0.0,-0.0,-1.0,0.1475255996672886,1.0
14.796038627624512,-9.38868522644043,1.008849859237671,0.1197389969846797,0.9906736371407148,0.0650255124969467,0.0803309196579454,3.0
14.938867568969728,-10.67300796508789,0.9437882900238036,-0.0,-0.0,-1.0,0.2040132627202722,1.0
14.870442390441896,-10.375764846801758,0.8759794235229492,-0.0,-0.0,-1.0,0.1388111923692762,1.0
14.55918312072754,-10.16420841217041,0.768397331237793,-0.0,-0.0,-1.0,0.1278475581392315,1.0
14.506394386291504,-10.484965324401855,0.8119063377380371,-0.0,-0.0,-1.0,0.0811725685890905,1.0
14.051187515258787,-10.05589485168457,0.8000025749206543,-0.0,-0.0,-1.0,0.1184198075450708,1.0
14.003145217895508,-9.96076774597168,0.77445387840271,-0.0,-0.0,-1.0,0.164997864566206,1.0
13.937726974487305,-10.832868576049805,0.7323276996612549,-0.0,-0.0,-1.0,0.2035487701679682,2.0
13.93295669555664,-10.125656127929688,0.617206335067749,-0.0,-0.0,-1.0,0.1797111684835734,2.0
13.351277351379396,-9.528045654296877,0.7443833351135254,-0.6910591912346223,-0.5955796512954925,0.4095388542896618,0.1875015838855766,5.0
13.25743293762207,-9.481531143188477,0.7183363437652588,-0.0,-0.0,-1.0,0.1405143720358742,2.0
13.71158218383789,-11.242234230041504,0.7366082668304443,-0.0,-0.0,-1.0,0.1806162344376076,1.0
13.559123992919922,-10.809438705444336,0.79762864112854,-0.0,-0.0,-1.0,0.1582293736415506,1.0
13.53668212890625,-10.662435531616213,0.937619686126709,-0.0,-0.0,-1.0,0.189114953589709,2.0
13.555255889892578,-11.780841827392578,0.7692840099334717,-0.0,-0.0,-1.0,0.1812422374838282,1.0
13.527099609375,-11.349003791809082,0.7041440010070801,-0.0,-0.0,-1.0,0.1423843225676213,2.0
13.316875457763672,-11.019271850585938,0.7697775363922119,-0.0,-0.0,-1.0,0.2469740133302062,2.0
12.822267532348633,-10.41285514831543,0.7475886344909668,-0.0,-0.0,-1.0,0.1462307371972136,1.0
12.828020095825195,-9.943336486816406,0.6892828941345215,-0.0,-0.0,-1.0,0.1488650463590154,1.0
13.022433280944824,-11.486513137817385,0.7533905506134033,0.7610204651598003,0.6356909697734054,0.1294018645789493,0.1594191449941092,3.0
12.857248306274414,-11.28537368774414,0.8574621677398682,-0.0,-0.0,-1.0,0.1829493818464896,2.0
12.87411880493164,-10.906805038452148,0.8185796737670898,-0.0,-0.0,-1.0,0.2185717441756983,2.0
12.770715713500977,-11.695284843444824,0.7148644924163818,-0.0,-0.0,-1.0,0.2321433269717996,1.0
13.906719207763672,-10.002626419067385,1.2580257654190063,0.3529103609014701,0.7298239574070876,-0.5855008696518325,0.1187902814316575,3.0
13.67773151397705,-10.900749206542969,0.999136209487915,-0.1134182826705976,0.9766449913324488,0.182485216007472,0.1535394192316261,4.0
13.385440826416016,-10.991982460021973,1.2670844793319702,-0.0,-0.0,-1.0,0.1088148200922467,2.0
12.882129669189451,-10.476116180419922,1.1170616149902344,-0.5323132151516552,-0.801441712180709,-0.2726422985374085,0.1784793168336208,4.0
13.17782974243164,-11.116933822631836,1.5587716102600098,-0.0,-0.0,-1.0,0.1349691422571605,2.0
12.890417098999023,-9.391459465026855,0.5266208648681641,-0.0,-0.0,-1.0,0.1394976525915147,2.0
12.738977432250977,-9.641031265258787,0.531611442565918,-0.0,-0.0,-1.0,0.0854228463012309,1.0
13.926591873168944,-9.830620765686035,0.8415126800537109,-0.5669947740852462,0.7217231166933284,-0.3970298086926074,0.160885881370969,3.0
13.936649322509766,-10.091519355773926,0.8892476558685303,-0.0,-0.0,-1.0,0.1565709436406617,2.0
13.242302894592283,-9.385747909545898,0.9393556118011476,-0.0,-0.0,-1.0,0.0938229258192724,2.0
13.593042373657228,-10.791275024414062,0.9204418659210204,-0.0,-0.0,-1.0,0.1766776505255368,1.0
13.338130950927734,-11.003615379333496,0.887662410736084,-0.9467779504126388,-0.321295673242133,0.0195090483706184,0.1965642992382903,4.0
13.26260757446289,-10.696145057678224,0.8237912654876709,-0.0,-0.0,-1.0,0.1807692310235396,1.0
12.943782806396484,-10.098304748535156,0.9770021438598632,-0.736588963103436,0.0549150875762739,0.6741075823566262,0.1919706896281807,3.0
12.857382774353027,-9.965749740600586,0.611983060836792,-0.0,-0.0,-1.0,0.225719303812433,1.0
13.026815414428713,-11.525012969970703,0.8767483234405518,0.9361652327676604,0.1725524339370698,-0.3063010194228315,0.1518916439767032,7.0
13.077247619628906,-11.050077438354492,0.8268167972564697,-0.0,-0.0,-1.0,0.260542714809197,2.0
12.830649375915527,-11.803446769714355,0.8575561046600342,-0.0,-0.0,-1.0,0.1478663684898487,2.0
13.91469955444336,-10.059314727783203,1.1748411655426023,-0.0,-0.0,-1.0,0.0612163552225054,2.0
13.37046241760254,-10.993955612182615,1.1850018501281738,0.8664370973137621,-0.1180935191246865,-0.4851192401247854,0.1157594373803983,4.0
13.013509750366213,-10.526371002197266,1.0477006435394287,-0.0,-0.0,-1.0,0.1911248701619918,1.0
13.003271102905272,-11.33975601196289,1.1418845653533936,-0.0,-0.0,-1.0,0.1204115265231417,2.0
12.813238143920898,-10.525732040405272,1.0033409595489502,-0.0,-0.0,-1.0,0.2019635973156758,1.0
12.926692962646484,-11.39175510406494,1.1298279762268066,0.4237128585641638,0.8419835395031492,0.3339627714179145,0.1040553224798736,4.0
13.43287181854248,-10.978260040283203,1.4807164669036863,-0.0,-0.0,-1.0,0.1497180045752343,1.0
13.226469039916992,-11.133821487426758,1.456287145614624,0.4633411786363894,0.8696773087724675,0.1702243542684757,0.1731955734685553,3.0
13.30006980895996,-9.53042221069336,0.8443806171417236,-0.7243341388315677,-0.528812694811525,-0.4423767502133262,0.1584808266537387,3.0
12.881062507629396,-10.030111312866213,0.8240647315979004,-0.9060054516926996,-0.2337730771128633,-0.3528516259283641,0.1378087145785608,3.0
13.9183349609375,-9.84762954711914,1.050492525100708,-0.0,-0.0,-1.0,0.106306454674477,1.0
13.32414436340332,-9.495979309082031,1.1348307132720947,-0.8494740092305594,0.0534645270150672,-0.5249147092555273,0.1443946846102144,6.0
13.49089241027832,-10.650433540344238,1.0797054767608645,-0.0,-0.0,-1.0,0.1857162476198952,1.0
13.317153930664062,-11.056303024291992,1.0938472747802734,-0.0,-0.0,-1.0,0.1722630069321713,1.0
13.22207260131836,-10.713180541992188,1.1515803337097168,-0.0,-0.0,-1.0,0.2199153380011447,1.0
12.992918014526367,-11.30058479309082,1.1699576377868652,0.141370610793392,0.6010876812858852,-0.7865799068182845,0.1146739227267974,3.0
12.989984512329102,-11.051229476928713,1.1365242004394531,-0.0,-0.0,-1.0,0.1318858969247145,1.0
12.781267166137695,-11.767662048339844,1.0347952842712402,-0.0,-0.0,-1.0,0.1246180614582625,1.0
13.367267608642578,-11.026605606079102,1.484702229499817,0.2984335702663918,0.8646443863596108,-0.4041379582207871,0.1220076144547764,5.0
13.321823120117188,-9.4662446975708,1.1287989616394043,-0.5054821576772285,-0.2182578468201549,-0.8347761978946237,0.1341307938327935,8.0
13.234718322753906,-10.57714557647705,1.2740081548690796,-0.0,-0.0,-1.0,0.0662642226113471,2.0
13.01170825958252,-11.254094123840332,1.2914297580718994,0.3183389076169716,-0.4310072460284371,-0.8443299673517547,0.0981634955229797,3.0
13.228410720825195,-11.122110366821287,1.3401063680648804,-0.0,-0.0,-1.0,0.1513631289866566,2.0
13.171368598937988,-11.120463371276855,1.5479755401611328,-0.0,-0.0,-1.0,0.1323655379904468,2.0
12.748945236206056,-9.444400787353516,1.098402738571167,-0.0,-0.0,-1.0,0.0565678360733313,2.0
13.335609436035156,-11.128814697265623,1.504337191581726,-0.0,-0.0,-1.0,0.1522527931002668,1.0
12.97970199584961,-11.291534423828123,0.5516455173492432,-0.0,-0.0,-1.0,0.2150839176170741,1.0
13.23508358001709,-11.235485076904297,0.5494430065155029,-0.0,-0.0,-1.0,0.1584439979180583,1.0
14.565820693969728,-9.504264831542969,0.6061317920684814,-0.0,-0.0,-1.0,0.1302257009981326,1.0
13.304815292358398,-10.400588989257812,0.5905661582946777,-0.0,-0.0,-1.0,0.163896319189357,1.0
14.301822662353516,-9.491424560546877,0.6134672164916992,-0.0,-0.0,-1.0,0.1960499285189693,1.0
13.345026969909668,-10.009925842285156,0.609572172164917,-0.0,-0.0,-1.0,0.0802276891237822,2.0
14.31289291381836,-9.708684921264648,0.726285457611084,0.6971241634121516,0.7153226205456144,-0.0482850838527041,0.2418848039245624,3.0
14.78775119781494,-9.476629257202148,0.7213108539581299,-0.3418979635944748,-0.5243158511319101,-0.7798709321046476,0.127285994326975,3.0
13.876976013183594,-11.193363189697266,0.5872769355773926,-0.0,-0.0,-1.0,0.1392287322978787,1.0
14.025901794433594,-9.747116088867188,0.6531722545623779,-0.0,-0.0,-1.0,0.2227140078822384,1.0
14.264976501464844,-9.60906982421875,0.6536285877227783,0.9057779236382608,0.2893302047773244,-0.3096035943800919,0.2513705458344377,3.0
14.505681991577148,-9.52334976196289,0.6513590812683105,-0.2508780475218613,-0.312642304066759,-0.9161413618975224,0.2161247753791521,3.0
13.905203819274902,-9.811935424804688,0.7258985042572021,-0.0,-0.0,-1.0,0.1392007936734667,1.0
14.271692276000977,-9.67789077758789,0.7199053764343262,0.9202342509370594,0.3643476669073955,-0.1428975192977366,0.1278276035120769,5.0
15.19284725189209,-9.730056762695312,0.6853458881378174,-0.0,-0.0,-1.0,0.1132165641258595,2.0
14.378053665161133,-9.560657501220703,0.7216057777404785,0.888251995106735,0.4305122313820026,-0.1602111476127467,0.2784292599004445,3.0
13.435617446899414,-11.479248046875,0.727977991104126,-0.0,-0.0,-1.0,0.1252360420365548,2.0
13.58094310760498,-11.581256866455078,0.7194280624389648,-0.0,-0.0,-1.0,0.2000158993297971,1.0
12.976799964904783,-10.85153579711914,0.7688276767730713,-0.0,-0.0,-1.0,0.2534648601188612,2.0
13.980817794799805,-9.814659118652344,0.7903032302856445,-0.0,-0.0,-1.0,0.180010823245503,2.0
14.156005859375,-9.651988983154297,0.7928035259246826,-0.0,-0.0,-1.0,0.1588907953010238,2.0
14.807374954223633,-9.697513580322266,0.7711281776428223,-0.0,-0.0,-1.0,0.1781002913357409,1.0
15.170995712280272,-9.931842803955078,0.7489240169525146,-0.0,-0.0,-1.0,0.0667779465131956,1.0
14.39741039276123,-9.514156341552734,0.7920422554016113,-0.0,-0.0,-1.0,0.2231712383586056,2.0
12.81321144104004,-10.437152862548828,0.576164722442627,-0.6053273656609555,0.5116145995169915,-0.6097780595782674,0.2000890006212024,3.0
13.231585502624512,-10.491497039794922,0.5638465881347656,-0.0,-0.0,-1.0,0.2184014476689952,1.0
13.978595733642578,-10.101123809814451,0.5568161010742188,-0.0,-0.0,-1.0,0.1706523961702495,1.0
14.337172508239746,-9.843124389648438,0.5565400123596191,-0.0,-0.0,-1.0,0.1432792131713745,1.0
14.515321731567385,-9.690589904785156,0.5575127601623535,-0.0,-0.0,-1.0,0.1788422251837058,1.0
14.708824157714844,-9.680091857910156,0.550567626953125,-0.0,-0.0,-1.0,0.1053007850027483,1.0
14.952852249145508,-9.501144409179688,0.550114631652832,-0.0,-0.0,-1.0,0.1259251055739512,1.0
12.716964721679688,-11.580818176269531,0.6003210544586182,-0.0,-0.0,-1.0,0.2118050520891525,1.0
13.60381317138672,-10.953994750976562,0.6002531051635742,-0.0,-0.0,-1.0,0.2090071263125736,1.0
14.25400161743164,-9.67172622680664,0.6403077840805054,0.971818063418116,-0.1869502473860283,0.1435940688766966,0.226921922756052,6.0
14.59188747406006,-9.383132934570312,0.6416640281677246,-0.0,-0.0,-1.0,0.0894677606691783,2.0
13.09296417236328,-10.915830612182615,0.7263522148132324,-0.0,-0.0,-1.0,0.2678893816098369,1.0
13.504894256591797,-11.499185562133787,0.682641863822937,-0.0,-0.0,-1.0,0.1218685201344093,2.0
13.21445655822754,-10.711549758911133,0.731818437576294,-0.0,-0.0,-1.0,0.23413869939794,2.0
13.752482414245604,-11.203996658325195,0.6875883340835571,-0.0,-0.0,-1.0,0.1845602617095187,2.0
12.939373016357422,-10.069452285766602,0.7731846570968628,-0.762284539191934,-0.6461112109011815,0.0382437505580934,0.1371121494497612,3.0
13.939647674560549,-10.040582656860352,0.7369537353515625,-0.0,-0.0,-1.0,0.2176264547689132,1.0
14.107662200927734,-9.702016830444336,0.746834397315979,-0.0,-0.0,-1.0,0.1218047231733095,2.0
14.40514850616455,-9.490053176879885,0.745314359664917,-0.0,-0.0,-1.0,0.2384399666037288,1.0
14.77354621887207,-9.419485092163086,0.733805775642395,-0.0,-0.0,-1.0,0.1281593325194972,2.0
13.247925758361816,-9.430551528930664,0.5410816669464111,-0.9570280832784664,0.1026688571022148,-0.271212746008866,0.1633600834770709,3.0
13.377467155456545,-9.476251602172852,0.5342519283294678,-0.9054105814812328,0.2958079003063426,-0.3045149668869643,0.1810688240569435,5.0
13.004199028015137,-11.50580596923828,0.8392213582992554,-0.0649626177601776,0.9933525488402446,0.0950293218240251,0.1796820161347462,7.0
13.251867294311523,-10.978248596191406,0.8540526628494263,0.7483448965399628,-0.5035837144546401,-0.4317213897395635,0.182804019104966,3.0
14.413091659545898,-9.643524169921877,0.8668580055236816,-0.0,-0.0,-1.0,0.1980985877871489,1.0
14.312411308288574,-10.02093505859375,0.8533821105957031,-0.0,-0.0,-1.0,0.2253723414067009,1.0
14.701337814331056,-9.477298736572266,0.8615636825561523,-0.2632476289093834,0.7144433950992077,-0.6482833647971427,0.2152411195467215,4.0
14.88701629638672,-9.588150024414062,0.8476396799087524,0.040173826134179,0.99919188479965,-0.0012810324991383,0.1623479074058085,5.0
15.135409355163574,-10.551544189453123,0.790001630783081,0.5521263820123739,-0.3546415474022257,-0.7545765906401294,0.1258098730116552,4.0
12.796531677246094,-9.823442459106444,0.596977949142456,-0.0,-0.0,-1.0,0.1571328722814699,1.0
13.250524520874023,-9.504243850708008,0.5868914127349854,-0.0,-0.0,-1.0,0.1697441963551853,2.0
13.365045547485352,-9.488317489624023,0.5803711414337158,-0.8315961455307029,0.2396470492715729,-0.5010161100343047,0.2326476263982825,8.0
13.937740325927734,-9.460451126098633,0.5441093444824219,-0.0,-0.0,-1.0,0.1001301465206569,1.0
13.04643440246582,-11.519489288330078,0.7966533899307251,0.2336902207525396,0.9403312760077072,0.2473175531302757,0.1519444502657458,5.0
13.498368263244627,-11.520633697509766,0.7637057304382324,-0.0,-0.0,-1.0,0.1778412102750094,1.0
14.07386875152588,-11.38921356201172,0.7282673120498657,-0.0,-0.0,-1.0,0.2469414614517513,1.0
15.063742637634276,-10.636554718017578,0.6941275596618652,-0.0834162133576948,0.6935271578176634,-0.7155849472413579,0.1920645134695569,3.0
13.389859199523926,-9.627784729003906,0.8757970333099365,-0.0,-0.0,-1.0,0.1494122731767887,1.0
13.941338539123535,-10.103687286376951,0.808892011642456,0.0002471295310331,0.9805649374563896,0.1961946542547528,0.230306968854718,3.0
14.254709243774414,-9.711973190307615,0.8069047927856445,-0.0,-0.0,-1.0,0.2137351154381611,2.0
14.672472953796388,-9.451932907104492,0.7894012928009033,-0.0,-0.0,-1.0,0.1765747573895222,1.0
15.081368446350098,-9.602886199951172,0.7494902610778809,-0.0,-0.0,-1.0,0.1522909174823535,2.0
13.306431770324709,-11.138633728027344,1.0767745971679688,-0.0,-0.0,-1.0,0.1219607334876442,2.0
12.751160621643066,-9.367849349975586,0.657451868057251,0.938296259639869,-0.2914970972537669,-0.1860902239196336,0.1796746348367661,3.0
13.194644927978516,-9.446502685546877,0.6137295961380005,-0.0,-0.0,-1.0,0.1753611110819292,1.0
13.963847160339355,-9.38263702392578,0.5516166687011719,-0.0,-0.0,-1.0,0.0919867751508779,2.0
13.262282371520996,-11.128341674804688,0.8632690906524658,-0.6142513457301336,-0.2338273292583237,-0.7536710584602802,0.2189029833608682,4.0
13.656152725219728,-11.003482818603516,0.8548139333724976,-0.0,-0.0,-1.0,0.1711785965047693,1.0
12.808648109436035,-9.417043685913086,0.9911518096923828,-0.1628836952031546,0.5029059067087004,-0.8488548467402809,0.0318032049408671,3.0
12.82346248626709,-10.442621231079102,0.9249346256256104,-0.0,-0.0,-1.0,0.1958938127203949,2.0
13.97426414489746,-10.022802352905272,0.90411114692688,-0.7725577384107195,0.6229847634480623,-0.1226561263585173,0.1585464186998502,3.0
14.85798168182373,-9.594696044921877,0.8920365571975708,-0.3455482645732043,0.8745090395911211,0.3403385616174893,0.1541409919360727,5.0
15.148016929626465,-10.582979202270508,0.8150303363800049,0.5186437459591668,-0.3955174112374753,-0.7580070198787404,0.144976330850318,3.0
13.3456449508667,-11.060257911682127,1.193326473236084,-0.0310599973321892,-0.6621731552173225,-0.7487068779403997,0.1038390513763216,3.0
15.020923614501951,-10.511746406555176,1.1541552543640137,0.4083293796236289,0.848392565970113,0.3368934130297442,0.1592584169477293,7.0
15.01874828338623,-10.541565895080566,1.1526380777359009,-0.3228353363333197,0.3305562015630515,-0.886853958226922,0.2316069168431901,6.0
12.786996841430664,-9.405817031860352,0.5757284164428711,-0.0,-0.0,-1.0,0.1795048091875252,2.0
13.240376472473145,-9.498943328857422,0.5438218116760254,-0.942632005616343,0.2218982424744044,0.2494114511695102,0.1671329945788004,3.0
13.10329818725586,-9.643159866333008,0.538569450378418,-0.0,-0.0,-1.0,0.0744464955064268,1.0
