x,y,z,nx,ny,nz,curvature,density,label
54.84595489501953,26.242874145507812,-2.9154133796691895,-0.0,-0.0,-1.0,0.1500449710434677,1.0,0.0
53.24860382080078,27.071243286132812,-2.7992396354675293,-0.0,-0.0,-1.0,0.1655258415272355,2.0,0.0
53.13471984863281,25.831974029541016,-2.859734296798706,-0.0,-0.0,-1.0,0.0594800338629298,2.0,0.0
53.45441436767578,25.82530212402344,-2.9079787731170654,-0.0,-0.0,-1.0,0.0499755212398741,1.0,0.0
53.77701568603515,25.705942153930664,-2.945359945297241,-0.0,-0.0,-1.0,0.0772487161472142,2.0,0.0
53.1502685546875,25.94650650024414,-2.8738057613372803,-0.0,-0.0,-1.0,0.0835690308076341,2.0,0.0
53.189571380615234,26.127117156982425,-2.8983495235443115,-0.0,-0.0,-1.0,0.128195762898451,1.0,0.0
53.03223419189453,26.407093048095703,-2.903359651565552,-0.0,-0.0,-1.0,0.0629256567914546,1.0,0.0
53.273189544677734,27.4468994140625,-3.049916505813598,-0.0,-0.0,-1.0,0.0695769176044068,1.0,0.0
52.74208450317383,27.750782012939453,-3.0028722286224365,-0.0,-0.0,-1.0,0.044477026040956,2.0,0.0
52.88528823852539,28.09272003173828,-3.061919927597046,-0.0,-0.0,-1.0,0.0353944280460266,2.0,0.0
53.79328918457031,25.645912170410156,-2.927016496658325,-0.0,-0.0,-1.0,0.0963797507865644,1.0,0.0
53.1794319152832,25.71010971069336,-2.836808443069458,-0.0,-0.0,-1.0,0.0545608753902536,1.0,0.0
53.11116409301758,26.06264877319336,-2.8624274730682373,-0.0,-0.0,-1.0,0.1117163317348949,1.0,0.0
52.9083366394043,26.464326858520508,-2.8727262020111084,-0.0,-0.0,-1.0,0.1558055384647305,1.0,0.0
53.06190490722656,26.364465713500977,-2.886223554611206,-0.0,-0.0,-1.0,0.103473211464265,1.0,0.0
53.966670989990234,27.749801635742188,-3.115748643875122,-0.0,-0.0,-1.0,0.0590630260191309,1.0,0.0
53.987335205078125,27.930688858032227,-3.1401102542877197,-0.0,-0.0,-1.0,0.035664077693151,2.0,0.0
54.06695938110352,25.63867950439453,-2.894073247909546,-0.0,-0.0,-1.0,0.1203919090040795,1.0,0.0
54.146583557128906,25.665180206298828,-2.9096148014068604,-0.0,-0.0,-1.0,0.1224487917773932,1.0,0.0
53.303951263427734,26.157093048095703,-2.8296377658843994,-0.0,-0.0,-1.0,0.1103529416482644,1.0,0.0
53.57598114013672,26.04631805419922,-2.8605024814605713,-0.0,-0.0,-1.0,0.145811633296622,2.0,0.0
53.85887145996094,25.935861587524418,-2.8933136463165283,-0.0,-0.0,-1.0,0.0998584190686987,2.0,0.0
53.215721130371094,26.537818908691406,-2.8584530353546143,-0.0,-0.0,-1.0,0.0608162728361909,2.0,0.0
53.36125183105469,26.33010482788086,-2.858067274093628,-0.0,-0.0,-1.0,0.1178982618911902,1.0,0.0
53.07204818725586,26.87201690673828,-2.873875856399536,-0.0,-0.0,-1.0,0.0490904358107641,1.0,0.0
53.36833190917969,27.343788146972656,-2.974778413772583,-0.0,-0.0,-1.0,0.0675859677599133,1.0,0.0
55.02040100097656,27.309436798095703,-2.675173759460449,-0.0,-0.0,-1.0,0.1627716566903055,1.0,0.0
54.716522216796875,26.141828536987305,-2.8171796798706055,-0.0,-0.0,-1.0,0.1988274029426394,1.0,0.0
53.58343505859375,26.40860366821289,-2.6921401023864746,-0.8200571511870072,-0.1365514109157344,-0.55575172601079,0.1414307181242651,4.0,0.0
53.92906188964844,26.245542526245117,-2.721431255340576,0.2762414661546208,0.2977236346861698,-0.9138114081833308,0.1077064460314731,4.0,0.0
53.437164306640625,26.70209503173828,-2.7038779258728027,-0.0,-0.0,-1.0,0.0789157036299871,1.0,0.0
54.965850830078125,27.28470993041992,-2.632267475128174,-0.0,-0.0,-1.0,0.0786120254963345,2.0,0.0
54.749412536621094,26.00719451904297,-2.607499122619629,-0.0,-0.0,-1.0,0.1621487614420672,1.0,0.0
55.01141357421875,25.963380813598633,-2.6359143257141113,-0.0,-0.0,-1.0,0.1166297498925284,1.0,0.0
54.95486068725586,27.286901473999023,-2.7643485069274902,-0.0,-0.0,-1.0,0.1627716566903056,2.0,0.0
53.013710021972656,25.815401077270508,-2.9091503620147705,-0.0,-0.0,-1.0,0.0992231409507394,1.0,0.0
52.77018737792969,26.342876434326172,-2.9361140727996826,-0.0,-0.0,-1.0,0.124898400136728,2.0,0.0
52.916751861572266,26.14621925354004,-2.9341437816619873,-0.0,-0.0,-1.0,0.1088397704531094,1.0,0.0
53.05915069580078,25.69575881958008,-2.893943548202514,-0.0,-0.0,-1.0,0.0992231409507394,1.0,0.0
52.97689056396485,26.0548038482666,-2.9225471019744873,-0.0,-0.0,-1.0,0.0787224838416463,1.0,0.0
52.828704833984375,26.433395385742188,-2.943773031234741,-0.0,-0.0,-1.0,0.1520848802058978,1.0,0.0
54.759124755859375,26.175125122070312,-2.835130214691162,-0.0,-0.0,-1.0,0.1909507644446308,1.0,0.0
54.02217102050781,26.205162048339844,-2.7302846908569336,-0.5816047623384514,-0.7687593636893463,0.2659792119042099,0.0955124229365854,3.0,0.0
53.59120178222656,26.44399070739746,-2.6962380409240723,-0.721048246499037,0.0785338468779854,-0.6884198291124459,0.1357888077703838,3.0,0.0
53.902496337890625,26.27432632446289,-2.7210545539855957,0.2730321726730798,0.2640970294739594,-0.9250438863688836,0.1028128281259773,3.0,0.0
53.48006439208984,26.745651245117188,-2.7170491218566895,-0.0,-0.0,-1.0,0.1419871842486302,2.0,0.0
53.790496826171875,27.271907806396484,-2.827270030975342,-0.0,-0.0,-1.0,0.0947023185574446,2.0,0.0
53.56719207763672,26.19635581970215,-2.731006145477295,-0.0,-0.0,-1.0,0.0730240165573666,2.0,0.0
53.931453704833984,26.057416915893555,-2.770557403564453,-0.0,-0.0,-1.0,0.0832156063545965,1.0,0.0
54.43745803833008,26.0113582611084,-2.844217300415039,-0.0,-0.0,-1.0,0.0600937506040921,1.0,0.0
54.79174041748047,26.02271270751953,-2.9013586044311523,-0.0,-0.0,-1.0,0.246362730356484,1.0,0.0
55.00156021118164,26.000030517578125,-2.9316983222961426,-0.0,-0.0,-1.0,0.235831371773825,1.0,0.0
53.3516845703125,26.59071350097656,-2.747474670410156,-0.0,-0.0,-1.0,0.0793796068376,2.0,0.0
53.446746826171875,26.39311981201172,-2.7370529174804688,-0.0,-0.0,-1.0,0.1642264730191224,1.0,0.0
53.22750473022461,26.813697814941406,-2.756953239440918,-0.0,-0.0,-1.0,0.0523563097177204,2.0,0.0
53.134490966796875,27.138595581054688,-2.7848682403564453,-0.0,-0.0,-1.0,0.1099216496241411,1.0,0.0
53.31237030029297,27.54771423339844,-2.865593910217285,-0.0,-0.0,-1.0,0.0617092833618992,1.0,0.0
54.10100555419922,27.868328094482425,-3.0276384353637695,-0.0,-0.0,-1.0,0.0676720165998771,1.0,0.0
54.51986312866211,27.85264587402344,-3.089488983154297,-0.0,-0.0,-1.0,0.0243701700154699,1.0,0.0
54.075225830078125,27.93844223022461,-3.0329012870788574,-0.0,-0.0,-1.0,0.0649657422185623,2.0,0.0
54.50958633422851,26.002899169921875,-2.873040199279785,-0.0,-0.0,-1.0,0.136285434410739,1.0,0.0
54.835731506347656,26.016521453857425,-2.925663471221924,-0.0,-0.0,-1.0,0.2108344999707734,1.0,0.0
55.08930587768555,26.02845573425293,-2.9668774604797363,-0.0,-0.0,-1.0,0.2273437977180315,1.0,0.0
53.34075546264648,27.573524475097656,-2.94165563583374,-0.0,-0.0,-1.0,0.0623515808547663,2.0,0.0
54.102745056152344,27.759212493896484,-3.08406400680542,-0.0,-0.0,-1.0,0.0676720165998771,1.0,0.0
54.01546859741211,27.94251251220703,-3.100736141204834,-0.545810196079469,0.8257864284217169,0.1420140996175945,0.0361194877211696,3.0,0.0
53.6794319152832,26.141616821289062,-2.7663135528564453,-0.0,-0.0,-1.0,0.0870090745088237,2.0,0.0
54.03131103515625,25.99457550048828,-2.7979555130004883,-0.5681647470988159,0.4757904483566493,-0.6714255501592987,0.061206866321227,3.0,0.0
53.36026763916016,26.54317855834961,-2.780153274536133,-0.0,-0.0,-1.0,0.0649291654739336,2.0,0.0
53.23221969604492,26.83777236938477,-2.8073482513427734,-0.1370309434712363,-0.1676485879106331,-0.9762768416299517,0.0517700545799157,3.0,0.0
52.810829162597656,27.551551818847656,-2.860586643218994,-0.0,-0.0,-1.0,0.0586805218475736,2.0,0.0
52.861549377441406,25.886215209960938,-2.922940492630005,-0.0,-0.0,-1.0,0.0949987366258002,1.0,0.0
52.96677017211914,25.729732513427734,-2.9144489765167236,-0.0,-0.0,-1.0,0.0992231409507393,2.0,0.0
52.7319221496582,26.216157913208008,-2.9580190181732178,-0.0,-0.0,-1.0,0.1120216478659114,2.0,0.0
54.96897888183594,27.25668716430664,-2.777648687362671,-0.6956512602628083,-0.3618544549560758,-0.6205889763146036,0.1627716566903056,4.0,0.0
54.89896011352539,26.065380096435547,-2.5902891159057617,-0.0,-0.0,-1.0,0.1350044463975641,1.0,0.0
53.75352478027344,26.306217193603516,-2.624521970748902,0.0406028620494255,0.9020705915908368,-0.4296743596962162,0.0967989926104431,3.0,0.0
53.99201965332031,26.249343872070312,-2.6545395851135254,-0.7105108754038298,-0.7027971537636475,0.035361795692512,0.0969152212485348,3.0,0.0
54.895015716552734,26.131132125854492,-2.785069227218628,-0.0,-0.0,-1.0,0.145449872255058,1.0,0.0
53.580318450927734,26.54798889160156,-2.633941411972046,-0.524569299418008,-0.5151031360576754,-0.6778612021141559,0.1923067196447025,3.0,0.0
53.82811737060547,27.11114501953125,-2.761650800704956,-0.0,-0.0,-1.0,0.0813965317323407,1.0,0.0
54.23863220214844,27.916812896728516,-2.9546115398406982,-0.0,-0.0,-1.0,0.0628226619942919,1.0,0.0
54.8109130859375,25.967472076416016,-2.767897844314575,-0.0,-0.0,-1.0,0.1394780835789872,1.0,0.0
55.06517791748047,26.02262306213379,-2.820136308670044,-0.0,-0.0,-1.0,0.1999527934664704,1.0,0.0
55.1123046875,26.278785705566406,-2.868328809738159,-0.0,-0.0,-1.0,0.1680433432686436,1.0,0.0
53.83088684082031,27.308189392089844,-2.821610689163208,-0.0,-0.0,-1.0,0.0829447613907293,1.0,0.0
54.1468505859375,28.02544593811035,-2.9946067333221436,-0.9865065848474872,0.1631437691362697,0.0137429489033126,0.0354686426386039,3.0,0.0
53.72379302978515,26.30165672302246,-2.6369059085845947,0.1647988735250653,0.7291814795305191,-0.6641804733613845,0.0832355529229194,3.0,0.0
53.981048583984375,26.259496688842773,-2.673195123672486,-0.7105108754038298,-0.7027971537636475,0.035361795692512,0.0969152212485349,3.0,0.0
53.58812713623047,26.490846633911133,-2.645437717437744,-0.0,-0.0,-1.0,0.1464688487776907,2.0,0.0
53.517356872558594,26.751556396484375,-2.6769237518310547,-0.0,-0.0,-1.0,0.1328184211115038,2.0,0.0
53.143089294433594,25.885910034179688,-2.854853630065918,-0.0,-0.0,-1.0,0.0669994615074541,1.0,0.0
53.454978942871094,25.761823654174805,-2.8930578231811523,-0.0,-0.0,-1.0,0.0559577372155062,1.0,0.0
53.86146926879883,25.650863647460938,-2.9535412788391113,-0.0,-0.0,-1.0,0.0681925417524759,1.0,0.0
52.8343505859375,26.396255493164062,-2.8921022415161133,-0.0,-0.0,-1.0,0.1257080986414548,1.0,0.0
53.0533447265625,26.257266998291016,-2.9075264930725098,-0.0,-0.0,-1.0,0.0988891685620103,2.0,0.0
52.72418212890625,26.59369468688965,-2.9095187187194824,-0.0,-0.0,-1.0,0.1254302885257313,2.0,0.0
55.17961120605469,25.887298583984375,-2.6274445056915283,-0.0,-0.0,-1.0,0.179744123065016,1.0,0.0
54.809940338134766,25.992298126220703,-2.579937219619751,-0.0,-0.0,-1.0,0.1428731450552255,1.0,0.0
54.44868469238281,26.84289932250977,-2.6545603275299072,-0.0,-0.0,-1.0,0.0236651498980502,1.0,0.0
54.020469665527344,27.268054962158203,-2.654107570648194,-0.0,-0.0,-1.0,0.051760391270848,1.0,0.0
53.3104133605957,26.004077911376953,-2.8546576499938965,-0.0,-0.0,-1.0,0.1577449358362004,2.0,0.0
53.611671447753906,25.89734268188477,-2.8954501152038574,-0.0,-0.0,-1.0,0.1115046844096701,1.0,0.0
53.94581604003906,25.75674057006836,-2.9376730918884277,-0.0,-0.0,-1.0,0.1333316511609743,2.0,0.0
53.20421600341797,26.324512481689453,-2.8954997062683105,-0.0,-0.0,-1.0,0.0482075008703439,2.0,0.0
52.782508850097656,26.760387420654297,-2.898911952972412,-0.0,-0.0,-1.0,0.1416412222715276,1.0,0.0
53.06424331665039,26.664596557617188,-2.934759616851806,-0.0,-0.0,-1.0,0.0752029983378967,1.0,0.0
52.883514404296875,27.12673568725586,-2.992349147796631,-0.0,-0.0,-1.0,0.0898822949902775,1.0,0.0
55.16205978393555,25.964603424072266,-2.623020648956299,-0.0,-0.0,-1.0,0.1797441230650159,1.0,0.0
54.78892517089844,27.15842056274414,-2.750709056854248,-0.0,-0.0,-1.0,0.0786120254963343,1.0,0.0
55.002201080322266,27.26238250732422,-2.8052592277526855,-0.0,-0.0,-1.0,0.1627716566903055,2.0,0.0
53.67390441894531,26.03617477416992,-2.8067734241485596,-0.0,-0.0,-1.0,0.1313122739348978,1.0,0.0
53.96367645263672,25.89257049560547,-2.838492631912231,-0.0,-0.0,-1.0,0.0937655304071281,1.0,0.0
54.33079147338867,25.82275390625,-2.901569128036499,-0.0,-0.0,-1.0,0.0706737255958149,1.0,0.0
54.75404357910156,25.797496795654297,-2.9863035678863525,-0.0,-0.0,-1.0,0.1300841731850581,1.0,0.0
54.926177978515625,25.66299819946289,-2.997753381729126,-0.0,-0.0,-1.0,0.1574440855344827,1.0,0.0
53.285255432128906,26.483417510986328,-2.8177340030670166,-0.0,-0.0,-1.0,0.0702536948096357,2.0,0.0
53.430477142333984,26.233802795410156,-2.7967092990875244,-0.0,-0.0,-1.0,0.0580143182673145,1.0,0.0
53.1544303894043,26.680862426757812,-2.832192659378052,-0.0,-0.0,-1.0,0.0392941421834325,1.0,0.0
52.779090881347656,27.071243286132812,-2.840203046798706,-0.0,-0.0,-1.0,0.1156500566762894,1.0,0.0
53.04596328735352,26.980072021484375,-2.8726470470428467,-0.0,-0.0,-1.0,0.0604678855192015,1.0,0.0
52.735137939453125,27.564289093017575,-2.9362175464630127,-0.0,-0.0,-1.0,0.0598319835446461,1.0,0.0
53.18928527832031,27.531002044677734,-3.015406847000122,-0.0,-0.0,-1.0,0.0723585243945529,1.0,0.0
52.71887969970703,27.93653106689453,-3.012861490249634,-0.0,-0.0,-1.0,0.0382511659022455,1.0,0.0
55.12543487548828,26.464109420776367,-2.602903366088867,-0.0,-0.0,-1.0,0.1472209810642611,1.0,0.0
54.92417907714844,27.230512619018555,-2.696479320526123,-0.0,-0.0,-1.0,0.0786120254963343,2.0,0.0
53.11687469482422,25.687244415283203,-2.851806640625,-0.0,-0.0,-1.0,0.080608228398135,1.0,0.0
53.52458572387695,25.673337936401367,-2.9392356872558594,-0.0,-0.0,-1.0,0.0489334903155177,1.0,0.0
53.05728912353515,25.96418571472168,-2.9041972160339355,-0.0,-0.0,-1.0,0.0644942228198134,1.0,0.0
54.7467155456543,26.01605224609375,-2.752725601196289,-0.0,-0.0,-1.0,0.1994628471971172,1.0,0.0
54.96544647216797,25.875476837158203,-2.7698216438293457,-0.0,-0.0,-1.0,0.1188569094952076,1.0,0.0
52.756797790527344,26.38976669311523,-2.942272186279297,-0.0,-0.0,-1.0,0.124898400136728,2.0,0.0
52.943214416503906,26.222740173339844,-2.941340446472168,-0.0,-0.0,-1.0,0.1228880706717118,2.0,0.0
53.74805450439453,27.222259521484375,-2.8041954040527344,-0.0,-0.0,-1.0,0.1042500407493778,2.0,0.0
55.16924285888672,27.116445541381836,-3.057560920715332,-0.0,-0.0,-1.0,0.1107867404925389,1.0,0.0
54.09917449951172,28.046483993530273,-3.0455150604248047,-0.0,-0.0,-1.0,0.0354686426386038,1.0,0.0
54.230010986328125,27.948341369628903,-3.048908233642578,-0.0,-0.0,-1.0,0.0328823504494514,1.0,0.0
53.615943908691406,26.43187713623047,-2.61300277709961,0.6764747472874395,-0.5491160099813382,-0.4907682995717736,0.1211814316845909,3.0,0.0
53.86063003540039,26.29796981811523,-2.632781505584717,-0.0,-0.0,-1.0,0.1094815810438532,2.0,0.0
53.531288146972656,26.668346405029297,-2.646251678466797,-0.0,-0.0,-1.0,0.1186995009480314,2.0,0.0
52.98193359375,25.672136306762695,-2.9269237518310547,-0.0,-0.0,-1.0,0.0992231409507394,2.0,0.0
52.79104232788086,25.84507179260254,-2.931595802307129,-0.0,-0.0,-1.0,0.0881488657766817,1.0,0.0
54.94132232666016,26.05554962158203,-2.9574131965637207,-0.0,-0.0,-1.0,0.2114811901855908,2.0,0.0
54.66477966308594,26.28863525390625,-2.951632022857666,-0.0,-0.0,-1.0,0.1417860786442753,1.0,0.0
54.79735565185547,26.25278663635254,-2.971527099609375,-0.0,-0.0,-1.0,0.1270220183555916,1.0,0.0
52.92136764526367,27.705150604248047,-2.952795028686523,-0.0,-0.0,-1.0,0.0419485529492989,1.0,0.0
53.61363983154297,27.710729598999023,-3.082796096801758,-0.0,-0.0,-1.0,0.0346729754716796,1.0,0.0
52.99781799316406,27.997127532958984,-3.0413260459899902,-0.0,-0.0,-1.0,0.0271913462787921,1.0,0.0
53.301292419433594,27.870830535888672,-3.064502716064453,-0.0,-0.0,-1.0,0.0200463529061995,1.0,0.0
53.96583938598633,26.143592834472656,-2.771571159362793,-0.9286140003022648,0.1915731020118401,-0.317766872137713,0.0799244778347367,3.0,0.0
54.06998443603515,26.088258743286133,-2.7801265716552734,-0.0,-0.0,-1.0,0.077444156887428,2.0,0.0
54.710548400878906,26.12504768371582,-2.923614978790283,-0.0,-0.0,-1.0,0.2373392758407523,1.0,0.0
53.49359130859375,26.479698181152344,-2.756589412689209,-0.0,-0.0,-1.0,0.1265091713534377,2.0,0.0
53.77098846435547,26.234210968017575,-2.753255844116211,-0.0,-0.0,-1.0,0.1058251871081315,2.0,0.0
54.5147819519043,26.26644515991211,-2.914785385131836,-0.0,-0.0,-1.0,0.1258108756332358,1.0,0.0
53.04624557495117,26.922061920166016,-2.778573989868164,-0.0,-0.0,-1.0,0.0840899158063322,1.0,0.0
53.312950134277344,26.77552795410156,-2.7934389114379883,-0.0,-0.0,-1.0,0.0439446768479759,2.0,0.0
52.99238586425781,27.139373779296875,-2.8228182792663574,-0.0,-0.0,-1.0,0.1153692874580192,1.0,0.0
53.35439682006836,27.14501953125,-2.8927059173583984,-0.0,-0.0,-1.0,0.1169577318518906,1.0,0.0
54.85734176635742,27.16452407836914,-2.649919033050537,-0.0,-0.0,-1.0,0.0786120254963344,1.0,0.0
54.110389709472656,25.66179656982422,-2.872300148010254,-0.0,-0.0,-1.0,0.1236024803087443,1.0,0.0
53.339874267578125,26.070091247558594,-2.8234643936157227,-0.3868902574611043,-0.9080242833243994,0.1606481545953493,0.1838415971189781,4.0,0.0
53.717529296875,25.966121673583984,-2.872182846069336,-0.0,-0.0,-1.0,0.217037950791008,2.0,0.0
53.962310791015625,25.860443115234375,-2.8946399688720703,-0.0,-0.0,-1.0,0.1008583676033723,1.0,0.0
52.91841506958008,26.553699493408203,-2.879650115966797,-0.0,-0.0,-1.0,0.118634967052988,1.0,0.0
53.192420959472656,26.38125991821289,-2.8829145431518555,-0.0,-0.0,-1.0,0.0509709150558676,2.0,0.0
52.720760345458984,26.81581115722656,-2.919192314147949,-0.0,-0.0,-1.0,0.1101706128352986,1.0,0.0
55.006622314453125,27.23188018798828,-2.9618425369262695,-0.0,-0.0,-1.0,0.1627716566903055,1.0,0.0
54.14753723144531,28.030548095703125,-3.005885601043701,-0.9865065848474872,0.1631437691362697,0.0137429489033126,0.0354686426386039,3.0,0.0
54.95317840576172,26.033592224121097,-2.6615772247314453,-0.0,-0.0,-1.0,0.1038808370736374,1.0,0.0
53.879188537597656,26.62554168701172,-2.600632667541504,-0.0,-0.0,-1.0,0.0473618376263068,1.0,0.0
54.02328109741211,26.480253219604492,-2.590862512588501,-0.0,-0.0,-1.0,0.0559764246866112,1.0,0.0
53.76240539550781,26.776500701904297,-2.6175403594970703,-0.0,-0.0,-1.0,0.0573217937433987,1.0,0.0
53.72456741333008,27.241445541381836,-2.7292919158935547,-0.0,-0.0,-1.0,0.110494237224918,1.0,0.0
54.75812911987305,27.11314392089844,-2.8854613304138184,-0.0,-0.0,-1.0,0.0887481638832681,2.0,0.0
54.85601043701172,28.02699279785156,-3.166018009185791,-0.0,-0.0,-1.0,0.0295939131537795,1.0,0.0
55.02644348144531,28.056224822998047,-3.193070888519287,-0.0,-0.0,-1.0,0.0279644882141621,2.0,0.0
54.87480545043945,25.960010528564453,-2.577908992767334,-0.0,-0.0,-1.0,0.1217045885769517,1.0,0.0
52.92249298095703,26.381988525390625,-2.9371275901794434,-0.0,-0.0,-1.0,0.1239612835645184,1.0,0.0
52.726749420166016,26.483444213867188,-2.955873489379883,-0.0,-0.0,-1.0,0.1177975667448349,2.0,0.0
53.5184211730957,26.015125274658203,-2.8689498901367188,-0.0,-0.0,-1.0,0.094436590731598,1.0,0.0
53.27056121826172,26.05368423461914,-2.8654894828796387,0.6055357764026854,-0.0411899406029055,-0.7947514154058019,0.2005402989420572,4.0,0.0
54.496971130371094,25.99911880493164,-2.930074691772461,-0.0,-0.0,-1.0,0.0771772418311032,1.0,0.0
54.031211853027344,25.872493743896484,-2.8630499839782715,-0.0,-0.0,-1.0,0.0381731369178369,1.0,0.0
53.75517654418945,25.97146224975586,-2.871631622314453,-0.0,-0.0,-1.0,0.2028914228521583,2.0,0.0
54.959739685058594,26.03253936767578,-2.975276470184326,-0.0,-0.0,-1.0,0.200302096809572,2.0,0.0
54.584571838378906,25.745269775390625,-2.8692684173583984,-0.0,-0.0,-1.0,0.1286394534952627,1.0,0.0
54.10309982299805,25.781126022338867,-2.843425750732422,-0.0,-0.0,-1.0,0.122797785291319,1.0,0.0
52.957489013671875,26.233476638793945,-2.928663492202759,-0.0,-0.0,-1.0,0.1233283767225413,2.0,0.0
52.72935485839844,26.311752319335938,-2.938631772994995,-0.0,-0.0,-1.0,0.1235394661325255,1.0,0.0
53.844512939453125,25.9072208404541,-2.89411997795105,-0.0,-0.0,-1.0,0.0925933239503854,2.0,0.0
53.584774017333984,25.94715881347656,-2.8878839015960693,-0.0,-0.0,-1.0,0.1512167596596562,2.0,0.0
53.20293426513672,25.955080032348633,-2.8671343326568604,-0.0,-0.0,-1.0,0.1003160015945108,1.0,0.0
55.15369415283203,25.8135986328125,-2.971531629562378,-0.0,-0.0,-1.0,0.247378333197555,1.0,0.0
54.80055618286133,25.954612731933594,-2.9781787395477295,-0.0,-0.0,-1.0,0.1898795275623817,1.0,0.0
54.4098014831543,25.708534240722656,-2.882716417312622,-0.0,-0.0,-1.0,0.0677567491771448,1.0,0.0
54.031246185302734,25.794025421142575,-2.877098798751831,-0.0,-0.0,-1.0,0.1249110537742143,1.0,0.0
54.922245025634766,27.30278968811035,-2.706308603286743,-0.0,-0.0,-1.0,0.1627716566903055,1.0,0.0
54.80089569091797,27.307241439819336,-2.699561357498169,-0.0,-0.0,-1.0,0.0786120254963343,1.0,0.0
52.7969856262207,27.524085998535156,-2.8125572204589844,-0.1952568568889882,-0.9241677759610328,-0.3283118665431866,0.0586805218475737,3.0,0.0
53.856597900390625,26.393096923828125,-2.6186327934265137,-0.0,-0.0,-1.0,0.0947938422080752,1.0,0.0
53.604496002197266,26.515880584716797,-2.6282525062561035,0.2909951855204629,0.1978511742766944,-0.9360431159093284,0.1628746901591246,4.0,0.0
54.7719841003418,26.054170608520508,-2.6172127723693848,-0.0,-0.0,-1.0,0.1983063880774731,1.0,0.0
54.070316314697266,27.18258285522461,-2.7001500129699707,-0.0,-0.0,-1.0,0.0626546898190357,1.0,0.0
52.864234924316406,27.411376953125,-2.6525988578796387,-0.0,-0.0,-1.0,0.0877606085549548,1.0,0.0
55.01981735229492,27.260175704956055,-3.0308172702789307,-0.0,-0.0,-1.0,0.1627716566903055,1.0,0.0
55.02146530151367,26.993972778320312,-2.966810464859009,-0.0,-0.0,-1.0,0.1107867404925389,1.0,0.0
53.80857849121094,27.90879821777344,-3.101501703262329,-0.0,-0.0,-1.0,0.0367504476888045,1.0,0.0
53.584228515625,27.843509674072266,-3.071266412734986,-0.0,-0.0,-1.0,0.0335595823833032,2.0,0.0
53.34070587158203,27.75438690185547,-3.0343830585479736,-0.0,-0.0,-1.0,0.0237534778891536,1.0,0.0
53.3355827331543,27.569089889526367,-2.987419366836548,-0.0,-0.0,-1.0,0.0623515808547663,2.0,0.0
53.006202697753906,27.599319458007812,-2.9766857624053955,-0.0,-0.0,-1.0,0.0546184577470743,1.0,0.0
52.78668212890625,27.748779296875,-3.003114938735962,-0.0,-0.0,-1.0,0.0444770260409558,2.0,0.0
55.03194808959961,25.951154708862305,-2.7186901569366455,-0.0,-0.0,-1.0,0.1307794250030656,1.0,0.0
54.241397857666016,26.216354370117188,-2.7147891521453857,-0.0,-0.0,-1.0,0.1002834231580694,1.0,0.0
53.58634948730469,27.0997371673584,-2.8852899074554443,-0.0,-0.0,-1.0,0.0772720470708973,1.0,0.0
54.13687896728515,26.24976348876953,-2.714707136154175,-0.0,-0.0,-1.0,0.0727207903960835,1.0,0.0
53.92864990234375,26.29013442993164,-2.708822011947632,0.2730321726730798,0.2640970294739594,-0.9250438863688836,0.0987596536400278,3.0,0.0
53.67688751220703,26.640838623046875,-2.777321100234986,-0.0,-0.0,-1.0,0.1137648412599995,1.0,0.0
54.98278045654297,27.22278594970703,-2.759340524673462,-0.0,-0.0,-1.0,0.0786120254963345,2.0,0.0
54.73869323730469,27.13442611694336,-2.7162721157073975,-0.0,-0.0,-1.0,0.0786120254963344,1.0,0.0
54.95994567871094,27.205278396606445,-2.9774484634399414,-0.0,-0.0,-1.0,0.1627716566903055,1.0,0.0
54.7304801940918,27.118064880371097,-2.919219970703125,-0.0,-0.0,-1.0,0.088748163883268,2.0,0.0
55.142696380615234,26.475378036499023,-2.8849081993103027,-0.0,-0.0,-1.0,0.133674935257309,1.0,0.0
53.72600936889648,27.114818572998047,-2.7386059761047363,-0.0,-0.0,-1.0,0.0881056880307534,1.0,0.0
54.805213928222656,26.026945114135746,-2.7422232627868652,-0.0,-0.0,-1.0,0.1617304181628308,1.0,0.0
54.01976013183594,26.44154930114746,-2.6676721572875977,-0.0,-0.0,-1.0,0.0963271167299858,1.0,0.0
53.86799621582031,26.6799259185791,-2.6836094856262207,-0.0,-0.0,-1.0,0.0598078202834043,1.0,0.0
54.98246765136719,27.25525283813477,-2.6542723178863525,-0.0,-0.0,-1.0,0.0786120254963343,2.0,0.0
54.18309783935547,27.93206024169922,-3.0334086418151855,-0.0,-0.0,-1.0,0.062822661994292,2.0,0.0
54.09779357910156,27.974912643432617,-3.0306010246276855,-0.0,-0.0,-1.0,0.0649657422185623,2.0,0.0
54.94207763671875,27.055150985717773,-2.972365379333496,-0.0,-0.0,-1.0,0.1107867404925388,1.0,0.0
53.29396057128906,27.70642471313477,-2.8752593994140625,-0.0,-0.0,-1.0,0.0604175545177012,1.0,0.0
53.77449798583984,27.22842025756836,-2.843411922454834,-0.7713925915965674,0.4505868417043028,-0.4493606210081969,0.0975075212747627,3.0,0.0
53.31386184692383,27.13702392578125,-2.7653770446777344,-0.0,-0.0,-1.0,0.170094643957166,1.0,0.0
52.77154541015625,27.51532936096191,-2.772778034210205,-0.0,-0.0,-1.0,0.0589481621063978,2.0,0.0
53.467864990234375,26.6345157623291,-2.688412666320801,-0.0,-0.0,-1.0,0.081128729981163,2.0,0.0
54.874542236328125,25.900318145751953,-2.7551732063293457,-0.0,-0.0,-1.0,0.1810319903734432,1.0,0.0
54.69376754760742,26.033557891845703,-2.751497745513916,-0.0,-0.0,-1.0,0.1840205614651179,1.0,0.0
53.82144927978515,26.260791778564453,-2.6664090156555176,-0.3420632936954438,0.8634899982684847,0.3706450134515721,0.1249162312949343,4.0,0.0
53.574668884277344,26.37879943847656,-2.654265880584717,0.5909105414322341,-0.7671473839347006,-0.2496189563042217,0.1301819073683811,5.0,0.0
54.03522491455078,27.844879150390625,-3.0760717391967773,-0.0,-0.0,-1.0,0.0616576951082821,1.0,0.0
53.08927536010742,27.636070251464844,-2.905117988586426,-0.0,-0.0,-1.0,0.0521831194558337,1.0,0.0
52.732330322265625,27.89251708984375,-2.9057445526123047,-0.0,-0.0,-1.0,0.0517177519982568,1.0,0.0
55.0947380065918,26.511207580566406,-3.005131244659424,-0.0,-0.0,-1.0,0.0704331580966974,1.0,0.0
54.851192474365234,26.591737747192383,-2.9797377586364746,-0.0,-0.0,-1.0,0.0712553147307133,1.0,0.0
54.747108459472656,26.491575241088867,-2.946542263031006,-0.0,-0.0,-1.0,0.1338798688148379,1.0,0.0
52.76595306396485,27.541563034057617,-2.8432974815368652,0.0022182462071979,-0.8683572430986719,-0.4959342473976144,0.0586805218475736,3.0,0.0
53.23728942871094,27.064651489257812,-2.8198838233947754,-0.0,-0.0,-1.0,0.1130555461055325,2.0,0.0
53.11152267456055,27.36882781982422,-2.8581900596618652,-0.0,-0.0,-1.0,0.1088357166111402,1.0,0.0
53.37550735473633,26.559032440185547,-2.7485246658325195,-0.6492431120096829,-0.5069931856428501,0.5669579272042123,0.0598616010288876,3.0,0.0
53.27262115478515,26.717052459716797,-2.761813163757324,-0.0,-0.0,-1.0,0.0430593229708448,1.0,0.0
53.87237930297851,26.153226852416992,-2.7524948120117188,0.6653454771294174,0.119609301333076,-0.7368914513671878,0.1118217912739946,3.0,0.0
53.493797302246094,26.31751251220703,-2.7234139442443848,-0.0,-0.0,-1.0,0.1297196262837362,1.0,0.0
54.86713409423828,27.169628143310547,-2.7156877517700195,-0.0,-0.0,-1.0,0.0786120254963345,1.0,0.0
53.02124786376953,26.28765869140625,-2.9532947540283203,-0.0,-0.0,-1.0,0.0918751624876517,2.0,0.0
52.715877532958984,26.52585220336914,-2.935128688812256,-0.0,-0.0,-1.0,0.1861781147395454,2.0,0.0
53.306983947753906,25.726322174072266,-2.921276092529297,-0.0,-0.0,-1.0,0.02788298604539,1.0,0.0
53.08323287963867,25.887420654296875,-2.903131008148194,-0.0,-0.0,-1.0,0.059878001342944,1.0,0.0
53.56095886230469,27.859148025512695,-3.090388298034668,-0.0,-0.0,-1.0,0.0328587057779187,2.0,0.0
53.39697265625,27.889251708984375,-3.0665059089660645,-0.0,-0.0,-1.0,0.0141724715543549,1.0,0.0
52.73929977416992,27.98416328430176,-2.9694409370422363,-0.0,-0.0,-1.0,0.0382511659022455,1.0,0.0
53.30202102661133,27.702579498291016,-3.023512840270996,-0.0,-0.0,-1.0,0.0302068225698889,1.0,0.0
52.759132385253906,27.769559860229492,-2.9408488273620605,-0.0,-0.0,-1.0,0.0568809382269239,1.0,0.0
53.03034973144531,26.821067810058594,-2.851489543914795,-0.0,-0.0,-1.0,0.0621308988075858,1.0,0.0
52.71075820922851,27.013139724731445,-2.822843551635742,-0.0,-0.0,-1.0,0.116528174909483,1.0,0.0
53.2346076965332,26.364681243896484,-2.825779438018799,-0.0,-0.0,-1.0,0.049219961570895,1.0,0.0
53.08705139160156,26.576000213623047,-2.827742576599121,-0.0,-0.0,-1.0,0.0843278611335981,1.0,0.0
53.96429443359375,25.77262306213379,-2.884878158569336,-0.0,-0.0,-1.0,0.110289563841275,1.0,0.0
53.61491012573242,25.982982635498047,-2.845635890960694,-0.0,-0.0,-1.0,0.1792469889936835,2.0,0.0
53.36271286010742,26.062511444091797,-2.8091812133789062,-0.442681370313185,-0.860827400438343,0.2510167146470652,0.1706688037110355,3.0,0.0
52.86383056640625,28.070629119873047,-3.08056116104126,-0.0,-0.0,-1.0,0.0353944280460266,2.0,0.0
53.25634002685547,27.64303970336914,-3.0813193321228027,-0.0,-0.0,-1.0,0.030206822569889,1.0,0.0
52.87334442138672,27.759965896606445,-3.0354080200195312,-0.0,-0.0,-1.0,0.0408711761585715,1.0,0.0
52.851280212402344,27.603187561035156,-3.008183479309082,-0.0,-0.0,-1.0,0.051193446146799,1.0,0.0
53.06889724731445,27.260265350341797,-2.9941554069519043,-0.0,-0.0,-1.0,0.0650070400590411,1.0,0.0
52.97148895263672,26.864744186401367,-2.920975685119629,-0.0,-0.0,-1.0,0.0854481310937568,1.0,0.0
53.208290100097656,26.341262817382812,-2.8891448974609375,0.3178055911788029,0.2677737539462066,-0.9095585868502633,0.0485098781586684,3.0,0.0
53.08283996582031,26.490337371826172,-2.887666702270508,-0.0,-0.0,-1.0,0.0536046836011357,1.0,0.0
53.98200988769531,25.693675994873047,-2.9437103271484375,-0.0,-0.0,-1.0,0.1333316511609743,1.0,0.0
53.59496307373047,25.980243682861328,-2.90986967086792,-0.0,-0.0,-1.0,0.1565795317704672,2.0,0.0
53.249961853027344,26.09809112548828,-2.863739013671875,-0.0,-0.0,-1.0,0.1763519846770368,2.0,0.0
53.45304489135742,26.61244773864746,-2.616633176803589,-0.0,-0.0,-1.0,0.1656258589559891,1.0,0.0
53.78956604003906,26.298748016357425,-2.6367971897125244,0.4833510122331637,0.8416438002886634,0.2408474878607462,0.1247348424978786,5.0,0.0
53.49397277832031,26.430946350097656,-2.6029741764068604,-0.0,-0.0,-1.0,0.2135760213884885,1.0,0.0
55.05189514160156,28.068744659423828,-3.1646151542663574,-0.0,-0.0,-1.0,0.0284506085728985,2.0,0.0
54.15323638916016,27.949310302734375,-3.0012855529785156,-0.0244749014286425,0.8710844426994461,-0.490523060504859,0.062822661994292,3.0,0.0
53.41443634033203,26.50946998596191,-2.7312936782836914,-0.0,-0.0,-1.0,0.1251214054446331,2.0,0.0
53.35658645629883,26.670127868652344,-2.7371654510498047,-0.0,-0.0,-1.0,0.0890014414239023,2.0,0.0
53.84886932373047,26.156478881835938,-2.7731943130493164,-0.0,-0.0,-1.0,0.0898359609951068,2.0,0.0
53.514549255371094,26.268997192382812,-2.72559118270874,0.4703650798429236,-0.7243610245841792,-0.5040414642940785,0.1134625851111251,3.0,0.0
52.81158447265625,26.948760986328125,-2.6541600227355957,-0.0,-0.0,-1.0,0.1139118122097049,1.0,0.0
52.8983268737793,26.564369201660156,-2.640011787414551,-0.0,-0.0,-1.0,0.1386497148465315,1.0,0.0
52.98137283325195,26.39072036743164,-2.637564182281494,-0.0,-0.0,-1.0,0.1700491624545215,1.0,0.0
53.84457015991211,26.0657958984375,-2.696870803833008,-0.0,-0.0,-1.0,0.0963927585186129,1.0,0.0
53.862342834472656,25.864059448242188,-2.686830997467041,-0.0,-0.0,-1.0,0.1421120472576975,1.0,0.0
53.68473815917969,25.91958236694336,-2.7444355487823486,-0.0,-0.0,-1.0,0.1320804654308942,1.0,0.0
54.10221862792969,25.70657730102539,-2.762190103530884,-0.0,-0.0,-1.0,0.1474927658165275,2.0,0.0
53.435333251953125,26.285337448120117,-2.753588914871216,0.9091200282107536,-0.3822334371993814,-0.1655245413611666,0.0742693230812154,4.0,0.0
53.37593460083008,25.9398250579834,-2.9471123218536377,-0.0,-0.0,-1.0,0.1019295053566499,1.0,0.0
53.31881332397461,26.38955307006836,-2.998511552810669,-0.0,-0.0,-1.0,0.0814544521678411,1.0,0.0
53.361289978027344,26.14206314086914,-2.9709999561309814,-0.0,-0.0,-1.0,0.1649856305851505,1.0,0.0
53.85223388671875,27.619243621826172,-1.9129877090454104,-0.0,-0.0,-1.0,0.2660421186304013,1.0,0.0
53.777076721191406,26.484352111816406,-2.5901918411254883,-0.0,-0.0,-1.0,0.0503751880106871,1.0,0.0
53.9348258972168,26.30469512939453,-2.582669734954834,-0.0,-0.0,-1.0,0.1478332592273979,1.0,0.0
53.905242919921875,27.23879623413086,-2.679879665374756,-0.0,-0.0,-1.0,0.0941161168245573,1.0,0.0
53.35820770263672,26.223724365234375,-2.79300594329834,-0.0,-0.0,-1.0,0.0870633092858011,1.0,0.0
53.643028259277344,26.196746826171875,-2.812997341156006,-0.0,-0.0,-1.0,0.0991081674325959,1.0,0.0
54.01144027709961,26.084726333618164,-2.8302664756774902,-0.0,-0.0,-1.0,0.1458476367601015,2.0,0.0
53.38922119140625,26.50389862060547,-2.8274879455566406,-0.0,-0.0,-1.0,0.0967786847550835,1.0,0.0
55.11490631103515,26.18167495727539,-2.931344985961914,-0.0,-0.0,-1.0,0.1767626265008456,1.0,0.0
53.14708709716797,26.948637008666992,-2.8592028617858887,-0.0,-0.0,-1.0,0.0446630754176007,2.0,0.0
53.214385986328125,27.19109535217285,-2.89262056350708,-0.0,-0.0,-1.0,0.1103945493941584,1.0,0.0
54.14632797241211,28.05391502380371,-3.0668368339538574,-0.0,-0.0,-1.0,0.0354686426386039,1.0,0.0
54.076168060302734,25.766870498657227,-2.885582685470581,-0.0,-0.0,-1.0,0.1505002761014387,1.0,0.0
53.27203750610352,26.201305389404297,-2.848813772201538,-0.0,-0.0,-1.0,0.0936049672130808,1.0,0.0
53.59683609008789,26.038986206054688,-2.864741086959839,-0.0,-0.0,-1.0,0.1364709034865202,2.0,0.0
53.944766998291016,25.941150665283203,-2.8895604610443115,-0.0,-0.0,-1.0,0.0662968777102024,1.0,0.0
53.060791015625,26.630783081054688,-2.871037721633911,-0.0,-0.0,-1.0,0.0445398235688448,1.0,0.0
53.18553161621094,26.464141845703125,-2.8665292263031006,-0.0,-0.0,-1.0,0.0494027217207004,1.0,0.0
52.923866271972656,26.921337127685547,-2.887038469314575,-0.0,-0.0,-1.0,0.1231296800916171,1.0,0.0
53.970314025878906,28.11345672607422,-3.109365224838257,-0.0,-0.0,-1.0,0.035664077693151,1.0,0.0
54.04399871826172,27.961410522460938,-3.10097336769104,-0.0,-0.0,-1.0,0.0361194877211696,2.0,0.0
54.01969146728515,26.158344268798828,-2.7543387413024902,-0.0,-0.0,-1.0,0.0846586619258151,2.0,0.0
53.455955505371094,26.528892517089844,-2.7286977767944336,0.2531426358861243,-0.2902682616098226,-0.922855970451856,0.1273067985848283,4.0,0.0
53.83661651611328,26.290695190429688,-2.746929168701172,-0.0,-0.0,-1.0,0.1158263132537589,2.0,0.0
55.01744842529297,26.358501434326172,-2.8751654624938965,-0.0,-0.0,-1.0,0.1733489189900789,1.0,0.0
53.3720703125,26.786060333251953,-2.7428674697875977,-0.0,-0.0,-1.0,0.0950079124688259,1.0,0.0
53.17436599731445,27.15564727783203,-2.7557859420776367,-0.0,-0.0,-1.0,0.1638446586636113,1.0,0.0
53.770904541015625,27.32396697998047,-2.8314242362976074,-0.0,-0.0,-1.0,0.0912095506499996,1.0,0.0
55.2076416015625,26.587905883789062,-2.676252841949463,-0.0,-0.0,-1.0,0.0828251419675476,1.0,0.0
54.80390167236328,27.201507568359375,-2.699693202972412,-0.0,-0.0,-1.0,0.0786120254963345,1.0,0.0
54.819488525390625,26.10736083984375,-2.610238790512085,-0.0,-0.0,-1.0,0.1630076872304385,1.0,0.0
54.86470031738281,27.262592315673828,-2.727792501449585,-0.0,-0.0,-1.0,0.0786120254963343,1.0,0.0
52.892578125,25.949485778808594,-2.936310291290283,-0.0,-0.0,-1.0,0.0674682739986188,1.0,0.0
52.97145080566406,25.83716583251953,-2.931788921356201,-0.0,-0.0,-1.0,0.0977107173114496,1.0,0.0
52.76095199584961,26.253849029541016,-2.9581069946289062,-0.0,-0.0,-1.0,0.0894343681559677,2.0,0.0
53.5482177734375,26.3692684173584,-2.6663379669189453,0.4957026268329107,-0.3979217322823963,-0.771969688995837,0.1319175645621252,3.0,0.0
53.789817810058594,26.285436630249023,-2.683953285217285,0.485213383396282,0.7572350232146033,-0.4372220170466165,0.1226198360723893,4.0,0.0
53.494895935058594,26.56391143798828,-2.681870937347412,-0.8633224687003292,-0.3706148460486459,0.3425185409952396,0.1206461495371856,3.0,0.0
54.704925537109375,25.90364646911621,-2.689060688018799,-0.0,-0.0,-1.0,0.2208356184349982,1.0,0.0
53.67015838623047,26.324155807495117,-2.630246877670288,0.2845031246367903,0.5406251341969748,-0.7916959241693782,0.0814217238721032,4.0,0.0
53.890384674072266,26.23302459716797,-2.6421287059783936,-0.0,-0.0,-1.0,0.105978028485077,2.0,0.0
53.49517059326172,26.696317672729492,-2.65774917602539,-0.0,-0.0,-1.0,0.1190020164368573,2.0,0.0
53.52710723876953,26.54658889770508,-2.64262318611145,-0.94860800212274,0.1964439599520825,-0.2480980227794,0.1317339949734094,3.0,0.0
53.78598403930664,26.217479705810547,-2.60422420501709,-0.0,-0.0,-1.0,0.1091825157191482,1.0,0.0
53.68218994140625,26.352161407470703,-2.606614589691162,0.2909060091091436,0.540940394472784,-0.7891496584880587,0.0825946214408296,3.0,0.0
53.95352935791016,26.204225540161133,-2.6227893829345703,-0.0,-0.0,-1.0,0.0866386552201172,1.0,0.0
54.84593200683594,25.929914474487305,-2.702047348022461,-0.0,-0.0,-1.0,0.1394780835789872,1.0,0.0
53.600830078125,26.13498306274414,-2.707535743713379,-0.0,-0.0,-1.0,0.0616054324677491,2.0,0.0
53.870574951171875,26.03845596313477,-2.7349300384521484,-0.0,-0.0,-1.0,0.1240240247264319,1.0,0.0
54.15267562866211,25.96062469482422,-2.7660155296325684,-0.0,-0.0,-1.0,0.1463562619759587,1.0,0.0
53.956756591796875,26.15337562561035,-2.721374034881592,0.0122499692020925,0.2956814318333738,-0.9552080554117588,0.0924206793813623,4.0,0.0
54.744781494140625,25.976240158081055,-2.9385228157043457,-0.0,-0.0,-1.0,0.1566687089247034,1.0,0.0
53.71017837524414,25.913333892822266,-2.872915744781494,-0.0,-0.0,-1.0,0.18891749959985,1.0,0.0
53.44269561767578,25.921104431152344,-2.859118938446045,-0.0,-0.0,-1.0,0.060834586284391,1.0,0.0
52.93840789794922,25.756059646606445,-2.8141207695007324,-0.0,-0.0,-1.0,0.0992231409507394,1.0,0.0
55.1617317199707,27.801292419433594,-3.1741204261779785,-0.0,-0.0,-1.0,0.0732067889994679,2.0,0.0
54.95220184326172,27.752670288085938,-3.1582798957824707,-0.0,-0.0,-1.0,0.0963473381277467,1.0,0.0
54.69746017456055,27.878612518310547,-3.155672073364258,-0.0,-0.0,-1.0,0.0329607048635166,1.0,0.0
53.038909912109375,26.286529541015625,-2.9231085777282715,0.8547765474783007,0.158489419209953,-0.4942045708808933,0.0967385581994031,3.0,0.0
54.02179336547851,26.094436645507812,-2.8625893592834473,-0.0,-0.0,-1.0,0.1308081783108727,2.0,0.0
53.69221496582031,26.11367416381836,-2.853008270263672,-0.0,-0.0,-1.0,0.1385663127800115,1.0,0.0
53.50141525268555,26.422014236450195,-2.8795223236083984,-0.0,-0.0,-1.0,0.2000573274536204,1.0,0.0
53.344215393066406,26.664785385131836,-2.9003944396972656,-0.0,-0.0,-1.0,0.0398623647651829,1.0,0.0
53.88731384277344,26.211641311645508,-2.6348376274108887,-0.0,-0.0,-1.0,0.1172791873352809,2.0,0.0
53.64405059814453,26.33001136779785,-2.6353015899658203,-0.0,-0.0,-1.0,0.0910178642738018,2.0,0.0
53.540138244628906,26.590824127197266,-2.6574220657348633,-0.2723203087428791,-0.0539987094938973,-0.9606902668494026,0.1455336140321241,4.0,0.0
53.95816802978515,27.11634826660156,-2.7163774967193604,-0.0,-0.0,-1.0,0.0766237530831869,1.0,0.0
54.04112243652344,26.22010612487793,-2.636565923690796,-0.0,-0.0,-1.0,0.1014726097828549,2.0,0.0
53.79767990112305,26.26166534423828,-2.625196695327759,-0.7509565927172652,-0.0928036559043501,-0.6537978871985305,0.1063756059811326,4.0,0.0
53.58292770385742,26.402013778686523,-2.625098466873169,0.5054727306558948,-0.7391426601925233,0.4451577770260712,0.1111432680255746,3.0,0.0
53.536346435546875,26.593908309936523,-2.640481948852539,-0.94860800212274,0.1964439599520825,-0.2480980227794,0.1119448793350828,3.0,0.0
52.96929931640625,26.309249877929688,-2.88675856590271,-0.0,-0.0,-1.0,0.1309781502117278,1.0,0.0
52.86201858520508,26.996501922607425,-2.912345170974731,-0.0,-0.0,-1.0,0.1387331347728074,1.0,0.0
52.94881439208984,25.844985961914062,-2.8602163791656494,-0.0,-0.0,-1.0,0.1137885405795726,1.0,0.0
52.89636993408203,26.250667572021484,-2.875600099563598,-0.0,-0.0,-1.0,0.2048717530525388,1.0,0.0
52.7222900390625,26.571706771850582,-2.873679876327514,-0.0,-0.0,-1.0,0.1267894759100428,2.0,0.0
54.12506103515625,25.96478843688965,-2.8132596015930176,-0.0,-0.0,-1.0,0.0594249318766029,2.0,0.0
54.143348693847656,28.00715446472168,-3.0288424491882324,-0.9865065848474872,0.1631437691362697,0.0137429489033126,0.0354686426386039,3.0,0.0
53.85489654541016,26.05906867980957,-2.8032097816467285,-0.0,-0.0,-1.0,0.08929418756841,1.0,0.0
53.39887619018555,26.327354431152344,-2.797938346862793,-0.0,-0.0,-1.0,0.0738659408323658,1.0,0.0
53.29487991333008,26.543460845947266,-2.813081741333008,-0.0,-0.0,-1.0,0.0485879678763734,1.0,0.0
53.12788391113281,26.868675231933594,-2.83540678024292,-0.0,-0.0,-1.0,0.0336951414562114,1.0,0.0
52.731712341308594,26.725910186767575,-2.7919344902038574,-0.0,-0.0,-1.0,0.1048481327496291,1.0,0.0
54.8818359375,26.00458526611328,-2.7568917274475098,-0.0,-0.0,-1.0,0.1394780835789872,1.0,0.0
53.922645568847656,26.184520721435547,-2.718143939971924,-0.5084257164935786,-0.482900983417724,-0.7129585759510755,0.1372130487835507,3.0,0.0
53.64741134643555,26.219165802001953,-2.705226421356201,-0.0,-0.0,-1.0,0.0816007362606034,2.0,0.0
53.50165557861328,26.498714447021484,-2.729377269744873,-0.6057908264436617,0.7252031391347684,-0.3272581268445183,0.1152164396372393,3.0,0.0
54.958831787109375,27.201217651367188,-2.6844377517700195,-0.0,-0.0,-1.0,0.0786120254963345,2.0,0.0
54.115821838378906,26.045116424560547,-2.7395875453948975,-0.0,-0.0,-1.0,0.0823197054322279,1.0,0.0
53.95317459106445,26.14725875854492,-2.7323505878448486,-0.4314176722678616,0.8699112480435095,-0.2390255479700095,0.0937289175423976,4.0,0.0
53.60015106201172,26.28769874572754,-2.7100088596343994,-0.645591376873269,-0.0053216238204007,-0.7636644907462903,0.1196922355275573,3.0,0.0
53.49101257324219,26.597679138183594,-2.7269859313964844,-0.2586907144712346,-0.947481084766218,-0.1880391136348838,0.1086127827686526,3.0,0.0
54.00992965698242,26.053768157958984,-2.752697467803955,-0.0,-0.0,-1.0,0.0714067334185348,2.0,0.0
53.61100769042969,26.242040634155273,-2.7188687324523926,0.484628889766505,0.2762840290248372,-0.8299409463988917,0.0977456361982297,3.0,0.0
53.486045837402344,26.546470642089844,-2.7230491638183594,-0.4488079488294328,0.8534300674939908,-0.26500668852827,0.1155469675735086,3.0,0.0
54.02323913574219,26.023637771606445,-2.7705307006835938,-0.5690122332264307,0.3615856914351917,-0.7385667648818245,0.063243418682231,4.0,0.0
53.45853042602539,26.212425231933594,-2.721862316131592,-0.0,-0.0,-1.0,0.0517573215469972,1.0,0.0
53.43253326416016,26.55762481689453,-2.742349624633789,-0.7019148306736579,-0.6771446423990429,-0.2208861782698098,0.1044407533545411,3.0,0.0
53.30358123779297,26.44119453430176,-2.8166956901550293,-0.0,-0.0,-1.0,0.0786654079538439,2.0,0.0
53.54806900024414,26.38844871520996,-2.835402488708496,-0.0,-0.0,-1.0,0.2083492843205629,1.0,0.0
53.73228073120117,26.208560943603516,-2.7500674724578857,-0.0,-0.0,-1.0,0.0965478125379846,2.0,0.0
53.884552001953125,26.109928131103516,-2.7485320568084717,-0.0,-0.0,-1.0,0.1251780871647536,2.0,0.0
54.07988739013672,26.172285079956055,-2.738362073898315,-0.0,-0.0,-1.0,0.0962530815460735,1.0,0.0
53.68104553222656,26.27950096130371,-2.7358086109161377,-0.0,-0.0,-1.0,0.09025545268337,1.0,0.0
53.58036804199219,26.469057083129883,-2.7526304721832275,-0.0,-0.0,-1.0,0.1313123119070854,1.0,0.0
54.11848068237305,25.865114212036133,-3.088144540786743,-0.0,-0.0,-1.0,0.1211793687779815,1.0,0.0
53.778785705566406,26.148454666137695,-2.9987375736236572,-0.0,-0.0,-1.0,0.1253834684320783,2.0,0.0
53.573848724365234,26.43697929382324,-2.9383738040924072,-0.0,-0.0,-1.0,0.1438415754266566,1.0,0.0
53.50810241699219,26.154781341552734,-2.750136137008667,-0.0,-0.0,-1.0,0.0927352173113249,1.0,0.0
53.55832290649414,26.510238647460938,-2.785865545272827,-0.0,-0.0,-1.0,0.1075933620170242,1.0,0.0
53.1484489440918,25.776914596557617,-2.929750919342041,-0.0,-0.0,-1.0,0.039559549854592,1.0,0.0
53.11479568481445,26.17739486694336,-2.9611644744873047,-0.0,-0.0,-1.0,0.0714313619202675,1.0,0.0
53.92338180541992,26.210613250732425,-2.736341953277588,-0.9868916541025202,0.110124964610039,0.1179718408453022,0.1037953486270725,3.0,0.0
53.64117431640625,26.64423942565918,-2.737649440765381,-0.0,-0.0,-1.0,0.1353742357378069,1.0,0.0
53.612525939941406,26.41958236694336,-2.7213573455810547,-0.721048246499037,0.0785338468779854,-0.6884198291124459,0.1225329416782719,3.0,0.0
54.07987976074219,25.709869384765625,-2.897721767425537,-0.0,-0.0,-1.0,0.1410725748725901,1.0,0.0
53.12446212768555,26.837493896484375,-2.8961167335510254,-0.0,-0.0,-1.0,0.0706242210429724,2.0,0.0
53.001312255859375,26.242534637451172,-2.969489336013794,-0.0,-0.0,-1.0,0.0840898174506822,1.0,0.0
53.619384765625,26.40475273132324,-2.5779106616973877,-0.0,-0.0,-1.0,0.0874025284816901,2.0,0.0
53.56818008422851,26.707963943481445,-2.662802219390869,-0.0,-0.0,-1.0,0.1381832298069296,1.0,0.0
55.00353240966797,27.190242767333984,-2.716840982437134,-0.0,-0.0,-1.0,0.2044322187177432,1.0,0.0
52.83993148803711,25.71542739868164,-2.708950996398926,-0.0,-0.0,-1.0,0.1137885405795726,1.0,0.0
52.87568283081055,26.295608520507812,-2.7452268600463867,-0.0,-0.0,-1.0,0.2304593022412457,1.0,0.0
52.81203842163086,26.512065887451172,-2.7469778060913086,-0.0,-0.0,-1.0,0.1756987382576087,1.0,0.0
53.81793975830078,25.69146728515625,-2.9568424224853516,-0.0,-0.0,-1.0,0.0638565598448305,2.0,0.0
53.773563385009766,26.012718200683594,-2.948883056640625,-0.0,-0.0,-1.0,0.1819230930365261,1.0,0.0
53.607398986816406,26.178714752197266,-2.9201526641845703,-0.0,-0.0,-1.0,0.135529238343071,1.0,0.0
53.22123718261719,26.294025421142575,-2.853658676147461,-0.0,-0.0,-1.0,0.0479487245247572,1.0,0.0
53.23014450073242,26.517791748046875,-2.8550024032592773,-0.0,-0.0,-1.0,0.06050472104208,2.0,0.0
53.06155776977539,27.123870849609375,-2.825593948364258,-0.0,-0.0,-1.0,0.0743245503018479,1.0,0.0
53.48998260498047,26.446144104003903,-2.677201271057129,-0.0,-0.0,-1.0,0.1164228284821583,2.0,0.0
53.41006088256836,26.739107131958008,-2.650238037109375,-0.0,-0.0,-1.0,0.1523528064559101,2.0,0.0
53.64790725708008,25.966794967651367,-2.8743953704833984,-0.0,-0.0,-1.0,0.1973512161604005,2.0,0.0
53.295902252197266,26.09029769897461,-2.812932014465332,-0.4331763642902914,-0.5854641432779633,-0.6852663528556212,0.1242640332531043,3.0,0.0
53.28516387939453,26.291221618652344,-2.813806533813477,-0.0,-0.0,-1.0,0.0539033741811695,1.0,0.0
55.1697883605957,27.837234497070312,-3.1742353439331055,-0.0,-0.0,-1.0,0.0732067889994679,2.0,0.0
53.23148727416992,26.582935333251953,-2.8083715438842773,-0.0,-0.0,-1.0,0.0381892164751431,1.0,0.0
53.95484924316406,25.640058517456055,-2.9056167602539062,-0.0,-0.0,-1.0,0.1847302626273108,1.0,0.0
53.60417556762695,25.83885955810547,-2.819758415222168,-0.0,-0.0,-1.0,0.1011959004987997,1.0,0.0
53.42219924926758,26.273365020751953,-2.754157066345215,0.6560285788512901,-0.7071622291493925,-0.2637197099096288,0.0752367560547328,3.0,0.0
55.20711898803711,25.809673309326172,-3.011682510375977,-0.0,-0.0,-1.0,0.2916409463634312,1.0,0.0
54.11006164550781,25.723655700683594,-2.79522705078125,-0.0,-0.0,-1.0,0.1656099190941221,2.0,0.0
53.59768295288086,26.11064910888672,-2.7092294692993164,-0.0,-0.0,-1.0,0.1095442377878702,2.0,0.0
53.808223724365234,25.907142639160156,-2.742856979370117,-0.0,-0.0,-1.0,0.1065034991020713,1.0,0.0
53.197418212890625,27.23132705688477,-2.7006773948669434,-0.0,-0.0,-1.0,0.1915100367237718,1.0,0.0
53.47957992553711,26.965797424316406,-2.69260835647583,-0.0,-0.0,-1.0,0.1895020947975896,1.0,0.0
54.7518424987793,26.233510971069336,-2.877201557159424,-0.0,-0.0,-1.0,0.2153387488180826,1.0,0.0
54.37218475341797,26.36659049987793,-2.871054172515869,-0.0,-0.0,-1.0,0.045272119498789,1.0,0.0
52.969139099121094,26.151573181152344,-2.7124905586242676,-0.0,-0.0,-1.0,0.1804938663088692,1.0,0.0
53.04230880737305,27.342544555664062,-2.953339099884033,-0.0,-0.0,-1.0,0.085116471559017,1.0,0.0
52.80084228515625,27.548778533935547,-2.9750943183898926,-0.0,-0.0,-1.0,0.0587932593852863,1.0,0.0
52.79875183105469,27.897422790527344,-3.04481840133667,-0.0,-0.0,-1.0,0.0382511659022455,2.0,0.0
52.802772521972656,26.28486061096191,-2.724865436553955,-0.0,-0.0,-1.0,0.1925946370456246,1.0,0.0
54.453487396240234,25.80714988708496,-2.9160900115966797,-0.0,-0.0,-1.0,0.0660250726549891,1.0,0.0
53.99525833129883,26.20875358581543,-2.921903610229492,-0.0,-0.0,-1.0,0.1601135148439462,1.0,0.0
54.24687576293945,25.957569122314453,-2.914365768432617,-0.0,-0.0,-1.0,0.0686464608240414,1.0,0.0
53.557762145996094,26.860851287841797,-2.9658336639404297,-0.0,-0.0,-1.0,0.117193634658326,1.0,0.0
53.37682342529297,27.26611328125,-3.0035648345947266,-0.0,-0.0,-1.0,0.0627381605217972,1.0,0.0
