x,y,z,nx,ny,nz,curvature,density
45.05380630493164,28.22668075561523,-2.6130964756011963,-0.0,-0.0,-1.0,0.0154242784450206,1.0
45.10663986206055,28.622596740722656,-2.656113862991333,-0.0,-0.0,-1.0,0.014263463398431,1.0
44.85725402832031,28.383142471313477,-2.520697593688965,-0.0,-0.0,-1.0,0.0156907969396928,1.0
44.592716217041016,29.00030517578125,-2.5510692596435547,-0.0,-0.0,-1.0,0.038747326404596,1.0
45.034149169921875,28.731643676757812,-2.5850863456726074,-0.0,-0.0,-1.0,0.0143011253784218,1.0
45.1143798828125,29.14379119873047,-2.642763614654541,-0.0,-0.0,-1.0,0.079693640556495,1.0
44.08940505981445,30.527753829956055,-2.6540064811706543,-0.0,-0.0,-1.0,0.0617553886171532,2.0
44.237060546875,30.294509887695312,-2.6478686332702637,-0.0,-0.0,-1.0,0.0414310524799724,1.0
44.029727935791016,29.04370880126953,-2.4745535850524902,-0.0,-0.0,-1.0,0.0611280938393235,1.0
44.455963134765625,30.562580108642575,-2.512939453125,0.0378782661165026,0.8612073294130809,-0.5068403818967033,0.1679413253227951,5.0
42.74470138549805,29.72187232971191,-1.960376024246216,-0.0,-0.0,-1.0,0.0441523816958761,1.0
44.594276428222656,30.63651657104492,-2.3890204429626465,-0.0,-0.0,-1.0,0.0760106470154198,1.0
44.36265563964844,28.175064086914062,-2.642899751663208,-0.0,-0.0,-1.0,0.0207566453287652,1.0
44.32613754272461,28.250444412231445,-2.647576093673706,-0.0,-0.0,-1.0,0.017402480174198,1.0
44.07340240478515,28.645523071289062,-2.662402391433716,-0.0,-0.0,-1.0,0.0280634788199274,1.0
42.83891677856445,30.545974731445312,-2.7523281574249268,-0.0,-0.0,-1.0,0.017290860087664,2.0
43.02417755126953,30.43603515625,-2.7646501064300537,-0.0,-0.0,-1.0,0.0145296281306011,1.0
43.31196975708008,28.628646850585938,-2.5303266048431396,-0.0,-0.0,-1.0,0.0730667602534391,2.0
43.88306427001953,28.34615707397461,-2.5854270458221436,-0.0,-0.0,-1.0,0.052288650809443,1.0
44.083709716796875,28.240863800048828,-2.6043851375579834,-0.0,-0.0,-1.0,0.0228039231151028,1.0
43.88488006591797,28.713932037353516,-2.6404693126678467,-0.0,-0.0,-1.0,0.0680438575264985,2.0
42.81704330444336,28.44696807861328,-2.3389642238616943,-0.939835489152014,0.2574560677511878,0.224556510723894,0.1691249991074665,4.0
43.24750900268555,28.56401634216309,-2.4309003353118896,0.6238174109436201,0.7627305433738548,-0.1705695049187362,0.0826293162539604,5.0
43.86012268066406,28.432373046875,-2.5165436267852783,-0.0,-0.0,-1.0,0.0501606466668302,1.0
44.09809112548828,28.376811981201172,-2.5495851039886475,-0.0,-0.0,-1.0,0.032237882239955,1.0
44.495269775390625,28.250720977783203,-2.600214719772339,-0.0,-0.0,-1.0,0.0216807432750363,1.0
43.787940979003906,28.794353485107425,-2.5593717098236084,-0.0,-0.0,-1.0,0.1076525471079373,2.0
43.999534606933594,28.707687377929688,-2.582628011703491,-0.0,-0.0,-1.0,0.0311486850166847,1.0
42.73149108886719,29.75705909729004,-2.532735586166382,-0.0,-0.0,-1.0,0.1469405193528859,1.0
43.337547302246094,29.74983787536621,-2.6327521800994873,-0.0,-0.0,-1.0,0.0397320163574042,1.0
43.070556640625,30.521690368652344,-2.7136595249176025,-0.0,-0.0,-1.0,0.0162919766698408,1.0
43.27998352050781,30.388837814331055,-2.726428747177124,-0.0,-0.0,-1.0,0.0142811301639751,1.0
45.11069107055664,28.30262756347656,-2.6212871074676514,-0.0,-0.0,-1.0,0.014417326597286,1.0
43.216522216796875,28.756202697753903,-2.36612868309021,-0.0,-0.0,-1.0,0.0547476686951052,1.0
43.7639045715332,28.813879013061523,-2.4690592288970947,-0.0,-0.0,-1.0,0.1123111764150966,2.0
43.99446105957031,28.841373443603516,-2.513122797012329,-0.0,-0.0,-1.0,0.0635539327853387,1.0
44.349143981933594,28.843704223632812,-2.574629545211792,-0.0,-0.0,-1.0,0.0147735121932386,1.0
44.76319122314453,28.79909324645996,-2.6391756534576416,-0.0,-0.0,-1.0,0.0157097321921691,1.0
45.091773986816406,28.683303833007812,-2.678039312362671,-0.0,-0.0,-1.0,0.0146558518874127,1.0
43.93962860107422,29.030593872070312,-2.5347607135772705,-0.0,-0.0,-1.0,0.0709683541230887,1.0
44.75249099731445,29.072572708129883,-2.6814024448394775,-0.0,-0.0,-1.0,0.0488138593147731,2.0
42.829498291015625,29.680835723876953,-2.457437753677368,-0.4575302309167659,-0.0462328135215993,-0.8879913370923884,0.1772813272422674,7.0
44.0098762512207,29.4519100189209,-2.6164562702178955,-0.0,-0.0,-1.0,0.0257141864480032,2.0
43.61518859863281,30.38690185546875,-2.7087719440460205,-0.0,-0.0,-1.0,0.0422993263025026,1.0
43.83319854736328,30.174726486206055,-2.7084648609161377,-0.0,-0.0,-1.0,0.0477062607212511,1.0
42.79111099243164,28.406156539916992,-2.2357866764068604,-0.0,-0.0,-1.0,0.1974361977343754,1.0
42.86481857299805,28.157249450683594,-2.540872097015381,-0.0,-0.0,-1.0,0.1656752678687858,1.0
44.7755012512207,30.605926513671875,-2.56900691986084,-0.0,-0.0,-1.0,0.1487395307269162,1.0
45.14208984375,28.546873092651367,-2.594982624053955,-0.0,-0.0,-1.0,0.0166055291422464,1.0
44.74042892456055,28.95105743408203,-2.600059509277344,-0.0,-0.0,-1.0,0.0364549318258039,1.0
45.10528564453125,29.567811965942383,-2.7516555786132812,-0.0,-0.0,-1.0,0.1073705248875113,1.0
43.81415557861328,30.4481201171875,-2.716860294342041,-0.0,-0.0,-1.0,0.0450405122891039,2.0
43.933250427246094,30.41255569458008,-2.727041721343994,-0.0,-0.0,-1.0,0.0469824008440292,1.0
44.28995513916016,29.30968856811523,-2.5933127403259277,-0.0,-0.0,-1.0,0.0435718202145464,1.0
42.80817413330078,29.680233001708984,-2.449667453765869,-0.7788580484388629,0.1313350190964274,-0.6132954044674938,0.1377485690271927,5.0
44.13980865478515,29.547088623046875,-2.611058235168457,0.002355544173726,-0.3876498258886746,-0.9218037013920728,0.0462908960323405,4.0
44.30391311645508,29.41358184814453,-2.6122632026672363,-0.0,-0.0,-1.0,0.0783509110403308,1.0
44.386436462402344,30.607667922973633,-2.4922502040863037,-0.2426030930041242,0.1448553561912475,-0.9592500534519344,0.1391142261501836,3.0
44.43489074707031,30.555757522583008,-2.49121618270874,0.3700590507449403,0.9136785852227453,-0.1680706454652819,0.1643594174199,6.0
42.73837661743164,29.703670501708984,-2.1560862064361572,-0.0,-0.0,-1.0,0.0389991946317544,1.0
44.281463623046875,30.580833435058594,-2.6156277656555176,-0.0,-0.0,-1.0,0.0793355672668487,1.0
44.90046691894531,30.43990707397461,-2.673313856124878,-0.0,-0.0,-1.0,0.0977189874847434,2.0
44.76663589477539,30.600366592407227,-2.6810903549194336,-0.0,-0.0,-1.0,0.1031195893686197,1.0
42.831844329833984,29.650062561035156,-2.283240795135498,-0.0,-0.0,-1.0,0.0864439489582828,1.0
44.31574249267578,30.51742172241211,-2.609950542449951,-0.0,-0.0,-1.0,0.0938245050301256,1.0
43.357662200927734,28.224597930908203,-2.4951891899108887,-0.0,-0.0,-1.0,0.0426115385655227,1.0
43.01824951171875,28.48624038696289,-2.4946491718292236,-0.0,-0.0,-1.0,0.1009696905179451,1.0
43.55003356933594,28.583297729492188,-2.589503288269043,-0.0,-0.0,-1.0,0.0374913253853951,1.0
43.961387634277344,28.48187255859375,-2.6312601566314697,-0.0,-0.0,-1.0,0.0490182761706881,1.0
44.47538757324219,30.586322784423828,-2.412303686141968,0.1154179175894646,0.7867557070146028,0.606377903439154,0.1631901655976199,5.0
44.71236038208008,30.606414794921875,-2.443483591079712,-0.0,-0.0,-1.0,0.1033461554946223,2.0
42.949947357177734,28.514328002929688,-2.3671863079071045,-0.0,-0.0,-1.0,0.1354840939920801,1.0
43.2894287109375,28.60845947265625,-2.4351959228515625,0.4195310454723737,0.1346439337418887,-0.897699678618282,0.0776663586426978,3.0
43.9141731262207,28.56333923339844,-2.5214319229125977,-0.0,-0.0,-1.0,0.0555843532917474,1.0
44.28288269042969,28.503498077392575,-2.567462682723999,-0.0,-0.0,-1.0,0.0172438496852766,1.0
44.454376220703125,28.419902801513672,-2.579202175140381,-0.0,-0.0,-1.0,0.0189759892898217,1.0
44.97309112548828,28.28923797607422,-2.638090133666992,-0.0,-0.0,-1.0,0.0154242784450206,1.0
43.17924499511719,28.64986038208008,-2.4265148639678955,-0.0,-0.0,-1.0,0.0747198448651068,2.0
43.53912734985352,28.730876922607425,-2.4953997135162354,0.4212511124875078,-0.5147504788052006,-0.7467124244298161,0.0609933754901899,3.0
43.749359130859375,28.69587516784668,-2.520697832107544,-0.6241653869823552,-0.7551301439102722,-0.2004894896278063,0.1147441513467896,3.0
44.219261169433594,28.650054931640625,-2.5842339992523193,-0.2893421192051538,-0.0491170860426146,-0.9559647744098904,0.0212338570424651,3.0
44.70545196533203,28.618297576904297,-2.654273509979248,-0.0,-0.0,-1.0,0.013090700442446,1.0
43.839168548583984,29.186767578125,-2.6251938343048096,-0.0,-0.0,-1.0,0.0429448631372973,1.0
42.853553771972656,30.599132537841797,-2.753059148788452,-0.0,-0.0,-1.0,0.0171445655970616,1.0
45.09922790527344,30.101417541503903,-2.735927104949951,-0.0,-0.0,-1.0,0.057430637695995,1.0
43.910526275634766,29.02817726135254,-2.371284246444702,-0.0,-0.0,-1.0,0.0665591047142604,1.0
44.434268951416016,29.340131759643555,-2.5010898113250732,-0.0,-0.0,-1.0,0.1198300914396682,1.0
42.71480941772461,29.763582229614254,-2.3637542724609375,-0.0,-0.0,-1.0,0.0918106518067216,2.0
44.36549758911133,29.44153213500977,-2.5112459659576416,-0.0,-0.0,-1.0,0.0672804456218362,1.0
44.34265899658203,30.157264709472656,-2.646212577819824,-0.0,-0.0,-1.0,0.0346252841455278,2.0
44.973052978515625,30.13935661315918,-2.7261781692504883,-0.0,-0.0,-1.0,0.0490718515392951,1.0
43.951175689697266,30.545862197875977,-2.6719274520874023,-0.0,-0.0,-1.0,0.052944611098218,1.0
44.12709045410156,30.374826431274418,-2.6607704162597656,-0.0,-0.0,-1.0,0.0709270059246598,2.0
44.685523986816406,30.318782806396484,-2.7224297523498535,-0.0,-0.0,-1.0,0.1154992807809265,2.0
44.860958099365234,30.194873809814453,-2.721816062927246,-0.0,-0.0,-1.0,0.0861677511664847,2.0
44.49468231201172,29.37015151977539,-2.5068564414978027,0.3997595940033154,0.8439944321953695,-0.3575830888416291,0.1292318813061331,4.0
42.729881286621094,29.853872299194336,-2.375515937805176,-0.0,-0.0,-1.0,0.0860362672380946,1.0
42.786231994628906,29.724315643310547,-2.3555688858032227,-0.0,-0.0,-1.0,0.0851334549361152,1.0
44.41829681396485,29.462017059326172,-2.5146312713623047,-0.0,-0.0,-1.0,0.1306582905618223,1.0
44.43961334228515,30.224842071533203,-2.6701269149780273,0.641820878474645,0.0087161966690729,-0.7668050520632089,0.0672192844297428,4.0
44.14005279541016,30.459470748901367,-2.678140640258789,-0.0,-0.0,-1.0,0.0582015703614329,1.0
44.56324005126953,30.376953125,-2.7172584533691406,-0.0,-0.0,-1.0,0.0547891544687173,1.0
44.856651306152344,30.305267333984375,-2.7424168586730957,-0.1295407583931057,0.1765276498407366,-0.9757341752529968,0.1044560597419919,3.0
44.810394287109375,28.171829223632812,-2.477163314819336,-0.0,-0.0,-1.0,0.0151755820623825,1.0
44.789920806884766,28.41371726989746,-2.53175950050354,-0.0,-0.0,-1.0,0.01633871335065,1.0
43.49503326416016,28.917177200317383,-2.5037031173706055,-0.0,-0.0,-1.0,0.0571184371415661,1.0
43.758026123046875,28.769351959228516,-2.4961867332458496,-0.0,-0.0,-1.0,0.1123111764150966,2.0
44.14103317260742,28.923664093017575,-2.5769333839416504,-0.0,-0.0,-1.0,0.0569719932071011,2.0
44.68131256103515,28.86488342285156,-2.6259427070617676,-0.0,-0.0,-1.0,0.0103742562038029,2.0
44.8222541809082,28.993309020996097,-2.673555374145508,-0.0,-0.0,-1.0,0.041398773977997,1.0
43.89508438110352,29.27450942993164,-2.6349637508392334,-0.0,-0.0,-1.0,0.0368180013087949,1.0
44.09683990478515,29.15539169311523,-2.628249168395996,-0.0,-0.0,-1.0,0.0483364777323465,1.0
44.64495468139648,29.25613021850586,-2.715609073638916,-0.0,-0.0,-1.0,0.0960783540239579,1.0
45.10392379760742,29.17850685119629,-2.751817226409912,-0.0,-0.0,-1.0,0.0934092113255754,1.0
43.537845611572266,29.60927963256836,-2.6793007850646973,-0.0,-0.0,-1.0,0.0392765454909269,1.0
42.82220458984375,28.469709396362305,-2.322157144546509,-0.9674810003161128,0.0343705242031363,0.250597647820835,0.1539086059600188,3.0
43.211158752441406,28.69713973999023,-2.419102191925049,-0.0,-0.0,-1.0,0.065939870859947,1.0
44.69383239746094,30.621166229248047,-2.4467263221740723,-0.0,-0.0,-1.0,0.0902682494115452,2.0
43.25447845458984,28.18910789489746,-2.552380084991455,-0.0,-0.0,-1.0,0.0259919310393809,1.0
43.56013488769531,28.17999267578125,-2.5829484462738037,-0.0,-0.0,-1.0,0.031940843978001,1.0
43.91159439086914,28.235675811767575,-2.6378633975982666,-0.0,-0.0,-1.0,0.0513001797026052,1.0
44.52524185180664,29.371997833251953,-2.468161106109619,-0.4609906170979933,-0.8315015672085102,-0.3099883782940946,0.1398528041520955,5.0
44.16653060913086,30.2874698638916,-2.656836748123169,-0.0,-0.0,-1.0,0.028525252953368,1.0
44.39193344116211,30.21326446533203,-2.659306049346924,-0.0714641887559623,-0.9923454602376288,-0.100714235692981,0.0534943158371248,3.0
44.92055130004883,30.21584701538086,-2.710279703140259,-0.0,-0.0,-1.0,0.0703562571683746,2.0
45.115234375,30.23554039001465,-2.7342607975006104,-0.0,-0.0,-1.0,0.0886672753059979,1.0
44.104373931884766,30.409948348999023,-2.6813371181488037,-0.0,-0.0,-1.0,0.0799679633708617,2.0
44.38238525390625,30.320472717285156,-2.6846678256988525,-0.719386768942612,0.2601205029750017,-0.64406521455699,0.0712471882475199,4.0
44.76716995239258,30.341575622558594,-2.7258269786834717,-0.0,-0.0,-1.0,0.1517759046704949,2.0
45.05470657348633,30.204837799072266,-2.7475621700286865,-0.0,-0.0,-1.0,0.0900481539907623,2.0
44.88406753540039,30.28789520263672,-2.749199628829956,-0.5618240260682714,-0.7523603061840872,-0.3439589123878381,0.0831027454334528,3.0
43.53119659423828,28.27139663696289,-2.5927209854125977,-0.0,-0.0,-1.0,0.0304494877761663,1.0
43.4399528503418,28.55253219604492,-2.4721641540527344,-0.0,-0.0,-1.0,0.0570544889387885,2.0
43.63361358642578,28.78006362915039,-2.521610975265503,-0.0,-0.0,-1.0,0.0763360317241103,2.0
43.84115982055664,28.76933860778809,-2.5062241554260254,-0.0,-0.0,-1.0,0.1143352879261849,1.0
43.77785873413086,29.160869598388672,-2.6174468994140625,-0.0,-0.0,-1.0,0.0467464004274379,1.0
44.02516174316406,29.251953125,-2.6290860176086426,-0.0,-0.0,-1.0,0.0183150235265083,1.0
44.264495849609375,29.319364547729492,-2.635716199874878,-0.0,-0.0,-1.0,0.0706846158357012,1.0
43.17995834350586,29.680355072021484,-2.6562275886535645,-0.0,-0.0,-1.0,0.0429063968984019,1.0
43.07794570922851,29.581623077392575,-2.6453425884246826,-0.0,-0.0,-1.0,0.0417907548220912,1.0
42.840614318847656,28.497455596923828,-2.457758665084839,-0.0,-0.0,-1.0,0.1448170561777539,1.0
43.15663146972656,28.941184997558594,-2.515582799911499,-0.0,-0.0,-1.0,0.0404585929915064,1.0
43.05978012084961,28.55817413330078,-2.4504151344299316,-0.0,-0.0,-1.0,0.0491635312864261,1.0
42.7335205078125,29.610431671142575,-2.3935368061065674,-0.0,-0.0,-1.0,0.0910499129929097,2.0
44.46063232421875,30.492929458618164,-2.4446327686309814,-0.0,-0.0,-1.0,0.214013832367421,1.0
44.27141571044922,30.5251522064209,-2.461165428161621,-0.0,-0.0,-1.0,0.1304502330559651,1.0
44.650596618652344,30.567384719848633,-2.4482991695404053,-0.6156838841545208,0.5518138897966616,-0.5625253646013495,0.0846387853285197,3.0
45.135780334472656,29.342971801757812,-2.7621912956237793,-0.0,-0.0,-1.0,0.1217995353580511,1.0
44.82185745239258,29.048917770385746,-2.7193617820739746,-0.0,-0.0,-1.0,0.0480690875246613,1.0
44.67494201660156,28.66007423400879,-2.6470847129821777,-0.0,-0.0,-1.0,0.0138563744643011,2.0
44.30453872680664,28.3388614654541,-2.605989933013916,-0.0,-0.0,-1.0,0.0199285287488945,1.0
43.981201171875,28.13966941833496,-2.589027404785156,-0.0,-0.0,-1.0,0.0392870917091536,1.0
42.7850456237793,29.56258201599121,-2.2665724754333496,-0.0,-0.0,-1.0,0.0775400789153484,1.0
45.04962158203125,30.347347259521484,-2.7083635330200195,0.5552713417940449,-0.8314255602043282,0.0201314386261941,0.1064809660312021,3.0
44.706668853759766,30.29126739501953,-2.7159433364868164,0.4415415056526062,0.1300326487265068,-0.8877683307322907,0.1121119079708651,3.0
44.42359161376953,30.032400131225582,-2.6812357902526855,-0.0,-0.0,-1.0,0.0492677718024045,2.0
44.012306213378906,29.9897518157959,-2.6981492042541504,-0.0,-0.0,-1.0,0.0390223123944469,1.0
43.72514724731445,29.56012725830078,-2.6330666542053223,-0.0,-0.0,-1.0,0.0427400792016505,1.0
44.16152572631836,29.507478713989254,-2.5944857597351074,-0.044751251078151,-0.4063663420512444,-0.9126136759740296,0.0513256024228367,3.0
43.88951873779297,29.493362426757812,-2.6091866493225098,-0.0,-0.0,-1.0,0.0111175949045186,1.0
43.89970016479492,28.843412399291992,-2.482287883758545,-0.0,-0.0,-1.0,0.0812787774160615,1.0
43.62437438964844,28.73428726196289,-2.4803075790405273,-0.0,-0.0,-1.0,0.0789149527843633,1.0
43.44197463989258,28.593778610229492,-2.466245651245117,-0.0,-0.0,-1.0,0.0599439759619556,2.0
42.90298080444336,28.425830841064453,-2.474912166595459,-0.0,-0.0,-1.0,0.1261987379917868,1.0
43.2773551940918,28.487295150756836,-2.458004951477051,-0.0,-0.0,-1.0,0.064063818843742,1.0
43.09194564819336,28.44169807434082,-2.463263511657715,-0.0,-0.0,-1.0,0.0846169317697458,2.0
42.72743225097656,28.225980758666992,-2.450955390930176,-0.0,-0.0,-1.0,0.1044353490976013,1.0
42.78102493286133,29.60240173339844,-1.9978760480880735,-0.2154667676601064,0.2333677519711091,-0.948215990359821,0.0433739830237185,3.0
45.07423400878906,30.36348533630371,-2.7207305431365967,0.5552713417940449,-0.8314255602043282,0.0201314386261941,0.1064809660312021,3.0
44.88410568237305,30.271177291870117,-2.712693929672241,-0.0,-0.0,-1.0,0.0908262065581507,2.0
44.52711486816406,30.15488052368164,-2.7099320888519287,-0.0,-0.0,-1.0,0.0425705885043858,1.0
44.33512115478515,29.949174880981445,-2.680692434310913,-0.0,-0.0,-1.0,0.0583018624149164,1.0
44.12091827392578,29.459980010986328,-2.5977911949157715,-0.0,-0.0,-1.0,0.0479422753291586,1.0
43.79802322387695,29.497224807739254,-2.626361846923828,-0.0,-0.0,-1.0,0.0145449156525409,1.0
44.327125549316406,29.336137771606445,-2.5603463649749756,-0.0,-0.0,-1.0,0.0368959606113839,1.0
43.61603546142578,29.28316116333008,-2.596937894821167,-0.0,-0.0,-1.0,0.0169513591768946,1.0
43.4608154296875,28.781635284423828,-2.5104892253875732,-0.0,-0.0,-1.0,0.0547006513486726,1.0
43.509185791015625,28.700416564941406,-2.491292953491211,-0.0,-0.0,-1.0,0.0526093969979552,2.0
43.24502182006836,28.550647735595703,-2.481722831726074,-0.0,-0.0,-1.0,0.0810103734912157,2.0
43.06563186645508,28.37678337097168,-2.461954116821289,-0.0,-0.0,-1.0,0.0832451625327986,1.0
42.76399612426758,28.18866729736328,-2.449892282485962,-0.0,-0.0,-1.0,0.0922142168354101,1.0
45.04956817626953,30.34673309326172,-2.732255458831787,0.5552713417940449,-0.8314255602043282,0.0201314386261941,0.1064809660312021,3.0
44.68804168701172,30.26679229736328,-2.728792667388916,-0.0,-0.0,-1.0,0.0869309670877754,2.0
44.51945877075195,30.091320037841797,-2.699526309967041,-0.0,-0.0,-1.0,0.0380864286620512,1.0
44.42861557006836,30.018077850341797,-2.6882662773132324,-0.0,-0.0,-1.0,0.0492677718024047,2.0
44.141902923583984,29.521438598632812,-2.5997395515441895,0.002355544173726,-0.3876498258886746,-0.9218037013920728,0.0462908960323405,4.0
43.84026718139648,29.585933685302734,-2.6266722679138184,-0.0,-0.0,-1.0,0.0371118143051911,1.0
43.45704650878906,29.76745986938477,-2.6818742752075195,-0.0,-0.0,-1.0,0.0419529966024135,1.0
44.45176696777344,29.33843994140625,-2.549230575561523,-0.0,-0.0,-1.0,0.1006830181482818,1.0
43.69322204589844,28.764263153076172,-2.468532085418701,-0.0,-0.0,-1.0,0.10052985231137,1.0
43.43684005737305,28.894264221191406,-2.507892608642578,-0.0,-0.0,-1.0,0.0395088282588739,1.0
43.25776672363281,28.578086853027344,-2.4545483589172363,0.3211291410266264,0.3897304764632201,-0.8631258485871295,0.085109222440675,6.0
42.895240783691406,28.49253845214844,-2.458420753479004,-0.0,-0.0,-1.0,0.1051698536869834,1.0
42.80534744262695,29.642112731933594,-1.993629574775696,-0.8939927037023513,0.1819299482452413,-0.4094857014090281,0.0441523816958761,4.0
42.73949432373047,28.98868179321289,-1.7313129901885986,-0.0,-0.0,-1.0,0.0072786729753739,1.0
44.846622467041016,30.612640380859375,-2.63993239402771,-0.0,-0.0,-1.0,0.1029917913084133,1.0
44.69426727294922,30.526996612548828,-2.6298794746398926,-0.0,-0.0,-1.0,0.1423865878756906,2.0
44.71567153930664,29.39954376220703,-2.4035701751708984,-0.0,-0.0,-1.0,0.10714491190871,1.0
42.93925476074219,29.71862411499023,-2.572622299194336,-0.0,-0.0,-1.0,0.1218124727976492,2.0
42.935211181640625,28.64487075805664,-2.363718032836914,-0.0,-0.0,-1.0,0.0832666512320043,2.0
42.81025314331055,28.52475357055664,-2.3496735095977783,-0.7613349732291864,-0.5159920683568343,0.3925827860858779,0.136010716046539,3.0
44.4503173828125,30.624542236328125,-2.4986863136291504,-0.0,-0.0,-1.0,0.1505531499444028,2.0
42.773555755615234,29.768295288085938,-2.4578540325164795,-0.0,-0.0,-1.0,0.1707121413063595,1.0
44.47918319702149,29.468345642089844,-2.2747063636779785,-0.0,-0.0,-1.0,0.1411846290570818,1.0
44.93609619140625,30.440357208251953,-2.654881477355957,-0.0,-0.0,-1.0,0.1434877085499278,2.0
44.70539093017578,30.53781509399414,-2.688206434249878,-0.0,-0.0,-1.0,0.1013782375516293,1.0
44.44656753540039,30.342334747314453,-2.6614601612091064,-0.0,-0.0,-1.0,0.0917646779602284,1.0
44.042240142822266,30.448524475097656,-2.7089521884918213,-0.0,-0.0,-1.0,0.0599162738593914,2.0
43.82318115234375,30.427833557128903,-2.7188189029693604,-0.0,-0.0,-1.0,0.037585025965158,2.0
43.47505569458008,30.377716064453125,-2.7323601245880127,-0.0,-0.0,-1.0,0.0348789537697479,1.0
43.01128387451172,29.34658432006836,-2.5500874519348145,-0.0,-0.0,-1.0,0.0483783213973902,1.0
42.94588470458984,29.37608337402344,-2.561487197875977,-0.0,-0.0,-1.0,0.0666855163594739,1.0
44.517608642578125,29.443679809570312,-2.4657695293426514,-0.0,-0.0,-1.0,0.1411846290570818,2.0
43.990264892578125,28.96669006347656,-2.3979973793029785,-0.0,-0.0,-1.0,0.0987829658107324,1.0
43.36360931396485,29.109600067138672,-2.4730184078216553,-0.0,-0.0,-1.0,0.0239589422640584,1.0
43.26700973510742,29.143627166748047,-2.487529754638672,-0.0,-0.0,-1.0,0.0225100013774323,1.0
43.1280403137207,28.664066314697266,-2.3978421688079834,-0.0,-0.0,-1.0,0.0678008181385249,2.0
42.8813362121582,28.48321533203125,-2.380110025405884,-0.0,-0.0,-1.0,0.1273399279216485,1.0
42.71697998046875,28.37367248535156,-2.371190071105957,-0.0,-0.0,-1.0,0.1417044632098287,1.0
42.79621887207031,29.68993377685547,-1.9908735752105713,-0.0,-0.0,-1.0,0.0441523816958761,2.0
44.82360076904297,30.442184448242188,-2.5359463691711426,-0.0,-0.0,-1.0,0.1850838909442059,1.0
44.551422119140625,30.513973236083984,-2.5442686080932617,-0.0,-0.0,-1.0,0.1172853697572708,1.0
44.294891357421875,30.59584045410156,-2.556027889251709,-0.0,-0.0,-1.0,0.0991852724086715,2.0
45.163063049316406,29.508930206298828,-2.342957019805908,-0.0,-0.0,-1.0,0.1480365895544599,1.0
44.58899688720703,29.467567443847656,-2.3171753883361816,-0.0,-0.0,-1.0,0.1034015385276295,1.0
43.632076263427734,29.701431274414062,-2.351431369781494,-0.0,-0.0,-1.0,0.0463600041750643,1.0
42.8300666809082,29.69451904296875,-2.3468265533447266,-0.0,-0.0,-1.0,0.0911077149580127,1.0
42.81737518310547,28.954120635986328,-2.1881461143493652,-0.0,-0.0,-1.0,0.1041412427396311,1.0
42.71291732788086,29.677764892578125,-1.7167073488235474,-0.0,-0.0,-1.0,0.0392889532756116,1.0
45.093753814697266,30.055158615112305,-2.8051979541778564,-0.0,-0.0,-1.0,0.0574306376959951,1.0
44.809906005859375,30.059926986694336,-2.815798044204712,-0.0,-0.0,-1.0,0.0398750177711752,1.0
44.53630828857422,29.910175323486328,-2.7900679111480713,-0.0,-0.0,-1.0,0.0369496645101019,1.0
44.48068618774414,29.689146041870117,-2.739389657974243,-0.0,-0.0,-1.0,0.0761525995535138,1.0
44.42721176147461,29.28315544128418,-2.6444132328033447,-0.0,-0.0,-1.0,0.0981985455476747,1.0
44.31452941894531,29.2471981048584,-2.6405975818634033,-0.0,-0.0,-1.0,0.0450566826234562,1.0
44.01337432861328,28.992109298706055,-2.5934383869171143,-0.0,-0.0,-1.0,0.0773667399189142,1.0
43.82590103149414,28.89910316467285,-2.580504894256592,-0.0,-0.0,-1.0,0.1261180574265552,1.0
43.531707763671875,28.752685546875,-2.561605453491211,-0.0,-0.0,-1.0,0.0609933754901899,1.0
43.26921081542969,28.59878921508789,-2.5402724742889404,-0.0,-0.0,-1.0,0.0776663586426978,2.0
43.041038513183594,28.415435791015625,-2.511197328567505,-0.0,-0.0,-1.0,0.0840876952077576,2.0
42.78376770019531,28.284587860107425,-2.4974632263183594,-0.0,-0.0,-1.0,0.1030987076411333,1.0
42.844017028808594,28.235836029052734,-2.481696605682373,-0.0,-0.0,-1.0,0.107178993820902,1.0
42.76211929321289,29.718910217285156,-2.217336416244507,0.7492439964931602,-0.1261980710605559,-0.6501595808565404,0.0410622582344496,4.0
42.7470703125,29.67716407775879,-1.5981431007385254,-0.0,-0.0,-1.0,0.0392889532756116,1.0
44.837364196777344,29.621362686157227,-0.8948996067047119,-0.0,-0.0,-1.0,0.01197032191083,1.0
45.20720672607422,30.305889129638672,-2.6418423652648926,-0.0,-0.0,-1.0,0.0916380306268702,1.0
44.94773483276367,30.391204833984375,-2.665261745452881,-0.0,-0.0,-1.0,0.1472945376875325,1.0
44.3812370300293,30.35330581665039,-2.6686782836914062,-0.719386768942612,0.2601205029750017,-0.64406521455699,0.0649966669801853,4.0
44.049320220947266,30.53653335571289,-2.7207489013671875,-0.0,-0.0,-1.0,0.0624495725338788,1.0
43.46424102783203,30.571090698242188,-2.749518871307373,-0.0,-0.0,-1.0,0.0269898951541275,1.0
43.13883209228515,30.477428436279297,-2.74161434173584,-0.0,-0.0,-1.0,0.0144602521445351,1.0
42.9309196472168,29.725643157958984,-2.5766754150390625,-0.0,-0.0,-1.0,0.0943879596834266,2.0
44.79412078857422,29.496028900146484,-2.460446357727051,-0.0,-0.0,-1.0,0.1171906723086763,1.0
44.641361236572266,29.46843719482422,-2.457096576690674,-0.0,-0.0,-1.0,0.1214709068901197,1.0
43.66975402832031,29.71158218383789,-2.5416970252990723,-0.0,-0.0,-1.0,0.0543374054918923,1.0
43.02896881103515,29.48080825805664,-2.5150680541992188,-0.0,-0.0,-1.0,0.0763585623467447,1.0
43.11800003051758,29.340415954589844,-2.478268623352051,-0.0,-0.0,-1.0,0.0538720149680037,1.0
42.87572479248047,28.62476921081543,-2.323699951171875,-0.0,-0.0,-1.0,0.1502898606287654,1.0
42.82688522338867,28.534095764160156,-2.3051400184631348,-0.0,-0.0,-1.0,0.1073182827374874,2.0
42.78074645996094,29.638633728027344,-1.961342692375183,-0.0,-0.0,-1.0,0.0392889532756116,2.0
45.10462951660156,29.90208625793457,-2.8192667961120605,-0.0,-0.0,-1.0,0.040589460377832,1.0
44.85586929321289,29.9252872467041,-2.8244853019714355,-0.0,-0.0,-1.0,0.036688398819297,1.0
44.636322021484375,29.889005661010746,-2.8155245780944824,-0.0,-0.0,-1.0,0.0251040002785453,1.0
45.09602737426758,29.485197067260746,-2.7149996757507324,-0.0,-0.0,-1.0,0.1207836797751131,1.0
44.91029357910156,29.753591537475582,-2.781456470489502,-0.0,-0.0,-1.0,0.0574612779079514,1.0
44.54839324951172,29.651264190673828,-2.756084442138672,-0.0,-0.0,-1.0,0.0779882277893515,1.0
44.82295227050781,29.548093795776367,-2.729837417602539,-0.0,-0.0,-1.0,0.0763705953165365,1.0
44.38590621948242,29.228282928466797,-2.6505165100097656,-0.0,-0.0,-1.0,0.0966071834900218,1.0
44.04353713989258,29.122150421142575,-2.626589775085449,-0.0,-0.0,-1.0,0.0449676283175798,1.0
44.15653991699219,28.89803695678711,-2.5690412521362305,-0.0,-0.0,-1.0,0.0612526329270036,2.0
43.74210739135742,28.79487991333008,-2.548133373260498,-0.1719593685727994,-0.9748164107337928,-0.1419962708106428,0.1239806657561313,4.0
43.47686004638672,28.82834243774414,-2.5612568855285645,-0.0,-0.0,-1.0,0.0502142948322994,1.0
43.27792739868164,28.60495376586914,-2.509188652038574,-0.4397460497146654,0.5424419393427108,-0.7158073443339806,0.0776663586426978,4.0
42.93207931518555,28.544300079345703,-2.503005027770996,-0.0,-0.0,-1.0,0.0931584002884311,1.0
42.78102111816406,29.709991455078125,-2.20340347290039,-0.0120549103787986,-0.8495100270548703,-0.5274347287285815,0.0349591583463268,3.0
42.722450256347656,28.365890502929688,-2.464378833770752,-0.0,-0.0,-1.0,0.1219029845541079,1.0
44.994163513183594,30.148231506347656,-2.784813404083252,-0.0,-0.0,-1.0,0.0441638110893629,2.0
44.35289764404297,29.818309783935547,-2.6929283142089844,-0.0,-0.0,-1.0,0.055440982927684,1.0
44.28876876831055,29.930824279785156,-2.719791889190674,-0.0,-0.0,-1.0,0.0583018624149164,1.0
44.44837951660156,29.409772872924805,-2.594076633453369,-0.0,-0.0,-1.0,0.1034186692515587,2.0
44.00232696533203,29.596115112304688,-2.6347904205322266,-0.0,-0.0,-1.0,0.0367934422694229,2.0
43.671722412109375,29.649574279785156,-2.646272659301758,-0.0,-0.0,-1.0,0.060454264109472,1.0
43.12582778930664,29.270496368408203,-2.5533342361450195,-0.0,-0.0,-1.0,0.0209924669214803,2.0
43.33384323120117,28.954723358154297,-2.474188804626465,-0.0,-0.0,-1.0,0.0363349074348609,1.0
43.16645431518555,28.67466735839844,-2.4052295684814453,-0.2986170102901977,0.5281146361446775,-0.7949357283800491,0.0843763210568739,3.0
42.95197296142578,28.63780212402344,-2.3973755836486816,-0.8938217311081681,-0.1936170582209074,-0.4044689700887813,0.0798711098478707,3.0
42.765830993652344,29.65850830078125,-2.063605308532715,-0.0,-0.0,-1.0,0.0405672080400339,1.0
42.81709671020508,28.50292205810547,-2.365096092224121,-0.0,-0.0,-1.0,0.1579754614135982,2.0
43.85551834106445,29.81891632080078,-0.9145814180374146,-0.0,-0.0,-1.0,0.0391968235046399,1.0
45.029449462890625,30.392349243164062,-2.725860595703125,-0.0,-0.0,-1.0,0.0970038373445227,1.0
44.75688171386719,30.448400497436523,-2.721252918243408,0.7164488221529918,0.0618485642682626,-0.6948926826018139,0.1129216757259113,3.0
44.15442657470703,30.508256912231445,-2.70035171508789,0.4089928444256455,0.7945599512353713,-0.4487753748830971,0.0701118872122957,3.0
43.970401763916016,30.623355865478516,-2.717556953430176,-0.0,-0.0,-1.0,0.0659922431160131,1.0
44.53120422363281,30.331085205078125,-2.6807360649108887,-0.0,-0.0,-1.0,0.0658520744641781,1.0
44.32551956176758,30.34705924987793,-2.672666072845459,0.5657524172965386,0.6734379937446097,-0.4758208390816429,0.0554014470738563,3.0
44.92619323730469,29.425312042236328,-2.4999513626098633,-0.0,-0.0,-1.0,0.1345363247714609,1.0
44.50323867797851,29.343347549438477,-2.453634262084961,0.0280504903984387,-0.4691052036026022,-0.8826967077889032,0.1292318813061331,3.0
43.587364196777344,29.75870132446289,-2.499159812927246,-0.0,-0.0,-1.0,0.0509887763429698,1.0
42.83562850952149,29.63519859313965,-2.4399337768554688,-0.202115274775111,-0.3403111269599311,-0.9183342270490864,0.1872594353836927,4.0
42.83714294433594,29.792743682861328,-1.8907982110977173,-0.0,-0.0,-1.0,0.0402887828835985,1.0
44.5340576171875,30.561655044555664,-2.47890043258667,-0.0,-0.0,-1.0,0.119391716884672,2.0
42.76942825317383,29.632892608642575,-2.19152307510376,-0.0,-0.0,-1.0,0.0266635265393914,1.0
44.44926834106445,29.74143409729004,-1.1219478845596311,-0.0,-0.0,-1.0,0.0941831952212533,1.0
44.56008529663086,30.583559036254883,-2.578752040863037,-0.0,-0.0,-1.0,0.0798466309038687,1.0
44.553810119628906,29.366310119628903,-2.3126463890075684,-0.0,-0.0,-1.0,0.1266062863734531,1.0
44.4818115234375,29.66118049621582,-1.1897276639938354,-0.0,-0.0,-1.0,0.0174906361263183,1.0
44.96639251708984,30.329896926879883,-2.747680425643921,-0.0,-0.0,-1.0,0.0730507097045767,1.0
44.7057991027832,30.437910079956055,-2.74743390083313,-0.0,-0.0,-1.0,0.0826722184819281,2.0
44.12228775024414,30.51636505126953,-2.7152860164642334,0.4089928444256455,0.7945599512353713,-0.4487753748830971,0.0765383900597898,3.0
44.42435836791992,30.255550384521484,-2.682938814163208,0.641820878474645,0.0087161966690729,-0.7668050520632089,0.0790589498411353,4.0
44.27751159667969,30.35662078857422,-2.692668199539185,-0.0,-0.0,-1.0,0.0708372705002287,1.0
44.39698791503906,29.599506378173828,-2.5371334552764893,-0.0,-0.0,-1.0,0.0899477342595307,1.0
44.530574798583984,29.358678817749023,-2.497171401977539,-0.367232148553022,-0.8690552534099749,0.3314868256652985,0.1360030195881582,3.0
42.991607666015625,29.774555206298828,-2.4639158248901367,-0.0,-0.0,-1.0,0.0937053879051839,1.0
42.80792999267578,29.679821014404297,-2.4298930168151855,-0.7788580484388629,0.1313350190964274,-0.6132954044674938,0.1377485690271927,5.0
42.84454727172851,28.900787353515625,-2.2560300827026367,-0.0,-0.0,-1.0,0.087153261567877,1.0
42.7401123046875,29.664196014404297,-1.8426127433776855,-0.0,-0.0,-1.0,0.0392889532756116,1.0
44.76829528808594,30.406036376953125,-2.7132558822631836,0.5124222541930519,-0.175057736605485,-0.8407010302493245,0.1017121411975292,4.0
44.22653579711914,30.46025848388672,-2.666769027709961,-0.0,-0.0,-1.0,0.0818370182464732,1.0
44.35855484008789,30.332368850708008,-2.6541786193847656,-0.2326936997450533,-0.4146306748238476,-0.879735781694754,0.0817728564530143,5.0
44.491554260253906,29.3858642578125,-2.4766008853912354,0.7118720914286568,-0.4455003749598034,-0.5429249868588336,0.1292318813061331,4.0
42.7615966796875,29.650331497192383,-2.3563623428344727,-0.0,-0.0,-1.0,0.0911077149580127,2.0
43.74415969848633,28.80106735229492,-2.5920236110687256,-0.3659330184463171,-0.919011027476383,-0.1466688698653205,0.1239806657561314,3.0
44.41619873046875,28.331758499145508,-2.596863269805908,-0.0,-0.0,-1.0,0.0174986890623916,2.0
44.00437927246094,28.480985641479492,-2.5653860569000244,-0.0,-0.0,-1.0,0.0504860075179351,1.0
43.8144416809082,28.508310317993164,-2.5436248779296875,-0.0,-0.0,-1.0,0.0599663523481698,2.0
43.27212142944336,28.650142669677734,-2.497533082962036,-0.0,-0.0,-1.0,0.0795089073251001,2.0
43.0047492980957,28.621410369873047,-2.456357717514038,-0.0,-0.0,-1.0,0.0526724210782916,1.0
42.831050872802734,28.528148651123047,-2.414755582809448,-0.0,-0.0,-1.0,0.1273399279216486,1.0
42.77587890625,29.755220413208008,-2.0674684047698975,-0.0,-0.0,-1.0,0.0355887672909003,2.0
43.755489349365234,29.204179763793945,-2.6288540363311768,-0.0,-0.0,-1.0,0.032116772636774,1.0
44.91083526611328,28.382190704345703,-2.651309013366699,-0.0,-0.0,-1.0,0.014417326597286,1.0
44.67057418823242,28.50146484375,-2.634860038757324,-0.0,-0.0,-1.0,0.0150978028876898,1.0
44.261199951171875,28.63410186767578,-2.5961079597473145,-0.3096418970440145,-0.1111383759087739,-0.9443358285034746,0.0162108698363976,3.0
44.73826599121094,28.31125259399414,-2.6114659309387207,-0.0,-0.0,-1.0,0.0145261284904391,1.0
44.247371673583984,28.594188690185547,-2.586876392364502,-0.0,-0.0,-1.0,0.0154140431064674,2.0
43.7872428894043,28.667652130126953,-2.5323376655578613,-0.7044650675732544,-0.4558278736724281,-0.544012792268971,0.1085271919736291,4.0
43.548221588134766,28.76988220214844,-2.517157793045044,-0.0,-0.0,-1.0,0.066228697086341,2.0
44.51374053955078,28.354183197021484,-2.5840039253234863,-0.0,-0.0,-1.0,0.0215107940563082,1.0
44.193603515625,28.45471572875977,-2.5531415939331055,-0.0,-0.0,-1.0,0.0235128416905063,1.0
43.238285064697266,28.61150360107422,-2.443409204483032,-0.801099807743467,-0.2930739780289347,-0.5218685097183724,0.0851092224406749,3.0
42.96330642700195,28.596466064453125,-2.4026336669921875,-0.0,-0.0,-1.0,0.0813982457071902,2.0
42.80133819580078,28.356369018554688,-2.334057331085205,0.1057672594049611,0.11285211468249,-0.9879664402446338,0.1327650406435581,3.0
44.86547088623047,30.32896423339844,-2.6399595737457275,-0.0,-0.0,-1.0,0.1938888105266002,1.0
44.532981872558594,30.524028778076172,-2.6311280727386475,-0.0,-0.0,-1.0,0.0921422332583745,1.0
42.75616455078125,29.648242950439453,-2.262864351272583,-0.0,-0.0,-1.0,0.0646986280773968,1.0
44.10768127441406,28.210708618164062,-2.6430492401123047,-0.0,-0.0,-1.0,0.0242360358489338,1.0
43.916717529296875,28.35136032104492,-2.6337056159973145,-0.0,-0.0,-1.0,0.0596468936120361,1.0
43.45293426513672,28.533363342285156,-2.5874714851379395,-0.0,-0.0,-1.0,0.0514961237366543,1.0
44.76573181152344,30.63427734375,-2.453494071960449,-0.0,-0.0,-1.0,0.1378979231288158,2.0
44.48054122924805,30.60454559326172,-2.4116291999816895,0.1509243198435443,0.86056630064586,0.4864642760496014,0.1402928873375016,6.0
43.04218673706055,28.418956756591797,-2.502387046813965,-0.0,-0.0,-1.0,0.0840876952077576,2.0
43.32686996459961,28.184799194335938,-2.5088343620300293,-0.0,-0.0,-1.0,0.0399593627756711,2.0
42.80454635620117,29.73968505859375,-2.069239616394043,-0.0339920671959199,0.0510712138387884,-0.998116361194816,0.0405672080400339,3.0
43.71263885498047,30.43405532836914,-2.699953556060791,-0.0,-0.0,-1.0,0.0391761832912501,2.0
44.2872314453125,30.042888641357425,-2.710634708404541,-0.0,-0.0,-1.0,0.0360688364781507,1.0
44.22552490234375,29.427837371826172,-2.604078531265259,-0.0,-0.0,-1.0,0.0647720188336042,2.0
44.102745056152344,29.528564453125,-2.6033825874328613,0.0118283693076529,-0.4028779830590095,-0.9151772617618,0.0426671730574936,3.0
44.31695556640625,29.251182556152344,-2.588918447494507,-0.0,-0.0,-1.0,0.0468877971270539,1.0
42.85966491699219,29.66678237915039,-2.46326208114624,-0.3415533289229217,-0.3762197332710013,-0.861278140787961,0.1772813272422674,3.0
45.095062255859375,28.491361618041992,-2.585231304168701,-0.0,-0.0,-1.0,0.0165503399003642,1.0
44.648704528808594,28.86151885986328,-2.575561761856079,-0.0,-0.0,-1.0,0.0111462250782425,2.0
43.76022720336914,28.884906768798828,-2.4546656608581543,-0.0,-0.0,-1.0,0.0930992757550056,1.0
42.82183837890625,28.613658905029297,-2.284536123275757,-0.0,-0.0,-1.0,0.0942390004632273,1.0
42.72008514404297,28.34461212158203,-2.227550983428955,-0.0,-0.0,-1.0,0.1414246936386358,2.0
45.12401580810547,30.293258666992188,-2.754453659057617,-0.0,-0.0,-1.0,0.0812693575867581,1.0
44.75251388549805,30.37759780883789,-2.7108049392700195,-0.4561770457785526,0.1780021053223717,-0.8719046699069545,0.1463850598624408,3.0
44.25040054321289,30.420555114746097,-2.643957138061523,-0.0,-0.0,-1.0,0.0793080613478315,1.0
42.7355842590332,29.677284240722656,-2.3285036087036133,-0.0,-0.0,-1.0,0.0767820965567665,2.0
42.79273986816406,30.54041290283203,-2.7370071411132812,-0.0,-0.0,-1.0,0.017290860087664,2.0
43.44961929321289,28.165119171142575,-2.5334103107452393,-0.0,-0.0,-1.0,0.0325155589076822,1.0
44.040077209472656,28.2806396484375,-2.5881989002227783,-0.2103360431687557,-0.9518967769401,-0.2228256605401661,0.0394224155677942,3.0
42.982181549072266,29.05712127685547,-2.6224334239959717,-0.0,-0.0,-1.0,0.0374304655823242,1.0
44.431148529052734,28.350887298583984,-2.6237308979034424,-0.0,-0.0,-1.0,0.0175250937437089,2.0
43.25802993774414,30.5728759765625,-2.8458502292633057,-0.0,-0.0,-1.0,0.0136471904096843,1.0
43.46541976928711,30.48895263671875,-2.8477609157562256,-0.0,-0.0,-1.0,0.0306420458671958,1.0
43.772552490234375,30.501514434814453,-2.869272470474243,-0.0,-0.0,-1.0,0.0424181042611786,1.0
44.024192810058594,28.292537689208984,-2.624032497406006,-0.2103360431687557,-0.9518967769401,-0.2228256605401661,0.0326065825338448,3.0
44.47804260253906,30.619504928588867,-2.458281993865967,-0.2816559038579824,0.9092040496651558,0.3066234627265558,0.1367328980684674,3.0
42.749813079833984,29.765907287597656,-2.2529191970825195,-0.0,-0.0,-1.0,0.0483699577284665,2.0
44.83258438110352,30.441993713378903,-2.6867079734802246,-0.0,-0.0,-1.0,0.096986312131673,1.0
42.73686218261719,29.759498596191406,-2.3063995838165283,-0.0,-0.0,-1.0,0.0697493128321982,2.0
44.49739837646485,29.506591796875,-2.414747714996338,-0.0,-0.0,-1.0,0.1293508031151183,1.0
44.83180618286133,30.31343460083008,-2.5377912521362305,-0.0,-0.0,-1.0,0.1558402617235089,1.0
45.13230895996094,30.2633056640625,-2.5560524463653564,-0.0,-0.0,-1.0,0.1177479496317095,1.0
44.35411071777344,30.632617950439453,-2.5381250381469727,-0.0,-0.0,-1.0,0.141509891525337,1.0
44.71620178222656,30.559383392333984,-2.557976007461548,-0.6986666057611244,-0.6028887993926831,-0.3852143164020236,0.1429767026907232,3.0
42.75963592529297,29.588333129882812,-1.9964781999588013,-0.0,-0.0,-1.0,0.0433739830237185,2.0
44.19625473022461,30.449378967285156,-2.71535587310791,-0.0,-0.0,-1.0,0.0672913275498091,1.0
44.31966400146485,30.32797622680664,-2.706636905670166,-0.0,-0.0,-1.0,0.0681769888019065,2.0
44.82195663452149,30.35531997680664,-2.7496399879455566,-0.0,-0.0,-1.0,0.109923204807677,1.0
45.024959564208984,30.17081069946289,-2.7627153396606445,0.6968160780632702,-0.3242621795001185,-0.6397666701996563,0.0721981716977418,3.0
44.3673095703125,29.401029586791992,-2.593700647354126,-0.0,-0.0,-1.0,0.0729665758081451,1.0
44.8394889831543,29.431732177734375,-2.493222951889038,-0.0,-0.0,-1.0,0.0949277689274237,1.0
42.87555694580078,29.73626136779785,-1.7396951913833618,-0.0,-0.0,-1.0,0.0392889532756116,1.0
44.67031478881836,30.52631378173828,-2.5452942848205566,-0.0,-0.0,-1.0,0.1291399762885016,2.0
44.483253479003906,30.43050765991211,-2.5327062606811523,0.2183452307388944,0.8570982378453762,-0.4665918675844335,0.1722327557213211,3.0
42.777366638183594,28.439800262451172,-2.2889442443847656,-0.0,-0.0,-1.0,0.1574058071544367,2.0
44.79273986816406,30.549352645874023,-2.5645720958709717,-0.0,-0.0,-1.0,0.1690221757631601,1.0
44.445072174072266,30.43366050720215,-2.5447819232940674,0.3105990218003407,0.2642834082241145,-0.9130621708263448,0.1660887090058829,3.0
42.79424285888672,29.554224014282227,-1.941604495048523,-0.0,-0.0,-1.0,0.0392889532756116,1.0
42.72573471069336,29.67148780822754,-1.954306960105896,-0.0,-0.0,-1.0,0.0392889532756116,1.0
44.0919189453125,28.625423431396484,-2.5442538261413574,-0.0,-0.0,-1.0,0.0383870729986499,1.0
43.78298568725586,28.656700134277344,-2.5409340858459473,-0.9337840013118875,0.091424557499083,0.3459609648212605,0.0869616025958665,3.0
43.599700927734375,28.78891372680664,-2.553250789642334,-0.0,-0.0,-1.0,0.0733522858363344,2.0
43.43376922607422,28.731279373168945,-2.5424137115478516,-0.0,-0.0,-1.0,0.0505754083556985,1.0
44.69950866699219,30.56222152709961,-2.5321414470672607,0.479021538815611,-0.6811123591120335,-0.5537366879804555,0.1428577863464691,4.0
44.413909912109375,30.53983497619629,-2.524803400039673,-0.005453439903118,0.6663531019348755,-0.7456163916753659,0.1090781856605445,6.0
45.10102844238281,30.33876609802246,-2.609708309173584,-0.0,-0.0,-1.0,0.125358526178979,1.0
44.89862060546875,30.447221755981445,-2.6146862506866455,-0.0,-0.0,-1.0,0.1644742630840071,1.0
44.731990814208984,30.511484146118164,-2.6159965991973877,-0.0,-0.0,-1.0,0.1673881575547291,2.0
44.443946838378906,30.395523071289062,-2.59170913696289,0.1155667403854663,-0.3953843897668143,-0.9112165016314194,0.1130946054845713,3.0
44.36772155761719,30.484628677368164,-2.599447965621948,-0.0,-0.0,-1.0,0.0885125457818878,2.0
42.82646179199219,28.45959854125977,-2.3043346405029297,-0.9674810003161128,0.0343705242031363,0.250597647820835,0.1386409913798512,3.0
42.772064208984375,29.62139320373535,-2.4409983158111572,0.0976805930324129,-0.3882917535687919,-0.9163449218800248,0.1403080086455504,3.0
44.80091094970703,30.62461280822754,-2.432271718978882,-0.0,-0.0,-1.0,0.151742469023458,2.0
44.634891510009766,30.58237075805664,-2.4164092540740967,-0.6156838841545208,0.5518138897966616,-0.5625253646013495,0.0753871267621372,3.0
42.77500915527344,29.760448455810547,-2.211479425430298,0.8291802481503056,-0.1828226421548538,-0.5282385801822086,0.0370227643904085,3.0
44.866432189941406,30.318376541137695,-2.6943092346191406,-0.0,-0.0,-1.0,0.1647629290734389,1.0
43.76213836669922,28.8107852935791,-2.4481916427612305,-0.0,-0.0,-1.0,0.1123111764150966,2.0
43.259918212890625,28.593666076660156,-2.393388271331787,-0.0,-0.0,-1.0,0.0851092224406749,2.0
42.803672790527344,28.420886993408203,-2.3467659950256348,-0.0,-0.0,-1.0,0.1867686143095568,2.0
43.76573944091797,28.74039077758789,-2.4836649894714355,-0.0,-0.0,-1.0,0.1242315865774333,2.0
43.29579544067383,28.566688537597656,-2.438485622406006,0.1052316650840733,-0.0679161932277824,-0.9921258425023912,0.0741432497853046,4.0
43.66539001464844,28.850589752197266,-2.494040012359619,-0.0,-0.0,-1.0,0.0840705763269473,1.0
42.87108612060547,28.375534057617188,-2.3931431770324707,-0.4410750845023123,0.4897465483553966,-0.7520645505574991,0.1398643457059206,3.0
42.83100128173828,28.476314544677734,-2.405135154724121,-0.0,-0.0,-1.0,0.173871609869032,1.0
44.01741027832031,28.28405380249023,-2.581387519836426,-0.2505102302199433,-0.9462252293476934,-0.2047008546661602,0.050881238479075,4.0
42.86344146728515,29.679405212402344,-1.9382710456848145,-0.0,-0.0,-1.0,0.0392889532756116,1.0
44.63053131103515,30.56366729736328,-2.4299843311309814,-0.6156838841545208,0.5518138897966616,-0.5625253646013495,0.0806614976931871,3.0
42.77893829345703,29.702207565307617,-2.1908187866210938,-0.0120549103787986,-0.8495100270548703,-0.5274347287285815,0.0304281832296987,3.0
42.81904602050781,29.63419532775879,-1.905805587768555,-0.0,-0.0,-1.0,0.0392889532756116,1.0
44.35781478881836,30.55649185180664,-2.468693733215332,-0.0,-0.0,-1.0,0.1646661482417849,2.0
44.67325592041016,30.41055679321289,-2.4943716526031494,-0.0,-0.0,-1.0,0.1322593829176168,1.0
44.42604064941406,30.54888153076172,-2.5082099437713623,0.2361801170490988,0.9692330807531112,-0.0693266722445799,0.1464752381617229,7.0
42.72821807861328,28.338672637939453,-2.260911703109741,-0.0,-0.0,-1.0,0.1414246936386358,2.0
43.44154357910156,28.634340286254883,-2.5322694778442383,-0.0,-0.0,-1.0,0.0542278044516138,1.0
44.494388580322266,30.54301643371582,-2.505972385406494,-0.0,-0.0,-1.0,0.1767448711430004,2.0
44.829307556152344,30.556081771850582,-2.6324245929718018,-0.0,-0.0,-1.0,0.111011361642464,1.0
44.547943115234375,30.44329261779785,-2.6131317615509033,-0.0,-0.0,-1.0,0.1109440708189669,1.0
45.03504943847656,30.24777030944824,-2.725165843963623,-0.0,-0.0,-1.0,0.0900481539907623,2.0
42.89580535888672,28.4143123626709,-2.382388114929199,-0.4410750845023123,0.4897465483553966,-0.7520645505574991,0.2061749512875902,3.0
42.78761291503906,28.325550079345703,-2.4038314819335938,-0.0,-0.0,-1.0,0.1276080818346725,1.0
44.62694549560547,30.50309181213379,-2.476069450378418,-0.0,-0.0,-1.0,0.0900609244161912,1.0
44.44974899291992,30.542308807373047,-2.4665493965148926,0.8717119990911366,0.0748640339521463,-0.484266008574777,0.2094133182807842,3.0
44.716800689697266,30.53455352783203,-2.5202016830444336,-0.6986666057611244,-0.6028887993926831,-0.3852143164020236,0.1428577863464693,3.0
44.40061950683594,30.576868057250977,-2.50048828125,0.2636032035802148,0.4828412917074231,-0.8350913950488023,0.1678308119402201,6.0
43.84796142578125,28.486068725585938,-2.548283338546753,-0.0,-0.0,-1.0,0.0493959830536967,2.0
43.703277587890625,28.649282455444336,-2.5576741695404053,-0.0,-0.0,-1.0,0.1058504331827981,1.0
44.4647216796875,30.453271865844727,-2.4995620250701904,-0.0,-0.0,-1.0,0.2109445663081585,2.0
45.00518035888672,30.315410614013672,-2.6170058250427246,-0.0,-0.0,-1.0,0.1393890220763269,1.0
44.484466552734375,30.362010955810547,-2.572577476501465,-0.0,-0.0,-1.0,0.1155016417551492,1.0
44.41315460205078,30.493003845214844,-2.577939987182617,-0.0,-0.0,-1.0,0.165447014898498,2.0
44.866493225097656,30.38700294494629,-2.6132631301879883,-0.0,-0.0,-1.0,0.1808798508786903,2.0
44.38298416137695,30.46401023864746,-2.5698165893554688,0.4250271876041017,-0.6255776195919943,-0.6542205527671552,0.1307798955221158,3.0
44.31827926635742,30.590530395507812,-2.5728282928466797,-0.0,-0.0,-1.0,0.102833564371399,2.0
42.78999710083008,30.487695693969727,-2.774794101715088,-0.0,-0.0,-1.0,0.018947525679317,1.0
42.712608337402344,30.38298797607422,-2.7393734455108643,-0.0,-0.0,-1.0,0.0264614543754672,1.0
43.08917999267578,29.28546714782715,-2.55149507522583,-0.0,-0.0,-1.0,0.044660491350306,2.0
42.756378173828125,29.517240524291992,-2.5268874168395996,-0.0,-0.0,-1.0,0.1219924722422641,1.0
43.67366409301758,30.005855560302734,-2.6875295639038086,-0.0,-0.0,-1.0,0.0424773138924693,1.0
43.72721099853515,30.28276252746582,-2.7178330421447754,-0.0,-0.0,-1.0,0.0473055831167713,1.0
43.439849853515625,30.63314437866211,-2.710071086883545,-0.0,-0.0,-1.0,0.0175680851806051,1.0
44.31097412109375,30.412887573242188,-2.581303834915161,-0.0,-0.0,-1.0,0.1322261992313558,1.0
44.46495056152344,30.58277702331543,-2.386293888092041,0.114506386645601,0.7870433362396989,0.6061774280671066,0.1631901655976199,4.0
44.460296630859375,30.129409790039062,-2.6227734088897705,-0.0,-0.0,-1.0,0.0430085220227709,1.0
44.76744079589844,29.8480281829834,-2.64082407951355,-0.0,-0.0,-1.0,0.0529631617857305,1.0
44.42852783203125,30.441572189331055,-2.645817995071411,-0.0,-0.0,-1.0,0.0919431048857142,2.0
42.81350326538086,29.63588523864746,-2.4427218437194824,-0.1008632599888747,-0.0683580870544603,-0.9925491296246604,0.1872594353836927,6.0
