x,y,z,nx,ny,nz,curvature,density
11.549520492553713,5.679864883422852,-0.0265431404113769,-0.5873335879403907,0.6993143366827981,-0.4074293987759907,0.1813180418455625,4.0
11.704524993896484,7.588150978088379,-0.1712946891784668,-0.0,-0.0,-1.0,0.0456531064589559,1.0
9.88348388671875,7.621063232421875,-0.2907774448394775,0.1183281527242885,0.1115348946146015,-0.9866906382226232,0.0258714974767701,3.0
10.18125057220459,7.447998046875,-0.3021717071533203,-0.0,-0.0,-1.0,0.0309394496227284,1.0
10.405866622924805,7.336236000061035,-0.3086156845092773,-0.0,-0.0,-1.0,0.0307069239153979,1.0
10.633817672729492,7.300262451171875,-0.3018507957458496,-0.0,-0.0,-1.0,0.0182963759628079,1.0
10.926229476928713,7.1973161697387695,-0.3053946495056152,-0.0,-0.0,-1.0,0.014680033023592,1.0
11.15853500366211,7.082281112670898,-0.3159241676330566,-0.0,-0.0,-1.0,0.0288851862825419,2.0
11.27457046508789,7.0576629638671875,-0.3152394294738769,-0.0,-0.0,-1.0,0.0301315672848088,1.0
11.577066421508787,5.794164657592773,-0.0268177986145019,-0.0,-0.0,-1.0,0.161863076307014,2.0
11.489178657531738,6.991316795349121,-0.3189826011657715,-0.0,-0.0,-1.0,0.0299683172267227,1.0
11.650375366210938,6.913106918334961,-0.3278231620788574,-0.0,-0.0,-1.0,0.033255949159102,2.0
9.723024368286133,7.256416320800781,-0.2212040424346923,-0.0,-0.0,-1.0,0.0560176748648799,2.0
10.050409317016602,7.249499320983887,-0.1957137584686279,0.6954269150646949,0.4726463895914302,0.5412825474830932,0.129023553058578,4.0
10.25387191772461,7.018446922302246,-0.219069242477417,-0.0,-0.0,-1.0,0.0198852520161766,1.0
10.563085556030272,6.797421455383301,-0.2350165843963623,-0.0,-0.0,-1.0,0.0205050827748543,1.0
10.74882698059082,6.687878608703613,-0.241718053817749,-0.0,-0.0,-1.0,0.0250192088562969,1.0
10.951744079589844,6.559108734130859,-0.2519495487213135,0.3696001909849601,0.8748444420913615,0.3131180304066431,0.0491394563097987,3.0
11.310543060302734,6.372264862060547,-0.2650179862976074,-0.0,-0.0,-1.0,0.0304423902417576,2.0
11.558670997619627,6.280555725097656,-0.2688910961151123,-0.0,-0.0,-1.0,0.0354306000718558,1.0
11.536766052246094,5.764188766479492,0.1536853313446045,0.7807843166063703,0.5779999607344911,-0.2372591332961708,0.1622788238489418,10.0
11.66695785522461,5.654126167297363,0.1405117511749267,-0.0,-0.0,-1.0,0.1866288478364579,1.0
9.719199180603027,7.005675315856934,-0.186417818069458,-0.0,-0.0,-1.0,0.0706439244457961,2.0
10.04567813873291,6.7007856369018555,-0.2057254314422607,-0.0,-0.0,-1.0,0.0652507197352725,2.0
10.308016777038574,6.4440107345581055,-0.2258553504943847,-0.0,-0.0,-1.0,0.0362423974996233,1.0
10.682538032531738,6.245233535766602,-0.230698823928833,0.4869768892057943,0.3105486615282574,-0.8163412510724026,0.0399996446539555,3.0
11.020004272460938,6.031070709228516,-0.2438652515411377,0.5708207769593708,0.0646357743806073,-0.818526638089268,0.0356318034243334,4.0
11.301368713378906,5.837553024291992,-0.2597246170043945,-0.0,-0.0,-1.0,0.0434862774844705,1.0
11.513127326965332,5.768475532531738,-0.2595784664154053,-0.0,-0.0,-1.0,0.1657572627386608,1.0
9.878548622131348,7.559738159179688,-0.3007454872131347,-0.3486977966508637,0.1725099994294291,-0.9212220941269764,0.0398319162347796,3.0
10.200154304504396,7.300394058227539,-0.3029844760894775,-0.0,-0.0,-1.0,0.0374460725983282,2.0
11.502897262573242,5.65580940246582,0.060840368270874,0.5191702314805081,0.6201021433675533,-0.5881629047597632,0.137437613290092,7.0
10.042804718017578,7.543217658996582,-0.2835266590118408,-0.0,-0.0,-1.0,0.0313781669575608,2.0
10.595870971679688,7.124882698059082,-0.2869319915771484,-0.0,-0.0,-1.0,0.005895078001611,2.0
10.900859832763672,6.876788139343262,-0.2956621646881103,0.2758459426672549,0.2800179358928085,-0.919510180200494,0.0154838180966551,3.0
11.223166465759276,6.6530256271362305,-0.3016736507415771,-0.0,-0.0,-1.0,0.0545444835707565,1.0
11.559027671813965,6.4868364334106445,-0.2993044853210449,-0.0,-0.0,-1.0,0.0341030541067326,1.0
9.755578994750977,5.809731483459473,-0.1617875099182129,0.99892389488235,-0.0327267009647224,-0.0328635858822766,0.0138528493652397,3.0
11.455548286437988,5.721111297607422,0.0017437934875488,0.695047010914097,0.4053387576853547,0.5938098552040653,0.176644699704378,12.0
11.147394180297852,5.933565139770508,-0.2393097877502441,-0.5518462602248461,-0.5254475108755149,-0.6475883093374812,0.0326145589721698,3.0
11.408449172973633,5.740207672119141,-0.2282302379608154,-0.0,-0.0,-1.0,0.182961407464481,2.0
10.649768829345703,6.5965576171875,-0.2333507537841797,-0.0,-0.0,-1.0,0.0249606210808316,2.0
10.796744346618652,6.423819541931152,-0.2313666343688964,-0.0,-0.0,-1.0,0.026806948272908,2.0
11.0106840133667,6.156946182250977,-0.2316398620605468,-0.0,-0.0,-1.0,0.0340368706278938,2.0
10.254380226135254,7.072053909301758,-0.2427682876586914,-0.0,-0.0,-1.0,0.0538946760491956,2.0
10.49651050567627,6.7935991287231445,-0.2349424362182617,-0.0,-0.0,-1.0,0.0215624471855295,1.0
9.860976219177246,7.445653915405273,-0.2683610916137695,-0.0,-0.0,-1.0,0.0356732189707249,2.0
10.09326457977295,7.256833076477051,-0.2494463920593261,-0.0,-0.0,-1.0,0.0964780179247258,2.0
10.20650577545166,5.77293586730957,-0.1670184135437011,-0.0,-0.0,-1.0,0.0116893912600653,1.0
10.340410232543944,5.637868881225586,-0.1601340770721435,-0.0,-0.0,-1.0,0.009888456458573,1.0
11.43486213684082,5.7214555740356445,-0.0061450004577636,0.8825491819782517,-0.3164420228120971,0.3478094127364972,0.1327213341817532,9.0
11.521178245544434,5.665044784545898,-0.0003409385681152,0.4038915718216898,0.5930100896681565,0.6965706222366612,0.1805341170695056,4.0
10.077320098876951,6.922797679901123,-0.2000404596328735,-0.8059246393031935,0.1895251044086454,-0.5608615787900875,0.0448149089650901,3.0
10.58908462524414,6.0787506103515625,-0.1934528350830078,-0.0270899236908383,0.8659721713060439,-0.49935792229414,0.0528938711261322,3.0
10.65117645263672,5.725832939147949,-0.1963653564453125,-0.0,-0.0,-1.0,0.0220934896418137,1.0
10.916160583496094,6.273743629455566,-0.4804918766021728,-0.0,-0.0,-1.0,0.0965043342747148,1.0
10.416645050048828,6.468029975891113,-0.481682538986206,-0.0,-0.0,-1.0,0.1188920365511432,1.0
10.155265808105469,6.624879360198975,-0.4774954319000244,-0.0,-0.0,-1.0,0.2174696143514151,1.0
9.981643676757812,6.794946193695068,-0.4689366817474365,-0.0,-0.0,-1.0,0.2122955721182417,1.0
11.706253051757812,5.871162414550781,-0.4878003597259521,-0.0,-0.0,-1.0,0.0982081823523163,1.0
11.271724700927734,5.997249603271484,-0.4923787117004394,-0.0,-0.0,-1.0,0.0885424670327019,1.0
9.781438827514648,7.1775431632995605,-0.092387318611145,-0.0,-0.0,-1.0,0.1475696018278785,1.0
9.847858428955078,5.816117286682129,-0.1505200862884521,-0.0,-0.0,-1.0,0.0185908572188519,2.0
11.09952163696289,6.803491115570068,-0.2711949348449707,-0.0,-0.0,-1.0,0.0226096029444829,1.0
10.906150817871094,7.006503582000732,-0.2741001844406128,-0.0,-0.0,-1.0,0.0127709719842226,1.0
11.53260612487793,6.419285774230957,-0.2624828815460205,-0.0,-0.0,-1.0,0.0306893957025609,1.0
11.185779571533203,6.674317836761475,-0.271194577217102,-0.0,-0.0,-1.0,0.0549240680078456,2.0
11.478670120239258,5.678322792053223,0.01577889919281,0.6780101443507186,-0.0277034259862337,0.7345303018570052,0.1830223981248466,9.0
11.41506004333496,5.671932220458984,0.4489660263061523,-0.0,-0.0,-1.0,0.2324973022154886,2.0
10.757680892944336,7.612857818603516,-0.2428426742553711,-0.0,-0.0,-1.0,0.0339193204822265,2.0
9.899225234985352,7.620652198791504,-0.2889361381530761,0.1183281527242885,0.1115348946146015,-0.9866906382226232,0.0258714974767702,3.0
10.941165924072266,6.829471588134766,-0.2659149169921875,-0.0,-0.0,-1.0,0.0153483900049848,2.0
10.832389831542969,7.012166976928711,-0.2640491724014282,-0.0,-0.0,-1.0,0.0132706797020435,1.0
11.643657684326172,6.2262372970581055,-0.2539070844650268,0.8260903262631998,-0.5216492889296209,-0.2132059854074952,0.0335340557042198,3.0
11.28117561340332,6.433435440063477,-0.2644801139831543,0.1312490191905906,-0.0153182546065927,-0.99123107600464,0.0339902070928537,3.0
11.119741439819336,6.679732322692871,-0.2626616954803467,-0.0,-0.0,-1.0,0.0745314539769287,2.0
11.544744491577148,5.705350875854492,0.2265990972518921,0.1441087168140103,0.1874223927560404,-0.9716509272531058,0.2097379027330801,3.0
11.44854736328125,5.646109580993652,0.2398228645324707,0.069230413700251,0.9834046855264428,0.1676972698153737,0.1533331151449561,6.0
9.762441635131836,7.478971481323242,-0.2794996500015259,-0.0,-0.0,-1.0,0.0295617227838598,1.0
10.443683624267578,7.005290985107422,-0.2615529298782348,-0.0,-0.0,-1.0,0.0109914735102748,2.0
10.127239227294922,7.252346038818359,-0.2684589624404907,-0.0,-0.0,-1.0,0.0847050851020987,2.0
9.87160873413086,7.408376693725586,-0.2762843370437622,-0.0,-0.0,-1.0,0.0403140598852046,2.0
10.855474472045898,6.694167137145996,-0.2525925636291504,0.0114310260509046,0.8737179521949057,-0.4862985416961108,0.0332967183724458,3.0
10.593423843383787,6.881077766418457,-0.258752703666687,-0.0,-0.0,-1.0,0.0088420821885587,1.0
11.550699234008787,6.058078765869141,-0.2443748712539672,-0.0,-0.0,-1.0,0.0322019919790763,2.0
11.209060668945312,6.27911376953125,-0.2527517080307007,-0.0,-0.0,-1.0,0.0352617769682608,1.0
11.502769470214844,5.999378204345703,-0.2500982284545898,-0.0,-0.0,-1.0,0.0540349925341676,1.0
10.019306182861328,7.1320037841796875,-0.1885149478912353,0.5574721274267428,0.7928885885678396,0.2460742027543733,0.2238905249723561,7.0
9.713768005371094,7.225336074829102,-0.1996527910232544,0.527315655013349,-0.5845953632955216,-0.6165926217456871,0.0838947545410719,3.0
10.285587310791016,6.64885139465332,-0.2011483907699585,0.2044447119424158,0.629136938899775,-0.7499260442674351,0.0542497700487058,4.0
10.144731521606444,6.852038383483887,-0.1972637176513672,0.5475330509565379,-0.0047369267884531,-0.8367706493626712,0.0455403007266305,3.0
10.74675750732422,6.111242294311523,-0.2076807022094726,-0.0,-0.0,-1.0,0.0414928949863735,2.0
10.477693557739258,6.355155944824219,-0.2076866626739502,0.9640715663265608,-0.2443275001684143,-0.104259712555262,0.2016228291358584,3.0
11.18310546875,5.692151069641113,-0.2097939252853393,-0.0,-0.0,-1.0,0.0905865005214986,2.0
10.869791030883787,5.899764060974121,-0.2135844230651855,0.4990275138372002,0.4922849456284552,-0.7131809537144495,0.0253969303102257,3.0
9.937803268432615,6.968395233154297,-0.1550407409667968,-0.0,-0.0,-1.0,0.1138591284622966,1.0
10.134971618652344,6.57319450378418,-0.1781412363052368,-0.0131049059377836,-0.9826467656789216,-0.1850232291932999,0.0648462602717958,3.0
9.98504638671875,6.720353126525879,-0.1724584102630615,-0.0,-0.0,-1.0,0.0417391306199897,1.0
10.619949340820312,6.164813041687012,-0.1918820142745971,-0.0,-0.0,-1.0,0.0547589786693777,2.0
10.255060195922852,6.369553565979004,-0.1895362138748169,-0.0,-0.0,-1.0,0.0473833861432459,2.0
11.329898834228516,5.684858322143555,-0.2041623592376709,-0.0,-0.0,-1.0,0.1432218954211141,1.0
10.992690086364746,5.8519487380981445,-0.2030384540557861,-0.0,-0.0,-1.0,0.0318099480821238,2.0
10.798147201538086,5.998660087585449,-0.198455810546875,-0.0,-0.0,-1.0,0.0287362373448446,1.0
9.931403160095217,7.131275177001953,-0.1717386245727539,0.8715149758866353,0.4744158915201869,-0.1240613101592269,0.2540509390644834,3.0
9.724191665649414,7.207729339599609,-0.1740453243255615,-0.0,-0.0,-1.0,0.0912952193890587,2.0
10.05637550354004,6.7676286697387695,-0.1968648433685302,0.068069675178741,-0.1529692386254658,-0.9858838325864796,0.0511628778313459,7.0
10.49349308013916,6.404428482055664,-0.2097686529159546,0.8527480489153717,0.506751166652529,-0.1265860188461882,0.1943532079684192,3.0
10.251982688903809,6.473554611206055,-0.2136409282684326,-0.0,-0.0,-1.0,0.0392102998152024,1.0
10.957139015197754,5.992379188537598,-0.2267305850982666,-0.0,-0.0,-1.0,0.0314864028064982,1.0
10.72165298461914,6.142616271972656,-0.2230732440948486,-0.0,-0.0,-1.0,0.0419781617546521,2.0
11.468243598937988,5.704209327697754,-0.2320806980133056,-0.0,-0.0,-1.0,0.1942037181324339,2.0
11.124302864074709,5.819146156311035,-0.235262393951416,-0.0,-0.0,-1.0,0.0269431283987783,2.0
11.694816589355469,7.02299690246582,-0.3116086721420288,-0.0,-0.0,-1.0,0.0233551131773933,1.0
11.50379467010498,5.649788856506348,0.1451432704925537,0.4620797389264984,0.8866662831872675,0.0174704645758301,0.150138622500352,4.0
11.449214935302734,5.681465148925781,0.1460241079330444,-0.2947201462344194,0.2773499562884336,-0.9144490347473534,0.2550479759507049,6.0
10.05231761932373,7.131806373596191,-0.2112507820129394,0.5394987533872229,0.3156318056011739,0.7805880209089652,0.2041661073065019,3.0
9.884347915649414,7.234872817993164,-0.2137931585311889,-0.0,-0.0,-1.0,0.1251646898889627,1.0
10.33401584625244,6.833666801452637,-0.2169501781463623,-0.0,-0.0,-1.0,0.0300915570226812,1.0
10.729865074157717,6.440321922302246,-0.2243813276290893,-0.0,-0.0,-1.0,0.021959833715436,1.0
10.557573318481444,6.609125137329102,-0.2211037874221801,0.8000722871378178,-0.5939234800103943,-0.0844939953275034,0.0345330445699304,3.0
10.994664192199709,6.208070755004883,-0.2278404235839843,-0.0,-0.0,-1.0,0.0270445125999832,2.0
11.391634941101074,5.862165451049805,-0.2340188026428222,0.942344791173577,0.316490868963588,-0.1087190158652156,0.0939242061876286,3.0
11.169178009033203,5.987200736999512,-0.2359689474105835,-0.0,-0.0,-1.0,0.0375424778544483,2.0
10.014364242553713,7.033286094665527,-0.1609092950820922,0.9184648656343396,-0.1946724612864877,-0.3442744884709798,0.1356188790540439,4.0
9.74625301361084,6.820079803466797,-0.1948108673095703,-0.8699203931609318,-0.4013776558059853,0.2865911495186509,0.027283971470034,3.0
10.097514152526855,6.578463554382324,-0.2034717798233032,0.0923086768191053,-0.9388267743747692,-0.3317881792664885,0.0649657065034672,3.0
10.00118350982666,6.541927337646484,-0.2114094495773315,-0.0,-0.0,-1.0,0.0519552085651297,1.0
10.38991355895996,6.2790727615356445,-0.2219270467758178,0.6325186400936914,-0.6938360510725261,-0.3442552892347637,0.1594899858771692,3.0
10.866031646728516,5.971522331237793,-0.2353214025497436,-0.0,-0.0,-1.0,0.028238151845598,2.0
10.720697402954102,6.021950721740723,-0.2356840372085571,-0.0,-0.0,-1.0,0.0502569833171506,1.0
11.102456092834473,5.764347076416016,-0.2489539384841919,-0.0,-0.0,-1.0,0.0581573535560487,1.0
11.434051513671877,5.640078544616699,-0.2504643201828003,-0.0,-0.0,-1.0,0.1421614544482357,1.0
10.796595573425291,7.614286422729492,-0.3256421089172363,-0.0,-0.0,-1.0,0.0360361289351895,1.0
11.370012283325195,7.251209259033203,-0.3309618234634399,-0.0,-0.0,-1.0,0.0453186281541867,1.0
11.666536331176758,7.13829231262207,-0.3263390064239502,-0.0,-0.0,-1.0,0.0336974109923553,2.0
11.436277389526367,7.21637487411499,-0.3310397863388061,-0.0,-0.0,-1.0,0.0466854564612775,2.0
11.375675201416016,5.898310661315918,-0.0159180164337158,-0.0,-0.0,-1.0,0.1776805061641825,1.0
11.49273681640625,5.873195648193359,-0.0150104761123657,-0.3112792391239023,0.4534564270548795,-0.8351541798093735,0.1710324371892458,3.0
9.892650604248049,5.874610900878906,-0.1302165985107422,-0.0,-0.0,-1.0,0.0194687812855663,1.0
11.67150592803955,7.251295566558838,-0.3126492500305176,-0.0,-0.0,-1.0,0.043875831596948,2.0
10.292391777038574,5.695989608764648,-0.1306977272033691,-0.0,-0.0,-1.0,0.0102563765313516,1.0
11.513961791992188,5.762188911437988,-0.0699858665466308,-0.2200198738286651,0.3085149505923392,-0.9254241083856772,0.1480029931699046,5.0
11.415814399719238,5.737232208251953,0.3735546469688415,0.7160430846031693,-0.3671554693981312,0.5936995555691581,0.2343475693852527,3.0
9.759374618530272,6.558916091918945,-0.1554046869277954,-0.0,-0.0,-1.0,0.0235311359989966,1.0
9.974769592285156,7.276889801025391,-0.0798403024673461,-0.0,-0.0,-1.0,0.155495579486453,2.0
9.71146297454834,6.90760612487793,-0.1310445070266723,-0.0,-0.0,-1.0,0.0530529568709134,1.0
9.81353759765625,6.739727973937988,-0.1360582113265991,-0.0,-0.0,-1.0,0.0315610868913601,1.0
9.915050506591797,6.468006610870361,-0.1505154371261596,-0.0,-0.0,-1.0,0.0285744933727818,2.0
10.485552787780762,6.3520917892456055,-0.1153794527053833,0.7810784033055583,0.3057904052371776,-0.5444343449439263,0.1443245276469097,6.0
10.117733001708984,6.168839931488037,-0.1603894233703613,-0.0,-0.0,-1.0,0.0421692098009868,1.0
10.4796724319458,5.928781509399414,-0.1544433832168579,-0.0,-0.0,-1.0,0.0228581641912099,1.0
10.535493850708008,5.765975475311279,-0.1654441356658935,-0.0,-0.0,-1.0,0.0195932260352924,1.0
10.81009292602539,5.673840522766113,-0.1542638540267944,-0.0,-0.0,-1.0,0.0216953512164459,1.0
11.41072940826416,5.745116233825684,-0.104565143585205,0.2170661127426982,0.4942215487824309,-0.8418000733059302,0.188549503568223,3.0
9.951541900634766,7.094966888427734,-0.1691110134124755,-0.0,-0.0,-1.0,0.2532131345258721,2.0
10.087910652160645,6.7965168952941895,-0.193683385848999,-0.4139983122400872,0.4605948223628219,-0.7851482707584089,0.0504243021820845,4.0
10.21479606628418,6.621066093444824,-0.2053312063217163,0.6520150243487759,-0.6104345267869682,0.4497177965456065,0.0635090926005276,3.0
10.392338752746582,6.480618000030518,-0.209712266921997,-0.0,-0.0,-1.0,0.0577843804545948,2.0
10.704346656799316,6.245339870452881,-0.2176487445831298,0.4869768892057943,0.3105486615282574,-0.8163412510724026,0.0413364217880736,3.0
11.042381286621094,6.015471935272217,-0.2254171371459961,0.0537103950468051,-0.8139164066151652,-0.5784939727486998,0.0352141422642695,4.0
11.40080738067627,5.8372578620910645,-0.2270230054855346,-0.0,-0.0,-1.0,0.1519003125679643,2.0
11.48271369934082,5.726497173309326,0.1422393321990966,-0.0149583813192369,0.3740259021511565,-0.9272976174607168,0.2011923044367941,12.0
9.84419059753418,7.348743438720703,-0.2531474828720093,-0.5616892217716645,-0.0219483413920048,-0.8270571252674642,0.0578022486528467,3.0
9.846454620361328,7.316678047180176,-0.2538341283798218,-0.3001868135244623,-0.0872436049636586,-0.9498823244902366,0.0661062377504203,4.0
10.0823974609375,7.065629005432129,-0.2310816049575805,-0.0,-0.0,-1.0,0.1422004137357516,2.0
10.204679489135742,6.808900833129883,-0.2257372140884399,-0.0,-0.0,-1.0,0.0272881587562552,1.0
10.336614608764648,6.517103672027588,-0.2237062454223632,-0.0,-0.0,-1.0,0.0596336456084057,2.0
10.580409049987791,6.062950611114502,-0.2203820943832397,-0.0,-0.0,-1.0,0.0440558957035705,2.0
10.719958305358888,5.794523239135742,-0.2220040559768676,0.1007539983709251,-0.9599913050382776,-0.2612763404198243,0.0209208199430607,3.0
11.393518447875977,5.666328430175781,-0.1545203924179077,0.8806384883476261,-0.4567651894720472,0.125862681233846,0.145289078817058,3.0
11.416125297546388,5.6832051277160645,0.203811764717102,0.6200245992852002,-0.5624023507884724,0.5470585819716451,0.1673414938194954,5.0
9.72919464111328,5.864998817443848,-0.1394541263580322,-0.0,-0.0,-1.0,0.0144396455044794,1.0
9.927478790283203,5.686889171600342,-0.1317943334579467,-0.0,-0.0,-1.0,0.0193531433304892,1.0
10.691211700439451,7.456752777099609,-0.2802729606628418,-0.0,-0.0,-1.0,0.028477693032922,1.0
10.8234224319458,7.17036771774292,-0.2814645767211914,0.2033252158240221,0.1818841862146761,-0.9620691240317089,0.0118969228560662,3.0
10.97169589996338,6.963793754577637,-0.2764067649841308,-0.0,-0.0,-1.0,0.0135762774325182,2.0
11.163040161132812,6.726517677307129,-0.2695639133453369,-0.0,-0.0,-1.0,0.0491654697469277,1.0
11.33892059326172,6.522121429443359,-0.2637908458709717,-0.0,-0.0,-1.0,0.0356586342073506,2.0
11.54715633392334,6.359357833862305,-0.2514971494674682,-0.0,-0.0,-1.0,0.0379002406215602,1.0
11.439842224121094,5.75688362121582,0.0254335403442382,0.9043726689312588,-0.3428610629511829,0.2540794505703629,0.2005685964442544,7.0
11.359682083129885,5.638268947601318,0.3611444234848022,-0.0,-0.0,-1.0,0.1416947053618046,1.0
9.838021278381348,7.124974727630615,-0.0985591411590576,-0.0,-0.0,-1.0,0.1936482344844334,2.0
9.839747428894045,6.254120826721191,-0.1552202701568603,0.4404243313261883,-0.3118859322681505,-0.8418750344493571,0.0280945868956326,4.0
10.043990135192873,5.9843597412109375,-0.1527693271636963,-0.0,-0.0,-1.0,0.0250909659646942,2.0
10.809221267700195,7.492761135101318,-0.3065841197967529,-0.0,-0.0,-1.0,0.0376881245315173,1.0
10.841516494750977,7.5778961181640625,-0.2955496311187744,-0.0,-0.0,-1.0,0.0362702821937784,1.0
11.094491958618164,7.206042289733887,-0.2862946987152099,-0.0,-0.0,-1.0,0.0156652020199892,1.0
11.224791526794434,6.99523401260376,-0.2851812839508056,-0.0,-0.0,-1.0,0.0301885711316429,1.0
11.30815887451172,6.785031318664551,-0.2918856143951416,-0.0,-0.0,-1.0,0.0334598281708011,1.0
11.36347198486328,6.887478828430176,-0.2746832370758056,-0.0,-0.0,-1.0,0.0301864712156597,1.0
11.580872535705566,6.622263431549072,-0.2693009376525879,0.9024548995586098,-0.4125967146605296,0.1238511417549187,0.0290131930293655,3.0
11.476061820983888,5.717155456542969,-0.0246510505676269,-0.1711751166114093,0.7878050716450107,-0.5916605855923392,0.2124183007692978,12.0
9.934004783630373,7.179232120513916,-0.1869680881500244,0.2330582987538252,0.4582146054040704,-0.8577430878627729,0.2148275397677116,4.0
10.064393043518066,6.806266784667969,-0.1819829940795898,-0.4139983122400872,0.4605948223628219,-0.7851482707584089,0.0524177908671177,4.0
10.135973930358888,6.413320064544678,-0.1884527206420898,-0.0,-0.0,-1.0,0.0263933774265056,1.0
10.378305435180664,6.019284248352051,-0.1756693124771118,-0.0,-0.0,-1.0,0.0279185314328392,1.0
10.511733055114746,5.714591979980469,-0.1752738952636718,-0.0,-0.0,-1.0,0.0145703376814559,2.0
10.42029857635498,6.331449031829834,-0.1547765731811523,-0.0160303558498629,0.0724719996350827,-0.9972416141338164,0.1514565573253102,3.0
10.494878768920898,6.269922256469727,-0.1480382680892944,0.4375089373413918,-0.8541343206470527,-0.2811414093284795,0.1716930007176436,4.0
11.33229160308838,7.123226642608643,-0.3342831134796142,0.1952480582759275,-0.4047903269441231,-0.8933213234620287,0.0287552098412045,5.0
11.354690551757812,7.043570518493652,-0.3352229595184326,-0.0,-0.0,-1.0,0.0314165920959469,2.0
11.643875122070312,7.374143123626709,-0.2684874534606933,0.1377150494375028,0.2130616378597807,-0.9672844998401112,0.04579057918333,8.0
11.568629264831545,6.9197797775268555,-0.3080108165740967,0.8827415044855971,-0.3466443346645682,0.3171831355911964,0.0275494089607272,3.0
11.686470985412598,7.462088584899902,-0.2565864324569702,-0.0,-0.0,-1.0,0.0476410236628184,2.0
11.387332916259766,5.670571327209473,-0.0703229904174804,-0.0,-0.0,-1.0,0.1644833911069341,2.0
10.01321506500244,6.788854598999023,-0.197370171546936,0.329539216826345,0.6538649036624817,-0.6810760547339282,0.0455879599597137,3.0
10.067938804626465,6.528438568115234,-0.2033332586288452,-0.0,-0.0,-1.0,0.0543342439507882,2.0
10.246641159057615,6.15920877456665,-0.2016142606735229,-0.0,-0.0,-1.0,0.0363628225082106,2.0
10.485479354858398,5.865180015563965,-0.1914097070693969,-0.0,-0.0,-1.0,0.0187414998069094,1.0
9.956620216369627,7.26197338104248,-0.1849418878555297,0.2226001075839562,0.818345744363888,-0.5298673747128854,0.1874474713514899,4.0
9.997488021850586,7.022544860839844,-0.1891926527023315,0.7307035713323823,0.2187561890870427,-0.6466977814854602,0.1975831840725763,4.0
11.325777053833008,7.15622615814209,-0.3512037992477417,-0.2168490496969686,-0.2931995787266764,-0.9311339842793954,0.0365275002315601,4.0
11.511347770690918,7.052119255065918,-0.32917320728302,-0.0,-0.0,-1.0,0.0323220962064584,1.0
11.445209503173828,5.67422342300415,-0.0951834917068481,0.0020160817742566,0.6893108841088396,-0.7244628634121764,0.1903178992075568,6.0
11.682403564453123,7.386845588684082,-0.2796779870986938,-0.2043793373102889,0.4827210221420019,-0.8515923327876952,0.0407395504102604,6.0
11.432391166687012,5.665088653564453,0.2596808671951294,0.0864553379456461,0.9868328533172948,0.1366981863608693,0.2209228404882554,6.0
9.755157470703123,5.747232437133789,-0.1484837532043457,0.3115051664280506,0.3221886178536508,-0.8939569485239134,0.017774454790932,3.0
11.016693115234377,7.224727153778076,-0.3114718198776245,-0.0,-0.0,-1.0,0.0171623314738088,1.0
11.190003395080566,6.922301292419434,-0.2990034818649292,-0.0,-0.0,-1.0,0.0210373867005916,1.0
11.38996410369873,6.562108993530273,-0.2884479761123657,-0.0,-0.0,-1.0,0.0271459029249722,1.0
11.658241271972656,6.255450248718262,-0.2688764333724975,0.6505849622781947,-0.3919116356833343,-0.6504955623780179,0.0317697578879605,4.0
11.471927642822266,5.646114349365234,0.0309318304061889,0.4190983360592845,-0.6936802969866921,-0.5858022108910085,0.1654671230729865,4.0
11.452431678771973,5.865964412689209,0.0408922433853149,0.2953296122442528,0.5514659308476623,0.7801703322005908,0.1509946035417919,4.0
11.696035385131836,5.702988624572754,-0.214545726776123,-0.0,-0.0,-1.0,0.1825058171654712,1.0
11.263840675354004,6.410582542419434,-0.2664222717285156,-0.0,-0.0,-1.0,0.0331571994357583,2.0
11.41733169555664,6.149435997009277,-0.2468795776367187,-0.0,-0.0,-1.0,0.0273403523421899,2.0
11.652231216430664,5.819847583770752,-0.2184979915618896,-0.0,-0.0,-1.0,0.1878655201016182,2.0
11.092134475708008,6.924481391906738,-0.2904505729675293,-0.0,-0.0,-1.0,0.0120127377201008,2.0
11.172043800354004,6.635805130004883,-0.2787832021713257,0.6822473709116081,-0.1006368950444196,-0.7241620952797906,0.0645466946194632,3.0
11.020090103149414,7.060833930969238,-0.3015843629837036,0.7529913799471222,0.0256338745404745,-0.6575309013281216,0.0129497333189308,3.0
11.481715202331545,5.707884788513184,0.1460211277008056,0.3799052268701267,0.1139770673483208,-0.9179767136019488,0.204977790051402,11.0
10.278282165527344,7.093329906463623,-0.2612977027893066,0.671833103293713,-0.1178929255414011,0.7312602405614765,0.038864559144682,3.0
10.756095886230469,6.882382392883301,-0.2359610795974731,-0.0,-0.0,-1.0,0.0181606981133814,2.0
10.911535263061523,6.608192443847656,-0.229171872138977,0.9508742316557738,-0.3054371822968575,0.0504611062462767,0.0449036446466628,4.0
11.161108016967772,6.254354000091553,-0.2178996801376342,-0.0,-0.0,-1.0,0.0355665559807685,1.0
11.381807327270508,5.900190353393555,-0.2085077762603759,-0.3952679849410853,0.4391282359712645,-0.8068020900155001,0.1625774183835397,3.0
10.891115188598633,7.362189292907715,-0.2969840764999389,-0.0,-0.0,-1.0,0.0247780234369481,2.0
11.134260177612305,6.968166828155518,-0.2717043161392212,-0.0,-0.0,-1.0,0.0163023443320902,2.0
11.244434356689451,6.701595783233643,-0.2575544118881225,-0.0,-0.0,-1.0,0.0530156648151461,1.0
11.534801483154297,6.1629719734191895,0.162113070487976,-0.0,-0.0,-1.0,0.0936762415342223,1.0
11.520536422729492,6.717325687408447,-0.2542166709899902,-0.0,-0.0,-1.0,0.0320531005541585,1.0
10.020458221435549,7.138195991516113,-0.1404036283493042,0.6374705863975868,0.7032878414628855,0.3146704045956536,0.217978760492173,9.0
9.896806716918944,7.069615364074707,-0.1449670791625976,-0.0,-0.0,-1.0,0.2193860905307005,1.0
11.546232223510742,5.653794288635254,-0.0478371381759643,-0.0441236318040753,0.635304513044489,-0.7710001821152335,0.1706678808203738,3.0
11.412376403808594,5.7199907302856445,0.3236461877822876,0.3809359505169588,-0.3284502199352071,-0.8642963928122429,0.1446039969308418,4.0
11.536920547485352,5.769697189331055,0.2406580448150634,0.145813165622848,0.5979321304699062,-0.7881723720625861,0.1664751061851316,4.0
9.936981201171877,7.576550006866455,-0.2737525701522827,-0.0,-0.0,-1.0,0.0258714974767701,1.0
10.816993713378906,6.765259265899658,-0.2177966833114624,-0.0,-0.0,-1.0,0.0286016370574932,1.0
10.949106216430664,6.501616954803467,-0.2088698148727417,-0.0,-0.0,-1.0,0.040073753213685,2.0
11.016380310058594,6.170670032501221,-0.2036689519882202,0.8930693451648121,0.3044602686828654,-0.3312568331679383,0.0335779794205031,3.0
11.417299270629885,5.773909568786621,0.4227008819580078,0.6813241328663363,-0.0577311765716279,-0.7297016768691096,0.2280244669209236,3.0
11.045953750610352,7.043354511260986,-0.2726472616195678,0.3669049499226529,-0.323206948401295,-0.8723061539547788,0.0129497333189308,4.0
10.959762573242188,6.942596912384033,-0.2574673891067505,-0.0,-0.0,-1.0,0.0141907397218166,2.0
10.982019424438477,6.678395748138428,-0.2203668355941772,-0.0,-0.0,-1.0,0.0300299133802879,1.0
10.698429107666016,6.493750095367432,-0.1919267177581787,-0.0,-0.0,-1.0,0.0337127594107473,1.0
11.622331619262695,5.73977518081665,-0.094872236251831,0.9008040380445996,-0.238755654287268,0.3626952199690565,0.1531289666247749,4.0
11.541627883911133,5.689136981964111,-0.087213397026062,0.2432594518605262,0.3707548062883233,-0.8963067068222932,0.2651747650211258,5.0
11.483884811401367,6.037600517272949,0.4296721220016479,-0.0,-0.0,-1.0,0.1652049224609951,1.0
11.483320236206056,5.7152485847473145,0.041934847831726,0.7237891403840774,-0.648558816885949,-0.2355859531075154,0.1776935066637474,13.0
9.90831184387207,7.119313716888428,-0.0659388303756713,-0.0,-0.0,-1.0,0.1666709109623805,2.0
11.121875762939451,6.290285587310791,-0.2087310552597046,-0.0,-0.0,-1.0,0.0367396560987019,2.0
11.66824722290039,7.4578728675842285,-0.2242859601974487,-0.1691622708869969,0.9850315171197276,0.0331215396556714,0.0476410236628185,3.0
11.108583450317385,6.620548725128174,-0.221704363822937,0.4530192989647685,-0.7290241094610194,0.513125094484802,0.0844218719518356,3.0
10.869132995605469,7.058530330657959,-0.2499992847442627,-0.0,-0.0,-1.0,0.0124471100582758,2.0
10.729408264160156,7.397425174713135,-0.2695645093917846,0.1956196108205287,-0.6284592010575795,-0.7528426133452423,0.0202115363138205,3.0
11.52556037902832,5.74049711227417,0.3819460868835449,-0.0,-0.0,-1.0,0.1460359752273025,1.0
11.393919944763184,5.7081427574157715,0.2969984412193298,0.8376645934338602,-0.4702336259237999,-0.2778459392502281,0.1584687424848057,5.0
11.47575569152832,5.678970813751221,0.1538501977920532,0.7059325409805264,0.0519699324466233,-0.7063698561704561,0.256622311317495,10.0
11.545448303222656,5.716139316558838,0.1564475297927856,-0.2953763315066325,-0.1294343423785068,-0.9465725401672752,0.1994563804951174,4.0
11.48984718322754,5.759902000427246,0.2288211584091186,-0.1538289266800356,0.130600236750441,-0.9794285269876496,0.1382831441078659,8.0
11.40363597869873,5.726029872894287,0.2246156930923462,0.9747376091526674,0.2029738328221212,-0.0932106028992359,0.1543432574296555,4.0
11.461222648620604,5.762205123901367,0.1586918830871582,-0.2130544136013381,0.2802184222506471,-0.9359943657289544,0.1704670564226588,8.0
10.033815383911133,7.1633195877075195,-0.2112054824829101,0.668671807180168,0.0885464093747845,0.7382665830641675,0.2208824749560313,4.0
11.449589729309082,5.649253845214844,0.0365171432495117,0.5237841939274004,0.0241445596445098,0.8515087541719089,0.155578543271328,5.0
9.73235034942627,5.6401214599609375,-0.1317089796066284,-0.0,-0.0,-1.0,0.017774454790932,1.0
9.71807861328125,5.693461894989014,-0.1343681812286377,-0.0,-0.0,-1.0,0.017774454790932,2.0
9.95472526550293,7.175962448120117,-0.1177214384078979,0.2338081642354551,0.5988454344659867,0.7659751222827609,0.1789746762466652,7.0
11.614686012268066,6.8760857582092285,-0.2805390357971191,-0.0,-0.0,-1.0,0.0254816523593425,2.0
11.479170799255373,7.093217372894287,-0.299018383026123,0.6468413373209941,-0.5946826045514263,-0.4774399272963247,0.0355400361444254,3.0
11.616994857788086,7.379298210144043,-0.2860922813415527,0.3421574434959558,0.1837069920214252,-0.9215096445196608,0.0478801335390213,6.0
9.878602027893066,7.593025207519531,-0.294532299041748,0.0841895707477845,0.1557943307771551,-0.98419522589525,0.0345182216803238,4.0
10.100930213928224,7.356433868408203,-0.3146626949310303,-0.0,-0.0,-1.0,0.0430730700278588,1.0
10.05919075012207,7.077978134155273,-0.2013407945632934,-0.4129825556579565,0.6808056649366517,-0.6049372325393654,0.1732765339065763,3.0
10.91848087310791,6.603075981140137,-0.2404440641403198,0.9508742316557738,-0.3054371822968575,0.0504611062462767,0.0429560486331642,4.0
10.51262092590332,6.738297462463379,-0.231498122215271,0.5885728863833051,0.8015600171402733,-0.1052781854731067,0.0241655747778475,3.0
10.267120361328123,6.900202751159668,-0.2174724340438842,-0.0,-0.0,-1.0,0.0175628554851336,2.0
11.348472595214844,6.324440956115723,-0.2660014629364013,-0.0,-0.0,-1.0,0.0301041178255661,1.0
10.919069290161133,6.505064964294434,-0.2514646053314209,-0.0,-0.0,-1.0,0.0408013912864873,2.0
11.490676879882812,5.701207160949707,0.1764471530914306,0.4674098316530281,-0.2241668535632125,-0.8551475141972039,0.2639344297585898,8.0
9.808723449707031,6.276715278625488,-0.1730302572250366,0.4404243313261883,-0.3118859322681505,-0.8418750344493571,0.0286265176264871,4.0
10.616186141967772,5.956119537353516,-0.1830402612686157,-0.0,-0.0,-1.0,0.0280461253286668,1.0
10.209943771362305,6.058419227600098,-0.1833961009979248,-0.0,-0.0,-1.0,0.0305526254648869,1.0
10.069194793701172,6.101731300354004,-0.1829559803009033,-0.0,-0.0,-1.0,0.0322459318000236,2.0
11.502408027648926,5.639784812927246,-0.1958124637603759,0.2943578379813896,0.9484153916548878,-0.117735755363558,0.1378273464182198,3.0
11.158780097961426,5.686799049377441,-0.1981184482574463,-0.0,-0.0,-1.0,0.0748896707647114,2.0
10.852483749389648,5.769611358642578,-0.1965031623840332,-0.0,-0.0,-1.0,0.0244166461651792,1.0
11.633678436279297,5.650076866149902,-0.1921474933624267,-0.0,-0.0,-1.0,0.1138288375757044,1.0
9.930088996887209,7.167824745178223,-0.0797963142395019,0.5154634871851727,0.6772506091890498,0.5250038149689605,0.1718158965737175,4.0
10.52012062072754,6.26910400390625,-0.1533589363098144,-0.1375463293819593,0.076618577729784,-0.9875275190191988,0.1121180395737425,4.0
10.396733283996582,7.493597030639648,-0.3236353397369385,-0.0,-0.0,-1.0,0.025542668016791,2.0
10.081514358520508,7.532133102416992,-0.3118565082550049,-0.0,-0.0,-1.0,0.0247387173879555,2.0
11.221343994140623,7.381369590759277,-0.3597117662429809,-0.0,-0.0,-1.0,0.0448649184664378,1.0
11.07927703857422,7.405185699462891,-0.3524421453475952,-0.0,-0.0,-1.0,0.0376862780651615,1.0
11.405526161193848,5.658088684082031,0.2845903038978576,-0.5525164420240614,-0.4269221917740817,-0.7158652271649226,0.1618280402672589,3.0
9.961899757385254,7.168405532836914,-0.1262214183807373,-0.6007060244210103,0.6971852620512844,0.3912607603667744,0.1884778721660184,7.0
10.057161331176758,6.581764221191406,-0.2240381240844726,0.4432711847523452,-0.1177117343126764,-0.888625120269146,0.0613008037908979,3.0
10.82772159576416,6.596789360046387,-0.2733933925628662,-0.0,-0.0,-1.0,0.031340552685988,1.0
10.549402236938477,6.6027069091796875,-0.2533607482910156,0.8000722871378178,-0.5939234800103943,-0.0844939953275034,0.0351961422774987,3.0
10.293983459472656,6.621331214904785,-0.2332704067230224,-0.0,-0.0,-1.0,0.0523191910829944,2.0
11.521910667419434,6.584048271179199,-0.3255624771118164,-0.0,-0.0,-1.0,0.0361064255527629,1.0
11.11770725250244,6.566459655761719,-0.2987971305847168,-0.0,-0.0,-1.0,0.0910162408486049,2.0
11.501261711120604,5.703464508056641,-0.0207200050354003,0.444516256500019,0.4621863058398327,0.7673259518622696,0.1566659785891197,7.0
10.163949012756348,7.133849143981934,-0.220479130744934,-0.0,-0.0,-1.0,0.0837090909880052,1.0
9.889019012451172,7.173281669616699,-0.1946845054626464,-0.0,-0.0,-1.0,0.2143804370999307,2.0
10.734870910644531,7.099870681762695,-0.2684589624404907,-0.0,-0.0,-1.0,0.007430815332429,1.0
10.437358856201172,7.050975799560547,-0.2547574043273926,-0.0,-0.0,-1.0,0.0111697893581834,2.0
11.025590896606444,7.082106590270996,-0.2944556474685669,0.6161517523106501,-0.219108569904598,-0.756537145630588,0.0116634277695011,4.0
11.36191749572754,7.101099967956543,-0.3184037208557129,-0.6502088302050126,-0.7363859095527923,0.1869873507367166,0.0345075319007258,3.0
10.202509880065918,7.593329429626465,-0.3252321481704712,-0.0,-0.0,-1.0,0.0233724850537207,1.0
9.97476291656494,7.5115966796875,-0.3307746648788452,-0.0,-0.0,-1.0,0.035893432197367,1.0
10.386873245239258,7.516436576843262,-0.3479076623916626,-0.0,-0.0,-1.0,0.0249539810870594,2.0
10.626401901245115,7.635032653808594,-0.3372726440429687,-0.0,-0.0,-1.0,0.0369239957696804,1.0
11.216065406799316,7.607726097106934,-0.3741874694824219,-0.0,-0.0,-1.0,0.0366929613572908,2.0
10.943098068237305,7.528132438659668,-0.3739490509033203,-0.0,-0.0,-1.0,0.0329561925693764,2.0
10.10931396484375,5.909770965576172,-0.2144749164581298,-0.0,-0.0,-1.0,0.0183682586484904,1.0
9.8515625,5.860135078430176,-0.2065764665603637,-0.0,-0.0,-1.0,0.018588019968471,1.0
10.652124404907228,6.022741317749023,-0.2316043376922607,-0.0,-0.0,-1.0,0.0485928527026878,2.0
10.337300300598145,5.946831703186035,-0.2229602336883545,-0.0,-0.0,-1.0,0.0213486313967637,1.0
10.995439529418944,5.998211860656738,-0.2588663101196289,0.8011266284022207,-0.5984941925597467,-0.0009092508715228,0.0307572122630513,3.0
11.521743774414062,6.091361045837402,-0.2823419570922851,-0.0,-0.0,-1.0,0.0283926887854388,2.0
11.236838340759276,5.986313819885254,-0.2778120040893554,-0.0,-0.0,-1.0,0.1252119585993208,1.0
10.079660415649414,6.285164833068848,-0.2140223979949951,-0.0,-0.0,-1.0,0.0317951715388795,1.0
9.907422065734863,6.226984977722168,-0.2234810590744018,-0.0,-0.0,-1.0,0.0264384649115289,2.0
10.893851280212402,7.549410820007324,-0.3624051809310913,-0.0,-0.0,-1.0,0.0296604302736535,2.0
10.547160148620604,6.271097183227539,-0.2152143716812133,0.5386109439146768,-0.110565918528528,-0.8352684770511115,0.1093652540637055,5.0
10.280982971191406,6.128684997558594,-0.2360157966613769,-0.0,-0.0,-1.0,0.0465783669233583,1.0
11.180014610290527,7.433933258056641,-0.3809689283370971,-0.0,-0.0,-1.0,0.043595367874109,1.0
10.783868789672852,6.098661422729492,-0.2413758039474487,-0.0,-0.0,-1.0,0.0420119512858191,1.0
11.160463333129885,5.995911598205566,-0.2596491575241089,-0.0,-0.0,-1.0,0.037743521181747,2.0
11.597688674926758,5.990470886230469,-0.2665433883666992,-0.0,-0.0,-1.0,0.0488845783604123,1.0
10.984134674072266,7.471587657928467,-0.3854491710662842,-0.0,-0.0,-1.0,0.0297006152764779,1.0
10.06743335723877,6.884467124938965,-0.1987863779067993,-0.8059246393031935,0.1895251044086454,-0.5608615787900875,0.0429544117074812,3.0
10.299619674682615,6.724094390869141,-0.2202249765396118,-0.0,-0.0,-1.0,0.0492347115592506,2.0
10.461836814880373,6.605184555053711,-0.2371773719787597,-0.0,-0.0,-1.0,0.0324081183175365,2.0
11.128610610961914,7.498005867004395,-0.3774757385253906,-0.0,-0.0,-1.0,0.0369302687951032,1.0
10.768686294555664,6.512316703796387,-0.2492202520370483,-0.0,-0.0,-1.0,0.0321220866386489,2.0
11.147597312927246,6.375096321105957,-0.2702938318252563,0.9492616926559638,0.194384589608326,0.2472182642499069,0.0312515890032457,3.0
11.63885498046875,6.277740478515625,-0.2879981994628906,-0.0,-0.0,-1.0,0.0319441940603058,2.0
11.427095413208008,6.291794776916504,-0.2845203876495361,-0.0,-0.0,-1.0,0.0364975440020445,2.0
11.48011589050293,5.731917381286621,0.1436599493026733,-0.1303964128712549,0.4310893321279257,-0.892837478624082,0.2106975416659564,12.0
10.082521438598633,7.341123580932617,-0.2592750787734985,-0.0,-0.0,-1.0,0.0741770971120348,1.0
9.99267292022705,6.159906387329102,-0.1958802938461303,-0.0,-0.0,-1.0,0.0259551874979198,2.0
10.474649429321287,7.262916564941406,-0.2940711975097656,-0.0,-0.0,-1.0,0.0169721472238673,2.0
10.400189399719238,6.2766828536987305,-0.1982299089431762,0.6325186400936914,-0.6938360510725261,-0.3442552892347637,0.1749392617630516,3.0
10.880670547485352,7.268198490142822,-0.3144445419311523,-0.0,-0.0,-1.0,0.0148896893196873,1.0
10.688325881958008,6.257516860961914,-0.2225733995437622,0.4869768892057943,0.3105486615282574,-0.8163412510724026,0.0466837013884109,3.0
11.2053861618042,7.280950546264648,-0.3321478366851806,-0.0,-0.0,-1.0,0.0312903594243047,1.0
10.967001914978027,6.392372131347656,-0.2161760330200195,0.9371051988757892,-0.3488555809764379,-0.0115598383016005,0.0332186317787948,4.0
10.852527618408203,6.326323509216309,-0.2208278179168701,-0.0,-0.0,-1.0,0.0266721243769003,1.0
11.411781311035156,7.417966365814209,-0.3135322332382202,-0.0,-0.0,-1.0,0.0446566724155788,1.0
11.232551574707031,6.35093879699707,-0.2472374439239502,-0.0,-0.0,-1.0,0.0430217372764913,1.0
11.148515701293944,6.336040496826172,-0.2431111335754394,0.9492616926559638,0.194384589608326,0.2472182642499069,0.0304941037871771,3.0
11.616273880004885,6.398394584655762,-0.2725465297698974,-0.0,-0.0,-1.0,0.0275426230513599,1.0
11.47851276397705,5.785740852355957,-0.0607130527496337,0.1381056650014432,0.5757481447202749,-0.8058789606049228,0.1879215584685091,4.0
11.475921630859377,5.726710319519043,0.2565177679061889,-0.2836428443438196,-0.4522767084221533,-0.8455723007947757,0.2238968492456155,5.0
9.953022003173828,6.178325653076172,-0.2016357183456421,-0.0,-0.0,-1.0,0.0260817769424941,2.0
10.175169944763184,6.124058723449707,-0.2154160737991333,-0.0,-0.0,-1.0,0.0383940957039846,2.0
10.478534698486328,6.303335666656494,-0.1882444620132446,0.6608413348452412,0.6829340524418873,-0.3112712806785448,0.2475176709914606,4.0
10.47551441192627,6.148995399475098,-0.2179683446884155,-0.0,-0.0,-1.0,0.0967141802990512,1.0
10.839116096496582,6.149569511413574,-0.2294806241989135,-0.0,-0.0,-1.0,0.0404580172889546,1.0
11.247068405151367,6.130091667175293,-0.2509232759475708,-0.0,-0.0,-1.0,0.0330584790241414,1.0
11.461965560913086,5.761643409729004,-0.018966794013977,0.7182042459132918,0.3108963264120628,0.6225159719843368,0.1844427817919003,9.0
11.673507690429688,6.1634063720703125,-0.2677333354949951,-0.0,-0.0,-1.0,0.0343973721330283,1.0
11.428265571594238,5.746311187744141,0.138746976852417,0.8566476100916582,-0.189213727200497,-0.4799510783018891,0.2316383004220839,5.0
9.852828979492188,6.057772636413574,-0.1459307670593261,-0.0,-0.0,-1.0,0.0208655575918747,1.0
10.069337844848633,6.003816604614258,-0.152176022529602,-0.0,-0.0,-1.0,0.0277397922417201,2.0
10.414569854736328,5.987475395202637,-0.152662992477417,-0.0,-0.0,-1.0,0.0266266876007825,1.0
10.66384220123291,5.86617374420166,-0.1745738983154297,-0.0,-0.0,-1.0,0.0198330189860725,1.0
10.966877937316896,5.790958404541016,-0.191426396369934,-0.6557740949835456,-0.2749074637276069,-0.703126036166608,0.0209466156522838,3.0
11.207840919494627,5.768946647644043,-0.1996052265167236,-0.0,-0.0,-1.0,0.0768274380959258,1.0
11.42374038696289,5.782160758972168,-0.2025744915008545,-0.0,-0.0,-1.0,0.1999408014646437,1.0
11.243484497070312,5.764040946960449,0.1102405786514282,-0.0,-0.0,-1.0,0.2271080227576021,2.0
11.435121536254885,5.657489776611328,0.0871165990829467,0.6438823791499741,0.7268495790736997,-0.2389668831042373,0.1395721585808716,4.0
9.796929359436035,6.851589679718018,-0.1140637397766113,-0.0,-0.0,-1.0,0.038000239978054,2.0
10.040042877197266,6.576550006866455,-0.1410211324691772,-0.0,-0.0,-1.0,0.0461105235021382,2.0
10.25984001159668,6.390350818634033,-0.1575076580047607,-0.0,-0.0,-1.0,0.0507679561519286,2.0
10.141515731811523,6.565237998962402,-0.1363482475280761,0.5666086899590334,-0.7886078367273986,-0.2388561749568993,0.0648462602717959,3.0
10.473736763000488,6.349645137786865,-0.1524460315704345,0.9186729032359148,-0.3003369481785011,-0.25658880415739,0.2465016664623002,7.0
10.802008628845217,6.159644603729248,-0.1681679487228393,-0.0,-0.0,-1.0,0.0376680336523737,1.0
11.095531463623049,5.989518165588379,-0.1848021745681762,0.7079788347220684,0.1345492961133521,-0.6932982449862279,0.0336887531842449,3.0
10.037290573120115,7.626396656036377,-0.2538819313049316,-0.0,-0.0,-1.0,0.0257679893217845,1.0
10.347030639648438,7.461062431335449,-0.255807876586914,-0.0,-0.0,-1.0,0.0326372049920261,1.0
11.332725524902344,5.948012828826904,-0.1836501359939575,-0.0,-0.0,-1.0,0.0740516727978165,2.0
11.637544631958008,5.923360347747803,-0.1790339946746826,-0.0,-0.0,-1.0,0.1219576166165302,1.0
10.561278343200684,7.394538879394531,-0.2503718137741089,-0.0,-0.0,-1.0,0.0192931623185321,1.0
10.840292930603027,7.246574878692627,-0.2576713562011719,-0.0,-0.0,-1.0,0.0120269939587916,1.0
11.161069869995115,7.136472225189209,-0.2575678825378418,-0.0,-0.0,-1.0,0.027244278013727,1.0
11.342138290405272,7.037140369415283,-0.2666938304901123,-0.0,-0.0,-1.0,0.0332595032984054,2.0
11.669306755065918,6.919763088226318,-0.2739255428314209,-0.0,-0.0,-1.0,0.021545448822602,2.0
9.921268463134766,7.224645137786865,-0.0478031635284423,-0.0,-0.0,-1.0,0.1818098448948426,1.0
11.26477336883545,5.757176399230957,0.0918354988098144,-0.0,-0.0,-1.0,0.234338768024735,2.0
11.40216827392578,5.694181442260742,0.0854730606079101,0.6948740140847627,0.691447621986229,0.1976114637345658,0.1762681548520276,6.0
11.495908737182615,5.666938781738281,0.0831084251403808,0.6728145394919032,0.7066508027859433,-0.2190096764307013,0.1395394974622587,9.0
11.387147903442385,5.717911720275879,0.3961802721023559,0.884591306107148,-0.4655540049889033,-0.0275261620725113,0.2356278835968023,5.0
9.755298614501951,5.828550815582275,-0.1890509128570556,-0.0,-0.0,-1.0,0.0189090813365406,2.0
9.978400230407717,7.295360088348389,-0.2853821516036987,-0.0,-0.0,-1.0,0.0921467878722262,1.0
10.292245864868164,7.0594987869262695,-0.2795808315277099,-0.0,-0.0,-1.0,0.0205689094703794,2.0
10.632125854492188,6.839065074920654,-0.2738072872161865,-0.0,-0.0,-1.0,0.0134658363884939,1.0
10.941253662109377,6.574831008911133,-0.2834944725036621,0.5967246820974496,0.7549109808467901,0.2720828270446985,0.0438342387565766,4.0
11.260010719299316,6.316593170166016,-0.2968722581863403,-0.0,-0.0,-1.0,0.0354753197961746,1.0
11.538349151611328,6.201093673706055,-0.293964147567749,-0.0,-0.0,-1.0,0.0364928087159426,1.0
11.47220516204834,5.686252593994141,0.065831184387207,0.2571294940087393,-0.7008765005125559,-0.6653243978241618,0.2292617924772357,15.0
11.512012481689451,5.675675868988037,-0.0842572450637817,-0.2192801968784384,0.4422433330305044,-0.8696763936356002,0.203606454365527,8.0
9.761908531188965,6.090827465057373,-0.1961432695388794,-0.0,-0.0,-1.0,0.0206520069201152,1.0
10.072745323181152,5.865894794464111,-0.1941348314285278,-0.0,-0.0,-1.0,0.0130291409614697,1.0
9.899028778076172,7.548266887664795,-0.3106456995010376,-0.0,-0.0,-1.0,0.0377622815892245,2.0
10.18427276611328,7.270386695861816,-0.3059402704238891,-0.0,-0.0,-1.0,0.0427349920407384,2.0
10.53256893157959,7.057126045227051,-0.2891701459884643,-0.0,-0.0,-1.0,0.0063324804511519,1.0
10.834623336791992,6.808363914489746,-0.2885998487472534,-0.0,-0.0,-1.0,0.0241478492891914,1.0
11.147818565368652,6.5718674659729,-0.2899782657623291,-0.3649709490239338,-0.8075556083386273,0.4633035137028418,0.0777513834531773,4.0
11.491073608398438,6.329709053039551,-0.2946559190750122,-0.0,-0.0,-1.0,0.0280657672346335,1.0
11.418746948242188,5.6685991287231445,0.0379946231842041,0.7527286275374353,-0.0146218461697522,0.6581685307732337,0.2055944670643476,6.0
9.812037467956545,6.203131198883057,-0.1952537298202514,-0.0,-0.0,-1.0,0.0256286651975295,1.0
10.150382995605469,5.9555439949035645,-0.1865887641906738,-0.0,-0.0,-1.0,0.0202602892148477,1.0
10.441247940063477,5.7154364585876465,-0.1858655214309692,-0.0,-0.0,-1.0,0.0184645690647276,1.0
10.27049446105957,7.430096626281738,-0.3149067163467407,-0.0,-0.0,-1.0,0.0337679894227036,2.0
10.600879669189451,7.1981987953186035,-0.2929850816726684,-0.0,-0.0,-1.0,0.0085399306635591,2.0
10.888142585754396,6.9105753898620605,-0.289188027381897,-0.0,-0.0,-1.0,0.0121423559631485,2.0
11.157883644104004,6.632428169250488,-0.2916544675827026,-0.0,-0.0,-1.0,0.0642901535806784,2.0
11.488287925720217,6.383661270141602,-0.2873603105545044,-0.0,-0.0,-1.0,0.0356700329846494,1.0
11.347755432128906,5.668854713439941,0.0440419912338256,-0.0,-0.0,-1.0,0.166179936972385,1.0
11.507823944091797,5.720819473266602,0.0621675252914428,0.764841110282061,-0.4597364876768149,0.451287533531661,0.2280063644818521,11.0
10.579237937927246,6.484981536865234,-0.2279334068298339,-0.0,-0.0,-1.0,0.0347100596559346,1.0
10.744226455688477,6.29868745803833,-0.2280465364456176,-0.0,-0.0,-1.0,0.0285930134015229,1.0
11.011116027832031,6.019150257110596,-0.2287847995758056,0.5708207769593708,0.0646357743806073,-0.818526638089268,0.030609668030192,4.0
11.292004585266112,5.756229877471924,-0.2294837236404419,-0.0,-0.0,-1.0,0.0749675481946647,1.0
