x,y,z,nx,ny,nz,curvature,density,label
3.8283615112304688,29.819501876831055,-1.559600591659546,-0.0,-0.0,-1.0,0.2417755407405196,1.0,0.0
3.348102569580078,29.363813400268555,-1.5145015716552734,-0.0,-0.0,-1.0,0.2028589368060696,1.0,0.0
4.692928314208984,30.227453231811523,-1.583540916442871,-0.0,-0.0,-1.0,0.1663666139878462,1.0,0.0
4.226390838623047,29.75383758544922,-1.524341106414795,-0.0,-0.0,-1.0,0.1927101816819395,2.0,0.0
3.814932823181152,29.103782653808594,-1.4391708374023438,-0.0,-0.0,-1.0,0.1714766857842067,1.0,0.0
4.871365547180176,30.259307861328125,-1.5807228088378906,-0.0,-0.0,-1.0,0.067486230485437,2.0,0.0
4.978910446166992,28.98385238647461,-1.3462729454040527,-0.0,-0.0,-1.0,0.1064580503227862,1.0,0.0
3.435461044311523,29.95815086364746,-1.5950127840042114,0.8503667282181464,0.3494772522247757,0.3933726956932647,0.1755558436846811,3.0,0.0
3.32338809967041,29.671573638916016,-1.5575038194656372,0.1667520023102175,-0.032933769829473,-0.9854486980712656,0.1975432962287075,4.0,0.0
3.301142692565918,29.329368591308594,-1.5058289766311646,0.1479584222060202,0.9636623001614084,-0.2224034094746048,0.1860828260423845,3.0,0.0
3.865225791931152,29.723529815673828,-1.5293718576431274,-0.0,-0.0,-1.0,0.225379285001581,1.0,0.0
3.878633499145508,29.61377716064453,-1.5110701322555542,-0.0,-0.0,-1.0,0.2037298069558365,2.0,0.0
4.621309280395508,30.08647918701172,-1.542216420173645,-0.0,-0.0,-1.0,0.1435129470855583,2.0,0.0
4.730430603027344,30.182188034057617,-1.5519269704818726,-0.0,-0.0,-1.0,0.1592108601350745,1.0,0.0
3.811433792114258,28.876140594482425,-1.3994184732437134,-0.0,-0.0,-1.0,0.1903209002166197,2.0,0.0
4.223237037658691,29.675596237182617,-1.4988905191421509,0.5287686890246397,-0.0184647956638663,-0.8485650975784095,0.0975424319304131,4.0,0.0
4.106755256652832,29.59265518188477,-1.4928723573684692,-0.2931910635823885,-0.1598310549195614,-0.942599084509808,0.193600361371492,4.0,0.0
5.074652671813965,28.90899658203125,-1.3222416639328003,-0.0,-0.0,-1.0,0.1117499491999235,1.0,0.0
2.951605796813965,29.476215362548828,-1.563660740852356,-0.0,-0.0,-1.0,0.1070695790410527,1.0,0.0
3.447371482849121,29.92538070678711,-1.5916465520858765,-0.0,-0.0,-1.0,0.168737825020614,2.0,0.0
3.343045234680176,29.714134216308594,-1.5686694383621216,-0.0447566744554343,-0.2341138415756016,-0.9711784332831964,0.1423510732210099,3.0,0.0
3.307035446166992,29.25600814819336,-1.5063592195510864,-0.1587562450588044,-0.3051063022997232,-0.9389923316789218,0.101694769074998,5.0,0.0
3.928478240966797,29.615217208862305,-1.5139623880386353,-0.1844746354109497,-0.2208512871052415,-0.9577023639283528,0.2372497454850987,4.0,0.0
3.7811012268066406,28.811201095581055,-1.408897042274475,-0.0,-0.0,-1.0,0.1952680651531081,1.0,0.0
4.595961570739746,30.066810607910156,-1.538415551185608,-0.535985756214299,0.7612711870895592,0.3649458163106396,0.0893659676896424,3.0,0.0
4.2264909744262695,29.702438354492188,-1.5071135759353638,0.4731014960398836,-0.750043961178006,0.4621785701925499,0.151937534048409,5.0,0.0
4.179635047912598,29.56180191040039,-1.4894927740097046,-0.0,-0.0,-1.0,0.1466378033772982,1.0,0.0
5.0710248947143555,28.81301498413086,-1.322090744972229,-0.0,-0.0,-1.0,0.1030634132984918,1.0,0.0
3.967000961303711,29.6660099029541,-1.6010994911193848,0.8227830165691821,0.057752934722692,-0.5654137477778849,0.1399049274716042,3.0,0.0
4.066180229187012,29.705835342407227,-1.513326644897461,-0.0,-0.0,-1.0,0.1988198569967861,2.0,0.0
4.978910446166992,29.27305030822754,-1.7075724601745603,-0.0,-0.0,-1.0,0.2113478440972884,1.0,0.0
3.378870964050293,30.102344512939453,-1.355879783630371,-0.0,-0.0,-1.0,0.1214554950225053,1.0,0.0
3.152101516723633,29.65197372436523,-1.329948902130127,-0.0,-0.0,-1.0,0.2089742034997698,1.0,0.0
2.9613428115844727,29.742694854736328,-1.3508963584899902,-0.1053323643664781,0.99306079327681,0.0523006106407986,0.1788689027623396,4.0,0.0
5.009620666503906,29.390079498291016,-1.7039391994476318,-0.0,-0.0,-1.0,0.1512901016779614,2.0,0.0
4.835826873779297,29.24626922607422,-1.7007567882537842,-0.0,-0.0,-1.0,0.1918073235388616,1.0,0.0
5.015658378601074,29.37577438354492,-1.587350845336914,-0.0,-0.0,-1.0,0.1993173803983214,2.0,0.0
5.025402069091797,29.85433578491211,-1.6376538276672363,-0.0,-0.0,-1.0,0.1032966872249057,2.0,0.0
4.8935699462890625,29.31464385986328,-1.5902099609375,-0.0,-0.0,-1.0,0.1197074447798002,1.0,0.0
4.172431945800781,29.631515502929688,-1.6800713539123535,-0.0,-0.0,-1.0,0.2376322015835197,1.0,0.0
3.1637983322143555,28.17735290527344,-1.6085896492004397,-0.0,-0.0,-1.0,0.1068224994475343,1.0,0.0
4.935059547424316,29.400955200195312,-1.6445200443267822,-0.0,-0.0,-1.0,0.2135481303491951,2.0,0.0
4.193436622619629,29.666309356689453,-1.7294032573699951,-0.0,-0.0,-1.0,0.2407916057051436,1.0,0.0
4.0892486572265625,29.586517333984375,-1.727842092514038,-0.0,-0.0,-1.0,0.2043360083413227,1.0,0.0
3.122891426086426,28.40560531616211,-1.6650984287261963,-0.0,-0.0,-1.0,0.0665338608744962,1.0,0.0
3.175461769104004,28.652400970458984,-1.6893627643585205,-0.0,-0.0,-1.0,0.0402969172391708,2.0,0.0
3.076854705810547,28.14380645751953,-1.6386520862579346,-0.0,-0.0,-1.0,0.1019242761925688,1.0,0.0
3.878253936767578,29.678600311279297,-1.6263840198516846,-0.0,-0.0,-1.0,0.2378401789194441,1.0,0.0
3.3043317794799805,29.629074096679688,-1.6664607524871826,-0.0,-0.0,-1.0,0.1813542626342968,2.0,0.0
3.4342355728149414,29.851776123046875,-1.6815674304962158,-0.0,-0.0,-1.0,0.1770346696650207,1.0,0.0
2.7949676513671875,29.345378875732425,-1.675572633743286,-0.0,-0.0,-1.0,0.0545552474901153,1.0,0.0
4.25754451751709,29.693138122558594,-1.5984017848968506,-0.0,-0.0,-1.0,0.1743998757878189,1.0,0.0
3.0780248641967773,29.30101776123047,-1.6472837924957275,-0.0,-0.0,-1.0,0.0943626690502815,1.0,0.0
3.9471187591552734,29.694753646850582,-1.5027484893798828,-0.0,-0.0,-1.0,0.1110764137260351,2.0,0.0
3.394153594970703,29.86806297302246,-1.5669374465942385,0.6727785724089222,0.2615027519991045,-0.6920876412740712,0.1473546124423886,3.0,0.0
3.3166637420654297,29.477842330932617,-1.5278315544128418,-0.7000897394019425,0.6912870845910171,0.178875720716291,0.2180084415349912,3.0,0.0
3.0130510330200195,29.64067649841309,-1.571455955505371,-0.6454903228511254,-0.7468757474191624,-0.1597462394631484,0.1845310719352394,3.0,0.0
4.018705368041992,29.671085357666016,-1.515753984451294,0.7997397448769035,-0.2083700621303637,-0.563025983123349,0.122831890775082,4.0,0.0
3.282142639160156,29.660064697265625,-1.5771052837371826,0.6617514674730849,-0.467262306729501,-0.5863027647956681,0.1658452318388067,5.0,0.0
2.959038734436035,29.70667266845703,-1.6104962825775146,0.3781364530583684,-0.3755867642692468,-0.8461367533526678,0.2810361065548657,3.0,0.0
2.735621452331543,29.826255798339844,-1.6437981128692627,-0.0,-0.0,-1.0,0.1898413817913634,1.0,0.0
3.4056663513183594,29.721914291381836,-1.559788703918457,-0.0,-0.0,-1.0,0.1329661711320319,1.0,0.0
3.503061294555664,30.006603240966797,-1.584341049194336,-0.0,-0.0,-1.0,0.1129198883369613,2.0,0.0
3.074993133544922,29.630638122558594,-1.5768136978149414,0.8191509329619587,-0.3401836881068201,-0.4618081932724824,0.1374508377291633,4.0,0.0
2.8770999908447266,29.691856384277344,-1.6003756523132324,-0.0,-0.0,-1.0,0.1533857733598895,2.0,0.0
4.082597732543945,29.621978759765625,-1.493372917175293,-0.4294307272106122,-0.6338490331358788,-0.6432920438805975,0.2011818753690559,4.0,0.0
3.36221694946289,29.262134552001953,-1.5108885765075684,-0.0,-0.0,-1.0,0.0977178611650665,2.0,0.0
5.1011199951171875,28.66866111755371,-1.727795124053955,-0.0,-0.0,-1.0,0.0393979351648079,1.0,0.0
3.3948259353637695,30.276124954223633,-1.4218087196350098,-0.0,-0.0,-1.0,0.0935596730780592,2.0,0.0
3.223146438598633,29.883529663085938,-1.3909437656402588,-0.321798301547191,0.864551639057298,-0.3860004100058475,0.04815625330323,4.0,0.0
2.9011096954345703,29.70024871826172,-1.3952760696411133,-0.0,-0.0,-1.0,0.15595593583183,1.0,0.0
5.185324668884277,28.252105712890625,-1.671706199645996,-0.0,-0.0,-1.0,0.1186765096482918,1.0,0.0
3.335503578186035,30.10006523132324,-1.4451141357421875,0.2988778620146125,-0.0582221412197291,-0.9525136250308252,0.0966884123117283,4.0,0.0
3.1062679290771484,29.734046936035156,-1.4144577980041504,-0.9002668628596061,0.4205290179550963,0.1125829502839816,0.165316858445936,4.0,0.0
2.8729538917541504,29.818086624145508,-1.4408283233642578,-0.0,-0.0,-1.0,0.1443942867373192,2.0,0.0
3.3435516357421875,30.2171573638916,-1.4202346801757812,-0.0,-0.0,-1.0,0.0759919187048645,1.0,0.0
3.063523769378662,29.755332946777344,-1.3732762336730957,-0.2359533531896863,0.4681137450453881,-0.8515841337285027,0.1749585213530778,6.0,0.0
2.8413243293762207,29.83897399902344,-1.3963699340820312,-0.1441611227710892,0.926121754667617,-0.3485915463873917,0.147357148907424,4.0,0.0
5.151769638061523,29.50841903686523,-1.6822032928466797,-0.0,-0.0,-1.0,0.1245798052777777,1.0,0.0
4.892629623413086,29.40271377563477,-1.6837806701660156,-0.0,-0.0,-1.0,0.1831496623973273,1.0,0.0
4.247353553771973,29.80132102966309,-1.788919448852539,-0.0,-0.0,-1.0,0.1587453256845394,1.0,0.0
4.453496932983398,30.179841995239254,-1.8315954208374023,-0.0,-0.0,-1.0,0.1722951417712961,1.0,0.0
3.901433944702149,29.049455642700195,-1.700601577758789,-0.0,-0.0,-1.0,0.1624535685869865,2.0,0.0
4.04388427734375,29.44657516479492,-1.7500224113464355,-0.0,-0.0,-1.0,0.0634932005176473,1.0,0.0
4.636781215667725,28.683042526245117,-1.5926499366760254,-0.0,-0.0,-1.0,0.1852401756817411,1.0,0.0
3.587040424346924,28.630516052246097,-1.6610345840454102,-0.0,-0.0,-1.0,0.1314181310270732,1.0,0.0
3.7241930961608887,28.830549240112305,-1.6807918548583984,-0.0,-0.0,-1.0,0.2198635564007434,2.0,0.0
3.409487724304199,28.43746757507324,-1.6455612182617188,-0.0,-0.0,-1.0,0.0784708020684689,1.0,0.0
3.170090675354004,28.28654670715332,-1.641371726989746,-0.0,-0.0,-1.0,0.0910939754207342,1.0,0.0
4.647312164306641,30.23311233520508,-1.55132794380188,-0.0,-0.0,-1.0,0.1721519817939594,2.0,0.0
4.562180519104004,30.215152740478516,-1.555725336074829,0.2400713994804438,0.6697745864337018,-0.7026860796394535,0.1828468970169684,3.0,0.0
4.118471145629883,29.616905212402344,-1.503554105758667,0.8804177516842114,-0.347715557366461,-0.3224259196848938,0.1847921467915979,5.0,0.0
4.0252251625061035,29.70415687561035,-1.5247538089752195,0.524293902867063,-0.5422409010127826,-0.6565749832922884,0.1426524553386425,4.0,0.0
3.796118259429931,28.98572158813477,-1.437281370162964,-0.0,-0.0,-1.0,0.2239037159650868,2.0,0.0
3.811020851135254,29.63664436340332,-1.533287763595581,-0.0,-0.0,-1.0,0.2166152514261376,2.0,0.0
3.516908645629883,30.11151885986328,-1.6302626132965088,-0.0,-0.0,-1.0,0.1167160378964406,1.0,0.0
3.300218105316162,29.38373565673828,-1.5411036014556885,-0.0,-0.0,-1.0,0.1719186034092489,1.0,0.0
3.288201332092285,29.713611602783203,-1.5913817882537842,0.962063564153155,-0.2331761835230494,-0.1416423876053816,0.1400407101824762,4.0,0.0
2.903604030609131,29.68183135986328,-1.6216590404510498,-0.0,-0.0,-1.0,0.1446419167235728,2.0,0.0
2.9862890243530273,29.854692459106445,-1.3133583068847656,-0.0,-0.0,-1.0,0.1749329377864086,1.0,0.0
2.803267478942871,29.88472557067871,-1.330785036087036,-0.0,-0.0,-1.0,0.1280417741735146,1.0,0.0
3.3855433464050293,30.129642486572266,-1.5604193210601809,-0.0,-0.0,-1.0,0.0751856481319674,1.0,0.0
3.2425742149353027,29.74437141418457,-1.5094821453094482,-0.0,-0.0,-1.0,0.1062221682826191,2.0,0.0
2.927280902862549,29.70793342590332,-1.529677152633667,-0.0,-0.0,-1.0,0.1584858511799978,2.0,0.0
5.0621418952941895,29.00054931640625,-1.3178458213806152,-0.0,-0.0,-1.0,0.0899295653359627,2.0,0.0
4.60194206237793,30.191219329833984,-1.564953327178955,0.4883406966221059,0.7692668972627723,-0.4120094717337737,0.1869532781042974,8.0,0.0
4.196727752685547,29.761539459228516,-1.5168232917785645,-0.2313128856086139,-0.9695365052845428,0.08058110120898,0.1403569955461737,3.0,0.0
3.8081631660461426,28.997278213500977,-1.4093742370605469,-0.0,-0.0,-1.0,0.2026287199954571,2.0,0.0
3.9368319511413574,29.71390914916992,-1.5277814865112305,-0.0,-0.0,-1.0,0.1212470411579856,2.0,0.0
3.3011703491210938,29.76409912109375,-1.5863194465637207,-0.0,-0.0,-1.0,0.1923164620839643,2.0,0.0
3.3899340629577637,30.02283096313477,-1.6253933906555176,-0.0,-0.0,-1.0,0.1208157521138655,1.0,0.0
3.2634692192077637,29.333560943603516,-1.5127267837524414,0.2056391880338774,0.6618747190297717,-0.7208566991115699,0.1941492296802998,3.0,0.0
3.073154926300049,29.669498443603516,-1.5880203247070312,-0.0,-0.0,-1.0,0.1379566132249695,2.0,0.0
2.7279696464538574,29.66565322875977,-1.616046905517578,-0.0,-0.0,-1.0,0.2026821870369746,2.0,0.0
4.6043548583984375,30.1652889251709,-1.565840244293213,0.1140217339339118,0.992047506456328,-0.053299053692218,0.201809958794979,7.0,0.0
4.154923915863037,29.691116333007812,-1.508333683013916,-0.1816074058863986,0.8881967125966463,-0.4220489898811784,0.1906623799536233,5.0,0.0
3.9079785346984863,29.659229278564453,-1.5208373069763184,0.6792435745629628,0.7329857211500096,-0.0368795201314979,0.1290585077509782,6.0,0.0
3.811305046081543,29.754100799560547,-1.5459671020507812,-0.0,-0.0,-1.0,0.182780381535952,2.0,0.0
3.3569741249084473,29.921794891357425,-1.6127872467041016,0.5510257711644974,0.6964767307616422,-0.4596637499522296,0.1483365236269729,4.0,0.0
3.476346492767334,30.189754486083984,-1.6536579132080078,-0.0,-0.0,-1.0,0.1669831610598464,1.0,0.0
3.1828413009643555,29.6142520904541,-1.569169998168945,-0.0,-0.0,-1.0,0.1603056039656702,2.0,0.0
2.9456381797790527,29.665245056152344,-1.5980958938598633,0.3781364530583684,-0.3755867642692468,-0.8461367533526678,0.1938141227867462,3.0,0.0
4.936809062957764,30.253589630126953,-1.737685203552246,-0.0,-0.0,-1.0,0.0901986886026641,1.0,0.0
5.011723518371582,30.621349334716797,-1.8082079887390137,-0.0,-0.0,-1.0,0.0690222942326132,1.0,0.0
4.937313079833984,29.408981323242188,-1.5619206428527832,-0.0,-0.0,-1.0,0.165143609890511,1.0,0.0
4.736657619476318,29.357616424560547,-1.5682640075683594,-0.0,-0.0,-1.0,0.156455557195524,2.0,0.0
4.615761756896973,29.440628051757812,-1.5959348678588867,-0.0,-0.0,-1.0,0.1039990054312674,1.0,0.0
4.269549369812012,30.43675994873047,-1.8326902389526367,-0.0,-0.0,-1.0,0.1349732533775598,1.0,0.0
4.060149669647217,29.57505798339844,-1.6735715866088867,-0.0,-0.0,-1.0,0.2479417441882181,2.0,0.0
4.210026741027832,29.7413330078125,-1.6941604614257812,-0.0,-0.0,-1.0,0.1316799360938769,1.0,0.0
3.698855400085449,29.415382385253903,-1.674760341644287,-0.0,-0.0,-1.0,0.081606496632588,2.0,0.0
3.3493146896362305,29.28118133544922,-1.6814970970153809,-0.0,-0.0,-1.0,0.2020053428758411,2.0,0.0
3.0360865592956543,28.86276626586914,-1.6281447410583496,-0.0,-0.0,-1.0,0.1049043916532747,2.0,0.0
2.9660844802856445,29.09328842163086,-1.6823325157165527,-0.0,-0.0,-1.0,0.1052752891303754,1.0,0.0
2.7463998794555664,29.01990509033203,-1.6903977394104004,-0.0,-0.0,-1.0,0.0427709518385985,1.0,0.0
4.341765880584717,28.724285125732425,-1.4723191261291504,-0.0,-0.0,-1.0,0.1344592538371076,1.0,0.0
3.48641586303711,28.356689453125,-1.4790139198303225,-0.0,-0.0,-1.0,0.0925735564671579,2.0,0.0
2.8957266807556152,28.33584213256836,-1.5361642837524414,-0.0,-0.0,-1.0,0.1694432559941802,1.0,0.0
5.119121074676514,29.841384887695312,-1.828111171722412,-0.0,-0.0,-1.0,0.0753521603374966,1.0,0.0
4.891807556152344,29.328113555908203,-1.7268476486206057,-0.0,-0.0,-1.0,0.2067397425146853,2.0,0.0
4.519406795501709,29.207176208496097,-1.7297825813293457,-0.0,-0.0,-1.0,0.0851799975983361,2.0,0.0
4.41639518737793,29.354900360107425,-1.772755146026611,-0.0,-0.0,-1.0,0.0705326325911882,1.0,0.0
4.089897632598877,29.02713203430176,-1.726323127746582,-0.0,-0.0,-1.0,0.1064406911484296,1.0,0.0
3.9369113445281982,28.834129333496097,-1.6961674690246582,-0.0,-0.0,-1.0,0.1433316523754441,2.0,0.0
3.291933536529541,30.331815719604492,-1.4060287475585938,-0.0,-0.0,-1.0,0.0597672184617504,1.0,0.0
3.7821359634399414,28.70326042175293,-1.6809983253479004,-0.0,-0.0,-1.0,0.2697281158682631,2.0,0.0
3.0989770889282227,29.901443481445312,-1.340496063232422,-0.0,-0.0,-1.0,0.0724338394586032,2.0,0.0
3.216151714324951,30.22802734375,-1.3927404880523682,-0.0,-0.0,-1.0,0.0368479101386286,2.0,0.0
3.3897252082824707,28.31405258178711,-1.6313447952270508,-0.0,-0.0,-1.0,0.1002393247567338,2.0,0.0
3.5156006813049316,28.53445816040039,-1.6686968803405762,-0.0,-0.0,-1.0,0.0908635373628382,2.0,0.0
2.8315930366516113,29.774789810180664,-1.3409032821655271,-0.0,-0.0,-1.0,0.1335694638309312,2.0,0.0
3.172156810760498,28.22493553161621,-1.6339025497436523,-0.0,-0.0,-1.0,0.0844148319827695,1.0,0.0
2.97599458694458,29.737565994262695,-1.320354700088501,0.6328556026998257,0.7469774849648111,-0.2037607005462199,0.1595743642115964,4.0,0.0
4.602278709411621,30.29471206665039,-1.537780523300171,-0.0,-0.0,-1.0,0.2037401083202394,1.0,0.0
4.460260391235352,30.15884780883789,-1.5161731243133545,-0.0,-0.0,-1.0,0.1758894503005754,1.0,0.0
5.157456398010254,28.54014587402344,-1.7106425762176514,-0.0,-0.0,-1.0,0.0934719703388451,1.0,0.0
4.084812164306641,29.817588806152344,-1.4646546840667725,-0.0,-0.0,-1.0,0.162686340294177,1.0,0.0
3.623852491378784,30.250404357910156,-1.59309983253479,-0.0,-0.0,-1.0,0.0930110414243377,1.0,0.0
5.012822151184082,28.368412017822266,-1.6750891208648682,-0.0,-0.0,-1.0,0.1012370619742798,2.0,0.0
4.756784915924072,28.401683807373047,-1.7005407810211182,-0.0,-0.0,-1.0,0.1170390913044873,2.0,0.0
4.021203517913818,29.65615463256836,-1.4333081245422363,-0.0,-0.0,-1.0,0.1525760426393338,2.0,0.0
3.8662052154541016,29.682296752929688,-1.449742078781128,-0.0,-0.0,-1.0,0.1592592978269608,1.0,0.0
3.509517192840576,30.04059600830078,-1.5552356243133545,-0.0,-0.0,-1.0,0.098033024579248,2.0,0.0
4.381537437438965,28.286670684814453,-1.6973145008087158,-0.0,-0.0,-1.0,0.1091135632131902,1.0,0.0
3.310013771057129,29.52688980102539,-1.4575722217559814,-0.0,-0.0,-1.0,0.0843233101558028,1.0,0.0
3.2017736434936523,29.666893005371097,-1.4966557025909424,-0.0,-0.0,-1.0,0.0900890283530836,2.0,0.0
2.925933361053467,29.696083068847656,-1.524832010269165,-0.0,-0.0,-1.0,0.1584858511799979,2.0,0.0
3.963779926300049,29.634685516357425,-1.432495355606079,-0.0,-0.0,-1.0,0.1814249647574378,1.0,0.0
3.4992997646331787,29.131378173828125,-1.356602668762207,-0.0,-0.0,-1.0,0.1283095738646113,1.0,0.0
4.9240946769714355,29.357601165771484,-1.7353134155273438,-0.0,-0.0,-1.0,0.1980392815903007,2.0,0.0
5.066384315490723,29.04010772705078,-1.6450834274291992,-0.0,-0.0,-1.0,0.163415155692779,1.0,0.0
4.746315956115723,29.35397720336914,-1.7431435585021973,-0.0,-0.0,-1.0,0.1237854434360983,1.0,0.0
4.395374774932861,29.427143096923828,-1.7812323570251465,-0.0,-0.0,-1.0,0.0708315157230202,1.0,0.0
4.882749557495117,28.46152114868164,-1.5016555786132812,-0.0,-0.0,-1.0,0.1639576750790843,1.0,0.0
4.604798793792725,28.55536651611328,-1.5408620834350586,-0.0,-0.0,-1.0,0.2255716724602637,1.0,0.0
4.030229568481445,29.308284759521484,-1.771761417388916,-0.0,-0.0,-1.0,0.0339297752986803,1.0,0.0
3.9908931255340576,29.342456817626953,-1.7830710411071775,-0.0,-0.0,-1.0,0.0538248663583988,1.0,0.0
3.8197989463806152,29.03310203552246,-1.713508129119873,-0.0,-0.0,-1.0,0.1346805125645454,1.0,0.0
3.571043014526367,29.00826835632324,-1.724151611328125,-0.0,-0.0,-1.0,0.1132165607962074,1.0,0.0
3.37381362915039,28.85087203979492,-1.6977386474609375,-0.0,-0.0,-1.0,0.0938323557579948,1.0,0.0
3.0319769382476807,28.643592834472656,-1.6707301139831543,-0.0,-0.0,-1.0,0.0432544319462766,1.0,0.0
2.783175230026245,28.508859634399418,-1.656796932220459,-0.0,-0.0,-1.0,0.0611415970409312,1.0,0.0
3.377721786499023,30.306148529052734,-1.438176155090332,-0.5455933988572093,-0.6188764732011868,-0.5650838469125614,0.0677703431821186,3.0,0.0
3.2421932220458984,30.04830551147461,-1.3893132209777832,-0.0,-0.0,-1.0,0.0885736238406402,1.0,0.0
3.0290353298187256,29.780986785888672,-1.3440883159637451,-0.2347133501430198,0.4223297065292771,-0.8755268483876063,0.1528331571464248,5.0,0.0
5.152064323425293,29.183425903320312,-1.7771399021148682,-0.0,-0.0,-1.0,0.1102533020937655,1.0,0.0
4.718024253845215,29.02242851257324,-1.747133493423462,-0.0,-0.0,-1.0,0.0511535407411453,1.0,0.0
4.548762798309326,29.03893661499023,-1.7592051029205322,-0.0,-0.0,-1.0,0.0582589319092406,1.0,0.0
4.249824523925781,28.986366271972656,-1.7582008838653564,-0.0,-0.0,-1.0,0.1203908742389276,1.0,0.0
5.046492576599121,28.789928436279297,-1.667630910873413,-0.0,-0.0,-1.0,0.2214205768174103,2.0,0.0
4.903036117553711,28.996078491210938,-1.7322089672088623,-0.0,-0.0,-1.0,0.0984971117792374,1.0,0.0
4.651191711425781,28.90702247619629,-1.7170398235321045,-0.0,-0.0,-1.0,0.0870063478894629,1.0,0.0
3.9342808723449703,29.93868637084961,-1.4525492191314695,-0.0,-0.0,-1.0,0.135428961343993,1.0,0.0
3.519282817840576,30.394088745117188,-1.5865190029144287,-0.0,-0.0,-1.0,0.0997623262752362,1.0,0.0
4.154509544372559,28.91092872619629,-1.7416088581085205,-0.0,-0.0,-1.0,0.1174757009039483,1.0,0.0
3.336883783340454,29.97601890563965,-1.4929349422454834,-0.0,-0.0,-1.0,0.0810247151505947,1.0,0.0
3.4608254432678223,30.23522186279297,-1.5502712726593018,-0.0,-0.0,-1.0,0.0818562040241527,2.0,0.0
3.844933032989502,28.70552635192871,-1.6998331546783447,-0.0,-0.0,-1.0,0.2386630487910737,2.0,0.0
3.124799966812134,29.748355865478516,-1.4491183757781982,-0.7459274230838202,0.6511871436659598,-0.1398126725862152,0.1270925147882879,4.0,0.0
3.5131723880767822,28.526607513427734,-1.6691529750823977,-0.0,-0.0,-1.0,0.0908635373628382,2.0,0.0
2.7952334880828857,29.71233367919922,-1.4606335163116455,-0.0,-0.0,-1.0,0.2270589281648291,1.0,0.0
3.175210952758789,28.35951232910156,-1.644636869430542,-0.0,-0.0,-1.0,0.0812020230245485,1.0,0.0
2.8089311122894287,28.190635681152344,-1.6242225170135498,-0.0,-0.0,-1.0,0.1525099863094388,1.0,0.0
4.692386627197266,30.17465591430664,-1.6325747966766355,-0.0,-0.0,-1.0,0.1554256922228464,1.0,0.0
4.61915397644043,30.139991760253903,-1.6284644603729248,-0.0,-0.0,-1.0,0.1782367887715499,1.0,0.0
3.6701865196228023,30.54973793029785,-1.8214576244354248,-0.0,-0.0,-1.0,0.1337996805577917,1.0,0.0
3.4645824432373047,30.139015197753903,-1.7277567386627195,-0.0,-0.0,-1.0,0.1470925114333823,1.0,0.0
3.630486011505127,30.446266174316406,-1.7966091632843018,-0.0,-0.0,-1.0,0.1255999087060784,1.0,0.0
4.887826919555664,29.97408103942871,-1.5626585483551023,-0.0,-0.0,-1.0,0.1414287708504464,1.0,0.0
4.779345512390137,30.051746368408203,-1.592038869857788,-0.0,-0.0,-1.0,0.1183550052644501,1.0,0.0
5.069185256958008,28.987712860107425,-1.275975465774536,0.3715958871639774,0.9032944317385098,0.2144193700042496,0.0899295653359627,3.0,0.0
4.549263954162598,30.038509368896484,-1.6056878566741943,-0.0,-0.0,-1.0,0.1964424368668216,1.0,0.0
4.162021636962891,29.686601638793945,-1.53973126411438,0.2394403901024934,0.6971803322575391,-0.6757276699239367,0.2179072030428344,5.0,0.0
3.995584487915039,29.68783950805664,-1.5544240474700928,0.7923419680128955,-0.1971289511536605,-0.5773511776575069,0.1204465855745788,5.0,0.0
3.803199291229248,29.67595100402832,-1.5685532093048096,-0.0,-0.0,-1.0,0.2185743183288755,2.0,0.0
3.2369141578674316,29.615102767944336,-1.6065819263458252,-0.0,-0.0,-1.0,0.2102938537965616,1.0,0.0
3.3695383071899414,29.90697479248047,-1.6732699871063232,0.7891314572416079,-0.5821359001910716,0.1959319700826477,0.195572256265237,3.0,0.0
2.9685428142547607,29.594417572021484,-1.6289775371551514,-0.0,-0.0,-1.0,0.1215218935554639,1.0,0.0
2.820634603500366,29.673416137695312,-1.6665074825286863,-0.0,-0.0,-1.0,0.1809223744774284,1.0,0.0
2.941373825073242,28.34337997436523,-1.2909018993377686,-0.0,-0.0,-1.0,0.2681157963539849,1.0,0.0
2.8990461826324463,29.94540786743164,-1.2796351909637451,-0.5197748161268482,0.3846572745092856,-0.7628059528395078,0.1441572305732797,4.0,0.0
4.048316955566406,29.90939140319824,-1.7175002098083496,-0.0,-0.0,-1.0,0.2459022945798124,1.0,0.0
3.787917137145996,29.420448303222656,-1.656357765197754,-0.0,-0.0,-1.0,0.0967977945608823,1.0,0.0
3.5642757415771484,29.193347930908203,-1.640239715576172,-0.0,-0.0,-1.0,0.1846353266481233,1.0,0.0
3.2561731338500977,28.961050033569336,-1.6336288452148438,-0.1462661999368225,0.4268075037019793,-0.8924357419667401,0.1364615300592231,3.0,0.0
2.9739561080932617,28.568714141845703,-1.596142292022705,-0.0,-0.0,-1.0,0.0465163554487553,1.0,0.0
2.73940372467041,28.233726501464844,-1.5643997192382812,-0.0,-0.0,-1.0,0.144848362016249,1.0,0.0
4.723498344421387,30.4035701751709,-1.736879825592041,-0.0,-0.0,-1.0,0.0456362075025735,1.0,0.0
4.023982048034668,29.6817569732666,-1.6780710220336914,-0.0,-0.0,-1.0,0.1492333495762257,2.0,0.0
3.966388702392578,29.52414894104004,-1.6553897857666016,-0.0,-0.0,-1.0,0.1282004448277262,1.0,0.0
4.704017639160156,29.955345153808594,-1.6549901962280271,-0.0,-0.0,-1.0,0.1706034563805992,1.0,0.0
4.671083450317383,29.277355194091797,-1.5320639610290527,-0.0,-0.0,-1.0,0.1514544546636826,1.0,0.0
4.792109489440918,29.3908634185791,-1.5401558876037598,-0.7539079211833506,0.3554377174745233,-0.5525277145750245,0.1748846944815214,4.0,0.0
2.818035125732422,28.205455780029297,-1.5497260093688965,-0.0,-0.0,-1.0,0.176090509468917,1.0,0.0
4.648022651672363,29.142271041870117,-1.5094547271728516,-0.0,-0.0,-1.0,0.0753805008236088,1.0,0.0
3.1676082611083984,30.008018493652344,-1.427273511886597,-0.0,-0.0,-1.0,0.0520526787946752,1.0,0.0
3.014603614807129,29.72747802734375,-1.3748137950897217,-0.3818448738030832,0.3267267743899217,-0.8645484990716625,0.1437309899516667,5.0,0.0
5.112884998321533,29.27535820007324,-1.7698891162872314,-0.0,-0.0,-1.0,0.127107348557804,1.0,0.0
4.681257247924805,28.962852478027344,-1.7360684871673584,-0.0,-0.0,-1.0,0.0473993743104124,2.0,0.0
4.196063995361328,28.801372528076172,-1.7427403926849363,-0.0,-0.0,-1.0,0.1562189511258116,1.0,0.0
3.956624984741211,28.547775268554688,-1.7097795009613037,-0.0,-0.0,-1.0,0.0876473104499099,2.0,0.0
3.7516918182373047,28.42737579345703,-1.7031018733978271,-0.0,-0.0,-1.0,0.0900206176983674,1.0,0.0
5.066234588623047,28.93039894104004,-1.697716474533081,-0.0,-0.0,-1.0,0.1967300310843635,2.0,0.0
4.85686731338501,28.769079208374023,-1.6793386936187744,-0.0,-0.0,-1.0,0.0942481227205603,1.0,0.0
4.48753547668457,28.699880599975582,-1.6952550411224363,-0.0,-0.0,-1.0,0.1945888792643408,2.0,0.0
3.360116958618164,30.079269409179688,-1.400116205215454,-0.0,-0.0,-1.0,0.1330218867603764,2.0,0.0
2.977024555206299,29.75247383117676,-1.3287737369537354,-0.1053323643664781,0.99306079327681,0.0523006106407986,0.1788689027623396,4.0,0.0
2.857557773590088,29.854143142700195,-1.348947286605835,-0.0,-0.0,-1.0,0.1135020549536608,2.0,0.0
3.158191204071045,29.768159866333008,-1.33353590965271,-0.0,-0.0,-1.0,0.189515991792771,1.0,0.0
4.3170857429504395,30.603565216064453,-1.8287456035614016,-0.0,-0.0,-1.0,0.0961850615813355,2.0,0.0
3.5619659423828125,30.08388328552246,-1.695850133895874,-0.0,-0.0,-1.0,0.1185977222840129,1.0,0.0
4.5071187019348145,30.6295108795166,-1.8398873805999756,-0.0,-0.0,-1.0,0.0806486823265441,1.0,0.0
3.5081019401550293,29.87198829650879,-1.648130178451538,-0.0,-0.0,-1.0,0.1840360749295848,1.0,0.0
3.438631057739258,29.724536895751953,-1.6143596172332764,-0.0,-0.0,-1.0,0.1362454322957448,1.0,0.0
3.0486531257629395,29.599546432495117,-1.5802714824676514,-0.0,-0.0,-1.0,0.1206133654146905,2.0,0.0
3.382901668548584,29.53548812866211,-1.571779489517212,-0.0,-0.0,-1.0,0.1989022352464542,1.0,0.0
3.208024501800537,29.51079368591309,-1.5633347034454346,-0.0,-0.0,-1.0,0.2417993272584678,2.0,0.0
4.288057804107666,29.60233688354492,-1.6064598560333252,-0.0,-0.0,-1.0,0.2447984172683735,1.0,0.0
3.969039916992187,29.62104034423828,-1.6027257442474363,-0.0,-0.0,-1.0,0.1731842565531281,2.0,0.0
3.3399152755737305,29.28878593444824,-1.5168335437774658,-0.0506044540554858,-0.2575865103435232,-0.9649292092784798,0.120463828209726,3.0,0.0
4.763242721557617,29.49183654785156,-1.5952651500701904,-0.0,-0.0,-1.0,0.1646296903934607,1.0,0.0
4.993748188018799,29.32212829589844,-1.564795732498169,-0.0,-0.0,-1.0,0.1999072900698023,1.0,0.0
3.537083148956299,30.150484085083008,-1.6815385818481443,-0.0,-0.0,-1.0,0.1196667694584097,1.0,0.0
2.72347640991211,29.67544937133789,-1.577312469482422,-0.0,-0.0,-1.0,0.2111163830688733,2.0,0.0
3.4702088832855225,29.85244369506836,-1.6201858520507812,-0.0,-0.0,-1.0,0.1712731384624982,1.0,0.0
3.192907333374023,29.57229995727539,-1.5603585243225098,-0.0,-0.0,-1.0,0.197363842526776,2.0,0.0
2.933481216430664,29.551286697387695,-1.5536952018737793,-0.0,-0.0,-1.0,0.1642141580755373,2.0,0.0
4.664144992828369,29.920578002929688,-1.6534724235534668,-0.0,-0.0,-1.0,0.1545680414106342,1.0,0.0
4.075620174407959,29.51610565185547,-1.5603551864624023,-0.0,-0.0,-1.0,0.2562256674444279,1.0,0.0
3.8542685508728023,29.53120231628418,-1.560081958770752,-0.0,-0.0,-1.0,0.1214783835208868,2.0,0.0
3.3608620166778564,29.13562393188477,-1.4734506607055664,-0.0,-0.0,-1.0,0.2189000772069615,1.0,0.0
4.841278553009033,29.478418350219727,-1.567087173461914,-0.0,-0.0,-1.0,0.1509876459676342,1.0,0.0
4.22199821472168,29.50934410095215,-1.5614218711853027,-0.0,-0.0,-1.0,0.16213801450255,1.0,0.0
4.9775190353393555,28.696027755737305,-1.4106049537658691,-0.0,-0.0,-1.0,0.1250156652091056,2.0,0.0
5.0121307373046875,30.4899959564209,-1.8085954189300537,-0.0,-0.0,-1.0,0.0616985212880991,2.0,0.0
3.43475604057312,29.986143112182617,-1.6183574199676514,0.9575921394725146,-0.2579480139333689,-0.1283749061471203,0.1537029000889657,4.0,0.0
2.833827257156372,29.57332992553711,-1.506249189376831,-0.0,-0.0,-1.0,0.229932275651488,1.0,0.0
3.34191370010376,29.81981658935547,-1.580275297164917,0.8992227682185456,-0.4035981612714278,0.1688399755262327,0.1252843257448437,4.0,0.0
3.083204746246338,29.504648208618164,-1.5043213367462158,-0.0,-0.0,-1.0,0.1513165963134478,1.0,0.0
4.578122138977051,29.912845611572266,-1.666344404220581,-0.0,-0.0,-1.0,0.1636576486955382,1.0,0.0
4.155243396759033,29.497739791870117,-1.5586597919464111,-0.0,-0.0,-1.0,0.2154891912086057,1.0,0.0
3.810253620147705,29.540775299072266,-1.548534631729126,-0.0,-0.0,-1.0,0.1278956110102155,2.0,0.0
4.78741979598999,29.30307388305664,-1.5561444759368896,-0.0,-0.0,-1.0,0.1739481771015708,2.0,0.0
4.941579341888428,28.64681053161621,-1.4334752559661863,-0.0,-0.0,-1.0,0.1544136300500894,2.0,0.0
2.8241539001464844,28.43501091003418,-1.5962204933166504,-0.0,-0.0,-1.0,0.087317208966243,1.0,0.0
3.6379847526550297,28.457386016845703,-1.649240016937256,-0.0,-0.0,-1.0,0.0477797067680874,1.0,0.0
3.3738484382629395,28.352779388427734,-1.6115212440490725,-0.4076885250775726,0.2780703829055637,-0.8697510728195895,0.1051783992826184,3.0,0.0
3.113701820373535,28.35404586791992,-1.5962166786193848,-0.0,-0.0,-1.0,0.102253557594196,2.0,0.0
4.112486839294434,28.57158851623535,-1.703168869018555,-0.0,-0.0,-1.0,0.0653488703415412,1.0,0.0
3.8721163272857666,28.45322608947754,-1.6632113456726074,-0.0,-0.0,-1.0,0.0733460332310521,1.0,0.0
3.58667254447937,29.795440673828125,-1.4920616149902344,-0.0,-0.0,-1.0,0.0625082515089104,1.0,0.0
3.326092481613159,29.690532684326172,-1.4628067016601562,-0.0,-0.0,-1.0,0.1572371620076526,2.0,0.0
4.896498203277588,30.07564353942871,-1.5960779190063477,-0.0,-0.0,-1.0,0.1341389072918839,1.0,0.0
4.2529520988464355,29.643138885498047,-1.4893074035644531,-0.0,-0.0,-1.0,0.1424394101574134,2.0,0.0
4.407489776611328,29.58410263061523,-1.4844274520874023,-0.0,-0.0,-1.0,0.1018418099291695,1.0,0.0
3.14771032333374,29.189876556396484,-1.8993279933929443,-0.0,-0.0,-1.0,0.0684634650553158,1.0,0.0
4.180225372314453,28.98472023010254,-1.931545972824097,-0.0,-0.0,-1.0,0.0887393614280618,1.0,0.0
4.063885688781738,28.94053840637207,-1.915717363357544,-0.0,-0.0,-1.0,0.108734738158261,1.0,0.0
3.396261215209961,28.98230743408203,-1.876227617263794,-0.0,-0.0,-1.0,0.0815169421336415,1.0,0.0
3.1333041191101074,28.907495498657227,-1.8436400890350344,-0.0,-0.0,-1.0,0.1164818095878696,1.0,0.0
2.929903507232666,28.876558303833008,-1.8238608837127688,-0.0,-0.0,-1.0,0.0645866192027007,1.0,0.0
4.414912700653076,28.71289825439453,-1.8964426517486572,-0.0,-0.0,-1.0,0.0693100139717234,1.0,0.0
3.8414149284362793,28.752031326293945,-1.8631060123443604,-0.0,-0.0,-1.0,0.1573149705745252,1.0,0.0
3.6381664276123047,28.774259567260746,-1.852914571762085,-0.0,-0.0,-1.0,0.0926722222720285,1.0,0.0
2.88592529296875,29.581607818603516,-1.6095523834228516,-0.071046566603042,-0.9289831150314743,-0.3632392563591357,0.1325766585177592,3.0,0.0
4.3669867515563965,29.375545501708984,-1.726961612701416,-0.0,-0.0,-1.0,0.0865114625732444,1.0,0.0
4.051052093505859,29.374530792236328,-1.6923508644104004,-0.0,-0.0,-1.0,0.1352685564772412,1.0,0.0
3.7592928409576416,29.358423233032227,-1.6581907272338867,-0.0,-0.0,-1.0,0.0877383106154135,1.0,0.0
3.3277170658111572,29.364463806152344,-1.614133358001709,-0.0,-0.0,-1.0,0.1980586760364148,1.0,0.0
3.020141363143921,29.390336990356445,-1.5874643325805664,-0.0,-0.0,-1.0,0.0884225191644047,1.0,0.0
4.610483169555664,28.897171020507812,-1.6654133796691897,-0.0,-0.0,-1.0,0.1025307434502087,1.0,0.0
4.989169597625732,28.508790969848633,-1.6366147994995115,-0.0,-0.0,-1.0,0.1473302744279905,2.0,0.0
4.156933784484863,29.523454666137695,-1.769357681274414,-0.0,-0.0,-1.0,0.2035740737478203,2.0,0.0
2.7951574325561523,29.485963821411133,-1.6433348655700684,-0.0,-0.0,-1.0,0.0770348241286423,1.0,0.0
4.484762668609619,29.225404739379883,-1.7320618629455566,-0.0,-0.0,-1.0,0.0720850308805545,2.0,0.0
3.9775969982147217,29.353242874145508,-1.7143259048461914,-0.0,-0.0,-1.0,0.0930610726433933,1.0,0.0
3.7155356407165527,29.30368423461914,-1.6796588897705078,-0.0,-0.0,-1.0,0.0693959634759326,2.0,0.0
3.244107484817505,29.317188262939453,-1.6420025825500488,-0.0,-0.0,-1.0,0.2261202397420255,1.0,0.0
2.993147850036621,29.33803367614746,-1.6257095336914062,-0.0,-0.0,-1.0,0.0483024812731528,1.0,0.0
4.812210559844971,28.93440055847168,-1.697282791137695,-0.0,-0.0,-1.0,0.0810891469059912,1.0,0.0
5.181260585784912,28.6468505859375,-1.6685185432434082,-0.0,-0.0,-1.0,0.1072068146006252,1.0,0.0
4.314635753631592,29.087461471557617,-1.7460222244262695,-0.0,-0.0,-1.0,0.0611456161893875,1.0,0.0
3.8444690704345703,29.203609466552734,-1.724466323852539,-0.0,-0.0,-1.0,0.0200856903947765,1.0,0.0
3.4425060749053955,29.214937210083008,-1.6842164993286133,-0.0,-0.0,-1.0,0.156088384364538,1.0,0.0
3.02298641204834,29.323530197143555,-1.6695566177368164,-0.0,-0.0,-1.0,0.052674849326641,1.0,0.0
3.8964343070983887,29.05337142944336,-1.6902008056640625,-0.0,-0.0,-1.0,0.1820648205756697,2.0,0.0
4.6395978927612305,28.79185485839844,-1.7052898406982422,-0.0,-0.0,-1.0,0.0551117477801989,1.0,0.0
4.302743434906006,28.997486114501953,-1.7208757400512695,-0.0,-0.0,-1.0,0.0839138214924266,1.0,0.0
5.099332809448242,28.43320083618164,-1.665360450744629,-0.0,-0.0,-1.0,0.1127213448816024,1.0,0.0
4.867908000946045,28.57674789428711,-1.6753301620483398,-0.0,-0.0,-1.0,0.1217708911672408,1.0,0.0
2.995772361755371,28.31541633605957,-1.3982515335083008,-0.0,-0.0,-1.0,0.2176823732682687,1.0,0.0
4.652496337890625,30.24043655395508,-1.548880100250244,-0.0,-0.0,-1.0,0.1348812416915392,2.0,0.0
3.902118444442749,29.72072982788086,-1.405977725982666,-0.0,-0.0,-1.0,0.1601630401614908,1.0,0.0
3.1401524543762207,29.686635971069336,-1.401669979095459,-0.3162967736696806,0.5126480083669277,-0.7982157418164423,0.1526154752699414,4.0,0.0
2.8725907802581787,29.749082565307617,-1.4217782020568848,-0.0,-0.0,-1.0,0.1418856739310396,1.0,0.0
4.055945873260498,29.650257110595703,-1.385753154754639,-0.0,-0.0,-1.0,0.150888006310024,1.0,0.0
3.13494610786438,29.623384475708008,-1.3840136528015137,-0.0,-0.0,-1.0,0.1350339418373179,1.0,0.0
4.576505184173584,30.4816837310791,-1.824455738067627,-0.0,-0.0,-1.0,0.107188325446211,1.0,0.0
2.740286350250244,30.396331787109375,-1.7400717735290527,-0.0,-0.0,-1.0,0.0824273684510014,1.0,0.0
4.710309982299805,30.034643173217773,-1.7046103477478027,-0.0,-0.0,-1.0,0.1619808192439163,1.0,0.0
3.6809287071228023,30.11758804321289,-1.6895384788513184,-0.0,-0.0,-1.0,0.1025279123377782,1.0,0.0
4.240150451660156,29.631013870239254,-1.57285737991333,-0.0,-0.0,-1.0,0.1760204301575277,1.0,0.0
3.9789609909057617,29.693912506103516,-1.5808453559875488,0.8483396524001325,0.0204089521808741,-0.529058889762284,0.1104365168259139,3.0,0.0
3.088390350341797,29.627948760986328,-1.532890796661377,-0.0,-0.0,-1.0,0.1394260271003257,2.0,0.0
2.845664978027344,29.67201042175293,-1.5382695198059082,-0.0,-0.0,-1.0,0.1946804011115363,1.0,0.0
4.788259506225586,29.41690444946289,-1.535048007965088,-0.573138379540282,-0.2086791791240766,-0.7924426781149796,0.1801908925637133,5.0,0.0
4.395515441894531,28.696149826049805,-1.722463607788086,-0.0,-0.0,-1.0,0.1872951942141499,1.0,0.0
5.027346611022949,28.270158767700195,-1.6655683517456057,-0.0,-0.0,-1.0,0.1012370619742798,1.0,0.0
4.678707122802734,28.4581298828125,-1.6825876235961914,0.1383828395980238,0.8183334449132594,-0.55783560539032,0.1691213185663996,3.0,0.0
4.216707229614258,28.633785247802734,-1.685773849487305,-0.0,-0.0,-1.0,0.1103315832303054,1.0,0.0
3.9136266708374023,28.63829803466797,-1.656571388244629,-0.0,-0.0,-1.0,0.1453394410243131,2.0,0.0
3.527259826660156,28.71605110168457,-1.6417551040649414,-0.0,-0.0,-1.0,0.141117926078896,2.0,0.0
3.0622129440307617,28.88665771484375,-1.648725509643555,-0.4952632136886287,-0.1888675374716225,-0.8479642695634159,0.0951934255796731,3.0,0.0
2.7648420333862305,28.92958068847656,-1.6347637176513672,-0.0,-0.0,-1.0,0.0331318983286374,2.0,0.0
3.1764936447143555,28.411157608032227,-1.5181093215942385,-0.0,-0.0,-1.0,0.1011155181210174,1.0,0.0
5.071811676025391,28.48630714416504,-1.6325926780700684,-0.0,-0.0,-1.0,0.1108468794429895,1.0,0.0
4.792309761047363,28.70965576171875,-1.6589322090148926,-0.0,-0.0,-1.0,0.0687210630864979,2.0,0.0
4.470075607299805,28.960018157958984,-1.6884398460388184,-0.0,-0.0,-1.0,0.0380337078410965,1.0,0.0
4.087055206298828,29.01112174987793,-1.6540207862854004,-0.0,-0.0,-1.0,0.1137116737845148,1.0,0.0
3.721457481384278,29.189125061035156,-1.6596827507019043,-0.0,-0.0,-1.0,0.0947438294917152,1.0,0.0
3.295565605163574,29.309646606445312,-1.642768383026123,-0.44509098563702,0.6164021087096018,-0.6495709775559728,0.2302576154869545,3.0,0.0
2.8975839614868164,29.481855392456055,-1.645789623260498,-0.0,-0.0,-1.0,0.0880396770605408,1.0,0.0
4.796305179595947,29.923606872558594,-1.7573018074035645,-0.0,-0.0,-1.0,0.1218051242245721,2.0,0.0
4.604462146759033,29.994037628173828,-1.750257968902588,-0.0,-0.0,-1.0,0.2032689203554669,1.0,0.0
4.951046466827393,29.45486831665039,-1.6459479331970217,-0.0,-0.0,-1.0,0.1496229295226923,1.0,0.0
4.207168102264404,29.683658599853516,-1.605825901031494,-0.0,-0.0,-1.0,0.19679162244474,1.0,0.0
4.005892276763916,29.969554901123047,-1.6600098609924316,-0.0,-0.0,-1.0,0.2137894553128451,1.0,0.0
3.1222777366638184,30.60192489624023,-1.7242722511291504,-0.0,-0.0,-1.0,0.0787534827469088,1.0,0.0
3.362804889678955,29.667205810546875,-1.485680103302002,-0.0,-0.0,-1.0,0.1633654095702244,2.0,0.0
3.4813008308410645,29.452369689941406,-1.4396872520446775,-0.0,-0.0,-1.0,0.2358448360845716,1.0,0.0
3.1323399543762207,29.74997329711914,-1.4789042472839355,-0.0,-0.0,-1.0,0.1487469501512303,2.0,0.0
2.80944299697876,29.86520767211914,-1.469954013824463,-0.0,-0.0,-1.0,0.1377132584222491,1.0,0.0
4.827896595001221,28.15725326538086,-1.6972088813781738,-0.0,-0.0,-1.0,0.0926399670052836,1.0,0.0
4.500218868255615,28.515758514404297,-1.72188138961792,-0.0,-0.0,-1.0,0.1781061297286878,1.0,0.0
4.13644552230835,28.7010555267334,-1.6927437782287598,-0.0,-0.0,-1.0,0.0748621542127916,1.0,0.0
3.8146119117736816,28.87775993347168,-1.67183256149292,-0.0,-0.0,-1.0,0.1536321343086702,2.0,0.0
3.542224407196045,29.269460678100582,-1.722388744354248,-0.0,-0.0,-1.0,0.0397641093027857,1.0,0.0
3.182534694671631,29.53089904785156,-1.7197928428649902,-0.0,-0.0,-1.0,0.1243803831068864,1.0,0.0
2.9205965995788574,29.848716735839844,-1.7547593116760254,-0.0,-0.0,-1.0,0.1726397212262518,1.0,0.0
3.5115790367126465,28.306493759155273,-1.4484190940856934,-0.0,-0.0,-1.0,0.0943627217117329,1.0,0.0
5.078164100646973,29.414356231689453,-1.716968059539795,-0.3818625382514509,0.898129621490054,0.2180462906868436,0.1868105311803331,3.0,0.0
4.499762535095215,30.02622985839844,-1.7710862159729004,-0.0,-0.0,-1.0,0.1765644648716585,1.0,0.0
3.7957801818847656,30.493900299072266,-1.7647414207458496,-0.0,-0.0,-1.0,0.1088437309970687,1.0,0.0
4.11724853515625,29.74321746826172,-1.6135716438293457,-0.0,-0.0,-1.0,0.1169877786541995,1.0,0.0
3.6299314498901367,30.58049774169922,-1.7573657035827637,-0.0,-0.0,-1.0,0.1374459007587428,1.0,0.0
4.631097793579102,29.359310150146484,-1.6088652610778809,-0.0,-0.0,-1.0,0.1340113667766994,1.0,0.0
4.560940742492676,29.422935485839844,-1.6124672889709473,-0.0,-0.0,-1.0,0.0853885222811362,1.0,0.0
3.884920120239258,29.673198699951172,-1.5472846031188965,0.5071763068908468,0.8329009528142668,-0.2214682743185767,0.2046431361233301,4.0,0.0
3.663310050964355,29.73279571533203,-1.5204710960388184,-0.0,-0.0,-1.0,0.1154728929343604,1.0,0.0
3.0069408416748047,29.686817169189453,-1.3796744346618652,-0.0,-0.0,-1.0,0.17342599613792,2.0,0.0
2.741493225097656,29.86632537841797,-1.3809781074523926,-0.0,-0.0,-1.0,0.1175099797565455,2.0,0.0
5.056423187255859,28.649932861328125,-1.6082606315612793,-0.0,-0.0,-1.0,0.2113873399434779,1.0,0.0
4.82845401763916,28.92641830444336,-1.648853778839111,-0.0,-0.0,-1.0,0.1422729699289861,1.0,0.0
4.665898323059082,28.977603912353516,-1.6323657035827637,-0.0,-0.0,-1.0,0.0795415143728945,1.0,0.0
4.506279945373535,29.235755920410156,-1.6825413703918457,-0.0,-0.0,-1.0,0.0756993881056297,1.0,0.0
4.258601188659668,29.49693298339844,-1.717200756072998,-0.0,-0.0,-1.0,0.1281551862247348,1.0,0.0
3.8612985610961914,29.45372772216797,-1.6270813941955566,-0.0,-0.0,-1.0,0.1034270992245577,1.0,0.0
3.700958251953125,29.51134872436523,-1.61519193649292,-0.0,-0.0,-1.0,0.1173152976315753,1.0,0.0
3.608062744140625,29.614795684814453,-1.6310477256774902,-0.0,-0.0,-1.0,0.090333851261021,2.0,0.0
3.197810173034668,29.416812896728516,-1.4909443855285645,-0.0,-0.0,-1.0,0.2150978162410017,1.0,0.0
3.01690673828125,29.627685546875,-1.5262980461120603,-0.0,-0.0,-1.0,0.1845449660392134,2.0,0.0
2.7273502349853516,30.273876190185547,-1.6850008964538574,-0.0,-0.0,-1.0,0.1240504072728182,1.0,0.0
2.785503387451172,29.72412872314453,-1.515897274017334,-0.0,-0.0,-1.0,0.1669116922064181,1.0,0.0
2.7189273834228516,29.795074462890625,-1.527146816253662,-0.0,-0.0,-1.0,0.1357560440341423,1.0,0.0
3.7757740020751953,28.876644134521484,-1.425831317901611,-0.0,-0.0,-1.0,0.2020169597607415,2.0,0.0
3.2243785858154297,29.268966674804688,-1.448042392730713,-0.0,-0.0,-1.0,0.1263499021828124,1.0,0.0
2.933314323425293,28.40614318847656,-1.1154093742370603,-0.0,-0.0,-1.0,0.2926584396765507,1.0,0.0
4.580237865447998,30.186511993408203,-1.713155746459961,-0.0,-0.0,-1.0,0.1397243372900736,1.0,0.0
4.979334354400635,28.655521392822266,-1.3734769821166992,-0.0,-0.0,-1.0,0.0924729095495,1.0,0.0
4.8485236167907715,29.337257385253903,-1.5359554290771484,-0.0,-0.0,-1.0,0.1781599857397175,2.0,0.0
4.755889415740967,29.98855972290039,-1.7020177841186523,-0.0,-0.0,-1.0,0.1477330615677935,2.0,0.0
4.759594440460205,29.44804000854492,-1.5440359115600586,-0.0,-0.0,-1.0,0.1500729017350758,2.0,0.0
4.684051990509033,29.8448486328125,-1.6402368545532229,-0.0,-0.0,-1.0,0.1773979315003022,1.0,0.0
4.600991725921631,30.048660278320312,-1.6779460906982422,-0.0,-0.0,-1.0,0.1992853638143813,1.0,0.0
4.099257946014404,29.64830780029297,-1.425053596496582,-0.0,-0.0,-1.0,0.1153302958310857,2.0,0.0
3.95460844039917,29.72480010986328,-1.4094562530517578,-0.0,-0.0,-1.0,0.1517663942355988,2.0,0.0
3.2760071754455566,30.27756118774414,-1.3991775512695312,-0.0,-0.0,-1.0,0.0461706235008973,2.0,0.0
4.992107391357422,28.664974212646484,-1.6601066589355469,-0.0,-0.0,-1.0,0.1878162175414069,1.0,0.0
4.811542510986328,28.693843841552734,-1.6640825271606443,-0.0,-0.0,-1.0,0.0949962675159656,2.0,0.0
5.197055816650391,28.776500701904297,-1.6928234100341797,-0.0,-0.0,-1.0,0.127370738528962,1.0,0.0
4.882168769836426,28.327436447143555,-1.4902935028076172,-0.0,-0.0,-1.0,0.1014586106278677,1.0,0.0
5.108234882354736,28.74198341369629,-1.592595100402832,-0.0,-0.0,-1.0,0.1215485185816046,1.0,0.0
3.4109110832214355,28.63881492614746,-1.6454963684082031,-0.0,-0.0,-1.0,0.0560159959958377,1.0,0.0
3.059966564178467,28.566362380981445,-1.643869400024414,-0.0,-0.0,-1.0,0.0424989568813776,1.0,0.0
4.728034496307373,28.973663330078125,-1.740605354309082,-0.0,-0.0,-1.0,0.0706590271723302,2.0,0.0
4.1953816413879395,28.679397583007812,-1.7019987106323242,-0.0,-0.0,-1.0,0.1033678711136813,1.0,0.0
4.484419345855713,28.826984405517575,-1.719435691833496,-0.0,-0.0,-1.0,0.1481732237804064,1.0,0.0
3.439096212387085,28.307697296142575,-1.6622800827026367,-0.0,-0.0,-1.0,0.0885533211774922,1.0,0.0
3.72336483001709,28.40124893188477,-1.6640501022338867,-0.0,-0.0,-1.0,0.0813138150486131,1.0,0.0
4.622185707092285,30.085124969482425,-1.7433037757873535,-0.0,-0.0,-1.0,0.1600978514111001,1.0,0.0
4.397426605224609,30.15911102294922,-1.7885422706604004,-0.0,-0.0,-1.0,0.1723972559335606,1.0,0.0
5.015377998352051,29.984817504882812,-1.67307710647583,-0.0,-0.0,-1.0,0.1146903945456771,1.0,0.0
4.788698196411133,30.01063537597656,-1.7045645713806152,0.2428436470707817,-0.4594764777449613,-0.8543467267312761,0.1465405962690404,3.0,0.0
3.691903114318848,29.498533248901367,-1.684378147125244,-0.0,-0.0,-1.0,0.085231812330538,2.0,0.0
4.09176778793335,29.709367752075195,-1.6976027488708496,-0.0,-0.0,-1.0,0.1797615634450368,2.0,0.0
3.2901456356048584,29.36875915527344,-1.6948494911193848,-0.0,-0.0,-1.0,0.2182000033963516,1.0,0.0
3.936183452606201,29.961448669433594,-1.7851719856262207,-0.0,-0.0,-1.0,0.1428295871450422,1.0,0.0
2.9545657634735107,29.3463191986084,-1.7282156944274902,-0.0,-0.0,-1.0,0.048352695892472,1.0,0.0
4.479444980621338,29.934307098388672,-1.7716898918151855,-0.0,-0.0,-1.0,0.1796010309774781,1.0,0.0
4.308224201202393,29.842124938964844,-1.7680020332336426,-0.0,-0.0,-1.0,0.0947806416446561,2.0,0.0
4.9094624519348145,28.804607391357425,-1.379371166229248,-0.0,-0.0,-1.0,0.1269206002969459,1.0,0.0
4.522305488586426,28.66390609741211,-1.3896536827087402,-0.0,-0.0,-1.0,0.1803486669153753,1.0,0.0
4.8075337409973145,29.405921936035156,-1.5708270072937012,-0.8847264840383249,-0.0397065652535368,-0.4644162326156896,0.2087490704880876,3.0,0.0
4.07454252243042,28.90716552734375,-1.5234532356262207,-0.0,-0.0,-1.0,0.1708247910512904,1.0,0.0
3.8482418060302734,28.683094024658203,-1.4889235496520996,-0.0,-0.0,-1.0,0.1904788871043918,2.0,0.0
3.90045166015625,29.439674377441406,-1.7059330940246582,-0.0,-0.0,-1.0,0.0696059169601325,1.0,0.0
3.411240577697754,28.34160041809082,-1.4504790306091309,-0.0,-0.0,-1.0,0.1013561402806036,1.0,0.0
3.283245086669922,28.941625595092773,-1.647355556488037,-0.1462661999368225,0.4268075037019793,-0.8924357419667401,0.1024578203718867,3.0,0.0
3.617766857147217,29.201814651489254,-1.6758027076721191,-0.0,-0.0,-1.0,0.0700552692395911,1.0,0.0
2.7974977493286133,28.519824981689453,-1.5946860313415527,-0.0,-0.0,-1.0,0.0580595908500998,2.0,0.0
3.0672574043273926,28.756032943725582,-1.6242594718933103,-0.0,-0.0,-1.0,0.0869402563979104,1.0,0.0
0.0,0.0,0.0,0.0,0.0,0.0,0.0,0.0,0.0
0.0,0.0,0.0,0.0,0.0,0.0,0.0,0.0,0.0
0.0,0.0,0.0,0.0,0.0,0.0,0.0,0.0,0.0
0.0,0.0,0.0,0.0,0.0,0.0,0.0,0.0,0.0
0.0,0.0,0.0,0.0,0.0,0.0,0.0,0.0,0.0
0.0,0.0,0.0,0.0,0.0,0.0,0.0,0.0,0.0
0.0,0.0,0.0,0.0,0.0,0.0,0.0,0.0,0.0
0.0,0.0,0.0,0.0,0.0,0.0,0.0,0.0,0.0
0.0,0.0,0.0,0.0,0.0,0.0,0.0,0.0,0.0
0.0,0.0,0.0,0.0,0.0,0.0,0.0,0.0,0.0
0.0,0.0,0.0,0.0,0.0,0.0,0.0,0.0,0.0
0.0,0.0,0.0,0.0,0.0,0.0,0.0,0.0,0.0
0.0,0.0,0.0,0.0,0.0,0.0,0.0,0.0,0.0
0.0,0.0,0.0,0.0,0.0,0.0,0.0,0.0,0.0
0.0,0.0,0.0,0.0,0.0,0.0,0.0,0.0,0.0
0.0,0.0,0.0,0.0,0.0,0.0,0.0,0.0,0.0
0.0,0.0,0.0,0.0,0.0,0.0,0.0,0.0,0.0
0.0,0.0,0.0,0.0,0.0,0.0,0.0,0.0,0.0
0.0,0.0,0.0,0.0,0.0,0.0,0.0,0.0,0.0
0.0,0.0,0.0,0.0,0.0,0.0,0.0,0.0,0.0
0.0,0.0,0.0,0.0,0.0,0.0,0.0,0.0,0.0
