x,y,z,nx,ny,nz,curvature,density,label
28.439022064208984,0.19678795337677,-0.4374258518218994,-0.0,-0.0,-1.0,0.1885855186716959,1.0,0.0
28.257715225219727,-0.2914912700653076,-0.4588087797164917,-0.0,-0.0,-1.0,0.2528152840837342,1.0,0.0
28.999778747558594,0.4919897317886352,-0.7114652395248413,-0.0,-0.0,-1.0,0.0763989155010982,2.0,0.0
28.41938018798828,-0.3430831432342529,-0.4314570426940918,-0.0,-0.0,-1.0,0.2462662088351719,2.0,0.0
28.398284912109375,-0.5212401151657104,-0.4331307411193847,0.281576871578246,0.9003017280885981,0.3319205684992907,0.1985002072419799,4.0,0.0
29.132892608642575,0.2437943220138549,-0.6766409873962402,0.5665079862872133,0.4426661552143233,-0.6950650160240948,0.0960773553394843,5.0,0.0
29.098411560058594,-0.0184941291809082,-0.6764627695083618,-0.5243694237700252,-0.2128632990987472,-0.8244549249727903,0.0866286135109245,4.0,0.0
28.99255752563477,-0.4145434498786926,-0.6899527311325073,0.092225849458429,-0.6034607354909892,-0.7920413710232228,0.0706534874048654,3.0,0.0
28.955848693847656,-0.6676591038703918,-0.6942013502120972,-0.0,-0.0,-1.0,0.0680892246931608,2.0,0.0
29.109636306762695,-0.8328355550765991,-0.6620445251464844,-0.0,-0.0,-1.0,0.0190338399131273,1.0,0.0
29.452484130859375,-1.1189088821411133,-0.5922795534133911,-0.4890975198406564,0.4153931787066502,-0.7669629216394389,0.0418564829527298,3.0,0.0
29.345218658447266,-1.7510595321655271,-0.619768500328064,-0.0,-0.0,-1.0,0.1174988686233431,2.0,0.0
29.633533477783203,-1.847987413406372,-0.5633957386016846,0.1197387298770506,-0.9830987202010892,-0.1384902267541333,0.1719574807484539,7.0,0.0
28.675357818603516,-0.2392456531524658,-0.3906927108764648,-0.0,-0.0,-1.0,0.1873172099449999,2.0,0.0
28.49176025390625,-0.4911304116249084,-0.2337573766708374,-0.0,-0.0,-1.0,0.2103512505701303,2.0,0.0
29.7228946685791,-1.779587745666504,0.1056520938873291,-0.0,-0.0,-1.0,0.1165195733545831,1.0,1.0
28.652660369873047,0.5240817070007324,-0.6744561195373535,-0.0,-0.0,-1.0,0.1067792693857201,1.0,0.0
28.61835479736328,0.3011879920959472,-0.6687132120132446,-0.0,-0.0,-1.0,0.1462078676465896,2.0,0.0
29.05685806274414,0.5982553958892822,-0.6030997037887573,-0.0,-0.0,-1.0,0.1410026018045311,2.0,0.0
28.700389862060547,0.0425372123718261,-0.6405776739120483,-0.0,-0.0,-1.0,0.1047960876166218,1.0,0.0
28.526386260986328,-0.3073357343673706,-0.6591386795043945,0.1692493999742607,0.0125691322355802,-0.98549310374208,0.1463983161305947,3.0,0.0
28.352859497070312,-0.6282755136489868,-0.6817330121994019,-0.0,-0.0,-1.0,0.1090724251436689,2.0,0.0
29.78645133972168,0.5120589733123779,-0.7843451499938965,-0.0,-0.0,-1.0,0.0444107269754053,1.0,0.0
28.552030563354492,-0.9284604787826538,-0.6350212097167969,-0.3119012869671582,0.7876332096172771,-0.5313675886768187,0.0554587663491125,3.0,0.0
28.526535034179688,-1.157251000404358,-0.635231614112854,-0.0,-0.0,-1.0,0.0254676986417609,1.0,0.0
28.449071884155273,-1.4880549907684326,-0.6456228494644165,-0.0,-0.0,-1.0,0.0601380602723088,1.0,0.0
29.886430740356445,0.6064882278442383,-0.7696928977966309,-0.3569910834195625,0.7889515090004785,-0.5001128700651425,0.0357701635150818,3.0,0.0
29.76876449584961,0.2803218364715576,-0.771700382232666,-0.0,-0.0,-1.0,0.0503319833804669,1.0,0.0
29.68052673339844,-0.102795124053955,-0.7672393321990967,-0.0,-0.0,-1.0,0.0920783663259697,1.0,0.0
29.58404541015625,-0.389862060546875,-0.7737603187561035,-0.082607277779575,0.6364708199191191,-0.7668643511399734,0.1198669826231921,3.0,0.0
28.53919219970703,-1.38706374168396,-0.6291621923446655,-0.8331260248169051,0.1823730256330517,-0.5221504632711036,0.0555605626588954,4.0,0.0
28.479461669921875,-1.7119280099868774,-0.6382107734680176,-0.0,-0.0,-1.0,0.0275069772139302,1.0,0.0
29.666080474853516,-0.5599642992019653,-0.7471790313720703,-0.0,-0.0,-1.0,0.083041361259052,2.0,0.0
29.948246002197266,-1.7915639877319336,-0.6507358551025391,-0.0,-0.0,-1.0,0.0221127907169504,2.0,0.0
28.56222915649414,0.4984476566314697,-0.3299160003662109,0.0144673009335874,0.6997007489648126,-0.7142895485038102,0.154859578070814,9.0,0.0
28.23826789855957,-0.2819861173629761,-0.3504712581634521,-0.2653412285238244,0.909116150855684,-0.3210947783736331,0.1710438352584303,3.0,0.0
28.122989654541016,-0.5104053020477295,-0.3622316122055053,-0.0,-0.0,-1.0,0.180537024555205,1.0,0.0
28.65699005126953,-0.1039316654205322,-0.2907674312591553,0.0261611473393033,-0.3781230273723753,-0.9253856334202736,0.2419477154924664,5.0,0.0
28.446317672729492,-0.3550888299942016,-0.3156347274780273,-0.0,-0.0,-1.0,0.2082798377805796,1.0,0.0
28.302143096923828,-0.5400248765945435,-0.3332704305648803,-0.0,-0.0,-1.0,0.1867427160466817,2.0,0.0
29.57236099243164,-1.8616729974746704,-0.2682981491088867,-0.0,-0.0,-1.0,0.0981015134429937,1.0,0.0
28.525970458984375,-0.4345293045043945,0.0489783287048339,0.3680939113303377,0.9219129932702014,0.1207613567376208,0.1560108163550177,5.0,1.0
27.775691986083984,0.4856948852539062,-0.5644317865371704,-0.0658974121747238,-0.1096278158077394,-0.9917859008222988,0.1766589494668132,3.0,0.0
27.784931182861328,0.4386730194091797,-0.5598480701446533,-0.0,-0.0,-1.0,0.1358968544601167,2.0,0.0
28.988941192626953,0.5597662925720215,-0.7107185125350952,-0.0,-0.0,-1.0,0.159800545627024,2.0,0.0
29.05553817749023,0.2541773319244385,-0.6726710796356201,-0.3298878503656507,-0.2036531756214077,-0.9217914027807196,0.0952121710357564,3.0,0.0
30.11494255065918,0.5001778602600098,-0.7931872606277466,-0.0,-0.0,-1.0,0.0283631982381943,1.0,0.0
29.05655288696289,-0.0102162361145019,-0.6521700620651245,-0.5422260283639513,-0.55746369848021,-0.6286693558949897,0.0739736539037274,4.0,0.0
28.978191375732425,-0.257326602935791,-0.650849461555481,0.9703412281178329,0.0107350947787459,-0.2415008462818844,0.0682970746252058,3.0,0.0
28.771024703979492,-0.6421151161193848,-0.6692806482315063,-0.0,-0.0,-1.0,0.0681940046656784,2.0,0.0
30.072669982910156,0.2688961029052734,-0.7785276174545288,-0.4719025391567195,-0.637730952764663,-0.6087751846316636,0.049025856762399,4.0,0.0
29.96918487548828,-0.0892379283905029,-0.767799973487854,-0.802945339923819,-0.4301515249681804,-0.412611738396003,0.0248246437218227,4.0,0.0
28.867206573486328,-1.0008763074874878,-0.630501389503479,-0.5678190638419135,-0.1347378636517982,-0.8120512415089592,0.0359706003602488,3.0,0.0
28.840330123901367,-1.2516494989395142,-0.6247711181640625,-0.0,-0.0,-1.0,0.0355753922314843,2.0,0.0
30.015399932861328,-0.2662358283996582,-0.7410680055618286,-0.0,-0.0,-1.0,0.0816773909529407,1.0,0.0
28.846752166748047,-1.3929733037948608,-0.6178028583526611,-0.0,-0.0,-1.0,0.0275862840201889,1.0,0.0
28.77702522277832,-1.739067554473877,-0.6205347776412964,-0.0,-0.0,-1.0,0.0217787981527022,2.0,0.0
30.109525680541992,-1.5451083183288574,-0.6327855587005615,-0.1966577565894058,-0.9597436689545726,-0.2005438023845107,0.0851735111296696,3.0,0.0
29.972272872924805,-1.7788766622543335,-0.656493067741394,-0.0,-0.0,-1.0,0.0236152158520826,2.0,0.0
28.666955947875977,-0.1179683208465576,-0.3796060085296631,-0.1395481777554166,-0.9896804668179892,-0.032540431528633,0.2045485410315151,3.0,0.0
28.430749893188477,-0.4290034770965576,-0.4026836156845093,0.3306786614534523,0.9295445428656252,0.1630906670784342,0.2349447361276734,5.0,0.0
28.237634658813477,-0.6067969799041748,-0.4269300699234009,-0.0,-0.0,-1.0,0.2495802791866243,1.0,0.0
28.51677703857422,-0.5883378982543945,-0.3802753686904907,-0.0,-0.0,-1.0,0.1767826230899354,2.0,0.0
29.77827835083008,0.0293695926666259,-0.5115115642547607,-0.0,-0.0,-1.0,0.2029826637416448,2.0,0.0
28.44894027709961,-0.4514667987823486,-0.0550872087478637,-0.4205705776105224,0.7866083749967451,-0.4520704078275105,0.2530129625909312,3.0,0.0
29.299545288085938,0.3884074687957763,-0.7350836992263794,-0.0,-0.0,-1.0,0.1526243051703598,1.0,0.0
29.293109893798828,0.1565206050872802,-0.7161968946456909,-0.0,-0.0,-1.0,0.0899308335177015,1.0,0.0
29.185810089111328,-0.1282441616058349,-0.7163097858428955,-0.0,-0.0,-1.0,0.0469045262908253,1.0,0.0
29.09080696105957,-0.3846087455749511,-0.7176021337509155,-0.4250957086457251,-0.0654325490063844,-0.9027802722819742,0.0679926670301429,4.0,0.0
29.186912536621097,-0.4482846260070801,-0.6924436092376709,-0.5511586692727809,-0.1683260021429778,-0.8172456658117065,0.0360720349284575,4.0,0.0
29.08795166015625,-0.5960841178894043,-0.7040212154388428,-0.0,-0.0,-1.0,0.0258118552038613,2.0,0.0
28.079151153564453,0.4883599281311035,-0.6340842247009277,-0.0,-0.0,-1.0,0.103803203310949,2.0,0.0
29.107763290405273,0.5415134429931641,-0.4568269252777099,-0.0,-0.0,-1.0,0.140802831771042,1.0,0.0
28.495494842529297,0.4813499450683594,-0.5598336458206177,-0.3407107078471921,0.755689584567192,-0.5593294783353816,0.1741949456898443,4.0,0.0
28.01457977294922,0.2514395713806152,-0.6302319765090942,-0.0,-0.0,-1.0,0.0725940466203705,1.0,0.0
27.857175827026367,-0.0246014595031738,-0.6417895555496216,-0.0,-0.0,-1.0,0.0659156270454914,2.0,0.0
27.793670654296875,-0.4306421279907226,-0.6314519643783569,-0.0,-0.0,-1.0,0.0589209244522566,2.0,0.0
28.490896224975582,-0.4565811157226562,-0.502464771270752,0.70221749374024,-0.4987951937726542,-0.5080294737064736,0.1567279513606012,5.0,0.0
27.71154022216797,-0.9616875648498536,-0.6227990388870239,-0.0,-0.0,-1.0,0.0304830661644139,1.0,0.0
29.196125030517575,-0.4830720424652099,-0.6880624294281006,0.4105901569054176,0.0467255280847379,-0.9106220116368736,0.0340101265337301,4.0,0.0
29.133995056152344,-0.7464463710784912,-0.684456467628479,-0.0,-0.0,-1.0,0.0250452702944976,1.0,0.0
27.861900329589844,-1.3500741720199585,-0.580435037612915,-0.7365042141703068,0.1745311538546479,-0.6535292027473174,0.0592825141065373,3.0,0.0
29.517650604248047,-1.034317970275879,-0.583452582359314,0.1944165070244841,0.0681082153524777,-0.9785517323054004,0.0583970443775675,4.0,0.0
29.29732131958008,-0.9598517417907716,-0.6361671686172485,-0.935886306946304,0.0951091096410001,-0.3392212813691146,0.0840411248813089,3.0,0.0
27.91820526123047,-1.5272904634475708,-0.5641946792602539,0.1217538762616875,0.0368760289738487,-0.9918750687976652,0.0977059586063517,3.0,0.0
27.88235092163086,-1.745651364326477,-0.5649969577789307,-0.0,-0.0,-1.0,0.0424902762016111,1.0,0.0
29.39775848388672,-1.3154513835906982,-0.5952152013778687,-0.0,-0.0,-1.0,0.0383846801738,1.0,0.0
29.131385803222656,-1.5984225273132324,-0.6419253349304199,-0.0,-0.0,-1.0,0.0191880035118221,1.0,0.0
30.150175094604492,-1.8409879207611084,-0.6789819002151489,-0.8179540438199516,0.3919707125661362,-0.4210821092007876,0.0310762547896057,5.0,0.0
28.438373565673828,-0.4207637310028076,-0.1759918928146362,0.2847434535219956,-0.9578769124849026,-0.0373227304032982,0.2104837317446816,5.0,0.0
29.690988540649418,-1.7847297191619873,0.0596790313720703,-0.0,-0.0,-1.0,0.1156331806753026,2.0,1.0
29.10834503173828,0.3154597282409668,-0.7147996425628662,-0.0,-0.0,-1.0,0.0668720789629376,2.0,0.0
30.104318618774418,0.2504398822784424,-0.7994668483734131,-0.0,-0.0,-1.0,0.045953619356853,2.0,0.0
30.000642776489254,0.0250623226165771,-0.79624342918396,-0.0,-0.0,-1.0,0.0256411144814907,1.0,0.0
29.08369827270508,0.0649590492248535,-0.6958780288696289,-0.8235171403457389,0.3373259846014462,0.4561038255369516,0.0641393955090254,3.0,0.0
30.05210304260254,-0.1636147499084472,-0.762549638748169,0.2029310862357133,0.5359615285511493,-0.8194902160198797,0.0806976139006087,5.0,0.0
28.80133056640625,-0.4960873126983642,-0.7070431709289551,-0.0,-0.0,-1.0,0.0627997239094649,1.0,0.0
28.766733169555664,-0.8319690227508545,-0.6899876594543457,-0.0,-0.0,-1.0,0.0259906260621257,1.0,0.0
29.18033218383789,0.5247974395751953,-0.4014112949371338,-0.2479171078250961,-0.8282584098668245,0.5025187699305557,0.1911910156448742,3.0,0.0
28.40320587158203,0.5003721714019775,-0.5299515724182129,-0.0,-0.0,-1.0,0.1642284740302078,1.0,0.0
28.062633514404297,0.5153980255126953,-0.5892124176025391,-0.0,-0.0,-1.0,0.1392649162467093,1.0,0.0
27.760766983032227,0.2917158603668213,-0.6241658926010132,-0.0,-0.0,-1.0,0.0826410033709005,1.0,0.0
29.17623519897461,0.1383366584777832,-0.6838977336883545,-0.0,-0.0,-1.0,0.1407405969214701,2.0,0.0
27.72731590270996,0.0012362003326416,-0.6097217798233032,-0.0,-0.0,-1.0,0.1040630008508906,2.0,0.0
29.869443893432617,0.0929381847381591,-0.5397067070007324,-0.0,-0.0,-1.0,0.2239146542597679,1.0,0.0
29.072834014892575,-0.1085293292999267,-0.6826311349868774,-0.2588731762094965,0.2656974792484623,-0.928649303106517,0.0446147998462994,3.0,0.0
28.68269157409668,-0.235098123550415,-0.4271115064620971,0.1908615101645727,-0.9788953426798712,-0.0730465058531628,0.1748996067193771,3.0,0.0
28.42665672302246,-0.4088099002838135,-0.460189938545227,-0.2063577349986865,0.9781914793797624,0.0236202217399384,0.2133594080750998,6.0,0.0
29.044090270996097,-0.3707132339477539,-0.6661989688873291,0.7989966987772017,-0.4295047963303049,-0.4208680378365609,0.077673502636352,4.0,0.0
28.850200653076172,-0.6772167682647705,-0.6833834648132324,-0.0,-0.0,-1.0,0.07949257003712,1.0,0.0
28.38321304321289,-0.6097297668457031,-0.455521821975708,-0.4942908965907074,0.7943500896947414,0.353106845798139,0.1972545244615718,5.0,0.0
28.891345977783203,-1.0667898654937744,-0.6479983329772949,-0.0,-0.0,-1.0,0.0379004906678429,2.0,0.0
30.019248962402344,-1.252190113067627,-0.6668120622634888,-0.0,-0.0,-1.0,0.0313639620745885,1.0,0.0
28.821144104003903,-1.3382680416107178,-0.6469066143035889,-0.0,-0.0,-1.0,0.02042410909886,1.0,0.0
28.787036895751953,-1.5578908920288086,-0.6425695419311523,-0.8522089767381011,-0.4751338397267337,0.2190609374432814,0.0222577313988583,3.0,0.0
30.106046676635746,-1.4763606786727903,-0.6285920143127441,-0.0,-0.0,-1.0,0.0854721704539736,2.0,0.0
29.951141357421875,-1.6805623769760132,-0.6538898944854736,-0.0,-0.0,-1.0,0.0247779691080394,1.0,0.0
29.498146057128903,-1.8210289478302,-0.4749284982681274,0.1980208100503407,-0.9733388692100804,0.1157549328186447,0.1495377218016946,7.0,0.0
28.43348503112793,-0.4174757003784179,-0.1308460235595703,-0.5563343761158489,-0.8309584734433211,0.0002781448088956,0.2214938939078309,3.0,0.0
28.53406524658203,-0.4737343788146972,-0.1136165857315063,-0.0,-0.0,-1.0,0.1814298419561879,2.0,0.0
27.77333068847656,0.0150356292724609,-0.6626129150390625,-0.0,-0.0,-1.0,0.0575866483042362,1.0,0.0
28.273073196411133,0.5899307727813721,-0.6295582056045532,-0.0,-0.0,-1.0,0.1635728814626811,2.0,0.0
28.004955291748047,0.4551174640655517,-0.6638084650039673,-0.0,-0.0,-1.0,0.0930214837471175,2.0,0.0
27.904626846313477,0.1374449729919433,-0.649671196937561,0.6169977207776693,-0.7339077139305007,-0.2840656262001221,0.0569976399091611,4.0,0.0
28.677873611450195,-0.1623382568359375,-0.4722641706466675,-0.0,-0.0,-1.0,0.1736398284142984,1.0,0.0
28.340930938720703,-0.3712372779846191,-0.516769289970398,-0.0,-0.0,-1.0,0.2135228972941883,1.0,0.0
27.885587692260746,-0.3839149475097656,-0.6045550107955933,-0.0,-0.0,-1.0,0.0625547768986657,1.0,0.0
27.746414184570312,-0.4392099380493164,-0.6271260976791382,-0.1940132098803481,0.7520720251407745,-0.6298781972672001,0.059668519259729,3.0,0.0
28.37720489501953,-0.597421407699585,-0.4897807836532593,-0.5138370527563355,0.7747334644979578,0.3684556176823396,0.1958149425457448,3.0,0.0
28.622785568237305,-0.2853426933288574,-0.1743241548538208,-0.0,-0.0,-1.0,0.1839868183426877,1.0,0.0
28.34539031982422,-0.3512787818908691,-0.2132539749145507,-0.0,-0.0,-1.0,0.1997971225568719,2.0,0.0
28.47790908813477,-0.5190725326538086,-0.1790567636489868,-0.7203731968000516,-0.5668922947943447,0.3996192981261989,0.2035837637285319,3.0,0.0
28.5666446685791,-0.439178466796875,0.1212921142578125,0.1591325821357369,-0.2068621286373815,-0.9653418467249952,0.2126734073973342,4.0,1.0
29.777099609375,0.6042544841766357,-0.793201208114624,-0.0,-0.0,-1.0,0.0290016222492665,1.0,0.0
29.683435440063477,0.3738024234771728,-0.7904715538024902,-0.0,-0.0,-1.0,0.0434112219300738,2.0,0.0
29.657548904418945,0.1646585464477539,-0.6368598937988281,-0.0,-0.0,-1.0,0.1692627558397393,1.0,0.0
28.89317321777344,0.3160104751586914,-0.6869817972183228,0.9933010669472226,-2.1415365950771755e-05,-0.1155551381068388,0.064851883939566,3.0,0.0
27.908039093017575,0.604872465133667,-0.6026843786239624,-0.0,-0.0,-1.0,0.0826021753513006,2.0,0.0
27.739501953125,0.5210578441619873,-0.6317625045776367,-0.0,-0.0,-1.0,0.1421117817937325,2.0,0.0
29.5131778717041,-0.1549203395843505,-0.7812795639038086,-0.0,-0.0,-1.0,0.0288500718414229,1.0,0.0
28.863441467285156,-0.0489439964294433,-0.6663142442703247,-0.0,-0.0,-1.0,0.0508614065851216,2.0,0.0
29.736915588378903,-0.7176589965820312,-0.672122597694397,0.6350493837531476,0.7125932315424242,-0.2981998768522087,0.0226870442946486,3.0,0.0
29.56800842285156,-0.6739358901977539,-0.7217034101486206,0.3398283450474314,0.2614571474084154,-0.9034140003184464,0.0319421317286482,3.0,0.0
28.732288360595703,-0.4315509796142578,-0.6721689701080322,-0.0,-0.0,-1.0,0.0942906456610531,1.0,0.0
28.305150985717773,-0.3300187587738037,-0.4727709293365478,0.9851755134870728,0.1160589615348773,-0.12633101389971,0.2076450299536045,3.0,0.0
29.68055725097656,-1.0468525886535645,-0.6635687351226807,-0.0,-0.0,-1.0,0.0543221965559647,1.0,0.0
29.576950073242188,-0.8824965953826904,-0.7036632299423218,-0.0,-0.0,-1.0,0.0211359908680043,1.0,0.0
28.63937759399414,-0.8298947811126709,-0.6725670099258423,-0.0,-0.0,-1.0,0.0447359990691999,2.0,0.0
28.27577209472656,-0.6251325607299805,-0.4662718772888183,-0.0,-0.0,-1.0,0.2177127018574923,1.0,0.0
29.650991439819336,-1.3905227184295654,-0.6508909463882446,-0.0,-0.0,-1.0,0.0595623066905855,1.0,0.0
28.65245819091797,-1.2349936962127686,-0.6512957811355591,-0.0,-0.0,-1.0,0.0302310769348117,2.0,0.0
29.565446853637695,-1.8070578575134275,-0.6554896831512451,-0.0,-0.0,-1.0,0.1164240896894317,2.0,0.0
28.597259521484375,-1.6681689023971558,-0.6508214473724365,-0.0,-0.0,-1.0,0.0232299385662809,1.0,0.0
27.70982360839844,-1.8086971044540403,-0.5577106475830078,-0.0,-0.0,-1.0,0.0459224945077927,2.0,0.0
28.33481788635254,-0.3345041275024414,-0.1638805866241455,-0.0,-0.0,-1.0,0.1610041749860387,1.0,0.0
29.506450653076172,-1.8254363536834717,-0.2937577962875366,-0.0,-0.0,-1.0,0.1137307202758492,1.0,0.0
29.469989776611328,-1.801336646080017,-0.4278383255004883,-0.0,-0.0,-1.0,0.0910283990796197,1.0,0.0
29.00821304321289,0.6016814708709717,-0.7357039451599121,-0.0,-0.0,-1.0,0.1746740077052175,1.0,0.0
28.287063598632812,0.6322472095489502,-0.5848509073257446,-0.0,-0.0,-1.0,0.1598764557121807,1.0,0.0
28.02869415283203,0.4594557285308838,-0.6285544633865356,-0.0,-0.0,-1.0,0.1111273496151359,2.0,0.0
29.083465576171875,0.1888225078582763,-0.6834125518798828,-0.0726277176422621,0.9171313138266752,-0.3919124491881223,0.1256141262238909,3.0,0.0
27.924909591674805,0.1456098556518554,-0.6344276666641235,0.6169977207776693,-0.7339077139305007,-0.2840656262001221,0.1098918750562574,4.0,0.0
29.011796951293945,-0.1525194644927978,-0.6754933595657349,-0.0,-0.0,-1.0,0.0537063364480868,2.0,0.0
28.930240631103516,-0.3163669109344482,-0.6846333742141724,0.7462784580790376,-0.5276066196614962,-0.4058321301924514,0.0660550937838292,4.0,0.0
27.823543548583984,-0.322812557220459,-0.6363497972488403,-0.776098780854763,0.6041922298164824,-0.1806168092541153,0.0527356333528147,4.0,0.0
28.840431213378903,-0.594275712966919,-0.6909030675888062,-0.0,-0.0,-1.0,0.0755952998976767,1.0,0.0
28.9401798248291,-0.9330778121948242,-0.6486328840255737,0.5264909834618005,-0.8478423622516802,-0.0630124837228025,0.0195746080444503,3.0,0.0
28.59088706970215,0.4829170703887939,-0.5127397775650024,0.7831548329902335,-0.0306365548620431,-0.6210715812772509,0.1419766948606616,3.0,0.0
28.74515151977539,-0.1732842922210693,-0.4436031579971313,-0.0,-0.0,-1.0,0.1822111496675207,2.0,0.0
28.4025936126709,-0.3394739627838135,-0.3587647676467895,0.9923622678105878,-0.1190402913823362,0.0323502465745785,0.2122608021287113,3.0,0.0
28.062549591064453,-0.2118911743164062,-0.5886139869689941,-0.0,-0.0,-1.0,0.2072360502114837,1.0,0.0
28.46040916442871,-0.4771952629089355,-0.4914777278900146,-0.0158742986089112,-0.4519057547557444,-0.8919244337175187,0.2308433871473607,3.0,0.0
27.98620986938477,-0.573739767074585,-0.4357566833496094,-0.0,-0.0,-1.0,0.134239407879214,1.0,0.0
27.771814346313477,-0.8672003746032715,-0.6313409805297852,-0.0,-0.0,-1.0,0.0273647473242962,2.0,0.0
29.115928649902344,-1.1100492477416992,-0.5960278511047363,-0.0,-0.0,-1.0,0.0472846683583769,2.0,0.0
27.894214630126953,-1.186500072479248,-0.5974069833755493,-0.0,-0.0,-1.0,0.0345049275812282,2.0,0.0
27.778751373291016,-0.9805269241333008,-0.6273000240325928,-0.0,-0.0,-1.0,0.0335720274653681,2.0,0.0
29.106840133666992,-1.2282264232635498,-0.5936319828033447,0.3714621239808226,0.7261345854942718,-0.5785710450728745,0.0390670248097248,3.0,0.0
28.93502426147461,-1.4121437072753906,-0.6322004795074463,-0.0,-0.0,-1.0,0.0257081722586778,2.0,0.0
27.958721160888672,-1.4741394519805908,-0.579094409942627,-0.0,-0.0,-1.0,0.1120882640678679,1.0,0.0
29.491025924682617,-1.855945348739624,-0.4752503633499145,0.1423062447409833,-0.988524675046654,0.0506744465349777,0.0754051291925487,8.0,0.0
28.90187644958496,-1.8299777507781985,-0.6315212249755859,-0.6719059467870571,-0.6850929098081037,-0.2814073623821061,0.0176916974064259,3.0,0.0
27.98223876953125,-1.8574211597442627,-0.5718185901641846,-0.0,-0.0,-1.0,0.0372068775035829,1.0,0.0
28.61932373046875,-0.3496437072753906,-0.0248663425445556,-0.0,-0.0,-1.0,0.1529477062102424,1.0,0.0
28.463882446289062,-0.4596045017242431,-0.1946769952774047,0.5703333056644456,-0.1971536061015237,0.797402267397724,0.1930150905268706,4.0,0.0
29.18025016784668,0.4605846405029297,-0.7233215570449829,-0.039714962985004,-0.4192352512573415,-0.9070085588451156,0.0657250553489786,3.0,0.0
28.53364372253418,0.5013618469238281,-0.5790122747421265,-0.1648366982429956,0.9397023226599744,-0.2996471386477717,0.1735878983189827,5.0,0.0
28.32231903076172,0.556246280670166,-0.6283016204833984,-0.0,-0.0,-1.0,0.1434494231580561,2.0,0.0
28.131715774536133,0.2922735214233398,-0.6388629674911499,-0.0,-0.0,-1.0,0.138887134907803,1.0,0.0
29.161848068237305,0.2136778831481933,-0.692819356918335,-0.0,-0.0,-1.0,0.0628724746844848,2.0,0.0
28.02792739868164,0.0862431526184082,-0.6399002075195312,-0.0,-0.0,-1.0,0.068642829327448,1.0,0.0
27.84745407104492,-0.2393474578857422,-0.6478753089904785,-0.0,-0.0,-1.0,0.057503017757036,1.0,0.0
29.741912841796875,0.0155363082885742,-0.5324007272720337,-0.0,-0.0,-1.0,0.1958569956729437,2.0,0.0
29.09090805053711,0.0751938819885253,-0.6904299259185791,-0.8235171403457389,0.3373259846014462,0.4561038255369516,0.0759827639590667,3.0,0.0
28.978382110595703,-0.1703231334686279,-0.6856926679611206,-0.0,-0.0,-1.0,0.0513828830931255,2.0,0.0
28.447389602661133,-0.4053008556365967,-0.5033066272735596,-0.4982449583468571,0.8564152145869868,-0.1352957564222343,0.1895875677984145,4.0,0.0
28.08637237548828,-0.3228921890258789,-0.5887643098831177,-0.0,-0.0,-1.0,0.1742837639777783,1.0,0.0
27.728321075439453,-0.4668440818786621,-0.654548168182373,-0.0,-0.0,-1.0,0.0210205760922956,2.0,0.0
28.84392547607422,-0.4302799701690674,-0.6865754127502441,-0.0,-0.0,-1.0,0.0561705951449258,1.0,0.0
28.614002227783203,-0.5930819511413574,-0.5845283269882202,-0.0,-0.0,-1.0,0.1354702401403852,1.0,0.0
27.74431037902832,-0.8805034160614014,-0.6185040473937988,0.1210655312160568,-0.807450950484784,-0.5773786450091417,0.0266018354809708,3.0,0.0
27.716949462890625,-1.0978796482086182,-0.6092122793197632,-0.0,-0.0,-1.0,0.0303632689102918,1.0,0.0
28.787904739379883,-1.0739235877990725,-0.6325373649597168,0.2192108866389719,0.1398002623861987,-0.9656098973269204,0.0414081723250453,3.0,0.0
27.848352432250977,-1.343355417251587,-0.5633727312088013,-0.3494549458454599,0.3618835060378036,-0.8642462431980446,0.0532435562242981,4.0,0.0
28.711952209472656,-1.3806240558624268,-0.6241657733917236,-0.0,-0.0,-1.0,0.0521130017610903,2.0,0.0
28.630905151367188,-1.630892992019653,-0.6251674890518188,-0.0,-0.0,-1.0,0.0248891486422683,2.0,0.0
27.871522903442383,-1.521127223968506,-0.5471581220626831,0.2984547289308555,0.8184891039257385,-0.4909178765676105,0.1135768654048566,3.0,0.0
27.812402725219727,-1.7131366729736328,-0.5503356456756592,-0.0,-0.0,-1.0,0.0460400281963182,1.0,0.0
29.544368743896484,-1.8267357349395752,-0.3700509071350097,-0.3315938516516772,0.2779274227549978,-0.9015552480173192,0.1272774526380547,3.0,0.0
28.60681533813477,0.5157256126403809,-0.2742162942886352,0.2544529014302963,0.8116018031351439,-0.5258861417659595,0.1746914158655667,3.0,0.0
28.80571746826172,-0.1632003784179687,-0.1789391040802002,-0.0,-0.0,-1.0,0.2258178019968727,1.0,0.0
28.475231170654297,-0.3515646457672119,-0.0861127376556396,-0.0,-0.0,-1.0,0.1573580621082758,1.0,0.0
28.12764358520508,-0.3914916515350342,-0.2841981649398803,-0.0,-0.0,-1.0,0.1557866903885656,1.0,0.0
28.49744415283203,-0.5857093334197998,-0.2016150951385498,0.6095839402789153,-0.2890783030505277,-0.7381335613962144,0.1191030319755279,4.0,0.0
28.29328727722168,-0.5666730403900146,-0.2407002449035644,-0.0,-0.0,-1.0,0.1789623874873541,1.0,0.0
29.565006256103516,-1.80303955078125,-0.1424944400787353,-0.0,-0.0,-1.0,0.0381112148497868,1.0,0.0
29.64075469970703,-1.771082639694214,0.0906901359558105,-0.0,-0.0,-1.0,0.1156331806753025,1.0,1.0
28.0521297454834,0.5238447189331055,-0.6861917972564697,-0.0,-0.0,-1.0,0.0836669364101918,1.0,0.0
28.37697982788086,0.5904688835144043,-0.6315468549728394,-0.0,-0.0,-1.0,0.1445495821587256,2.0,0.0
27.988372802734375,0.2809948921203613,-0.6664794683456421,-0.0,-0.0,-1.0,0.0738093430234042,2.0,0.0
27.891056060791016,0.1302576065063476,-0.6669353246688843,0.2082023989816376,-0.9501918701807612,0.2319206133587045,0.0538442288991712,3.0,0.0
27.780715942382812,-0.2025327682495117,-0.6496902704238892,-0.0,-0.0,-1.0,0.0570426941711323,2.0,0.0
29.10183334350586,0.6144943237304688,-0.498613953590393,-0.0,-0.0,-1.0,0.0973779515112414,1.0,0.0
28.58549690246582,0.5050191879272461,-0.3010545969009399,-0.6910623158074074,0.7218338274492488,0.0372666234165533,0.156606395072206,10.0,0.0
28.605497360229492,-0.0484733581542968,-0.4968811273574829,-0.0,-0.0,-1.0,0.1265853971004717,1.0,0.0
28.19158935546875,-0.1819257736206054,-0.5648880004882812,-0.0,-0.0,-1.0,0.1522393796575559,1.0,0.0
28.41220474243164,-0.4293475151062011,-0.357164978981018,0.998357543338834,0.021852299044199,-0.0529593493628038,0.2749584818144857,8.0,0.0
28.05406951904297,-0.5529468059539795,-0.4143818616867065,-0.0,-0.0,-1.0,0.1408424376724946,1.0,0.0
28.515159606933594,-0.4164752960205078,0.0466433763504028,0.3680939113303377,0.9219129932702014,0.1207613567376208,0.1850287214512508,5.0,1.0
29.570167541503903,-1.7923452854156494,-0.081896424293518,-0.0,-0.0,-1.0,0.0428055230303445,2.0,0.0
28.574722290039062,0.5153474807739258,-0.2903282642364502,-0.7370388189484958,0.5017641138635228,0.4527764938706073,0.1552875752862176,7.0,0.0
28.40684509277344,-0.4381613731384277,-0.1718817949295044,0.4260188061697497,-0.4818004762547341,-0.7657520994880866,0.205714957994764,5.0,0.0
28.578693389892575,-0.4205389022827148,0.0961753129959106,-0.3644765610630343,0.8229139346573322,0.4358548985413062,0.2018847048068846,3.0,1.0
27.803422927856445,0.0075349807739257,-0.6189912557601929,-0.0,-0.0,-1.0,0.0932019068095629,1.0,0.0
28.470195770263672,0.2861204147338867,-0.6746848821640015,-0.0,-0.0,-1.0,0.1473494230584341,1.0,0.0
28.2728214263916,0.1989283561706543,-0.6550599336624146,-0.0,-0.0,-1.0,0.1530051135292172,2.0,0.0
27.894250869750977,-0.0469117164611816,-0.5987563133239746,-0.0,-0.0,-1.0,0.0664892750953662,1.0,0.0
28.643884658813477,0.3352851867675781,-0.5429919958114624,-0.0,-0.0,-1.0,0.1740919322959395,1.0,0.0
28.401208877563477,0.0988340377807617,-0.6201184988021851,-0.0,-0.0,-1.0,0.1500247905867823,1.0,0.0
29.79629898071289,0.556889533996582,-0.7470594644546509,-0.0,-0.0,-1.0,0.0361450010654612,1.0,0.0
29.571796417236328,0.4891185760498047,-0.7234290838241577,-0.0,-0.0,-1.0,0.0871733027630206,1.0,0.0
29.14752197265625,0.3540191650390625,-0.6816598176956177,-0.0,-0.0,-1.0,0.0252997219941078,1.0,0.0
28.893218994140625,0.1830658912658691,-0.6318308115005493,-0.0,-0.0,-1.0,0.0527214801677259,1.0,0.0
28.634654998779297,-0.1419267654418945,-0.2747516632080078,-0.1045614053912618,-0.6415738212048996,-0.7599012728290088,0.1940314280660084,6.0,0.0
28.365537643432617,-0.3998827934265136,-0.3414496183395386,-0.032289092485096,0.5925854268548034,-0.8048601905833079,0.2091345912981548,6.0,0.0
30.02972984313965,0.6014246940612793,-0.7657808065414429,-0.0,-0.0,-1.0,0.0244512481452949,2.0,0.0
28.613561630249023,-0.3057003021240234,-0.2307265996932983,-0.0,-0.0,-1.0,0.1893018739936559,1.0,0.0
28.463714599609375,-0.4505567550659179,-0.0672485828399658,-0.0,-0.0,-1.0,0.2731127183849248,2.0,0.0
28.57662582397461,-0.5545573234558105,-0.0398056507110595,-0.0,-0.0,-1.0,0.1245463555556116,1.0,0.0
29.62446403503418,-1.8231616020202637,0.0047216415405273,-0.0,-0.0,-1.0,0.100483713042522,2.0,1.0
28.45737075805664,0.6344265937805176,-0.6560792922973633,-0.0,-0.0,-1.0,0.1180331751747827,1.0,0.0
28.28343391418457,0.3991918563842773,-0.6508989334106445,-0.0,-0.0,-1.0,0.0966750722836771,2.0,0.0
28.23490333557129,0.2703328132629394,-0.6395092010498047,-0.0,-0.0,-1.0,0.1731241107218077,2.0,0.0
27.917787551879883,-0.0700955390930175,-0.652069091796875,-0.0,-0.0,-1.0,0.0736421630423302,1.0,0.0
28.52538299560547,0.5132632255554199,-0.3380014896392822,0.262561675754959,0.1312898775020989,-0.9559415957527068,0.223869188937723,3.0,0.0
28.294452667236328,-0.1042342185974121,-0.5672488212585449,-0.0,-0.0,-1.0,0.1548255474442269,1.0,0.0
27.819664001464844,-0.3445682525634765,-0.6324046850204468,-0.0,-0.0,-1.0,0.052616884196509,2.0,0.0
28.568389892578125,-0.3486251831054687,-0.3438351154327392,-0.0,-0.0,-1.0,0.188696609173369,2.0,0.0
28.181779861450195,-0.3876543045043945,-0.414955735206604,-0.0,-0.0,-1.0,0.1296140344297423,1.0,0.0
28.03120803833008,-0.646754264831543,-0.2794811725616455,0.4685001187793053,-0.4576890716569444,-0.7556641796390651,0.1988888447870425,4.0,0.0
28.474761962890625,-0.5609774589538574,-0.4578857421875,0.173349240316524,0.9597109009795968,0.2211448109782701,0.2020548509541509,4.0,0.0
28.531028747558594,-0.5498723983764648,-0.0709562301635742,-0.0,-0.0,-1.0,0.1430888903748135,2.0,0.0
29.619707107543945,-1.8590736389160156,-0.0153168439865112,-0.0,-0.0,-1.0,0.0455418344250449,2.0,0.0
28.486412048339844,0.4439845085144043,-0.3027855157852173,-0.2756095923964126,0.9552989819408584,0.1069729296684096,0.1601043625759499,3.0,0.0
28.653474807739254,-0.2084226608276367,-0.138656735420227,-0.0,-0.0,-1.0,0.2143980610017822,1.0,0.0
28.28411293029785,-0.4292731285095215,-0.068602442741394,-0.0,-0.0,-1.0,0.1504898601650274,1.0,0.0
29.306446075439453,0.4425535202026367,-0.8590126037597656,-0.0,-0.0,-1.0,0.0783645175773098,2.0,0.0
29.263608932495117,0.4216275215148926,-0.8534618616104126,-0.0,-0.0,-1.0,0.0767616112596736,2.0,0.0
28.482776641845703,0.2050380706787109,-0.8130460977554321,-0.0,-0.0,-1.0,0.0890818632726209,1.0,0.0
28.182971954345703,0.2375941276550293,-0.8360685110092163,-0.0,-0.0,-1.0,0.0952291757265251,1.0,0.0
29.746078491210938,-0.3861851692199707,-0.8345487117767334,-0.0,-0.0,-1.0,0.0438780131073631,1.0,0.0
27.99499130249023,0.1484503746032714,-0.8208491802215576,-0.0,-0.0,-1.0,0.0625444060492032,1.0,0.0
29.583038330078125,-0.4513020515441894,-0.8161178827285767,-0.0,-0.0,-1.0,0.1202263432079136,1.0,0.0
28.797420501708984,-0.6172289848327637,-0.7942590713500977,-0.0,-0.0,-1.0,0.0673404425093023,1.0,0.0
28.558616638183594,-0.6671876907348633,-0.7931226491928101,-0.0,-0.0,-1.0,0.0853192354910232,1.0,0.0
28.380537033081055,-0.7205348014831543,-0.7890157699584961,-0.0,-0.0,-1.0,0.0794080536645789,1.0,0.0
28.044971466064453,-0.8307013511657715,-0.7825331687927246,-0.0,-0.0,-1.0,0.0496814465584369,1.0,0.0
27.846776962280273,-1.061412334442139,-0.7309330701828003,-0.0,-0.0,-1.0,0.0494155257153791,1.0,0.0
30.151874542236328,0.4786443710327148,-0.86913001537323,-0.0,-0.0,-1.0,0.0291721034502511,2.0,0.0
29.82227325439453,0.4534749984741211,-0.8591105937957764,-0.0,-0.0,-1.0,0.0467290086600932,1.0,0.0
29.436670303344727,0.4401774406433105,-0.8566913604736328,-0.0,-0.0,-1.0,0.111453229412849,1.0,0.0
29.612289428710938,0.3690934181213379,-0.8339903354644775,-0.0,-0.0,-1.0,0.0578264986470228,1.0,0.0
29.30461883544922,0.3835124969482422,-0.8418025970458984,-0.0,-0.0,-1.0,0.0748822128162637,1.0,0.0
28.99370765686035,0.2373085021972656,-0.805167555809021,-0.0,-0.0,-1.0,0.0821317803899078,1.0,0.0
28.654691696166992,0.1720304489135742,-0.7967871427536011,-0.0,-0.0,-1.0,0.0957716846035596,1.0,0.0
30.138240814208984,-0.4190435409545898,-0.820229172706604,-0.0,-0.0,-1.0,0.0735337326865284,1.0,0.0
28.48537826538086,-0.0253982543945312,-0.6221338510513306,-0.0,-0.0,-1.0,0.0918073767522603,1.0,0.0
28.22064208984375,-0.1434941291809082,-0.6015154123306274,-0.0,-0.0,-1.0,0.223937942694606,1.0,0.0
29.96371078491211,-0.541748046875,-0.7792550325393677,-0.0,-0.0,-1.0,0.0597930232716462,1.0,0.0
29.54627990722656,-0.5696020126342773,-0.7778825759887695,0.1942892548897907,0.3853400753730625,-0.9020890819347348,0.0684277437353816,4.0,0.0
29.31153678894043,-0.6628656387329102,-0.7545075416564941,-0.0,-0.0,-1.0,0.0504145898941779,2.0,0.0
29.03243064880371,-0.6953787803649902,-0.7560993432998657,-0.0,-0.0,-1.0,0.0417189658599936,1.0,0.0
29.159311294555664,-0.7861461639404297,-0.7204829454421997,-0.0,-0.0,-1.0,0.0428412947779086,2.0,0.0
29.522106170654297,-1.5015902519226074,-0.4703627824783325,-0.0,-0.0,-1.0,0.0768547252483619,1.0,0.0
29.479572296142575,-1.582561492919922,-0.4457823038101196,-0.0,-0.0,-1.0,0.1854226108138786,1.0,0.0
28.503509521484375,-0.0384726524353027,-0.1272510290145874,-0.0,-0.0,-1.0,0.1265327297173541,1.0,0.0
29.55125617980957,-1.4688339233398438,-0.1976665258407592,-0.0,-0.0,-1.0,0.0974843028477315,1.0,0.0
29.50415802001953,-1.6497864723205566,-0.2392939329147339,-0.0,-0.0,-1.0,0.0824086150373859,1.0,0.0
29.815595626831055,0.4586305618286133,-0.8038839101791382,-0.0,-0.0,-1.0,0.0387547213991353,2.0,0.0
29.54146957397461,0.2395024299621582,-0.7610701322555542,-0.0,-0.0,-1.0,0.0955831389868179,1.0,0.0
29.305530548095703,0.1184926033020019,-0.7466760873794556,-0.0,-0.0,-1.0,0.0766599690661966,2.0,0.0
28.23636054992676,0.5688533782958984,-0.6883368492126465,-0.0,-0.0,-1.0,0.119457820106991,1.0,0.0
29.062728881835938,0.0644764900207519,-0.7529277801513672,-0.0,-0.0,-1.0,0.0914142586593533,1.0,0.0
28.77705764770508,0.0263280868530273,-0.641603946685791,-0.0,-0.0,-1.0,0.0707802399592149,2.0,0.0
28.491575241088867,-0.0221891403198242,-0.7883557081222534,-0.0,-0.0,-1.0,0.0753730743937788,2.0,0.0
27.96175765991211,0.3087391853332519,-0.6575065851211548,-0.0,-0.0,-1.0,0.0769256128125193,2.0,0.0
27.753093719482425,0.1485590934753418,-0.6448508501052856,-0.0,-0.0,-1.0,0.0817392090061507,1.0,0.0
28.31777572631836,-0.2959370613098144,-0.7384335994720459,-0.0,-0.0,-1.0,0.0582875226644348,1.0,0.0
28.101482391357425,-0.5220098495483398,-0.7089097499847412,-0.0,-0.0,-1.0,0.1919884252270565,1.0,0.0
27.86829376220703,-0.6340188980102539,-0.7131971120834351,-0.0,-0.0,-1.0,0.0371467890867094,1.0,0.0
27.935239791870117,-0.9818563461303712,-0.6194968223571777,0.8171293188761523,-0.0146848102849804,0.5762673273576155,0.0544109004577617,3.0,0.0
29.25432586669922,0.1134772300720214,-0.3742961883544922,-0.0,-0.0,-1.0,0.2022790692860422,1.0,0.0
28.119497299194336,0.6171236038208008,-0.4294792413711548,-0.0,-0.0,-1.0,0.128683313009334,1.0,0.0
28.98080825805664,-0.1591458320617675,-0.3345099687576294,-0.0,-0.0,-1.0,0.1193373820800891,1.0,0.0
28.837249755859375,-0.1050500869750976,-0.3568331003189087,-0.0,-0.0,-1.0,0.158929733381656,1.0,0.0
27.717395782470703,0.3742027282714844,-0.4181492328643799,-0.0,-0.0,-1.0,0.1310577082782761,1.0,0.0
28.66515731811523,-0.2356534004211425,-0.4654850959777832,-0.0,-0.0,-1.0,0.1760115639766402,2.0,0.0
27.797475814819336,-0.1843628883361816,-0.3072080612182617,-0.0,-0.0,-1.0,0.1696550573984301,1.0,0.0
29.906490325927734,-1.7792606353759766,-0.1813709735870361,-0.0,-0.0,-1.0,0.0228446676947092,1.0,0.0
27.79850196838379,-1.8205327987670896,-0.4462277889251709,-0.0,-0.0,-1.0,0.042490276201611,1.0,0.0
29.054866790771484,-0.1254119873046875,0.0237640142440795,-0.0,-0.0,-1.0,0.0917581799503033,1.0,1.0
27.71135139465332,-0.1289668083190918,-0.0654611587524414,-0.0,-0.0,-1.0,0.1155006745435617,1.0,0.0
29.980052947998047,-1.5720782279968262,-0.0480732917785644,-0.0,-0.0,-1.0,0.0617897065412453,2.0,0.0
29.95223045349121,0.4043688774108886,-0.8443390130996704,-0.0,-0.0,-1.0,0.0325456404025521,1.0,0.0
29.64276123046875,0.153968334197998,-0.8018814325332642,-0.0,-0.0,-1.0,0.0653617390862448,1.0,0.0
29.43155288696289,0.1186871528625488,-0.8131645917892456,-0.0,-0.0,-1.0,0.0455022033909503,1.0,0.0
29.251869201660156,-0.0104379653930664,-0.7966748476028442,-0.0,-0.0,-1.0,0.0770536101595736,1.0,0.0
28.735931396484375,0.4801721572875976,-0.7226366996765137,-0.0,-0.0,-1.0,0.0520799840897326,1.0,0.0
28.625207901000977,0.4101834297180176,-0.7183599472045898,-0.0,-0.0,-1.0,0.1011816866196717,1.0,0.0
28.97328186035156,-0.3004570007324219,-0.749531626701355,-0.0,-0.0,-1.0,0.0729639753703254,1.0,0.0
28.32045555114746,0.2656822204589844,-0.7201690673828125,-0.0,-0.0,-1.0,0.1922329106088057,1.0,0.0
28.610803604125977,-0.5130338668823242,-0.7407873868942261,-0.0,-0.0,-1.0,0.1081331188348723,2.0,0.0
28.413345336914062,-0.5468354225158691,-0.7604632377624512,-0.0,-0.0,-1.0,0.1045776568254781,1.0,0.0
27.94436264038086,-0.0429854393005371,-0.6973129510879517,-0.0,-0.0,-1.0,0.0761210687520654,1.0,0.0
28.31554412841797,-0.868553638458252,-0.6912887096405029,-0.0,-0.0,-1.0,0.0541744707187692,1.0,0.0
27.75727081298828,-0.2261857986450195,-0.6818640232086182,-0.8276242393884795,0.5141708313853103,0.225092146751456,0.0531211213015289,3.0,0.0
28.034500122070312,-1.1301193237304688,-0.6708965301513672,-0.0,-0.0,-1.0,0.0386026265577139,1.0,0.0
27.82170295715332,-1.4794673919677734,-0.6227684020996094,-0.0,-0.0,-1.0,0.0927179234256632,1.0,0.0
29.63389778137207,0.216585636138916,-0.5684889554977417,-0.0,-0.0,-1.0,0.164137162344068,1.0,0.0
28.5693359375,0.4672212600708008,-0.4687379598617553,-0.0,-0.0,-1.0,0.1175566212038074,2.0,0.0
28.75916290283203,-0.2034988403320312,-0.3112887144088745,-0.0,-0.0,-1.0,0.2766570184976807,1.0,0.0
28.65442657470703,-0.1175112724304199,-0.3397749662399292,-0.1395481777554166,-0.9896804668179892,-0.032540431528633,0.2262908759277521,3.0,0.0
28.49345970153809,-0.510840892791748,-0.3963104486465454,0.9481204418742704,0.3160706383070629,0.0341610787344887,0.2519582450169726,5.0,0.0
28.30574607849121,-0.3213520050048828,-0.4601681232452392,0.9851755134870728,0.1160589615348773,-0.12633101389971,0.1719235783468564,3.0,0.0
28.030433654785156,-0.6212677955627441,-0.3103727102279663,0.5644743486008703,-0.6297190621742207,-0.5336877481318482,0.2064601233355817,3.0,0.0
27.861249923706055,-1.549492359161377,-0.5981628894805908,-0.0,-0.0,-1.0,0.0852930423559233,1.0,0.0
28.524555206298828,-0.4651713371276855,-0.0478464365005493,-0.0,-0.0,-1.0,0.1762065401135771,1.0,0.0
28.397071838378903,-0.4432106018066406,-0.0637285709381103,-0.9534788861414688,-0.2936471675448988,-0.0681861765703464,0.2276562848577124,3.0,0.0
27.86853408813477,0.191866397857666,-0.2216835021972656,-0.0,-0.0,-1.0,0.1911085551150207,1.0,0.0
29.61344337463379,-1.8089871406555176,-0.0707604885101318,0.2820640895120269,0.2581925918128018,-0.9240002353575132,0.0452518538777291,5.0,0.0
29.419076919555664,0.4099783897399902,-0.7757309675216675,-0.0,-0.0,-1.0,0.1155473697100921,1.0,0.0
29.256025314331055,0.2718000411987304,-0.7535645961761475,-0.0,-0.0,-1.0,0.0722411937856237,2.0,0.0
29.11418342590332,0.1239905357360839,-0.7275478839874268,-0.0,-0.0,-1.0,0.0672061402105862,1.0,0.0
28.64565086364746,0.5708026885986328,-0.6908618211746216,-0.0,-0.0,-1.0,0.0786164231683837,2.0,0.0
28.795141220092773,-0.1133742332458496,-0.7029014825820923,-0.0,-0.0,-1.0,0.0329518321707221,1.0,0.0
28.339454650878903,0.3724803924560547,-0.683824896812439,-0.0,-0.0,-1.0,0.07844781582622,1.0,0.0
28.237194061279297,0.5745458602905273,-0.6283600330352783,-0.0,-0.0,-1.0,0.1523134629146851,2.0,0.0
28.439878463745117,-0.3604750633239746,-0.5825620889663696,0.9116684475221912,0.3211465510675807,-0.2563699173652692,0.1901445426980873,4.0,0.0
28.099231719970703,0.0191931724548339,-0.6298500299453735,-0.0,-0.0,-1.0,0.056430296240501,1.0,0.0
27.973880767822266,0.137125015258789,-0.6813640594482422,-0.0,-0.0,-1.0,0.0668904417417013,1.0,0.0
28.149473190307617,-0.5198855400085449,-0.5900089740753174,-0.0,-0.0,-1.0,0.2051529369063254,1.0,0.0
27.9230899810791,-0.2444968223571777,-0.7019416093826294,-0.0,-0.0,-1.0,0.0703451002899558,1.0,0.0
27.810564041137695,-0.8026852607727051,-0.6834249496459961,-0.0,-0.0,-1.0,0.0414044235598385,1.0,0.0
28.703781127929688,-0.0717124938964843,-0.2950457334518432,-0.0,-0.0,-1.0,0.189775696164261,1.0,0.0
29.63194465637207,-1.788191318511963,-0.0622913837432861,0.2840950357523873,0.1338948682330858,-0.949400955825143,0.1012189356071062,3.0,0.0
28.55105781555176,-0.4157857894897461,-0.0355105400085449,-0.0,-0.0,-1.0,0.2205775025880053,2.0,0.0
28.4168758392334,-0.3727641105651855,-0.1646169424057006,-0.0,-0.0,-1.0,0.2096449782876127,2.0,0.0
27.891555786132812,0.2455401420593261,-0.2504335641860962,-0.0,-0.0,-1.0,0.2366521339256802,2.0,0.0
28.04050064086914,-0.5836567878723145,-0.2770445346832275,0.575956544990357,0.4278557937143995,-0.6965726653176915,0.2470725756406794,3.0,0.0
28.45226287841797,-0.3503236770629883,-0.0215952396392822,0.6339446587266444,0.3569846624255144,-0.6860583943549555,0.1313558207936316,3.0,0.0
27.910329818725582,0.2224617004394531,-0.2417185306549072,-0.0,-0.0,-1.0,0.2571596535259621,2.0,0.0
28.576396942138672,-0.4360289573669433,0.0158396959304809,0.7966025710283025,-0.0958168556196525,0.5968613524180143,0.2025172523847614,6.0,1.0
28.469682693481445,-0.4558572769165039,0.0084022283554077,-0.0,-0.0,-1.0,0.1418374193469152,2.0,1.0
28.651111602783203,0.4887418746948242,-0.3432546854019165,0.3224912202748157,0.9465478286282192,-0.0068279546617406,0.1813787291857177,4.0,0.0
28.63617706298828,0.4711661338806152,-0.3372321128845215,0.3507245390043166,0.6786177899421112,-0.6453450185089324,0.2160377391842192,6.0,0.0
28.60714340209961,-0.4426958560943603,-0.0225361585617065,0.1436815464584849,0.9880082840855448,-0.056526487469466,0.1544491416576798,3.0,0.0
27.94545555114746,0.1493201255798339,-0.2444008588790893,-0.0,-0.0,-1.0,0.2636059032984461,1.0,0.0
28.452835083007812,-0.3912432193756103,-0.0423586368560791,0.6339446587266444,0.3569846624255144,-0.6860583943549555,0.1774936949524954,3.0,0.0
30.11309814453125,-1.2096176147460938,-0.6133081912994385,-0.0,-0.0,-1.0,0.0520356100632017,1.0,0.0
30.125978469848633,-1.4496192932128906,-0.608833909034729,0.7001918851170863,0.0056047110729495,-0.7139327077743177,0.0836589684675962,3.0,0.0
28.22606658935547,-1.074148178100586,-0.48219895362854,-0.0,-0.0,-1.0,0.0529197812858602,1.0,0.0
29.641273498535156,-1.2052497863769531,-0.5494921207427979,-0.0,-0.0,-1.0,0.0648983571674955,2.0,0.0
28.61875915527344,-1.4986896514892578,-0.525038480758667,-0.0,-0.0,-1.0,0.0292811692978575,1.0,0.0
28.334983825683594,-1.5260467529296875,-0.5147720575332642,-0.0,-0.0,-1.0,0.0442437267874979,1.0,0.0
28.80443572998047,-1.0750961303710938,-0.628954291343689,0.2192108866389719,0.1398002623861987,-0.9656098973269204,0.0420659085363768,3.0,0.0
28.82913589477539,-1.221914291381836,-0.636311411857605,0.9233778594138914,0.227653137356886,-0.3091073887757886,0.0368704127781809,3.0,0.0
28.48788070678711,-0.9417228698730468,-0.5973960161209106,-0.5562259361012036,0.7332319615377613,-0.3911311782354184,0.0714446631300924,3.0,0.0
28.521106719970703,-0.4228744506835937,0.0063762664794921,0.304513040930855,0.9478896602197858,0.0936856443189829,0.2204262252663816,4.0,1.0
28.58191299438477,-0.4251165390014648,-0.3429785966873169,-0.0,-0.0,-1.0,0.1530385986728288,2.0,0.0
28.46080780029297,-0.5410385131835938,-0.3613698482513428,-0.0,-0.0,-1.0,0.2213627924500963,2.0,0.0
30.13836669921875,-1.570164680480957,-0.5698657035827637,-0.0,-0.0,-1.0,0.079285455420963,2.0,0.0
28.938249588012695,-1.2653732299804688,-0.6245088577270508,-0.0,-0.0,-1.0,0.0355226436713138,1.0,0.0
29.096214294433594,-1.044255256652832,-0.6389193534851074,0.6087723145558287,-0.4724261980737592,-0.637345868743112,0.0261593189287785,4.0,0.0
29.308984756469727,-0.9398508071899414,-0.6627379655838013,0.1442080821659095,-0.8199786232211217,-0.5539305791328226,0.0817093217835698,3.0,0.0
29.62289810180664,-0.8390665054321289,-0.6994351148605347,-0.0,-0.0,-1.0,0.0266158929503355,2.0,0.0
28.187679290771484,-0.6310806274414062,-0.5192910432815552,-0.0,-0.0,-1.0,0.1941127835656927,1.0,0.0
28.40962600708008,-0.4594240188598633,-0.5423794984817505,0.1410523735556973,-0.5573266210580422,-0.8182244590418509,0.1860113368141665,3.0,0.0
28.642410278320312,-0.9247159957885742,-0.6583640575408936,-0.0,-0.0,-1.0,0.0611333513169083,2.0,0.0
27.71331024169922,0.5651226043701172,-0.4882417917251587,-0.0,-0.0,-1.0,0.1766589494668132,2.0,0.0
28.53774070739746,-0.8397579193115234,-0.647903561592102,0.8521652701954449,0.3462221101341765,-0.392357748396744,0.046681817227774,3.0,0.0
28.407493591308594,-0.4774942398071289,-0.0618165731430053,0.1565460328705005,-0.3107292796914715,-0.937518348799066,0.2253039063552922,5.0,0.0
28.39510154724121,-0.4224214553833008,-0.3618712425231933,0.4975634855232256,-0.266850655102989,-0.8253613182994974,0.1719758714152088,9.0,0.0
29.39831161499023,-1.4311676025390625,-0.5267499685287476,-0.0,-0.0,-1.0,0.0618685731708362,1.0,0.0
29.969331741333008,-1.4002323150634766,-0.5989748239517212,-0.7022695964545381,-0.4811596484018235,-0.5246930594599223,0.0808072434589493,3.0,0.0
30.12790298461914,-1.1084957122802734,-0.6094518899917603,0.5705745550570003,-0.3289932380834576,0.7524680235178552,0.0920837077617915,3.0,0.0
27.75362205505371,-1.8125391006469729,-0.540071964263916,-0.0,-0.0,-1.0,0.0406845707258159,2.0,0.0
28.49278259277344,-1.1853361129760742,-0.5997729301452637,-0.0,-0.0,-1.0,0.0242592971224817,1.0,0.0
28.41057777404785,-0.4559621810913086,-0.5445734262466431,0.1410523735556973,-0.5573266210580422,-0.8182244590418509,0.1787044053857484,3.0,0.0
28.704065322875977,-0.8183078765869141,-0.6072708368301392,-0.0,-0.0,-1.0,0.1081621122716814,1.0,0.0
28.488990783691406,-0.4397230148315429,-0.554673433303833,-0.0,-0.0,-1.0,0.2351112614895083,2.0,0.0
28.91305923461914,-0.5363340377807617,-0.6206583976745605,-0.0,-0.0,-1.0,0.0511300341824154,1.0,0.0
28.633708953857425,0.3891410827636719,-0.5285860300064087,-0.2579630806433244,0.7865769527306131,-0.5610274025910221,0.1679207544477486,3.0,0.0
28.435020446777344,-0.5488901138305664,-0.0693569183349609,-0.0,-0.0,-1.0,0.1223785530926353,1.0,0.0
29.34305953979492,-1.8374319076538088,-0.6290955543518066,-0.0,-0.0,-1.0,0.1392173203104538,2.0,0.0
29.309324264526367,-1.2554588317871094,-0.5858626365661621,0.651494739620566,0.3394169043298085,-0.6784915395949316,0.0500229944151405,4.0,0.0
29.47931671142578,-1.0350399017333984,-0.5945197343826294,-0.0,-0.0,-1.0,0.0489296278126347,2.0,0.0
29.857357025146484,-1.1820411682128906,-0.6556484699249268,-0.0,-0.0,-1.0,0.0858144146618742,2.0,0.0
30.008460998535156,-0.9954233169555664,-0.6649117469787598,0.8874023557757731,-0.4202582217954264,0.1894731800993339,0.1333145631150705,5.0,0.0
28.42205047607422,-0.42266845703125,-0.412100076675415,-0.2718995942780367,-0.1718778258399469,-0.9468519544342566,0.2248005827022647,6.0,0.0
28.60708236694336,0.4472341537475586,-0.3809794187545776,-0.0,-0.0,-1.0,0.1396104378477503,2.0,0.0
28.575231552124023,-0.48980712890625,0.0103129148483276,-0.0,-0.0,-1.0,0.1679858415337572,1.0,1.0
28.284263610839844,-0.7654361724853516,-0.6502254009246826,-0.0,-0.0,-1.0,0.1486674252463152,2.0,0.0
28.370460510253903,-0.7452306747436523,-0.6612856388092041,0.7067216660314486,0.3932870263442879,-0.5881069644809532,0.0736849491696629,3.0,0.0
