x,y,z,nx,ny,nz,curvature,density,label
40.707481384277344,30.512371063232425,-2.8301446437835693,-0.0,-0.0,-1.0,0.0180839961938962,1.0,0.0
40.42277526855469,29.349647521972656,-2.3830318450927734,-0.0,-0.0,-1.0,0.197592467467609,2.0,0.0
41.62099075317383,30.06134605407715,-1.803192138671875,-0.0,-0.0,-1.0,0.0415844345851676,1.0,0.0
40.33760452270508,28.299968719482425,-2.3551909923553467,-0.0,-0.0,-1.0,0.1962228656636275,1.0,0.0
40.25769805908203,28.57281494140625,-2.356151819229126,-0.0,-0.0,-1.0,0.076743873919126,1.0,0.0
41.582008361816406,30.041603088378903,-1.3519151210784912,-0.0,-0.0,-1.0,0.0474805926470201,1.0,0.0
41.584938049316406,30.03137969970703,-0.8312640190124512,-0.6377248525383752,-0.7702545894043522,0.0038574546582151,0.0721607746883062,5.0,0.0
42.68568420410156,29.67829132080078,-2.5356054306030273,-0.0,-0.0,-1.0,0.1900484980005252,1.0,0.0
42.30559539794922,28.39857482910156,-2.4338793754577637,-0.0,-0.0,-1.0,0.0972017626635754,2.0,0.0
42.28588104248047,28.878559112548828,-2.449507713317871,-0.0,-0.0,-1.0,0.1732333318663836,1.0,0.0
42.17591857910156,28.547340393066406,-2.421938419342041,-0.0,-0.0,-1.0,0.1011748376391204,2.0,0.0
41.28874969482422,28.433937072753903,-2.2980151176452637,0.9032308614509378,-0.3380565792719888,-0.2643704978501165,0.1684979499840788,4.0,0.0
40.66064453125,30.55942153930664,-2.753698348999023,-0.0,-0.0,-1.0,0.0205904218982669,1.0,0.0
41.58623504638672,29.99596405029297,-1.9667212963104248,-0.0,-0.0,-1.0,0.0540992369735026,1.0,0.0
40.3668098449707,30.6171875,-2.7401580810546875,-0.0,-0.0,-1.0,0.0460316621200841,1.0,0.0
42.49137115478515,30.28814125061035,-2.8269832134246826,-0.0,-0.0,-1.0,0.0384015549815536,1.0,0.0
42.43268585205078,30.516441345214844,-2.8299005031585693,-0.0,-0.0,-1.0,0.0345563617884777,1.0,0.0
40.43510818481445,28.868316650390625,-2.446796178817749,-0.5682260836800133,-0.8085245636006723,-0.152993947200591,0.06109551533798,3.0,0.0
40.36625289916992,29.41173553466797,-2.461801290512085,-0.0,-0.0,-1.0,0.1597452819234224,2.0,0.0
40.5899658203125,30.54522132873535,-2.7309045791625977,-0.0,-0.0,-1.0,0.0217006447620351,1.0,0.0
42.43737030029297,28.335208892822266,-2.453530788421631,-0.0,-0.0,-1.0,0.0933016873195834,2.0,0.0
42.397586822509766,28.908044815063477,-2.471242904663086,-0.0,-0.0,-1.0,0.1256784860517085,1.0,0.0
42.34454727172851,28.73194122314453,-2.456174373626709,-0.0,-0.0,-1.0,0.0993031692117831,1.0,0.0
41.27424240112305,28.414560317993164,-2.287980079650879,-0.0,-0.0,-1.0,0.1684979499840788,2.0,0.0
41.82663345336914,30.206993103027344,-2.763955354690552,-0.0,-0.0,-1.0,0.0681932837349382,1.0,0.0
41.81358337402344,30.42448616027832,-2.7715179920196533,-0.0,-0.0,-1.0,0.0357198476198897,1.0,0.0
41.2281494140625,29.88360023498535,-2.657170534133911,-0.0,-0.0,-1.0,0.0903976280110707,1.0,0.0
40.2822265625,28.42972755432129,-2.454070806503296,-0.0,-0.0,-1.0,0.146528421784218,2.0,0.0
41.535884857177734,29.98206901550293,-1.5491158962249756,-0.0,-0.0,-1.0,0.0370357144318299,2.0,0.0
41.53921890258789,30.001567840576172,-0.8087179660797119,-0.0,-0.0,-1.0,0.0695594830936496,1.0,0.0
41.1446533203125,30.54100227355957,-2.8166253566741943,-0.0,-0.0,-1.0,0.0277122072662572,1.0,0.0
41.1165657043457,30.42168617248535,-2.8094756603240967,-0.0,-0.0,-1.0,0.0358293259163915,1.0,0.0
40.42389297485352,29.988161087036133,-2.689145803451538,-0.0,-0.0,-1.0,0.0193530607202706,1.0,0.0
40.43050765991211,30.149503707885746,-2.6935222148895264,-0.0,-0.0,-1.0,0.0177260021973777,1.0,0.0
42.608097076416016,29.44767951965332,-2.6254262924194336,-0.0,-0.0,-1.0,0.0918034567610902,1.0,0.0
42.17869186401367,29.35643196105957,-2.5594840049743652,-0.0,-0.0,-1.0,0.044279025342382,1.0,0.0
42.525543212890625,29.687400817871097,-2.6180667877197266,-0.0,-0.0,-1.0,0.1321237438680846,1.0,0.0
42.58575439453125,29.917404174804688,-2.63199520111084,-0.0,-0.0,-1.0,0.0796813600024062,1.0,0.0
41.59513092041016,28.932472229003903,-2.464357852935791,-0.0,-0.0,-1.0,0.0749897046412695,2.0,0.0
41.64287185668945,29.04433250427246,-2.4735279083251953,-0.0,-0.0,-1.0,0.1195520465556908,1.0,0.0
42.05268859863281,29.241796493530273,-2.53842830657959,-0.0,-0.0,-1.0,0.0947683463409345,1.0,0.0
41.284942626953125,28.44141960144043,-2.409703254699707,0.959592241726525,-0.2609855339515373,-0.1052106491106932,0.1926996956900887,4.0,0.0
41.424163818359375,28.773456573486328,-2.436038017272949,-0.0,-0.0,-1.0,0.0587178003805923,2.0,0.0
41.40290069580078,30.092683792114254,-2.4591379165649414,-0.0,-0.0,-1.0,0.0872033113186342,1.0,0.0
41.08415985107422,28.289306640625,-2.377374172210694,-0.8409205565107543,0.3978553544268211,-0.3668292989818991,0.105419785179731,3.0,0.0
40.84039688110352,28.194610595703125,-2.3396244049072266,-0.0,-0.0,-1.0,0.0721667621355697,1.0,0.0
41.4613151550293,30.11143493652344,-1.3076229095458984,-0.0,-0.0,-1.0,0.0524789888954977,2.0,0.0
41.480247497558594,30.012033462524418,-1.8577239513397217,-0.0,-0.0,-1.0,0.0487144168832544,1.0,0.0
41.57372283935547,30.053050994873047,-0.7255501747131348,-0.0,-0.0,-1.0,0.0575840874592567,1.0,0.0
41.66590118408203,29.676822662353516,-0.7515897750854492,-0.0,-0.0,-1.0,0.0539540713805083,1.0,0.0
42.20893478393555,28.162708282470703,-2.321362257003784,-0.0,-0.0,-1.0,0.1419789269007276,1.0,0.0
41.55583953857422,29.098594665527344,-2.2100203037261963,-0.0,-0.0,-1.0,0.1147848892578341,1.0,0.0
41.65001678466797,29.078556060791016,-1.1026244163513184,-0.0,-0.0,-1.0,0.0278800903398606,1.0,0.0
40.243778228759766,28.18874168395996,-2.1659717559814453,-0.0,-0.0,-1.0,0.2232498762217755,1.0,0.0
40.87849807739258,28.182552337646484,-2.2625670433044434,-0.0,-0.0,-1.0,0.0530699191120053,1.0,0.0
40.99418258666992,28.387765884399418,-2.27388858795166,-0.0,-0.0,-1.0,0.0869421940542879,1.0,0.0
40.774375915527344,28.635231018066406,-2.2330636978149414,-0.0,-0.0,-1.0,0.0636465743946876,1.0,0.0
40.87282943725586,28.72869873046875,-2.245332717895508,-0.0,-0.0,-1.0,0.0551267889353987,1.0,0.0
41.433589935302734,28.809818267822266,-2.3284144401550293,-0.0,-0.0,-1.0,0.1044655562127047,1.0,0.0
41.75127029418945,29.04234313964844,-2.370393753051758,-0.0,-0.0,-1.0,0.105506520926027,1.0,0.0
42.54255676269531,29.503494262695312,-2.4791769981384277,-0.0,-0.0,-1.0,0.1969608685955136,1.0,0.0
40.51850509643555,29.537601470947266,-2.1691455841064453,-0.0,-0.0,-1.0,0.1951990229487158,1.0,0.0
41.51925277709961,29.735973358154297,-2.3170323371887207,-0.0,-0.0,-1.0,0.0570203452520087,1.0,0.0
41.606353759765625,30.166473388671875,-2.3201799392700195,-0.0,-0.0,-1.0,0.0476456662807265,1.0,0.0
41.0442008972168,30.319501876831055,-1.1496269702911377,-0.0,-0.0,-1.0,0.0684937272072285,1.0,0.0
42.70410919189453,28.765626907348633,-2.215944290161133,-0.0,-0.0,-1.0,0.0539732863681437,1.0,0.0
41.55915451049805,30.115047454833984,-2.091190814971924,-0.0,-0.0,-1.0,0.0795534792729074,1.0,0.0
41.59815216064453,30.159881591796875,-1.0141980648040771,-0.0,-0.0,-1.0,0.0624224803099682,1.0,0.0
41.47986602783203,30.06523895263672,-1.8793129920959473,-0.0,-0.0,-1.0,0.0487144168832545,2.0,0.0
41.55787658691406,30.050800323486328,-0.8268086910247803,-0.6709095188199096,-0.4740661971948798,-0.5702119415042295,0.0721607746883063,4.0,0.0
41.48466491699219,30.087766647338867,-1.9802711009979248,-0.0,-0.0,-1.0,0.0555117847615024,1.0,0.0
42.69133758544922,29.750091552734375,-2.1581366062164307,-0.0,-0.0,-1.0,0.026124399798569,1.0,0.0
41.53582763671875,30.055618286132812,-0.9407408237457277,-0.0,-0.0,-1.0,0.0640583437106567,1.0,0.0
40.47444152832031,28.66391372680664,-2.3829164505004883,-0.0,-0.0,-1.0,0.0418165243005991,2.0,0.0
40.58687210083008,28.39805793762207,-2.402398109436035,0.6530348590078867,-0.7304349305938003,-0.2000257110698009,0.0931383470057046,3.0,0.0
40.38269805908203,29.263689041137695,-2.368159770965576,-0.1602739296952771,0.9676999811153506,0.1945996248952792,0.1273969948503452,3.0,0.0
40.45573425292969,28.909120559692383,-2.3798980712890625,-0.0,-0.0,-1.0,0.0480551508458561,1.0,0.0
40.82672500610352,29.05946922302246,-2.4440360069274902,-0.0,-0.0,-1.0,0.0421494271992314,1.0,0.0
41.25265884399414,29.410717010498047,-2.518718719482422,-0.0,-0.0,-1.0,0.1033998446072466,2.0,0.0
41.265045166015625,29.308000564575195,-2.5203967094421387,-0.0,-0.0,-1.0,0.121515343677269,2.0,0.0
41.40061950683594,29.896728515625,-2.5472235679626465,-0.0,-0.0,-1.0,0.1804573257282095,1.0,0.0
41.88657760620117,29.442258834838867,-2.628225803375244,-0.0,-0.0,-1.0,0.0401012850148803,1.0,0.0
42.08088302612305,29.67826461791992,-2.6631784439086914,-0.0,-0.0,-1.0,0.0477124973559135,1.0,0.0
42.05012130737305,29.528236389160156,-2.656924247741699,-0.0,-0.0,-1.0,0.0401447467072141,1.0,0.0
42.578861236572266,30.34027862548828,-2.754931926727295,-0.0,-0.0,-1.0,0.043528787780816,1.0,0.0
42.604774475097656,30.09260368347168,-2.756958484649658,-0.0,-0.0,-1.0,0.0469969634681647,1.0,0.0
41.45356369018555,29.905601501464844,-1.5229573249816897,-0.0,-0.0,-1.0,0.0403365070397516,1.0,0.0
42.65422058105469,28.245542526245117,-2.2125649452209473,-0.0,-0.0,-1.0,0.1311590560616559,1.0,0.0
41.51483154296875,29.87570571899414,-1.0034191608428955,-0.0,-0.0,-1.0,0.071041702296673,1.0,0.0
40.22901916503906,28.223529815673828,-2.516996383666992,-0.0,-0.0,-1.0,0.1818527371175765,1.0,0.0
42.48455810546875,28.642478942871097,-2.2609455585479736,-0.0,-0.0,-1.0,0.1007588115916399,1.0,0.0
42.66892623901367,28.47055435180664,-2.2730515003204346,0.6288863636456623,0.5032359300108085,-0.592668153663323,0.1597938572893802,3.0,0.0
42.57806396484375,28.88568687438965,-2.2974298000335693,-0.0,-0.0,-1.0,0.1259185348645214,1.0,0.0
40.43174743652344,29.015886306762695,-2.380960464477539,-0.0,-0.0,-1.0,0.0497881230373669,1.0,0.0
40.503273010253906,28.670730590820312,-2.35775375366211,-0.0,-0.0,-1.0,0.0434773190102388,2.0,0.0
40.35743713378906,29.46072769165039,-2.414677143096924,-0.0,-0.0,-1.0,0.2059115410418971,1.0,0.0
40.356201171875,29.26449966430664,-2.3940138816833496,-0.3652449910184026,0.8402729369121058,0.4006712967372021,0.1185072573750938,3.0,0.0
42.38801956176758,28.835390090942383,-2.2143988609313965,-0.0,-0.0,-1.0,0.1255552647197952,1.0,0.0
42.533573150634766,28.566343307495117,-2.204543113708496,-0.0,-0.0,-1.0,0.0744754599636751,2.0,0.0
42.384521484375,28.9854736328125,-2.2311854362487793,-0.0,-0.0,-1.0,0.1431363335984058,1.0,0.0
41.60963439941406,28.163795471191406,-2.3414125442504883,-0.0,-0.0,-1.0,0.0763219219867062,1.0,0.0
41.090145111083984,28.42443084716797,-2.299776077270508,-0.0,-0.0,-1.0,0.0896464805783817,1.0,0.0
41.511531829833984,28.55569648742676,-2.3812661170959473,-0.0,-0.0,-1.0,0.0769090055321068,2.0,0.0
41.915374755859375,28.264787673950195,-2.4014906883239746,-0.0,-0.0,-1.0,0.1365549068782767,2.0,0.0
40.31861877441406,29.40678024291992,-2.326542377471924,0.0260017671564288,0.9962840869896749,0.0821092328297674,0.1641624601601537,4.0,0.0
40.36682891845703,29.340381622314453,-2.3239006996154785,-0.0776179674010617,0.3022539926379197,-0.9500620901135692,0.1915010300640134,3.0,0.0
41.49705505371094,28.913326263427734,-2.4294204711914062,-0.0,-0.0,-1.0,0.080082810986821,2.0,0.0
41.33918762207031,29.46107482910156,-2.4842376708984375,-0.0,-0.0,-1.0,0.1195470673703795,1.0,0.0
41.59928894042969,29.173097610473633,-2.4814743995666504,-0.0,-0.0,-1.0,0.1195440447997313,2.0,0.0
42.003875732421875,29.566020965576172,-2.597465991973877,-0.0,-0.0,-1.0,0.0477858492599166,1.0,0.0
41.662845611572266,30.062461853027344,-2.6187543869018555,-0.0,-0.0,-1.0,0.13713331195201,2.0,0.0
42.10675430297851,29.931720733642575,-2.6650967597961426,-0.0,-0.0,-1.0,0.0471125815444609,1.0,0.0
42.40411376953125,30.432373046875,-2.7811646461486816,-0.0,-0.0,-1.0,0.0345563617884777,1.0,0.0
42.64286804199219,29.784175872802734,-1.8072843551635744,-0.0,-0.0,-1.0,0.023623797848037,1.0,0.0
41.5638427734375,30.072614669799805,-0.8385851383209229,-0.6709315802389946,-0.4122541445838391,-0.6163581222888626,0.0640583437106567,5.0,0.0
40.450679779052734,28.257083892822266,-2.461507797241211,-0.0,-0.0,-1.0,0.1000756662431423,2.0,0.0
40.29954528808594,28.527061462402344,-2.479482650756836,-0.0,-0.0,-1.0,0.0619938714536566,1.0,0.0
41.55769348144531,30.045345306396484,-1.2041130065917969,-0.0,-0.0,-1.0,0.0762414196466843,1.0,0.0
41.678714752197266,29.401439666748047,-2.5979702472686768,-0.0,-0.0,-1.0,0.0447852431085139,1.0,0.0
41.38817596435547,29.974422454833984,-2.6352694034576416,-0.0,-0.0,-1.0,0.1173033631596497,1.0,0.0
40.76974105834961,28.154380798339844,-2.265208959579468,-0.0,-0.0,-1.0,0.0672216044417941,2.0,0.0
41.29584503173828,28.310317993164062,-2.376096487045288,-0.0,-0.0,-1.0,0.1413835922837537,2.0,0.0
41.98162841796875,28.19076919555664,-2.4754960536956787,0.7377896231595665,-0.2248520163032118,-0.6364809837869824,0.077926728800388,3.0,0.0
40.66107177734375,28.625547409057617,-2.3152902126312256,-0.0,-0.0,-1.0,0.0795443421308179,1.0,0.0
40.91046905517578,28.60376739501953,-2.353654623031616,-0.0,-0.0,-1.0,0.0604277069303239,1.0,0.0
41.45647048950195,28.72769546508789,-2.4629147052764893,-0.0,-0.0,-1.0,0.0635487660820113,1.0,0.0
42.01058197021485,28.434797286987305,-2.514638185501098,0.394425194080836,-0.796717894361565,0.4578966729278226,0.0955443191438115,4.0,0.0
40.46718978881836,29.18045425415039,-2.3654205799102783,-0.8308119088959606,0.5380032821832904,0.1424922467948943,0.0940726438059986,4.0,0.0
41.587432861328125,29.04610061645508,-2.5309135913848877,-0.0,-0.0,-1.0,0.1151764769859604,1.0,0.0
40.26007080078125,29.499662399291992,-2.3798043727874756,0.474774692605424,0.3927477699391433,-0.7876155029386194,0.1375486700550345,3.0,0.0
40.39118957519531,29.406574249267575,-2.3870136737823486,0.8701836632116892,0.4089158072286274,-0.274896807689806,0.2311673011876985,7.0,0.0
41.27555084228515,29.41149139404297,-2.5327885150909424,-0.0,-0.0,-1.0,0.1195470673703795,2.0,0.0
40.766136169433594,28.143348693847656,-2.2640304565429688,-0.0,-0.0,-1.0,0.0672216044417941,2.0,0.0
41.13256072998047,28.30172348022461,-2.350915908813477,0.6847225046335319,0.7285540124938226,0.0190825188990953,0.103958226275081,3.0,0.0
41.27972030639648,28.30685043334961,-2.377042293548584,0.1742270102348931,-0.5964809778439834,-0.7834892417735524,0.1369444431969316,3.0,0.0
41.9833869934082,28.23174476623535,-2.4879331588745117,-0.0,-0.0,-1.0,0.0703822745724968,2.0,0.0
40.80272674560547,28.59961700439453,-2.3396763801574707,-0.0,-0.0,-1.0,0.0715692781425454,1.0,0.0
40.92041015625,28.554447174072266,-2.3528404235839844,-0.0,-0.0,-1.0,0.0641916434038503,1.0,0.0
41.39704132080078,28.754070281982425,-2.4647035598754883,-0.0,-0.0,-1.0,0.0621155280601236,2.0,0.0
41.88082504272461,28.42794418334961,-2.4990715980529785,-0.0,-0.0,-1.0,0.074227357077886,1.0,0.0
40.45763397216797,29.16106414794922,-2.3686046600341797,-0.4719667938136802,0.7712992049352434,-0.4270185967888248,0.0782584277904106,4.0,0.0
40.64495086669922,29.072731018066406,-2.3861708641052246,-0.0,-0.0,-1.0,0.054123439290184,1.0,0.0
41.05648422241211,29.11184310913086,-2.461672782897949,-0.0,-0.0,-1.0,0.0501094684411919,1.0,0.0
40.29605484008789,29.44845390319824,-2.387192726135254,0.3104365617288231,0.9504122457244524,-0.0185931255842102,0.1375486700550346,4.0,0.0
41.30799865722656,29.230440139770508,-2.5225439071655273,-0.0,-0.0,-1.0,0.1030808456808538,1.0,0.0
41.59711456298828,30.20620346069336,-2.723716735839844,-0.0,-0.0,-1.0,0.0868271552203762,1.0,0.0
42.628692626953125,29.71211624145508,-1.9900407791137695,-0.0,-0.0,-1.0,0.0282439439344926,1.0,0.0
41.620384216308594,30.159423828125,-1.1088061332702637,-0.0,-0.0,-1.0,0.0686085447135583,1.0,0.0
42.33506393432617,28.52666282653809,-2.350257158279419,0.7873824353040828,-0.3079317283299405,-0.5340477050436108,0.1879432800585855,4.0,0.0
42.68982696533203,28.402009963989254,-2.390791654586792,-0.0,-0.0,-1.0,0.2138658764736083,1.0,0.0
42.01767349243164,28.975339889526367,-2.367342233657837,-0.0,-0.0,-1.0,0.119286400540616,1.0,0.0
42.26295471191406,28.900978088378903,-2.396291494369507,-0.0,-0.0,-1.0,0.1694806018326367,1.0,0.0
41.98356246948242,29.228591918945312,-2.401726007461548,-0.0,-0.0,-1.0,0.1050550767565457,1.0,0.0
42.32643127441406,29.66664123535156,-2.5276224613189697,-0.0,-0.0,-1.0,0.0608512280461406,1.0,0.0
42.702537536621094,29.51646423339844,-2.5655486583709717,-0.0,-0.0,-1.0,0.1496387223398242,1.0,0.0
42.628570556640625,29.67290306091309,-1.7805464267730713,0.3017117613126867,0.4027484664257985,-0.8641548969237307,0.023623797848037,3.0,0.0
42.26789093017578,28.578880310058594,-2.2662274837493896,-0.0677016867548889,0.7459119752368911,-0.6625947530796955,0.1623439457064553,3.0,0.0
42.486610412597656,28.475923538208008,-2.287161111831665,-0.1410664693394293,-0.7815784664331159,-0.6076473912032921,0.1518368764989733,6.0,0.0
42.09394073486328,28.943511962890625,-2.2951128482818604,-0.0,-0.0,-1.0,0.1048512361699413,2.0,0.0
42.37289810180664,28.83949279785156,-2.3253166675567627,-0.0,-0.0,-1.0,0.1978056514993037,1.0,0.0
42.10610580444336,29.133922576904297,-2.3278262615203857,-0.0,-0.0,-1.0,0.1575367845889758,1.0,0.0
41.61457443237305,30.11334991455078,-0.9160103797912598,-0.0,-0.0,-1.0,0.0640583437106567,1.0,0.0
40.46781921386719,28.13954162597656,-2.4586422443389893,-0.0,-0.0,-1.0,0.092711850734564,1.0,0.0
40.254642486572266,28.422109603881836,-2.4746878147125244,0.4106396549894555,-0.8841825162011359,-0.2227023838991612,0.1333823065630591,3.0,0.0
42.41292953491211,28.4952335357666,-2.186537981033325,-0.0,-0.0,-1.0,0.1054927365233588,1.0,0.0
42.48680877685547,28.76981544494629,-2.2451937198638916,-0.0,-0.0,-1.0,0.0747033739488938,1.0,0.0
42.18160629272461,28.43858337402344,-2.4771127700805664,-0.0,-0.0,-1.0,0.0309843217588375,1.0,0.0
42.24917221069336,28.326082229614254,-2.4659814834594727,-0.0,-0.0,-1.0,0.089553781912812,2.0,0.0
41.418983459472656,29.301166534423828,-2.527637481689453,-0.0,-0.0,-1.0,0.1113634326111809,1.0,0.0
41.56159973144531,29.171308517456055,-2.5237812995910645,-0.0,-0.0,-1.0,0.1181003756723716,1.0,0.0
41.23721694946289,29.48637008666992,-2.5373668670654297,-0.0,-0.0,-1.0,0.0930431386016013,1.0,0.0
41.51191329956055,29.950939178466797,-2.6824851036071777,-0.0,-0.0,-1.0,0.1161921420561495,1.0,0.0
41.646514892578125,30.233787536621097,-2.765641212463379,-0.0,-0.0,-1.0,0.0868271552203762,1.0,0.0
41.267234802246094,30.614946365356445,-2.788357734680176,-0.0,-0.0,-1.0,0.0219632711470223,1.0,0.0
41.3182373046875,28.46562957763672,-2.33419418334961,-0.0,-0.0,-1.0,0.1485363174296167,1.0,0.0
41.68558120727539,28.449054718017575,-2.393516540527344,-0.0,-0.0,-1.0,0.1036587554156365,1.0,0.0
42.01937484741211,28.35934829711914,-2.4327988624572754,-0.0,-0.0,-1.0,0.1010033952705967,1.0,0.0
42.26546478271485,28.171009063720703,-2.4374008178710938,-0.0,-0.0,-1.0,0.1118622693397952,1.0,0.0
41.56720733642578,28.7701416015625,-2.4402341842651367,-0.0,-0.0,-1.0,0.0732919965357609,1.0,0.0
40.41106414794922,29.265846252441406,-2.3555245399475098,0.1933109431029203,0.7983739836755526,-0.5702892787583224,0.1273969948503452,3.0,0.0
40.3775634765625,29.418609619140625,-2.3836240768432617,0.560025676592868,0.4379220255461922,0.7032748688089322,0.2090347105714391,5.0,0.0
40.420413970947266,28.21045684814453,-2.479409694671631,-0.0,-0.0,-1.0,0.1093254139386377,1.0,0.0
40.26798248291016,28.34330368041992,-2.4825634956359863,0.7832602116154389,-0.073430032947754,-0.6173422641950166,0.1750530075499568,3.0,0.0
42.10260772705078,28.27624130249023,-2.1157450675964355,-0.0,-0.0,-1.0,0.2113859681362618,1.0,0.0
42.46500778198242,28.817943572998047,-2.256671905517578,-0.0,-0.0,-1.0,0.1590734628261826,1.0,0.0
42.70743942260742,28.64674186706543,-2.261524200439453,-0.0,-0.0,-1.0,0.0574528908252108,2.0,0.0
42.64023208618164,29.657703399658203,-2.423159122467041,-0.0,-0.0,-1.0,0.1496387223398242,1.0,0.0
42.707130432128906,29.74018096923828,-1.755860447883606,-0.0,-0.0,-1.0,0.023623797848037,1.0,0.0
41.54095458984375,30.063411712646484,-1.0186301469802856,-0.0,-0.0,-1.0,0.0654867687447988,2.0,0.0
41.576541900634766,30.63203811645508,-2.814608335494995,-0.0,-0.0,-1.0,0.0533379881125913,1.0,0.0
41.75968170166016,30.49390411376953,-2.81622052192688,-0.0,-0.0,-1.0,0.0331623463053086,1.0,0.0
40.70798110961914,28.15653610229492,-2.258193254470825,-0.0,-0.0,-1.0,0.1127305370221799,1.0,0.0
40.92265319824219,28.265552520751953,-2.3085949420928955,-0.0,-0.0,-1.0,0.0651577207287403,1.0,0.0
41.35401153564453,28.261127471923828,-2.3723175525665283,-0.0,-0.0,-1.0,0.1654653972388777,2.0,0.0
40.95506286621094,28.631092071533203,-2.375981569290161,-0.0,-0.0,-1.0,0.0812846825111973,1.0,0.0
41.28659439086914,28.41689109802246,-2.388540267944336,-0.0,-0.0,-1.0,0.1926996956900886,2.0,0.0
41.658782958984375,28.455310821533203,-2.450953245162964,-0.0,-0.0,-1.0,0.0456590195946273,2.0,0.0
42.0274658203125,28.445411682128903,-2.505436658859253,0.285786682531477,-0.8455414545675609,0.4509829494508924,0.0608689870237796,3.0,0.0
40.49033737182617,29.108646392822266,-2.392059803009033,-0.0,-0.0,-1.0,0.0596448717358615,2.0,0.0
40.31059646606445,29.4466495513916,-2.4267210960388184,-0.0,-0.0,-1.0,0.1421851251588841,2.0,0.0
40.43353271484375,29.28749084472656,-2.4156548976898193,-0.0,-0.0,-1.0,0.1393066467964421,2.0,0.0
41.35078430175781,29.305278778076172,-2.5502030849456787,-0.0,-0.0,-1.0,0.1189420652630625,1.0,0.0
41.21430587768555,29.60759925842285,-2.5829389095306396,-0.0,-0.0,-1.0,0.0641075359268966,1.0,0.0
41.555267333984375,30.093416213989254,-1.426454782485962,-0.0,-0.0,-1.0,0.0589589807978714,2.0,0.0
41.598289489746094,30.045841217041016,-0.7911815643310547,-0.0,-0.0,-1.0,0.0602894768101612,2.0,0.0
41.67149353027344,28.280075073242188,-2.4977734088897705,-0.0,-0.0,-1.0,0.1113732462881137,1.0,0.0
41.90482711791992,28.28830337524414,-2.5343759059906006,-0.0,-0.0,-1.0,0.1441560785699748,2.0,0.0
40.33599090576172,28.953189849853516,-2.4352493286132812,-0.0,-0.0,-1.0,0.0286632049083772,2.0,0.0
42.629493713378906,28.145523071289062,-2.375352621078491,0.9660009648300978,0.2095672068766917,-0.1514058180824706,0.1603861248818602,4.0,0.0
41.294918060302734,28.501972198486328,-2.259777307510376,-0.0,-0.0,-1.0,0.1437919989368348,2.0,0.0
42.32899475097656,28.50060653686523,-2.400115728378296,-0.0,-0.0,-1.0,0.1641474094423884,2.0,0.0
41.62787628173828,28.951274871826172,-2.391876697540283,-0.0,-0.0,-1.0,0.1343063542091953,1.0,0.0
41.962921142578125,29.032695770263672,-2.4523937702178955,-0.0,-0.0,-1.0,0.1337360326435872,1.0,0.0
42.14788436889648,28.88105010986328,-2.448085308074951,-0.0,-0.0,-1.0,0.165476008943801,1.0,0.0
40.38641357421875,29.367767333984375,-2.3167881965637207,0.6207487541933261,0.0813744195568018,0.7797750880922185,0.1786627935673444,5.0,0.0
41.29401397705078,29.410768508911133,-2.4389560222625732,-0.0,-0.0,-1.0,0.1195470673703795,2.0,0.0
41.50782012939453,29.403635025024418,-2.465169668197632,-0.0,-0.0,-1.0,0.1211684502312205,1.0,0.0
41.995513916015625,29.16429328918457,-2.482358694076538,-0.0,-0.0,-1.0,0.1223530377848251,1.0,0.0
41.247344970703125,29.57472801208496,-2.4656336307525635,-0.0,-0.0,-1.0,0.0760630665812118,1.0,0.0
41.36245346069336,29.846847534179688,-2.5345752239227295,-0.0,-0.0,-1.0,0.083709363575398,1.0,0.0
42.19181060791016,29.809171676635746,-2.634423017501831,-0.0,-0.0,-1.0,0.0575485985662076,1.0,0.0
41.31188201904297,29.978755950927734,-2.554600954055786,-0.0,-0.0,-1.0,0.216109317671819,1.0,0.0
42.34790802001953,30.460235595703125,-2.782987356185913,-0.0,-0.0,-1.0,0.0300053878329475,1.0,0.0
42.65033721923828,29.64452362060547,-2.048405885696411,0.965143765987577,-0.2427527511663494,0.097819286321695,0.0282439439344926,3.0,0.0
41.58560943603515,30.071693420410156,-1.4058198928833008,-0.0,-0.0,-1.0,0.0487257141059091,2.0,0.0
40.27582550048828,28.29710578918457,-2.4671175479888916,-0.2324054258402441,-0.3436673906798084,-0.9098793560815338,0.1818527371175765,3.0,0.0
42.26658630371094,28.568267822265625,-2.278041124343872,-0.0677016867548889,0.7459119752368911,-0.6625947530796955,0.1670298624651266,3.0,0.0
42.5162353515625,28.445697784423828,-2.290648937225342,0.2165541180417275,0.2122522882948208,-0.9529182966407886,0.1516817625093476,4.0,0.0
42.13898849487305,28.855928421020508,-2.3151557445526123,-0.0,-0.0,-1.0,0.1314011143081754,1.0,0.0
42.46080780029297,28.97492218017578,-2.383610963821411,-0.0,-0.0,-1.0,0.1739136008966269,1.0,0.0
41.93987655639648,29.08603286743164,-2.3319966793060303,-0.0,-0.0,-1.0,0.091029459049605,1.0,0.0
42.338016510009766,29.523212432861328,-2.47222638130188,-0.0,-0.0,-1.0,0.0640359859347557,1.0,0.0
42.513702392578125,29.577964782714844,-2.507338762283325,-0.0,-0.0,-1.0,0.1641259286900455,1.0,0.0
41.56376266479492,30.038537979125977,-2.4690704345703125,-0.0,-0.0,-1.0,0.130190828757914,1.0,0.0
42.63679122924805,29.644569396972656,-1.9439494609832764,-0.0,-0.0,-1.0,0.0282439439344926,1.0,0.0
41.77500915527344,28.44078254699707,-2.510957717895508,-0.0,-0.0,-1.0,0.0467805007167431,2.0,0.0
40.62418365478515,28.168933868408203,-2.29253888130188,-0.0,-0.0,-1.0,0.1346026166133322,1.0,0.0
40.94983673095703,28.267112731933594,-2.358335018157959,-0.0,-0.0,-1.0,0.0742051501259312,1.0,0.0
41.21401596069336,28.170793533325195,-2.3708224296569824,-0.0,-0.0,-1.0,0.1104865370974336,1.0,0.0
41.907718658447266,28.183528900146484,-2.4700522422790527,-0.0,-0.0,-1.0,0.14127597370765,2.0,0.0
40.497596740722656,28.41622543334961,-2.3355960845947266,-0.0,-0.0,-1.0,0.1172321762208201,1.0,0.0
41.281375885009766,28.420066833496097,-2.438643455505371,-0.0,-0.0,-1.0,0.2000528299309163,2.0,0.0
41.75251770019531,28.385677337646484,-2.495103597640991,-0.0,-0.0,-1.0,0.056361871906748,2.0,0.0
42.62007141113281,29.706241607666016,-1.7679760456085205,0.3017117613126867,0.4027484664257985,-0.8641548969237307,0.023623797848037,3.0,0.0
41.50746536254883,30.073654174804688,-1.1656146049499512,-0.0,-0.0,-1.0,0.0716926575824823,1.0,0.0
40.85332107543945,28.22562789916992,-2.296811103820801,-0.0,-0.0,-1.0,0.0661069993192404,1.0,0.0
41.23667907714844,28.248401641845703,-2.35219144821167,-0.0,-0.0,-1.0,0.0972073543631097,2.0,0.0
41.29783248901367,28.466533660888672,-2.413641452789306,-0.0,-0.0,-1.0,0.1673076300494367,2.0,0.0
41.68700408935547,28.464977264404297,-2.465409755706787,-0.0,-0.0,-1.0,0.0558313461644066,2.0,0.0
41.94832992553711,28.396278381347656,-2.484874725341797,-0.0,-0.0,-1.0,0.0600815376679736,2.0,0.0
41.31255340576172,28.747650146484375,-2.48431396484375,-0.0,-0.0,-1.0,0.0609973073387714,1.0,0.0
42.64591217041016,29.67151641845703,-1.775138020515442,0.3017117613126867,0.4027484664257985,-0.8641548969237307,0.023623797848037,3.0,0.0
42.34757995605469,28.5218505859375,-2.2878217697143555,-0.6748106682299847,0.3185226615754028,-0.6657130583862109,0.2144055984830848,3.0,0.0
42.51800155639648,28.442228317260746,-2.2846124172210693,0.2165541180417275,0.2122522882948208,-0.9529182966407886,0.1267095641000498,4.0,0.0
42.34157943725586,28.740478515625,-2.342319965362549,-0.2394355615844574,-0.7769669616564258,-0.5822310128661283,0.1002242922217744,3.0,0.0
42.0025634765625,28.15351676940918,-2.5464205741882324,-0.0,-0.0,-1.0,0.1397951149552555,1.0,0.0
40.55971908569336,28.254486083984375,-2.4040160179138184,-0.0,-0.0,-1.0,0.1402316882926801,2.0,0.0
40.574337005615234,28.57600975036621,-2.4812116622924805,-0.0,-0.0,-1.0,0.0526918495222341,1.0,0.0
42.61013412475586,28.380054473876953,-2.456066131591797,-0.0,-0.0,-1.0,0.1797237119191035,1.0,0.0
42.53168869018555,29.601093292236328,-1.9956278800964355,-0.0,-0.0,-1.0,0.0282478472528643,2.0,0.0
40.34951400756836,30.556245803833008,-2.7509303092956543,-0.0,-0.0,-1.0,0.0410335288037138,1.0,0.0
40.301239013671875,30.19596290588379,-2.693408966064453,-0.0,-0.0,-1.0,0.0193503449719893,1.0,0.0
40.760780334472656,29.540225982666016,-2.540508985519409,-0.0,-0.0,-1.0,0.0559583329347137,1.0,0.0
41.2829704284668,29.75638771057129,-2.532895088195801,-0.0,-0.0,-1.0,0.0621919986427131,2.0,0.0
41.13245391845703,29.73786163330078,-2.5423593521118164,-0.0,-0.0,-1.0,0.0332117510926561,1.0,0.0
40.584590911865234,28.610570907592773,-2.3987784385681152,-0.2078304415087607,-0.8436149240667906,-0.4950963214103459,0.0685025096833841,5.0,0.0
41.261695861816406,29.28706932067871,-2.453382730484009,-0.0,-0.0,-1.0,0.121515343677269,1.0,0.0
41.19012069702149,29.06548500061035,-2.4213855266571045,-0.0,-0.0,-1.0,0.0621296666029605,1.0,0.0
40.635013580322266,28.53192138671875,-2.380858898162842,-0.0,-0.0,-1.0,0.0970314233755789,1.0,0.0
41.92612838745117,28.974281311035156,-2.343351364135742,-0.0,-0.0,-1.0,0.0809460265115121,2.0,0.0
41.23878860473633,28.36962890625,-2.2979965209960938,-0.0,-0.0,-1.0,0.1582081384077888,1.0,0.0
41.05218124389648,28.22690200805664,-2.2907278537750244,-0.0,-0.0,-1.0,0.0798936514393975,1.0,0.0
42.0629997253418,28.935564041137695,-2.3254401683807373,-0.0,-0.0,-1.0,0.1067645549956392,2.0,0.0
41.91121292114258,28.444292068481445,-2.252295970916748,-0.0,-0.0,-1.0,0.1847723266554173,1.0,0.0
42.44947814941406,28.682098388671875,-2.250049352645874,-0.0,-0.0,-1.0,0.0837425770915387,2.0,0.0
42.16485595703125,28.24572372436523,-2.196566104888916,-0.0,-0.0,-1.0,0.176171561053945,1.0,0.0
42.60711669921875,29.59002113342285,-1.698544979095459,-0.0,-0.0,-1.0,0.023623797848037,1.0,0.0
40.42683792114258,29.40947723388672,-2.429797649383545,-0.0,-0.0,-1.0,0.2280346343521158,2.0,0.0
40.44737243652344,29.154972076416016,-2.3869638442993164,-0.4719667938136802,0.7712992049352434,-0.4270185967888248,0.0782584277904107,4.0,0.0
40.36909484863281,28.94486427307129,-2.3604321479797363,-0.0,-0.0,-1.0,0.0336248873116851,2.0,0.0
42.682861328125,29.534223556518555,-2.0089986324310303,-0.0,-0.0,-1.0,0.0282439439344926,1.0,0.0
41.67591094970703,28.41319274902344,-2.522582530975342,-0.0,-0.0,-1.0,0.0921558227518944,1.0,0.0
42.6798095703125,28.23922348022461,-2.4214906692504883,-0.0,-0.0,-1.0,0.1328411674848933,1.0,0.0
42.05097961425781,28.27495574951172,-2.4696130752563477,0.6432098675311441,-0.7635427096244548,0.057302677859884,0.0687785131593665,3.0,0.0
41.6147575378418,28.281089782714844,-2.5013856887817383,-0.0,-0.0,-1.0,0.0652743217356916,1.0,0.0
42.61943817138672,29.56969451904297,-1.9904266595840456,-0.0,-0.0,-1.0,0.0282439439344926,1.0,0.0
40.30828094482422,29.881996154785156,-1.8921992778778076,-0.0,-0.0,-1.0,0.0621150850955849,1.0,0.0
42.702842712402344,29.808547973632812,-1.8801352977752688,-0.0,-0.0,-1.0,0.0282439439344926,1.0,0.0
40.33556365966797,29.55679702758789,-1.8358240127563477,-0.0,-0.0,-1.0,0.0853926139917866,1.0,0.0
42.68623352050781,29.807300567626953,-1.2000889778137207,-0.0,-0.0,-1.0,0.0455479596043919,1.0,0.0
42.23915100097656,29.038536071777344,-2.493234634399414,-0.0,-0.0,-1.0,0.1337263364898325,1.0,0.0
42.600067138671875,28.48245620727539,-2.3575923442840576,-0.0,-0.0,-1.0,0.1774484062660356,1.0,0.0
42.28849792480469,28.778697967529297,-2.439368963241577,-0.0,-0.0,-1.0,0.1208099475057976,1.0,0.0
41.77532958984375,28.92920684814453,-2.5108251571655273,-0.0,-0.0,-1.0,0.0679959859794682,1.0,0.0
41.46089172363281,29.35451889038086,-2.6190130710601807,-0.0,-0.0,-1.0,0.1224077046897519,1.0,0.0
41.29808044433594,29.335838317871097,-2.6298913955688477,-0.0,-0.0,-1.0,0.1203236400542154,1.0,0.0
42.21131896972656,28.51558303833008,-2.3951103687286377,-0.0,-0.0,-1.0,0.0820677714654332,2.0,0.0
41.160743713378906,28.871238708496097,-2.5548253059387207,-0.0,-0.0,-1.0,0.0226951713352998,1.0,0.0
41.36353302001953,28.393646240234375,-2.4462950229644775,-0.0,-0.0,-1.0,0.1825707421346936,1.0,0.0
41.17306900024414,28.317684173583984,-2.449873924255371,-0.0,-0.0,-1.0,0.0973022607952586,1.0,0.0
40.91933059692383,28.281925201416016,-2.4678564071655273,-0.0,-0.0,-1.0,0.0831272794262653,1.0,0.0
41.633060455322266,30.06166076660156,-2.038414716720581,-0.0,-0.0,-1.0,0.0721514341145723,1.0,0.0
42.653228759765625,29.72130966186523,-2.459000587463379,-0.0,-0.0,-1.0,0.1496387223398241,1.0,0.0
42.70878601074219,28.706867218017575,-2.264012098312378,-0.0,-0.0,-1.0,0.045176007506285,1.0,0.0
42.473514556884766,28.522891998291016,-2.2502620220184326,-0.0,-0.0,-1.0,0.1072924122251262,1.0,0.0
42.12818145751953,28.697418212890625,-2.3137941360473633,-0.0,-0.0,-1.0,0.0959734255375914,1.0,0.0
41.908485412597656,29.067363739013672,-2.402588367462158,-0.0,-0.0,-1.0,0.0920162827166563,1.0,0.0
41.6046028137207,29.166236877441406,-2.44939923286438,-0.0,-0.0,-1.0,0.1222199210500089,2.0,0.0
41.92418670654297,28.61956024169922,-2.318336725234986,-0.0,-0.0,-1.0,0.1077346900519691,1.0,0.0
41.737586975097656,28.875194549560547,-2.3831658363342285,-0.0,-0.0,-1.0,0.0653438058122186,2.0,0.0
41.513893127441406,28.93958282470703,-2.416426181793213,-0.0,-0.0,-1.0,0.121760402347517,2.0,0.0
41.37678527832031,28.395763397216797,-2.330378770828247,-0.0,-0.0,-1.0,0.1560306886227183,2.0,0.0
41.048126220703125,28.257362365722656,-2.3387649059295654,-0.0,-0.0,-1.0,0.0887757624090412,2.0,0.0
40.887962341308594,28.35955810546875,-2.37390398979187,-0.0,-0.0,-1.0,0.0651304488923945,1.0,0.0
40.54457092285156,28.872299194335938,-2.5026447772979736,-0.0,-0.0,-1.0,0.0570413051470918,1.0,0.0
42.562156677246094,29.758636474609375,-1.8010072708129885,-0.0,-0.0,-1.0,0.023623797848037,1.0,0.0
42.47399139404297,28.36747360229492,-2.391284704208374,-0.0344708469001278,-0.8807505597530281,-0.4723242659537148,0.148141164119564,4.0,0.0
42.11994171142578,28.471725463867188,-2.4451680183410645,-0.0,-0.0,-1.0,0.0540407776082836,1.0,0.0
41.83788299560547,28.595027923583984,-2.4973249435424805,-0.0,-0.0,-1.0,0.0721358638093435,2.0,0.0
41.963104248046875,28.168163299560547,-2.397576332092285,-0.0,-0.0,-1.0,0.136354162245341,1.0,0.0
41.6105842590332,28.430164337158203,-2.4859678745269775,-0.0,-0.0,-1.0,0.0687178638901665,1.0,0.0
41.299373626708984,28.152328491210938,-2.4613149166107178,-0.0,-0.0,-1.0,0.0979371826122068,1.0,0.0
40.31690216064453,30.14812469482422,-2.492006301879883,-0.0,-0.0,-1.0,0.0653383254097311,1.0,0.0
41.52449417114258,29.963668823242188,-2.419045925140381,-0.0,-0.0,-1.0,0.1643707323009766,1.0,0.0
41.38168716430664,30.027721405029297,-2.4355859756469727,-0.0,-0.0,-1.0,0.1105345968000445,1.0,0.0
40.45694732666016,29.49462890625,-2.352113723754883,-0.0,-0.0,-1.0,0.2155721668609187,1.0,0.0
40.25703430175781,29.45590591430664,-2.3519463539123535,-0.0,-0.0,-1.0,0.1411567072194495,2.0,0.0
40.44952774047851,29.317974090576172,-2.31602144241333,-0.0,-0.0,-1.0,0.1635756531267281,2.0,0.0
42.1941032409668,28.37638282775879,-2.0714359283447266,-0.0,-0.0,-1.0,0.1554647325286631,2.0,0.0
40.64268112182617,28.158588409423828,-2.070335865020752,-0.0,-0.0,-1.0,0.1158674991165481,1.0,0.0
40.40981674194336,29.47537612915039,-2.353782415390014,-0.0,-0.0,-1.0,0.1988389281920155,1.0,0.0
41.9479866027832,28.959617614746097,-2.45554780960083,-0.0,-0.0,-1.0,0.0944733480903239,2.0,0.0
41.4613151550293,29.23043441772461,-2.5519208908081055,-0.0,-0.0,-1.0,0.103320017010813,1.0,0.0
42.59358978271485,28.459957122802734,-2.300581455230713,-0.0,-0.0,-1.0,0.1060209968518522,1.0,0.0
42.2387809753418,28.59307289123535,-2.3522019386291504,-0.0,-0.0,-1.0,0.1717990996520445,1.0,0.0
41.769554138183594,28.80427360534668,-2.431772232055664,-0.0,-0.0,-1.0,0.0609168109808239,1.0,0.0
41.53464889526367,28.881065368652344,-2.4661827087402344,-0.0,-0.0,-1.0,0.0707775008183488,1.0,0.0
41.097286224365234,28.92272567749023,-2.50927209854126,-0.0,-0.0,-1.0,0.0315316148938431,1.0,0.0
40.72524642944336,28.924076080322266,-2.5405187606811523,-0.0,-0.0,-1.0,0.0375487637876204,1.0,0.0
42.26351547241211,28.32485580444336,-2.288527488708496,-0.0,-0.0,-1.0,0.2043283460798817,1.0,0.0
41.38591003417969,28.396011352539062,-2.3657584190368652,-0.0,-0.0,-1.0,0.1548737858566477,2.0,0.0
40.98467254638672,28.495689392089844,-2.4207873344421387,-0.0,-0.0,-1.0,0.0740541077412854,1.0,0.0
41.061161041259766,28.256956100463867,-2.359738349914551,-0.8082504539654691,0.2976235839278606,-0.5080860221995376,0.0890141872349505,3.0,0.0
40.79727554321289,28.241281509399418,-2.3786611557006836,-0.0,-0.0,-1.0,0.0702137853460913,1.0,0.0
42.52686309814453,29.58627700805664,-1.963962435722351,-0.0,-0.0,-1.0,0.0282478472528643,2.0,0.0
41.547306060791016,30.007465362548828,-1.4916938543319702,-0.0,-0.0,-1.0,0.0502493902510821,1.0,0.0
41.587440490722656,29.99253845214844,-0.8824683427810669,-0.0,-0.0,-1.0,0.0801631754340145,1.0,0.0
41.860084533691406,28.475982666015625,-2.52766752243042,-0.0,-0.0,-1.0,0.0854131055610591,1.0,0.0
41.67820739746094,28.486251831054688,-2.5394158363342285,-0.0,-0.0,-1.0,0.0297594193787463,1.0,0.0
41.58070373535156,28.405927658081055,-2.524232864379883,-0.0,-0.0,-1.0,0.0590427356960083,1.0,0.0
41.5195198059082,30.01704216003418,-2.322244167327881,-0.0,-0.0,-1.0,0.0965956004913009,1.0,0.0
42.25802993774414,28.299407958984375,-2.465038776397705,-0.0,-0.0,-1.0,0.0790848510431585,2.0,0.0
42.10230255126953,28.304004669189453,-2.472805976867676,-0.0,-0.0,-1.0,0.0721490242024019,2.0,0.0
42.3487434387207,28.15951156616211,-2.4258341789245605,-0.0,-0.0,-1.0,0.0881070561559027,1.0,0.0
41.423194885253906,28.230854034423828,-2.4887475967407227,-0.0,-0.0,-1.0,0.1319826194592721,1.0,0.0
41.59585952758789,30.116226196289062,-1.1341110467910769,-0.0,-0.0,-1.0,0.0712292870299516,2.0,0.0
42.048187255859375,28.779834747314453,-2.4473443031311035,-0.0,-0.0,-1.0,0.0832564015815602,1.0,0.0
41.72538757324219,28.862152099609375,-2.4765429496765137,-0.0,-0.0,-1.0,0.0655461757813949,2.0,0.0
40.823638916015625,28.70130729675293,-2.470454216003418,-0.0,-0.0,-1.0,0.0759354482907401,1.0,0.0
41.49232864379883,30.053730010986328,-2.1788854598999023,-0.0,-0.0,-1.0,0.0712104451194945,1.0,0.0
42.319053649902344,28.54774475097656,-2.3834781646728516,-0.6774045168576341,-0.6389040445961476,-0.3645884561249296,0.1805408976381606,4.0,0.0
42.06944274902344,28.64405059814453,-2.4128355979919434,-0.0,-0.0,-1.0,0.0934834850149298,1.0,0.0
42.648284912109375,28.40234375,-2.34197998046875,-0.0,-0.0,-1.0,0.1460267298348816,2.0,0.0
42.40266799926758,28.43486785888672,-2.353944778442383,-0.0,-0.0,-1.0,0.0791986512003658,1.0,0.0
42.01408004760742,28.560436248779297,-2.393294334411621,-0.0,-0.0,-1.0,0.1276769484208344,1.0,0.0
41.48701095581055,28.5225887298584,-2.399367332458496,-0.0,-0.0,-1.0,0.0876299561174938,2.0,0.0
41.062347412109375,28.612991333007812,-2.4379515647888184,-0.0,-0.0,-1.0,0.084500970152709,1.0,0.0
41.498104095458984,28.297880172729492,-2.3427557945251465,-0.0,-0.0,-1.0,0.1196415501994331,1.0,0.0
41.099998474121094,28.33273696899414,-2.366579055786133,0.4696298690325466,0.047853934646132,-0.8815655319097707,0.1171497182128121,3.0,0.0
40.763729095458984,28.296188354492188,-2.372124671936035,-0.0,-0.0,-1.0,0.0921282840844697,1.0,0.0
40.4337272644043,28.311595916748047,-2.3925600051879883,-0.0,-0.0,-1.0,0.1487804740616874,1.0,0.0
41.53233337402344,30.011943817138672,-1.576292634010315,-0.0,-0.0,-1.0,0.0343110235136238,2.0,0.0
41.51976776123047,30.187908172607425,-1.0164271593093872,-0.0,-0.0,-1.0,0.0624224803099682,1.0,0.0
41.798336029052734,30.00530242919922,-2.500276565551758,-0.0,-0.0,-1.0,0.1032445737375533,1.0,0.0
42.694671630859375,29.622224807739254,-2.432189464569092,-0.0,-0.0,-1.0,0.135506535778915,2.0,0.0
40.3446044921875,29.403472900390625,-2.350924491882324,-0.0414937886515352,0.9986122020892386,0.0324335527166482,0.1739316909546289,6.0,0.0
41.49589920043945,30.040584564208984,-1.9145721197128296,-0.0,-0.0,-1.0,0.070888949949409,2.0,0.0
42.232696533203125,28.382497787475582,-2.1278090476989746,-0.0,-0.0,-1.0,0.1527228265401633,1.0,0.0
42.1754035949707,28.330909729003903,-2.1141586303710938,-0.0,-0.0,-1.0,0.1903291578791764,1.0,0.0
41.55013275146485,29.975446701049805,-1.3227378129959106,-0.0,-0.0,-1.0,0.0477493180820649,1.0,0.0
41.55464172363281,29.995759963989254,-0.75261390209198,-0.0,-0.0,-1.0,0.0695594830936496,1.0,0.0
41.46149826049805,30.038814544677734,-2.247675895690918,-0.0,-0.0,-1.0,0.0781307526491252,1.0,0.0
41.50059509277344,29.93876075744629,-1.650169014930725,-0.0,-0.0,-1.0,0.0367197349673065,1.0,0.0
41.55792236328125,29.991424560546875,-1.090204834938049,-0.0,-0.0,-1.0,0.0664451577229932,1.0,0.0
42.65725326538086,29.74721908569336,-1.7168079614639282,-0.0,-0.0,-1.0,0.023623797848037,1.0,0.0
40.277923583984375,30.23516845703125,-2.442676067352295,-0.0,-0.0,-1.0,0.0653383254097311,1.0,0.0
40.27946090698242,29.52688217163086,-2.273432731628418,-0.0,-0.0,-1.0,0.1699939453021313,2.0,0.0
42.69490814208984,29.627283096313477,-1.7657172679901123,-0.0,-0.0,-1.0,0.023623797848037,1.0,0.0
42.303375244140625,28.870689392089844,-2.1496059894561768,-0.0,-0.0,-1.0,0.1150189251581337,1.0,0.0
41.53663635253906,30.095314025878903,-1.2041633129119873,-0.0,-0.0,-1.0,0.0681403742450059,2.0,0.0
42.34392929077149,29.662975311279297,-2.593454360961914,-0.0,-0.0,-1.0,0.0683011783647719,1.0,0.0
42.01189804077149,29.855884552001953,-2.5978376865386963,-0.0,-0.0,-1.0,0.0467165040746794,1.0,0.0
41.67071533203125,30.038135528564453,-2.601499319076538,-0.0,-0.0,-1.0,0.136886744376516,2.0,0.0
41.21705627441406,29.998050689697266,-2.547744035720825,-0.0,-0.0,-1.0,0.1690582484912253,2.0,0.0
41.346534729003906,29.700435638427734,-2.494608163833618,-0.0,-0.0,-1.0,0.0312039643647207,1.0,0.0
42.09104537963867,29.01575469970703,-2.4265835285186768,-0.0,-0.0,-1.0,0.1609797703153167,1.0,0.0
41.66408157348633,29.16138458251953,-2.410270929336548,-0.0,-0.0,-1.0,0.1152281092298014,1.0,0.0
41.48193359375,29.2276554107666,-2.40501070022583,-0.0,-0.0,-1.0,0.135344493086934,1.0,0.0
40.35897064208984,29.502809524536133,-2.358506679534912,-0.0,-0.0,-1.0,0.1538400235324817,1.0,0.0
42.27200698852539,28.711917877197266,-2.383450508117676,-0.0,-0.0,-1.0,0.1269932248478644,1.0,0.0
42.607391357421875,28.406471252441406,-2.3611018657684326,-0.0,-0.0,-1.0,0.1158469232295734,2.0,0.0
42.3837890625,28.48223876953125,-2.349025011062622,-0.0,-0.0,-1.0,0.1330453557964139,2.0,0.0
42.02618789672851,28.63270568847656,-2.337594985961914,-0.0,-0.0,-1.0,0.1231185768747499,1.0,0.0
41.64505386352539,28.838212966918945,-2.3382351398468018,-0.0,-0.0,-1.0,0.1154465277253918,2.0,0.0
41.29298400878906,29.057109832763672,-2.3481338024139404,-0.0,-0.0,-1.0,0.0929315664231864,1.0,0.0
41.584415435791016,30.05635643005371,-0.8599932193756104,-0.6709095188199096,-0.4740661971948798,-0.5702119415042295,0.0721607746883063,4.0,0.0
42.39651870727539,29.608020782470703,-2.529176712036133,-0.0,-0.0,-1.0,0.0804519821153722,1.0,0.0
41.34358215332031,30.007097244262695,-2.4913744926452637,-0.0,-0.0,-1.0,0.1079032506818787,1.0,0.0
41.91087341308594,29.208263397216797,-2.3893983364105225,-0.0,-0.0,-1.0,0.0829359109773035,1.0,0.0
42.17440032958984,28.793561935424805,-2.337946653366089,-0.0,-0.0,-1.0,0.1193594275656314,1.0,0.0
41.98459243774414,29.118438720703125,-2.379970073699951,0.2972787608651537,0.596285252359078,-0.7457005003066243,0.1460530318633343,3.0,0.0
42.456241607666016,28.462989807128903,-2.3086249828338623,0.5805579742287621,-0.0120995164444851,-0.8141290071365873,0.1075694691690819,3.0,0.0
42.141849517822266,28.60607528686523,-2.2963945865631104,-0.0,-0.0,-1.0,0.1080626935653671,1.0,0.0
41.59508514404297,30.0958194732666,-0.7676887512207031,-0.0,-0.0,-1.0,0.0721607746883063,1.0,0.0
41.538230895996094,30.0606689453125,-2.21156644821167,-0.0,-0.0,-1.0,0.0688451865748784,1.0,0.0
42.32612609863281,30.613666534423828,-2.792236804962158,-0.0,-0.0,-1.0,0.0235635988143501,1.0,0.0
42.45001602172851,30.47796630859375,-2.783634662628174,-0.0,-0.0,-1.0,0.0362389394154603,1.0,0.0
42.03770065307617,29.90254020690918,-2.6191086769104004,-0.0,-0.0,-1.0,0.0436365163658971,1.0,0.0
42.51056289672851,29.47320556640625,-2.606807231903076,-0.0,-0.0,-1.0,0.1014507441126671,1.0,0.0
41.02919006347656,30.157276153564453,-2.5359110832214355,-0.0,-0.0,-1.0,0.1132621669003315,1.0,0.0
41.29218292236328,29.790691375732425,-2.4981675148010254,-0.0,-0.0,-1.0,0.0644296197552853,2.0,0.0
41.24924087524414,29.981788635253903,-2.5294857025146484,-0.0,-0.0,-1.0,0.162013416000658,2.0,0.0
42.162654876708984,29.208276748657227,-2.5082802772521973,-0.0,-0.0,-1.0,0.1313027518161036,1.0,0.0
41.302528381347656,29.459814071655273,-2.436143398284912,-0.0,-0.0,-1.0,0.1029886287593988,2.0,0.0
42.216793060302734,28.694869995117188,-2.4234871864318848,-0.0,-0.0,-1.0,0.1106794202465184,1.0,0.0
42.02052307128906,28.86381149291992,-2.4252514839172363,-0.0,-0.0,-1.0,0.1067123351964138,1.0,0.0
41.73261260986328,28.92152214050293,-2.3942761421203613,-0.0,-0.0,-1.0,0.0669940760047942,2.0,0.0
40.34710693359375,29.387435913085938,-2.300252914428711,0.346872935433568,0.7602454905461692,0.5492776718272047,0.1800379933957399,4.0,0.0
42.614356994628906,28.184894561767575,-2.394896984100342,0.9283250787810656,0.2019585351845702,-0.3121302583413388,0.1741900970613591,3.0,0.0
42.34123992919922,28.41333770751953,-2.3923659324645996,-0.0,-0.0,-1.0,0.1233494609206131,1.0,0.0
41.233665466308594,28.48227310180664,-2.242828369140625,-0.0,-0.0,-1.0,0.168333277055424,2.0,0.0
41.47352600097656,28.22905158996582,-2.230441093444824,-0.0,-0.0,-1.0,0.1239278621553982,1.0,0.0
40.249759674072266,28.42447280883789,-2.4930737018585205,-0.0,-0.0,-1.0,0.1251997347744611,2.0,0.0
40.31194305419922,28.289905548095703,-2.473623275756836,-0.0,-0.0,-1.0,0.1309093783133499,2.0,0.0
42.412479400634766,28.733304977416992,-2.2505204677581787,-0.0,-0.0,-1.0,0.1378374458791053,1.0,0.0
42.53556442260742,28.52623748779297,-2.2325215339660645,-0.0,-0.0,-1.0,0.0806626961867331,2.0,0.0
40.2376708984375,28.838062286376953,-2.4620542526245117,-0.0,-0.0,-1.0,0.0337928702393543,1.0,0.0
40.58392333984375,28.40520477294922,-2.4381232261657715,-0.0,-0.0,-1.0,0.0878410192811468,2.0,0.0
40.29056167602539,28.520185470581055,-2.4132795333862305,-0.0,-0.0,-1.0,0.1011895400870158,2.0,0.0
40.21038818359375,28.179195404052734,-2.340902328491211,-0.0,-0.0,-1.0,0.2898456147361893,1.0,0.0
42.61259841918945,29.63417625427246,-1.6493161916732788,-0.0,-0.0,-1.0,0.023623797848037,1.0,0.0
41.45798873901367,30.010622024536133,-1.5687412023544312,-0.0,-0.0,-1.0,0.0343110235136238,1.0,0.0
42.61732482910156,29.4934024810791,-2.5679125785827637,-0.0,-0.0,-1.0,0.1520246466611062,1.0,0.0
42.206275939941406,29.776836395263672,-2.5432395935058594,-0.0,-0.0,-1.0,0.0652917971065211,1.0,0.0
41.968536376953125,29.442855834960938,-2.461411952972412,-0.0,-0.0,-1.0,0.0417427930037487,1.0,0.0
41.79688262939453,29.107852935791016,-2.3896007537841797,-0.0,-0.0,-1.0,0.0617869962041756,1.0,0.0
42.10771560668945,28.90209197998047,-2.410198211669922,-0.0,-0.0,-1.0,0.1661702153427181,1.0,0.0
41.65388870239258,28.88344955444336,-2.3373007774353027,-0.0,-0.0,-1.0,0.1204613397540943,2.0,0.0
42.28660583496094,28.43082618713379,-2.377016544342041,-0.0,-0.0,-1.0,0.1316462443487402,2.0,0.0
42.18753433227539,28.544099807739254,-2.3757548332214355,-0.7154191951330102,-0.686153358765522,0.1317912876104817,0.1134514360955854,3.0,0.0
42.69866943359375,29.784547805786133,-1.9293159246444704,-0.0,-0.0,-1.0,0.0282439439344926,1.0,0.0
41.440765380859375,30.06450080871582,-1.8052202463150024,-0.0,-0.0,-1.0,0.0428785118237561,1.0,0.0
41.512149810791016,30.124591827392575,-1.160006403923035,-0.0,-0.0,-1.0,0.0709164409401057,1.0,0.0
42.38206100463867,30.577789306640625,-2.858135223388672,-0.0,-0.0,-1.0,0.0265762401091918,1.0,0.0
42.58064270019531,30.28918075561523,-2.8536410331726074,-0.0,-0.0,-1.0,0.0435287877808161,1.0,0.0
42.45515823364258,30.455902099609375,-2.854349136352539,-0.0,-0.0,-1.0,0.0362389394154603,1.0,0.0
42.32074737548828,29.91084671020508,-2.763953685760498,-0.0,-0.0,-1.0,0.0672827722937606,1.0,0.0
42.35877990722656,29.715707778930664,-2.7460665702819824,-0.0,-0.0,-1.0,0.0636318274451315,1.0,0.0
41.24028778076172,29.944543838500977,-2.594658851623535,-0.0,-0.0,-1.0,0.1528387904421754,1.0,0.0
41.23200225830078,29.662900924682617,-2.556687116622925,-0.0,-0.0,-1.0,0.0349841818573569,1.0,0.0
41.232940673828125,29.84543228149414,-2.5805368423461914,-0.0,-0.0,-1.0,0.1126400122305431,1.0,0.0
41.25389099121094,29.155902862548828,-2.495473861694336,-0.0,-0.0,-1.0,0.0920619798644562,1.0,0.0
40.399147033691406,29.410476684570312,-2.400190830230713,0.7207338581757693,0.247555088658251,0.6475022654465968,0.238406154219894,6.0,0.0
