x,y,z,nx,ny,nz,curvature,density,label
46.97032928466797,7.572793960571289,-1.6432042121887207,-0.0,-0.0,-1.0,0.0558363787918567,2.0,0.0
46.64827728271485,7.166109085083008,-1.6218395233154297,-0.0,-0.0,-1.0,0.0846764416384503,1.0,0.0
45.919288635253906,6.734107971191406,-1.5635757446289062,-0.0,-0.0,-1.0,0.1965250033629519,1.0,0.0
46.11603927612305,7.03626823425293,-1.5745673179626465,-0.0,-0.0,-1.0,0.0862127383180367,1.0,0.0
45.60059356689453,6.493917465209961,-1.5399646759033203,-0.0,-0.0,-1.0,0.0568897895261647,1.0,0.0
45.76082611083984,6.65522575378418,-1.550736427307129,-0.0,-0.0,-1.0,0.0812435683003486,1.0,0.0
45.40882110595703,6.351703643798828,-1.5258710384368896,-0.0,-0.0,-1.0,0.0311182968969827,1.0,0.0
45.72574615478515,5.877185821533203,-1.569420576095581,-0.0,-0.0,-1.0,0.0688038525185971,2.0,0.0
45.682403564453125,6.387956619262695,-1.551758050918579,-0.0,-0.0,-1.0,0.0680144053378799,1.0,0.0
46.105255126953125,5.85719108581543,-1.606971025466919,-0.0,-0.0,-1.0,0.1803744492944545,1.0,0.0
46.08930206298828,6.457233428955078,-1.5899064540863037,-0.0,-0.0,-1.0,0.1433483930461073,2.0,0.0
46.25147247314453,6.90138053894043,-1.594728708267212,-0.0,-0.0,-1.0,0.108170030222993,1.0,0.0
46.76885986328125,7.16853141784668,-1.6395313739776611,-0.0,-0.0,-1.0,0.1322261489475136,2.0,0.0
47.104713439941406,7.295015335083008,-1.6700170040130615,-0.0,-0.0,-1.0,0.0591345286530538,1.0,0.0
47.33538818359375,7.604280471801758,-1.6859543323516846,-0.0,-0.0,-1.0,0.1041499680132679,1.0,0.0
47.38658142089844,7.571935653686523,-1.691852331161499,-0.0,-0.0,-1.0,0.0627290295348773,2.0,0.0
47.62731170654297,7.870138168334961,-1.7093393802642822,-0.0,-0.0,-1.0,0.1227748735793464,1.0,0.0
45.330291748046875,6.640167236328125,-1.7080745697021484,-0.0,-0.0,-1.0,0.0200200640308449,1.0,0.0
45.709136962890625,7.160789489746094,-1.7261066436767578,-0.0,-0.0,-1.0,0.0731122988691647,1.0,0.0
45.95881652832031,7.2418975830078125,-1.748082160949707,-0.0,-0.0,-1.0,0.0965455663376995,2.0,0.0
46.33528900146485,7.410181045532227,-1.7796201705932615,-0.0,-0.0,-1.0,0.0447156090133776,1.0,0.0
46.662803649902344,7.528951644897461,-1.8081932067871096,-0.0,-0.0,-1.0,0.1173627945298286,1.0,0.0
47.007041931152344,8.013422012329102,-1.8252720832824707,-0.0,-0.0,-1.0,0.1343777308746438,1.0,0.0
47.006622314453125,7.746772766113281,-1.8349180221557615,-0.0,-0.0,-1.0,0.1162089908404747,1.0,0.0
47.37083435058594,8.020828247070312,-1.861861228942871,-0.0,-0.0,-1.0,0.0213741145442685,2.0,0.0
46.009239196777344,6.229377746582031,-1.432971477508545,-0.0,-0.0,-1.0,0.1153496600142425,2.0,0.0
46.31928253173828,5.813573837280273,-1.4716129302978516,-0.0,-0.0,-1.0,0.1587646801361839,1.0,0.0
46.80365753173828,6.359163284301758,-1.5169250965118408,-0.0,-0.0,-1.0,0.2911949872525792,2.0,0.0
47.01693344116211,5.648357391357422,-1.5487093925476074,-0.0,-0.0,-1.0,0.031177096565477,1.0,0.0
46.92620849609375,6.528327941894531,-1.5281271934509275,-0.0,-0.0,-1.0,0.1479787562915546,1.0,0.0
47.15994644165039,5.915376663208008,-1.5607881546020508,-0.0,-0.0,-1.0,0.0537052800603384,1.0,0.0
47.014766693115234,5.832496643066406,-1.5461688041687012,-0.347120990225039,0.2789834907626504,-0.8953631833100318,0.0814496366366192,4.0,0.0
47.49821472167969,6.651462554931641,-1.5886073112487793,-0.0,-0.0,-1.0,0.0527598264211182,1.0,0.0
45.97137451171875,6.107362747192383,-1.4210410118103027,0.6175735404590194,-0.7822991658888749,-0.0813076698379834,0.1752720028679073,3.0,0.0
46.75745391845703,6.380128860473633,-1.4927284717559814,-0.0,-0.0,-1.0,0.2676257816137264,1.0,0.0
46.77493667602539,6.193210601806641,-1.4992406368255615,0.1191410873321787,-0.9813507110022324,-0.1508515274192431,0.1650297534282275,4.0,0.0
46.8983154296875,5.680000305175781,-1.524794340133667,-0.0,-0.0,-1.0,0.1282188295280185,1.0,0.0
47.174537658691406,5.733715057373047,-1.5510571002960205,-0.0,-0.0,-1.0,0.0282746230298127,1.0,0.0
47.6964111328125,6.158380508422852,-1.5927112102508545,-0.0,-0.0,-1.0,0.0732293354099873,1.0,0.0
47.58743667602539,5.966493606567383,-1.5865659713745115,-0.0,-0.0,-1.0,0.1081649061464089,2.0,0.0
45.960968017578125,6.347038269042969,-1.5139062404632568,-0.7378486801922143,-0.3744425191283067,-0.5615800254705071,0.19707993342882,3.0,0.0
45.84975051879883,6.168790817260742,-1.504577398300171,-0.0,-0.0,-1.0,0.1716360387445347,1.0,0.0
45.973182678222656,6.504697799682617,-1.5126221179962158,-0.531595268935385,0.426211694006217,-0.7319494941168184,0.1764800299626497,5.0,0.0
46.13522720336914,5.705324172973633,-1.544198989868164,-0.0,-0.0,-1.0,0.1598564769295062,2.0,0.0
46.563438415527344,6.576288223266602,-1.5772132873535156,-0.0,-0.0,-1.0,0.0528871075492752,2.0,0.0
46.70302200317383,6.310337066650391,-1.597121238708496,-0.0,-0.0,-1.0,0.1301095955415535,1.0,0.0
46.96712875366211,7.052480697631836,-1.6147847175598145,-0.1225749454742922,0.0318977135504895,-0.9919465301175387,0.22656610352112,3.0,0.0
46.931583404541016,6.661731719970703,-1.6169662475585938,-0.0,-0.0,-1.0,0.2719527075478293,2.0,0.0
47.25149154663086,7.183048248291016,-1.644667387008667,-0.0,-0.0,-1.0,0.0330438018840394,1.0,0.0
47.599388122558594,7.707109451293945,-1.6759963035583496,-0.0,-0.0,-1.0,0.1204497884075354,2.0,0.0
47.48121643066406,7.442583084106445,-1.6665716171264648,-0.0,-0.0,-1.0,0.0499021809600967,1.0,0.0
47.61474609375,6.487388610839844,-1.5034353733062744,-0.0,-0.0,-1.0,0.0609135222556607,2.0,0.0
45.98570251464844,6.524448394775391,-1.4591686725616455,-0.6798659490953032,-0.5122637535758888,0.5247553125344073,0.1236459772208624,3.0,0.0
46.20887756347656,5.681800842285156,-1.5089836120605469,-0.0,-0.0,-1.0,0.1029395943943576,1.0,0.0
46.777706146240234,6.3109130859375,-1.5482873916625977,-0.7146864853170714,-0.6990765168867247,0.0226991462979651,0.2408994453362116,4.0,0.0
46.8045539855957,5.737459182739258,-1.5690014362335205,-0.0,-0.0,-1.0,0.0840325407869655,2.0,0.0
47.0830192565918,7.127643585205078,-1.555306911468506,-0.0,-0.0,-1.0,0.1126523939152329,1.0,0.0
47.03129196166992,6.772499084472656,-1.5606086254119873,-0.0,-0.0,-1.0,0.2111816247261381,2.0,0.0
47.07685089111328,6.430139541625977,-1.5758209228515625,-0.0,-0.0,-1.0,0.0488848472487335,2.0,0.0
47.5843505859375,6.969944000244141,-1.6126246452331543,-0.0,-0.0,-1.0,0.0353838276204217,2.0,0.0
45.21432876586914,7.203714370727539,-1.6695072650909424,-0.0,-0.0,-1.0,0.0111073018222994,1.0,0.0
45.486572265625,8.078689575195312,-1.6984941959381104,-0.0,-0.0,-1.0,0.0874965717903281,1.0,0.0
46.757415771484375,6.189554214477539,-1.417018175125122,-0.0,-0.0,-1.0,0.209785827750123,1.0,0.0
46.83705139160156,6.346829414367676,-1.424187421798706,-0.0,-0.0,-1.0,0.1343372795463595,1.0,0.0
47.358551025390625,5.676546096801758,-1.496483564376831,-0.0,-0.0,-1.0,0.0714196145103072,1.0,0.0
47.66954803466797,6.157869338989258,-1.5207602977752686,-0.0,-0.0,-1.0,0.0748023123689395,1.0,0.0
47.6258544921875,5.712296485900879,-1.5078527927398682,-0.0,-0.0,-1.0,0.1131806848941677,2.0,0.0
45.51886749267578,5.78162956237793,-1.5550384521484375,-0.0,-0.0,-1.0,0.0264860865461945,1.0,0.0
45.5511474609375,6.231825828552246,-1.5671989917755127,-0.0,-0.0,-1.0,0.0569112633813257,1.0,0.0
45.682899475097656,5.876422882080078,-1.580883502960205,-0.0,-0.0,-1.0,0.0589732297076368,2.0,0.0
45.84944534301758,6.62286376953125,-1.6185219287872314,-0.0,-0.0,-1.0,0.1731250813641635,1.0,0.0
46.05817413330078,7.058167457580566,-1.657900094985962,-0.0,-0.0,-1.0,0.1091960238834467,2.0,0.0
46.30763626098633,7.363453865051269,-1.7014553546905518,-0.0,-0.0,-1.0,0.0350333451497862,1.0,0.0
46.40570068359375,7.670404434204102,-1.7225821018218994,-0.0,-0.0,-1.0,0.0373670390135241,2.0,0.0
46.67095947265625,7.683255195617676,-1.7628281116485596,-0.0,-0.0,-1.0,0.0673831496192553,1.0,0.0
46.74367904663086,8.039920806884766,-1.7816998958587646,-0.0,-0.0,-1.0,0.030156152443973,2.0,0.0
46.764129638671875,7.763351440429688,-1.778618097305298,-0.0,-0.0,-1.0,0.0464430118128568,2.0,0.0
46.156455993652344,5.645864486694336,-1.5790364742279053,-0.0,-0.0,-1.0,0.1350448503495014,1.0,0.0
45.71439743041992,6.242857933044434,-1.5253350734710691,-0.0,-0.0,-1.0,0.125044015365919,1.0,0.0
45.95610427856445,6.215323448181152,-1.5611143112182615,-0.0,-0.0,-1.0,0.1921513686039399,1.0,0.0
46.26523208618164,5.772475242614746,-1.5980072021484375,-0.0,-0.0,-1.0,0.1428596343349273,2.0,0.0
46.070655822753906,6.603184700012207,-1.587068796157837,-0.0,-0.0,-1.0,0.1375518750059723,2.0,0.0
46.09342193603515,6.4217329025268555,-1.5863635540008545,-0.8412472975584258,-0.0438492542939551,0.53886939720911,0.1445404417784007,3.0,0.0
46.49972915649414,6.825814247131348,-1.6571552753448486,-0.0,-0.0,-1.0,0.0356791697998331,1.0,0.0
46.65392303466797,7.221997261047363,-1.6902625560760498,-0.1820274376101096,-0.1920677502090206,-0.964352628081006,0.073658907499365,3.0,0.0
46.64301300048828,6.997488975524902,-1.683014154434204,-0.0,-0.0,-1.0,0.0910754136598823,1.0,0.0
46.96255111694336,7.503278732299805,-1.7443797588348389,-0.0,-0.0,-1.0,0.0634814302451269,1.0,0.0
46.935455322265625,8.080828666687012,-1.7557737827301023,-0.0,-0.0,-1.0,0.099489678663411,2.0,0.0
47.050636291503906,7.755633354187012,-1.764496088027954,-0.0,-0.0,-1.0,0.125681246813905,2.0,0.0
46.81901931762695,5.999377250671387,-1.3777775764465332,-0.0,-0.0,-1.0,0.1306463716055715,1.0,0.0
47.51279067993164,5.823657035827637,-1.4723169803619385,-0.0,-0.0,-1.0,0.1161158225599814,2.0,0.0
47.68387985229492,6.044281959533691,-1.498565912246704,-0.0,-0.0,-1.0,0.1101272417757919,1.0,0.0
47.39080047607422,7.383637428283691,-1.2843866348266602,-0.0,-0.0,-1.0,0.1562530153493241,1.0,0.0
45.361366271972656,6.123542785644531,-1.6125733852386477,-0.0,-0.0,-1.0,0.028344394740441,1.0,0.0
45.368770599365234,6.360492706298828,-1.615720272064209,-0.0,-0.0,-1.0,0.0271992462316639,1.0,0.0
45.470951080322266,6.754250526428223,-1.6372861862182615,-0.0,-0.0,-1.0,0.0235713577812193,1.0,0.0
45.61954116821289,7.221707344055176,-1.6689553260803225,-0.0,-0.0,-1.0,0.064280529206676,2.0,0.0
45.71803283691406,7.5579423904418945,-1.6912155151367188,-0.0,-0.0,-1.0,0.138658200265852,1.0,0.0
45.806983947753906,7.524266242980957,-1.7063636779785156,-0.0,-0.0,-1.0,0.1165845311971949,2.0,0.0
45.713905334472656,7.939699172973633,-1.6967473030090332,-0.0,-0.0,-1.0,0.0819985211515577,2.0,0.0
46.00008392333984,8.024880409240723,-1.7491421699523926,-0.0,-0.0,-1.0,0.0257170582135388,1.0,0.0
45.250823974609375,7.518754959106445,-1.6947510242462158,0.7747542384135399,-0.5317762845642606,-0.3420085572544727,0.019790561288325,3.0,0.0
45.32862091064453,7.715268135070801,-1.708462476730347,-0.0,-0.0,-1.0,0.0610848380419244,1.0,0.0
45.396724700927734,8.118809700012207,-1.7208120822906494,-0.0,-0.0,-1.0,0.1011802658124979,1.0,0.0
45.326438903808594,6.90620231628418,-1.6413283348083496,-0.0,-0.0,-1.0,0.016061543095495,2.0,0.0
45.43920135498047,7.214168548583984,-1.6611089706420898,0.9425426155553464,-0.0672184360068528,-0.3272538765589782,0.021663929242482,3.0,0.0
45.5059814453125,7.335536956787109,-1.6732711791992188,-0.0,-0.0,-1.0,0.0421223954482374,1.0,0.0
45.62965393066406,7.623921394348144,-1.6961193084716797,-0.0,-0.0,-1.0,0.1068022877418903,2.0,0.0
45.68714141845703,8.087799072265625,-1.7077479362487793,-0.0,-0.0,-1.0,0.0820710560365428,2.0,0.0
45.924522399902344,6.031094551086426,-1.42962646484375,0.3738126049891439,-0.3143791140506392,-0.8725995123766487,0.1761882273954735,3.0,0.0
46.75305938720703,5.965847969055176,-1.5777592658996582,-0.0,-0.0,-1.0,0.142666354784934,2.0,0.0
45.961639404296875,6.279990196228027,-1.4344148635864258,-0.0,-0.0,-1.0,0.1045951143313261,2.0,0.0
46.86092758178711,6.310823440551758,-1.5952839851379397,-0.0,-0.0,-1.0,0.1956755333172335,1.0,0.0
46.97010803222656,6.488099098205566,-1.6142947673797607,-0.0,-0.0,-1.0,0.0893020204971627,2.0,0.0
46.93690490722656,6.827147483825684,-1.6076486110687256,-0.0,-0.0,-1.0,0.1858714142361069,1.0,0.0
47.02180480957031,6.603719711303711,-1.6233453750610352,-0.0,-0.0,-1.0,0.1859966787182528,2.0,0.0
47.21938705444336,7.114899635314941,-1.659003496170044,-0.0,-0.0,-1.0,0.033035049551897,2.0,0.0
47.36447525024414,7.330009460449219,-1.685849905014038,0.1474384663925809,0.0952679279179217,-0.9844724071999325,0.0556247800247977,3.0,0.0
47.4876708984375,7.545808792114258,-1.7092053890228271,0.3753308705017715,-0.8631827955846685,0.3377013459478932,0.0580588758836869,4.0,0.0
47.69965744018555,7.7798004150390625,-1.749316930770874,0.9985551474572508,-0.0183921622559466,0.0504910472675954,0.1318792258383157,3.0,0.0
46.92055892944336,5.837675094604492,-1.537799835205078,-0.0,-0.0,-1.0,0.121269405637319,2.0,0.0
46.92609024047851,6.291053771972656,-1.5351839065551758,-0.2915927963075065,-0.7315580866443376,-0.6162762424488268,0.1306051357012929,3.0,0.0
46.93695831298828,6.649625778198242,-1.5350663661956787,-0.670056869137625,-0.7303642002762609,0.1326345621484143,0.2283616771996175,3.0,0.0
47.47554016113281,6.6945343017578125,-1.6343708038330078,-0.0,-0.0,-1.0,0.0457811758448163,1.0,0.0
46.92549514770508,7.0094804763793945,-1.5315630435943604,-0.0,-0.0,-1.0,0.1753768055555317,2.0,0.0
47.408416748046875,7.00722599029541,-1.621161699295044,-0.0,-0.0,-1.0,0.0230954561701178,2.0,0.0
47.639305114746094,7.12852668762207,-1.6640236377716064,0.8456712299506328,-0.006857285958619,-0.5336601432213811,0.039686018000408,3.0,0.0
47.567039489746094,7.432873725891113,-1.6506659984588623,0.3809303042772802,-0.52925920431317,-0.7581403550352723,0.0633249524042782,3.0,0.0
47.69075775146485,7.558234214782715,-1.674070119857788,0.7622398487482394,-0.2549911676997658,-0.5949537102795237,0.0584839590747867,3.0,0.0
45.21051788330078,7.616298675537109,-1.7071783542633057,-0.0,-0.0,-1.0,0.0380855324983662,1.0,0.0
45.27907180786133,7.9336090087890625,-1.7174575328826904,-0.0,-0.0,-1.0,0.1043030641357202,1.0,0.0
47.04826354980469,5.691105842590332,-1.5125844478607178,-0.0,-0.0,-1.0,0.066477060852308,2.0,0.0
47.21742248535156,5.690953254699707,-1.5456624031066897,-0.8472620134572146,0.1408899083805456,-0.5121495038257367,0.0321826229474756,3.0,0.0
46.714054107666016,6.228601455688477,-1.4361655712127686,-0.0,-0.0,-1.0,0.1493538212102402,2.0,0.0
47.065155029296875,6.322027206420898,-1.5036628246307373,-0.0,-0.0,-1.0,0.0676823458584845,2.0,0.0
47.36574935913086,6.2122039794921875,-1.5650222301483154,-0.0,-0.0,-1.0,0.1048954185337261,1.0,0.0
47.44525146484375,6.407844543457031,-1.5776562690734863,-0.0,-0.0,-1.0,0.1037924979103396,1.0,0.0
47.61728286743164,6.607143402099609,-1.6092209815979004,-0.0,-0.0,-1.0,0.0544120805799178,1.0,0.0
47.324737548828125,6.2859907150268555,-1.4177697896957395,-0.0,-0.0,-1.0,0.1243912551007491,1.0,0.0
45.24972915649414,7.5402021408081055,-1.7305785417556765,0.7747542384135399,-0.5317762845642606,-0.3420085572544727,0.0224593766800487,3.0,0.0
45.39524841308594,7.936688423156738,-1.746230959892273,-0.0,-0.0,-1.0,0.12737283543126,2.0,0.0
46.15494537353515,5.820517539978027,-1.243167519569397,0.9023903575681222,-0.1374611690360174,-0.4084067452617889,0.1334751481109765,4.0,0.0
45.25705337524414,6.518415451049805,-1.653444528579712,-0.0,-0.0,-1.0,0.0232940667261148,2.0,0.0
45.39269256591797,6.763922691345215,-1.6691832542419434,-0.4061397351486693,-0.1640667126234004,-0.8989619732459871,0.0227775447378767,3.0,0.0
45.52951431274414,7.182344436645508,-1.6807820796966553,-0.0,-0.0,-1.0,0.0568449555075569,2.0,0.0
45.78751373291016,7.264649391174316,-1.7242000102996826,-0.2051020355254113,0.4489476857446258,-0.8697005981876049,0.0883245815058256,4.0,0.0
45.91078567504883,7.560070037841797,-1.7387614250183103,-0.0,-0.0,-1.0,0.1230453558562163,1.0,0.0
46.07354736328125,7.760427474975586,-1.7632741928100586,-0.0,-0.0,-1.0,0.040694608064516,1.0,0.0
46.22516632080078,7.964166641235352,-1.7864022254943848,-0.0,-0.0,-1.0,0.0145768571229236,2.0,0.0
45.892822265625,6.099173545837402,-1.488743782043457,0.4491751001761023,-0.6581130269522825,-0.6042590281803762,0.1938414778590371,4.0,0.0
46.30358123779297,6.083193778991699,-1.5611135959625244,-0.0,-0.0,-1.0,0.123678708930309,1.0,0.0
45.94845962524414,6.435153961181641,-1.491323471069336,-0.3512583930204961,0.6516148469100186,0.6723210785176169,0.13208682514119,4.0,0.0
46.3740234375,6.375404357910156,-1.5676918029785156,-0.0,-0.0,-1.0,0.0478374150671607,1.0,0.0
46.6249885559082,6.3925275802612305,-1.611985445022583,-0.0,-0.0,-1.0,0.152880098184748,2.0,0.0
46.852787017822266,6.518163681030273,-1.650487184524536,-0.0,-0.0,-1.0,0.0750863861274009,1.0,0.0
46.38759994506836,6.595977783203125,-1.566067457199097,-0.0,-0.0,-1.0,0.0615866566390988,2.0,0.0
46.81560134887695,6.692702293395996,-1.6410667896270752,-0.0,-0.0,-1.0,0.1473338658210733,1.0,0.0
46.95146179199219,6.8308305740356445,-1.66353178024292,0.2937027881590648,-0.9518456922540682,0.087911605405459,0.1272327720298901,3.0,0.0
47.05690002441406,7.142731666564941,-1.678755283355713,-0.0,-0.0,-1.0,0.1363824920969199,1.0,0.0
47.42705535888672,7.531002998352051,-1.742828607559204,-0.0,-0.0,-1.0,0.066920361012035,2.0,0.0
47.61612701416016,7.744406700134277,-1.7762999534606934,-0.0,-0.0,-1.0,0.1374972915601508,1.0,0.0
45.27039337158203,6.815511703491211,-1.6776268482208252,0.7984270952798664,0.4883797400346139,-0.3521354896154011,0.0218939525862898,3.0,0.0
45.42633819580078,7.182147979736328,-1.691579818725586,0.9425426155553464,-0.0672184360068528,-0.3272538765589782,0.021663929242482,3.0,0.0
45.590126037597656,7.341575622558594,-1.7173073291778564,-0.0,-0.0,-1.0,0.0212455957612082,1.0,0.0
45.72745513916016,7.58372974395752,-1.735276699066162,-0.0,-0.0,-1.0,0.151987801557105,2.0,0.0
45.87044525146485,7.855289459228516,-1.7541184425354004,-0.0,-0.0,-1.0,0.0741483530885337,1.0,0.0
46.06542205810547,8.027044296264648,-1.788121223449707,-0.0,-0.0,-1.0,0.0202887748498584,1.0,0.0
47.568939208984375,5.862118721008301,-1.5114619731903076,-0.0,-0.0,-1.0,0.1117569289670201,2.0,0.0
45.22065734863281,6.685579299926758,-1.6265203952789309,-0.0,-0.0,-1.0,0.0187435459065353,1.0,0.0
45.33592224121094,6.8699235916137695,-1.6389484405517578,-0.0,-0.0,-1.0,0.0236034790250938,2.0,0.0
45.474029541015625,7.1653289794921875,-1.6507046222686768,-0.0349375231453139,-0.9496407926844946,-0.3113867921830273,0.0301340681165781,5.0,0.0
45.671112060546875,7.380184173583984,-1.6798813343048096,-0.0,-0.0,-1.0,0.0604570139773069,1.0,0.0
45.800743103027344,7.581766128540039,-1.696855545043945,-0.0,-0.0,-1.0,0.1540984303851913,1.0,0.0
45.96873474121094,7.85268497467041,-1.7193882465362549,-0.0,-0.0,-1.0,0.0499388627903855,1.0,0.0
46.14546203613281,8.00970458984375,-1.7499408721923828,-0.0,-0.0,-1.0,0.0171628213081381,1.0,0.0
45.295745849609375,7.60267448425293,-1.735283613204956,-0.0,-0.0,-1.0,0.0284396142682964,1.0,0.0
45.58354187011719,8.052446365356445,-1.765127182006836,-0.0,-0.0,-1.0,0.0971539144801118,1.0,0.0
46.551761627197266,5.671209335327148,-1.5769643783569336,-0.0,-0.0,-1.0,0.0919959895720692,2.0,0.0
45.92051315307617,6.0476837158203125,-1.4373207092285156,0.6236960792007552,-0.1733503305924731,-0.7622026395080804,0.1761882273954735,4.0,0.0
46.66400146484375,5.983084678649902,-1.5784685611724854,-0.0,-0.0,-1.0,0.1287070549827834,2.0,0.0
45.96343994140625,6.294733047485352,-1.429494857788086,-0.0,-0.0,-1.0,0.1311234800521926,2.0,0.0
46.01436233520508,6.324520111083984,-1.437042236328125,0.3265874840852455,0.9389238787331524,0.1084553603265491,0.1928920133827403,3.0,0.0
46.69312286376953,6.173589706420898,-1.57251238822937,-0.0,-0.0,-1.0,0.2299720848326113,1.0,0.0
46.89621353149414,6.3663129806518555,-1.5997896194458008,-0.0,-0.0,-1.0,0.154394331915298,2.0,0.0
47.01319885253906,6.732261657714844,-1.6021738052368164,-0.0,-0.0,-1.0,0.2063995296913477,1.0,0.0
47.1524543762207,6.935901641845703,-1.6185460090637207,-0.0,-0.0,-1.0,0.0936204701053479,2.0,0.0
47.412254333496094,7.063838005065918,-1.6630809307098389,-0.0,-0.0,-1.0,0.0228308837309832,1.0,0.0
47.61721420288086,7.148927688598633,-1.6992924213409424,-0.0,-0.0,-1.0,0.038076249978398,2.0,0.0
47.55780029296875,7.459160804748535,-1.673659324645996,0.0924307498392003,-0.4199384553817379,-0.9028334565000145,0.0732596879938904,4.0,0.0
47.647361755371094,7.59841251373291,-1.6855697631835938,-0.0,-0.0,-1.0,0.0763503969175917,2.0,0.0
45.38277816772461,7.894792556762695,-1.7320504188537598,-0.0,-0.0,-1.0,0.1367126178342229,2.0,0.0
46.24985122680664,5.676976203918457,-1.4341620206832886,-0.0,-0.0,-1.0,0.0968789004384326,1.0,0.0
45.966758728027344,6.03232479095459,-1.3565016984939575,0.7255820764884443,-0.3710530230560595,-0.5795259307051553,0.1647127867535083,5.0,0.0
46.94504165649414,5.81915283203125,-1.5555530786514282,-0.0321660031549145,0.6691173501426334,-0.7424603154237531,0.0866356644490787,3.0,0.0
46.91012191772461,6.28404426574707,-1.5193077325820925,-0.1928559068141409,-0.7639952052607396,-0.6157255277682552,0.136746212284516,4.0,0.0
47.28723907470703,6.475095748901367,-1.581473469734192,-0.0,-0.0,-1.0,0.0656960096056453,2.0,0.0
45.28929901123047,6.787369728088379,-1.6737908124923706,0.7984270952798664,0.4883797400346139,-0.3521354896154011,0.0206120427206172,3.0,0.0
46.924530029296875,6.667608261108398,-1.4988306760787964,-0.6963629538340549,-0.241145648976285,0.6759640615501061,0.2219328653988943,5.0,0.0
47.382572174072266,6.6470794677734375,-1.5904589891433716,-0.0,-0.0,-1.0,0.058238586920285,1.0,0.0
47.623199462890625,6.762006759643555,-1.6322025060653689,-0.0,-0.0,-1.0,0.0449502407381989,2.0,0.0
45.46125411987305,7.113798141479492,-1.6807836294174194,-0.0,-0.0,-1.0,0.0203271474260679,2.0,0.0
45.63703918457031,7.304150581359863,-1.7025519609451294,-0.0,-0.0,-1.0,0.0509186785699043,1.0,0.0
45.84117126464844,7.512544631958008,-1.730401873588562,-0.0,-0.0,-1.0,0.1041101303539856,2.0,0.0
45.97785186767578,7.675625801086426,-1.7478774785995483,-0.0,-0.0,-1.0,0.1242492245595544,1.0,0.0
47.23902893066406,7.555734634399414,-1.5131911039352417,-0.0,-0.0,-1.0,0.1695625253829316,1.0,0.0
46.19872283935547,7.940914154052734,-1.77790105342865,-0.0,-0.0,-1.0,0.0220596371797667,2.0,0.0
46.221221923828125,5.663911819458008,-1.3343966007232666,0.7501305810320417,-0.4277696504420253,-0.5042987582388431,0.1469559078347418,5.0,0.0
45.27289581298828,6.08990478515625,-1.618393898010254,-0.0,-0.0,-1.0,0.0159684638217382,1.0,0.0
47.520511627197266,5.7966814041137695,-1.5497183799743652,-0.0,-0.0,-1.0,0.1223863240391695,1.0,0.0
47.67761993408203,5.969851493835449,-1.5635080337524414,-0.0,-0.0,-1.0,0.1016817935072,1.0,0.0
45.48644256591797,6.284956932067871,-1.6336770057678225,-0.0,-0.0,-1.0,0.0493265385953793,1.0,0.0
45.639835357666016,6.487123489379883,-1.6380069255828855,-0.0,-0.0,-1.0,0.0568464856429227,1.0,0.0
45.87770462036133,6.690065383911133,-1.6604456901550293,-0.0,-0.0,-1.0,0.1990386338837811,1.0,0.0
46.0597038269043,6.863059043884277,-1.6767973899841309,-0.0,-0.0,-1.0,0.0672509888939437,1.0,0.0
46.24818420410156,7.0704240798950195,-1.6920599937438965,-0.0,-0.0,-1.0,0.0542917642025338,2.0,0.0
46.53111267089844,7.246007919311523,-1.7322604656219482,-0.0,-0.0,-1.0,0.0579134389034932,2.0,0.0
46.706329345703125,7.429061889648437,-1.7504887580871582,-0.0,-0.0,-1.0,0.1108555948023487,1.0,0.0
46.98676300048828,7.613156318664551,-1.7931668758392334,-0.0,-0.0,-1.0,0.0843907469639007,1.0,0.0
47.146766662597656,7.869782447814941,-1.803879976272583,-0.0,-0.0,-1.0,0.1300439082537488,2.0,0.0
47.35218048095703,8.030301094055176,-1.8355002403259275,-0.0,-0.0,-1.0,0.0222993652586624,2.0,0.0
47.33555221557617,7.41552734375,-1.3833777904510498,-0.0,-0.0,-1.0,0.1405183369983951,1.0,0.0
45.83112335205078,5.679501533508301,-1.5851526260375977,-0.0,-0.0,-1.0,0.0892348097952393,2.0,0.0
45.78966522216797,5.962714195251465,-1.5371921062469482,-0.0,-0.0,-1.0,0.1373391189723598,1.0,0.0
45.97615051269531,6.1041460037231445,-1.5499250888824463,-0.0,-0.0,-1.0,0.2377257276921046,2.0,0.0
46.44007110595703,6.082605361938477,-1.636460542678833,-0.0,-0.0,-1.0,0.0827315270083114,2.0,0.0
45.93831634521485,6.487897872924805,-1.4897422790527344,-0.5869625174143033,0.5840690413167614,-0.5606588607397398,0.1340400892871048,4.0,0.0
46.6225700378418,6.346698760986328,-1.634669303894043,-0.0,-0.0,-1.0,0.1275686353129002,1.0,0.0
46.8139762878418,6.461902618408203,-1.6559388637542725,-0.0,-0.0,-1.0,0.1449571344415259,1.0,0.0
46.958778381347656,6.760637283325195,-1.6459250450134275,0.7787861732053251,-0.5750208628943642,0.2506852681360156,0.2041786715630075,4.0,0.0
47.144927978515625,6.960199356079102,-1.658137559890747,0.9781609536203004,-0.0317171912828167,-0.205414626036594,0.0931776482309773,3.0,0.0
46.96504211425781,7.015539169311523,-1.6157147884368896,-0.0,-0.0,-1.0,0.2013884759483477,2.0,0.0
47.298301696777344,7.068050384521484,-1.676044464111328,-0.0,-0.0,-1.0,0.0317447792058549,1.0,0.0
47.52537536621094,7.218839645385742,-1.7048096656799316,-0.0,-0.0,-1.0,0.0282317448731168,2.0,0.0
47.66979217529297,7.551120758056641,-1.6978819370269775,-0.0,-0.0,-1.0,0.0631722099614786,2.0,0.0
45.78493881225586,5.694893836975098,-1.5834825038909912,-0.3111835721914013,-0.9008642813239084,-0.3026686819493498,0.0819155916040693,3.0,0.0
46.07173538208008,5.777555465698242,-1.62221360206604,-0.0,-0.0,-1.0,0.1925424198288303,1.0,0.0
45.922611236572266,6.145016670227051,-1.5380754470825195,-0.0,-0.0,-1.0,0.1668313776534829,1.0,0.0
46.37423324584961,6.141427993774414,-1.6235332489013672,-0.0,-0.0,-1.0,0.0949210712126273,2.0,0.0
45.93720626831055,6.380261421203613,-1.504838228225708,-0.7378486801922143,-0.3744425191283067,-0.5615800254705071,0.1741784535938266,3.0,0.0
46.42479705810547,6.255245208740234,-1.6163177490234375,-0.0,-0.0,-1.0,0.0881370373244417,1.0,0.0
46.650733947753906,6.43543815612793,-1.6344339847564695,-0.0,-0.0,-1.0,0.1649383681271229,1.0,0.0
46.829795837402344,6.64019775390625,-1.640913724899292,-0.0,-0.0,-1.0,0.1343969197725532,1.0,0.0
46.98848342895508,6.843932151794434,-1.645362138748169,0.2937027881590648,-0.9518456922540682,0.087911605405459,0.1464401573685126,3.0,0.0
47.14820861816406,7.042876243591309,-1.6517457962036133,-0.0,-0.0,-1.0,0.0959498462477432,1.0,0.0
47.42693710327149,7.22882080078125,-1.6869089603424072,-0.0,-0.0,-1.0,0.0339485419491108,2.0,0.0
47.62586212158203,7.586116790771484,-1.6855957508087158,-0.0,-0.0,-1.0,0.0803527188370512,2.0,0.0
47.705711364746094,7.64064884185791,-1.69661283493042,-0.0,-0.0,-1.0,0.0960952008779851,1.0,0.0
47.363895416259766,7.172144889831543,-1.2230825424194336,-0.0,-0.0,-1.0,0.1046522121728211,1.0,0.0
46.767208099365234,5.677620887756348,-1.591095209121704,-0.0,-0.0,-1.0,0.0696811580884292,2.0,0.0
46.733909606933594,6.096941947937012,-1.5205581188201904,-0.0,-0.0,-1.0,0.1563599915525403,1.0,0.0
47.17835235595703,6.1617841720581055,-1.5965042114257812,-0.0,-0.0,-1.0,0.0664220887101493,1.0,0.0
46.87835693359375,6.24318790435791,-1.5261776447296145,-0.0,-0.0,-1.0,0.227564709106591,1.0,0.0
47.35365676879883,6.348146438598633,-1.6043612957000732,-0.0,-0.0,-1.0,0.1144824042575891,2.0,0.0
47.51009750366211,6.49574089050293,-1.6148972511291504,-0.0,-0.0,-1.0,0.05023901299289,1.0,0.0
47.401458740234375,6.707996368408203,-1.5627598762512207,-0.0,-0.0,-1.0,0.0530687476532087,2.0,0.0
45.98228454589844,5.975927352905273,-1.4022164344787598,-0.0,-0.0,-1.0,0.194690290498084,1.0,0.0
47.4044189453125,6.835732460021973,-1.5455031394958496,-0.0,-0.0,-1.0,0.0457713790846611,1.0,0.0
47.21480178833008,5.648796081542969,-1.5529241561889648,-0.8472620134572146,0.1408899083805456,-0.5121495038257367,0.0321826229474755,3.0,0.0
47.416770935058594,5.782282829284668,-1.56736159324646,0.5041250389615596,0.1771751110835547,-0.8452614536961542,0.0796647530165207,3.0,0.0
47.592376708984375,5.9661102294921875,-1.5702741146087646,-0.0,-0.0,-1.0,0.1143299774850202,2.0,0.0
46.12700271606445,5.756705284118652,-1.3497459888458252,-0.0,-0.0,-1.0,0.1369458103323801,2.0,0.0
46.207275390625,5.679267883300781,-1.376237392425537,0.90086619722523,-0.212778123771058,-0.3783722568336919,0.1622255708141099,3.0,0.0
46.978145599365234,5.870957374572754,-1.4737651348114014,-0.0,-0.0,-1.0,0.1237491472211486,2.0,0.0
47.63847732543945,6.214336395263672,-1.5393662452697754,-0.0,-0.0,-1.0,0.0545984224246603,1.0,0.0
47.234886169433594,6.313469886779785,-1.447511911392212,-0.0,-0.0,-1.0,0.1261508451970004,2.0,0.0
47.703712463378906,6.395722389221191,-1.5234498977661133,-0.0,-0.0,-1.0,0.0806923768174997,2.0,0.0
46.141746520996094,5.724248886108398,-1.2843080759048462,-0.0,-0.0,-1.0,0.1450066575067075,2.0,0.0
47.67649841308594,5.801994323730469,-1.5276645421981812,-0.0,-0.0,-1.0,0.109621490081906,1.0,0.0
47.64551544189453,7.829414367675781,-1.7335580587387085,0.9698683338231988,0.0566848784116792,-0.2369435367476073,0.1259648316552756,4.0,0.0
47.16565704345703,7.630003929138184,-1.6924062967300415,-0.0,-0.0,-1.0,0.1020159340010888,1.0,0.0
46.89270782470703,7.358696937561035,-1.6766048669815063,-0.0,-0.0,-1.0,0.073676817476548,1.0,0.0
46.86581802368164,7.12480354309082,-1.6849881410598757,-0.0,-0.0,-1.0,0.1410796814963982,1.0,0.0
46.75072479248047,7.023923873901367,-1.677813172340393,-0.0,-0.0,-1.0,0.098192882148048,1.0,0.0
45.6552848815918,6.3807196617126465,-1.598445177078247,-0.0,-0.0,-1.0,0.0726578627575714,1.0,0.0
46.13667297363281,6.435527324676514,-1.6447627544403076,-0.0,-0.0,-1.0,0.141848450950453,1.0,0.0
46.19974899291992,6.772797107696533,-1.484822154045105,-0.0,-0.0,-1.0,0.1186565658275271,1.0,0.0
45.98163986206055,6.637919902801514,-1.463943600654602,-0.0,-0.0,-1.0,0.1851259000981177,2.0,0.0
47.57850646972656,7.759697437286377,-1.6166294813156128,-0.0,-0.0,-1.0,0.1348421762605615,1.0,0.0
47.2696647644043,7.339784145355225,-1.5893443822860718,-0.0,-0.0,-1.0,0.1790765514036069,1.0,0.0
46.983055114746094,7.1573805809021,-1.5616310834884644,-0.0,-0.0,-1.0,0.2227902117564707,1.0,0.0
47.5150146484375,7.480711460113525,-1.613348126411438,-0.0,-0.0,-1.0,0.0648295966947167,2.0,0.0
47.113555908203125,6.9331207275390625,-1.5783385038375854,-0.0,-0.0,-1.0,0.119853207318203,1.0,0.0
47.025917053222656,6.812273025512695,-1.570815920829773,-0.0,-0.0,-1.0,0.1753088765482968,2.0,0.0
46.388885498046875,7.824082374572754,-1.7775185108184814,-0.0,-0.0,-1.0,0.0234320671212141,2.0,0.0
46.06233215332031,7.362740516662598,-1.7565648555755615,-0.0,-0.0,-1.0,0.0656961875074946,1.0,0.0
45.86712646484375,7.067491054534912,-1.74474835395813,-0.0,-0.0,-1.0,0.0852171842574128,2.0,0.0
46.99524688720703,7.91436243057251,-1.8408188819885256,-0.0,-0.0,-1.0,0.09464000754513,1.0,0.0
46.52507781982422,7.61577033996582,-1.7989716529846191,-0.0,-0.0,-1.0,0.0838043605798013,1.0,0.0
46.37329864501953,7.451154708862305,-1.787649631500244,-0.0,-0.0,-1.0,0.0580114847986948,1.0,0.0
47.05516815185547,8.002035140991211,-1.8445985317230225,-0.0,-0.0,-1.0,0.1406604083769345,1.0,0.0
45.422508239746094,6.15116548538208,-1.5361753702163696,-0.0,-0.0,-1.0,0.0221413006020033,1.0,0.0
45.65367126464844,6.336388111114502,-1.5684181451797483,-0.0,-0.0,-1.0,0.0907644249621779,1.0,0.0
45.98542785644531,6.6005072593688965,-1.6148301362991333,-0.0,-0.0,-1.0,0.1997090362640188,1.0,0.0
46.36946868896485,6.073886871337891,-1.6446901559829712,-0.0,-0.0,-1.0,0.0843481276623868,2.0,0.0
46.058223724365234,7.0465521812438965,-1.6364904642105105,-0.0,-0.0,-1.0,0.1079300614089631,2.0,0.0
46.168338775634766,6.842925071716309,-1.643333077430725,0.8065970003635565,-0.4915338624086883,-0.3283226174208981,0.0988947587948866,3.0,0.0
46.52128601074219,7.212443351745605,-1.6957842111587524,-0.0,-0.0,-1.0,0.0522916205499944,2.0,0.0
46.63959503173828,7.614206314086914,-1.7220362424850464,-0.0,-0.0,-1.0,0.0622227438904991,2.0,0.0
46.59779357910156,7.430992126464844,-1.7114373445510864,-0.2606732168352765,-0.2604441138995626,-0.9296334425782136,0.0972546332911526,3.0,0.0
47.122764587402344,7.796390056610107,-1.7844704389572144,-0.0,-0.0,-1.0,0.1434089278728716,2.0,0.0
47.135719299316406,7.9364542961120605,-1.7904454469680786,-0.0,-0.0,-1.0,0.1201760671939092,1.0,0.0
45.84746551513672,6.380862712860107,-1.580512523651123,-0.0,-0.0,-1.0,0.1302438073175914,1.0,0.0
46.40283966064453,5.9820427894592285,-1.631183624267578,-0.0,-0.0,-1.0,0.1498289176505207,1.0,0.0
46.05268859863281,6.786004066467285,-1.6247060298919678,-0.0,-0.0,-1.0,0.1254075833315848,1.0,0.0
46.14673614501953,6.553689956665039,-1.6255016326904297,-0.0,-0.0,-1.0,0.1512993480704402,2.0,0.0
46.37554168701172,6.964339256286621,-1.673213243484497,-0.0,-0.0,-1.0,0.0585268079312204,1.0,0.0
46.60040283203125,7.24375057220459,-1.714651346206665,-0.0,-0.0,-1.0,0.0525098384461068,1.0,0.0
46.63032531738281,7.639490127563477,-1.738011121749878,-0.0,-0.0,-1.0,0.0622227438904992,2.0,0.0
46.629146575927734,7.462244987487793,-1.7289845943450928,0.422328540626292,-0.7273728773530227,-0.5408949075963381,0.0952448051012515,3.0,0.0
47.068206787109375,7.9098029136657715,-1.8062191009521484,-0.0,-0.0,-1.0,0.119581966790405,1.0,0.0
47.03469467163086,8.137113571166992,-1.813803434371948,-0.0,-0.0,-1.0,0.0956353182457546,1.0,0.0
47.355499267578125,7.253037452697754,-1.2839492559432983,-0.0,-0.0,-1.0,0.1658057546514684,2.0,0.0
47.35788345336914,7.346495628356934,-1.314908742904663,-0.0,-0.0,-1.0,0.1586874692958148,1.0,0.0
47.70565032958984,5.846480369567871,-1.4944100379943848,-0.0,-0.0,-1.0,0.1127893280342686,2.0,0.0
47.259822845458984,6.357229709625244,-1.444096326828003,-0.1041234707448456,0.398967657420296,-0.9110340889190748,0.1261508451970003,3.0,0.0
45.23460388183594,8.127527236938477,-1.760499358177185,-0.0,-0.0,-1.0,0.1235194741170701,1.0,0.0
47.273868560791016,6.344298362731934,-1.4513646364212036,-0.1887422232066521,0.1743762375971778,-0.9664208715360316,0.1261508451970003,4.0,0.0
46.02653503417969,5.992600917816162,-1.4375911951065063,-0.0,-0.0,-1.0,0.1971537312088104,1.0,0.0
46.770545959472656,5.663283824920654,-1.563069462776184,-0.0,-0.0,-1.0,0.0678466829299269,2.0,0.0
45.9840087890625,6.205615520477295,-1.4331408739089966,-0.0,-0.0,-1.0,0.1448477988850652,2.0,0.0
46.82085418701172,6.139340877532959,-1.5782910585403442,-0.0,-0.0,-1.0,0.2227515921925537,2.0,0.0
46.01226043701172,6.576652526855469,-1.4440680742263794,-0.0,-0.0,-1.0,0.1383178080440061,1.0,0.0
46.979373931884766,6.5251665115356445,-1.6128026247024536,-0.0,-0.0,-1.0,0.1062576203993764,2.0,0.0
46.2579460144043,7.103189468383789,-1.4982181787490845,-0.0,-0.0,-1.0,0.0703008342069068,1.0,0.0
46.98503112792969,6.91367769241333,-1.6220186948776243,-0.0,-0.0,-1.0,0.114516491986592,2.0,0.0
47.19023895263672,7.13785457611084,-1.6635278463363647,0.5733251067332076,0.623160752224721,-0.5319483047026989,0.0478738364903204,3.0,0.0
47.334754943847656,7.29908561706543,-1.6932934522628784,0.1474384663925809,0.0952679279179217,-0.9844724071999325,0.0308970028074932,3.0,0.0
47.53142547607422,7.648749351501465,-1.7381387948989868,-0.0,-0.0,-1.0,0.0673161535067025,2.0,0.0
46.75223159790039,6.135043144226074,-1.472076654434204,0.4315604393860813,-0.2821272143328012,-0.8568312681559342,0.2525276358536631,3.0,0.0
47.09613800048828,5.910516738891602,-1.5316731929779053,-0.0,-0.0,-1.0,0.0638122834509714,1.0,0.0
46.9185791015625,6.267606258392334,-1.5037963390350342,-0.2915927963075065,-0.7315580866443376,-0.6162762424488268,0.1057287622450927,3.0,0.0
47.18622589111328,6.39567756652832,-1.554030418395996,-0.0,-0.0,-1.0,0.0766340827509517,1.0,0.0
46.9467887878418,6.770231246948242,-1.5167005062103271,-0.0,-0.0,-1.0,0.1924908746458743,1.0,0.0
47.27796173095703,6.538204193115234,-1.572861909866333,-0.0,-0.0,-1.0,0.0492112828697135,1.0,0.0
47.59623336791992,6.794223785400391,-1.6353085041046145,-0.0,-0.0,-1.0,0.0449818432052501,2.0,0.0
46.95957565307617,7.048402786254883,-1.5244088172912598,0.5384183320882154,0.1067124882702383,-0.8358936203360561,0.1598405318493332,3.0,0.0
47.4527587890625,7.002717971801758,-1.6134047508239746,-0.0,-0.0,-1.0,0.023714196339855,2.0,0.0
47.646934509277344,7.164507865905762,-1.6523959636688232,-0.0,-0.0,-1.0,0.0331470665265682,2.0,0.0
47.586692810058594,7.4931182861328125,-1.6494083404541016,0.9911652459114448,-0.0345596871483847,-0.1280510965260014,0.0718921333716496,3.0,0.0
47.62372589111328,7.415010929107666,-1.6542649269104004,-0.0,-0.0,-1.0,0.071756334981183,1.0,0.0
45.99602508544922,6.040902137756348,-1.3349027633666992,0.6208729046810488,-0.3409854250742826,-0.705865267682033,0.1592552556204196,3.0,0.0
46.47993087768555,5.667677402496338,-1.597320318222046,-0.0,-0.0,-1.0,0.0956651736914411,2.0,0.0
46.67673873901367,6.757362365722656,-1.633617877960205,-0.0,-0.0,-1.0,0.0561008976976057,1.0,0.0
46.75323867797851,6.689903259277344,-1.649203538894653,-0.0,-0.0,-1.0,0.1060273564149088,1.0,0.0
46.82183074951172,7.449170112609863,-1.6694581508636477,-0.0,-0.0,-1.0,0.0674134352174493,2.0,0.0
46.99045944213867,7.630679130554199,-1.7073068618774414,-0.0,-0.0,-1.0,0.0819517445972723,2.0,0.0
47.10483932495117,7.892451763153076,-1.7357380390167236,-0.0,-0.0,-1.0,0.1217446879225588,2.0,0.0
47.46445846557617,8.116021156311035,-1.8157944679260256,-0.0,-0.0,-1.0,0.0323410676188844,1.0,0.0
46.3676643371582,5.781401634216309,-1.5733911991119385,-0.0,-0.0,-1.0,0.1704634723770403,2.0,0.0
45.94999694824219,6.143039703369141,-1.4851889610290527,-0.0,-0.0,-1.0,0.1727687575190165,2.0,0.0
46.41324234008789,6.167858123779297,-1.5797994136810305,-0.0,-0.0,-1.0,0.0860875542896825,1.0,0.0
46.14315414428711,6.437209606170654,-1.5234684944152832,-0.0,-0.0,-1.0,0.090167349998225,1.0,0.0
46.364036560058594,6.595378875732422,-1.568774700164795,-0.0,-0.0,-1.0,0.0644316852482416,2.0,0.0
46.506568908691406,6.964637756347656,-1.5994436740875244,-0.0,-0.0,-1.0,0.0586605208305338,1.0,0.0
46.68809509277344,7.28232479095459,-1.6397249698638916,-0.0,-0.0,-1.0,0.0739542301408339,1.0,0.0
47.42339324951172,7.264673233032227,-1.2490875720977783,-0.0,-0.0,-1.0,0.1573977095719174,1.0,0.0
45.314491271972656,6.369174957275391,-1.6602294445037842,-0.0,-0.0,-1.0,0.0293226765876183,1.0,0.0
45.42140197753906,6.7591447830200195,-1.681281805038452,-0.0,-0.0,-1.0,0.0219607374331295,2.0,0.0
45.48113250732422,7.172586441040039,-1.6937816143035889,0.0412737910147869,-0.9863554185306912,-0.1593720882413609,0.0296656359878166,3.0,0.0
45.69532775878906,7.536005020141602,-1.7476410865783691,-0.0,-0.0,-1.0,0.1051743959346486,1.0,0.0
45.644920349121094,7.956350803375244,-1.7390336990356443,-0.0,-0.0,-1.0,0.0761656682625217,1.0,0.0
45.89097213745117,6.065674781799316,-1.3363587856292725,-0.0,-0.0,-1.0,0.2079217574510658,1.0,0.0
46.11027526855469,5.76598596572876,-1.3852334022521973,-0.0,-0.0,-1.0,0.1183930459954961,2.0,0.0
47.01309967041016,5.796694755554199,-1.5724303722381592,-0.881641719730848,0.3051262319652765,-0.3600081396256271,0.0364488723548121,3.0,0.0
46.75421142578125,6.195993423461914,-1.5155794620513916,0.5713636423859064,-0.7603160214747042,-0.3089710919299533,0.1621169923578011,4.0,0.0
47.04836654663086,6.309196472167969,-1.576859474182129,-0.0,-0.0,-1.0,0.0655633435608404,2.0,0.0
46.88349914550781,6.76617956161499,-1.5424034595489502,-0.0,-0.0,-1.0,0.2220927932365057,1.0,0.0
47.06382369995117,6.5290327072143555,-1.5799744129180908,-0.9335290028262954,-0.0918117621463772,-0.3465461025804787,0.0779818243604448,3.0,0.0
45.41012191772461,7.134188652038574,-1.6761176586151123,0.3957413319598229,-0.037021095473074,-0.9176155167980964,0.017978403002308,3.0,0.0
46.90883255004883,6.811829566955566,-1.5479300022125244,-0.0,-0.0,-1.0,0.1439267610673184,1.0,0.0
47.173728942871094,7.023683547973633,-1.605386734008789,-0.0,-0.0,-1.0,0.0871064144994656,1.0,0.0
47.41398620605469,6.856398582458496,-1.6550688743591309,-0.0,-0.0,-1.0,0.0483873145577223,1.0,0.0
47.55413055419922,7.326266288757324,-1.6893374919891355,-0.0,-0.0,-1.0,0.040538270358765,1.0,0.0
47.669288635253906,7.745433807373047,-1.7204740047454834,-0.0,-0.0,-1.0,0.1210587770037325,2.0,0.0
46.17807388305664,5.868494033813477,-1.6560977697372437,-0.0,-0.0,-1.0,0.0860920171495373,1.0,0.0
46.26712417602539,5.974820137023926,-1.6730948686599731,-0.0,-0.0,-1.0,0.0895682768762186,1.0,0.0
46.29342269897461,6.053650856018066,-1.676343560218811,-0.0,-0.0,-1.0,0.0852936242863399,1.0,0.0
46.40769958496094,6.8144755363464355,-1.6804698705673218,-0.0,-0.0,-1.0,0.0582892964855898,1.0,0.0
46.55329895019531,7.006866455078125,-1.7119849920272827,-0.0,-0.0,-1.0,0.0557347120492273,1.0,0.0
46.71136474609375,7.317442893981934,-1.7455521821975708,-0.0,-0.0,-1.0,0.1147434142637487,1.0,0.0
46.872581481933594,7.507990837097168,-1.7830256223678589,-0.0,-0.0,-1.0,0.1002794532864024,1.0,0.0
46.80255126953125,7.607464790344238,-1.7648409605026243,-0.0,-0.0,-1.0,0.0636998384464409,2.0,0.0
47.01228713989258,7.812827110290527,-1.8156226873397827,-0.0,-0.0,-1.0,0.1201632270962312,1.0,0.0
45.79644775390625,5.642064094543457,-1.575421690940857,-0.0,-0.0,-1.0,0.1003307804323744,1.0,0.0
45.77867126464844,5.692134857177734,-1.5688267946243286,-0.0,-0.0,-1.0,0.0819155916040694,2.0,0.0
45.9119758605957,5.778312683105469,-1.5965741872787476,-0.0,-0.0,-1.0,0.1440287551831583,1.0,0.0
47.641056060791016,5.708658218383789,-1.5154629945755005,-0.0,-0.0,-1.0,0.1131806848941677,2.0,0.0
45.77652740478515,6.295307636260986,-1.543091893196106,-0.7128291053482823,0.7013135779163409,0.005825117899925,0.0890482123804749,3.0,0.0
46.10736846923828,6.3427629470825195,-1.6212178468704224,-0.0,-0.0,-1.0,0.1612204370640313,1.0,0.0
46.14962387084961,6.604440689086914,-1.6233035326004028,-0.0,-0.0,-1.0,0.1504171179521036,1.0,0.0
46.42750930786133,6.985671520233154,-1.681494116783142,-0.0,-0.0,-1.0,0.0616966474470765,1.0,0.0
46.17253875732422,5.8367838859558105,-1.2113035917282104,0.8957438775758961,-0.1468155943960961,-0.4196285107418452,0.1284605695368206,3.0,0.0
45.86101531982422,5.821829319000244,-1.6201202869415283,-0.0,-0.0,-1.0,0.0788657640515096,1.0,0.0
46.111270904541016,5.920806884765625,-1.6822402477264404,-0.0,-0.0,-1.0,0.1178792870638222,2.0,0.0
47.209861755371094,5.675258636474609,-1.5374720096588137,-0.8472620134572146,0.1408899083805456,-0.5121495038257367,0.0321826229474756,3.0,0.0
47.40226745605469,5.763948440551758,-1.5798547267913818,-0.0,-0.0,-1.0,0.0787522934112466,2.0,0.0
45.96268844604492,6.2788190841674805,-1.6268010139465332,-0.0,-0.0,-1.0,0.1669734142993153,1.0,0.0
47.54955291748047,6.071486473083496,-1.6061649322509766,-0.3797742252995094,0.0118946907131924,-0.9250027319586658,0.0998557853897341,4.0,0.0
46.05168151855469,6.597599029541016,-1.63956618309021,-0.0,-0.0,-1.0,0.1205161195894287,2.0,0.0
46.22063827514648,6.767284393310547,-1.680811882019043,-0.0,-0.0,-1.0,0.0918683830267538,1.0,0.0
47.58194351196289,6.4605207443237305,-1.60565447807312,-0.0,-0.0,-1.0,0.0505782635814185,2.0,0.0
46.16932678222656,6.858567237854004,-1.664323806762695,0.8065970003635565,-0.4915338624086883,-0.3283226174208981,0.0923016910474518,3.0,0.0
46.33903121948242,7.033412456512451,-1.7073383331298828,-0.0,-0.0,-1.0,0.0551910507781618,1.0,0.0
46.495643615722656,7.412540435791016,-1.7450647354125977,0.0397120800727018,0.0233825322648486,-0.9989375395294656,0.0898085760689546,3.0,0.0
46.591705322265625,7.689583778381348,-1.7697832584381104,-0.0,-0.0,-1.0,0.0366894784869428,1.0,0.0
46.74567794799805,7.842888832092285,-1.8127539157867432,-0.0,-0.0,-1.0,0.0333935552448925,1.0,0.0
46.781455993652344,8.120253562927246,-1.8239428997039795,-0.0,-0.0,-1.0,0.0360338674405125,1.0,0.0
46.23064804077149,5.646910667419434,-1.3102192878723145,0.8652494425575734,-0.1836632939574261,-0.4664881526968468,0.146955907834742,3.0,0.0
46.756404876708984,5.9337897300720215,-1.422790288925171,-0.0,-0.0,-1.0,0.1047485046089455,1.0,0.0
47.41666793823242,6.734825134277344,-1.561772346496582,-0.0,-0.0,-1.0,0.0541134524524046,2.0,0.0
46.49226379394531,5.7101006507873535,-1.611019492149353,-0.0,-0.0,-1.0,0.1139718564484779,2.0,0.0
46.602569580078125,6.021052360534668,-1.6118844747543335,-0.0,-0.0,-1.0,0.0528921692388348,2.0,0.0
46.822303771972656,6.4008097648620605,-1.6391066312789917,-0.0,-0.0,-1.0,0.2052695942336162,2.0,0.0
46.984405517578125,6.780353546142578,-1.6554673910140991,0.6467116866350038,-0.7230005327435273,0.2429695948514638,0.224342807959398,3.0,0.0
47.169803619384766,7.139773368835449,-1.6833049058914185,-0.0,-0.0,-1.0,0.0459826802121555,2.0,0.0
47.350284576416016,7.444630146026611,-1.7162476778030396,-0.0,-0.0,-1.0,0.0524751708187685,2.0,0.0
47.48881530761719,7.528105735778809,-1.7497283220291138,-0.0,-0.0,-1.0,0.0570450045255968,2.0,0.0
47.50699996948242,7.663936614990234,-1.7487391233444214,-0.0,-0.0,-1.0,0.0658358785851817,2.0,0.0
47.67403793334961,7.815131187438965,-1.7881757020950315,-0.0,-0.0,-1.0,0.1382708516971235,2.0,0.0
45.9275016784668,6.046056747436523,-1.433740735054016,0.6236960792007552,-0.1733503305924731,-0.7622026395080804,0.2111457893924253,4.0,0.0
46.27202224731445,5.654709815979004,-1.559435248374939,-0.0,-0.0,-1.0,0.1328075943215669,1.0,0.0
46.05486297607422,6.3112335205078125,-1.4439750909805298,-0.1604405984403609,0.6897539826209943,0.7060440905712444,0.1852148020370612,4.0,0.0
47.30148696899414,7.324575424194336,-1.303829550743103,-0.0,-0.0,-1.0,0.160297613904829,1.0,0.0
47.30250549316406,5.741753578186035,-1.5622518062591553,-0.0,-0.0,-1.0,0.0590316039146645,2.0,0.0
47.54075622558594,6.039612293243408,-1.5989696979522705,-0.8991199655499615,-0.0417549015701383,-0.4357061116673765,0.0909466428222473,4.0,0.0
47.67113494873047,6.455204486846924,-1.6033358573913574,-0.0,-0.0,-1.0,0.0595291659509254,2.0,0.0
46.16889953613281,5.696452617645264,-1.282636642456055,-0.0,-0.0,-1.0,0.1450066575067074,2.0,0.0
46.14705657958984,5.828046798706055,-1.2650935649871826,0.9162681636582198,-0.1365740220246449,-0.3765636583293787,0.1334751481109767,3.0,0.0
46.992828369140625,5.84041166305542,-1.47594952583313,-0.0,-0.0,-1.0,0.1034769736305131,2.0,0.0
47.35520935058594,7.460049629211426,-1.46766996383667,-0.0,-0.0,-1.0,0.1412552555851894,1.0,0.0
47.57456970214844,6.052386283874512,-1.6138558387756348,-0.3662699847257859,-0.1075598910869333,-0.9242711550829332,0.1053848004131672,3.0,0.0
47.56818389892578,5.86433219909668,-1.6256539821624756,-0.0,-0.0,-1.0,0.0953377140344926,1.0,0.0
46.15657424926758,5.858475685119629,-1.2529709339141846,0.9023903575681222,-0.1374611690360174,-0.4084067452617889,0.1134727048996863,4.0,0.0
46.24687194824219,5.678020477294922,-1.2923753261566162,0.8700898348967191,-0.4606818885195802,0.1752594556634055,0.1813296395826407,4.0,0.0
46.92124938964844,6.14179801940918,-1.43312668800354,-0.0,-0.0,-1.0,0.1388489527966301,1.0,0.0
47.3182258605957,5.7273383140563965,-1.5701258182525637,-0.0,-0.0,-1.0,0.062394841602176,2.0,0.0
47.229705810546875,6.353241920471191,-1.501112937927246,-0.0,-0.0,-1.0,0.1029952847215218,1.0,0.0
47.559104919433594,6.109340667724609,-1.6057398319244385,-0.0,-0.0,-1.0,0.0730617581827542,2.0,0.0
47.563846588134766,6.4858551025390625,-1.582660436630249,-0.0,-0.0,-1.0,0.0516759942638434,2.0,0.0
47.62040710449219,6.416756629943848,-1.6020517349243164,-0.0,-0.0,-1.0,0.0612330693522973,1.0,0.0
47.35373306274414,7.296507358551025,-1.2949758768081665,-0.0,-0.0,-1.0,0.1461814994835823,2.0,0.0
46.9689826965332,7.093539237976074,-1.6672511100769043,-0.0,-0.0,-1.0,0.221490699197204,1.0,0.0
47.13593673706055,6.935683250427246,-1.6971673965454102,-0.0,-0.0,-1.0,0.0700751264937587,2.0,0.0
47.0706901550293,6.611144542694092,-1.6396961212158203,-0.0,-0.0,-1.0,0.106411034101445,1.0,0.0
47.36650085449219,5.963162422180176,-1.6014739274978638,-0.0,-0.0,-1.0,0.0499939294577527,1.0,0.0
46.83255386352539,7.18844747543335,-1.7410950660705566,-0.0,-0.0,-1.0,0.1056045060564558,1.0,0.0
46.91725158691406,7.116963863372803,-1.7453622817993164,-0.0,-0.0,-1.0,0.1631213110192576,1.0,0.0
46.96370697021485,6.876664161682129,-1.7099411487579346,-0.0,-0.0,-1.0,0.0761520635870857,1.0,0.0
46.67097473144531,7.107578754425049,-1.6913161277770996,-0.0,-0.0,-1.0,0.0909827527138055,1.0,0.0
46.76697540283203,6.2508111000061035,-1.5514843463897705,-0.0,-0.0,-1.0,0.1817705792291508,2.0,0.0
46.97037887573242,6.722273349761963,-1.682687520980835,-0.0,-0.0,-1.0,0.1493952297751092,2.0,0.0
46.90730285644531,6.48190975189209,-1.6245558261871338,-0.0,-0.0,-1.0,0.0970284179449624,1.0,0.0
46.88169860839844,7.996936798095703,-1.7541916370391846,-0.0,-0.0,-1.0,0.0926884636674693,1.0,0.0
