x,y,z,nx,ny,nz,curvature,density,label
37.22296524047851,22.76295280456543,-2.102611303329468,-0.0,-0.0,-1.0,0.079705674827266,2.0,0.0
37.1922492980957,23.070659637451172,-2.094856023788452,-0.0,-0.0,-1.0,0.0855401437808262,1.0,0.0
36.800045013427734,22.32994079589844,-2.032254934310913,-0.0,-0.0,-1.0,0.2516180851345861,1.0,0.0
35.739906311035156,21.443689346313477,-1.8556230068206787,-0.0,-0.0,-1.0,0.0677668210598441,1.0,0.0
35.55652618408203,21.294618606567383,-1.825244665145874,-0.0,-0.0,-1.0,0.0991385805171772,2.0,0.0
35.31228256225586,20.759841918945312,-1.790656805038452,-0.0,-0.0,-1.0,0.1625819527052021,1.0,0.0
35.26698303222656,20.935911178588867,-1.7794911861419678,0.2251125076361395,-0.9703874075945444,0.0875935961569617,0.1856404495540441,3.0,0.0
37.35151672363281,22.15343475341797,-2.024890422821045,-0.0,-0.0,-1.0,0.0877281222915879,2.0,0.0
37.091651916503906,22.50897216796875,-2.0034613609313965,-0.0,-0.0,-1.0,0.1295402515884703,1.0,0.0
37.02779006958008,22.854909896850582,-2.0102267265319824,-0.0,-0.0,-1.0,0.061942146102996,1.0,0.0
36.32341003417969,22.97752571105957,-1.9163713455200195,-0.0,-0.0,-1.0,0.1344203635351102,2.0,0.0
35.91582489013672,22.221275329589844,-1.823409080505371,-0.0,-0.0,-1.0,0.1006692653970622,1.0,0.0
35.31620407104492,20.925561904907227,-1.683790922164917,-0.3749182750899601,-0.9238421112463664,0.0771494685103233,0.1876276024194399,6.0,0.0
35.25196838378906,20.852388381958008,-1.6718082427978516,-0.0,-0.0,-1.0,0.2118770562971493,2.0,0.0
35.50856399536133,22.664270401000977,-2.090827465057373,-0.0,-0.0,-1.0,0.0327253776356533,1.0,0.0
35.542442321777344,23.052770614624023,-2.105492115020752,-0.0,-0.0,-1.0,0.0083107439364375,1.0,0.0
35.25627899169922,22.43111038208008,-2.044175624847412,-0.0,-0.0,-1.0,0.0735306953212303,2.0,0.0
36.5533447265625,22.61906623840332,-2.100898265838623,-0.0,-0.0,-1.0,0.1275730552933671,2.0,0.0
36.64064025878906,22.872434616088867,-2.1232895851135254,-0.0,-0.0,-1.0,0.1289733230799133,2.0,0.0
36.281742095947266,23.01757049560547,-2.0714807510375977,-0.0,-0.0,-1.0,0.1967815930068866,2.0,0.0
35.69216537475586,21.854148864746097,-1.940232753753662,-0.0,-0.0,-1.0,0.0897903838830405,2.0,0.0
35.30794143676758,21.445884704589844,-1.8678483963012695,-0.0,-0.0,-1.0,0.048550985399571,1.0,0.0
35.50370788574219,21.831098556518555,-1.9095687866210935,0.2465662270942148,-0.8101941074840083,-0.5317805974786166,0.1378943215441199,4.0,0.0
35.50753402709961,22.10829734802246,-1.9182391166687012,-0.2951963270022305,0.1608804827364145,-0.9417943505876908,0.1125328927897695,4.0,0.0
36.89923477172851,22.46065902709961,-2.098567008972168,-0.0,-0.0,-1.0,0.1121489633930065,2.0,0.0
36.60475540161133,22.31097984313965,-2.0533761978149414,-0.0,-0.0,-1.0,0.0686249700333654,2.0,0.0
36.702301025390625,22.6893367767334,-2.0626258850097656,-0.0,-0.0,-1.0,0.22426139498384,1.0,0.0
36.29643630981445,23.045236587524418,-1.991319179534912,-0.0,-0.0,-1.0,0.1546274265047568,2.0,0.0
35.726009368896484,21.90078353881836,-1.9185657501220703,-0.0,-0.0,-1.0,0.0762412585524364,1.0,0.0
35.52229309082031,21.89789772033691,-1.8855180740356443,-0.0,-0.0,-1.0,0.096635802070375,2.0,0.0
35.63936233520508,22.593265533447266,-2.0798227787017822,-0.0,-0.0,-1.0,0.0126185491219597,2.0,0.0
35.748172760009766,22.84728240966797,-2.0957162380218506,-0.0,-0.0,-1.0,0.0128603586465525,1.0,0.0
35.41577911376953,22.453067779541016,-2.0438168048858643,-0.0,-0.0,-1.0,0.0708091285112663,1.0,0.0
36.06671142578125,22.85292053222656,-2.0928008556365967,-0.0,-0.0,-1.0,0.0800959591179765,1.0,0.0
35.81892395019531,22.43854522705078,-2.0575339794158936,-0.0,-0.0,-1.0,0.0323061364558992,2.0,0.0
35.89356231689453,22.7774600982666,-2.0649054050445557,-0.0,-0.0,-1.0,0.0246197910277565,1.0,0.0
35.952186584472656,23.07819175720215,-2.070805311203003,-0.0,-0.0,-1.0,0.0468593379739163,2.0,0.0
35.279232025146484,22.276947021484375,-1.97021746635437,-0.0,-0.0,-1.0,0.0969271624331606,1.0,0.0
36.99256134033203,22.35890007019043,-2.113947868347168,-0.0,-0.0,-1.0,0.1445417034238749,1.0,0.0
36.966773986816406,22.554424285888672,-2.106755256652832,-0.2533144553959091,0.0399774740371332,-0.9665575969682736,0.0518625714067762,3.0,0.0
36.78350067138672,22.233652114868164,-2.0826563835144043,-0.0,-0.0,-1.0,0.1418613678919814,1.0,0.0
36.881988525390625,22.656307220458984,-2.0916733741760254,-0.0,-0.0,-1.0,0.0517104287321294,2.0,0.0
36.20457077026367,23.041418075561523,-1.978100299835205,-0.0,-0.0,-1.0,0.1252014461084453,2.0,0.0
35.90036392211914,21.925161361694336,-1.947371006011963,0.0009350892021149,-0.4651628205924255,-0.8852246471640309,0.0546240555544625,3.0,0.0
35.74121856689453,22.07857131958008,-1.918928146362305,-0.0,-0.0,-1.0,0.0681873544179524,1.0,0.0
35.55809783935547,21.729022979736328,-1.8968844413757324,-0.0,-0.0,-1.0,0.0910738808848116,2.0,0.0
35.239898681640625,21.48521614074707,-1.8517327308654783,-0.679868421639429,-0.0230839768464455,-0.7329707083304657,0.0532008115870924,3.0,0.0
37.62031173706055,23.01586151123047,-1.838036298751831,-0.0484319194701626,0.1016190753375158,-0.9936437554294716,0.1660286660295315,6.0,0.0
35.8337287902832,20.879995346069336,-1.5495789051055908,-0.0,-0.0,-1.0,0.0810486706769389,2.0,0.0
35.43850326538086,22.18747329711914,-1.4963624477386477,-0.0,-0.0,-1.0,0.1093324480991203,1.0,0.0
37.57421875,22.46282958984375,-2.0237245559692383,-0.0,-0.0,-1.0,0.061245244166208,1.0,0.0
37.496482849121094,22.722829818725582,-2.012195587158203,0.6052330185302227,-0.6589950296552678,-0.4465630349351003,0.1175230695106897,3.0,0.0
37.353546142578125,22.939058303833008,-1.990675926208496,-0.0,-0.0,-1.0,0.1186836791666527,2.0,0.0
36.847808837890625,22.36787986755371,-1.9100556373596191,0.1291544585227411,0.7902452265684029,-0.5990255484781519,0.1815698651567136,3.0,0.0
36.62389373779297,22.739093780517575,-1.8755769729614256,-0.0,-0.0,-1.0,0.1499729278830564,1.0,0.0
35.97711181640625,21.499759674072266,-1.7771825790405271,-0.0,-0.0,-1.0,0.0587507059201894,1.0,0.0
35.82041549682617,21.433080673217773,-1.753349781036377,-0.0,-0.0,-1.0,0.078329618467406,1.0,0.0
35.62195587158203,21.237873077392575,-1.7242088317871094,-0.0,-0.0,-1.0,0.1537806646501524,1.0,0.0
35.467559814453125,20.65185546875,-1.706906795501709,-0.1023647555644472,-0.5320401135559871,-0.840508640280136,0.1494980240011287,5.0,0.0
35.300445556640625,20.92415428161621,-1.6778264045715332,-0.3912727605001596,-0.9143421093962342,0.1043270524620997,0.248528089394229,6.0,0.0
37.59428024291992,22.871395111083984,-1.9270083904266355,-0.0,-0.0,-1.0,0.1639510540278202,1.0,0.0
37.34912109375,23.121746063232425,-1.8908932209014893,-0.230583530204213,0.952824949817793,0.1973723653485538,0.1400742558263945,4.0,0.0
35.63335418701172,21.11788558959961,-1.6325290203094482,-0.0,-0.0,-1.0,0.2073188295667282,2.0,0.0
35.67382049560547,21.20663833618164,-1.6379854679107666,-0.0,-0.0,-1.0,0.1662461805691007,1.0,0.0
35.45073318481445,20.674903869628903,-1.6089770793914795,-0.3611538829008537,0.4167330580228645,-0.8342070673499162,0.1528516514657284,3.0,0.0
35.38251495361328,20.79503631591797,-1.5976812839508057,-0.3185001149747191,-0.9345493780202176,-0.1586667476288429,0.1379209736788004,3.0,0.0
35.75007629394531,22.92951011657715,-2.0917840003967285,-0.0,-0.0,-1.0,0.0120249213679726,2.0,0.0
35.306976318359375,22.502859115600582,-2.024679183959961,-0.0,-0.0,-1.0,0.0705220495021938,1.0,0.0
36.979522705078125,22.141551971435547,-2.1107327938079834,-0.6274236731770345,-0.0495274138912139,-0.7771013895305336,0.2006237686243903,4.0,0.0
37.03014373779297,22.498979568481445,-2.1143343448638916,-0.0,-0.0,-1.0,0.0622894608634193,1.0,0.0
36.83382415771485,22.277835845947266,-2.0864603519439697,-0.0,-0.0,-1.0,0.2596250541211884,1.0,0.0
36.95184326171875,22.628929138183594,-2.100708246231079,-0.0,-0.0,-1.0,0.0502040982191068,2.0,0.0
37.008113861083984,23.0910701751709,-2.1049320697784424,-0.1443842044408211,0.7286575727366927,-0.6694858797625697,0.0914784686850793,3.0,0.0
36.30569076538086,23.127023696899418,-1.9948432445526123,-0.0,-0.0,-1.0,0.1379395849732254,1.0,0.0
35.729854583740234,21.953445434570312,-1.919703245162964,-0.0,-0.0,-1.0,0.0810424380581437,1.0,0.0
36.1296501159668,22.96300506591797,-1.9690091609954832,-0.0,-0.0,-1.0,0.171325959656583,1.0,0.0
35.3291015625,21.627437591552734,-1.8630473613739016,-0.0,-0.0,-1.0,0.0467916125158428,2.0,0.0
35.57741928100586,21.93852806091309,-1.89640212059021,-0.0,-0.0,-1.0,0.0345934983292734,2.0,0.0
35.736026763916016,22.264495849609375,-1.9162209033966064,-0.0,-0.0,-1.0,0.1437084362931441,1.0,0.0
37.52406311035156,23.095802307128903,-1.8296542167663576,-0.0,-0.0,-1.0,0.1004925253141174,2.0,0.0
35.422523498535156,20.80095863342285,-1.5582480430603027,-0.7408798621385524,0.6141640888150646,-0.2718446282116331,0.1242392567813558,3.0,0.0
35.38956069946289,21.082992553710938,-1.548645257949829,0.6876811523626664,-0.6264659129583401,-0.3669265493071166,0.1902670516859751,3.0,0.0
35.5753173828125,21.279022216796875,-1.5715904235839844,-0.0,-0.0,-1.0,0.1845779290201806,1.0,0.0
36.40606689453125,22.27192115783691,-2.0569217205047607,-0.0,-0.0,-1.0,0.0401546100791588,1.0,0.0
36.55923843383789,22.591567993164062,-2.0792062282562256,-0.0,-0.0,-1.0,0.1754975271253421,2.0,0.0
35.49578857421875,21.76997756958008,-1.9168007373809817,-0.0,-0.0,-1.0,0.133916873291205,2.0,0.0
35.99929428100586,22.152202606201172,-1.99283766746521,-0.0,-0.0,-1.0,0.0918505498371416,1.0,0.0
36.215782165527344,22.979400634765625,-2.0215303897857666,0.4179538970084968,0.4149457617580055,-0.8081674051670726,0.1716260905443075,3.0,0.0
36.3690299987793,23.137359619140625,-2.04560923576355,-0.3523879277034926,0.8921385632276366,-0.2826862791346026,0.1514825948518477,3.0,0.0
35.436492919921875,21.864492416381836,-1.9062697887420657,-0.0,-0.0,-1.0,0.1497050624254788,2.0,0.0
35.476524353027344,22.089935302734375,-1.9100143909454343,-0.2951963270022305,0.1608804827364145,-0.9417943505876908,0.0619944022842285,4.0,0.0
35.23945617675781,22.89197540283203,-2.0441689491271973,-0.0,-0.0,-1.0,0.0075307250402762,1.0,0.0
36.918006896972656,21.06184196472168,-1.8215291500091553,-0.0,-0.0,-1.0,0.1003749039932426,1.0,0.0
37.56133270263672,21.458526611328125,-1.8892533779144287,-0.0,-0.0,-1.0,0.0309749965339403,1.0,0.0
37.596954345703125,21.83479881286621,-1.876103162765503,-0.0,-0.0,-1.0,0.0713920046979254,1.0,0.0
37.60435485839844,22.058032989501953,-1.8666675090789795,-0.0,-0.0,-1.0,0.1604526999262218,1.0,0.0
37.36605453491211,22.43096160888672,-1.8167660236358645,-0.0,-0.0,-1.0,0.1638028973594767,1.0,0.0
37.551483154296875,22.68454360961914,-1.8309953212738037,-0.0,-0.0,-1.0,0.1364210302433508,1.0,0.0
35.39072799682617,21.778005599975582,-1.752166748046875,-0.0,-0.0,-1.0,0.1974818313889007,1.0,0.0
36.091922760009766,22.246578216552734,-1.823036193847656,-0.0,-0.0,-1.0,0.1010566252472911,1.0,0.0
36.34675216674805,22.34986114501953,-1.8533806800842283,-0.0,-0.0,-1.0,0.1101309585298395,1.0,0.0
36.808067321777344,22.477218627929688,-1.912149429321289,-0.0,-0.0,-1.0,0.1329644687100831,1.0,0.0
35.49030303955078,22.196392059326172,-1.7401390075683594,-0.0,-0.0,-1.0,0.1898179779620307,1.0,0.0
36.66167068481445,22.80550765991211,-1.8720197677612305,-0.0,-0.0,-1.0,0.1690893782850178,1.0,0.0
37.24166488647461,23.051103591918945,-1.9421424865722656,-0.7378004743773051,0.6199322766863617,-0.2670850657208073,0.1517619221784426,3.0,0.0
36.57481002807617,23.10264778137207,-1.8425650596618652,-0.0,-0.0,-1.0,0.1117365104757848,1.0,0.0
35.21446228027344,21.791765213012695,-1.922114849090576,-0.0,-0.0,-1.0,0.059325729329276,1.0,0.0
35.33294677734375,22.145462036132812,-1.9378633499145508,-0.0,-0.0,-1.0,0.0927434224092521,1.0,0.0
35.51155471801758,22.369613647460938,-1.966428279876709,-0.0,-0.0,-1.0,0.1286838058143847,1.0,0.0
35.78533172607422,22.40027236938477,-2.014413833618164,-0.0,-0.0,-1.0,0.0343563887452103,1.0,0.0
36.03504943847656,22.6495361328125,-2.056124210357666,-0.0,-0.0,-1.0,0.0285648233484527,1.0,0.0
36.09297180175781,22.973201751708984,-2.063734531402588,-0.0,-0.0,-1.0,0.1121896270992937,1.0,0.0
35.36360168457031,22.34076690673828,-2.0062787532806396,-0.0,-0.0,-1.0,0.0949607444370844,1.0,0.0
35.68559646606445,22.390012741088867,-2.0604937076568604,-0.0,-0.0,-1.0,0.0414143576681091,1.0,0.0
35.860496520996094,22.608318328857425,-2.0832698345184326,-0.0,-0.0,-1.0,0.0126215295362284,2.0,0.0
36.004425048828125,23.135501861572266,-2.0909359455108643,-0.0,-0.0,-1.0,0.0568895971748226,1.0,0.0
35.981849670410156,22.900100708007812,-2.094640016555786,-0.0,-0.0,-1.0,0.0628072069418785,2.0,0.0
35.238094329833984,20.85523796081543,-1.7122654914855957,-0.0,-0.0,-1.0,0.1967844810474236,2.0,0.0
35.22166442871094,21.161415100097656,-1.6943459510803225,0.8189166617294219,0.4487399976877023,-0.3577819386402566,0.111423316482549,4.0,0.0
35.55967712402344,21.13978576660156,-1.74827241897583,-0.0,-0.0,-1.0,0.1402791457834825,1.0,0.0
35.75933074951172,21.336116790771484,-1.7702250480651855,-0.0,-0.0,-1.0,0.0854030400066212,1.0,0.0
37.60707092285156,21.02419662475586,-2.0763907432556152,0.1428752298715708,0.1667140147017685,-0.9755988448082358,0.035949769370548,4.0,0.0
37.590213775634766,22.523792266845703,-2.012518405914306,-0.0,-0.0,-1.0,0.1058327854449395,2.0,0.0
37.30305480957031,23.039148330688477,-1.947347640991211,-0.0,-0.0,-1.0,0.1225292099311228,1.0,0.0
37.535831451416016,22.74766731262207,-1.995518684387207,0.1811693963389018,0.2754564824829316,-0.9440875892036332,0.10359139601871,4.0,0.0
35.4864501953125,21.836654663085938,-1.9255623817443848,0.3303003622781655,-0.722478981211896,-0.6073926179876844,0.1305558656045445,3.0,0.0
35.84898376464844,22.10135078430176,-1.973121166229248,-0.0,-0.0,-1.0,0.080262396067842,1.0,0.0
36.182411193847656,22.949928283691406,-1.9862937927246096,-0.0,-0.0,-1.0,0.1713386661118557,1.0,0.0
36.34913635253906,22.08173942565918,-2.0603766441345215,-0.0,-0.0,-1.0,0.0574249449228132,2.0,0.0
36.3590087890625,23.071035385131836,-2.010955810546875,-0.0,-0.0,-1.0,0.1705939160530679,1.0,0.0
36.68663024902344,22.75265884399414,-2.0838828086853027,-0.0,-0.0,-1.0,0.20815612845051,1.0,0.0
36.712181091308594,22.234619140625,-2.114999294281006,-0.0,-0.0,-1.0,0.1258798952385847,1.0,0.0
36.98602294921875,23.07264709472656,-2.1202192306518555,-0.1443842044408211,0.7286575727366927,-0.6694858797625697,0.0556774578040657,3.0,0.0
36.92444610595703,22.472888946533203,-2.1394028663635254,-0.0,-0.0,-1.0,0.0925665416988561,2.0,0.0
36.865966796875,22.399442672729492,-2.133030414581299,-0.0,-0.0,-1.0,0.1449718695978266,2.0,0.0
37.02241516113281,22.044055938720703,-2.178664207458496,-0.0,-0.0,-1.0,0.0890301047857769,1.0,0.0
35.33633804321289,21.489673614501953,-1.812767505645752,-0.0,-0.0,-1.0,0.1092098446600099,1.0,0.0
35.440391540527344,21.44424819946289,-1.8327574729919431,-0.0,-0.0,-1.0,0.0617310214108051,2.0,0.0
35.67481231689453,21.708812713623047,-1.867485523223877,-0.1978820286225348,-0.6770414495901861,-0.7088424213356943,0.117275623187148,3.0,0.0
35.85263442993164,22.21769142150879,-1.8862700462341309,-0.0,-0.0,-1.0,0.0888921741138672,2.0,0.0
36.074424743652344,21.863422393798828,-1.9355273246765137,-0.0,-0.0,-1.0,0.0591853192985963,1.0,0.0
36.34206008911133,22.93062210083008,-1.959075927734375,-0.0,-0.0,-1.0,0.1443257302548129,2.0,0.0
36.274139404296875,21.963302612304688,-1.9691128730773928,-0.0,-0.0,-1.0,0.0425813523100649,1.0,0.0
36.9453125,22.175508499145508,-2.0858755111694336,-0.0,-0.0,-1.0,0.1748290510247187,1.0,0.0
37.088714599609375,22.946937561035156,-2.095518112182617,-0.0,-0.0,-1.0,0.0712877024907863,1.0,0.0
37.052852630615234,22.454004287719727,-2.0991992950439453,-0.9289531309962966,0.1209522141078021,-0.3498808973273585,0.067374475749276,3.0,0.0
37.161346435546875,22.032825469970703,-2.128571033477783,-0.0,-0.0,-1.0,0.0606318303372887,1.0,0.0
35.297119140625,21.180278778076172,-1.6289703845977783,-0.0,-0.0,-1.0,0.1437485209688876,1.0,0.0
35.32209014892578,20.93606185913086,-1.6435940265655518,0.6879209489670046,0.5507427087111595,-0.4727020592020207,0.2001281700295971,6.0,0.0
35.67615509033203,21.287878036499023,-1.6899521350860596,-0.0,-0.0,-1.0,0.1661584563460812,1.0,0.0
35.57870101928711,21.195621490478516,-1.6768887042999268,-0.0,-0.0,-1.0,0.1491635620848121,1.0,0.0
36.878082275390625,22.34708595275879,-1.860044240951538,-0.0,-0.0,-1.0,0.1932852037620351,2.0,0.0
37.03809356689453,21.838855743408203,-1.9056189060211184,0.0088761930659261,0.9915466355057564,0.1294468339275676,0.1451031468444802,5.0,0.0
37.352577209472656,23.129594802856445,-1.9190094470977783,-0.7993607391371682,0.5988579283345258,0.0489038893847969,0.1518659583160528,5.0,0.0
37.652488708496094,21.06317901611328,-2.041212797164917,-0.0,-0.0,-1.0,0.0364493699569713,1.0,0.0
37.5233154296875,22.945327758789062,-1.9545981884002688,-0.4443995328452046,-0.4125076605747306,-0.7952021662282657,0.173204517099604,3.0,0.0
37.616065979003906,22.69185256958008,-1.9786722660064695,0.0850964898761136,0.676563378830634,-0.731451011234546,0.1470223666302945,3.0,0.0
37.640621185302734,22.452974319458008,-1.9904730319976809,-0.0,-0.0,-1.0,0.0576258146404457,1.0,0.0
37.3124885559082,22.175125122070312,-2.0450563430786133,0.5234902125190897,0.8457243435364494,-0.1034810714409171,0.058812290544413,3.0,0.0
37.50409698486328,21.319753646850582,-2.1006574630737305,-0.0,-0.0,-1.0,0.0261819197400056,1.0,0.0
37.325931549072266,22.985776901245117,-2.0319743156433105,-0.0,-0.0,-1.0,0.1256268280808156,2.0,0.0
37.45580291748047,22.606468200683594,-2.063321590423584,-0.0,-0.0,-1.0,0.1199706064059676,1.0,0.0
37.49296188354492,22.29585647583008,-2.076399803161621,-0.0,-0.0,-1.0,0.0972496135125234,2.0,0.0
37.64674377441406,21.720138549804688,-2.11769437789917,-0.0,-0.0,-1.0,0.0568879332535334,1.0,0.0
37.655296325683594,21.419124603271484,-2.1264071464538574,-0.0,-0.0,-1.0,0.0330616997895458,1.0,0.0
35.29250717163086,21.16554832458496,-1.6944985389709473,-0.0,-0.0,-1.0,0.1147970191840056,1.0,0.0
35.35795211791992,20.931711196899418,-1.713564395904541,-0.4341690386772847,-0.7346157103654568,-0.5213799036578776,0.1388876326038285,4.0,0.0
35.687007904052734,21.350568771362305,-1.7622122764587402,-0.0,-0.0,-1.0,0.094498236990618,1.0,0.0
35.91826629638672,21.5640869140625,-1.7993111610412598,-0.0,-0.0,-1.0,0.0471174394142186,2.0,0.0
37.42066192626953,22.717483520507812,-1.885080099105835,-0.0,-0.0,-1.0,0.2232105553707313,1.0,0.0
37.62889099121094,23.042720794677734,-1.9211113452911377,-0.0,-0.0,-1.0,0.1192723336075224,2.0,0.0
35.45763397216797,21.127113342285156,-1.5437815189361572,-0.0,-0.0,-1.0,0.1771040657320705,2.0,0.0
35.57103729248047,20.724288940429688,-1.5740797519683838,-0.0,-0.0,-1.0,0.1208426487733245,2.0,0.0
35.703243255615234,21.286331176757812,-1.5859713554382324,-0.0,-0.0,-1.0,0.1431062884327828,1.0,0.0
36.86206817626953,22.364360809326172,-1.7841994762420654,-0.0,-0.0,-1.0,0.1654969534364765,1.0,0.0
37.035892486572266,23.04934310913086,-1.808908224105835,-0.0,-0.0,-1.0,0.1423503707668379,1.0,0.0
35.25578308105469,23.017152786254883,-2.082733631134033,-0.0,-0.0,-1.0,0.0095504793283051,2.0,0.0
37.702247619628906,22.941312789916992,-1.796517848968506,-0.0,-0.0,-1.0,0.1088298509479309,1.0,0.0
35.62764358520508,21.135765075683594,-1.4750151634216309,-0.0,-0.0,-1.0,0.1370662225383168,1.0,0.0
35.590755462646484,20.856632232666016,-1.4787440299987793,-0.0,-0.0,-1.0,0.0667738955833668,1.0,0.0
37.60426712036133,23.12385368347168,-1.774367332458496,0.9374118048404574,-0.2948269510005593,-0.1853002350496893,0.1620797098760126,4.0,0.0
35.36042022705078,22.67685317993164,-2.0668423175811768,-0.0,-0.0,-1.0,0.0311414255553386,1.0,0.0
35.21778106689453,21.12036895751953,-1.7497260570526123,-0.0,-0.0,-1.0,0.1280715274578803,1.0,0.0
35.2799072265625,21.178634643554688,-1.7625720500946045,-0.0,-0.0,-1.0,0.2199777267431638,1.0,0.0
35.330535888671875,20.92345428466797,-1.7751996517181396,-0.8162816897270896,-0.4639897665184796,-0.3440896679390623,0.2237625165719563,4.0,0.0
35.375404357910156,21.508726119995117,-1.8563406467437744,-0.0,-0.0,-1.0,0.0832520084852618,2.0,0.0
35.535614013671875,21.7902889251709,-1.9152963161468504,-0.0,-0.0,-1.0,0.098355603953463,2.0,0.0
35.68941879272461,21.975210189819336,-1.9652936458587649,-0.0,-0.0,-1.0,0.079590873497543,1.0,0.0
35.62193298339844,21.899349212646484,-1.9229671955108645,-0.0,-0.0,-1.0,0.1142705485005663,1.0,0.0
35.60169219970703,21.669347763061523,-1.897585153579712,-0.0,-0.0,-1.0,0.1228116480742656,1.0,0.0
35.77238464355469,22.243925094604492,-1.9888617992401123,-0.0,-0.0,-1.0,0.0956719740665424,1.0,0.0
35.998992919921875,22.487642288208008,-2.0631844997406006,-0.0,-0.0,-1.0,0.0304757010304559,2.0,0.0
35.92287063598633,22.982173919677734,-2.094202756881714,-0.0,-0.0,-1.0,0.0395064903300101,2.0,0.0
36.141624450683594,22.697998046875,-2.115567445755005,-0.0,-0.0,-1.0,0.0345191891526307,1.0,0.0
35.2632942199707,20.74306297302246,-1.7414333820343018,-0.0,-0.0,-1.0,0.1607050175302261,2.0,0.0
35.211524963378906,21.051467895507812,-1.7552082538604736,0.0313040414865747,-0.3037109550776072,-0.95224981635727,0.1168283038510918,3.0,0.0
37.08842849731445,21.873859405517575,-1.8359909057617188,-0.0,-0.0,-1.0,0.2092938022890441,1.0,0.0
36.57549285888672,22.675352096557617,-1.7952909469604492,-0.0,-0.0,-1.0,0.0987664037362801,1.0,0.0
36.893821716308594,22.291091918945312,-1.8293304443359375,-0.1356280767195229,-0.53038232776367,-0.8368390593186688,0.2070810596583284,3.0,0.0
37.55567932128906,22.70923614501953,-2.006180763244629,0.7663616103614675,0.5366226448237496,0.353165710717422,0.1545858664693943,4.0,0.0
37.50876998901367,22.89653778076172,-2.0127573013305664,-0.0,-0.0,-1.0,0.0801424562569027,1.0,0.0
35.77298355102539,21.13391876220703,-1.495152473449707,-0.0,-0.0,-1.0,0.1303980452475347,1.0,0.0
35.957313537597656,20.928089141845703,-1.5189762115478516,0.1076922285967647,-0.8607586609067897,-0.497490614558519,0.0974939109152474,3.0,0.0
35.744956970214844,21.189332962036133,-1.4934659004211426,-0.0,-0.0,-1.0,0.1392406903443672,1.0,0.0
37.06314849853515,22.533411026000977,-2.059424877166748,-0.0,-0.0,-1.0,0.0596597716750571,1.0,0.0
37.34705352783203,22.29504013061523,-2.0923123359680176,-0.0,-0.0,-1.0,0.0532952028583168,2.0,0.0
37.58751678466797,22.05432510375977,-2.11612606048584,-0.0,-0.0,-1.0,0.1173415602693675,1.0,0.0
37.02314758300781,22.907817840576172,-2.097870349884033,-0.0,-0.0,-1.0,0.0573450117911588,1.0,0.0
35.58197021484375,20.72364044189453,-1.5187358856201172,0.5422256363621172,0.2753394853153587,-0.7938384767054131,0.1074467370018124,4.0,0.0
35.40961837768555,21.089553833007812,-1.5222561359405518,-0.0,-0.0,-1.0,0.1906449131527124,2.0,0.0
35.480690002441406,20.96008682250977,-1.5230708122253418,0.2900494168528194,-0.6140511860903776,-0.7340384708203924,0.1470631450753618,3.0,0.0
35.50650405883789,21.76272964477539,-1.6236653327941897,-0.0,-0.0,-1.0,0.1820240979254776,1.0,0.0
35.639041900634766,21.2652587890625,-1.5933992862701416,-0.0,-0.0,-1.0,0.1260314556018599,1.0,0.0
36.15389633178711,22.021352767944336,-1.7972049713134766,-0.0,-0.0,-1.0,0.0755668267349291,1.0,0.0
37.7007942199707,20.867454528808594,-2.0901098251342773,-0.0,-0.0,-1.0,0.0360062999731992,1.0,0.0
37.218505859375,22.00214958190918,-2.1299309730529785,-0.0,-0.0,-1.0,0.0627919272178287,1.0,0.0
37.332725524902344,21.977399826049805,-2.152707099914551,-0.0,-0.0,-1.0,0.0439162757126553,1.0,0.0
36.91481018066406,22.34963607788086,-2.110021591186523,-0.0,-0.0,-1.0,0.1977157974383496,2.0,0.0
37.13922119140625,22.10171127319336,-2.1257786750793457,-0.0,-0.0,-1.0,0.0664179116063888,1.0,0.0
36.289188385009766,23.097579956054688,-2.080413818359375,-0.0,-0.0,-1.0,0.1980304309548531,1.0,0.0
36.61699676513672,22.844676971435547,-2.1156458854675293,-0.0,-0.0,-1.0,0.1643167977159296,2.0,0.0
35.531986236572266,20.736106872558594,-1.5684452056884766,-0.3149729497104925,-0.2471687642204718,-0.9163512661334604,0.0888248551310342,4.0,0.0
35.375282287597656,21.08498764038086,-1.5788116455078125,0.1277609440523647,-0.9838278346472528,-0.1255385715553058,0.186494461463809,3.0,0.0
35.41419219970703,21.133060455322266,-1.59437894821167,-0.0,-0.0,-1.0,0.2281204553767217,2.0,0.0
36.02532958984375,21.48046112060547,-1.7829670906066897,-0.0,-0.0,-1.0,0.0503243671575682,1.0,0.0
37.45622253417969,20.723669052124023,-2.1034936904907227,-0.0,-0.0,-1.0,0.0333734035541495,1.0,0.0
36.70448303222656,22.07921981811523,-2.1089653968811035,-0.0,-0.0,-1.0,0.0548475717296524,1.0,0.0
36.34834289550781,22.537527084350582,-2.0935792922973633,-0.0,-0.0,-1.0,0.0549675708236666,1.0,0.0
36.51201248168945,22.44218063354492,-2.11856460571289,-0.0,-0.0,-1.0,0.0264611449487377,1.0,0.0
36.222267150878906,22.93337631225586,-2.1280508041381836,-0.0,-0.0,-1.0,0.1706894310546547,2.0,0.0
36.424930572509766,22.933032989501953,-2.17689847946167,-0.0,-0.0,-1.0,0.0922488403965197,1.0,0.0
35.4049186706543,21.04107666015625,-1.630690574645996,-0.0,-0.0,-1.0,0.1360571296803451,2.0,0.0
35.460655212402344,20.83746910095215,-1.6153645515441897,-0.7854005984755293,-0.1137726656860822,-0.6084420107594178,0.1363105030630814,3.0,0.0
35.83173370361328,21.383819580078125,-1.7874493598937988,-0.0,-0.0,-1.0,0.0842288120039924,1.0,0.0
35.9086799621582,21.492263793945312,-1.8227410316467283,-0.0,-0.0,-1.0,0.0609750170596082,1.0,0.0
35.67409896850586,21.769493103027344,-1.8067259788513184,-0.0,-0.0,-1.0,0.1660065277524508,2.0,0.0
35.937843322753906,21.66571807861328,-1.8561134338378904,-0.0,-0.0,-1.0,0.0459095476599665,1.0,0.0
35.7542839050293,22.132408142089844,-1.8833298683166504,-0.0,-0.0,-1.0,0.0835342267955574,1.0,0.0
35.969539642333984,21.933591842651367,-1.9050273895263672,-0.0,-0.0,-1.0,0.0650110447669432,2.0,0.0
35.41545104980469,22.450286865234375,-1.8521814346313477,-0.0,-0.0,-1.0,0.1265023093630512,1.0,0.0
37.650753021240234,23.027908325195312,-1.853006362915039,-0.3715434572655179,0.4869541777769892,-0.7904625785631618,0.127929102633766,4.0,0.0
37.51557922363281,22.0900936126709,-2.0639050006866455,-0.0,-0.0,-1.0,0.160299344756258,2.0,0.0
37.48832702636719,22.285598754882812,-2.0844566822052,-0.0,-0.0,-1.0,0.0981627916989044,2.0,0.0
37.2004280090332,22.82387351989746,-2.0908448696136475,-0.0,-0.0,-1.0,0.0693801791886502,1.0,0.0
37.08047866821289,23.13097381591797,-2.1079628467559814,-0.0,-0.0,-1.0,0.1327248083414727,1.0,0.0
37.11113739013672,21.80255889892578,-1.921969652175903,-0.0,-0.0,-1.0,0.1658465192941108,2.0,0.0
36.846092224121094,22.443897247314453,-1.9462573528289795,-0.0,-0.0,-1.0,0.1472610741170613,1.0,0.0
36.971153259277344,22.292190551757812,-1.955467939376831,-0.0,-0.0,-1.0,0.1686209312634348,2.0,0.0
36.464088439941406,22.857797622680664,-1.9138085842132568,-0.0,-0.0,-1.0,0.1496490279690015,2.0,0.0
36.33904647827149,23.032276153564453,-1.910247564315796,-0.0,-0.0,-1.0,0.1109681952864301,2.0,0.0
35.7708740234375,22.781274795532227,-2.1209635734558105,-0.0,-0.0,-1.0,0.0125709020300974,1.0,0.0
35.910560607910156,22.569120407104492,-2.1211462020874023,-0.0,-0.0,-1.0,0.0142889834920299,1.0,0.0
35.64689636230469,23.028507232666016,-2.1330208778381348,-0.0,-0.0,-1.0,0.0093202233129121,1.0,0.0
35.38508605957031,20.903955459594727,-1.6863765716552734,0.0482388464567106,-0.6744817489496144,-0.7367139092119781,0.1093570138013177,3.0,0.0
35.54326629638672,20.67780876159668,-1.6983861923217771,-0.0,-0.0,-1.0,0.2170955514693439,1.0,0.0
35.322662353515625,21.06521224975586,-1.6934819221496582,-0.0,-0.0,-1.0,0.1312743347544825,1.0,0.0
35.53093719482422,21.30341148376465,-1.792933464050293,-0.0,-0.0,-1.0,0.0694700993765383,2.0,0.0
35.669639587402344,21.566011428833008,-1.8768072128295896,-0.0,-0.0,-1.0,0.0908919526669829,1.0,0.0
35.441375732421875,21.89317321777344,-1.8664803504943848,-0.0,-0.0,-1.0,0.1474973287673102,2.0,0.0
35.650634765625,22.05884552001953,-1.9557199478149416,-0.0,-0.0,-1.0,0.0655762715506155,2.0,0.0
37.1544075012207,21.95502471923828,-1.8265266418457031,-0.0,-0.0,-1.0,0.2275929453219685,1.0,0.0
35.42498016357422,22.259037017822266,-1.9268007278442385,-0.0,-0.0,-1.0,0.1119225163630061,2.0,0.0
35.639862060546875,22.248645782470703,-1.9863018989562988,-0.0,-0.0,-1.0,0.0632427386043064,1.0,0.0
36.97353744506836,22.34357452392578,-1.839266300201416,-0.0,-0.0,-1.0,0.153887279753412,2.0,0.0
36.63121032714844,22.71156311035156,-1.8110923767089844,-0.0,-0.0,-1.0,0.1169638352161574,1.0,0.0
37.46257400512695,22.837358474731445,-2.040653705596924,-0.0,-0.0,-1.0,0.0630484818204273,2.0,0.0
37.57668685913086,22.712854385375977,-2.049896717071533,-0.0,-0.0,-1.0,0.0893125039637301,2.0,0.0
37.26050567626953,23.135087966918945,-2.0379629135131836,-0.0,-0.0,-1.0,0.1253163418122425,2.0,0.0
37.03384017944336,22.28229522705078,-2.0262773036956787,-0.0,-0.0,-1.0,0.16433944789844,2.0,0.0
37.29218292236328,22.18321990966797,-2.0816218852996826,0.8310203149270503,-0.2210718499938225,-0.5104238173506936,0.0827670065060521,3.0,0.0
37.61515045166016,22.09395217895508,-2.1577656269073486,-0.0,-0.0,-1.0,0.1374732771654462,1.0,0.0
36.88319778442383,22.685894012451172,-2.058636426925659,-0.7303157843961353,0.521940450136034,-0.4407006031010756,0.0929568490271352,3.0,0.0
37.18049240112305,22.589157104492188,-2.123650312423706,-0.0,-0.0,-1.0,0.0447779986137934,1.0,0.0
36.91739654541016,23.129283905029297,-2.1532886028289795,-0.0,-0.0,-1.0,0.0855216477186776,1.0,0.0
35.411155700683594,22.103681564331055,-1.5397989749908447,-0.0,-0.0,-1.0,0.1383464938981288,1.0,0.0
37.02296447753906,21.84239959716797,-1.9452087879180908,0.1989512049742863,0.9753965885789831,0.0949732226880867,0.1451031468444802,4.0,0.0
36.85728073120117,22.331283569335938,-1.985480546951294,-0.0,-0.0,-1.0,0.2014479429375405,2.0,0.0
36.68779373168945,22.69088554382324,-2.005343198776245,-0.0,-0.0,-1.0,0.2355418856088764,1.0,0.0
37.029579162597656,21.86455345153809,-1.728419542312622,-0.0,-0.0,-1.0,0.2346459959114346,2.0,0.0
36.96086883544922,22.36755752563477,-1.8031318187713623,-0.0,-0.0,-1.0,0.2007558621010001,2.0,0.0
37.600921630859375,22.609609603881836,-2.0299108028411865,0.6305553532528763,-0.0652701154619272,-0.7733949563526561,0.0704026491843454,3.0,0.0
37.22845077514648,23.104171752929688,-2.02276873588562,-0.5841413821274316,0.2219653081332971,-0.7807113728334848,0.1571788471103245,3.0,0.0
37.40890121459961,22.911937713623047,-2.0344717502593994,-0.0,-0.0,-1.0,0.1133385103621541,2.0,0.0
37.56039810180664,23.0970516204834,-1.8681108951568604,-0.0,-0.0,-1.0,0.1429182651867976,2.0,0.0
37.56639862060547,23.081043243408203,-1.8336373567581177,-0.7078126360403276,-0.3963930623358642,-0.584699762607818,0.1556900800537491,4.0,0.0
37.69989013671875,22.73001480102539,-2.019713878631592,0.6721370302741907,0.7186646354418742,-0.1781935865832154,0.1028017435646336,3.0,0.0
37.492042541503906,22.99493408203125,-2.029308557510376,0.5696316590010505,-0.0769086025975156,-0.8182938591424282,0.087326762243925,3.0,0.0
37.149070739746094,23.104076385498047,-1.8692593574523928,-0.0,-0.0,-1.0,0.1124361937929517,2.0,0.0
37.49144744873047,23.070934295654297,-1.9385910034179688,-0.0,-0.0,-1.0,0.0936052092161799,1.0,0.0
37.28572082519531,21.42681121826172,-2.111973285675049,-0.1636728343614586,-0.3868312987892282,-0.9075090906261628,0.034599034458917,3.0,0.0
37.16983795166016,21.12870407104492,-2.099519729614258,-0.0,-0.0,-1.0,0.0218107156479195,1.0,0.0
37.1343879699707,20.719322204589844,-2.0616393089294434,-0.0,-0.0,-1.0,0.0468847831227743,1.0,0.0
37.54400634765625,21.853588104248047,-2.1161317825317383,-0.0,-0.0,-1.0,0.0690247932557667,1.0,0.0
37.369781494140625,21.602893829345703,-2.1172308921813965,0.2122460209198193,-0.6547314797611785,-0.7254504228501363,0.0711927376334297,3.0,0.0
37.5855827331543,20.96014404296875,-2.00496768951416,-0.0,-0.0,-1.0,0.036825924644308,1.0,0.0
37.55462646484375,20.915119171142575,-2.0056052207946777,-0.0,-0.0,-1.0,0.0370977221569204,1.0,0.0
35.31066131591797,22.01498794555664,-1.8784130811691284,-0.0,-0.0,-1.0,0.0716311314792254,1.0,0.0
35.828739166259766,21.274723052978516,-1.7333368062973022,-0.0,-0.0,-1.0,0.1338926389799383,1.0,0.0
35.90041732788086,20.998802185058594,-1.6985865831375122,-0.0,-0.0,-1.0,0.1407848692702855,1.0,0.0
36.24163818359375,22.823219299316406,-1.8175987005233765,-0.0,-0.0,-1.0,0.1120670333429676,1.0,0.0
36.98877716064453,22.13022232055664,-2.1183130741119385,-0.6274236731770345,-0.0495274138912139,-0.7771013895305336,0.1661265874069133,4.0,0.0
36.769962310791016,21.94188690185547,-2.130547046661377,-0.0,-0.0,-1.0,0.1199825832135038,1.0,0.0
36.74852752685547,21.50703239440918,-2.0819575786590576,-0.0,-0.0,-1.0,0.0268706547854072,1.0,0.0
36.72400665283203,21.07638931274414,-2.036067485809326,-0.017668963322335,0.704063179463287,-0.7099174931350554,0.1001811961384154,3.0,0.0
36.615867614746094,20.79059600830078,-2.0219972133636475,-0.0,-0.0,-1.0,0.085771156883047,1.0,0.0
37.279144287109375,22.235069274902344,-2.085194826126098,-0.0,-0.0,-1.0,0.0664150864368797,2.0,0.0
36.8720588684082,21.12438583374023,-2.0168697834014893,-0.0,-0.0,-1.0,0.0923654840737716,2.0,0.0
37.662967681884766,22.23657989501953,-2.0247597694396973,-0.0,-0.0,-1.0,0.135981141256542,1.0,0.0
35.932891845703125,20.823928833007812,-1.517324686050415,0.339323747159157,0.7996970600222585,-0.4953221242844147,0.0688742803630575,3.0,0.0
36.75394821166992,21.7947998046875,-2.1496927738189697,-0.0,-0.0,-1.0,0.1081841572389606,1.0,0.0
37.20664978027344,21.840381622314453,-2.082608938217163,-0.0,-0.0,-1.0,0.1155016857762001,1.0,0.0
36.89739990234375,21.60955047607422,-2.103538751602173,-0.0,-0.0,-1.0,0.103788054952095,1.0,0.0
36.894195556640625,21.212806701660156,-2.0555343627929688,-0.0,-0.0,-1.0,0.0976650952477701,1.0,0.0
36.73408126831055,20.86774444580078,-2.041107177734375,-0.0,-0.0,-1.0,0.082589023034691,1.0,0.0
37.67600631713867,22.18420791625977,-2.0531301498413086,-0.0,-0.0,-1.0,0.1699748632098989,2.0,0.0
37.47687530517578,21.94550323486328,-2.0531134605407715,-0.0,-0.0,-1.0,0.1001967039187098,1.0,0.0
35.92691421508789,20.809585571289062,-1.54457688331604,0.339323747159157,0.7996970600222585,-0.4953221242844147,0.0684452994795378,3.0,0.0
35.98847961425781,20.7047119140625,-1.526134967803955,-0.0,-0.0,-1.0,0.0804182857719962,1.0,0.0
36.13190460205078,22.82269287109375,-2.099496603012085,-0.0,-0.0,-1.0,0.0856244690186194,1.0,0.0
35.937599182128906,22.50220489501953,-2.0910160541534424,-0.0,-0.0,-1.0,0.0279169462643562,1.0,0.0
36.09029769897461,22.201494216918945,-2.033585548400879,-0.0,-0.0,-1.0,0.0650962533205846,1.0,0.0
36.14931869506836,22.011741638183594,-2.00319504737854,-0.0,-0.0,-1.0,0.0702422766595523,1.0,0.0
37.4290885925293,22.98825454711914,-1.9314355850219729,-0.0,-0.0,-1.0,0.2184202999171729,1.0,0.0
37.246864318847656,22.713661193847656,-1.923253297805786,-0.0,-0.0,-1.0,0.1289944432350708,1.0,0.0
36.93577575683594,22.3115177154541,-1.919961929321289,-0.0,-0.0,-1.0,0.1481886248928466,1.0,0.0
36.18059921264648,21.693714141845703,-1.9629967212677,-0.0,-0.0,-1.0,0.0394435423616432,2.0,0.0
36.225460052490234,21.319564819335938,-1.9153940677642824,-0.0,-0.0,-1.0,0.0565258259472479,2.0,0.0
36.145137786865234,21.072673797607425,-1.9015867710113523,-0.0,-0.0,-1.0,0.0592684163094212,2.0,0.0
37.34062194824219,22.63914680480957,-1.9005308151245115,-0.0,-0.0,-1.0,0.2548840367800594,1.0,0.0
37.136566162109375,21.83144760131836,-1.8336708545684817,-0.0,-0.0,-1.0,0.200965018788717,2.0,0.0
36.276493072509766,21.203433990478516,-1.8949098587036133,-0.0,-0.0,-1.0,0.0553924055240387,1.0,0.0
36.17945098876953,20.80920028686523,-1.8687927722930908,-0.0,-0.0,-1.0,0.1359901681224284,1.0,0.0
35.66057586669922,22.897878646850582,-2.097769260406494,-0.0,-0.0,-1.0,0.0115550755104094,1.0,0.0
35.6192626953125,22.806915283203125,-2.0939178466796875,-0.0,-0.0,-1.0,0.0100887838804806,1.0,0.0
36.430477142333984,23.00770568847656,-1.9971896409988403,-0.0,-0.0,-1.0,0.1747067450699458,2.0,0.0
35.8686637878418,22.93637466430664,-2.071230411529541,-0.0,-0.0,-1.0,0.0244193504458726,1.0,0.0
35.58781051635742,22.628129959106445,-2.0791993141174316,-0.0,-0.0,-1.0,0.0114095765754905,1.0,0.0
36.45133209228515,22.8326473236084,-1.9741209745407104,-0.0,-0.0,-1.0,0.2118866164764794,1.0,0.0
35.78818130493164,22.163074493408203,-1.9991356134414673,-0.0,-0.0,-1.0,0.0919316631175984,1.0,0.0
37.27696990966797,22.58607482910156,-1.82638156414032,-0.0,-0.0,-1.0,0.188647926939419,1.0,0.0
35.94881057739258,21.93056297302246,-1.9501582384109497,0.1116710130386803,-0.9936259964253557,0.0153936374724791,0.0587381926965153,3.0,0.0
35.93357849121094,21.789588928222656,-1.937755465507507,-0.0,-0.0,-1.0,0.0734166048655243,1.0,0.0
37.38153076171875,22.575700759887695,-1.8102093935012815,-0.0,-0.0,-1.0,0.1789092966940151,1.0,0.0
36.96184921264648,22.229379653930664,-1.8311387300491333,0.4852483120060324,0.467533858252017,-0.7388817003304919,0.1951966338859998,3.0,0.0
36.114646911621094,21.339065551757812,-1.8635920286178589,-0.0,-0.0,-1.0,0.0443110582484501,1.0,0.0
36.108253479003906,21.04513168334961,-1.8349884748458865,-0.0,-0.0,-1.0,0.0820634816222873,1.0,0.0
36.15114974975586,20.772052764892575,-1.8014284372329712,-0.0,-0.0,-1.0,0.1099934065647215,1.0,0.0
37.33118438720703,22.337631225585938,-2.095844268798828,-0.0,-0.0,-1.0,0.0524897121507989,2.0,0.0
36.99315643310547,22.176105499267575,-2.1250314712524414,-0.6274236731770345,-0.0495274138912139,-0.7771013895305336,0.1265670668796167,4.0,0.0
37.652252197265625,22.31913185119629,-2.0450267791748047,-0.0,-0.0,-1.0,0.0746041155590425,1.0,0.0
37.40415954589844,22.133987426757812,-2.0566725730895996,-0.0,-0.0,-1.0,0.0890237605504276,2.0,0.0
36.97914123535156,22.02295684814453,-2.10657262802124,-0.0,-0.0,-1.0,0.1189246534703148,1.0,0.0
36.82145690917969,21.835674285888672,-2.10609769821167,-0.0,-0.0,-1.0,0.096380871720251,1.0,0.0
36.87637710571289,21.47235870361328,-2.0499730110168457,-0.0,-0.0,-1.0,0.0476297647809691,1.0,0.0
36.74261474609375,21.138776779174805,-2.0284957885742188,-0.0,-0.0,-1.0,0.1056377548548175,2.0,0.0
36.54722595214844,20.881149291992188,-2.027891159057617,-0.0,-0.0,-1.0,0.0620117018337705,1.0,0.0
36.90513610839844,21.15991973876953,-2.005215644836426,0.1790441319643638,0.1521261959135954,-0.9720086518781536,0.0934720069567958,3.0,0.0
36.67439270019531,20.905778884887695,-2.0104284286499023,-0.0,-0.0,-1.0,0.115938541005885,1.0,0.0
35.97146987915039,20.98857879638672,-1.5211867094039917,0.8661022062993702,0.351757215514889,-0.3551532480163672,0.1201442396865634,3.0,0.0
35.870182037353516,20.844038009643555,-1.5204898118972778,-0.0,-0.0,-1.0,0.0484236711167658,1.0,0.0
36.99382781982422,22.15874290466309,-2.12211537361145,-0.6274236731770345,-0.0495274138912139,-0.7771013895305336,0.1222419316150883,4.0,0.0
36.85692596435547,22.086994171142575,-2.133695125579834,-0.0,-0.0,-1.0,0.1060011082287818,1.0,0.0
36.774436950683594,21.890928268432617,-2.1199612617492676,-0.0,-0.0,-1.0,0.1285444352321327,2.0,0.0
37.50484848022461,22.21786117553711,-2.0513696670532227,-0.0,-0.0,-1.0,0.1179728683016669,2.0,0.0
37.26064682006836,22.142044067382812,-2.0782437324523926,-0.0,-0.0,-1.0,0.0907759117133728,2.0,0.0
36.83781814575195,21.688751220703125,-2.0825231075286865,-0.0,-0.0,-1.0,0.0994346210626802,1.0,0.0
36.820709228515625,21.385822296142575,-2.044914484024048,-0.0,-0.0,-1.0,0.0611170879074949,1.0,0.0
36.74989700317383,21.095016479492188,-2.018238306045532,0.605725876895124,-0.084648340944202,-0.7911578985480882,0.1052341918289306,3.0,0.0
36.621482849121094,20.87560272216797,-2.011181354522705,-0.0,-0.0,-1.0,0.0875557139869211,1.0,0.0
35.99617385864258,20.837587356567383,-1.5164315700531006,0.5914435956531987,-0.0230445558355224,-0.806017010743048,0.0674272028504805,3.0,0.0
36.51091003417969,22.977954864501953,-2.117466449737549,-0.0,-0.0,-1.0,0.1312127550235602,1.0,0.0
36.435604095458984,22.64441299438477,-2.078706741333008,-0.0,-0.0,-1.0,0.0665969169269908,1.0,0.0
36.25375747680664,22.553482055664062,-2.091139316558838,-0.0,-0.0,-1.0,0.0175328805553844,1.0,0.0
36.283233642578125,22.27347183227539,-2.0466151237487793,-0.0,-0.0,-1.0,0.0622904864288165,1.0,0.0
36.20764923095703,22.123550415039062,-2.036159038543701,-0.0,-0.0,-1.0,0.0794549833755493,1.0,0.0
37.65094375610352,20.67434310913086,-2.153475761413574,-0.0,-0.0,-1.0,0.036356725579085,1.0,0.0
37.33203887939453,23.018360137939453,-2.0125293731689453,-0.0,-0.0,-1.0,0.1314888231403559,2.0,0.0
37.60997772216797,22.92821502685547,-1.9619051218032837,0.9492245041185928,-0.0207927427177056,0.313911615954374,0.1276239259245273,4.0,0.0
37.36947250366211,22.817279815673828,-1.9769467115402224,0.2508255288896366,0.7837217894103554,-0.5682136137586502,0.1691291553676166,3.0,0.0
36.971004486083984,22.29863166809082,-1.9532324075698853,-0.0,-0.0,-1.0,0.1686209312634348,2.0,0.0
36.282508850097656,22.01087951660156,-2.0093836784362793,-0.0,-0.0,-1.0,0.0416612632600468,1.0,0.0
37.14186096191406,21.806129455566406,-1.857282042503357,-0.0,-0.0,-1.0,0.165846519294111,2.0,0.0
36.25898742675781,21.74919891357422,-1.9761258363723757,-0.0,-0.0,-1.0,0.0491044597072818,1.0,0.0
36.196250915527344,21.708873748779297,-1.9796677827835083,-0.0,-0.0,-1.0,0.0394435423616432,2.0,0.0
36.243629455566406,21.34410285949707,-1.922551512718201,-0.0,-0.0,-1.0,0.0461089709949711,2.0,0.0
36.11978912353515,21.192237854003903,-1.920432686805725,-0.0,-0.0,-1.0,0.0642151633134455,2.0,0.0
36.1351432800293,20.86142921447754,-1.8740354776382449,-0.0,-0.0,-1.0,0.1275236610888514,1.0,0.0
36.11384963989258,21.088478088378903,-1.9074162244796753,-0.0,-0.0,-1.0,0.084623966279374,2.0,0.0
36.09312057495117,20.653060913085938,-1.8531144857406616,-0.0,-0.0,-1.0,0.1029288635995805,1.0,0.0
35.975704193115234,22.243614196777344,-1.05745267868042,-0.0,-0.0,-1.0,0.1644402372234239,1.0,0.0
35.413177490234375,22.30077362060547,-1.126962423324585,-0.0,-0.0,-1.0,0.0790313328176134,1.0,0.0
35.72999572753906,21.672687530517575,-1.0283915996551514,-0.0,-0.0,-1.0,0.071366250939483,1.0,0.0
35.80514907836914,21.300708770751953,-0.9841530323028564,-0.0,-0.0,-1.0,0.1952089340144656,1.0,0.0
35.80099868774414,20.988590240478516,-0.9560575485229492,-0.0,-0.0,-1.0,0.2219902903537028,1.0,0.0
35.708438873291016,20.7784423828125,-0.9489552974700928,-0.0,-0.0,-1.0,0.1958090156966613,1.0,0.0
35.64408874511719,20.66524887084961,-0.9473390579223632,-0.0,-0.0,-1.0,0.163039286782832,1.0,0.0
37.539554595947266,22.36722946166992,-1.9423646926879885,-0.0,-0.0,-1.0,0.1288081519126987,1.0,0.0
37.16572570800781,22.513086318969727,-2.026592969894409,-0.0,-0.0,-1.0,0.0917260589632539,1.0,0.0
36.95689392089844,22.498233795166016,-2.0605084896087646,-0.0,-0.0,-1.0,0.1261351134071506,1.0,0.0
36.99409484863281,22.27536392211914,-2.023510217666626,-0.0,-0.0,-1.0,0.2108262268720872,2.0,0.0
36.63451385498047,22.29846572875977,-2.089827537536621,-0.6748961232260706,0.3249216826418915,-0.662526318725213,0.0661641010400238,3.0,0.0
36.46852111816406,22.01386070251465,-2.0817670822143555,-0.0,-0.0,-1.0,0.0128259707558573,1.0,0.0
36.41426467895508,21.482200622558594,-2.023555278778076,-0.0,-0.0,-1.0,0.0275483330912448,1.0,0.0
36.3355712890625,21.66775894165039,-2.0614020824432373,-0.0,-0.0,-1.0,0.0331191455154934,1.0,0.0
36.34897232055664,21.11925506591797,-1.990677833557129,-0.0,-0.0,-1.0,0.0417842038703663,1.0,0.0
36.142486572265625,20.754981994628903,-1.986365795135498,-0.0,-0.0,-1.0,0.0818863398300659,1.0,0.0
37.25904083251953,23.052474975585938,-1.9869589805603027,-0.0,-0.0,-1.0,0.1223200649752348,2.0,0.0
36.97431564331055,21.89169692993164,-1.8740391731262207,-0.0,-0.0,-1.0,0.203812238335504,1.0,0.0
36.772186279296875,22.33524703979492,-1.9687716960906985,-0.0,-0.0,-1.0,0.193224552103286,1.0,0.0
36.48526382446289,22.65298843383789,-2.061399221420288,-0.0,-0.0,-1.0,0.1252643906327755,1.0,0.0
36.37907409667969,22.781513214111328,-2.096997022628784,-0.0,-0.0,-1.0,0.154734112949212,2.0,0.0
37.65437698364258,20.89834213256836,-2.118922233581543,-0.0,-0.0,-1.0,0.036825924644308,1.0,0.0
36.914100646972656,21.844539642333984,-1.878223657608032,-0.0,-0.0,-1.0,0.1281943919367917,2.0,0.0
36.14859771728515,22.191850662231445,-2.0584359169006348,-0.0,-0.0,-1.0,0.0804022054241595,1.0,0.0
36.124961853027344,22.40023422241211,-2.0899734497070312,-0.0,-0.0,-1.0,0.0676482241828963,1.0,0.0
36.25465393066406,21.66572380065918,-1.9716501235961912,-0.0,-0.0,-1.0,0.0337994284133693,1.0,0.0
36.21656799316406,21.989368438720703,-2.0200319290161133,-0.0,-0.0,-1.0,0.0427568822940422,1.0,0.0
36.12413024902344,21.20169258117676,-1.9370465278625488,-0.0,-0.0,-1.0,0.0642151633134454,2.0,0.0
36.132850646972656,21.311664581298828,-1.9491512775421145,-0.0,-0.0,-1.0,0.0445517606676587,1.0,0.0
35.993377685546875,20.85802841186523,-1.919527292251587,-0.0,-0.0,-1.0,0.0782996006095861,1.0,0.0
36.00394058227539,21.105207443237305,-1.9473166465759275,-0.0,-0.0,-1.0,0.0675016780772586,1.0,0.0
35.56013107299805,21.110090255737305,-1.4786438941955566,-0.0,-0.0,-1.0,0.1162329564333417,1.0,0.0
35.463539123535156,20.98293113708496,-1.481682538986206,0.55562272378964,0.6769339611943381,-0.4827461040654017,0.1216938583111549,4.0,0.0
37.52445602416992,22.744171142578125,-2.005776643753052,0.1811693963389018,0.2754564824829316,-0.9440875892036332,0.0996370763579822,4.0,0.0
37.36214447021485,22.78318977355957,-2.041755437850952,-0.0,-0.0,-1.0,0.1061232984624993,1.0,0.0
37.096378326416016,22.744386672973633,-2.085296869277954,-0.0,-0.0,-1.0,0.0578204840812118,2.0,0.0
36.9117546081543,22.761131286621097,-2.1224005222320557,-0.0,-0.0,-1.0,0.0395334236602715,1.0,0.0
36.8302001953125,22.45050048828125,-2.0909464359283447,-0.0,-0.0,-1.0,0.1701377830680162,1.0,0.0
36.69035339355469,22.471023559570312,-2.1209144592285156,-0.0,-0.0,-1.0,0.1170287975322318,1.0,0.0
36.62895202636719,22.125423431396484,-2.0820188522338867,-0.0,-0.0,-1.0,0.0473928958634942,1.0,0.0
36.443389892578125,22.140159606933594,-2.1205999851226807,-0.0,-0.0,-1.0,0.0379639660624072,2.0,0.0
36.466094970703125,21.779983520507812,-2.0646982192993164,-0.0,-0.0,-1.0,0.0210157396050958,1.0,0.0
37.660152435302734,22.692642211914062,-1.9728128910064695,-0.0,-0.0,-1.0,0.1645508008216852,2.0,0.0
37.094139099121094,22.17609405517578,-1.999091863632202,-0.0,-0.0,-1.0,0.1244285119248263,1.0,0.0
36.55744934082031,21.37292861938477,-1.9893317222595217,-0.0,-0.0,-1.0,0.0370684614019215,1.0,0.0
36.473350524902344,21.54277610778809,-2.0299460887908936,-0.0,-0.0,-1.0,0.0240808633342225,1.0,0.0
36.4711799621582,21.162155151367188,-1.978165626525879,-0.0,-0.0,-1.0,0.0295103892235182,1.0,0.0
36.36522674560547,21.292030334472656,-2.0174872875213623,-0.0,-0.0,-1.0,0.0356820881390192,1.0,0.0
35.370262145996094,22.075836181640625,-1.780325174331665,-0.0,-0.0,-1.0,0.2430001579967105,1.0,0.0
36.22899627685547,20.84950256347656,-1.986963987350464,-0.0,-0.0,-1.0,0.0479966771347244,1.0,0.0
35.977134704589844,20.94742202758789,-1.5481352806091309,-0.3693465855960088,-0.0874229322970031,-0.9251704332808977,0.0941049601831145,5.0,0.0
37.52337265014648,22.969873428344727,-2.005143642425537,0.5696316590010505,-0.0769086025975156,-0.8182938591424282,0.0855834254714395,3.0,0.0
37.22125625610352,22.968360900878903,-2.063774347305298,-0.0,-0.0,-1.0,0.1004002623919124,2.0,0.0
36.82855987548828,23.00804901123047,-2.149341583251953,-0.0,-0.0,-1.0,0.0350543513450093,1.0,0.0
36.701446533203125,22.82862091064453,-2.1427266597747803,-0.0,-0.0,-1.0,0.0754110530986693,1.0,0.0
36.88582992553711,22.327098846435547,-2.015091896057129,-0.0,-0.0,-1.0,0.2124228202886571,2.0,0.0
36.5763053894043,22.400222778320312,-2.0929434299468994,-0.0,-0.0,-1.0,0.0242681983022738,1.0,0.0
36.384300231933594,22.31543731689453,-2.1190621852874756,-0.0,-0.0,-1.0,0.0385211394657315,1.0,0.0
36.84115982055664,21.984596252441406,-1.9643852710723877,-0.0,-0.0,-1.0,0.1169994534182498,1.0,0.0
36.33562469482422,21.920589447021484,-2.062652587890625,-0.0,-0.0,-1.0,0.0487205746862232,1.0,0.0
36.29779052734375,22.183738708496097,-2.1152544021606445,-0.0,-0.0,-1.0,0.0410624083103133,1.0,0.0
36.337867736816406,21.60846710205078,-2.010460376739502,-0.0,-0.0,-1.0,0.0356205457049478,1.0,0.0
36.20774841308594,21.271728515625,-1.9854369163513184,-0.0,-0.0,-1.0,0.0595311391811842,1.0,0.0
