x,y,z,nx,ny,nz,curvature,density,label
13.655359268188477,-6.991764068603516,0.4366407394409179,-0.0,-0.0,-1.0,0.1888337764280955,2.0,1.0
13.550247192382812,-7.143233299255371,0.4410006999969482,-0.0,-0.0,-1.0,0.2188380838087253,1.0,1.0
12.95546054840088,-7.237697601318359,0.3513774871826172,-0.8374971420258053,-0.0071044704062959,0.5463955193802872,0.118118087065148,6.0,1.0
12.826839447021484,-7.288796424865723,0.3357381820678711,-0.0,-0.0,-1.0,0.1039069084014884,2.0,1.0
14.665576934814451,-8.156781196594238,0.7768857479095459,-0.0,-0.0,-1.0,0.2078989462240186,2.0,1.0
14.0023193359375,-7.406063079833984,0.5555782318115234,0.8708529832902492,-0.3005566801052678,-0.3889482787448388,0.1668096683666626,3.0,1.0
13.694210052490234,-8.592375755310059,0.6712081432342529,0.9745874179552936,0.0409628905875432,-0.2202303484035457,0.2171702893508861,4.0,1.0
13.58639430999756,-7.799742698669434,0.541433572769165,-0.0,-0.0,-1.0,0.1370990303075244,2.0,1.0
13.350049018859863,-7.124621391296387,0.8636693954467773,-0.0,-0.0,-1.0,0.1158557354152354,1.0,1.0
13.198546409606934,-7.891508102416992,0.4856374263763428,-0.1480249249812075,0.7444403118324633,-0.6510739156985886,0.1649109726372235,8.0,1.0
12.927290916442873,-8.90683364868164,0.5711145401000977,-0.0,-0.0,-1.0,0.1994700331409209,1.0,1.0
12.816519737243652,-8.531264305114746,0.5014846324920654,-0.0,-0.0,-1.0,0.0306648207362395,2.0,1.0
12.72921371459961,-8.264315605163574,0.4501457214355469,-0.0,-0.0,-1.0,0.0840208479896751,1.0,1.0
12.758135795593262,-9.308523178100586,0.5892548561096191,-0.0,-0.0,-1.0,0.1517911398203245,2.0,1.0
12.725386619567873,-8.69225788116455,0.5051426887512207,-0.0,-0.0,-1.0,0.0701666693060814,2.0,1.0
14.852283477783203,-9.30878448486328,0.9763007164001464,-0.0,-0.0,-1.0,0.1173920556919666,1.0,1.0
13.731639862060549,-8.652568817138672,1.0939016342163086,0.7449412098232887,0.4488067722804919,-0.4935940387222906,0.1715918404041307,3.0,2.0
13.592859268188477,-8.464908599853516,1.0516319274902344,-0.0,-0.0,-1.0,0.189741715712396,2.0,2.0
13.52695083618164,-8.634797096252441,1.0598161220550537,-0.5488240643142644,-0.0495392453343675,-0.8344686989943201,0.2007788849648044,5.0,2.0
13.15160083770752,-7.790613174438477,0.9085369110107422,-0.0,-0.0,-1.0,0.2081656447933258,2.0,1.0
14.899267196655272,-7.1678009033203125,0.2511370182037353,-0.0,-0.0,-1.0,0.0768800846158606,1.0,1.0
14.63727569580078,-7.519985198974609,0.2761969566345215,-0.0,-0.0,-1.0,0.0366304804086163,2.0,1.0
14.736908912658691,-7.331877708435059,0.2558848857879638,-0.0,-0.0,-1.0,0.0734831856286804,1.0,1.0
15.103435516357422,-7.585533142089844,0.3757905960083008,-0.4312384645233054,-0.9018502455922628,-0.0264484638638375,0.0875490135598654,3.0,1.0
14.58625030517578,-8.12890338897705,0.3894655704498291,-0.0,-0.0,-1.0,0.2077051341173812,1.0,1.0
14.2952299118042,-8.430335998535156,0.3902664184570312,-0.0,-0.0,-1.0,0.0923948637525281,1.0,1.0
13.9690523147583,-7.518616676330566,0.5508105754852295,-0.0,-0.0,-1.0,0.1256877284430424,1.0,1.0
13.621614456176758,-6.929537773132324,0.3903467655181885,-0.0,-0.0,-1.0,0.1453109722793085,1.0,1.0
13.559440612792969,-7.761447906494141,0.5164093971252441,-0.6493883512874842,0.7315329297732585,-0.2077362314799123,0.1145678733643242,3.0,1.0
13.238407135009766,-7.066495895385742,0.343890905380249,0.9458314193307396,0.0869104362892044,0.312809050813462,0.2140994897690821,4.0,1.0
13.204313278198242,-7.891766548156738,0.4701733589172363,-0.1543606320607054,0.79817556057085,-0.5823131200455892,0.1940185317478121,8.0,1.0
12.956850051879885,-7.32260799407959,0.3332135677337646,-0.0,-0.0,-1.0,0.1179640460494842,2.0,1.0
12.828669548034668,-8.537714004516602,0.4942677021026611,-0.0,-0.0,-1.0,0.0323412826953499,2.0,1.0
12.791433334350586,-8.163248062133789,0.4310915470123291,-0.0,-0.0,-1.0,0.1514007917273117,1.0,1.0
14.124136924743652,-7.130882263183594,0.9182310104370116,-0.0,-0.0,-1.0,0.0809509493153361,1.0,1.0
14.397924423217772,-8.497254371643066,0.7904279232025146,-0.0,-0.0,-1.0,0.1871101739294129,1.0,1.0
13.768095016479492,-8.601091384887695,0.6893796920776367,-0.0,-0.0,-1.0,0.1695018945474701,2.0,1.0
13.501572608947754,-7.650712966918945,0.8924510478973389,-0.0,-0.0,-1.0,0.1325962845927173,1.0,1.0
13.257728576660156,-7.717608451843262,0.8613729476928711,-0.0,-0.0,-1.0,0.1998256881222202,1.0,1.0
13.368427276611328,-7.086455345153809,0.7951023578643799,-0.0,-0.0,-1.0,0.1515705886400946,2.0,1.0
13.641963958740234,-8.671609878540039,0.6759543418884277,-0.9494129676127504,-0.0194164255292121,-0.3134294487574826,0.2003223342265751,3.0,1.0
13.12179946899414,-7.858114242553711,0.8569607734680176,-0.3912548084316349,0.6474882887004085,0.6539713991260938,0.2320993663763119,3.0,1.0
12.778562545776367,-9.328120231628418,0.785214900970459,-0.0,-0.0,-1.0,0.1089763692410506,1.0,1.0
13.722009658813477,-8.647147178649902,1.2442021369934082,0.6171400327803389,0.7169927637339585,-0.3241289198652645,0.2135036978518363,4.0,2.0
13.592267990112305,-8.64572525024414,1.2215954065322876,-0.0910058397905674,-0.1662961214688883,-0.9818673724635208,0.2132498807231121,6.0,2.0
14.778250694274902,-7.907224178314209,0.6370575428009033,-0.7133315423570301,0.6578906720631879,-0.2415325532734409,0.1965511707331673,3.0,1.0
14.682373046875,-7.134415626525879,0.4530131816864013,-0.0,-0.0,-1.0,0.1750589047508857,2.0,1.0
14.512706756591797,-8.18708610534668,0.6466567516326904,-0.0,-0.0,-1.0,0.1521588107487609,2.0,1.0
13.983670234680176,-7.260495185852051,0.3537228107452392,-0.0,-0.0,-1.0,0.1487678232187921,2.0,1.0
13.902236938476562,-7.476159572601318,0.3829705715179443,-0.0,-0.0,-1.0,0.1769291326353831,1.0,1.0
13.587198257446287,-7.20604419708252,0.266533613204956,-0.0,-0.0,-1.0,0.1163195040054442,1.0,1.0
13.735976219177246,-8.621763229370117,0.5773005485534668,0.2229884512762897,-0.9676809876543286,-0.1177695067907852,0.1881739486257674,5.0,1.0
13.44679832458496,-7.755795001983643,0.3489730358123779,-0.0,-0.0,-1.0,0.1888378358843724,2.0,1.0
13.465143203735352,-7.502811431884766,0.3026101589202881,0.9164778612013076,-0.0162331033111576,-0.3997559459029547,0.0775842954670956,3.0,1.0
13.255022048950195,-7.006326675415039,0.5578887462615967,0.9916452779059772,-0.0877806142148302,0.0945209319401995,0.2012456735428549,3.0,1.0
13.531381607055664,-8.643440246582031,0.5377476215362549,0.7077442037940314,-0.6649118595157254,-0.2387265403579856,0.1787969569386144,4.0,1.0
13.26783275604248,-8.261510848999023,0.4092307090759277,-0.0,-0.0,-1.0,0.0754601706720875,1.0,1.0
13.297927856445312,-7.908290386199951,0.3482871055603027,-0.0,-0.0,-1.0,0.1520329686141474,1.0,1.0
13.15224838256836,-8.780227661132812,0.4800496101379394,-0.0,-0.0,-1.0,0.0274655540318133,1.0,1.0
12.936485290527344,-9.08680534362793,0.4855141639709472,-0.0,-0.0,-1.0,0.1212805972093834,1.0,1.0
13.965431213378906,-7.187857627868652,0.7106680870056152,-0.0,-0.0,-1.0,0.1239866146585779,2.0,1.0
14.287325859069824,-8.455682754516602,0.6576883792877197,-0.0,-0.0,-1.0,0.1482608047872212,1.0,1.0
13.72255802154541,-8.52185344696045,0.897545576095581,-0.0,-0.0,-1.0,0.1358005482363439,1.0,1.0
13.552684783935549,-7.713001251220703,0.7314715385437012,-0.0,-0.0,-1.0,0.1122093167537331,2.0,1.0
13.642120361328123,-8.65635871887207,0.9044506549835204,-0.7722037132604671,0.5970096231459369,-0.2174417970351903,0.262652687056526,5.0,1.0
13.207083702087402,-7.786320209503174,0.6813523769378662,-0.0,-0.0,-1.0,0.249818859055621,2.0,1.0
12.771221160888672,-9.337181091308594,0.8357715606689453,-0.0,-0.0,-1.0,0.1006203392032312,1.0,1.0
13.766990661621094,-8.538576126098633,1.2433791160583496,-0.0,-0.0,-1.0,0.1195858950245758,1.0,2.0
13.576498031616213,-8.627449035644531,1.2245639562606812,-0.2952659036526547,0.5139698539224751,-0.8053899896317874,0.1814080161692879,5.0,2.0
14.046075820922852,-7.202600002288818,0.534841775894165,-0.0,-0.0,-1.0,0.132338648628403,1.0,1.0
13.411962509155272,-7.056256294250488,0.3775322437286377,-0.0,-0.0,-1.0,0.2113361685834462,1.0,1.0
13.221551895141602,-7.860774993896484,0.506432294845581,-0.2514145045441877,0.8440797553136443,-0.4736244435989962,0.2071501970862237,6.0,1.0
12.989450454711914,-7.26617956161499,0.3342483043670654,0.2712901833035578,0.8224609913618608,-0.4999595524951867,0.1141639066067751,4.0,1.0
13.145090103149414,-7.942850112915039,0.5063354969024658,0.6299233615019845,-0.4933071253193027,-0.5998705183147827,0.143617832118974,3.0,1.0
12.947797775268556,-7.601449966430664,0.3941283226013183,-0.0,-0.0,-1.0,0.0400885830405662,1.0,1.0
12.848726272583008,-7.30612850189209,0.3123655319213867,-0.0,-0.0,-1.0,0.0401649768165818,2.0,1.0
14.480816841125488,-8.133859634399414,0.8257691860198975,-0.0,-0.0,-1.0,0.1891740180705785,1.0,1.0
14.270692825317385,-7.347806453704834,0.6103641986846924,-0.0,-0.0,-1.0,0.23445331502441,1.0,1.0
13.932538986206056,-7.298099517822266,0.7036654949188232,-0.0,-0.0,-1.0,0.1747658098566924,2.0,1.0
13.361766815185549,-7.0734453201293945,0.7268743515014648,-0.0,-0.0,-1.0,0.1666149351189428,2.0,1.0
13.705504417419434,-8.658681869506836,0.7735378742218018,-0.0,-0.0,-1.0,0.1826986626693361,2.0,1.0
13.56873607635498,-7.741970539093018,0.5559401512145996,-0.9974138761582017,-0.013934091627393,-0.0705081607871858,0.1242033216576415,5.0,1.0
13.225542068481444,-7.7758331298828125,0.828826904296875,-0.0,-0.0,-1.0,0.268724315144144,2.0,1.0
13.56118392944336,-8.67721939086914,0.7451307773590088,-0.0,-0.0,-1.0,0.1629688366251699,2.0,1.0
13.151755332946776,-8.0200777053833,0.523322582244873,0.9113647993121168,-0.1274149903735709,-0.3913816842966569,0.2188426221873093,5.0,1.0
12.830284118652344,-7.820375919342041,0.7598934173583984,-0.0,-0.0,-1.0,0.1005071784234913,1.0,1.0
13.054017066955566,-9.10119915008545,0.707892656326294,-0.0,-0.0,-1.0,0.2766833653130487,1.0,1.0
12.74911117553711,-9.316096305847168,0.671821117401123,-0.6490942845269791,-0.3490454047124098,0.6759022971136871,0.1149709141674873,5.0,1.0
13.714295387268066,-8.644527435302734,1.0750367641448977,0.7449412098232887,0.4488067722804919,-0.4935940387222906,0.1672276755097038,3.0,2.0
13.616703987121582,-8.495323181152344,1.0302190780639648,-0.8208195345497573,-0.3023287730813375,-0.4846159352194817,0.2136641700515272,3.0,2.0
13.554736137390137,-8.637972831726074,1.0426080226898191,-0.0714015170210375,0.1675537596219929,-0.983273899279153,0.1824016709477518,5.0,2.0
13.542168617248535,-8.673393249511719,1.346692681312561,-0.8574245339245147,0.2434132463085306,0.4534017646038347,0.1883381400221779,5.0,2.0
14.089749336242676,-7.156193256378174,0.8475632667541504,-0.0,-0.0,-1.0,0.1175694692288941,1.0,1.0
13.332853317260742,-6.999898433685303,0.6574454307556152,-0.0,-0.0,-1.0,0.1748567309941772,1.0,1.0
13.252115249633787,-6.993810653686523,0.638897180557251,0.8542608722578925,0.1123838555401799,-0.5075512103651305,0.1556732365081891,4.0,1.0
13.183265686035156,-7.735974311828613,0.7757935523986816,-0.0,-0.0,-1.0,0.1840856377823719,1.0,1.0
13.066760063171388,-7.957698345184326,0.7924542427062988,-0.0,-0.0,-1.0,0.1383421010358132,1.0,1.0
13.846959114074709,-7.117876052856445,1.091804265975952,-0.6486091182638111,-0.5634065488656674,-0.5117414116527208,0.1179929071345364,4.0,2.0
13.814828872680664,-8.605575561523438,1.092545747756958,-0.0,-0.0,-1.0,0.1886100072052091,2.0,2.0
13.641412734985352,-8.565618515014648,1.177626371383667,0.118333788190706,-0.458648292197592,-0.880703615660041,0.1620445180434118,4.0,2.0
13.529484748840332,-8.656721115112305,1.3016020059585571,-0.7511991871896934,-0.6179227285086281,-0.2321018801259402,0.2246168800553385,4.0,2.0
12.771110534667969,-9.352386474609377,0.967047929763794,-0.0,-0.0,-1.0,0.0968369830194592,2.0,1.0
13.279963493347168,-6.8628458976745605,0.7218203544616699,-0.0,-0.0,-1.0,0.1323176587169442,1.0,1.0
13.778867721557615,-7.075355052947998,1.1501089334487915,-0.0,-0.0,-1.0,0.113421840119344,1.0,2.0
13.35084342956543,-7.095005035400391,0.7907114028930664,-0.0,-0.0,-1.0,0.1515705886400945,2.0,1.0
13.61109447479248,-8.54806900024414,1.167466640472412,0.0071759448527066,-0.4916903697232924,-0.8707405389304226,0.28992701706561,3.0,2.0
13.313634872436523,-7.663650035858154,0.9077913761138916,-0.0,-0.0,-1.0,0.1111082399925971,1.0,1.0
13.520094871520996,-8.610368728637695,1.157091498374939,0.5919146506489688,0.177608132513005,-0.786188525490135,0.1603469268698599,3.0,2.0
13.089483261108398,-7.781106948852539,0.8787357807159424,-0.0,-0.0,-1.0,0.1439630373068645,1.0,1.0
13.721590042114258,-8.562944412231445,1.3141896724700928,-0.0,-0.0,-1.0,0.1609183313975884,2.0,2.0
13.523967742919922,-8.704499244689941,1.406750202178955,-0.0,-0.0,-1.0,0.1565891584535071,2.0,2.0
14.753750801086426,-9.240039825439451,0.6143176555633545,-0.0,-0.0,-1.0,0.2031606707762758,1.0,1.0
14.264007568359377,-9.347610473632812,0.5358026027679443,0.3257328084594215,-0.1733947162848161,-0.9294258495746962,0.1028313898109206,3.0,1.0
14.611547470092772,-9.177845001220703,0.5311095714569092,-0.0,-0.0,-1.0,0.1108415548345785,1.0,1.0
13.71133518218994,-8.581268310546875,0.5932917594909668,-0.0,-0.0,-1.0,0.2112432046638273,2.0,1.0
15.196252822875977,-9.335094451904297,0.6408984661102295,-0.0,-0.0,-1.0,0.1729031879103563,1.0,1.0
14.594989776611328,-9.299301147460938,0.6596152782440186,-0.0,-0.0,-1.0,0.1273174203281611,2.0,1.0
13.720314025878906,-8.668563842773438,0.7126400470733643,0.0729501841133441,0.3269793191460462,-0.9422116511106288,0.1455247024708307,4.0,1.0
13.423601150512695,-8.749893188476562,0.8549883365631104,-0.0,-0.0,-1.0,0.1685513751012396,1.0,1.0
12.89770793914795,-8.931930541992188,0.6508538722991943,-0.0,-0.0,-1.0,0.2312502528711137,1.0,1.0
13.545310020446776,-8.18035888671875,0.6711000204086304,-0.0,-0.0,-1.0,0.1621791162280357,1.0,1.0
14.100358963012695,-8.812061309814453,0.6181855201721191,-0.0,-0.0,-1.0,0.1500839968013861,1.0,1.0
13.64588451385498,-7.930309295654297,0.6802194118499756,-0.0,-0.0,-1.0,0.2483671761722812,1.0,1.0
13.11978530883789,-7.415210723876953,0.7256674766540527,-0.0,-0.0,-1.0,0.1321269765434738,1.0,1.0
13.00175666809082,-9.058235168457031,0.7177196741104126,-0.0,-0.0,-1.0,0.1725804536040185,1.0,1.0
13.716852188110352,-8.693252563476562,0.7100147008895874,0.0729501841133441,0.3269793191460462,-0.9422116511106288,0.2099171441218917,4.0,1.0
15.195016860961914,-9.238861083984377,0.6246682405471802,-0.0,-0.0,-1.0,0.2035813359188178,2.0,1.0
14.764660835266112,-7.986545562744141,0.7048988342285156,-0.0,-0.0,-1.0,0.1802487066906269,2.0,1.0
14.893359184265137,-8.120059967041016,0.6930135488510132,-0.0,-0.0,-1.0,0.1300155835184949,2.0,1.0
14.653793334960938,-7.95353889465332,0.8097560405731201,-0.0,-0.0,-1.0,0.1643888871568824,2.0,1.0
12.770903587341309,-9.324201583862305,0.562328577041626,-0.0,-0.0,-1.0,0.1419990589055191,2.0,1.0
12.974209785461426,-8.079832077026367,0.6271666288375854,-0.0,-0.0,-1.0,0.2212229291272035,1.0,1.0
13.085238456726074,-7.83930778503418,0.6373903751373291,0.9353958293996282,0.2267045701418056,-0.2713663210838831,0.1741649270700191,6.0,1.0
13.4795503616333,-8.923116683959961,0.5625438690185547,-0.0,-0.0,-1.0,0.0882401604418192,2.0,1.0
13.860503196716309,-9.354272842407228,0.5251419544219971,-0.0,-0.0,-1.0,0.0482999193716398,1.0,1.0
13.707728385925291,-8.637876510620117,0.5712592601776123,0.940374759474747,0.1075310961248012,-0.3226954835584319,0.2774325675328606,7.0,1.0
14.159086227416992,-9.245450973510742,0.5211164951324463,-0.0,-0.0,-1.0,0.0260933872361626,2.0,1.0
14.393440246582031,-9.10319709777832,0.5210440158843994,-0.0,-0.0,-1.0,0.0755511472775205,1.0,1.0
14.482763290405272,-7.821676254272461,0.5910245180130005,-0.0,-0.0,-1.0,0.1200428527210064,1.0,1.0
14.605145454406738,-7.983102798461914,0.5774242877960205,-0.0,-0.0,-1.0,0.2003510730824753,1.0,1.0
14.995776176452637,-9.201410293579102,0.493739366531372,-0.5353334678526925,-0.7390029053373737,-0.4090144057361927,0.1564551252348733,3.0,1.0
14.726938247680664,-8.042104721069336,0.5696547031402588,-0.9563678979000868,-0.1754813913665324,0.2335952164540945,0.2181173178048273,7.0,1.0
13.633214950561523,-8.694356918334961,0.6104975938796997,-0.7754672488987402,-0.1077117825888187,-0.6221323956980205,0.2794506188833108,8.0,1.0
14.247210502624512,-8.640657424926758,0.5725541114807129,-0.1648080628940753,0.6589771624635511,-0.7338851420737369,0.2824528112324256,3.0,1.0
14.275235176086426,-9.30055046081543,0.5309579372406006,0.2006433028743438,-0.3151747906228311,-0.9275813260127272,0.0636230774643364,4.0,1.0
14.49356746673584,-9.091928482055664,0.5286228656768799,-0.0,-0.0,-1.0,0.0515871834073725,2.0,1.0
15.064970016479492,-9.13471794128418,0.4864530563354492,-0.0,-0.0,-1.0,0.1576226087258661,2.0,1.0
13.068368911743164,-7.878379821777344,0.6965914964675903,-0.3175685011776232,0.9276247560162816,0.196627971269431,0.2714180406596497,4.0,1.0
14.546092987060549,-7.941568374633789,0.5941388607025146,-0.0,-0.0,-1.0,0.118581910516169,1.0,1.0
14.717568397521973,-8.060216903686523,0.5751669406890869,-0.9269888343961384,0.3606542970895247,0.1030542521963532,0.2231418688338064,10.0,1.0
13.631388664245604,-7.021617889404297,0.2141187191009521,-0.0,-0.0,-1.0,0.0967279476841186,1.0,1.0
13.018630981445312,-6.892581939697266,0.2682726383209228,-0.0,-0.0,-1.0,0.0571433584899219,2.0,1.0
13.527396202087402,-6.876089096069336,0.2332699298858642,-0.0,-0.0,-1.0,0.1011427941468633,2.0,1.0
13.620062828063965,-8.623775482177734,1.1798810958862305,-0.0,-0.0,-1.0,0.2425546315272968,2.0,2.0
13.66001319885254,-8.751623153686523,0.9041569232940674,-0.0,-0.0,-1.0,0.2444756944476381,2.0,1.0
14.431608200073242,-8.458436965942383,0.8624312877655029,-0.0,-0.0,-1.0,0.1781474006526871,2.0,1.0
12.762935638427734,-8.720149993896484,0.5036273002624512,-0.0,-0.0,-1.0,0.0737961368657012,2.0,1.0
13.08531665802002,-7.978311538696289,0.536353349685669,-0.209222775010912,-0.0324441972134079,-0.977329629390162,0.1687138920952293,4.0,1.0
12.866965293884276,-8.62945556640625,0.5033266544342041,-0.0,-0.0,-1.0,0.0262036882159196,2.0,1.0
13.185199737548828,-7.912408828735352,0.5344233512878418,-0.7060621944664055,-0.3907765285517396,-0.5905674239901272,0.2029335887141311,5.0,1.0
13.417158126831056,-8.697481155395508,0.4610710144042969,-0.0,-0.0,-1.0,0.0860874176409805,2.0,1.0
13.820310592651367,-8.33824348449707,0.4595077037811279,-0.0,-0.0,-1.0,0.0855277424727418,1.0,1.0
13.672584533691406,-8.543096542358398,0.4547743797302246,-0.0,-0.0,-1.0,0.1813081844418366,1.0,1.0
13.963534355163574,-7.562273025512695,0.5063555240631104,0.0495772296063529,-0.8752540528361876,-0.4811158293991033,0.1167571177942354,3.0,1.0
14.168277740478516,-8.466890335083008,0.4255931377410888,-0.0,-0.0,-1.0,0.0880733063739653,1.0,1.0
14.66086483001709,-8.099987030029297,0.4171926975250244,-0.8979429043352355,0.4322199127852206,-0.0829728120888966,0.1661546344418849,4.0,1.0
14.472204208374023,-8.410348892211914,0.408071756362915,-0.0,-0.0,-1.0,0.1296296131964579,1.0,1.0
14.959360122680664,-8.341926574707031,0.3777294158935547,-0.0,-0.0,-1.0,0.0871824165614398,2.0,1.0
15.187012672424316,-7.838245391845703,0.397834300994873,-0.0,-0.0,-1.0,0.158463540291147,1.0,1.0
13.29982566833496,-7.05035400390625,0.5897992849349976,-0.0,-0.0,-1.0,0.2132438275650344,1.0,1.0
13.227221488952637,-7.059919357299805,0.3701872825622558,0.3591070941934536,0.898403025410863,-0.2528123787169886,0.1764275899625952,4.0,1.0
12.99057674407959,-7.170515060424805,0.3753867149353027,-0.0,-0.0,-1.0,0.1172768726221047,1.0,1.0
13.58495807647705,-7.109834671020508,0.343120813369751,-0.0,-0.0,-1.0,0.2344760974498497,1.0,1.0
13.76643180847168,-7.141925811767578,0.3285741806030273,-0.0,-0.0,-1.0,0.1286648045492032,1.0,1.0
15.13784885406494,-7.293903350830078,0.2305922508239746,-0.0,-0.0,-1.0,0.0450392067676368,1.0,1.0
13.456220626831056,-6.99085807800293,0.3616316318511963,-0.0,-0.0,-1.0,0.1726851207122293,1.0,1.0
13.949480056762695,-7.015331268310547,0.3274502754211426,-0.0,-0.0,-1.0,0.0488687239775558,1.0,1.0
14.491192817687988,-6.867063522338867,0.3036775588989258,-0.0,-0.0,-1.0,0.1260453998344911,1.0,1.0
13.031228065490724,-7.884084701538086,0.7465715408325195,0.928355680919468,0.2406333725553862,0.2832866211404499,0.1944328513833744,3.0,1.0
13.544878959655762,-8.655693054199219,0.6437005996704102,0.7711426865325428,-0.3462924339387554,-0.5342476085151387,0.2328617568655571,8.0,1.0
13.68347454071045,-8.658987045288086,0.6313765048980713,-0.7427901059642535,-0.2076224799873169,-0.6365184712838494,0.1722755295550758,6.0,1.0
13.941445350646973,-7.269081115722656,0.7146276235580444,-0.0,-0.0,-1.0,0.1747658098566923,2.0,1.0
14.328635215759276,-9.177427291870115,0.5348494052886963,0.2965092445354626,0.3972761368681256,-0.8684779438650976,0.0750421144463839,3.0,1.0
14.186686515808104,-9.249330520629885,0.542041540145874,0.5955239308412054,0.3580986232799613,-0.7191082142490347,0.0275611184877339,3.0,1.0
14.515891075134276,-8.852130889892578,0.5428247451782227,-0.0,-0.0,-1.0,0.1246830485159733,1.0,1.0
14.640756607055664,-7.100627899169922,0.6650056838989258,-0.0,-0.0,-1.0,0.1792359198199599,2.0,1.0
14.739004135131836,-8.038270950317383,0.5846550464630127,-0.8593044495279387,0.4422062115737792,0.2570010300894772,0.1781309999413656,9.0,1.0
15.071863174438477,-8.83005142211914,0.4938986301422119,-0.0,-0.0,-1.0,0.0487281341222853,1.0,1.0
12.922670364379885,-6.900186538696289,0.3136281967163086,-0.0,-0.0,-1.0,0.1689742578813614,1.0,1.0
13.109902381896973,-7.090585708618164,0.2877979278564453,-0.0,-0.0,-1.0,0.0940682716242154,1.0,1.0
13.368315696716309,-6.953510284423828,0.2914364337921142,-0.0,-0.0,-1.0,0.1068151471360792,2.0,1.0
13.778905868530272,-7.078641891479492,0.262552261352539,-0.0,-0.0,-1.0,0.0841890458911152,2.0,1.0
14.110200881958008,-6.980184555053711,0.258446455001831,-0.0,-0.0,-1.0,0.1320485699004156,1.0,1.0
13.174711227416992,-7.900712966918945,1.073645830154419,-0.0,-0.0,-1.0,0.1242952794549516,2.0,2.0
12.80922794342041,-8.457863807678223,0.5062415599822998,-0.0,-0.0,-1.0,0.036912518162887,2.0,1.0
13.186676025390623,-7.803711891174316,0.5513250827789307,-0.0,-0.0,-1.0,0.1366667638824463,1.0,1.0
13.178813934326172,-7.908904075622559,0.5422821044921875,-0.7477795446776652,0.1770970636322862,-0.6398924773854477,0.2043703561361311,8.0,1.0
13.34068775177002,-8.50089168548584,0.4842698574066162,-0.0,-0.0,-1.0,0.0431433860008279,2.0,1.0
13.609227180480955,-8.493922233581543,0.4751291275024414,-0.0,-0.0,-1.0,0.1923333979561848,2.0,1.0
13.910687446594238,-8.104832649230957,0.4982759952545166,-0.0,-0.0,-1.0,0.1118928284349912,1.0,1.0
13.978004455566406,-8.439724922180176,0.4659240245819092,-0.0,-0.0,-1.0,0.1098099593297325,1.0,1.0
14.571382522583008,-7.930081367492676,0.4872877597808838,-0.0,-0.0,-1.0,0.1767423452177512,2.0,1.0
14.35202407836914,-8.53870677947998,0.4423251152038574,-0.0,-0.0,-1.0,0.1607711749783244,1.0,1.0
14.766133308410645,-8.094759941101074,0.4644315242767334,0.0314206567241914,-0.9778533464233048,0.2069192480649506,0.2075654483956771,3.0,1.0
14.941058158874512,-8.375481605529785,0.4319510459899902,-0.0,-0.0,-1.0,0.1338696550338543,1.0,1.0
14.104127883911133,-7.298283576965332,0.5622611045837402,-0.0,-0.0,-1.0,0.2510554296588596,2.0,1.0
14.6568603515625,-7.241538047790527,0.5447864532470703,-0.0,-0.0,-1.0,0.1202660119285973,1.0,1.0
13.613042831420898,-8.683384895324707,1.3101515769958496,-0.7049532734331057,0.5615863429427055,-0.4331993325204769,0.256034259659389,3.0,2.0
13.910931587219238,-8.735993385314941,1.295668363571167,0.4799255720970072,-0.5292612902722239,0.6996813073583869,0.1902027589425745,3.0,2.0
13.699617385864258,-8.772451400756836,0.5821818113327026,0.8183257296439431,-0.56346178768115,0.113374662186355,0.1902375022392445,5.0,1.0
13.817886352539062,-8.679393768310547,0.5837708711624146,-0.0,-0.0,-1.0,0.223759438300557,2.0,1.0
14.333243370056152,-9.307811737060549,0.4999728202819824,-0.0,-0.0,-1.0,0.0709835672090481,2.0,1.0
14.628458976745604,-8.96902847290039,0.5124366283416748,-0.0,-0.0,-1.0,0.0893573146468005,1.0,1.0
14.95472526550293,-9.135435104370115,0.4786710739135742,0.2137074507884544,0.1413988986854452,-0.9666103025149504,0.1395040339567136,5.0,1.0
15.158098220825195,-9.258127212524414,0.4557526111602783,-0.0,-0.0,-1.0,0.1150519683438511,1.0,1.0
13.161080360412598,-7.900535583496094,0.6869770288467407,0.5696910340942191,0.8218265453010478,-0.0072976099651922,0.1960690043151745,6.0,1.0
13.077783584594728,-7.957977294921875,0.686354398727417,-0.0,-0.0,-1.0,0.2396974180780905,2.0,1.0
14.740509033203123,-8.063484191894531,0.584793210029602,-0.9812674609470762,0.1923968459718157,0.0098804729935215,0.247040767367167,7.0,1.0
13.62463665008545,-8.65945816040039,1.4094189405441284,-0.0,-0.0,-1.0,0.1366890938644839,1.0,2.0
13.80016040802002,-6.863227844238281,0.2316827774047851,-0.0,-0.0,-1.0,0.1042116673606238,2.0,1.0
13.579381942749023,-6.9438934326171875,0.2246661186218261,-0.0,-0.0,-1.0,0.1408360900885093,1.0,1.0
13.93964385986328,-6.871278762817383,0.2283987998962402,-0.0,-0.0,-1.0,0.0624327310748916,2.0,1.0
13.86785125732422,-6.901042938232422,0.2257881164550781,0.1745151302215312,-0.8900846863839871,-0.4210626086325885,0.0835852521585893,3.0,1.0
13.22663116455078,-7.903779983520508,0.8557031154632568,0.9283638365631446,0.3213536300509901,-0.1867416167189591,0.1545310785228613,3.0,1.0
13.613978385925291,-8.716644287109375,0.774700403213501,-0.4944444772357335,-0.0233688901689419,-0.8688950189196354,0.2124487963266435,6.0,1.0
14.69090461730957,-7.978832244873047,0.8209431171417236,-0.2708205760171114,-0.6929107828309411,-0.6682296481318174,0.1337463977746847,3.0,1.0
13.711237907409668,-8.632505416870117,1.548896312713623,0.4377227821060393,-0.8190552795253603,-0.3708735837276398,0.1306701325594185,3.0,2.0
12.887128829956056,-7.672114372253418,0.387401819229126,-0.0,-0.0,-1.0,0.0451148428466337,1.0,1.0
13.046476364135742,-7.746420860290527,0.3711628913879394,-0.0,-0.0,-1.0,0.0917423839550098,2.0,1.0
13.29938793182373,-7.578900337219238,0.3833973407745361,-0.0,-0.0,-1.0,0.059165604369098,1.0,1.0
13.7205228805542,-7.572861671447754,0.3662996292114258,-0.0,-0.0,-1.0,0.0723441120574081,2.0,1.0
14.034725189208984,-7.626650810241699,0.3448991775512695,0.3376017390444288,0.805020370537076,-0.4878188893580551,0.1404156219353269,5.0,1.0
14.47712516784668,-7.507758140563965,0.3401038646697998,-0.0,-0.0,-1.0,0.0736111271447839,1.0,1.0
14.933106422424316,-7.584410667419434,0.3069243431091308,-0.0,-0.0,-1.0,0.0973688360801466,1.0,1.0
14.934405326843262,-7.760638236999512,0.2830715179443359,-0.0,-0.0,-1.0,0.0957915571021119,1.0,1.0
14.544022560119627,-6.863198280334473,0.4239706993103027,-0.0,-0.0,-1.0,0.1855040954627308,1.0,1.0
14.725229263305664,-7.269181251525879,0.3601312637329101,-0.0,-0.0,-1.0,0.1248932680361973,1.0,1.0
13.430126190185549,-7.724108695983887,1.066792130470276,-0.0,-0.0,-1.0,0.1101101393880722,1.0,2.0
13.634807586669922,-8.669510841369629,0.9634408950805664,-0.6237811147889343,0.5551789577559538,-0.550157655311355,0.2242046115589755,3.0,1.0
12.750211715698242,-8.811857223510742,0.5262768268585205,-0.0,-0.0,-1.0,0.103360188251175,1.0,1.0
13.21873664855957,-9.077829360961914,0.5218920707702637,0.7631835261836591,0.1226478997523078,-0.6344354955771498,0.0809009422036433,3.0,1.0
13.34303855895996,-9.274629592895508,0.5060811042785645,-0.0,-0.0,-1.0,0.1212382971666917,1.0,1.0
13.637213706970217,-8.667236328125,0.5907132625579834,-0.7824095017749361,-0.2583618659365642,-0.56664320146109,0.2440608890484134,4.0,1.0
14.473854064941406,-9.239765167236328,0.5659770965576172,-0.0,-0.0,-1.0,0.1459587749525576,1.0,1.0
14.304338455200195,-9.333757400512695,0.5473527908325195,0.3257328084594215,-0.1733947162848161,-0.9294258495746962,0.139624487837057,3.0,1.0
14.805968284606934,-9.234041213989258,0.5816333293914795,-0.0,-0.0,-1.0,0.1407172593689806,2.0,1.0
15.195615768432615,-9.263477325439451,0.5949735641479492,-0.8693696158290544,0.3716825631025451,-0.3256509532594145,0.2035813359188178,3.0,1.0
13.063529014587402,-7.909296035766602,0.6464881896972656,-0.0,-0.0,-1.0,0.2321696885263941,1.0,1.0
13.26295566558838,-6.972564697265625,0.7640948295593262,0.7690093903053224,-0.6135574046292254,0.1793651829282531,0.1456890594238069,4.0,1.0
13.233308792114258,-7.888282775878906,0.6582033634185791,0.9297982332802972,0.3169086335417744,0.187200863714682,0.2022349108370088,3.0,1.0
14.693638801574709,-8.033771514892578,0.7140803337097168,-0.1181242613977701,0.0971721545400147,-0.9882328831056384,0.1927570479177764,6.0,1.0
14.484126091003418,-8.290822982788086,0.6751046180725098,-0.0,-0.0,-1.0,0.0982373380233111,2.0,1.0
14.82236385345459,-8.301481246948242,0.6891562938690186,-0.0,-0.0,-1.0,0.1473504921650589,2.0,1.0
13.878642082214355,-8.766427993774414,1.294794678688049,-0.0,-0.0,-1.0,0.1932319227394961,2.0,2.0
13.359929084777832,-8.712489128112793,0.4901626110076904,-0.0,-0.0,-1.0,0.0507769709021911,2.0,1.0
13.525848388671877,-8.752367973327637,0.4925284385681152,-0.0,-0.0,-1.0,0.2186989204126843,1.0,1.0
14.0776948928833,-8.866543769836426,0.5007507801055908,-0.0,-0.0,-1.0,0.1037664573310286,1.0,1.0
14.08918285369873,-9.082282066345217,0.4715149402618408,-0.0,-0.0,-1.0,0.0590213652369609,1.0,1.0
14.35338306427002,-9.066798210144045,0.483964204788208,-0.0,-0.0,-1.0,0.0402397527763819,1.0,1.0
14.945631980895996,-9.128920555114746,0.4959390163421631,-0.0930894748180966,0.6370591281892348,-0.7651731940344374,0.1437115094276758,4.0,1.0
13.27122974395752,-6.9732255935668945,0.7246904373168945,0.9815177967098112,0.0552055681891583,0.1832352585689514,0.1742103007228399,5.0,1.0
13.053051948547363,-7.956643104553223,0.5785610675811768,0.5283491706217852,-0.5894355487749964,-0.611075189926404,0.2250667520096374,4.0,1.0
12.83940887451172,-8.473273277282715,0.496448278427124,-0.0,-0.0,-1.0,0.0288785924561796,2.0,1.0
13.697476387023926,-7.259995460510254,0.7058506011962891,-0.0,-0.0,-1.0,0.1107573093851232,2.0,1.0
13.528983116149902,-7.842551231384277,0.6178572177886963,-0.0,-0.0,-1.0,0.20272977017006,1.0,1.0
13.24442195892334,-8.552639961242676,0.5064890384674072,-0.0,-0.0,-1.0,0.0332815028927221,2.0,1.0
14.23316764831543,-7.157641410827637,0.7428653240203857,-0.7731729329260554,-0.6339506169480443,0.0176133773511907,0.1767555757876289,3.0,1.0
13.917074203491213,-8.606860160827637,0.5299577713012695,-0.8901265345295649,-0.0862320901646897,-0.4474804790739099,0.2168732238917328,3.0,1.0
13.753103256225586,-8.654341697692871,0.5162880420684814,-0.5717480230813561,-0.6322615847131127,-0.5228283529023878,0.212261462371455,3.0,1.0
14.697381973266602,-7.943581581115723,0.6514413356781006,-0.0,-0.0,-1.0,0.2500022977141845,2.0,1.0
14.611245155334473,-8.100337028503418,0.6268384456634521,-0.2781423202680167,-0.3217993461319186,-0.9050315080178114,0.2530524787149121,3.0,1.0
13.729634284973145,-8.731057167053223,1.1686277389526367,0.466418539905453,0.8732391531910128,-0.141092618399079,0.1918788175968653,3.0,2.0
13.234578132629396,-6.95871639251709,0.2727174758911133,-0.0,-0.0,-1.0,0.1844534059308507,2.0,1.0
12.971179962158203,-6.965381622314453,0.2558021545410156,-0.0,-0.0,-1.0,0.0692983962172412,2.0,1.0
13.505449295043944,-7.04850959777832,0.2709302902221679,-0.0,-0.0,-1.0,0.1252370039349185,1.0,1.0
14.200507164001465,-7.020694732666016,0.3099262714385986,-0.0,-0.0,-1.0,0.2375073414300023,1.0,1.0
13.806195259094238,-7.187231063842773,0.2604095935821533,-0.0,-0.0,-1.0,0.0801111280156558,2.0,1.0
14.31069564819336,-7.046174049377441,0.3098530769348144,-0.0,-0.0,-1.0,0.1826337521712518,1.0,1.0
14.67499828338623,-7.332395553588867,0.2704324722290039,-0.0,-0.0,-1.0,0.0943937022427927,1.0,1.0
15.02474594116211,-7.508600234985352,0.2493166923522949,-0.0,-0.0,-1.0,0.0924216254924625,1.0,1.0
13.10910987854004,-7.83696174621582,0.7066512107849121,0.8024376009565873,0.5268290744470031,-0.2802588497948832,0.1968784393207919,4.0,1.0
13.038108825683594,-7.991539001464844,0.6793928146362305,-0.0,-0.0,-1.0,0.1831648915894956,1.0,1.0
13.52055835723877,-7.779356002807617,0.737011194229126,-0.1062765095905459,-0.6515754449828527,-0.7511023518833161,0.1855648588829056,4.0,1.0
12.844812393188477,-8.868206024169922,0.5362448692321777,-0.0,-0.0,-1.0,0.1182852688822829,1.0,1.0
13.537622451782228,-8.602069854736328,0.6133966445922852,-0.0,-0.0,-1.0,0.1959818771475913,2.0,1.0
13.624978065490724,-8.725492477416992,0.5990021228790283,0.8080140670952335,-0.2165230585600091,-0.5479334197583119,0.2136849001564331,8.0,1.0
13.228830337524414,-9.15855598449707,0.5134339332580566,-0.0,-0.0,-1.0,0.090828267524419,1.0,1.0
14.569730758666992,-7.858119964599609,0.7714080810546875,-0.0,-0.0,-1.0,0.1265883720282705,1.0,1.0
13.7213134765625,-8.650981903076172,0.6149141788482666,-0.7609131837293492,-0.398881110884533,-0.5117665348636886,0.2276188660196346,6.0,1.0
13.378618240356444,-9.313405990600586,0.4978015422821045,-0.0,-0.0,-1.0,0.1178411300636242,1.0,1.0
14.631075859069824,-8.104982376098633,0.7363138198852539,-0.7652240715955761,-0.0700985273208062,0.6399361817541988,0.2145014602659194,4.0,1.0
14.267007827758787,-8.989570617675781,0.5878973007202148,-0.0,-0.0,-1.0,0.0497501890884371,1.0,1.0
14.170963287353516,-9.327093124389648,0.5327146053314209,-0.0,-0.0,-1.0,0.0265365458113576,1.0,1.0
14.611509323120115,-9.144062042236328,0.5780768394470215,-0.0,-0.0,-1.0,0.121870275113577,2.0,1.0
14.390767097473145,-9.286094665527344,0.5479946136474609,-0.0,-0.0,-1.0,0.1641078154169296,1.0,1.0
14.962940216064451,-9.31903076171875,0.5641376972198486,-0.0,-0.0,-1.0,0.1173936884470987,1.0,1.0
13.239773750305176,-6.8997802734375,0.8552923202514648,-0.0,-0.0,-1.0,0.1361839806946236,1.0,1.0
13.571256637573242,-8.574087142944336,1.2429447174072266,-0.0817973815881417,0.204210480711022,-0.9755035970887536,0.1729873058108587,4.0,2.0
13.501276969909668,-8.69160270690918,1.2260234355926514,-0.0,-0.0,-1.0,0.1622428128646839,1.0,2.0
12.935269355773926,-9.1318998336792,0.5757286548614502,-0.7981646325259055,-0.5911537283788907,-0.1160624349586157,0.2472211793820617,4.0,1.0
13.63642406463623,-8.74228572845459,0.6330177783966064,-0.2670444043435299,-0.8794198644429791,-0.3940913449086413,0.2624100658143211,8.0,1.0
14.57888412475586,-9.140618324279783,0.5410885810852051,0.5297438042507041,-0.6629851618576776,-0.5289822085992503,0.1094603398185413,3.0,1.0
14.31949520111084,-9.279545783996582,0.5254380702972412,-0.3474841482416814,0.5286867843543249,-0.774432082735366,0.0692778938930531,3.0,1.0
15.057705879211426,-9.23826503753662,0.5069868564605713,-0.0,-0.0,-1.0,0.16196735602436,1.0,1.0
12.950101852416992,-7.890576362609863,0.78645920753479,-0.0,-0.0,-1.0,0.1447908531154832,2.0,1.0
13.473422050476074,-7.88667106628418,0.781343936920166,-0.0,-0.0,-1.0,0.1106171798099358,1.0,1.0
13.579090118408203,-8.661673545837402,0.6477556228637695,-0.1851635582881928,-0.0234594982755471,-0.982427660758142,0.1967654231972826,6.0,1.0
14.625635147094728,-8.033354759216309,0.727327823638916,0.2123951489167293,0.7193411708182881,-0.6613898855307773,0.1496242794701897,3.0,1.0
14.471834182739258,-8.250447273254395,0.6956379413604736,-0.0,-0.0,-1.0,0.1037721957481516,2.0,1.0
13.693194389343262,-8.637370109558105,0.6498005390167236,-0.5178750693453821,0.398124155982976,-0.7571674642860443,0.2065121619198107,6.0,1.0
14.719310760498049,-8.18873119354248,0.6976571083068848,-0.4026637776683438,-0.2204678855141487,-0.8884006942876503,0.2251395774542372,3.0,1.0
13.583560943603516,-8.554442405700684,1.2589013576507568,-0.0822179144406165,0.6588667116085806,-0.7477532152248701,0.1515845096525389,3.0,2.0
13.518060684204102,-6.994656085968018,0.3522648811340332,-0.0,-0.0,-1.0,0.1681098321326329,1.0,1.0
13.190420150756836,-7.046605587005615,0.3466370105743408,0.4247078832632536,0.83135680287026,-0.3584258364228038,0.227321760186956,4.0,1.0
14.102880477905272,-7.004326343536377,0.3352169990539551,-0.0,-0.0,-1.0,0.2035146346797613,1.0,1.0
13.760910034179688,-7.08897066116333,0.3252289295196533,-0.0,-0.0,-1.0,0.1499309565921036,1.0,1.0
14.720048904418944,-6.915981769561768,0.3346178531646728,-0.0,-0.0,-1.0,0.2177584710895089,1.0,1.0
13.596312522888184,-7.83466100692749,0.715585470199585,-0.0,-0.0,-1.0,0.2128877569845095,1.0,1.0
13.224202156066896,-7.901854038238525,0.7092046737670898,-0.7012384759687341,0.6657587511453213,-0.2550095784367115,0.2227334536099426,5.0,1.0
13.096614837646484,-8.119935989379883,0.6694989204406738,-0.0,-0.0,-1.0,0.1997667140078498,2.0,1.0
13.683602333068848,-8.326866149902344,0.6201574802398682,-0.0,-0.0,-1.0,0.1693446479639466,1.0,1.0
12.904745101928713,-8.668172836303711,0.5673873424530029,-0.0,-0.0,-1.0,0.0423813535550856,2.0,1.0
14.664243698120115,-7.971989154815674,0.6631429195404053,-0.6396223422388915,0.7670164792971746,0.0506851042753275,0.2464496100448568,3.0,1.0
14.141253471374512,-8.467941284179688,0.5832479000091553,-0.0,-0.0,-1.0,0.205987097566007,1.0,1.0
13.899563789367676,-8.600458145141602,0.5635557174682617,-0.8901265345295649,-0.0862320901646897,-0.4474804790739099,0.1859868091998207,3.0,1.0
13.4957275390625,-8.710487365722656,0.5505754947662354,-0.0,-0.0,-1.0,0.2217700397871289,1.0,1.0
14.84445858001709,-8.07188606262207,0.6387112140655518,-0.0,-0.0,-1.0,0.1640292111075497,2.0,1.0
14.773916244506836,-8.55992317199707,0.548546552658081,-0.0,-0.0,-1.0,0.1495744932671126,1.0,1.0
14.24819278717041,-8.675321578979492,0.5412075519561768,-0.0,-0.0,-1.0,0.2810380720887137,2.0,1.0
15.195452690124512,-8.686307907104492,0.511056661605835,-0.0,-0.0,-1.0,0.049355745786167,1.0,1.0
14.94948673248291,-8.710948944091797,0.5144093036651611,-0.0,-0.0,-1.0,0.0724533758719653,1.0,1.0
14.493824005126951,-8.81294059753418,0.5086028575897217,-0.0,-0.0,-1.0,0.1508087221869291,1.0,1.0
13.336755752563477,-6.942856311798096,0.8901851177215576,-0.0,-0.0,-1.0,0.1233529198245036,1.0,1.0
13.974159240722656,-7.303915500640869,0.8084824085235596,-0.0,-0.0,-1.0,0.1905984429119788,1.0,1.0
13.259236335754396,-7.638054847717285,0.3434498310089111,-0.0,-0.0,-1.0,0.0324822996074755,1.0,1.0
13.093530654907228,-7.688404083251953,0.3424034118652344,-0.0,-0.0,-1.0,0.0894941963052658,1.0,1.0
14.20730209350586,-7.523425102233887,0.303865909576416,-0.0,-0.0,-1.0,0.0490850863701433,1.0,1.0
13.950539588928224,-7.51698112487793,0.3239376544952392,-0.9121825421495368,0.1679232649064624,-0.3737977887852771,0.1676793009285131,3.0,1.0
13.664138793945312,-7.62516975402832,0.3202109336853027,-0.0,-0.0,-1.0,0.0798852151835185,1.0,1.0
14.814125061035156,-7.473200798034668,0.2670955657958984,-0.0,-0.0,-1.0,0.0237665862552533,2.0,1.0
14.310134887695312,-7.524046897888184,0.2959940433502197,-0.0,-0.0,-1.0,0.0601592859187393,1.0,1.0
14.965354919433594,-7.560939788818359,0.2356495857238769,-0.0,-0.0,-1.0,0.0965242587184552,1.0,1.0
13.365333557128906,-7.474703788757324,0.3724339008331299,-0.0,-0.0,-1.0,0.0653134669128261,1.0,1.0
12.804250717163086,-7.601188659667969,0.3781595230102539,-0.0,-0.0,-1.0,0.048803310474603,2.0,1.0
14.51255702972412,-7.265341758728027,0.3360791206359863,-0.0,-0.0,-1.0,0.150481370906861,2.0,1.0
14.062134742736816,-7.282784461975098,0.3666408061981201,-0.0,-0.0,-1.0,0.1398052940589142,2.0,1.0
13.81545352935791,-7.488108634948731,0.3396148681640625,-0.0,-0.0,-1.0,0.1252919418445247,1.0,1.0
13.577319145202637,-7.551387786865234,0.3420369625091553,-0.0,-0.0,-1.0,0.0688629859339562,2.0,1.0
14.666326522827148,-7.263307571411133,0.3242647647857666,-0.0,-0.0,-1.0,0.1808789615573622,1.0,1.0
14.66470718383789,-8.18106460571289,0.6772797107696533,-0.7535194709325338,-0.5452164767323683,0.3673518754887436,0.2253713629941281,8.0,1.0
13.70565414428711,-8.696391105651855,0.6468093395233154,-0.0,-0.0,-1.0,0.2059847809903487,2.0,1.0
14.730137825012209,-8.247343063354492,0.6607143878936768,-0.0,-0.0,-1.0,0.2265557543052387,1.0,1.0
14.706401824951172,-8.927092552185059,0.5400588512420654,-0.0,-0.0,-1.0,0.1157374784409344,1.0,1.0
14.49837875366211,-9.17815113067627,0.508981466293335,0.0558916740139665,0.8060769540247522,-0.5891655666840125,0.0902965453641106,3.0,1.0
14.140178680419922,-9.351224899291992,0.5010368824005127,-0.0,-0.0,-1.0,0.0245612512506942,1.0,1.0
13.37427806854248,-7.2497758865356445,0.9295403957366944,-0.0,-0.0,-1.0,0.1798098622628124,2.0,1.0
13.55052375793457,-7.820643424987793,0.8152928352355957,-0.0,-0.0,-1.0,0.1488869959255619,1.0,1.0
13.242015838623049,-7.817567825317383,0.8337950706481934,-0.0,-0.0,-1.0,0.1927100538845849,2.0,1.0
13.727622032165527,-8.725482940673828,1.1964752674102783,0.0809200144053688,0.9609949654536868,-0.2644629040929973,0.1703391427341988,5.0,2.0
12.803730010986328,-7.153946876525879,0.4791738986968994,-0.0,-0.0,-1.0,0.1297097051278471,1.0,1.0
12.851469039916992,-7.418510437011719,0.4163622856140136,-0.0,-0.0,-1.0,0.0908202140620838,1.0,1.0
13.488166809082031,-7.719947814941406,0.300588846206665,-0.0,-0.0,-1.0,0.1359758804435188,1.0,1.0
13.270343780517578,-7.733226776123047,0.3146824836730957,-0.0,-0.0,-1.0,0.0710124101006974,1.0,1.0
13.050004005432127,-7.845590591430664,0.3061635494232178,-0.0,-0.0,-1.0,0.0606048502300817,1.0,1.0
13.74179458618164,-8.579963684082031,0.624178409576416,-0.0,-0.0,-1.0,0.2046359635138813,2.0,1.0
13.190054893493652,-8.944755554199219,0.593745231628418,-0.0,-0.0,-1.0,0.1058042391554628,1.0,1.0
13.793508529663086,-8.588000297546387,0.6188886165618896,-0.0,-0.0,-1.0,0.1752794275057319,1.0,1.0
13.524343490600586,-6.877955913543701,0.2250683307647705,-0.0,-0.0,-1.0,0.1011427941468633,2.0,1.0
14.282028198242188,-7.137031078338623,0.2010881900787353,-0.0,-0.0,-1.0,0.1481272908006049,2.0,1.0
14.10541534423828,-7.16818904876709,0.2493765354156494,-0.0,-0.0,-1.0,0.0974594122168606,1.0,1.0
14.191543579101562,-7.274578094482422,0.2186298370361328,-0.0,-0.0,-1.0,0.089899143780425,2.0,1.0
13.98172378540039,-7.493921756744385,0.2636716365814209,-0.0,-0.0,-1.0,0.0463217769127821,2.0,1.0
13.83950424194336,-7.663535118103027,0.2919085025787353,-0.0,-0.0,-1.0,0.0449705830090232,1.0,1.0
13.361032485961914,-7.19672155380249,0.4566333293914795,-0.0,-0.0,-1.0,0.2101676427733617,1.0,1.0
13.949811935424805,-6.990296363830566,0.2123818397521972,-0.0,-0.0,-1.0,0.0572045232285471,1.0,1.0
13.815723419189451,-7.222979545593262,0.2341084480285644,-0.0,-0.0,-1.0,0.0788862405004445,2.0,1.0
13.80855941772461,-7.046435356140137,0.2496862411499023,-0.0,-0.0,-1.0,0.0933680885141221,2.0,1.0
12.824954986572266,-6.970928192138672,0.236337661743164,-0.0,-0.0,-1.0,0.1017954235285652,2.0,1.0
15.083812713623049,-9.029014587402344,0.4119882583618164,-0.0,-0.0,-1.0,0.1118413725157723,1.0,1.0
15.116310119628906,-8.451116561889648,0.456268310546875,-0.0,-0.0,-1.0,0.0701315848388111,1.0,1.0
15.009090423583984,-7.842887878417969,0.5373673439025879,-0.0,-0.0,-1.0,0.1259861371221163,1.0,1.0
14.50155258178711,-9.337800979614258,0.5273714065551758,0.7068218409386179,0.5883157481827177,-0.39279443174815,0.1220023688823856,3.0,1.0
14.174638748168944,-9.351720809936523,0.6064162254333496,-0.0,-0.0,-1.0,0.0666144976792953,1.0,1.0
14.209959030151367,-8.712743759155273,0.6573801040649414,-0.0,-0.0,-1.0,0.1705582829398783,1.0,1.0
14.18794059753418,-8.497703552246094,0.6826877593994141,-0.0,-0.0,-1.0,0.199287696928934,1.0,1.0
13.178401947021484,-9.188995361328123,0.8653244972229004,-0.0,-0.0,-1.0,0.1249006934347757,1.0,1.0
14.624561309814451,-8.782668113708496,0.4795012474060058,-0.0,-0.0,-1.0,0.1567987081634823,2.0,1.0
14.904777526855469,-8.446066856384277,0.4538788795471191,-0.0,-0.0,-1.0,0.1256052729428575,2.0,1.0
14.846635818481444,-8.03884220123291,0.5150723457336426,-0.0,-0.0,-1.0,0.1959329458454576,1.0,1.0
14.114795684814451,-9.22182559967041,0.5448541641235352,-0.0,-0.0,-1.0,0.0304188715106846,1.0,1.0
13.77695655822754,-8.707144737243652,0.6846804618835449,-0.0,-0.0,-1.0,0.2049042434814447,2.0,1.0
13.946331024169922,-8.542283058166504,0.6653757095336914,-0.0,-0.0,-1.0,0.1442611418149349,1.0,1.0
14.80215072631836,-7.698678970336914,0.3800668716430664,-0.0,-0.0,-1.0,0.0803581404169049,1.0,1.0
15.102252960205078,-7.583642959594727,0.3306198120117187,-0.0,-0.0,-1.0,0.0925591216256664,2.0,1.0
14.031747817993164,-8.194662094116211,0.4752283096313476,-0.0,-0.0,-1.0,0.1023399261433851,1.0,1.0
14.324325561523438,-8.033733367919922,0.4354910850524902,-0.0,-0.0,-1.0,0.0662901577726958,1.0,1.0
13.11404800415039,-8.966333389282227,0.5558061599731445,-0.0,-0.0,-1.0,0.1573832756009065,1.0,1.0
13.365724563598633,-8.762104034423828,0.5332403182983398,-0.0,-0.0,-1.0,0.0956085942784263,1.0,1.0
13.637994766235352,-8.505971908569336,0.5136375427246094,-0.2637299390317703,-0.9590724752395776,-0.1030849479610309,0.2344004645504591,3.0,1.0
13.801898956298828,-8.275920867919922,0.5129127502441406,-0.0,-0.0,-1.0,0.1117120268825243,1.0,1.0
12.919137954711914,-9.092618942260742,0.5778021812438965,-0.9167821630532812,-0.3825499663694577,0.114743142444651,0.2178144423219677,3.0,1.0
13.290014266967772,-7.807235717773437,0.694061279296875,-0.0,-0.0,-1.0,0.2414248782535904,1.0,1.0
13.009366989135742,-7.426170349121094,0.3738856315612793,-0.0,-0.0,-1.0,0.0642618149465495,1.0,1.0
13.231608390808104,-7.215358734130859,0.3638529777526855,-0.0,-0.0,-1.0,0.1846872372409626,1.0,1.0
13.65855884552002,-6.984575271606445,0.3114261627197265,-0.0,-0.0,-1.0,0.1646422516740155,1.0,1.0
12.788333892822266,-7.428432464599609,0.4215836524963379,-0.0,-0.0,-1.0,0.1148099432773056,1.0,1.0
13.083314895629885,-7.238105773925781,0.3922410011291504,-0.0,-0.0,-1.0,0.0965110507750463,1.0,1.0
15.208967208862305,-9.251964569091797,0.5724701881408691,-0.0,-0.0,-1.0,0.2013646861400433,2.0,1.0
14.604751586914062,-9.334564208984377,0.6781716346740723,-0.0,-0.0,-1.0,0.1388520926209247,2.0,1.0
14.998308181762695,-9.147743225097656,0.6298947334289551,-0.0,-0.0,-1.0,0.2388532813184615,1.0,1.0
13.530613899230955,-9.114690780639648,0.519721508026123,-0.0,-0.0,-1.0,0.1481624244604106,1.0,1.0
14.41435432434082,-8.446249008178711,0.4460320472717285,-0.0,-0.0,-1.0,0.2211878670192868,1.0,1.0
14.64560604095459,-8.308462142944336,0.4190797805786133,-0.0,-0.0,-1.0,0.1686730327767893,1.0,1.0
15.002107620239258,-8.035881042480469,0.3862419128417969,-0.0,-0.0,-1.0,0.1629385686547296,1.0,1.0
13.315634727478027,-9.197669982910156,0.5498161315917969,-0.0,-0.0,-1.0,0.0644823487450227,1.0,1.0
13.643067359924316,-8.960103988647461,0.5226297378540039,-0.0,-0.0,-1.0,0.1592220283846146,1.0,1.0
13.91500186920166,-8.582296371459961,0.5293464660644531,-0.8901265345295649,-0.0862320901646897,-0.4474804790739099,0.2090352867482726,3.0,1.0
14.130045890808104,-8.433662414550781,0.5086565017700195,-0.0,-0.0,-1.0,0.1906953822550573,1.0,1.0
13.164786338806152,-7.956144332885742,0.7920041084289551,-0.0,-0.0,-1.0,0.113952815533926,1.0,1.0
13.632216453552246,-7.743759155273437,0.7290821075439453,-0.0,-0.0,-1.0,0.1847909298506395,1.0,1.0
13.20986557006836,-7.878068923950195,0.7957172393798828,-0.0,-0.0,-1.0,0.1737419629354482,2.0,1.0
13.775718688964844,-7.279097557067871,0.3311123847961426,-0.0,-0.0,-1.0,0.0874625736426616,1.0,1.0
14.11894416809082,-7.0538740158081055,0.3192977905273437,-0.0,-0.0,-1.0,0.2356444447699712,1.0,1.0
14.359746932983398,-6.985348701477051,0.290623664855957,-0.0,-0.0,-1.0,0.106252218418036,1.0,1.0
13.061399459838867,-7.602679252624512,0.384037971496582,-0.0,-0.0,-1.0,0.0470138937983741,1.0,1.0
13.38661766052246,-7.388663291931152,0.3755331039428711,-0.0,-0.0,-1.0,0.1198626550795514,1.0,1.0
13.579584121704102,-7.110350608825684,0.4036283493041992,-0.0,-0.0,-1.0,0.2440337463011581,1.0,1.0
14.62484645843506,-9.27700901031494,0.695803165435791,-0.0,-0.0,-1.0,0.102660789903112,2.0,1.0
13.680243492126465,-8.715044975280762,0.9500441551208496,-0.0,-0.0,-1.0,0.2556999540738078,1.0,1.0
14.141402244567873,-8.17153263092041,0.4440479278564453,-0.0,-0.0,-1.0,0.0683810472844778,1.0,1.0
14.535271644592283,-8.032790184020996,0.4232301712036133,0.1376821460143719,0.9898578386935726,-0.0350012263466095,0.220807903825022,3.0,1.0
14.962303161621094,-7.95340633392334,0.3824858665466308,-0.0,-0.0,-1.0,0.1643769137990931,1.0,1.0
12.942376136779783,-8.48391056060791,0.5274820327758789,-0.0,-0.0,-1.0,0.036635198444889,1.0,1.0
13.343667030334473,-8.388457298278809,0.4983839988708496,-0.0,-0.0,-1.0,0.0396745946697961,1.0,1.0
13.785919189453123,-8.237133979797363,0.4763326644897461,-0.0,-0.0,-1.0,0.088720551960578,1.0,1.0
