x,y,z,nx,ny,nz,curvature,density,label
31.603904724121097,26.145618438720703,-2.135900497436523,-0.0,-0.0,-1.0,0.1612824514096424,2.0,0.0
31.63040542602539,26.03135871887207,-1.9794785976409912,-0.0,-0.0,-1.0,0.2054975601730445,1.0,0.0
32.4442253112793,28.126876831054688,-2.1000726222991943,-0.0,-0.0,-1.0,0.1116552642716802,1.0,0.0
30.848125457763672,27.543346405029297,-2.127880096435547,-0.0,-0.0,-1.0,0.1581881556085387,2.0,0.0
31.580371856689453,25.898048400878903,-2.0165810585021973,0.5123712636024781,-0.4798473706913111,-0.712195330702915,0.1380262707552402,4.0,0.0
30.514753341674805,27.171489715576172,-2.1144113540649414,-0.0,-0.0,-1.0,0.1365872714141619,2.0,0.0
30.811126708984375,27.754533767700195,-2.1571741104125977,-0.0,-0.0,-1.0,0.2046015310179823,2.0,0.0
31.84964370727539,28.12252426147461,-2.419870376586914,-0.0,-0.0,-1.0,0.0315772220775186,1.0,0.0
32.4508056640625,26.499114990234375,-2.326740980148315,0.8692824292970857,0.4709554707701486,-0.1501632533845246,0.134645856637876,3.0,0.0
32.48938751220703,27.025835037231445,-2.321829080581665,-0.0,-0.0,-1.0,0.0552440994016286,1.0,0.0
31.581329345703125,26.089052200317383,-2.1223347187042236,0.2406526815990064,0.9416714686148264,-0.2352469596743034,0.1770959409219327,6.0,0.0
31.56070327758789,25.96007919311523,-2.1610188484191895,-0.3832464581794098,0.9032684760216294,-0.1929461389053971,0.1429052569429931,4.0,0.0
30.346920013427734,26.027677536010746,-2.2380292415618896,-0.0,-0.0,-1.0,0.0931776437128861,1.0,0.0
30.670204162597656,25.709667205810547,-2.2502684593200684,-0.0,-0.0,-1.0,0.0233807322092878,1.0,0.0
31.59477424621582,25.858678817749023,-1.9565610885620115,-0.0,-0.0,-1.0,0.11913688930781,2.0,0.0
31.557525634765625,26.671669006347656,-2.306201457977295,-0.0,-0.0,-1.0,0.0463660885925312,1.0,0.0
31.664379119873047,25.691699981689453,-2.0996761322021484,-0.2019774512829571,0.4485477706051272,-0.8706377011469298,0.1968417142578529,9.0,0.0
31.57988166809082,26.077075958251953,-2.1702733039855957,0.020078872710409,0.9414905652562758,-0.3364407145458131,0.1124129176777726,4.0,0.0
32.52889633178711,27.50672149658203,-2.1115684509277344,-0.0,-0.0,-1.0,0.1860133355835462,1.0,0.0
30.47323989868164,27.19958114624023,-2.320199966430664,-0.0,-0.0,-1.0,0.2305472384245623,2.0,0.0
31.86845588684082,27.206321716308594,-2.052945613861084,-0.0,-0.0,-1.0,0.1700359167988903,1.0,0.0
32.40303039550781,26.448869705200195,-1.9772400856018064,-0.0,-0.0,-1.0,0.2391216062631972,1.0,0.0
32.06039810180664,26.970327377319336,-2.2616117000579834,-0.0,-0.0,-1.0,0.1518122622261019,1.0,0.0
31.818904876708984,27.209728240966797,-2.2729055881500244,-0.0,-0.0,-1.0,0.1281920392561556,2.0,0.0
31.732498168945312,25.86916160583496,-1.906667947769165,-0.177090550220758,-0.2090464011432944,-0.9617372505999472,0.1386239193955527,5.0,0.0
31.931652069091797,27.428361892700195,-2.27215576171875,-0.0,-0.0,-1.0,0.179845681412201,1.0,0.0
30.60072326660156,27.635107040405273,-2.3888967037200928,-0.0,-0.0,-1.0,0.0991795411915028,1.0,0.0
31.77745819091797,27.23596954345703,-2.3236236572265625,-0.0,-0.0,-1.0,0.0827071905936112,1.0,0.0
31.6352481842041,25.88763427734375,-1.8854846954345703,-0.0,-0.0,-1.0,0.1258113071397171,1.0,0.0
30.282161712646484,26.125919342041016,-2.215718984603882,0.1449772173615608,-0.3649682430209298,-0.9196628665072404,0.0647986652465477,3.0,0.0
31.659748077392575,27.131214141845703,-2.333799123764038,-0.0,-0.0,-1.0,0.071379641755353,1.0,0.0
31.654388427734375,25.707372665405273,-1.998474359512329,-0.7262420776047108,-0.1592266543310135,-0.668744582981384,0.148497810757706,3.0,0.0
31.85848617553711,26.92086410522461,-2.2669577598571777,-0.0,-0.0,-1.0,0.1290678510393191,1.0,0.0
32.30540084838867,27.26793670654297,-2.302992343902588,0.3659805971108469,-0.6354184078261318,-0.6799276796351884,0.0562447447528397,4.0,0.0
30.7083797454834,27.419246673583984,-2.1975584030151367,-0.0,-0.0,-1.0,0.1408407904537641,1.0,0.0
31.706092834472656,25.63951873779297,-1.9348913431167605,-0.0,-0.0,-1.0,0.142975128980556,1.0,0.0
31.892427444458008,26.35114860534668,-2.289423942565918,-0.0,-0.0,-1.0,0.0282944381409139,1.0,0.0
31.873912811279297,26.213598251342773,-1.1567227840423584,-0.0,-0.0,-1.0,0.0735635955398926,1.0,0.0
30.583131790161133,27.266685485839844,-2.157276153564453,-0.0,-0.0,-1.0,0.0771617320654119,1.0,0.0
31.90746307373047,25.986738204956055,-2.1067116260528564,-0.0,-0.0,-1.0,0.0908667771274624,2.0,0.0
31.78219223022461,25.8924560546875,-1.8882707357406616,-0.0,-0.0,-1.0,0.170924808146683,2.0,0.0
32.64506912231445,26.274641036987305,-2.271106719970703,-0.0,-0.0,-1.0,0.0485875823413254,2.0,0.0
31.829910278320312,25.826295852661133,-2.058478832244873,-0.5995383423695075,0.5126727237606975,-0.614589663385751,0.1793417069227925,4.0,0.0
31.92412567138672,25.98260498046875,-2.0854759216308594,-0.1629537611129433,0.9366144911694472,0.3101602274156746,0.0763057330718136,3.0,0.0
31.661296844482425,25.673583984375,-2.087430477142334,-0.6438365051404503,-0.1547917188289237,-0.7493424306887457,0.1300657548758645,7.0,0.0
30.82183074951172,27.405712127685547,-2.1847639083862305,-0.0,-0.0,-1.0,0.1955132039175425,1.0,0.0
30.36911392211914,27.102197647094727,-2.2143921852111816,0.946285367083626,0.31267379941375,-0.0823352852887338,0.1948817815288829,3.0,0.0
30.9083309173584,27.548816680908203,-2.1649556159973145,-0.0,-0.0,-1.0,0.1856991331223119,2.0,0.0
31.90700912475586,25.923656463623047,-2.0694828033447266,-0.0,-0.0,-1.0,0.1327905640785933,1.0,0.0
31.650409698486328,25.702722549438477,-2.0723180770874023,-0.6132651515887522,0.4107301122776153,-0.6746900241705387,0.2016233922236106,5.0,0.0
32.5589714050293,27.430912017822266,-2.254490375518799,0.4580158839334492,0.8786121018645466,0.1351377982720772,0.1513478794053481,4.0,0.0
31.922569274902344,25.96934700012207,-2.046257495880127,-0.0,-0.0,-1.0,0.1572770666629318,2.0,0.0
31.64591407775879,25.732006072998047,-2.044954299926758,-0.8961407000853663,0.3956350132577238,0.2010094075785258,0.2362068286825567,4.0,0.0
31.148880004882812,27.853227615356445,-2.3818323612213135,0.1072375665589216,-0.871029536895003,-0.4793825718306805,0.0709895966973341,3.0,0.0
30.899675369262695,27.47288703918457,-2.3347671031951904,-0.0,-0.0,-1.0,0.2227912106388557,1.0,0.0
30.52486801147461,27.2385311126709,-2.340827226638794,-0.0,-0.0,-1.0,0.2027769471843335,2.0,0.0
31.687789916992188,25.79954719543457,-2.00537109375,-0.2729551173547598,0.9451280605444106,-0.1795228483547716,0.2196434228628445,4.0,0.0
30.577707290649418,27.277320861816406,-2.3378491401672363,-0.0,-0.0,-1.0,0.1828359664668237,1.0,0.0
31.82939720153809,25.717466354370117,-2.091559886932373,-0.0,-0.0,-1.0,0.1511555889262668,2.0,0.0
31.6875,25.819826126098633,-1.9168047904968264,0.9024821359570934,0.2175728967534804,-0.371736504632813,0.1054641370001488,4.0,0.0
32.688636779785156,26.683340072631836,-2.261300563812256,-0.0,-0.0,-1.0,0.0652579809898792,1.0,0.0
31.784881591796875,25.75247383117676,-2.099409341812134,-0.0,-0.0,-1.0,0.1489397957797429,2.0,0.0
31.257240295410156,26.917503356933594,-2.333836078643799,-0.2013376319872118,-0.3636365248142153,-0.90952275164881,0.0454035231240703,3.0,0.0
30.38167953491211,26.90391540527344,-2.2989859580993652,-0.0,-0.0,-1.0,0.1639353962555633,1.0,0.0
31.966697692871097,25.673370361328125,-2.123446464538574,-0.0,-0.0,-1.0,0.097241124146565,1.0,0.0
31.53621482849121,25.913833618164062,-2.149592876434326,-0.9700896537546964,-0.0173939640044992,0.2421229309551318,0.1515003176340766,5.0,0.0
30.7271785736084,27.30404281616211,-1.9714086055755615,0.2340914414478453,0.9594301331098444,-0.157146481735024,0.0375392849680273,3.0,0.0
31.481861114501953,26.977882385253903,-2.426982879638672,-0.9134764800994029,0.4046012560275288,0.0431108330486824,0.0758598287017788,3.0,0.0
32.003746032714844,25.75312614440918,-2.1473309993743896,-0.0,-0.0,-1.0,0.0683831027063297,1.0,0.0
31.5865535736084,25.91752052307129,-2.1681652069091797,-0.0,-0.0,-1.0,0.1581246337413262,1.0,0.0
30.39214324951172,26.812808990478516,-2.357244968414306,-0.0,-0.0,-1.0,0.1045606820503255,2.0,0.0
32.56609344482422,26.007152557373047,-2.3151588439941406,-0.0,-0.0,-1.0,0.0091874438087107,1.0,0.0
31.467060089111328,26.943143844604492,-2.4145760536193848,-0.9134764800994029,0.4046012560275288,0.0431108330486824,0.0685362384668069,3.0,0.0
30.399959564208984,27.078054428100582,-2.357849597930908,-0.0,-0.0,-1.0,0.2051883861619011,2.0,0.0
31.529373168945312,25.933258056640625,-2.187602996826172,-0.8961362374890708,0.2810527528306373,0.3434373217710226,0.1022953930149729,4.0,0.0
31.507152557373047,26.805898666381836,-2.391392707824707,-0.0,-0.0,-1.0,0.0432848868355613,2.0,0.0
32.260643005371094,25.68593978881836,-2.2178711891174316,-0.0,-0.0,-1.0,0.017385077544238,1.0,0.0
30.414684295654297,27.062427520751953,-2.3521275520324707,-0.0,-0.0,-1.0,0.1869228187640431,2.0,0.0
31.740962982177734,25.80333709716797,-1.892082929611206,-0.2338129947932287,0.3258032711628793,-0.9160697091190106,0.1053468164431594,6.0,0.0
31.48573875427246,26.095458984375,-1.953147768974304,-0.0,-0.0,-1.0,0.1477286968873429,1.0,0.0
31.110397338867188,25.891496658325195,-2.2815747261047363,-0.0,-0.0,-1.0,0.057652155262429,2.0,0.0
31.333560943603516,26.12181854248047,-2.2744436264038086,-0.0,-0.0,-1.0,0.1359712897074292,1.0,0.0
31.464027404785156,26.05212020874023,-2.1751821041107178,-0.0,-0.0,-1.0,0.1105309845081838,2.0,0.0
31.556591033935547,25.76706314086914,-2.0733447074890137,-0.4284833343123666,0.7377990094664109,-0.5215885867682879,0.1315165717244331,3.0,0.0
32.56388473510742,27.19713020324707,-2.2763211727142334,0.6837902460358068,0.7267296014938134,-0.0655361407082695,0.1613266327729645,3.0,0.0
31.56632423400879,26.018329620361328,-2.029528856277466,-0.8161064105079822,-0.5253291286381029,0.2408311303218674,0.1463501819884259,3.0,0.0
31.569509506225582,26.094057083129883,-2.1169190406799316,0.3245245068772611,-0.0146794891675003,-0.9457633726434173,0.1737825649296892,4.0,0.0
31.87226104736328,27.462665557861328,-2.269042491912842,-0.0,-0.0,-1.0,0.1584101076274571,2.0,0.0
31.622966766357425,26.01129150390625,-2.1100406646728516,-0.0,-0.0,-1.0,0.1317868315798083,1.0,0.0
31.716957092285156,25.71953582763672,-2.1637299060821533,-0.0,-0.0,-1.0,0.1363099241468588,1.0,0.0
31.075532913208008,27.32401657104492,-2.145954847335815,-0.0,-0.0,-1.0,0.1234545978170022,2.0,0.0
31.70916748046875,25.874597549438477,-1.903890609741211,-0.0601740127797865,-0.325663131746466,-0.9435690821593626,0.1518258612972416,4.0,0.0
32.12306594848633,26.320005416870117,-2.2603206634521484,-0.0,-0.0,-1.0,0.0632336548825774,1.0,0.0
31.613609313964844,25.914941787719727,-2.0048458576202393,0.3352442285569839,0.6389659796812519,-0.6923393561175117,0.1484298921445741,5.0,0.0
32.08213424682617,26.820167541503903,-2.100996255874634,-0.0,-0.0,-1.0,0.1435675366349275,2.0,0.0
30.76700210571289,26.053852081298828,-2.3059747219085693,-0.0,-0.0,-1.0,0.0216628749836052,1.0,0.0
30.821800231933594,27.340591430664062,-2.205256938934326,-0.0,-0.0,-1.0,0.0792465625923504,1.0,0.0
32.60286331176758,27.71327209472656,-2.320333480834961,-0.0,-0.0,-1.0,0.0670557038559618,1.0,0.0
31.511966705322266,26.13463973999023,-2.0128841400146484,-0.0,-0.0,-1.0,0.2252835356768566,1.0,0.0
31.171432495117188,26.69866180419922,-2.3464484214782715,-0.0,-0.0,-1.0,0.043894550614732,1.0,0.0
30.73138427734375,27.68142318725586,-2.25468111038208,-0.0,-0.0,-1.0,0.1095855978753169,1.0,0.0
32.158077239990234,27.803787231445312,-2.361647605895996,-0.0,-0.0,-1.0,0.1408961700122998,2.0,0.0
31.546092987060547,25.91691780090332,-2.1233596801757812,-0.851500078510427,0.5239067686438817,0.0216636577212313,0.178127608756175,5.0,0.0
31.74064064025879,25.64458274841309,-1.9960832595825195,-0.0,-0.0,-1.0,0.1996986238154466,1.0,0.0
31.171886444091797,26.210277557373047,-2.096865177154541,-0.0,-0.0,-1.0,0.0742801688240638,1.0,0.0
31.56001091003418,25.724843978881836,-2.202077865600586,-0.4170510102308303,0.7960495093861681,0.4386041877039991,0.1044938594090731,3.0,0.0
30.365453720092773,26.51095390319824,-2.3036088943481445,-0.0,-0.0,-1.0,0.0258415634384983,2.0,0.0
31.1794490814209,27.66585922241211,-2.3103981018066406,-0.0,-0.0,-1.0,0.0899494349182267,1.0,0.0
30.989906311035156,26.589868545532227,-2.2075061798095703,-0.0,-0.0,-1.0,0.0615406650460124,1.0,0.0
31.600147247314453,25.817401885986328,-1.9713482856750488,0.2430472668400189,0.3550271379705703,-0.9027091211381562,0.1217197337400351,3.0,0.0
32.176658630371094,27.376461029052734,-2.4060099124908447,-0.0,-0.0,-1.0,0.0592281304496674,1.0,0.0
31.774755477905273,27.413074493408203,-2.365457773208618,-0.0,-0.0,-1.0,0.0902713074327272,1.0,0.0
31.51813316345215,25.70642852783203,-2.2084743976593018,-0.2197318224675755,0.7260206633533326,-0.6516225307484885,0.1021525793155876,3.0,0.0
31.428007125854492,26.000743865966797,-2.2207119464874268,-0.2675125262984503,-0.0602796947567784,-0.9616669936487632,0.0526369704134533,3.0,0.0
31.754667282104492,25.885009765625,-1.909684658050537,-0.2214048935850169,0.934806729877026,-0.2776981290416415,0.1967777291875965,4.0,0.0
30.377696990966797,25.93720817565918,-2.218144416809082,-0.0,-0.0,-1.0,0.0268948202567135,2.0,0.0
30.642179489135746,25.7642879486084,-2.2142114639282227,0.8227628834181614,-0.050978786413842,-0.5660939860175205,0.0194695387844367,4.0,0.0
31.41826057434082,26.48409652709961,-2.416989803314209,-0.0,-0.0,-1.0,0.0574091051466953,1.0,0.0
31.558197021484375,26.92388916015625,-2.503849983215332,-0.0,-0.0,-1.0,0.0804139659748425,1.0,0.0
31.21434211730957,27.01047134399414,-2.4805803298950195,-0.0,-0.0,-1.0,0.0682272884027942,1.0,0.0
31.46430206298828,27.01317024230957,-2.508176803588867,-0.0,-0.0,-1.0,0.0721053993364762,1.0,0.0
31.046113967895508,27.30238151550293,-2.510164737701416,-0.0,-0.0,-1.0,0.0451375079062624,1.0,0.0
30.490827560424805,27.24118423461914,-2.4403676986694336,-0.0,-0.0,-1.0,0.1118561683486536,1.0,0.0
30.761043548583984,27.556135177612305,-2.5211801528930664,-0.0,-0.0,-1.0,0.0638479974416142,1.0,0.0
30.6016788482666,27.85876083374023,-2.5539889335632324,-0.0,-0.0,-1.0,0.0411538057632326,1.0,0.0
30.52747344970703,28.073627471923828,-2.581573009490967,-0.0,-0.0,-1.0,0.0748701178203334,1.0,0.0
31.370494842529297,26.056976318359375,-2.342391014099121,-0.0,-0.0,-1.0,0.098510159217255,1.0,0.0
32.46947479248047,27.43389320373535,-2.309972763061523,-0.0,-0.0,-1.0,0.1704201804297724,1.0,0.0
32.51654052734375,27.99135398864746,-2.406213760375977,-0.0,-0.0,-1.0,0.0981423754152658,1.0,0.0
32.251792907714844,27.96179962158203,-2.370133876800537,-0.0,-0.0,-1.0,0.091585589173052,1.0,0.0
31.647533416748047,25.79962730407715,-1.9478235244750977,-0.4056337701661753,-0.217045381679577,-0.8878921932263742,0.1009405294769636,6.0,0.0
31.327682495117188,26.731374740600582,-2.315004825592041,-0.6056849582788889,-0.7929805900733221,-0.0657838512225166,0.0363369011624694,3.0,0.0
31.085765838623047,27.10584259033203,-2.3456220626831055,-0.0,-0.0,-1.0,0.1166708944957712,1.0,0.0
30.80133056640625,27.365283966064453,-2.352134704589844,-0.1972113852971377,0.9611532188418664,-0.1931117795969559,0.2245565076565299,3.0,0.0
30.72645568847656,27.528627395629883,-2.37050724029541,-0.0,-0.0,-1.0,0.1010184181956748,1.0,0.0
30.398738861083984,27.25551986694336,-2.2801742553710938,-0.0,-0.0,-1.0,0.1167808414751285,1.0,0.0
30.502864837646484,27.76822280883789,-2.3828864097595215,-0.0,-0.0,-1.0,0.0551579293480576,1.0,0.0
31.334877014160156,25.888330459594727,-2.1757302284240723,-0.0,-0.0,-1.0,0.069677265186309,1.0,0.0
31.243946075439453,26.10997200012207,-2.199720859527588,-0.0,-0.0,-1.0,0.061563657931194,1.0,0.0
31.03596305847168,25.907468795776367,-2.2303659915924072,0.1366472602024402,-0.1689203021921813,-0.9761113961974162,0.0132543152738454,3.0,0.0
30.970260620117188,25.994184494018555,-2.2373435497283936,-0.0,-0.0,-1.0,0.0151111533022905,2.0,0.0
30.871137619018555,26.20121192932129,-2.2601935863494873,-0.4799880878977045,-0.7273479054678671,-0.4904859425995936,0.0189715899482214,4.0,0.0
30.856367111206055,26.653852462768555,-2.331327199935913,-0.0,-0.0,-1.0,0.0278299683083962,1.0,0.0
30.727869033813477,26.51988220214844,-2.296808958053589,-0.0,-0.0,-1.0,0.0147955620330107,1.0,0.0
30.356515884399418,26.845684051513672,-2.3128106594085693,-0.0,-0.0,-1.0,0.1600971734764585,1.0,0.0
30.32451629638672,27.204601287841797,-2.368501901626587,-0.1447484326935761,0.4076968562494848,-0.9015714972408124,0.2480839076457495,3.0,0.0
31.1850643157959,25.704097747802734,-2.213822603225708,-0.0,-0.0,-1.0,0.0713863627535805,1.0,0.0
30.22762680053711,26.463146209716797,-2.237795114517212,-0.0,-0.0,-1.0,0.0217146298147893,1.0,0.0
30.427738189697266,26.71014404296875,-2.302051305770874,-0.0,-0.0,-1.0,0.064535314505469,1.0,0.0
30.418712615966797,26.93755340576172,-2.332106828689575,-0.0,-0.0,-1.0,0.1526286955703616,1.0,0.0
30.527511596679688,27.293914794921875,-2.392387628555298,-0.0,-0.0,-1.0,0.2060996878718631,2.0,0.0
30.85800552368164,25.77749252319336,-2.2239224910736084,-0.0,-0.0,-1.0,0.0175540867168781,1.0,0.0
30.73900604248047,26.10521697998047,-2.2542412281036377,-0.0,-0.0,-1.0,0.0195222839948553,1.0,0.0
30.30913543701172,26.12160873413086,-2.209756135940552,0.1449772173615608,-0.3649682430209298,-0.9196628665072404,0.068707419165249,3.0,0.0
31.253337860107425,25.701000213623047,-2.442229747772217,-0.0,-0.0,-1.0,0.067586523166941,1.0,0.0
31.185705184936523,26.09945297241211,-2.475764274597168,-0.0,-0.0,-1.0,0.0904663933878707,1.0,0.0
31.29966163635254,26.459171295166016,-2.5326881408691406,-0.0,-0.0,-1.0,0.0659760210067844,1.0,0.0
31.134368896484375,26.05229377746582,-2.4628548622131348,-0.0,-0.0,-1.0,0.1075021086092027,1.0,0.0
31.88695526123047,26.68114471435547,-2.358356237411499,-0.0,-0.0,-1.0,0.0645188178448589,1.0,0.0
32.026878356933594,27.02063369750977,-2.413321733474731,-0.0,-0.0,-1.0,0.0815105341076748,1.0,0.0
31.84894561767578,27.499515533447266,-2.430715322494507,-0.0,-0.0,-1.0,0.0817237558083172,1.0,0.0
31.74165725708008,27.115711212158203,-2.3760077953338623,-0.0,-0.0,-1.0,0.0683388480768678,2.0,0.0
31.76998519897461,27.318492889404297,-2.4002692699432373,-0.0,-0.0,-1.0,0.0507631806848332,1.0,0.0
31.910972595214844,26.461339950561523,-2.3418614864349365,-0.0,-0.0,-1.0,0.0329112711095481,1.0,0.0
31.84454345703125,26.532752990722656,-2.33752703666687,-0.0,-0.0,-1.0,0.0496956207325859,1.0,0.0
31.52551651000977,25.795955657958984,-2.2172014713287354,-0.0,-0.0,-1.0,0.0764176626737545,1.0,0.0
31.79300308227539,26.26205062866211,-2.304009199142456,-0.0,-0.0,-1.0,0.0373453991305784,1.0,0.0
30.92999267578125,27.463809967041016,-2.280465841293335,-0.0,-0.0,-1.0,0.1750364924466254,1.0,0.0
30.83997344970703,27.69504165649414,-2.2899506092071533,-0.0,-0.0,-1.0,0.2421496640623789,2.0,0.0
30.365253448486328,27.20106506347656,-2.164428949356079,-0.5978207542277835,0.7569237163147507,0.2639636973047448,0.2067711982944525,4.0,0.0
31.07352066040039,26.639020919799805,-2.37524938583374,-0.0,-0.0,-1.0,0.0460446287690268,2.0,0.0
30.93608856201172,25.93485450744629,-2.275207996368408,-0.0,-0.0,-1.0,0.0130440615538858,1.0,0.0
30.90045928955078,26.183958053588867,-2.296597957611084,-0.5490453159197933,-0.8344857593531873,-0.0467200011051869,0.0198331531769517,3.0,0.0
30.910404205322266,26.35558319091797,-2.317183017730713,-0.0,-0.0,-1.0,0.0280669337220539,1.0,0.0
30.73276138305664,27.472639083862305,-2.4169106483459473,-0.0,-0.0,-1.0,0.0893862598756071,1.0,0.0
30.686744689941406,27.61259078979492,-2.426314353942871,-0.0,-0.0,-1.0,0.0965787134371202,2.0,0.0
30.55841064453125,27.81382751464844,-2.4304685592651367,-0.0,-0.0,-1.0,0.0469124263757077,1.0,0.0
30.41833114624023,28.059795379638672,-2.438742160797119,-0.0,-0.0,-1.0,0.0766647188372845,1.0,0.0
30.943809509277344,25.723861694335938,-2.253772735595703,-0.0,-0.0,-1.0,0.0431068524801021,1.0,0.0
30.853435516357425,25.988975524902344,-2.267541885375977,-0.0,-0.0,-1.0,0.0185949835331566,1.0,0.0
32.63252258300781,26.5960636138916,-2.1561222076416016,-0.0,-0.0,-1.0,0.2227572820445417,2.0,0.0
32.67141342163086,26.7244930267334,-2.176915168762207,-0.0,-0.0,-1.0,0.1047751151317907,1.0,0.0
32.69422912597656,27.268970489501953,-2.244840145111084,-0.0,-0.0,-1.0,0.1403227840554547,2.0,0.0
32.55653381347656,27.5190486907959,-2.2548770904541016,-0.0,-0.0,-1.0,0.1508001062246554,1.0,0.0
31.67308807373047,25.9703369140625,-1.940197467803955,-0.0,-0.0,-1.0,0.1297492947026788,2.0,0.0
32.699832916259766,27.48891830444336,-2.3558671474456787,-0.0,-0.0,-1.0,0.1529659598327865,1.0,0.0
31.755645751953125,25.74281311035156,-2.0988223552703857,-0.2017670290170713,0.7360453076039097,-0.6461635792551995,0.1286284683319088,4.0,0.0
32.0584831237793,26.94448471069336,-2.2073814868927,-0.0,-0.0,-1.0,0.1390133728179829,1.0,0.0
31.62960433959961,25.92062759399414,-2.0808842182159424,-0.0,-0.0,-1.0,0.1926913711777559,2.0,0.0
30.94305419921875,27.64882469177246,-2.0295002460479736,0.601920003750729,0.3589191721676062,0.7133507811275199,0.2013305898816537,3.0,0.0
30.616455078125,25.835590362548828,-2.1689910888671875,-0.0,-0.0,-1.0,0.0275965015016802,1.0,0.0
30.689285278320312,26.903879165649418,-2.2806334495544434,-0.0,-0.0,-1.0,0.0364634138438693,1.0,0.0
30.51842498779297,27.394729614257812,-2.301694393157959,-0.0,-0.0,-1.0,0.2110937862143835,1.0,0.0
30.493972778320312,27.48402976989746,-2.3068013191223145,-0.0,-0.0,-1.0,0.156159304698657,1.0,0.0
30.39125061035156,26.81299591064453,-2.223996639251709,-0.0,-0.0,-1.0,0.1308464468712427,1.0,0.0
30.39511489868164,27.134218215942383,-2.256110668182373,-0.0,-0.0,-1.0,0.1930158157726858,2.0,0.0
30.318836212158203,27.9178524017334,-2.3236937522888184,-0.0,-0.0,-1.0,0.0736106706644532,1.0,0.0
32.513092041015625,27.16149139404297,-2.1781551837921143,-0.0,-0.0,-1.0,0.1252795571290736,1.0,0.0
31.649856567382812,25.897369384765625,-1.955310583114624,-0.5738050929257802,-0.6185765378730405,-0.5367595198274915,0.1307886555766512,4.0,0.0
31.07074737548828,26.62677764892578,-2.3952841758728027,-0.0,-0.0,-1.0,0.0460446287690268,2.0,0.0
31.07970809936523,27.07506561279297,-2.430230617523194,-0.4865919219385007,-0.547613459478993,-0.6806965553766563,0.0717852306973674,3.0,0.0
30.84455108642578,26.280040740966797,-2.327986717224121,-0.0,-0.0,-1.0,0.0171658051465213,1.0,0.0
30.909725189208984,26.436920166015625,-2.351356029510498,-0.0,-0.0,-1.0,0.0233392015320244,1.0,0.0
30.8568115234375,27.436019897460938,-2.417020797729492,-0.0,-0.0,-1.0,0.1355826904558623,1.0,0.0
30.844314575195312,27.876991271972656,-2.4505786895751953,-0.0,-0.0,-1.0,0.0570867274527257,1.0,0.0
31.185840606689453,25.789945602416992,-2.2507219314575195,-0.0,-0.0,-1.0,0.0823042956987742,1.0,0.0
31.20640563964844,26.190967559814453,-2.285543918609619,-0.0,-0.0,-1.0,0.1511436855424179,1.0,0.0
31.392070770263672,26.534439086914062,-2.347438335418701,-0.0,-0.0,-1.0,0.0633361275197651,1.0,0.0
31.36859893798828,26.914134979248047,-2.3747706413269043,-0.0,-0.0,-1.0,0.0605219617579414,1.0,0.0
31.2664794921875,27.266422271728516,-2.386624336242676,-0.0,-0.0,-1.0,0.0387133361407806,2.0,0.0
30.979881286621097,27.463787078857425,-2.35233211517334,-0.0,-0.0,-1.0,0.1648471693111528,2.0,0.0
30.941173553466797,27.813045501708984,-2.3776254653930664,-0.0,-0.0,-1.0,0.1148551520391163,1.0,0.0
30.970233917236328,28.03013801574707,-2.4033918380737305,-0.0,-0.0,-1.0,0.0542314026759807,1.0,0.0
30.5341796875,27.24797821044922,-2.2519454956054688,-0.0,-0.0,-1.0,0.1257310369178017,1.0,0.0
30.36572265625,27.713468551635746,-2.446761131286621,-0.1539520524849775,-0.2387960517426054,-0.958788407944008,0.0657812332143957,3.0,0.0
30.275056838989254,26.83488655090332,-2.364923000335694,0.144823738956168,-0.6511330492506383,-0.7450180110630357,0.1262349185464497,3.0,0.0
30.359359741210938,27.213621139526367,-2.4084463119506836,-0.0,-0.0,-1.0,0.1506207940544469,2.0,0.0
30.33060646057129,27.49091529846191,-2.422969341278076,-0.0,-0.0,-1.0,0.0778660525143581,1.0,0.0
32.655818939208984,26.39002990722656,-2.274963855743408,0.3229419105267949,0.7859359571767766,0.527269564494223,0.091662255818029,3.0,0.0
31.86490249633789,25.639827728271484,-2.1064515113830566,-0.0,-0.0,-1.0,0.1398736949597391,2.0,0.0
31.64117431640625,25.796123504638672,-2.0657801628112793,-0.1561890467769375,0.9696206693117952,-0.1882571095875467,0.1709146072454823,3.0,0.0
31.667823791503903,26.09061050415039,-2.0769271850585938,-0.0,-0.0,-1.0,0.1610037649892209,2.0,0.0
32.07391357421875,26.912439346313477,-2.3611838817596436,-0.0,-0.0,-1.0,0.173805752048052,2.0,0.0
32.12670135498047,27.713314056396484,-2.400800943374634,-0.0,-0.0,-1.0,0.1136008539125103,1.0,0.0
32.206451416015625,27.9873046875,-2.4278581142425537,-0.0,-0.0,-1.0,0.106830058661526,1.0,0.0
31.76380157470703,26.464746475219727,-2.285425901412964,-0.0,-0.0,-1.0,0.0369922649279396,2.0,0.0
31.87559509277344,26.709550857543945,-2.315079927444458,-0.0,-0.0,-1.0,0.0831257046766989,2.0,0.0
31.826251983642575,27.19342041015625,-2.3215205669403076,-0.0,-0.0,-1.0,0.0946733090954165,1.0,0.0
31.839401245117188,27.482433319091797,-2.334825277328491,-0.0,-0.0,-1.0,0.1587209071544926,2.0,0.0
31.49547004699707,26.07079315185547,-2.2208092212677,-0.4601573859935745,-0.1658165979287271,-0.8722155903025948,0.0454297199185701,4.0,0.0
31.451671600341797,25.908958435058594,-2.2079641819000244,-0.0,-0.0,-1.0,0.0915294563762034,1.0,0.0
30.90668678283691,27.542245864868164,-2.152613878250122,-0.0,-0.0,-1.0,0.1815890434226043,2.0,0.0
32.466243743896484,26.46410369873047,-2.3471767902374268,0.8692824292970857,0.4709554707701486,-0.1501632533845246,0.0411144983043502,3.0,0.0
32.45850372314453,27.08044815063477,-2.360375165939331,-0.0,-0.0,-1.0,0.0674663514066668,1.0,0.0
32.57978057861328,27.60021591186523,-2.399796724319458,-0.0,-0.0,-1.0,0.1060516172820229,1.0,0.0
32.59398651123047,27.894027709960938,-2.4122893810272217,-0.0,-0.0,-1.0,0.0923064273114548,1.0,0.0
32.38164520263672,26.32903480529785,-2.327415227890014,-0.0,-0.0,-1.0,0.111866770740146,1.0,0.0
32.39564895629883,26.70064163208008,-2.3382856845855713,-0.0,-0.0,-1.0,0.0104185879309484,1.0,0.0
32.387847900390625,27.171632766723633,-2.348823308944702,-0.0,-0.0,-1.0,0.0531552429098935,1.0,0.0
32.37022018432617,27.39818572998047,-2.351792097091675,-0.0,-0.0,-1.0,0.1226376253197766,1.0,0.0
32.29227066040039,28.0433349609375,-2.357708692550659,0.5620226761010712,-0.7458415403657108,-0.3575624535841169,0.1123739557273065,4.0,0.0
31.797313690185547,26.17082977294922,-2.206857442855835,-0.0,-0.0,-1.0,0.0515140409803719,1.0,0.0
31.56166076660156,25.67001724243164,-2.15107798576355,-0.0,-0.0,-1.0,0.1343180217320864,2.0,0.0
31.539447784423828,25.901588439941406,-2.150179624557495,-0.8959545967822445,-0.2486283906982097,0.3680343514450576,0.1515003176340767,4.0,0.0
32.49644470214844,28.111230850219727,-2.274725437164306,-0.0,-0.0,-1.0,0.0913738294017388,1.0,0.0
31.78363609313965,25.696067810058594,-2.080519676208496,-0.0,-0.0,-1.0,0.1787312008745596,1.0,0.0
31.57328987121582,25.799949645996097,-2.040544033050537,-0.7634324411969144,0.6068932631021948,-0.2210236976645035,0.115509052268461,4.0,0.0
31.6237850189209,26.038393020629883,-2.0536818504333496,-0.0,-0.0,-1.0,0.1543489823919246,1.0,0.0
30.481502532958984,27.282655715942383,-2.4095327854156494,-0.0,-0.0,-1.0,0.1142378775553836,2.0,0.0
30.54145050048828,27.620601654052734,-2.4402883052825928,-0.0,-0.0,-1.0,0.0677610993031752,1.0,0.0
30.531463623046875,28.01569175720215,-2.459848165512085,-0.0,-0.0,-1.0,0.0785514100319961,2.0,0.0
30.30160140991211,26.820690155029297,-2.347355604171753,-0.0,-0.0,-1.0,0.1111363413403909,2.0,0.0
30.34569549560547,27.14769744873047,-2.3724257946014404,-0.3880701962465402,-0.6215293285233107,-0.6805165806727521,0.2318171997627751,4.0,0.0
31.63443374633789,25.797061920166016,-1.933701515197754,-0.791284963568859,-0.3041825624181919,-0.5304159454150411,0.1015751779738082,5.0,0.0
31.668516159057617,25.951616287231445,-1.94395112991333,-0.0,-0.0,-1.0,0.1206706601069411,2.0,0.0
31.288589477539062,26.676536560058594,-2.375410556793213,-0.0,-0.0,-1.0,0.0722722137389398,2.0,0.0
31.26362037658691,26.98286247253418,-2.379246234893799,-0.0,-0.0,-1.0,0.0521975938613725,2.0,0.0
31.430505752563477,28.084686279296875,-2.4567933082580566,-0.0,-0.0,-1.0,0.0108586552413238,1.0,0.0
30.849159240722656,25.90580177307129,-2.261228084564209,-0.0,-0.0,-1.0,0.0148728490567594,1.0,0.0
30.933847427368164,26.16135025024414,-2.2851619720458984,-0.346122631249276,-0.7770814194767663,-0.5256839275087751,0.0193251029889356,3.0,0.0
31.107690811157227,26.45187187194824,-2.3299784660339355,-0.0,-0.0,-1.0,0.0858041008048935,1.0,0.0
31.12724876403809,27.36406517028809,-2.3624401092529297,-0.0,-0.0,-1.0,0.1977079241907889,2.0,0.0
30.953956604003903,27.72357749938965,-2.3383469581604004,-0.0,-0.0,-1.0,0.200706859998234,1.0,0.0
30.799203872680664,25.681209564208984,-2.246166706085205,-0.0,-0.0,-1.0,0.0203813123770249,2.0,0.0
30.396766662597656,27.21956443786621,-2.1986308097839355,-0.2269580202743867,0.970336815737436,-0.0832857794444205,0.2057439931094165,7.0,0.0
30.258411407470703,27.22608184814453,-2.4018118381500244,-0.0,-0.0,-1.0,0.2009686946488627,2.0,0.0
30.367956161499023,27.67622947692871,-2.43784499168396,-0.0,-0.0,-1.0,0.0692030165501632,2.0,0.0
30.292888641357425,28.051469802856445,-2.431764841079712,-0.0,-0.0,-1.0,0.0743860929365547,2.0,0.0
32.46265411376953,27.60103416442871,-2.417783260345459,-0.0,-0.0,-1.0,0.0776954322194914,1.0,0.0
32.08607864379883,26.86640739440918,-2.334761619567871,-0.0,-0.0,-1.0,0.204900121671742,1.0,0.0
32.145111083984375,27.106821060180664,-2.3484411239624023,-0.0,-0.0,-1.0,0.0396126481677982,1.0,0.0
32.16949462890625,27.74970436096191,-2.360414505004883,-0.0,-0.0,-1.0,0.1336970941733524,1.0,0.0
32.215919494628906,28.02940368652344,-2.373992919921875,-0.0,-0.0,-1.0,0.1096299681930201,2.0,0.0
31.834701538085938,26.410839080810547,-2.2822065353393555,-0.0,-0.0,-1.0,0.0356151509004517,2.0,0.0
31.890226364135746,26.68570327758789,-2.294290065765381,-0.0,-0.0,-1.0,0.0918038018689571,2.0,0.0
31.92615127563477,27.36308479309082,-2.3065757751464844,-0.0360087664739937,-0.8908222845050552,-0.4529227596028006,0.1745650750072259,3.0,0.0
31.469118118286133,25.968198776245117,-2.2086830139160156,-0.0,-0.0,-1.0,0.0824383929896466,1.0,0.0
31.569480895996097,26.213029861450195,-2.2285876274108887,-0.0,-0.0,-1.0,0.0932857282440334,1.0,0.0
30.847806930541992,27.396547317504883,-2.089040756225586,-0.0,-0.0,-1.0,0.1809740688647484,1.0,0.0
30.89596939086914,27.621034622192383,-2.1011595726013184,-0.0,-0.0,-1.0,0.2172407475076746,2.0,0.0
30.560216903686523,27.280345916748047,-2.0299205780029297,-0.0,-0.0,-1.0,0.0615685680474776,1.0,0.0
32.59070587158203,27.27992248535156,-2.2676117420196533,-0.1032980450638951,0.8789847462557697,0.4655269377121563,0.1640629905799076,4.0,0.0
31.60103225708008,25.786415100097656,-2.082479238510132,-0.1605999669310414,0.6498478959113713,-0.7429033334164761,0.1719097407845149,4.0,0.0
31.5654296875,25.999513626098633,-2.073603868484497,-0.8161064105079822,-0.5253291286381029,0.2408311303218674,0.0989033408967722,3.0,0.0
30.60173988342285,27.027019500732425,-2.415226459503174,-0.0,-0.0,-1.0,0.0497209350279301,1.0,0.0
30.5454158782959,27.272127151489254,-2.4005517959594727,-0.0,-0.0,-1.0,0.1939550963880075,2.0,0.0
30.67791175842285,27.644458770751953,-2.4269394874572754,-0.963661154386955,-0.2671247752196384,-0.001238543281169,0.0982213158457257,3.0,0.0
30.80860137939453,28.097915649414062,-2.4540529251098633,-0.0,-0.0,-1.0,0.0522844117520197,2.0,0.0
30.31529235839844,26.984664916992188,-2.3533825874328613,0.482770371433175,0.6234910200991574,-0.6149729395038339,0.1519205605002531,3.0,0.0
30.339946746826172,27.237646102905273,-2.3560361862182617,-0.0,-0.0,-1.0,0.2280156573691505,2.0,0.0
30.653614044189453,27.887083053588867,-2.4204845428466797,-0.0,-0.0,-1.0,0.0484687216257702,1.0,0.0
30.780149459838867,28.10696792602539,-2.4477291107177734,-0.0,-0.0,-1.0,0.0527598299316439,2.0,0.0
32.501617431640625,26.23930549621582,-2.2820141315460205,-0.0,-0.0,-1.0,0.1148939173328859,2.0,0.0
32.22275924682617,26.096435546875,-2.226656198501587,-0.0,-0.0,-1.0,0.0193121059567713,1.0,0.0
32.50704574584961,26.456134796142575,-2.2827985286712646,-0.0,-0.0,-1.0,0.1195410867901431,2.0,0.0
32.5636100769043,26.69947052001953,-2.2943522930145264,-0.0,-0.0,-1.0,0.0690528457221933,1.0,0.0
32.621795654296875,27.068605422973633,-2.3071720600128174,-0.0,-0.0,-1.0,0.1142547740295882,1.0,0.0
31.55608367919922,25.862201690673828,-2.0951621532440186,-0.8383859931265287,-0.5223218555358836,-0.1558486629997055,0.1424811198063267,3.0,0.0
31.72088623046875,26.149978637695312,-2.126286745071411,-0.0,-0.0,-1.0,0.0895848227458456,2.0,0.0
32.57843017578125,27.29198455810547,-2.299575090408325,0.0121153109206288,0.9370570194290072,0.3489661324256578,0.1411905016651823,3.0,0.0
32.62602615356445,27.366840362548828,-2.309685468673706,-0.0,-0.0,-1.0,0.1854338147282744,2.0,0.0
31.479949951171875,25.75069808959961,-2.1737136840820312,-0.0,-0.0,-1.0,0.0834638437401286,2.0,0.0
31.73052978515625,26.09235382080078,-2.2119569778442383,-0.0,-0.0,-1.0,0.0942118277210601,2.0,0.0
31.961101531982425,26.401859283447266,-2.2483277320861816,-0.0,-0.0,-1.0,0.0245139274783653,1.0,0.0
32.201026916503906,26.671104431152344,-2.2885823249816895,-0.0,-0.0,-1.0,0.0638178373138522,1.0,0.0
32.1458740234375,26.896041870117188,-2.2712230682373047,-0.1499318236875876,0.6152984412898748,-0.7739045654290746,0.1914888829591378,3.0,0.0
32.29931640625,27.16712760925293,-2.295180320739746,-0.0,-0.0,-1.0,0.0534972300492861,1.0,0.0
32.643558502197266,27.44160270690918,-2.358285903930664,-0.0,-0.0,-1.0,0.1723064482913909,2.0,0.0
32.367496490478516,27.798046112060547,-2.294478416442871,-0.0,-0.0,-1.0,0.0685132499761619,2.0,0.0
32.44107437133789,28.110759735107425,-2.3032779693603516,-0.0,-0.0,-1.0,0.0913738294017389,1.0,0.0
30.493576049804688,27.16065216064453,-1.9310874938964844,-0.0,-0.0,-1.0,0.1096173153733859,1.0,0.0
31.04540252685547,27.40060043334961,-2.035858154296875,-0.0,-0.0,-1.0,0.2072990668300675,2.0,0.0
30.49545669555664,25.90450859069824,-2.2614986896514893,-0.0,-0.0,-1.0,0.0200402772512916,1.0,0.0
30.83433723449707,26.149734497070312,-2.3159492015838623,-0.0,-0.0,-1.0,0.0181124199581683,1.0,0.0
31.06789207458496,26.48093032836914,-2.3443195819854736,-0.0,-0.0,-1.0,0.0875861138674384,1.0,0.0
31.009321212768555,26.80789566040039,-2.312751054763794,-0.0,-0.0,-1.0,0.0449110575410395,1.0,0.0
31.161457061767575,27.16328811645508,-2.324928045272827,-0.0,-0.0,-1.0,0.1023935964716096,1.0,0.0
31.680158615112305,27.49695587158203,-2.4172356128692627,-0.0,-0.0,-1.0,0.0753743253951134,2.0,0.0
30.854976654052734,26.978084564208984,-2.2706096172332764,-0.0,-0.0,-1.0,0.0466001079593477,1.0,0.0
31.08628273010254,27.18568420410156,-2.307905435562134,-0.0,-0.0,-1.0,0.2019070250994216,1.0,0.0
31.343076705932617,27.389419555664062,-2.3513314723968506,-0.0,-0.0,-1.0,0.0218222895071878,1.0,0.0
31.682954788208008,27.699283599853516,-2.4078404903411865,-0.0,-0.0,-1.0,0.0424172449966841,1.0,0.0
32.08076858520508,27.877819061279297,-2.484077215194702,-0.0,-0.0,-1.0,0.0412838177271086,1.0,0.0
30.339797973632812,26.870128631591797,-2.2213692665100098,-0.0,-0.0,-1.0,0.1488015363036214,1.0,0.0
30.50586700439453,27.047378540039062,-2.2447280883789062,-0.0,-0.0,-1.0,0.1298117284697934,1.0,0.0
30.719886779785156,27.327213287353516,-2.2720346450805664,-0.0,-0.0,-1.0,0.1797229629512159,1.0,0.0
30.838726043701172,27.56149673461914,-2.2825889587402344,-0.0965533085924229,0.4706578589490047,-0.8770168974480455,0.1516736068050393,3.0,0.0
30.940406799316406,27.839740753173828,-2.2871341705322266,-0.0,-0.0,-1.0,0.1020517731738568,1.0,0.0
31.094528198242188,28.06816864013672,-2.307107925415039,-0.0,-0.0,-1.0,0.0665658226948248,1.0,0.0
31.935535430908203,25.96306610107422,-1.8165903091430664,-0.0,-0.0,-1.0,0.1794275503514731,1.0,0.0
31.74213409423828,25.768348693847656,-2.060842514038086,-0.496534658002825,0.563399875482488,-0.6603286406845719,0.1264477091318641,4.0,0.0
31.71879196166992,25.975021362304688,-2.0533061027526855,-0.0,-0.0,-1.0,0.2135807393124469,1.0,0.0
31.976882934570312,26.16315269470215,-2.1070261001586914,-0.0,-0.0,-1.0,0.0404500838610696,1.0,0.0
32.2253303527832,26.96384620666504,-2.156435489654541,-0.0,-0.0,-1.0,0.1584997542390009,1.0,0.0
31.527294158935547,25.778963088989254,-2.146116256713867,-0.0,-0.0,-1.0,0.1114452649443808,2.0,0.0
31.56992530822754,25.96085548400879,-2.141860008239746,-0.2795608208769211,0.9553309558261658,0.0958567278331891,0.1590134245466439,3.0,0.0
31.70981788635254,26.186534881591797,-2.1546363830566406,0.97224330282612,0.1684198495031177,-0.1624121744300731,0.0711408980372885,3.0,0.0
32.07769012451172,26.136077880859375,-2.2329063415527344,-0.0,-0.0,-1.0,0.0448198311493872,2.0,0.0
32.38343811035156,26.27153968811035,-2.2863264083862305,-0.0,-0.0,-1.0,0.1016296319070842,1.0,0.0
31.875865936279297,26.749736785888672,-2.1517186164855957,-0.0,-0.0,-1.0,0.1211255426542895,1.0,0.0
32.5739860534668,26.56766700744629,-2.3064169883728027,-0.0,-0.0,-1.0,0.1081540039332793,2.0,0.0
32.656044006347656,26.660436630249023,-2.3174853324890137,-0.0,-0.0,-1.0,0.0689818052270979,1.0,0.0
30.28777313232422,26.777996063232425,-2.369755983352661,-0.0,-0.0,-1.0,0.0871268489626963,1.0,0.0
30.30576515197754,26.98037338256836,-2.3652126789093018,0.482770371433175,0.6234910200991574,-0.6149729395038339,0.1475951295743203,3.0,0.0
30.447248458862305,27.078163146972656,-2.3964293003082275,-0.0,-0.0,-1.0,0.1439830049348456,1.0,0.0
30.663116455078125,27.56880569458008,-2.431649923324585,-0.0,-0.0,-1.0,0.0997503775962284,1.0,0.0
30.64521217346191,27.365203857421875,-2.4346606731414795,-0.0,-0.0,-1.0,0.05717381864981,1.0,0.0
30.7421875,27.864089965820312,-2.4416544437408447,-0.0,-0.0,-1.0,0.0479783393473328,1.0,0.0
31.59956169128418,25.92724609375,-1.976771593093872,-0.9068129499756148,0.08482802108003,-0.4129097729482431,0.1423239412247306,4.0,0.0
32.47471618652344,26.439626693725582,-2.146700143814087,-0.0,-0.0,-1.0,0.2069806531031999,1.0,0.0
32.630470275878906,26.660541534423828,-2.1737420558929443,-0.0,-0.0,-1.0,0.1951456055316174,1.0,0.0
32.597633361816406,27.4459285736084,-2.146735429763794,-0.0,-0.0,-1.0,0.2123573314781816,2.0,0.0
31.14013671875,26.00857925415039,-2.2692017555236816,-0.0,-0.0,-1.0,0.1039706064049747,1.0,0.0
31.398685455322266,26.40333366394043,-2.30889892578125,-0.0,-0.0,-1.0,0.0483135378847105,1.0,0.0
31.310035705566406,26.271339416503903,-2.2947964668273926,-0.0,-0.0,-1.0,0.109804854576613,1.0,0.0
31.011981964111328,27.428024291992188,-2.1714000701904297,-0.0,-0.0,-1.0,0.2254058050709706,1.0,0.0
31.551319122314453,26.735136032104492,-2.3289341926574707,-0.0,-0.0,-1.0,0.0348912605066176,1.0,0.0
31.731388092041016,27.366966247558594,-2.34486722946167,-0.0,-0.0,-1.0,0.0738389359422032,1.0,0.0
31.675270080566406,27.058120727539062,-2.3440041542053223,-0.0,-0.0,-1.0,0.0680439066858902,2.0,0.0
31.93744659423828,27.524633407592773,-2.3881092071533203,-0.0,-0.0,-1.0,0.1182825764259892,1.0,0.0
32.1661491394043,27.85832977294922,-2.431464672088623,-0.0,-0.0,-1.0,0.0788555801598527,2.0,0.0
32.14098358154297,27.650959014892575,-2.4322733879089355,-0.0,-0.0,-1.0,0.1123747642927459,1.0,0.0
30.340442657470703,26.95965576171875,-2.358994483947754,0.482770371433175,0.6234910200991574,-0.6149729395038339,0.1752275563885152,3.0,0.0
30.234575271606445,26.725540161132812,-2.3475823402404785,-0.0,-0.0,-1.0,0.0919540823889065,1.0,0.0
30.618118286132812,27.274761199951172,-2.4100828170776367,-0.0,-0.0,-1.0,0.1295067079195831,1.0,0.0
30.727020263671875,27.711259841918945,-2.4131970405578613,-0.0,-0.0,-1.0,0.1086477941933555,1.0,0.0
30.662357330322266,27.463912963867188,-2.41032075881958,-0.0,-0.0,-1.0,0.0707175202744098,1.0,0.0
30.874040603637695,28.00216293334961,-2.43575668334961,-0.0,-0.0,-1.0,0.041685282679333,1.0,0.0
32.68559265136719,25.978824615478516,-2.251345157623291,-0.0,-0.0,-1.0,0.0070935628101816,2.0,0.0
31.56382751464844,25.795896530151367,-2.0191426277160645,-0.7632760606625767,0.6065106433912036,-0.2226083885944259,0.1096564884652355,3.0,0.0
31.58173561096191,25.68135452270508,-2.029974460601806,-0.0,-0.0,-1.0,0.1353193559185382,1.0,0.0
31.662132263183594,25.98164749145508,-2.029324531555176,-0.0,-0.0,-1.0,0.2116250336011922,1.0,0.0
32.03117370605469,26.838869094848633,-2.06322717666626,-0.0,-0.0,-1.0,0.1705170205814732,1.0,0.0
32.44938278198242,28.05741500854492,-2.102226734161377,-0.0,-0.0,-1.0,0.14828351713179,1.0,0.0
30.703453063964844,25.829334259033203,-2.2457876205444336,-0.0,-0.0,-1.0,0.0262450576347616,1.0,0.0
30.99532127380371,26.287994384765625,-2.286892890930176,-0.0,-0.0,-1.0,0.0225742772767699,2.0,0.0
30.8354434967041,26.06282615661621,-2.26224422454834,-0.0,-0.0,-1.0,0.0250691126139012,2.0,0.0
31.30913352966309,26.747303009033203,-2.3362255096435547,-0.6056849582788889,-0.7929805900733221,-0.0657838512225166,0.0334962775828298,3.0,0.0
31.26261329650879,26.554338455200195,-2.3362860679626465,-0.0,-0.0,-1.0,0.0703178774867086,2.0,0.0
31.48369789123535,27.256376266479492,-2.3510818481445312,-0.0,-0.0,-1.0,0.0359775684697334,2.0,0.0
31.462785720825195,26.948963165283203,-2.362858295440674,-0.0,-0.0,-1.0,0.068536238466807,1.0,0.0
31.868267059326172,27.752174377441406,-2.422199249267578,-0.0,-0.0,-1.0,0.0592433961200856,1.0,0.0
31.779529571533203,27.599517822265625,-2.4073548316955566,-0.0,-0.0,-1.0,0.0759664981057824,2.0,0.0
32.05207061767578,28.02587127685547,-2.4557132720947266,-0.0,-0.0,-1.0,0.0727485006614384,2.0,0.0
30.560169219970703,27.22184944152832,-2.122861862182617,-0.0,-0.0,-1.0,0.0976654764650112,1.0,0.0
30.83883476257324,27.579856872558594,-2.1730165481567383,-0.0,-0.0,-1.0,0.1549783787992028,1.0,0.0
31.523099899291992,26.888092041015625,-2.3537111282348633,-0.0,-0.0,-1.0,0.0846843206492942,1.0,0.0
31.77202606201172,27.806900024414062,-2.4028725624084473,-0.0,-0.0,-1.0,0.0430606715362889,2.0,0.0
31.85904884338379,28.023834228515625,-2.4232120513916016,-0.0,-0.0,-1.0,0.0481083749058517,1.0,0.0
30.468196868896484,27.223783493041992,-2.0735597610473633,-0.0,-0.0,-1.0,0.1435762700335213,1.0,0.0
30.965953826904297,25.89220428466797,-2.237668991088867,0.1420032404857719,-0.1356280613267505,-0.9805305240900396,0.0133815963853313,4.0,0.0
30.873159408569336,27.771142959594727,-2.1692633628845215,-0.0,-0.0,-1.0,0.2072741545705394,1.0,0.0
30.943113327026367,27.629179000854492,-2.1895155906677246,-0.0,-0.0,-1.0,0.164763139705236,2.0,0.0
31.193363189697266,26.358551025390625,-2.2817702293395996,-0.0,-0.0,-1.0,0.0626615250744497,1.0,0.0
31.05260848999023,26.131366729736328,-2.252164363861084,-0.0,-0.0,-1.0,0.045066038779578,2.0,0.0
31.467132568359375,27.258420944213867,-2.3317995071411133,-0.0,-0.0,-1.0,0.0359775684697333,2.0,0.0
31.41962432861328,26.797496795654297,-2.3288869857788086,-0.0,-0.0,-1.0,0.03083655386655,2.0,0.0
31.396574020385746,26.604063034057617,-2.327554225921631,-0.0,-0.0,-1.0,0.0739441700002146,2.0,0.0
31.53960418701172,27.39028549194336,-2.3483004570007324,-0.0,-0.0,-1.0,0.0372082547634124,1.0,0.0
30.20992851257324,26.94485855102539,-2.3618357181549072,-0.0,-0.0,-1.0,0.1217575639489288,1.0,0.0
30.469558715820312,27.493297576904297,-2.4189183712005615,-0.0,-0.0,-1.0,0.0497572339920658,1.0,0.0
30.325239181518555,27.162813186645508,-2.38751482963562,-0.5430811207665347,-0.0454414611420512,-0.8384497420097645,0.2352745345720338,4.0,0.0
32.086971282958984,26.241941452026367,-2.2436344623565674,-0.0,-0.0,-1.0,0.0330952497172051,1.0,0.0
32.362205505371094,26.783838272094727,-2.296203851699829,-0.0,-0.0,-1.0,0.0285138333118672,1.0,0.0
32.29890060424805,26.408647537231445,-2.2914388179779053,-0.0,-0.0,-1.0,0.123693067461232,1.0,0.0
32.54714584350586,27.202241897583008,-2.33221173286438,-0.0,-0.0,-1.0,0.1539979419463891,2.0,0.0
32.44171142578125,26.87098503112793,-2.3138625621795654,-0.0,-0.0,-1.0,0.0259891427107725,1.0,0.0
31.61626243591309,26.081382751464844,-2.1313774585723877,0.1555503511941841,0.9695659165644038,-0.1890661833326969,0.1359792740384616,5.0,0.0
31.555360794067383,25.803333282470703,-2.1267716884613037,-0.6655156107469133,0.7459359347971378,0.0258563924491251,0.1291504349338984,3.0,0.0
31.898658752441406,26.182994842529297,-2.1984522342681885,-0.0,-0.0,-1.0,0.0341353391760168,2.0,0.0
31.70715713500977,26.162124633789062,-2.1958775520324707,0.9593275799238616,0.2114384057060858,-0.1870411585451064,0.0740695975758602,3.0,0.0
31.588184356689453,25.72374725341797,-2.1732983589172363,-0.0,-0.0,-1.0,0.1266123204571834,2.0,0.0
32.0496940612793,26.284011840820312,-2.28420352935791,-0.0,-0.0,-1.0,0.0231347585740087,1.0,0.0
30.380578994750977,25.91709899902344,-2.249577283859253,-0.0,-0.0,-1.0,0.0268948202567134,2.0,0.0
30.325796127319336,25.704078674316406,-2.236316442489624,-0.0,-0.0,-1.0,0.0241281526017012,1.0,0.0
31.677154541015625,25.898433685302734,-2.0084664821624756,-0.0,-0.0,-1.0,0.1838518606496369,1.0,0.0
31.60350799560547,25.949230194091797,-1.976210594177246,-0.9068129499756148,0.08482802108003,-0.4129097729482431,0.1323869464163302,4.0,0.0
31.70235824584961,25.81221389770508,-1.971662521362305,0.2768447501872865,0.953485735374408,-0.1192557618367471,0.1581060067049668,5.0,0.0
32.658782958984375,26.315839767456055,-2.2841625213623047,-0.0,-0.0,-1.0,0.0705094623459849,2.0,0.0
32.27619171142578,27.012529373168945,-2.3352208137512207,-0.0,-0.0,-1.0,0.0469444957704751,2.0,0.0
32.322303771972656,26.83490753173828,-2.310125827789306,-0.0,-0.0,-1.0,0.0406136362736961,1.0,0.0
31.619808197021484,25.752058029174805,-2.103621006011963,-0.0,-0.0,-1.0,0.154259314937473,2.0,0.0
31.89315414428711,25.669471740722656,-2.145993232727051,-0.0,-0.0,-1.0,0.1602278475184409,2.0,0.0
31.588394165039062,25.966720581054688,-2.146449565887451,-0.2795608208769211,0.9553309558261658,0.0958567278331891,0.112578194770175,3.0,0.0
32.03385543823242,25.66538429260254,-2.176757335662842,-0.0,-0.0,-1.0,0.0622478660293825,2.0,0.0
31.79117202758789,26.46545028686523,-2.3078107833862305,-0.0,-0.0,-1.0,0.0332226416136595,2.0,0.0
30.385601043701172,27.22686004638672,-2.199090003967285,-0.6241846821884586,0.7776218072376834,-0.075483822304465,0.2057439931094165,6.0,0.0
31.52795791625977,27.000133514404297,-2.3791356086730957,-0.0,-0.0,-1.0,0.0731429030849044,1.0,0.0
31.703510284423828,26.678730010986328,-2.3394055366516113,-0.0,-0.0,-1.0,0.0582385246400743,1.0,0.0
30.85946273803711,27.529672622680664,-2.3713040351867676,-0.0,-0.0,-1.0,0.1537982236407762,1.0,0.0
31.170799255371097,27.28552627563477,-2.3742637634277344,-0.0,-0.0,-1.0,0.1612837773000379,1.0,0.0
31.364158630371097,27.12982177734375,-2.3760828971862793,-0.0,-0.0,-1.0,0.05531797664131,1.0,0.0
30.552997589111328,28.03339576721191,-2.438661575317383,-0.0,-0.0,-1.0,0.0766584294062602,2.0,0.0
30.737586975097656,27.76639938354492,-2.406688690185547,-0.0,-0.0,-1.0,0.0761795867797626,2.0,0.0
32.65288543701172,27.46681785583496,-2.126426696777344,-0.0,-0.0,-1.0,0.183712621543249,1.0,0.0
31.638389587402344,25.694564819335938,-2.162047863006592,-0.051859937013225,0.8708979347519432,-0.4887200979883926,0.1107354969072853,3.0,0.0
31.430450439453125,26.251712799072266,-2.2612762451171875,-0.0,-0.0,-1.0,0.0568857549881303,1.0,0.0
31.51842880249023,26.03662109375,-2.223907470703125,-0.5632794395385279,-0.3089635770770592,-0.7663274633163745,0.0509296353501896,3.0,0.0
31.395267486572266,26.593971252441406,-2.345280170440674,-0.0,-0.0,-1.0,0.0739441700002146,2.0,0.0
30.49182891845703,27.222103118896484,-2.3303537368774414,-0.1482643551263254,-0.302161393690483,-0.9416560800855056,0.2044952512463777,3.0,0.0
31.04070281982422,27.073562622070312,-2.4011387825012207,-0.0,-0.0,-1.0,0.0709487453112717,2.0,0.0
31.24834442138672,26.827991485595703,-2.3772125244140625,-0.0,-0.0,-1.0,0.0436140460567766,1.0,0.0
30.378896713256836,27.62849235534668,-2.4242095947265625,-0.0,-0.0,-1.0,0.0539357832461105,1.0,0.0
30.546966552734375,27.45587158203125,-2.408142566680908,-0.0,-0.0,-1.0,0.0980726796240704,1.0,0.0
30.833837509155273,27.248779296875,-2.4072227478027344,-0.0,-0.0,-1.0,0.105481266436889,2.0,0.0
