x,y,z,nx,ny,nz,curvature,density
18.83676528930664,-6.959831237792969,0.0062983036041259,-0.0,-0.0,-1.0,0.0635922690723411,1.0
18.563934326171875,-6.685222625732422,0.0290057659149169,-0.0,-0.0,-1.0,0.0451400638377019,1.0
17.78582191467285,-7.106678009033203,0.2927019596099853,0.3008192122362764,-0.4512289510008016,-0.8401786924983651,0.1448452501154285,3.0
18.02147674560547,-7.255985260009766,0.2766604423522949,0.8883661946383377,-0.3929135694712724,0.2375382730196189,0.1743010476260121,3.0
18.370296478271484,-6.757728576660156,0.2875947952270508,-0.0,-0.0,-1.0,0.1311354965157287,1.0
18.715328216552734,-7.267185211181641,0.249786376953125,-0.5659753825424948,-0.3838631304757145,-0.7296032918081314,0.102576046305976,3.0
18.944482803344727,-7.408702850341797,0.234126329421997,-0.0,-0.0,-1.0,0.1907441673407931,2.0
19.10662841796875,-7.541393280029297,0.221440315246582,-0.0,-0.0,-1.0,0.116804527484741,2.0
18.449565887451172,-8.203636169433594,0.7190736532211304,-0.0,-0.0,-1.0,0.206055470430264,1.0
18.7832088470459,-7.655723571777344,0.7131545543670654,-0.1812105004038037,0.9625599544634696,-0.2015963506779977,0.1724625351790803,3.0
19.68634033203125,-8.188640594482422,0.629570484161377,0.9713619363453808,0.1076640498255167,-0.2118122777237449,0.1939310414243155,8.0
17.91655158996582,-7.325716018676758,0.3933084011077881,0.4868669465269467,0.8265781232791204,-0.282363564391538,0.2385079765010613,3.0
18.21324157714844,-7.64134407043457,0.3597598075866699,-0.0,-0.0,-1.0,0.207112953385619,1.0
18.40351104736328,-6.988374710083008,0.3782448768615722,0.1189193663428017,-0.243857604750478,-0.9624924170683042,0.227566984836109,3.0
18.461669921875,-7.496084213256836,0.3507571220397949,0.6990196009918467,0.1175575365993616,-0.7053735343900349,0.212070971518946,3.0
18.790225982666016,-7.475126266479492,0.3307232856750488,0.4854293154584429,0.6732316314866145,-0.5577791230042756,0.1798916475589072,3.0
19.01062774658203,-7.642965316772461,0.3086984157562256,-0.2951415614072639,0.9550764938273824,-0.0268393306264598,0.1639848805301155,8.0
19.299131393432617,-6.843328475952148,0.3273491859436035,0.2104711856076305,0.2751448871968507,-0.9380816441431687,0.2813717359511596,4.0
19.23389434814453,-7.816312789916992,0.2861707210540771,-0.0,-0.0,-1.0,0.1175063223578608,1.0
19.544940948486328,-6.734659194946289,0.3163855075836181,0.9625811385865318,0.2191647390404142,-0.1593874800566313,0.1999521409919801,3.0
18.377117156982425,-8.172035217285156,0.6462039947509766,-0.0,-0.0,-1.0,0.1949287375690624,2.0
18.71527099609375,-7.681159973144531,0.640027642250061,-0.3343950982456262,0.8022603506569801,-0.4945283086265513,0.2546215621917067,4.0
19.177471160888672,-8.346382141113281,0.580115795135498,-0.0,-0.0,-1.0,0.1752880925805723,1.0
19.564945220947266,-8.280021667480469,0.5535773038864136,0.6195091652212885,0.3586893233229877,-0.6982480673377617,0.290950144827056,4.0
18.77676773071289,-7.497810363769531,0.8652477264404297,-0.0,-0.0,-1.0,0.2432822847160557,2.0
17.73204803466797,-7.258033752441406,0.345883846282959,0.4327840417787024,0.614765063609623,-0.659364762287724,0.1919588445417079,6.0
18.15865898132324,-7.311309814453125,0.3156332969665527,0.5376365167549998,-0.0520498795731213,-0.8415686459748689,0.1070538665950252,4.0
18.365711212158203,-6.9222259521484375,0.3234496116638183,-0.0960906686544018,-0.2650918803473919,-0.959423200871979,0.192444249468547,4.0
18.636150360107425,-7.269943237304688,0.2869477272033691,-0.0,-0.0,-1.0,0.1091228536589733,2.0
18.761306762695312,-7.381999969482422,0.2726838588714599,0.8054718184659992,-0.4741837812750245,-0.3554783977020209,0.1404704402013285,4.0
19.01573944091797,-7.503330230712891,0.2494053840637207,0.178817951413524,0.7946385888399415,-0.5801496818742011,0.154019903528561,5.0
19.28372573852539,-7.67529296875,0.2224085330963134,-0.0,-0.0,-1.0,0.0998152975674497,1.0
19.42450714111328,-6.794353485107422,0.2609119415283203,0.7113014368342159,-0.6907707328029534,-0.1299463760958753,0.1780873654467332,4.0
19.540151596069336,-6.764007568359375,0.2548635005950928,-0.5450073278105038,0.6525422867004499,-0.5264556740131133,0.1881163348623558,3.0
18.347091674804688,-8.26512336730957,0.6116747856140137,-0.0,-0.0,-1.0,0.1914424428975507,2.0
18.715070724487305,-7.760835647583008,0.6096612215042114,-0.0,-0.0,-1.0,0.243825821007828,2.0
18.964048385620117,-7.837568283081055,0.5890047550201416,-0.0,-0.0,-1.0,0.2131100360870059,2.0
19.236064910888672,-8.181795120239258,0.5544086694717407,-0.0615505089260687,0.9920624608988832,0.1096522162393175,0.1627582812214586,3.0
19.534114837646484,-8.172601699829102,0.5340826511383057,0.081544052238847,-0.1153778009474389,-0.9899689543581665,0.2466538635255237,3.0
17.886821746826172,-6.892461776733398,0.1623885631561279,-0.0,-0.0,-1.0,0.1496798588984788,2.0
18.2653865814209,-6.77735710144043,0.1467945575714111,-0.6387915482734442,-0.7606108784745568,-0.1158293978253332,0.2351794008329538,3.0
18.616016387939453,-7.02880859375,0.1085274219512939,-0.0,-0.0,-1.0,0.134929891733536,2.0
18.92623519897461,-6.828973770141602,0.1020648479461669,-0.0,-0.0,-1.0,0.1588929841543762,1.0
17.819110870361328,-7.291206359863281,0.3199284076690674,-0.0,-0.0,-1.0,0.1542275377710915,2.0
18.043399810791016,-7.354312896728516,0.3009250164031982,-0.0,-0.0,-1.0,0.2145061078675997,2.0
18.252283096313477,-7.38392448425293,0.2849063873291015,-0.0,-0.0,-1.0,0.1331741251096269,2.0
18.733842849731445,-7.307403564453125,0.2565839290618896,0.8653072926048437,0.3353876562715077,-0.3725028984928583,0.1075843580539878,3.0
19.16504669189453,-6.718902587890625,0.2631361484527588,-0.0,-0.0,-1.0,0.2127827783789601,1.0
19.123714447021484,-7.4503936767578125,0.2203955650329589,-0.0,-0.0,-1.0,0.1489097358408407,2.0
19.01994514465332,-7.509988784790039,0.2239725589752197,0.711080588883279,0.4318057450782508,0.554894759959784,0.1462887386674434,5.0
19.43943977355957,-6.774271011352539,0.2401473522186279,0.4300802826249205,-0.4213599472705918,-0.7984276706962206,0.2271473188584281,6.0
18.10536003112793,-8.170766830444336,0.5569478273391724,-0.0,-0.0,-1.0,0.1739246474583659,1.0
17.954015731811523,-7.178827285766602,0.6227405071258545,-0.0,-0.0,-1.0,0.2031703207542361,1.0
18.407068252563477,-7.815744400024414,0.5578269958496094,-0.0,-0.0,-1.0,0.1900328565330434,2.0
18.273014068603516,-8.293619155883789,0.5393297672271729,0.2492598961038363,-0.4294747059837622,-0.8679982610088949,0.2042091555736624,3.0
18.60413360595703,-7.635360717773437,0.555315375328064,-0.0,-0.0,-1.0,0.2389848461727014,1.0
18.91069602966309,-7.580102920532227,0.5384430885314941,-0.0067934312386578,0.353017956719116,-0.9355918829948592,0.2419866359445888,3.0
19.10551643371582,-8.028793334960938,0.5002318620681763,-0.0,-0.0,-1.0,0.2915273691125042,2.0
19.285476684570312,-8.185478210449219,0.4794350862503052,-0.0,-0.0,-1.0,0.1629641365863873,2.0
19.485719680786133,-8.014408111572266,0.4756830930709839,-0.0,-0.0,-1.0,0.2290620984183844,2.0
19.49664878845215,-8.131484985351562,0.4683278799057007,0.7159540122633955,0.6283941952360156,-0.3041884082565044,0.1615371193977245,3.0
17.916236877441406,-6.440149307250977,0.0955443382263183,-0.0,-0.0,-1.0,0.0704910122611195,1.0
18.188840866088867,-7.583322525024414,1.010107159614563,-0.0,-0.0,-1.0,0.2184735289521031,2.0
18.697349548339844,-7.583721160888672,0.9718811511993408,-0.0,-0.0,-1.0,0.1689413298718507,2.0
17.82357406616211,-6.9296417236328125,0.1040465831756591,-0.0,-0.0,-1.0,0.1003189446611197,1.0
17.819828033447266,-6.878730773925781,0.1083924770355224,-0.0,-0.0,-1.0,0.1490171621989708,1.0
18.094764709472656,-6.613025665283203,0.1119081974029541,-0.0,-0.0,-1.0,0.1453425765501369,1.0
18.239320755004883,-6.796321868896484,0.0875303745269775,-0.0,-0.0,-1.0,0.2334512618660067,1.0
18.948345184326172,-6.697084426879883,0.0477130413055419,-0.0,-0.0,-1.0,0.1086462022104381,2.0
19.346832275390625,-6.5000152587890625,0.0359792709350585,-0.0,-0.0,-1.0,0.1360650377450446,1.0
19.013832092285156,-8.326929092407227,0.9274319410324096,-0.0,-0.0,-1.0,0.1382451468397803,2.0
18.68531036376953,-7.322763442993164,0.9066226482391356,-0.0,-0.0,-1.0,0.1747146157456975,1.0
18.97966766357422,-7.557039260864258,0.8675031661987305,-0.0,-0.0,-1.0,0.240215659769352,1.0
17.882308959960938,-7.087121963500977,0.1566004753112793,-0.0,-0.0,-1.0,0.174800437741274,1.0
18.91085624694824,-6.968042373657227,0.086254596710205,-0.0,-0.0,-1.0,0.0861464166506833,1.0
19.00851058959961,-7.087858200073242,0.0685195922851562,-0.0,-0.0,-1.0,0.0865446483061419,2.0
19.139713287353516,-7.065286636352539,0.0597293376922607,-0.0,-0.0,-1.0,0.119796455083558,2.0
18.01593589782715,-6.929725646972656,0.1594569683074951,-0.0,-0.0,-1.0,0.2313117022119286,1.0
18.45248031616211,-6.721832275390625,0.1429004669189453,-0.0,-0.0,-1.0,0.1736663579060983,1.0
18.27689552307129,-6.871364593505859,0.1442227363586425,-0.0,-0.0,-1.0,0.1999855028669181,1.0
18.540864944458008,-6.68208122253418,0.1392412185668945,-0.0,-0.0,-1.0,0.1836134321231602,1.0
18.769142150878903,-6.805387496948242,0.1109931468963623,-0.0,-0.0,-1.0,0.2111531708845961,2.0
19.471540451049805,-6.417507171630859,0.0856552124023437,-0.0,-0.0,-1.0,0.2130083458780095,1.0
18.64991569519043,-7.788539886474609,0.9886910915374756,-0.0,-0.0,-1.0,0.1852750917030064,2.0
19.000232696533203,-7.418304443359375,0.9789762496948242,-0.0,-0.0,-1.0,0.1976345151532219,1.0
19.22635078430176,-8.152643203735352,0.9265351295471193,-0.0,-0.0,-1.0,0.1209363626351213,1.0
17.79929542541504,-7.480432510375977,0.5041919946670532,-0.6156947734538024,0.7728381364476097,-0.1537568235684399,0.1468659450689479,3.0
18.69504165649414,-7.856304168701172,0.4143139123916626,-0.0,-0.0,-1.0,0.2226547376425082,1.0
18.591516494750977,-7.440744400024414,0.4509550333023071,0.9133445697606584,0.0976837784597708,-0.3952968205216684,0.1923595729911057,3.0
18.88123893737793,-7.916570663452148,0.396466851234436,-0.0,-0.0,-1.0,0.1727469695378377,1.0
19.357725143432617,-8.107521057128906,0.347585916519165,-0.0,-0.0,-1.0,0.2172939954147581,2.0
17.847179412841797,-7.378864288330078,0.5080827474594116,-0.0385555265127081,0.9552538816773938,0.2932635212835026,0.2744418893493067,4.0
18.218706130981445,-7.354171752929688,0.4837508201599121,0.0654639535837722,0.5122111814342601,-0.8563610082172713,0.2503662233234847,3.0
18.50036239624023,-7.4116668701171875,0.4595575332641601,-0.0,-0.0,-1.0,0.2498969220765195,1.0
19.188735961914062,-6.654994964599609,0.4620208740234375,0.7555597521496838,-0.6507746937880957,0.0749783892632946,0.3016511899564231,3.0
19.569738388061523,-7.094049453735352,0.4023202657699585,-0.0,-0.0,-1.0,0.1811951571277329,1.0
18.02347755432129,-8.150493621826172,0.5978255271911621,-0.0,-0.0,-1.0,0.166206658738568,1.0
18.25239372253418,-7.998804092407227,0.5921815633773804,-0.0,-0.0,-1.0,0.1633727052012188,1.0
18.79408073425293,-8.092460632324219,0.547795295715332,-0.0,-0.0,-1.0,0.1974807481058355,1.0
18.88825225830078,-8.241947174072266,0.5311157703399658,-0.0,-0.0,-1.0,0.1772013974854952,1.0
19.178821563720703,-8.04749870300293,0.5227851867675781,-0.6995025030897936,0.6577167030076091,0.2794726941150314,0.2201255753977319,3.0
19.59090232849121,-8.355804443359375,0.4717127084732055,-0.0,-0.0,-1.0,0.1835916386168044,1.0
18.521625518798828,-7.535392761230469,0.6040719747543335,-0.0,-0.0,-1.0,0.2392429272278268,1.0
17.825916290283203,-7.449361801147461,0.4421205520629883,-0.0,-0.0,-1.0,0.2456738018787823,2.0
18.244543075561523,-7.962722778320312,0.3797616958618164,-0.0,-0.0,-1.0,0.2053887852681738,1.0
18.001075744628906,-7.444414138793945,0.4333858489990234,-0.0,-0.0,-1.0,0.2480979577817538,1.0
18.47691535949707,-7.584770202636719,0.3968524932861328,-0.0,-0.0,-1.0,0.1809138287303416,1.0
18.9529972076416,-7.797029495239258,0.3535256385803222,0.6849535773069163,0.4405607449831697,0.5802971884425538,0.1358707644071779,4.0
19.04107666015625,-7.868894577026367,0.3428230285644531,-0.8236132838512374,0.4352964225780481,0.3635631762906335,0.1621887620962162,4.0
18.654624938964844,-7.455394744873047,0.3972105979919433,-0.0,-0.0,-1.0,0.2518052418059934,2.0
18.824317932128903,-7.490230560302734,0.3849571943283081,0.9645437734057558,0.202229714893968,0.1695831701499016,0.2327257602489962,8.0
19.1762638092041,-7.921226501464844,0.3308773040771484,0.1966584423646536,-0.4810545589351397,-0.8543488563663122,0.1713676783473324,3.0
19.709287643432617,-7.832626342773437,0.3061327934265136,-0.0,-0.0,-1.0,0.1766301808956633,1.0
19.4742431640625,-6.831966400146484,0.3989795446395874,-0.0,-0.0,-1.0,0.2375224994053767,2.0
18.1312255859375,-8.081335067749023,0.3398017883300781,-0.0,-0.0,-1.0,0.1994589785320602,1.0
17.919029235839844,-7.433406829833984,0.4056738615036011,0.6361478196552363,0.3183512156601398,-0.7028288945650994,0.1654406963287187,4.0
18.17515563964844,-7.4570465087890625,0.3900164365768432,-0.0,-0.0,-1.0,0.2321333862220161,1.0
18.496980667114254,-7.692523956298828,0.35235595703125,-0.0,-0.0,-1.0,0.1480343297884706,1.0
18.340593338012695,-7.527708053588867,0.3749949932098388,-0.0,-0.0,-1.0,0.2011668820538504,1.0
18.76584243774414,-7.527032852172852,0.3508815765380859,0.9292337501851404,0.3024013924573792,-0.2123158857850683,0.2004512895250121,5.0
19.095645904541016,-7.764278411865234,0.3113436698913574,-0.0,-0.0,-1.0,0.0958333271019292,2.0
18.463489532470703,-6.92793083190918,0.4187239408493042,-0.0,-0.0,-1.0,0.1953407718358717,1.0
19.694805145263672,-7.724573135375977,0.2774500846862793,-0.0,-0.0,-1.0,0.1992773005655213,1.0
19.33428955078125,-6.874582290649414,0.372039794921875,0.3482445476209866,-0.8036012613692359,-0.48264971540241,0.1499678269285518,5.0
19.54511260986328,-6.758569717407227,0.3687131404876709,-0.4059893476017804,-0.4287191860722082,-0.8070765199951391,0.2095946326288681,6.0
18.029645919799805,-8.356636047363281,0.4370036125183105,-0.0,-0.0,-1.0,0.1535007432520593,2.0
18.385141372680664,-7.834592819213867,0.4692126512527466,-0.0,-0.0,-1.0,0.1553649744386725,2.0
19.066606521606445,-8.052682876586914,0.4321976900100708,-0.7258729271841856,-0.0691117670598741,-0.6843479065759783,0.1609270518670016,3.0
19.59673309326172,-8.201148986816406,0.4030215740203857,-0.0,-0.0,-1.0,0.132144810827357,2.0
17.88040542602539,-7.4477386474609375,0.512354850769043,-0.0509089067028821,0.3810517034548,-0.9231510615887912,0.2252266898775607,7.0
18.54330825805664,-7.48097038269043,0.4929876327514648,0.3626924604935972,0.08319713154983,-0.9281877053715916,0.270697109392606,3.0
18.75002098083496,-7.540359497070312,0.4824352264404297,0.3789727041545664,0.6198968659919271,-0.6871008405169963,0.2753957099026077,5.0
19.145816802978516,-7.910980224609375,0.4409910440444946,-0.9398075685423364,-0.2998340794648923,-0.1638940477930243,0.1986858341488691,3.0
18.336715698242188,-7.064275741577148,0.5315139293670654,-0.0,-0.0,-1.0,0.2539245947982973,2.0
17.992780685424805,-7.786746978759766,0.319249153137207,-0.0,-0.0,-1.0,0.1286062507602485,1.0
18.967994689941406,-7.779953002929688,0.313368558883667,0.4401609490705962,0.7552997007205184,0.4855725496820913,0.0903388158254163,3.0
19.08042335510254,-7.868894577026367,0.3046128749847412,-0.0,-0.0,-1.0,0.131306225825071,1.0
19.5499210357666,-7.928133010864258,0.2938945293426513,-0.0,-0.0,-1.0,0.1351363675174733,1.0
17.994800567626953,-7.402191162109375,0.3518390655517578,0.1683442977861396,0.2584376587243974,-0.9512466420208502,0.2168624949940298,3.0
18.452930450439453,-7.501064300537109,0.341266393661499,0.6990196009918467,0.1175575365993616,-0.7053735343900349,0.1963291857336563,3.0
18.78852081298828,-7.525562286376953,0.3367640972137451,0.7700238498250179,-0.1368874212214733,0.6231573674538342,0.1983984540692548,5.0
19.27702522277832,-7.67742919921875,0.3188867568969726,-0.0,-0.0,-1.0,0.2402656078858545,1.0
18.281246185302734,-6.963726043701172,0.3879989385604858,-0.0,-0.0,-1.0,0.1759791080792661,2.0
19.518625259399418,-6.952465057373047,0.3782958984375,-0.0,-0.0,-1.0,0.1656437518569337,1.0
18.710302352905273,-6.866630554199219,0.0679953098297119,-0.0,-0.0,-1.0,0.1454564332669753,2.0
17.833890914916992,-6.52741813659668,0.1040756702423095,-0.0,-0.0,-1.0,0.0737686878329575,2.0
18.168962478637695,-6.677635192871094,0.0889723300933837,-0.070850017776414,0.4278977562973551,-0.901045939526266,0.1646289865765803,3.0
18.64092063903809,-6.793905258178711,0.0755727291107177,-0.0,-0.0,-1.0,0.1832071352330469,1.0
19.0142879486084,-6.542751312255859,0.0978009700775146,-0.0,-0.0,-1.0,0.2404194826968493,1.0
19.38019561767578,-6.57630729675293,0.0911605358123779,-0.0,-0.0,-1.0,0.2160502941898417,1.0
19.200496673583984,-6.4144439697265625,0.1089327335357666,-0.0,-0.0,-1.0,0.2343908082579676,2.0
19.63576889038086,-8.137948989868164,0.8168343305587769,0.9459394571578076,0.3218957322321048,-0.039770352811478,0.2146065518432688,4.0
18.68400764465332,-7.569112777709961,0.8678346872329712,0.6275316873096832,0.717548536583499,0.3022053591006302,0.2066226011640041,5.0
17.966278076171875,-6.953042984008789,0.1695270538330078,-0.0,-0.0,-1.0,0.1448453835142027,2.0
18.455463409423828,-6.971563339233398,0.1663832664489746,-0.0,-0.0,-1.0,0.1504609534493394,1.0
18.741605758666992,-7.107690811157227,0.1521558761596679,-0.0,-0.0,-1.0,0.0866805013158959,1.0
18.241390228271484,-6.693809509277344,0.1930561065673828,0.3329804136072373,-0.0549960523357929,-0.9413285708940488,0.2493383365238081,3.0
18.377731323242188,-6.844354629516602,0.1786129474639892,0.1844500413852172,0.7538300024057546,-0.6306492763065157,0.2516551595568124,3.0
19.27134132385254,-6.784872055053711,0.1784439086914062,-0.0,-0.0,-1.0,0.246680433936858,1.0
19.569122314453125,-6.759370803833008,0.1778397560119629,-0.0,-0.0,-1.0,0.2056776706742275,2.0
18.14546775817871,-7.517589569091797,0.9921118021011353,-0.0,-0.0,-1.0,0.1483736190648046,1.0
18.065025329589844,-6.886335372924805,0.2228248119354248,-0.0,-0.0,-1.0,0.2464004985514201,2.0
18.455455780029297,-6.934925079345703,0.2214877605438232,-0.6518503559969026,-0.3754653472554664,-0.6588754710846682,0.2034208405500414,4.0
18.6638240814209,-7.13432502746582,0.2047927379608154,-0.0,-0.0,-1.0,0.0696657420088923,1.0
19.10949325561523,-7.269216537475586,0.19419527053833,-0.0,-0.0,-1.0,0.1116436304026798,1.0
18.351036071777344,-6.843914031982422,0.2288968563079834,0.3018593097420676,-0.5226188363114027,-0.7973396447277392,0.2474114473972552,6.0
19.11768341064453,-6.5570526123046875,0.2585594654083252,-0.0,-0.0,-1.0,0.1880034044415608,2.0
19.545677185058594,-6.705217361450195,0.2458083629608154,-0.0,-0.0,-1.0,0.190947632735993,2.0
17.780189514160156,-7.058055877685547,0.2144258022308349,-0.0,-0.0,-1.0,0.1380128361605079,2.0
18.09895133972168,-6.9260406494140625,0.2292404174804687,0.910261759099074,-0.04544949263033,-0.411531133137585,0.1656740125635279,3.0
18.55546760559082,-7.041191101074219,0.2231647968292236,-0.0,-0.0,-1.0,0.1556820002699011,2.0
18.390382766723633,-6.867341995239258,0.2371556758880615,0.1857058196979401,-0.029319325070558,-0.9821678704313856,0.2333906600023191,4.0
19.481887817382812,-6.746076583862305,0.2537424564361572,0.6622728362729705,0.7021252714522889,-0.2615622173078615,0.2543279855047202,6.0
19.57675552368164,-6.718534469604492,0.256394624710083,0.4754820598831975,0.5932650841138652,-0.6495793644356321,0.1901099798110561,3.0
18.1630859375,-8.1278076171875,0.2952995300292969,-0.0,-0.0,-1.0,0.1447759600625773,1.0
17.960922241210938,-7.377252578735352,0.352618932723999,0.5905524755197652,0.7986210552194218,0.1159835497719126,0.1402612399254084,3.0
18.46470642089844,-7.545663833618164,0.3455033302307129,0.6990196009918467,0.1175575365993616,-0.7053735343900349,0.1679933786132554,3.0
18.990869522094727,-7.622890472412109,0.344245433807373,-0.2048955173827663,0.8774891583736425,-0.4336249576456191,0.1641207463789481,8.0
17.718318939208984,-7.274435043334961,0.3571410179138183,-0.7800580006684618,0.0072673117368091,-0.6256650076304747,0.2117907901036889,5.0
18.730457305908203,-7.45781135559082,0.3553473949432373,-0.0,-0.0,-1.0,0.238219884257845,1.0
18.662879943847656,-7.49860954284668,0.3060336112976074,-0.0,-0.0,-1.0,0.2037992414224706,2.0
18.993608474731445,-7.636545181274414,0.3068883419036865,0.237706442023794,0.7828562564314713,0.5750058514367405,0.1781427379819521,8.0
17.813373565673828,-7.107074737548828,0.3027796745300293,0.3793576183814959,-0.4061465719899728,-0.8313439477356611,0.193329537403089,4.0
18.534664154052734,-7.111270904541016,0.3294670581817627,-0.0,-0.0,-1.0,0.1713875684667224,1.0
18.80657958984375,-7.380167007446289,0.319465160369873,0.6427604048865382,0.0067007804679958,-0.766037963452996,0.1706519368254977,6.0
18.11193466186523,-6.992500305175781,0.3223662376403808,-0.0,-0.0,-1.0,0.1456830710147671,2.0
18.324058532714844,-6.947502136230469,0.3335380554199219,-0.0,-0.0,-1.0,0.271196229410021,2.0
18.241722106933594,-6.694753646850586,0.3483669757843017,-0.0,-0.0,-1.0,0.1790577554762014,2.0
18.650115966796875,-6.968133926391602,0.1178958415985107,-0.0,-0.0,-1.0,0.1581666521063889,1.0
18.470186233520508,-6.834455490112305,0.1195042133331298,-0.0,-0.0,-1.0,0.2280312887473571,2.0
18.798812866210938,-7.515377044677734,1.0058447122573853,0.8974891399107611,-0.0873116424462286,0.4323076691843254,0.1784783484341429,3.0
19.259014129638672,-8.280092239379883,0.6755759716033936,-0.993746732425913,-0.0292201497652904,-0.1077664819900642,0.1345989113484237,5.0
19.659006118774418,-8.177364349365234,0.6763886213302612,0.9185207688697062,-0.3862967253745216,0.0842284816432334,0.1928662385570775,11.0
18.604965209960938,-7.471405029296875,0.6998060941696167,0.1246694746795638,0.9748179242791704,-0.1848987198094446,0.2587612757874932,5.0
18.81799697875977,-7.550102233886719,0.6972240209579468,-0.0881189909306569,0.7146274374269151,-0.6939327554698683,0.1963668587980736,9.0
18.576814651489254,-7.05388069152832,0.1681365966796875,-0.0,-0.0,-1.0,0.1415161490431643,2.0
17.721420288085938,-6.89155387878418,0.1607935428619384,-0.0,-0.0,-1.0,0.0949872253697921,1.0
18.299842834472656,-6.742156982421875,0.1764898300170898,-0.0,-0.0,-1.0,0.2063872637228186,2.0
18.494421005249023,-6.915962219238281,0.1725363731384277,-0.0,-0.0,-1.0,0.2328730362825243,2.0
19.22678565979004,-6.412910461425781,0.2036316394805908,-0.0,-0.0,-1.0,0.2051852232868587,1.0
19.65945053100586,-8.228891372680664,0.975689172744751,0.8557757232038108,0.5165426713367612,-0.0288371334094889,0.1824546594394044,3.0
18.743003845214844,-7.690465927124023,0.9773321151733398,-0.0,-0.0,-1.0,0.1877559170193108,2.0
18.74645614624023,-7.499456405639648,0.9792821407318116,0.9775405772916304,0.0031635014520348,0.210723544026075,0.1574531892420276,4.0
18.497562408447266,-6.931373596191406,0.0906777381896972,-0.0,-0.0,-1.0,0.1574630697986517,1.0
18.302471160888672,-6.704595565795898,0.0964775085449218,-0.0,-0.0,-1.0,0.2299463118344774,2.0
19.619903564453125,-8.243741989135742,0.9088335037231444,-0.0,-0.0,-1.0,0.2194669542330674,1.0
18.45096015930176,-6.863725662231445,0.0761243104934692,-0.0,-0.0,-1.0,0.2063383060085736,2.0
18.19144821166992,-6.622213363647461,0.0770806074142456,-0.0,-0.0,-1.0,0.1610672264241533,1.0
18.35675048828125,-6.738996505737305,0.0777510404586792,-0.0,-0.0,-1.0,0.1586911740615078,1.0
18.166099548339844,-6.404550552368164,0.0833989381790161,-0.0,-0.0,-1.0,0.1224720983421727,1.0
19.694799423217773,-8.065132141113281,0.7111097574234009,-0.0,-0.0,-1.0,0.1276985948171285,2.0
18.82620620727539,-7.675743103027344,0.6795262098312378,0.3589191316420118,0.5979523929294991,-0.7166798397689376,0.2126844239116549,3.0
17.7600040435791,-7.437095642089844,0.6380536556243896,-0.0617883850651342,-0.5508121708087452,-0.8323389621782703,0.2783326650781158,5.0
18.680850982666016,-7.440822601318359,0.6737339496612549,0.9382536927247036,-0.3335520176665712,0.0917772281070697,0.2357873811084702,3.0
18.845502853393555,-7.395084381103516,0.6798828840255737,-0.0,-0.0,-1.0,0.2306573875988893,1.0
19.602989196777344,-8.148727416992188,0.4172711372375488,-0.0,-0.0,-1.0,0.1429055419240125,1.0
19.13980484008789,-7.798799514770508,0.3984241485595703,-0.0,-0.0,-1.0,0.2484151810503174,1.0
19.420928955078125,-7.779689788818359,0.4110778570175171,-0.0,-0.0,-1.0,0.1982157109714015,2.0
18.002059936523438,-7.283596038818359,0.347365140914917,0.9837945780185334,-0.0310950310742875,-0.1765823527531134,0.189217281392065,4.0
18.303098678588867,-7.3393402099609375,0.3615044355392456,-0.0,-0.0,-1.0,0.2168138930556813,2.0
18.80267333984375,-7.468868255615234,0.3843218088150024,0.5977210621439492,0.1237750018354102,0.7920917123604776,0.2159018185663698,8.0
19.65358543395996,-6.799470901489258,0.4256325960159302,-0.7971728481223459,-0.1182136569289647,-0.5920650146157834,0.2224979543441931,3.0
19.497299194335938,-6.675880432128906,0.4189493656158447,0.6042397675641997,-0.7966656260799578,0.0147710364088255,0.2382889710085719,3.0
19.118688583374023,-8.118736267089844,0.6894290447235107,-0.0,-0.0,-1.0,0.1801805199274572,1.0
19.31734085083008,-8.132478713989258,0.6943984031677246,-0.0,-0.0,-1.0,0.1392013937112153,1.0
18.808303833007812,-7.903068542480469,0.68245530128479,-0.0,-0.0,-1.0,0.1985063204441523,1.0
17.884662628173828,-7.480415344238281,0.6587498188018799,-0.9948211255159712,-0.0410389670189947,-0.0929878024966179,0.2548853672223378,5.0
18.560190200805664,-7.537437438964844,0.6773698329925537,-0.0,-0.0,-1.0,0.2633517005076348,2.0
18.89519691467285,-7.548416137695312,0.6863627433776855,-0.0489747732328447,-0.057677150631058,-0.9971332999563668,0.1929670196323072,3.0
19.70815658569336,-8.229911804199219,0.867985725402832,0.6121831231894239,0.780612714815188,-0.1259984648751905,0.0765469885854729,3.0
18.48414421081543,-7.131496429443359,0.7160176038742065,-0.0,-0.0,-1.0,0.1252537921126067,1.0
17.812744140625,-7.50773811340332,0.4443449974060058,0.679160836116664,-0.1029446681073966,-0.7267344453055545,0.1761872658183292,3.0
18.154006958007812,-7.541017532348633,0.4504406452178955,-0.0,-0.0,-1.0,0.1892033600072781,1.0
19.689472198486328,-8.276725769042969,0.4690326452255249,0.9556016004723696,0.1441610226995171,0.2569886781725516,0.2023363080683685,4.0
17.94224739074707,-7.3366546630859375,0.516718864440918,-0.4681555011426987,-0.0659799343224108,-0.8811793659730344,0.241690593695468,4.0
17.863985061645508,-7.235151290893555,0.5146743059158325,-0.0,-0.0,-1.0,0.1702254290549803,1.0
19.438560485839844,-8.113189697265625,0.5550215244293213,-0.0,-0.0,-1.0,0.1580579081880522,1.0
19.37921714782715,-8.358906745910645,0.4940723180770874,-0.0,-0.0,-1.0,0.1199337726133451,2.0
18.933435440063477,-7.795565605163574,0.5699456930160522,-0.697987331707016,0.6504596632390077,-0.2995261445608991,0.24041564713384,4.0
17.99799919128418,-7.754702568054199,0.6116554737091064,-0.0,-0.0,-1.0,0.2235267944051173,2.0
18.35917854309082,-8.17639446258545,0.8620864152908325,-0.0,-0.0,-1.0,0.1530846614438159,1.0
19.659875869750977,-6.894918441772461,0.4594903588294983,-0.0,-0.0,-1.0,0.1628243928883954,2.0
19.49302101135254,-6.678371429443359,0.4596070647239685,-0.3078056897296891,-0.9471432184573418,-0.0904178140650331,0.2145945646050579,3.0
18.2554931640625,-7.489946365356445,0.4212055802345276,-0.0,-0.0,-1.0,0.2263523733490921,1.0
19.34085273742676,-7.927541732788086,0.4363526105880737,-0.2013490011312023,-0.1888692508678512,-0.961138380161818,0.1556656684368239,3.0
18.910354614257812,-7.780279159545898,0.429856538772583,-0.2340641184106128,0.7934346135999666,-0.5618500711169612,0.2280964117084643,3.0
18.03993797302246,-7.507820129394531,0.4165409207344055,-0.0,-0.0,-1.0,0.1430410569802544,1.0
19.69747734069824,-6.838437080383301,0.330728530883789,-0.0,-0.0,-1.0,0.158864020876822,1.0
18.28095245361328,-6.6464643478393555,0.3042169213294983,-0.0,-0.0,-1.0,0.1539711976744814,2.0
18.060707092285156,-7.035689353942871,0.2906361818313598,-0.0,-0.0,-1.0,0.1838512394394952,1.0
19.651275634765625,-7.961203575134277,0.3049153685569763,-0.0,-0.0,-1.0,0.1634506530809124,2.0
19.0263729095459,-7.6198225021362305,0.2986181974411011,-0.4747325232453876,0.8186500869373412,0.3231734310405962,0.2313415443337043,6.0
18.931825637817383,-7.614768981933594,0.7440558075904846,0.3954566258203968,0.593176482175132,-0.7012529629806076,0.2305535125522116,4.0
18.682018280029297,-7.980266571044922,0.7378242611885071,-0.0,-0.0,-1.0,0.2077389213017954,1.0
17.998077392578125,-7.543054580688477,0.7234855890274048,-0.0,-0.0,-1.0,0.2354617807408233,1.0
18.50570297241211,-8.298316955566406,0.7333210110664368,-0.0,-0.0,-1.0,0.1461375947841622,1.0
18.854238510131836,-7.872527122497559,0.743270754814148,-0.0,-0.0,-1.0,0.2395772201084179,1.0
18.61819076538086,-8.32703685760498,0.7362070083618164,-0.0,-0.0,-1.0,0.1188263008870529,2.0
19.524091720581055,-6.668867111206055,0.5812473893165588,-0.0,-0.0,-1.0,0.1556674154087272,1.0
19.363826751708984,-8.046207427978516,0.5425751209259033,-0.0,-0.0,-1.0,0.2084372115633272,2.0
18.97604179382324,-7.784229278564453,0.5465996265411377,-0.223880899197338,0.97253516906828,0.0636607249402899,0.2147265002998754,3.0
18.82024383544922,-7.563398361206055,0.5513981580734253,0.9098780196154274,0.3858053448613516,0.1525654787201939,0.2334605335481813,4.0
17.951690673828125,-7.483659744262695,0.5470017790794373,-0.5321570326626274,0.8001144332254277,-0.276813631044535,0.1759082351833931,5.0
19.676115036010746,-8.245132446289062,0.5397528409957886,0.9590203839844904,0.273836012367144,-0.072758102181831,0.1232526310432778,6.0
19.35566139221191,-8.291975021362305,0.5358812808990479,-0.0,-0.0,-1.0,0.1870711731211287,2.0
19.11052894592285,-8.170673370361328,0.5371822118759155,-0.0,-0.0,-1.0,0.1909347764180831,1.0
19.52718734741211,-6.728391647338867,0.613050103187561,-0.0,-0.0,-1.0,0.1474711882782941,1.0
18.936857223510746,-7.553701400756836,0.5879718065261841,0.6814800078514971,-0.7313146064331341,0.0276395607105653,0.2257348120281826,3.0
19.12975311279297,-8.128122329711914,0.5834765434265137,-0.3744544698153451,0.9047581629668948,-0.2029692503313692,0.2430508073753247,3.0
18.89744758605957,-7.763362884521484,0.5839629769325256,-0.0,-0.0,-1.0,0.2302094963665672,1.0
19.603992462158203,-6.724422454833984,0.4197291135787964,-0.5208487519242129,0.1629728880051253,-0.8379477402524925,0.2398159263364869,3.0
19.182153701782227,-6.666881561279297,0.4251808524131775,0.7555597521496838,-0.6507746937880957,0.0749783892632946,0.2344869747670014,3.0
19.5955810546875,-6.757495880126953,0.4185249805450439,-0.5208487519242129,0.1629728880051253,-0.8379477402524925,0.2730903791493355,3.0
18.564838409423828,-6.96281623840332,0.4187801480293274,-0.0,-0.0,-1.0,0.1834447582944301,2.0
18.368892669677734,-7.315299987792969,0.4068440794944763,-0.0,-0.0,-1.0,0.1913573086674636,2.0
17.935203552246094,-7.3310394287109375,0.4098856449127197,-0.0,-0.0,-1.0,0.2176547987413197,2.0
18.817724227905273,-7.498260498046875,0.3961819410324096,0.8068532299004166,0.4354152219833598,0.3992511112876792,0.2124139278824957,8.0
18.61333274841309,-7.574419021606445,0.3948946595191955,-0.0,-0.0,-1.0,0.1962873871984537,2.0
17.947410583496094,-7.48680305480957,0.4037764072418213,0.76666397525608,0.6308592412072141,0.1193439015115683,0.1370801046929542,3.0
19.67823028564453,-7.840415954589844,0.3765168190002441,-0.0,-0.0,-1.0,0.1837744318194923,1.0
19.49298858642578,-7.854894638061523,0.3773317337036133,-0.0,-0.0,-1.0,0.2726382622209773,1.0
18.380525588989254,-7.898263931274414,0.3843443989753723,-0.0,-0.0,-1.0,0.1915012920179327,1.0
19.525554656982425,-8.074901580810547,0.3686820268630981,-0.0,-0.0,-1.0,0.172526133892509,2.0
17.76127052307129,-6.396907806396484,0.0525246858596801,-0.5522918103951946,0.3753689958986919,-0.7443600426463033,0.1420605257382228,3.0
18.76865005493164,-6.864025115966797,0.0163828134536743,-0.0,-0.0,-1.0,0.0785716573652544,2.0
18.8029842376709,-7.501564025878906,0.8399323225021362,-0.0,-0.0,-1.0,0.1948144172933644,2.0
18.905532836914062,-7.618436813354492,0.8354231119155884,0.3914100970693817,0.38749505788925,0.8346530512875058,0.1345857992125698,3.0
17.8807373046875,-8.314369201660156,0.8388879299163818,-0.0,-0.0,-1.0,0.0833106356508575,1.0
19.697242736816406,-8.311037063598633,0.8056484460830688,-0.0,-0.0,-1.0,0.1559848757058564,2.0
18.41948509216309,-6.6947479248046875,0.3271099328994751,-0.0,-0.0,-1.0,0.1057370511707211,1.0
18.60844039916992,-6.980852127075195,0.3130926489830017,-0.0,-0.0,-1.0,0.2007646840012328,1.0
18.45016860961914,-6.93476676940918,0.3164293169975281,0.1917287428490411,-0.6901061545671223,0.6978492563541969,0.2005889669738539,5.0
17.969749450683594,-7.192922592163086,0.3091630935668945,-0.0,-0.0,-1.0,0.0893580980028511,1.0
18.790874481201172,-7.42034912109375,0.2949444055557251,0.1638801660473894,0.32518273792796,-0.9313428359792948,0.1422772176305695,5.0
18.113452911376953,-7.318132400512695,0.3025657534599304,-0.0,-0.0,-1.0,0.1554553356686764,2.0
18.947389602661133,-7.68907356262207,0.2818769216537475,-0.0,-0.0,-1.0,0.0974536456017953,1.0
19.536537170410156,-7.736997604370117,0.2743846178054809,-0.0,-0.0,-1.0,0.1738784220043472,2.0
18.39857482910156,-6.911736488342285,0.3992112278938293,-0.0,-0.0,-1.0,0.2217984632137676,2.0
17.71543312072754,-7.079058647155762,0.4257816076278686,-0.0,-0.0,-1.0,0.1453725465351483,2.0
18.553438186645508,-6.945433616638184,0.3896974325180053,0.5396867372065104,-0.3560090073959407,-0.7628865002976185,0.1756396452936257,4.0
17.997678756713867,-7.300206184387207,0.4008851647377014,-0.0,-0.0,-1.0,0.1719728803860389,2.0
18.61997413635254,-7.387913703918457,0.3649927377700805,-0.0,-0.0,-1.0,0.2471510829105507,2.0
19.004152297973633,-7.642062187194824,0.3330578804016113,-0.2951415614072639,0.9550764938273824,-0.0268393306264598,0.1691661568154474,8.0
18.328245162963867,-6.8358259201049805,0.4064439535140991,-0.0,-0.0,-1.0,0.2170756433628914,1.0
19.488454818725582,-6.683152198791504,0.354314386844635,-0.0,-0.0,-1.0,0.2356101823533134,2.0
19.15912628173828,-6.622458457946777,0.3742294311523437,-0.0,-0.0,-1.0,0.1915544910771392,1.0
18.29938316345215,-7.444332122802734,0.6762576103210449,-0.0,-0.0,-1.0,0.206232338026936,1.0
17.956356048583984,-7.570001602172852,0.6852123737335205,-0.0,-0.0,-1.0,0.2537400176406278,2.0
18.729326248168945,-7.464176177978516,0.6594235897064209,-0.0,-0.0,-1.0,0.2178378273319123,1.0
18.58138656616211,-7.401510238647461,0.666998565196991,-0.0,-0.0,-1.0,0.2486377394229425,1.0
18.998872756958008,-7.8129425048828125,0.6381091475486755,-0.0,-0.0,-1.0,0.2423507882751265,1.0
18.42402458190918,-7.92193603515625,0.6561301946640015,-0.0,-0.0,-1.0,0.1433695243799488,2.0
18.00702667236328,-8.239551544189453,0.6616457104682922,-0.0,-0.0,-1.0,0.1467518649058522,2.0
19.151079177856445,-8.22282600402832,0.6192524433135986,-0.0,-0.0,-1.0,0.1841824966895302,2.0
19.6331729888916,-8.23531723022461,0.6010518074035645,0.2429621273553574,-0.7778862844150998,-0.5795363087761022,0.2916169069897714,5.0
18.324052810668945,-6.646617889404297,0.3539655208587646,-0.0,-0.0,-1.0,0.1086084933426809,2.0
17.912588119506836,-7.192859649658203,0.3461886048316955,-0.0,-0.0,-1.0,0.1144144262409549,1.0
17.71666145324707,-7.232233047485352,0.353716492652893,-0.6957808166095638,0.0094631006104016,-0.7181918301992624,0.1990572478921602,4.0
18.482757568359375,-6.833770751953125,0.3366096615791321,-0.0,-0.0,-1.0,0.1989219022404891,2.0
18.142414093017575,-7.279273986816406,0.330544114112854,0.8400673856463813,0.5108912830677229,-0.1824195287206662,0.2133944424798305,3.0
19.29965591430664,-6.74247932434082,0.3008303642272949,0.788601353728557,-0.1618454219667685,-0.5932233679533249,0.268021043858425,3.0
18.79877471923828,-7.304155349731445,0.2969706058502197,-0.0,-0.0,-1.0,0.1242642343686077,1.0
18.60918426513672,-7.3133544921875,0.3058700561523437,0.5387610399280405,-0.7002260824907883,-0.4684228594499416,0.1701333167303354,3.0
18.97694396972656,-7.393886566162109,0.2835540771484375,-0.0,-0.0,-1.0,0.2483530014963153,1.0
18.781360626220703,-7.505922317504883,1.0439858436584473,0.5443424309242898,0.8378416840955049,0.04138393755363,0.1600516640885194,3.0
18.43707275390625,-7.842746734619141,1.056870937347412,-0.0,-0.0,-1.0,0.1348321816376231,1.0
19.05561637878418,-8.216850280761719,1.017776608467102,-0.0,-0.0,-1.0,0.1259112700376304,1.0
18.354454040527344,-6.598745346069336,0.3278046250343323,-0.0,-0.0,-1.0,0.1367798241318658,1.0
17.774425506591797,-7.260923385620117,0.3193674087524414,-0.3276702429901658,0.7889212185598825,-0.5198418247551423,0.2400151120011246,3.0
18.53740501403809,-6.835996627807617,0.3062748312950134,-0.0,-0.0,-1.0,0.2520921336792906,1.0
18.30710220336914,-7.001394271850586,0.3083609342575073,-0.0,-0.0,-1.0,0.1848106295916487,2.0
18.05522346496582,-7.3271331787109375,0.3027280569076538,-0.0,-0.0,-1.0,0.2186699948250678,2.0
19.18612289428711,-6.641151428222656,0.28508460521698,-0.0,-0.0,-1.0,0.1433574101100299,2.0
18.680334091186523,-7.2657470703125,0.2761757373809814,-0.1527623317322964,0.9549010632734812,-0.2546127046376263,0.094069747713494,3.0
19.45451545715332,-6.7149810791015625,0.26764976978302,0.3042360217836916,0.599062001692122,-0.7406518488317309,0.2241672222960871,3.0
18.979501724243164,-7.449253082275391,0.2516260147094726,0.9303749704652476,0.3530664527799048,-0.0987243346556676,0.1898964848751004,4.0
19.25606155395508,-7.633150100708008,0.2279366254806518,-0.0,-0.0,-1.0,0.0778910988115771,2.0
17.73914909362793,-8.271278381347656,1.0213528871536257,-0.0,-0.0,-1.0,0.1767736589256429,1.0
18.348426818847656,-7.5331878662109375,1.0041338205337524,-0.0,-0.0,-1.0,0.1465778175055481,1.0
18.775775909423828,-7.586824417114258,0.9809826612472534,-0.0,-0.0,-1.0,0.1777444418164086,2.0
19.171226501464844,-8.252708435058594,0.9476034641265868,-0.0,-0.0,-1.0,0.1107689026388381,1.0
17.967592239379883,-7.357184410095215,0.5184909105300903,0.5290031648862191,0.8479183680983138,0.0344977185021877,0.2918798971002808,6.0
18.44552230834961,-6.961033821105957,0.4937617182731628,-0.1886936075346968,-0.2174173329841967,-0.9576661348265274,0.1733947189931171,5.0
18.146881103515625,-7.387444496154785,0.5009634494781494,-0.0,-0.0,-1.0,0.1962671852008946,1.0
19.16166114807129,-6.688794136047363,0.441494882106781,0.7179480504101089,-0.6169157646964275,0.322436871621943,0.1323158007029905,5.0
18.647974014282227,-7.572487831115723,0.4471890926361084,-0.0,-0.0,-1.0,0.1773934815135238,1.0
19.453489303588867,-6.7803850173950195,0.4106900691986084,-0.0797848912696132,-0.5428019216515635,-0.836062464757548,0.2075573090070255,4.0
18.95012664794922,-7.493695259094238,0.4234627485275268,0.6422897837031767,-0.0685494051597631,-0.7633903410462887,0.2573599685053446,3.0
19.04545021057129,-7.667618751525879,0.4067622423171997,-0.0,-0.0,-1.0,0.150285375377122,1.0
19.241792678833008,-7.927903175354004,0.3768638372421264,-0.0,-0.0,-1.0,0.2309097662446228,2.0
18.333702087402344,-6.7339582443237305,0.328870415687561,-0.0,-0.0,-1.0,0.1992780618334308,2.0
17.996959686279297,-7.323504447937012,0.3273322582244873,0.984400988201799,-0.0397752553259807,-0.1713844318807128,0.2173323296417402,3.0
18.50127601623535,-6.992459297180176,0.2973783016204834,-0.0,-0.0,-1.0,0.2010397012317295,1.0
18.355056762695312,-7.256016731262207,0.2965275049209595,-0.3951358560591474,0.4066286949180239,-0.8237237156508662,0.110090943505137,3.0
19.073524475097656,-6.807045936584473,0.2503743171691894,-0.0,-0.0,-1.0,0.2293440854712142,1.0
18.74327278137207,-7.208786964416504,0.2606322765350342,-0.0,-0.0,-1.0,0.0880383354077611,2.0
18.88924789428711,-7.484192848205566,0.2298331260681152,-0.0,-0.0,-1.0,0.1055482613460426,1.0
19.36817169189453,-6.609225273132324,0.2312369346618652,0.9888403081876022,-0.1489163140834454,-0.0043331631920243,0.1843271872247892,3.0
19.32619857788086,-6.758286476135254,0.2269351482391357,-0.0,-0.0,-1.0,0.249014356866896,2.0
19.11739730834961,-7.397583961486816,0.2114686965942382,-0.0,-0.0,-1.0,0.1288134474220399,1.0
18.98560905456543,-7.467644691467285,0.2209538221359253,0.8641556914558948,0.3492988594992899,0.3622502555925661,0.1797236802209312,6.0
17.81282615661621,-7.520403861999512,0.9972645044326782,-0.0,-0.0,-1.0,0.1858753092628285,1.0
18.851947784423828,-7.617815971374512,0.8908333778381348,0.9571342718177775,0.2457706960673701,0.1532669261987496,0.2525185187936324,6.0
17.74578857421875,-7.041690826416016,0.1694228649139404,-0.0,-0.0,-1.0,0.1257727634622071,1.0
18.825815200805664,-7.1265716552734375,0.1010550260543823,-0.0,-0.0,-1.0,0.0715167014344438,1.0
18.029953002929688,-6.7721405029296875,0.1717398166656494,-0.0,-0.0,-1.0,0.1482610700736235,1.0
17.81751823425293,-6.975742340087891,0.1698694229125976,-0.0,-0.0,-1.0,0.1322207366841669,1.0
18.126585006713867,-6.747371673583984,0.1679214239120483,-0.0,-0.0,-1.0,0.2549938513430283,2.0
18.214298248291016,-6.825572967529297,0.1575994491577148,0.7823611755779919,0.5958589478254291,-0.1812818392575377,0.2287643069071888,3.0
19.15818977355957,-6.62944221496582,0.1144571304321289,0.7338398478709927,0.627419184324957,-0.2604308829952465,0.2160585174458232,3.0
19.407154083251953,-6.457906723022461,0.1105369329452514,-0.0,-0.0,-1.0,0.1860216166113032,1.0
17.934429168701172,-7.468254089355469,0.7865752577781677,-0.0,-0.0,-1.0,0.2272749804502294,1.0
17.84227752685547,-7.740701675415039,0.7831284999847412,-0.0,-0.0,-1.0,0.17090427437448,2.0
18.401317596435547,-8.258890151977539,0.7324967980384827,-0.0,-0.0,-1.0,0.1716906944424469,2.0
18.77758026123047,-7.507061004638672,0.734125018119812,0.2291575055789032,0.8789677099112563,0.4182135848704781,0.1940612588908396,9.0
18.660966873168945,-7.827791213989258,0.730728030204773,-0.0,-0.0,-1.0,0.2249723503961997,2.0
18.90402603149414,-7.600612640380859,0.7231959700584412,0.0978589034877123,0.5961109942846358,0.7969161295275465,0.1808786573899436,7.0
19.08115577697754,-8.21084976196289,0.6920100450515747,-0.0,-0.0,-1.0,0.200678397262196,2.0
19.41335678100586,-8.337203979492188,0.6668018102645874,-0.0,-0.0,-1.0,0.0956363277384496,1.0
17.902835845947266,-6.610588073730469,0.1198947429656982,-0.0,-0.0,-1.0,0.0910836898713974,2.0
18.1502628326416,-6.648412704467773,0.1043201684951782,-0.070850017776414,0.4278977562973551,-0.901045939526266,0.1854336693880415,3.0
19.08670425415039,-6.633811950683594,0.0538582801818847,-0.0,-0.0,-1.0,0.1723122470248179,1.0
17.951990127563477,-7.105375289916992,0.7269348502159119,-0.0,-0.0,-1.0,0.1479995553233536,1.0
18.28182029724121,-8.257793426513672,0.6659375429153442,-0.8561812913953135,0.3225104757306185,-0.4036590012729349,0.1827960905710964,4.0
18.589122772216797,-7.666652679443359,0.6704491376876831,-0.0,-0.0,-1.0,0.2297985476343839,1.0
18.425010681152344,-8.152305603027344,0.6617646217346191,-0.0,-0.0,-1.0,0.269074074628952,1.0
18.863304138183594,-7.579963684082031,0.6579192280769348,0.4899794799106098,0.4182679332230631,0.7648346522640272,0.2590073805954623,5.0
19.13111114501953,-8.277778625488281,0.6164482235908508,-0.7942122724027371,-0.5457832080740007,-0.2671096332020469,0.2177003963208934,3.0
19.108633041381836,-6.905393600463867,0.6687527894973755,-0.0,-0.0,-1.0,0.1470715335094697,1.0
19.404455184936523,-8.16744613647461,0.6044459342956543,-0.0,-0.0,-1.0,0.2092789951699064,1.0
19.31742286682129,-8.300743103027344,0.6046264171600342,-0.6618607321065759,0.430058804289837,-0.6139949479825899,0.2092985272205811,3.0
19.64048194885254,-8.216133117675781,0.588566780090332,0.2666177223449235,-0.8212376130375799,-0.504463847132719,0.2633721020750567,5.0
17.899682998657227,-7.471240997314453,0.5014503002166748,-0.5953953210625406,0.3707159518046407,-0.7127931640626285,0.264923857571377,5.0
18.02880859375,-7.509626388549805,0.4954622387886047,-0.0,-0.0,-1.0,0.2102516642349688,2.0
18.33394241333008,-8.14016342163086,0.4562013745307922,0.435270262364775,-0.5526750526753451,-0.7106969008312928,0.2849106229906557,4.0
18.449434280395508,-7.596305847167969,0.4771128296852112,-0.0,-0.0,-1.0,0.2057372175005301,2.0
18.76581573486328,-7.574392318725586,0.4668303728103637,0.8397523437421883,0.4935294162966481,-0.226372958697349,0.2554755022895529,3.0
18.92637062072754,-7.645107269287109,0.4576548337936401,0.7877394865167182,0.3943273361938332,0.4732572802531967,0.2380963636915767,3.0
19.14181900024414,-8.090526580810547,0.4289531707763672,-0.0,-0.0,-1.0,0.2155214284001929,2.0
19.49131202697754,-6.786405563354492,0.4754510521888733,0.4232457663963282,0.5484128160720968,-0.7211840294927899,0.2478669520126287,4.0
19.428150177001953,-6.939695358276367,0.470919132232666,-0.0,-0.0,-1.0,0.2188925383042168,1.0
17.784452438354492,-7.496883392333984,0.624750018119812,-0.411211123558317,-0.0440587319323062,-0.910474733313574,0.1994998984268022,4.0
18.27960205078125,-8.181270599365234,0.559108316898346,-0.0,-0.0,-1.0,0.2049080515374444,2.0
18.256134033203125,-7.329738616943359,0.5977215766906738,-0.0,-0.0,-1.0,0.1790290827438941,1.0
18.48151206970215,-7.785224914550781,0.5612161159515381,-0.0,-0.0,-1.0,0.1447718446450345,1.0
18.472230911254883,-7.881610870361328,0.5577196478843689,0.3655559530079607,0.546828851500884,-0.7532244369287721,0.1874418667296924,3.0
18.739734649658203,-7.523468017578125,0.5530553460121155,-0.0,-0.0,-1.0,0.2857101300598165,2.0
18.94845199584961,-7.688905715942383,0.5298684239387512,0.4620765822160249,0.6149559744406047,-0.6389948213149804,0.2147078710535357,3.0
19.14536476135254,-8.151861190795898,0.4944064021110534,-0.0,-0.0,-1.0,0.2365167642991881,2.0
19.42849349975586,-7.975456237792969,0.4797989726066589,-0.0,-0.0,-1.0,0.2312325635589275,1.0
19.24670028686523,-6.690654754638672,0.5501672029495239,-0.0,-0.0,-1.0,0.2398304436284994,2.0
19.366853713989254,-6.794488906860352,0.536186933517456,-0.0,-0.0,-1.0,0.28777063905449,1.0
19.58547592163086,-6.711458206176758,0.522422194480896,-0.0,-0.0,-1.0,0.2387302828398624,2.0
17.76782989501953,-7.507525444030762,0.4940117001533508,-0.6568771225224013,0.7535912353733921,0.024752694299714,0.1761572782046007,3.0
18.449254989624023,-7.724406242370605,0.4466636180877685,-0.0,-0.0,-1.0,0.1652166346635077,1.0
19.03780937194824,-7.997736930847168,0.3995627164840698,-0.0,-0.0,-1.0,0.1396064791087237,2.0
18.901464462280273,-7.676083564758301,0.4235867261886596,-0.0,-0.0,-1.0,0.18036865919851,1.0
19.708608627319336,-8.238629341125488,0.3473255038261413,-0.0,-0.0,-1.0,0.1401395358755978,1.0
17.937965393066406,-7.427445411682129,0.4890578389167785,-0.2985276495795825,0.5985203885027366,-0.743407416550994,0.3051446416148775,7.0
18.48238182067871,-7.563572883605957,0.452804684638977,-0.0,-0.0,-1.0,0.1941712233760676,2.0
18.431543350219727,-6.955866813659668,0.4859471321105957,-0.1886936075346968,-0.2174173329841967,-0.9576661348265274,0.1832322934152173,5.0
18.721717834472656,-7.5454912185668945,0.440371036529541,0.8853553829268429,-0.1779706337331662,0.4295023858502756,0.2659045133404926,3.0
18.817108154296875,-7.548317909240723,0.434813380241394,0.9020235690131556,0.0583427783644468,0.4277260819233336,0.2485510039889408,5.0
19.137744903564453,-6.714760780334473,0.4581362009048462,0.764651367319317,-0.363031460357507,0.5324626233336897,0.1262410879043698,3.0
19.54840850830078,-6.964219093322754,0.4212517738342285,-0.0,-0.0,-1.0,0.271301178009359,2.0
18.37875747680664,-8.033217430114746,1.0929925441741943,-0.0,-0.0,-1.0,0.1677808055111706,1.0
19.01323699951172,-8.347180366516113,1.050245761871338,-0.0,-0.0,-1.0,0.1186101344405171,1.0
17.837749481201172,-7.033929824829102,0.2406659126281738,-0.0,-0.0,-1.0,0.1803125461316978,2.0
18.127290725708008,-6.833017349243164,0.2495415210723877,-0.0,-0.0,-1.0,0.2146820413187438,1.0
18.46579360961914,-6.977352142333984,0.2358766794204712,0.2504068363582059,-0.3615063363954535,-0.898114460996488,0.1544519658309991,5.0
18.717254638671875,-7.315437316894531,0.2108169794082641,-0.0,-0.0,-1.0,0.1497698165766716,2.0
18.998302459716797,-6.890253067016602,0.2322777509689331,-0.0,-0.0,-1.0,0.2467073239967248,1.0
19.108530044555664,-6.551841735839844,0.2512880563735962,-0.0,-0.0,-1.0,0.2243221285229104,2.0
19.315223693847656,-6.754972457885742,0.2344636917114257,-0.0,-0.0,-1.0,0.2304389096714453,2.0
17.88334846496582,-7.945884704589844,0.8312743902206421,-0.0,-0.0,-1.0,0.1960239336519261,1.0
18.39959716796875,-7.961318969726563,0.8202146291732788,-0.0,-0.0,-1.0,0.1793198402406508,1.0
