x,y,z,nx,ny,nz,curvature,density,label
33.50996780395508,17.23056983947754,-1.8131080865859983,-0.0,-0.0,-1.0,0.0841782617387108,1.0,0.0
33.663002014160156,16.98295783996582,-1.7880886793136597,-0.0,-0.0,-1.0,0.0303385262780172,1.0,0.0
33.452308654785156,17.57810401916504,-1.8779572248458865,0.9131948909372622,-0.0858272885866935,-0.3983826900104197,0.0616087895103246,4.0,0.0
35.13485336303711,17.263694763183594,-1.6411305665969849,0.0918320193465108,0.4903136156089305,-0.8666945474452,0.1262367248514836,4.0,0.0
32.81188201904297,18.064716339111328,-1.8806520700454712,-0.0,-0.0,-1.0,0.1024664393325403,2.0,0.0
33.08058166503906,17.954936981201172,-1.8993276357650757,-0.0,-0.0,-1.0,0.0428110288470542,1.0,0.0
33.31803512573242,17.786693572998047,-1.9009615182876587,-0.0,-0.0,-1.0,0.0397185324828108,2.0,0.0
35.00810623168945,17.62295150756836,-1.6857303380966189,0.310602179371179,-0.19374389031742,-0.9305856173047944,0.0685399898728439,5.0,0.0
35.04393005371094,18.118438720703125,-1.781851887702942,-0.0,-0.0,-1.0,0.1352715309463321,1.0,0.0
33.25899887084961,15.655162811279297,-1.689465045928955,-0.0,-0.0,-1.0,0.0967255580701331,2.0,0.0
32.99671173095703,16.057640075683594,-1.732649564743042,-0.0,-0.0,-1.0,0.0771564981936185,1.0,0.0
33.11831283569336,15.837244033813477,-1.7035338878631592,-0.0,-0.0,-1.0,0.1014640261982625,1.0,0.0
35.01116943359375,15.790363311767578,-1.701965093612671,-0.0,-0.0,-1.0,0.0631323802253076,1.0,0.0
35.1546630859375,15.671698570251465,-1.7074856758117676,-0.5154691587334465,0.2426727962047807,-0.8218281209454846,0.1580501704562429,3.0,0.0
32.88990020751953,16.298336029052734,-1.7717366218566897,-0.0,-0.0,-1.0,0.0417131781152382,1.0,0.0
34.892704010009766,16.130001068115234,-1.7472093105316162,-0.0,-0.0,-1.0,0.0461413400277995,2.0,0.0
32.74208068847656,16.837553024291992,-1.8831541538238523,-0.5199721187258515,-0.7225135823579888,-0.4556348527669657,0.0706675992069985,3.0,0.0
32.77009963989258,16.817495346069336,-1.8833234310150144,-0.0,-0.0,-1.0,0.0765606085957278,2.0,0.0
34.28432846069336,16.777379989624023,-1.7691326141357422,-0.0,-0.0,-1.0,0.0247606665694441,1.0,0.0
34.47752380371094,16.56559944152832,-1.7591986656188965,0.1933782192781009,0.9120770263101566,-0.3615527103840495,0.0474157857646709,3.0,0.0
34.78831100463867,16.399335861206055,-1.782715082168579,-0.0,-0.0,-1.0,0.0637550667828388,1.0,0.0
33.92166519165039,17.177040100097656,-1.7934250831604004,-0.0,-0.0,-1.0,0.0158167147150943,2.0,0.0
34.18395233154297,16.970321655273438,-1.793692111968994,-0.0,-0.0,-1.0,0.016933937264722,1.0,0.0
33.5531005859375,17.46994400024414,-1.797702074050903,-0.1308585936196622,0.4075088617966162,-0.9037768286657444,0.0344157448920066,3.0,0.0
33.76338195800781,17.35195541381836,-1.806140422821045,-0.0,-0.0,-1.0,0.0274980524132273,1.0,0.0
32.87887191772461,18.13659286499023,-1.8502955436706543,-0.0,-0.0,-1.0,0.1605308390309973,1.0,0.0
33.16680145263672,18.104663848876953,-1.88757848739624,0.1246396631068935,0.6847322793792721,0.7180575603366816,0.043516164322118,3.0,0.0
33.45193099975586,17.888469696044922,-1.8808608055114744,-0.0,-0.0,-1.0,0.0600853813727513,2.0,0.0
35.14299392700195,17.92660140991211,-1.7237448692321775,-0.7348520704633401,-0.6399422911089341,-0.2246470533659201,0.1381351307237661,4.0,0.0
33.22200012207031,16.411508560180664,-1.4950551986694336,-0.2131221282966355,-0.5247739444220734,-0.8241306120306482,0.1471417799216313,5.0,0.0
33.0950927734375,16.57754135131836,-1.5106439590454102,0.6969082136268488,0.091748588107849,-0.7112672763171741,0.1730575166060008,4.0,0.0
35.16615295410156,17.341815948486328,-1.6123013496398926,0.7351650738715156,-0.2889009314465589,0.6132442955044913,0.1026557273989494,4.0,0.0
35.161041259765625,17.69964599609375,-1.6815240383148191,-0.1260508072821354,-0.3548114217633232,-0.9264016671885968,0.1354197982912744,3.0,0.0
35.0368537902832,15.682865142822266,-1.6961774826049805,-0.0,-0.0,-1.0,0.0640042890985491,2.0,0.0
34.92992401123047,16.01683807373047,-1.7492897510528564,-0.0,-0.0,-1.0,0.0888522459410744,1.0,0.0
35.100711822509766,15.886878967285156,-1.7576656341552734,-0.0,-0.0,-1.0,0.0568564858437435,1.0,0.0
34.50080871582031,16.490610122680664,-1.7696726322174072,-0.0,-0.0,-1.0,0.0339052644934023,1.0,0.0
34.800994873046875,16.352096557617188,-1.800379753112793,-0.0,-0.0,-1.0,0.0736800841242171,2.0,0.0
33.935333251953125,17.037107467651367,-1.793789625167847,-0.0,-0.0,-1.0,0.0132900197637175,1.0,0.0
34.18765640258789,16.880165100097656,-1.803382158279419,-0.0,-0.0,-1.0,0.0249619964308934,1.0,0.0
34.40000534057617,16.72020721435547,-1.80579137802124,-0.0,-0.0,-1.0,0.0188778635804252,1.0,0.0
33.5326042175293,17.384092330932617,-1.8104450702667236,-0.0,-0.0,-1.0,0.0991678995403739,1.0,0.0
33.781471252441406,17.21940803527832,-1.81270694732666,-0.0,-0.0,-1.0,0.015864921426245,2.0,0.0
35.13756561279297,17.2618465423584,-1.70466947555542,-0.0,-0.0,-1.0,0.0702314080430912,1.0,0.0
33.21925735473633,17.938840866088867,-1.908799648284912,-0.4630478715400097,0.6932309165404511,0.5522839532475594,0.0273003162466279,3.0,0.0
33.42549133300781,17.786794662475586,-1.9021732807159424,-0.0,-0.0,-1.0,0.0294422013465058,1.0,0.0
34.79823303222656,17.67174530029297,-1.7358770370483398,-0.0,-0.0,-1.0,0.0394789727629457,2.0,0.0
34.95062255859375,17.48552703857422,-1.7206547260284424,0.8221361265434772,0.5566960817804132,0.1190867833238557,0.0741807492851252,3.0,0.0
33.052852630615234,18.05970764160156,-1.9152021408081057,-0.981099674758554,0.1070044693841582,-0.1612249103596395,0.061945773548484,3.0,0.0
34.67067337036133,18.065847396850582,-1.8054232597351072,-0.0,-0.0,-1.0,0.0958689162856754,1.0,0.0
33.224491119384766,16.36870002746582,-1.478865385055542,-0.6051536574476539,0.2039703217536475,-0.7695356773544947,0.1457708663816848,4.0,0.0
33.10781478881836,16.541078567504883,-1.5028555393218994,0.5452078044769305,0.251317371625589,-0.7997424764614236,0.2117684955829561,4.0,0.0
33.24679183959961,16.52521514892578,-1.5248994827270508,-0.3779864897834799,0.1863843965206762,-0.906855595050715,0.1585281546440694,3.0,0.0
34.81062316894531,17.383237838745117,-1.6721956729888916,0.3473548001446875,0.1703655311848913,-0.922128097717738,0.0850484235203865,3.0,0.0
35.06416702270508,17.250465393066406,-1.6887688636779783,-0.0,-0.0,-1.0,0.0697396700629023,2.0,0.0
35.15105056762695,17.71503448486328,-1.4117143154144287,-0.0,-0.0,-1.0,0.1436743766071082,1.0,0.0
35.075721740722656,16.895143508911133,-1.7275296449661257,-0.0,-0.0,-1.0,0.0770455339664749,1.0,0.0
34.712005615234375,17.33130645751953,-1.76484215259552,0.904232512691168,0.3175993632150973,0.2854719031316075,0.0979391589631835,5.0,0.0
34.893062591552734,17.13991928100586,-1.7515510320663452,-0.0,-0.0,-1.0,0.0337876463439981,1.0,0.0
34.33279800415039,17.787017822265625,-1.81338894367218,-0.9355107371638386,0.0860528716979998,-0.3426580860328533,0.0180983813972315,3.0,0.0
34.59679412841797,17.559965133666992,-1.801967740058899,-0.0,-0.0,-1.0,0.0292745234560808,2.0,0.0
33.9617919921875,18.082000732421875,-1.8283342123031616,-0.0,-0.0,-1.0,0.0274426535846369,2.0,0.0
34.15577697753906,17.946754455566406,-1.8246341943740845,-0.0,-0.0,-1.0,0.0117423750674743,1.0,0.0
35.19206619262695,17.626333236694336,-1.5567158460617063,-0.0,-0.0,-1.0,0.1241930988579422,1.0,0.0
35.035926818847656,18.03982925415039,-1.6232517957687378,-0.0,-0.0,-1.0,0.1594370438842345,1.0,0.0
35.13446807861328,17.36793327331543,-1.6639710664749146,0.3267275676083447,0.5445468848743225,0.7724751042838894,0.1102229636770499,3.0,0.0
34.975860595703125,17.624197006225586,-1.7099436521530151,-0.0,-0.0,-1.0,0.0700932191243791,2.0,0.0
34.77097702026367,18.07082176208496,-1.8052557706832888,-0.0,-0.0,-1.0,0.0807768140303699,1.0,0.0
34.8810920715332,17.968830108642578,-1.7926994562149048,-0.0,-0.0,-1.0,0.049130941576881,2.0,0.0
33.00874328613281,16.57292938232422,-1.5235748291015625,-0.0,-0.0,-1.0,0.1112997127775764,1.0,0.0
33.85926055908203,16.5994815826416,-1.795233130455017,-0.0,-0.0,-1.0,0.0371446038982906,1.0,0.0
33.49060821533203,16.342090606689453,-1.7602733373641968,-0.0,-0.0,-1.0,0.1419797039607447,2.0,0.0
33.35114288330078,16.33688735961914,-1.7617114782333374,-0.0,-0.0,-1.0,0.2370398000935192,2.0,0.0
33.92426300048828,16.501909255981445,-1.7792123556137085,-0.5792144978989654,-0.1693062578333269,-0.7973994961637012,0.0286462870857935,5.0,0.0
34.042301177978516,16.030921936035156,-1.7489861249923706,-0.545638767070732,-0.5293843654829687,-0.6496387684334474,0.0122815545535298,3.0,0.0
33.664329528808594,15.841473579406738,-1.7297083139419556,-0.9338110631427778,-0.2318813084664207,-0.272448081542256,0.0150120444598343,3.0,0.0
33.632450103759766,15.64160442352295,-1.7000609636306765,-0.0,-0.0,-1.0,0.0294659605906521,1.0,0.0
33.14999771118164,16.614551544189453,-1.2477312088012695,0.6556907693995464,-0.3370173676509665,-0.6756396294074558,0.1044938349737963,3.0,0.0
33.87681579589844,17.967079162597656,-1.8092931509017944,-0.0,-0.0,-1.0,0.0587038358740725,1.0,0.0
33.6764030456543,18.115217208862305,-1.8240896463394165,0.682062442758507,-0.6327472606841206,0.3666356887634368,0.1389659960261006,3.0,0.0
34.19609451293945,17.779720306396484,-1.7933942079544067,-0.0,-0.0,-1.0,0.0169739143420395,2.0,0.0
34.03403854370117,17.887128829956055,-1.8031924962997437,-0.0,-0.0,-1.0,0.0192723447646219,1.0,0.0
33.58790969848633,17.708065032958984,-1.860938310623169,-0.1814286425016391,-0.9140461155335656,-0.3627717551822524,0.0280532813631139,3.0,0.0
33.30472946166992,17.78325080871582,-1.8794841766357424,-0.0,-0.0,-1.0,0.0256081881109163,2.0,0.0
33.04838943481445,18.06752586364746,-1.882853388786316,-0.981099674758554,0.1070044693841582,-0.1612249103596395,0.0652897010284585,3.0,0.0
34.328548431396484,17.75412940979004,-1.8100463151931765,-0.986166980567225,0.1153238251782073,-0.1190592364547549,0.0167547353015541,3.0,0.0
33.606224060058594,17.356294631958008,-1.768978714942932,-0.0,-0.0,-1.0,0.0629194378251677,1.0,0.0
34.718162536621094,17.294532775878906,-1.7388886213302612,-0.6015249483375583,-0.6976512970426827,-0.3891662938412832,0.0945808902862672,6.0,0.0
33.16004943847656,16.4910831451416,-1.658837914466858,-0.0,-0.0,-1.0,0.217794177306378,2.0,0.0
34.986289978027344,17.65637969970703,-1.6295472383499146,-0.0,-0.0,-1.0,0.1777278906478333,1.0,0.0
34.90236282348633,17.408950805664062,-1.5963295698165894,-0.0,-0.0,-1.0,0.1193683493495758,1.0,0.0
33.057945251464844,16.508195877075195,-1.6418675184249878,-0.0489107134155541,0.823471497258687,-0.5652454646573624,0.1149541687690928,5.0,0.0
33.83052062988281,16.37250328063965,-1.7457196712493896,-0.0,-0.0,-1.0,0.0221194349540736,1.0,0.0
33.67223358154297,16.2410888671875,-1.733961582183838,-0.0,-0.0,-1.0,0.0299532716005236,2.0,0.0
35.13688278198242,17.32329559326172,-1.693867802619934,-0.0,-0.0,-1.0,0.1056089967318569,1.0,0.0
35.19818115234375,17.643898010253906,-1.636123538017273,-0.4539643493148195,-0.0971885809551089,-0.8857035335162126,0.1323199809643827,4.0,0.0
34.74897384643555,17.293087005615234,-1.739311695098877,-0.0,-0.0,-1.0,0.0944663152398097,2.0,0.0
34.72022247314453,17.549516677856445,-1.7659811973571775,0.8192594949292606,0.5070936394189534,-0.2677123845269261,0.0534219859019132,4.0,0.0
33.75010681152344,18.100364685058594,-1.7376668453216553,-0.0,-0.0,-1.0,0.1383615179869704,2.0,0.0
34.81489944458008,17.22080421447754,-1.6640061140060425,-0.0,-0.0,-1.0,0.0302431796935579,1.0,0.0
34.67319107055664,17.453874588012695,-1.6984909772872925,-0.0,-0.0,-1.0,0.062088169622045,2.0,0.0
33.83603286743164,17.984800338745117,-1.77556574344635,-0.0,-0.0,-1.0,0.0590247810869626,1.0,0.0
33.81657791137695,18.086017608642575,-1.791268229484558,-0.0,-0.0,-1.0,0.1348875092561655,1.0,0.0
32.913143157958984,18.10702896118164,-1.793765664100647,-0.0,-0.0,-1.0,0.0967319454267617,2.0,0.0
32.83744812011719,18.10393524169922,-1.793415904045105,0.8688759933038173,-0.103877891499564,-0.4840081527390938,0.1248116238125647,3.0,0.0
35.165164947509766,17.44599723815918,-1.6377952098846436,0.3354112709086841,-0.7304586863683719,0.5949196473948506,0.1368206336578585,5.0,0.0
35.150062561035156,17.67879867553711,-1.6720457077026367,-0.925082272057051,0.0125082883857764,-0.3795607100944763,0.1171103970737122,4.0,0.0
34.871158599853516,17.730674743652344,-1.6739003658294678,-0.0,-0.0,-1.0,0.1069106200290282,2.0,0.0
34.86740493774414,16.227170944213867,-1.7455378770828247,-0.2379287430215282,-0.3406227432197868,-0.9095966468966468,0.0497147660033208,4.0,0.0
34.79010772705078,16.35105323791504,-1.7650490999221802,0.4281680364561827,-0.8975273808235736,0.1054359200141631,0.0615490646676081,3.0,0.0
35.080204010009766,16.10171127319336,-1.7299083471298218,-0.0,-0.0,-1.0,0.1054334920728937,1.0,0.0
34.886474609375,16.08054542541504,-1.720565915107727,-0.0,-0.0,-1.0,0.0439622940882796,2.0,0.0
33.83286666870117,16.45186424255371,-1.7604504823684692,-0.0,-0.0,-1.0,0.0232876047102288,2.0,0.0
33.929012298583984,16.52325439453125,-1.775086522102356,-0.2578910620468043,-0.2976574820036276,-0.9191801909982782,0.0234032339351354,4.0,0.0
33.64152145385742,16.39164924621582,-1.7460881471633911,-0.7598280799993627,0.542152981415098,-0.3587916297619027,0.0729082901825441,3.0,0.0
33.427589416503906,16.427536010742188,-1.7487901449203491,-0.8066566654819118,-0.4578247725273721,-0.3737666406915726,0.1628771786706487,4.0,0.0
33.273067474365234,16.36182403564453,-1.7344928979873655,-0.0,-0.0,-1.0,0.1428827148397688,2.0,0.0
32.888519287109375,16.60810661315918,-1.7738195657730105,0.1029400750871667,0.4983513634691162,-0.860842180349872,0.0584974265508336,3.0,0.0
32.840606689453125,16.740127563476562,-1.7972546815872192,0.6980545464919004,-0.7120854062404285,0.0751945765424059,0.1098924731104366,3.0,0.0
35.11102294921875,17.649457931518555,-1.6316086053848269,-0.0,-0.0,-1.0,0.2098562875899845,2.0,0.0
35.00522994995117,15.877824783325195,-1.6823198795318604,-0.0,-0.0,-1.0,0.0532621243244383,1.0,0.0
34.831138610839844,16.221872329711914,-1.7376947402954102,0.0693875698427281,-0.2363010088964572,-0.9691992562656226,0.0502695220157748,4.0,0.0
34.69374084472656,16.34514045715332,-1.7543954849243164,-0.0,-0.0,-1.0,0.0306872124394074,1.0,0.0
34.35591506958008,16.287805557250977,-1.7280194759368896,0.5568570041211902,-0.037048433918237,-0.8297817125638399,0.1416300858843952,4.0,0.0
34.150428771972656,16.545434951782227,-1.7687199115753174,-0.0,-0.0,-1.0,0.0442278588637414,1.0,0.0
33.647212982177734,16.41445541381836,-1.723680019378662,-0.0,-0.0,-1.0,0.0948654350633919,2.0,0.0
33.39873123168945,15.642385482788086,-1.5642335414886477,-0.0,-0.0,-1.0,0.0637980219975716,2.0,0.0
33.4097900390625,16.420921325683594,-1.7165048122406006,-0.8066566654819118,-0.4578247725273721,-0.3737666406915726,0.1570899619371817,4.0,0.0
33.117252349853516,16.500762939453125,-1.7226214408874512,-0.0605982103184428,-0.0057479805901929,-0.9981456895790998,0.2128881106869756,3.0,0.0
32.91706466674805,16.705617904663086,-1.7574193477630615,0.7795347559434056,-0.0381192269977825,-0.6251979596970442,0.0984202484017357,6.0,0.0
32.907066345214844,17.29469108581543,-1.8746767044067385,-0.0,-0.0,-1.0,0.058814526708678,2.0,0.0
32.88142776489258,17.457223892211914,-1.9066171646118164,-0.0,-0.0,-1.0,0.0592676640640214,2.0,0.0
35.115108489990234,16.578895568847656,-1.7458875179290771,-0.0,-0.0,-1.0,0.1553015801554436,2.0,0.0
34.96271514892578,15.67318344116211,-1.5744094848632812,-0.0,-0.0,-1.0,0.1438584254681722,1.0,0.0
35.03709411621094,16.23834228515625,-1.6795575618743896,-0.0,-0.0,-1.0,0.1107487117252546,1.0,0.0
34.842254638671875,16.689111709594727,-1.745225429534912,-0.0,-0.0,-1.0,0.1397003014348761,2.0,0.0
34.61747741699219,16.82174301147461,-1.752940654754639,-0.0840013509526268,0.9939548658556931,-0.0706929818293476,0.0250443482231551,3.0,0.0
34.47800064086914,16.963163375854492,-1.769010305404663,-0.0,-0.0,-1.0,0.0168125760526215,2.0,0.0
34.26503372192383,17.171445846557617,-1.7929813861846924,-0.0,-0.0,-1.0,0.0209313298920603,2.0,0.0
34.03718185424805,17.29533576965332,-1.8013427257537842,-0.0,-0.0,-1.0,0.0246095651906731,1.0,0.0
33.93513870239258,17.45488166809082,-1.824760675430298,-0.0989168697634668,0.4135619335842313,-0.9050867251077488,0.0400270282486782,3.0,0.0
33.55949020385742,17.32946014404297,-1.778935432434082,-0.3756263080850672,-0.7917597130672822,-0.4816860320146278,0.107084238593131,5.0,0.0
33.53578567504883,17.579931259155273,-1.8249125480651855,-0.0,-0.0,-1.0,0.0345717246712182,2.0,0.0
33.377342224121094,17.939929962158203,-1.8848414421081543,-0.0,-0.0,-1.0,0.0506759841011686,1.0,0.0
33.2377815246582,16.447168350219727,-1.5941107273101809,-0.8964739666857849,-0.1851014368930182,-0.4025815260475748,0.2960764808069978,5.0,0.0
33.09539794921875,16.559263229370117,-1.6069037914276123,-0.0828423261236268,0.577685517235505,-0.8120446983872094,0.1517136258850513,4.0,0.0
33.05179214477539,18.08031463623047,-1.8950719833374023,-0.981099674758554,0.1070044693841582,-0.1612249103596395,0.0582044603734314,3.0,0.0
32.84967803955078,18.122669219970703,-1.8935997486114504,-0.0,-0.0,-1.0,0.1690071413377264,2.0,0.0
35.13182830810547,17.730613708496094,-1.3530707359313965,-0.0,-0.0,-1.0,0.1948365586404913,1.0,0.0
35.20774841308594,17.240158081054688,-1.6555407047271729,0.9013337288046984,-0.4316550879584983,0.0356566173179576,0.1080116219190433,3.0,0.0
35.11851119995117,17.63080596923828,-1.7031280994415283,-0.0,-0.0,-1.0,0.0830118004847461,2.0,0.0
35.07216262817383,18.019865036010746,-1.756572723388672,-0.0,-0.0,-1.0,0.1875902621360355,2.0,0.0
34.95716094970703,16.07280158996582,-1.7118579149246216,-0.0,-0.0,-1.0,0.0314552253156386,2.0,0.0
34.827903747558594,16.369579315185547,-1.7608321905136108,0.3646381894028245,-0.5776903726613007,-0.7302827015365199,0.0671467471785552,3.0,0.0
34.53399658203125,16.393972396850586,-1.740228295326233,0.9691638201657936,-0.2053156551041443,-0.1362606746306537,0.0803279984925778,3.0,0.0
34.3072509765625,16.497831344604492,-1.7427314519882202,-0.0,-0.0,-1.0,0.0302855829585307,2.0,0.0
34.148345947265625,16.685550689697266,-1.769931674003601,-0.0,-0.0,-1.0,0.0296434311593087,1.0,0.0
33.93574142456055,16.841367721557617,-1.7867974042892456,-0.0,-0.0,-1.0,0.0357230644825421,2.0,0.0
33.22108459472656,17.381576538085938,-1.8561159372329712,-0.0,-0.0,-1.0,0.0349520094856378,1.0,0.0
32.97593688964844,17.634265899658203,-1.898321509361267,-0.0,-0.0,-1.0,0.0247627831527912,1.0,0.0
32.82844924926758,17.771760940551758,-1.9212666749954224,0.499168226582092,0.26334837021828,-0.8255172423845942,0.1079104651872848,4.0,0.0
34.995994567871094,18.0350341796875,-1.561165452003479,-0.0,-0.0,-1.0,0.1316101057759034,1.0,0.0
34.87586975097656,15.97822380065918,-1.68480384349823,-0.0,-0.0,-1.0,0.0646321730439854,1.0,0.0
34.43232345581055,16.326847076416016,-1.717296481132507,0.618557382397472,-0.7554550232929527,0.2160427560994157,0.2345789209779419,3.0,0.0
33.79853820800781,16.77558135986328,-1.762055516242981,-0.3084000055265573,0.1612869213046891,-0.937483848184743,0.033905265003211,3.0,0.0
33.500511169433594,16.93159294128418,-1.7744678258895874,-0.0,-0.0,-1.0,0.033308166153087,2.0,0.0
33.27333068847656,16.45641326904297,-1.6534873247146606,-0.0,-0.0,-1.0,0.222850148769038,2.0,0.0
33.23430252075195,16.940204620361328,-1.757959008216858,-0.0,-0.0,-1.0,0.0388746431706241,1.0,0.0
34.54636001586914,15.690567016601562,-1.7423478364944458,-0.0,-0.0,-1.0,0.1311353088870696,2.0,0.0
34.36549377441406,15.832674026489258,-1.745247483253479,0.3484165212691733,-0.7466306549964176,0.5666997377150513,0.0719612634752978,6.0,0.0
34.17987060546875,16.06610107421875,-1.7663155794143677,-0.0,-0.0,-1.0,0.0482020406358623,2.0,0.0
33.893375396728516,16.19028663635254,-1.7536293268203735,-0.0,-0.0,-1.0,0.0170429146477393,2.0,0.0
33.517852783203125,16.340904235839844,-1.736445069313049,-0.0,-0.0,-1.0,0.106759063343436,2.0,0.0
33.436100006103516,16.385446548461914,-1.7354079484939575,-0.8066566654819118,-0.4578247725273721,-0.3737666406915726,0.1500156144729268,4.0,0.0
33.07453918457031,16.52320098876953,-1.720157504081726,0.7572131440744887,0.5821305632172673,0.296230082552693,0.1748214250808685,7.0,0.0
32.885520935058594,17.362751007080078,-1.877012848854065,-0.0,-0.0,-1.0,0.08630233522764,2.0,0.0
32.78375244140625,17.502805709838867,-1.8960102796554563,-0.1033031696496454,-0.871769394745411,-0.4789014277756497,0.0672432044000716,4.0,0.0
35.209102630615234,17.585172653198242,-1.6627792119979858,-0.2956333354671439,-0.9546206915611049,0.0360592041505224,0.1192861572598602,4.0,0.0
35.17824935913086,17.242544174194336,-1.6002126932144165,0.7420324095555229,-0.5830152387879111,0.3308793352723919,0.1115166172965155,5.0,0.0
35.16039276123047,17.453563690185547,-1.6347919702529907,0.3354112709086841,-0.7304586863683719,0.5949196473948506,0.1437924593332993,5.0,0.0
35.083099365234375,17.776729583740234,-1.6829463243484497,-0.2542417731377187,-0.6970178492162251,-0.6704679251580765,0.1362852936358542,3.0,0.0
33.05885696411133,16.64582061767578,-1.2769805192947388,-0.0,-0.0,-1.0,0.0701799256794698,2.0,0.0
34.91470718383789,15.877050399780272,-1.7279096841812134,-0.0,-0.0,-1.0,0.0784085105328592,1.0,0.0
34.79719924926758,15.983500480651855,-1.733209490776062,-0.0,-0.0,-1.0,0.0265801702449071,1.0,0.0
34.701499938964844,16.229778289794922,-1.7701791524887085,-0.0,-0.0,-1.0,0.0348304048395434,1.0,0.0
34.34910202026367,16.381752014160156,-1.7553690671920776,-0.0,-0.0,-1.0,0.0803088201590226,2.0,0.0
34.1932373046875,16.618558883666992,-1.784939169883728,-0.0,-0.0,-1.0,0.0300875999681312,1.0,0.0
33.93412399291992,16.798763275146484,-1.791035532951355,-0.6675648702593798,0.0987541714410841,-0.7379734125417814,0.0303145770395393,3.0,0.0
33.50613784790039,17.134986877441406,-1.8127673864364624,-0.0,-0.0,-1.0,0.0704735772058476,1.0,0.0
33.41210174560547,17.531959533691406,-1.8896209001541135,-0.0134307516952695,-0.3243618897673013,-0.9458377130224216,0.0435876183768932,3.0,0.0
33.28685760498047,17.666383743286133,-1.905638098716736,-0.0,-0.0,-1.0,0.0250818446048686,1.0,0.0
33.03504943847656,17.790512084960938,-1.906458020210266,-0.0,-0.0,-1.0,0.0380028092788912,1.0,0.0
32.77566909790039,17.98018455505371,-1.9223634004592896,-0.0,-0.0,-1.0,0.0800966270350794,2.0,0.0
35.19660186767578,17.55154800415039,-1.5883201360702517,-0.0,-0.0,-1.0,0.132833829268181,2.0,0.0
35.181880950927734,17.891075134277344,-1.6494144201278689,-0.0,-0.0,-1.0,0.1425982841878393,2.0,0.0
33.362518310546875,16.563026428222656,-1.671343207359314,-0.0,-0.0,-1.0,0.1303840249370084,2.0,0.0
33.151939392089844,16.373973846435547,-1.6053546667099,0.4596804254802195,-0.8670489761733163,-0.1921457242488851,0.1752657041854638,5.0,0.0
33.080711364746094,16.53960418701172,-1.6329606771469116,-0.1037731097759707,0.6060763528153024,-0.7886080117812182,0.1581957116799793,5.0,0.0
35.20151138305664,16.934932708740234,-1.6864628791809082,-0.0,-0.0,-1.0,0.0755874854055625,1.0,0.0
35.0605583190918,17.067703247070312,-1.6888139247894287,-0.0,-0.0,-1.0,0.076796868001119,1.0,0.0
34.88282775878906,17.247642517089844,-1.6948537826538086,-0.0,-0.0,-1.0,0.0356089090022363,2.0,0.0
34.70587921142578,17.580644607543945,-1.72992205619812,-0.1441729853095552,0.6913813500543418,-0.7079590236051564,0.028036479024965,6.0,0.0
34.6179084777832,17.943479537963867,-1.784710168838501,0.3871083682737851,-0.3550965916460466,-0.8509133456549899,0.1008557630239544,4.0,0.0
34.19746017456055,15.909523963928224,-1.7908833026885986,-0.0,-0.0,-1.0,0.0230182433130051,1.0,0.0
34.40080261230469,18.12078857421875,-1.7883942127227783,-0.0,-0.0,-1.0,0.0290196791024169,1.0,0.0
33.93032455444336,16.032756805419922,-1.7677431106567385,-0.0,-0.0,-1.0,0.0096651797739899,1.0,0.0
33.58098602294922,16.33860206604004,-1.7692039012908936,-0.0,-0.0,-1.0,0.1300724170543663,2.0,0.0
33.1815185546875,16.430639266967773,-1.7212998867034912,0.8367278902044516,-0.4921660990281421,0.2401228200763691,0.2451276134783271,6.0,0.0
33.01569366455078,16.701519012451172,-1.7521371841430664,-0.0,-0.0,-1.0,0.0508195760010253,2.0,0.0
32.99234390258789,17.18150520324707,-1.853304386138916,-0.0,-0.0,-1.0,0.0301465654566124,1.0,0.0
32.92308807373047,16.750579833984375,-1.7477996349334717,0.9584271702567808,0.279150090253974,-0.0590981084703924,0.0867024019222903,6.0,0.0
32.950714111328125,17.345123291015625,-1.883122444152832,-0.7012597330841314,-0.5860125785147583,-0.4059852763059977,0.0560558448884583,4.0,0.0
32.80852508544922,17.596939086914062,-1.9182846546173096,-0.0,-0.0,-1.0,0.0982177356088719,1.0,0.0
35.116729736328125,17.690773010253906,-1.3145487308502195,-0.0,-0.0,-1.0,0.1840050917378709,1.0,0.0
34.824310302734375,15.792006492614746,-1.4343817234039309,-0.0,-0.0,-1.0,0.2466324035582894,2.0,0.0
34.79079818725586,15.8175687789917,-1.433417558670044,-0.0,-0.0,-1.0,0.2353903781170196,2.0,0.0
33.090248107910156,16.637428283691406,-1.329636812210083,-0.0,-0.0,-1.0,0.0644734634429268,2.0,0.0
35.20325469970703,16.55265998840332,-1.728465914726257,-0.0,-0.0,-1.0,0.0974466779791115,1.0,0.0
35.112247467041016,16.731590270996094,-1.744008183479309,-0.0,-0.0,-1.0,0.0956047952174459,1.0,0.0
34.826934814453125,16.96363067626953,-1.7366992235183716,-0.0,-0.0,-1.0,0.0499155420088513,1.0,0.0
34.68071746826172,17.23397445678711,-1.762135624885559,-0.0059998918750989,0.9046761366991348,-0.426057612283381,0.0537267892839778,3.0,0.0
34.493038177490234,17.46510124206543,-1.7751768827438354,-0.0,-0.0,-1.0,0.0319672822292817,2.0,0.0
34.32255935668945,17.71688461303711,-1.7965151071548462,-0.7819328611798644,0.3200740894715633,0.53491455192023,0.0157031825047547,3.0,0.0
33.919559478759766,15.796871185302734,-1.7680095434188845,-0.0,-0.0,-1.0,0.0077670091431126,1.0,0.0
34.128211975097656,17.904245376586914,-1.8029998540878296,-0.0,-0.0,-1.0,0.0116057065464465,1.0,0.0
33.94969940185547,18.059608459472656,-1.8065370321273804,-0.0338502379414359,-0.3982843268029009,-0.9166371999948876,0.0445952423795482,4.0,0.0
33.5418701171875,16.249324798583984,-1.7837435007095337,-0.950481861728475,0.2300827493215419,-0.2089166316735282,0.0787724052862722,3.0,0.0
33.17531967163086,16.406930923461914,-1.7454067468643188,0.9096786937140008,-0.2605221062615986,0.3234391849356061,0.1736935770041035,4.0,0.0
33.02461624145508,16.591861724853516,-1.7571231126785278,-0.0,-0.0,-1.0,0.1180618503608738,2.0,0.0
32.908077239990234,16.748361587524414,-1.7703648805618286,0.77433655425217,0.5722383726214829,0.2700854413854866,0.102223964688817,8.0,0.0
32.909881591796875,17.135940551757812,-1.859546780586243,-0.0,-0.0,-1.0,0.0270941141534083,1.0,0.0
32.78845977783203,17.518505096435547,-1.9278620481491089,-0.5685593390827031,-0.7483189884985024,-0.3417001161755992,0.0624653397933161,4.0,0.0
35.16383361816406,16.35496711730957,-1.6867274045944214,-0.0,-0.0,-1.0,0.1366913944455225,1.0,0.0
34.7510986328125,16.813814163208008,-1.6958292722702026,-0.0,-0.0,-1.0,0.0375147118726801,1.0,0.0
34.425025939941406,16.308048248291016,-1.547063231468201,-0.2448394881436496,-0.9524374136413982,0.1814293199613551,0.2946191770945844,3.0,0.0
33.13002014160156,16.341060638427734,-1.3318644762039185,-0.0,-0.0,-1.0,0.1308233199664054,1.0,0.0
33.0576057434082,16.613998413085938,-1.3733888864517212,-0.0,-0.0,-1.0,0.0685938653414299,1.0,0.0
34.81481170654297,17.964557647705078,-1.825134515762329,-0.0,-0.0,-1.0,0.0437209080341173,1.0,0.0
35.17873764038086,16.782346725463867,-1.660541296005249,-0.0,-0.0,-1.0,0.1312521787743664,1.0,0.0
35.112144470214844,17.10335350036621,-1.7079589366912842,-0.0,-0.0,-1.0,0.0417834044155835,1.0,0.0
35.00349426269531,17.341814041137695,-1.733865737915039,-0.0,-0.0,-1.0,0.1100183626954258,1.0,0.0
34.943939208984375,17.207061767578125,-1.6974775791168213,-0.0,-0.0,-1.0,0.0842265229038889,2.0,0.0
34.822898864746094,17.506683349609375,-1.734668493270874,-0.0,-0.0,-1.0,0.0869915397509994,1.0,0.0
34.710811614990234,17.916667938232422,-1.7979841232299805,-0.0,-0.0,-1.0,0.0617163701433386,2.0,0.0
34.61697006225586,18.071117401123047,-1.8141324520111084,-0.0,-0.0,-1.0,0.1101682509143545,1.0,0.0
33.20238494873047,16.62860107421875,-1.2812645435333252,-0.0,-0.0,-1.0,0.0783373574774984,1.0,0.0
35.177635192871094,16.30661964416504,-1.2866724729537964,-0.0,-0.0,-1.0,0.0760332114835546,1.0,0.0
35.102699279785156,17.669837951660156,-1.4372705221176147,0.5040726416322399,-0.8447510526875806,0.1797398980224488,0.1994867947724568,4.0,0.0
35.202091217041016,16.085248947143555,-1.365909457206726,-0.0,-0.0,-1.0,0.0737652866159581,1.0,0.0
35.1002197265625,17.251985549926758,-1.4708354473114014,-0.0,-0.0,-1.0,0.137080529994764,1.0,0.0
35.114315032958984,16.481643676757812,-1.482088565826416,-0.0,-0.0,-1.0,0.1694142229254524,1.0,0.0
35.0950927734375,17.751266479492188,-1.5784878730773926,0.2798271429197925,0.6902285966631063,-0.6672939790181119,0.1688294195563894,3.0,0.0
35.099891662597656,17.93153953552246,-1.5774667263031006,-0.0,-0.0,-1.0,0.1322826905017999,1.0,0.0
35.09347915649414,17.545291900634766,-1.5813648700714111,-0.0,-0.0,-1.0,0.1656967935360654,1.0,0.0
33.19953918457031,17.42062759399414,-1.8907139301300049,-0.0,-0.0,-1.0,0.0383079335078957,1.0,0.0
33.143951416015625,17.11742401123047,-1.898994207382202,-0.0,-0.0,-1.0,0.0313808386831646,1.0,0.0
32.90618133544922,16.759353637695312,-1.880439281463623,-0.0,-0.0,-1.0,0.1113006666650418,1.0,0.0
32.782562255859375,16.566661834716797,-1.871319055557251,-0.0,-0.0,-1.0,0.0538818624025341,1.0,0.0
32.72201156616211,16.316761016845703,-1.8762946128845217,-0.0,-0.0,-1.0,0.0273727833375677,1.0,0.0
33.88905334472656,17.510669708251953,-1.7775764465332031,-0.0,-0.0,-1.0,0.028754687677291,2.0,0.0
33.85865783691406,17.229328155517578,-1.7831263542175293,0.350240345901165,0.8772488497222741,-0.3282775590319554,0.016243104623347,3.0,0.0
33.543296813964844,16.919042587280273,-1.7462422847747805,-0.0,-0.0,-1.0,0.0199806271688007,2.0,0.0
32.87709426879883,16.78512954711914,-1.769322633743286,0.1582554441659629,0.1609708289404056,-0.9741886914874716,0.1092551713913997,3.0,0.0
32.91514587402344,16.72152328491211,-1.7738659381866455,0.7795347559434056,-0.0381192269977825,-0.6251979596970442,0.0940521213016701,6.0,0.0
33.02218246459961,17.043155670166016,-1.7996957302093506,-0.0,-0.0,-1.0,0.0304037264119752,1.0,0.0
33.23265075683594,17.454120635986328,-1.845381259918213,-0.0,-0.0,-1.0,0.0421007860400987,2.0,0.0
33.25267028808594,17.93942642211914,-1.863701581954956,-0.0,-0.0,-1.0,0.0261661269078095,2.0,0.0
33.24671936035156,16.503517150878906,-1.5293288230895996,-0.3779864897834799,0.1863843965206762,-0.906855595050715,0.1642838699486519,3.0,0.0
34.609718322753906,15.729470252990724,-1.6601457595825195,-0.0,-0.0,-1.0,0.0757621249165097,1.0,0.0
34.44866180419922,16.349855422973633,-1.6836199760437012,-0.0,-0.0,-1.0,0.2860013928684886,2.0,0.0
34.717498779296875,15.962808609008787,-1.692107915878296,-0.0,-0.0,-1.0,0.0397755818981163,2.0,0.0
34.351783752441406,16.986549377441406,-1.7190489768981934,-0.0,-0.0,-1.0,0.0212016069641364,1.0,0.0
34.47995376586914,16.528268814086914,-1.701432704925537,-0.0,-0.0,-1.0,0.0333889296850327,1.0,0.0
34.764556884765625,16.23320198059082,-1.7185711860656738,-0.0,-0.0,-1.0,0.0433109024777066,2.0,0.0
34.29145050048828,17.460229873657227,-1.7482872009277344,-0.0,-0.0,-1.0,0.0244168776573837,1.0,0.0
34.374671936035156,17.130332946777344,-1.7334799766540527,-0.0,-0.0,-1.0,0.0160761765003657,2.0,0.0
34.16229248046875,17.875011444091797,-1.7642340660095217,-0.0,-0.0,-1.0,0.0131902296497573,1.0,0.0
33.22766876220703,16.43511962890625,-1.5214531421661377,0.9157913412504568,0.1523338501144542,-0.3716458225246115,0.1483257907117772,5.0,0.0
34.5419921875,16.229822158813477,-1.7019439935684204,-0.0,-0.0,-1.0,0.1314447724597232,2.0,0.0
34.707916259765625,15.829142570495604,-1.703107476234436,-0.0,-0.0,-1.0,0.0487554633098346,2.0,0.0
34.49407958984375,16.579233169555664,-1.7159503698349,0.0697487651628256,0.9370427359090734,-0.3421783465362754,0.0524520896555862,4.0,0.0
34.67411804199219,16.297639846801758,-1.7255877256393433,-0.0,-0.0,-1.0,0.0224362822215082,1.0,0.0
34.785560607910156,16.078554153442383,-1.7291053533554075,-0.0,-0.0,-1.0,0.0457409047559651,1.0,0.0
34.496429443359375,17.23383140563965,-1.7572673559188845,-0.0,-0.0,-1.0,0.0279175250633532,1.0,0.0
34.47875213623047,16.988300323486328,-1.7390567064285278,0.2914453105975057,0.7291405996506247,-0.6192040187788278,0.0162625695040199,3.0,0.0
34.348350524902344,17.732337951660156,-1.768060564994812,-0.0,-0.0,-1.0,0.0166179186735498,2.0,0.0
34.40593338012695,17.450775146484375,-1.7579530477523804,-0.0,-0.0,-1.0,0.0195366929131209,2.0,0.0
34.36452865600586,17.920108795166016,-1.7829116582870483,-0.0,-0.0,-1.0,0.0206021537084925,2.0,0.0
33.219505310058594,16.484495162963867,-1.5218952894210815,-0.3372999784266043,0.1203015941582898,-0.9336788800205276,0.1396962487510601,4.0,0.0
34.82740783691406,16.415878295898438,-1.7249120473861694,-0.0,-0.0,-1.0,0.0620394353315929,1.0,0.0
34.9127197265625,16.154088973999023,-1.7243856191635132,-0.0,-0.0,-1.0,0.0565751691143162,2.0,0.0
34.67335510253906,17.135488510131836,-1.7405375242233276,-0.0,-0.0,-1.0,0.0304591859170455,2.0,0.0
34.492034912109375,17.799291610717773,-1.7512263059616089,-0.0,-0.0,-1.0,0.0374454034763635,1.0,0.0
34.61371612548828,17.502056121826172,-1.7524150609970093,-0.0,-0.0,-1.0,0.0345660076298046,1.0,0.0
34.53081512451172,18.08624839782715,-1.7745062112808228,-0.0,-0.0,-1.0,0.0843285843573734,1.0,0.0
33.18280029296875,16.371858596801758,-1.4675556421279907,-0.1063849743444214,0.784293309064359,-0.6112006565691945,0.1055283009662925,3.0,0.0
33.209136962890625,16.562034606933594,-1.4821876287460327,-0.2588660608327491,0.9510677943870528,-0.1686962152174194,0.2078511707623452,4.0,0.0
34.71368408203125,15.691360473632812,-1.669808268547058,-0.0,-0.0,-1.0,0.0450994130171709,1.0,0.0
34.79439926147461,15.859281539916992,-1.6908801794052124,-0.0,-0.0,-1.0,0.0936749974518978,2.0,0.0
34.60724639892578,16.67162322998047,-1.704515814781189,-0.0,-0.0,-1.0,0.0487940635487207,2.0,0.0
34.709320068359375,16.501344680786133,-1.7111386060714722,-0.0,-0.0,-1.0,0.0413534584438293,1.0,0.0
34.64977264404297,16.84874153137207,-1.7208300828933716,-0.6486806698728975,-0.6326856445120632,-0.4229920374683241,0.0255164759555134,3.0,0.0
33.2615966796875,17.22939682006836,-1.8441425561904907,-0.0,-0.0,-1.0,0.0304860123115845,1.0,0.0
33.3687744140625,17.83292007446289,-1.901095271110535,-0.0,-0.0,-1.0,0.0343612371563057,2.0,0.0
33.438323974609375,17.54865837097168,-1.8957198858261108,0.4948362700534015,-0.2157770398844716,-0.8417703575787951,0.0399820947674399,5.0,0.0
33.30160903930664,18.090600967407227,-1.9057148694992063,-0.0,-0.0,-1.0,0.0164687061498677,1.0,0.0
33.01588821411133,15.989662170410156,-1.7291051149368286,-0.0,-0.0,-1.0,0.1239704705303363,1.0,0.0
33.10118865966797,15.770797729492188,-1.7336150407791138,-0.0,-0.0,-1.0,0.096344195085224,1.0,0.0
32.93268966674805,16.713441848754883,-1.753742814064026,0.7795347559434056,-0.0381192269977825,-0.6251979596970442,0.1023856244063107,6.0,0.0
33.0625,16.52880859375,-1.766971230506897,0.8945244421098291,-0.3222327001284529,-0.3098259340920721,0.1764949793244585,4.0,0.0
33.058441162109375,16.761009216308594,-1.7795072793960571,-0.0,-0.0,-1.0,0.0684091230488473,1.0,0.0
32.90819549560547,15.886517524719238,-1.7278486490249634,-0.0,-0.0,-1.0,0.1308564307288838,2.0,0.0
32.95299530029297,16.74452781677246,-1.801360249519348,-0.0,-0.0,-1.0,0.0852870771675444,1.0,0.0
33.00633239746094,17.726945877075195,-1.8917678594589231,-0.0,-0.0,-1.0,0.0432460426599525,1.0,0.0
33.070945739746094,17.486787796020508,-1.8833094835281372,-0.0,-0.0,-1.0,0.0235639738393774,2.0,0.0
32.91685485839844,17.930103302001953,-1.8931080102920532,0.1112461494113658,0.8489059866252165,0.5167038998430451,0.0878811023125581,4.0,0.0
34.94044494628906,16.680641174316406,-1.5500279664993286,-0.0,-0.0,-1.0,0.2116277036058103,2.0,0.0
35.190040588378906,17.40099334716797,-1.6326414346694946,0.8854116794168969,-0.4231191988732345,-0.192396209674261,0.1285625595298291,4.0,0.0
33.12400436401367,15.909339904785156,-1.5604031085968018,-0.0,-0.0,-1.0,0.1087598210684046,1.0,0.0
33.22214126586914,16.451200485229492,-1.6254053115844729,-0.0241402885470799,0.4236305568230851,-0.9055133338579984,0.2168088253543427,6.0,0.0
33.45065689086914,16.400035858154297,-1.6607234477996826,-0.0,-0.0,-1.0,0.1861635479581339,2.0,0.0
34.294639587402344,15.709545135498049,-1.7508764266967771,-0.0,-0.0,-1.0,0.0734043111976141,1.0,0.0
33.69411087036133,16.336029052734375,-1.6977274417877195,-0.0,-0.0,-1.0,0.0442672878895679,2.0,0.0
34.089088439941406,16.262800216674805,-1.7608764171600342,-0.0,-0.0,-1.0,0.014533099789949,2.0,0.0
34.3035774230957,16.02215003967285,-1.778320550918579,0.7729097433412024,0.6180911238446918,-0.1434360180451299,0.0506705607130818,3.0,0.0
33.58604049682617,17.305641174316406,-1.767155647277832,-0.3756263080850672,-0.7917597130672822,-0.4816860320146278,0.0979129922715387,5.0,0.0
33.64459991455078,17.028417587280273,-1.7514517307281494,-0.0,-0.0,-1.0,0.0242624897167863,2.0,0.0
33.99613952636719,16.674442291259766,-1.7805941104888916,0.372895098020421,-0.1995424215816695,-0.9061633781287256,0.0313334233944693,3.0,0.0
33.666168212890625,17.57012176513672,-1.8060367107391355,-0.0,-0.0,-1.0,0.0303123495247852,2.0,0.0
33.732261657714844,17.860427856445312,-1.8453044891357424,-0.0,-0.0,-1.0,0.0555302456702495,2.0,0.0
34.96189880371094,16.13619613647461,-1.692943096160889,-0.0,-0.0,-1.0,0.0411463586630576,1.0,0.0
35.15725326538086,15.736936569213867,-1.6935553550720217,-0.7137032178265778,-0.6847877982780589,-0.1472867549831872,0.1465112213955973,5.0,0.0
34.61516571044922,16.86867332458496,-1.6975712776184082,-0.0,-0.0,-1.0,0.021242066877232,2.0,0.0
34.94921875,16.682579040527344,-1.7370896339416504,-0.0,-0.0,-1.0,0.1670747367664907,1.0,0.0
34.944358825683594,16.43015480041504,-1.7145836353302002,-0.0,-0.0,-1.0,0.1181430046736332,2.0,0.0
34.696266174316406,17.180118560791016,-1.738874912261963,0.1146778902316836,-0.2331758574293742,-0.9656490050759052,0.0412313889848108,3.0,0.0
34.474082946777344,17.397645950317383,-1.7889529466629028,-0.0,-0.0,-1.0,0.0308714336845798,2.0,0.0
34.560272216796875,17.054325103759766,-1.763407588005066,-0.0,-0.0,-1.0,0.0235397892075512,1.0,0.0
34.589378356933594,16.662981033325195,-1.7247487306594849,-0.6171445984860616,0.754689787683195,0.2226563920622346,0.0521966405123728,3.0,0.0
34.556514739990234,17.35987663269043,-1.7969437837600708,-0.0,-0.0,-1.0,0.0443345810946195,1.0,0.0
34.638404846191406,17.147567749023438,-1.7855626344680786,-0.0,-0.0,-1.0,0.0245516217449094,1.0,0.0
34.828792572021484,16.681489944458008,-1.7634731531143188,-0.0,-0.0,-1.0,0.0832830916055109,2.0,0.0
34.98698806762695,16.551305770874023,-1.7738126516342163,-0.0,-0.0,-1.0,0.1477790907254753,2.0,0.0
34.42705154418945,15.766769409179688,-1.6824249029159546,0.0887298399186345,0.995973145464183,-0.0128261070553067,0.0957018398274136,3.0,0.0
34.67644500732422,15.921489715576172,-1.7377246618270874,-0.0,-0.0,-1.0,0.0438246045469859,1.0,0.0
34.53892135620117,17.246326446533203,-1.7258236408233645,-0.0,-0.0,-1.0,0.0305512476570253,1.0,0.0
34.607093811035156,17.96891212463379,-1.8013637065887451,0.7189020749329998,-0.1043901461098302,-0.6872281310105074,0.0971480319335035,4.0,0.0
34.9669303894043,15.722312927246094,-1.7195391654968262,0.7896500793349484,-0.4647225612807837,-0.400606656513516,0.0680089098972958,4.0,0.0
34.85150146484375,18.04835319519043,-1.784809112548828,-0.0,-0.0,-1.0,0.0543068864165628,1.0,0.0
34.8973274230957,17.60195541381836,-1.722844123840332,-0.0,-0.0,-1.0,0.0508944245109362,1.0,0.0
34.8913688659668,17.32828140258789,-1.6839842796325684,-0.0,-0.0,-1.0,0.0808133461377536,1.0,0.0
33.79387283325195,18.13481330871582,-1.769575595855713,-0.0,-0.0,-1.0,0.1170674304809044,2.0,0.0
34.445106506347656,16.12689971923828,-1.805358648300171,-0.0,-0.0,-1.0,0.1153803921494088,1.0,0.0
33.967323303222656,16.17991828918457,-1.7977869510650637,-0.0,-0.0,-1.0,0.0135163345195255,2.0,0.0
33.126625061035156,16.093963623046875,-1.7581374645233154,-0.0,-0.0,-1.0,0.0705041306076669,1.0,0.0
34.47686767578125,16.042255401611328,-1.8294472694396973,-0.0,-0.0,-1.0,0.0615399581078591,1.0,0.0
34.1470947265625,16.525035858154297,-1.8665976524353027,-0.0,-0.0,-1.0,0.0382654706923046,1.0,0.0
34.03561019897461,16.650432586669922,-1.8744587898254397,-0.0,-0.0,-1.0,0.0352268583464627,1.0,0.0
33.47838592529297,17.73508071899414,-1.979382038116455,-0.0,-0.0,-1.0,0.0310863317213269,1.0,0.0
33.66940689086914,16.301109313964844,-1.7979464530944824,-0.0,-0.0,-1.0,0.0696114323931531,1.0,0.0
33.809383392333984,16.708599090576172,-1.864266872406006,-0.0,-0.0,-1.0,0.0393464085428688,1.0,0.0
33.507259368896484,17.25796127319336,-1.915759563446045,-0.0,-0.0,-1.0,0.1014035656574603,1.0,0.0
32.948272705078125,18.038604736328125,-1.9827470779418943,-0.0,-0.0,-1.0,0.0701114115617445,1.0,0.0
33.3746452331543,16.445491790771484,-1.7942981719970703,-0.0,-0.0,-1.0,0.1616634899072916,2.0,0.0
33.21113586425781,16.799816131591797,-1.8301854133605957,-0.0,-0.0,-1.0,0.0355754975309718,1.0,0.0
35.1200065612793,17.14912223815918,-1.9722144603729248,-0.0,-0.0,-1.0,0.1800520930652531,1.0,0.0
35.131126403808594,17.621421813964844,-1.9857957363128664,-0.0,-0.0,-1.0,0.2306389501137939,1.0,0.0
35.134185791015625,16.896095275878906,-1.969905138015747,-0.0,-0.0,-1.0,0.1751231805499739,1.0,0.0
34.11973190307617,17.97669219970703,-1.806476354598999,-0.0,-0.0,-1.0,0.0156470543830019,1.0,0.0
35.19035720825195,16.26949691772461,-1.9702041149139404,-0.0,-0.0,-1.0,0.1293851362096552,1.0,0.0
35.174339294433594,15.727291107177734,-1.956373929977417,-0.0,-0.0,-1.0,0.1334103488732523,1.0,0.0
35.16967010498047,16.069271087646484,-1.9614770412445068,-0.0,-0.0,-1.0,0.1956787688058144,1.0,0.0
33.050296783447266,15.87160301208496,-1.7874610424041748,-0.0,-0.0,-1.0,0.0912167260948797,1.0,0.0
35.00682067871094,16.555072784423828,-1.7696881294250488,0.2124426705405822,-0.967381013701855,-0.1379930652705307,0.1640875676475563,3.0,0.0
34.722869873046875,16.549320220947266,-1.746774673461914,-0.0,-0.0,-1.0,0.0405893166410818,1.0,0.0
34.45542526245117,16.90876007080078,-1.7767176628112793,-0.0,-0.0,-1.0,0.0232426508191091,1.0,0.0
34.18423080444336,17.178363800048828,-1.7947015762329102,-0.0,-0.0,-1.0,0.0227123301372331,2.0,0.0
33.72614288330078,17.929317474365234,-1.8699684143066408,-0.0,-0.0,-1.0,0.0299143470325187,1.0,0.0
33.859130859375,17.560462951660156,-1.8259315490722656,-0.0,-0.0,-1.0,0.0162159723836931,1.0,0.0
33.74059295654297,17.675228118896484,-1.8341302871704104,-0.0,-0.0,-1.0,0.0457999615973984,1.0,0.0
35.18971633911133,15.959242820739746,-1.702530860900879,-0.0,-0.0,-1.0,0.0648796130500144,1.0,0.0
34.532554626464844,16.570899963378906,-1.7351274490356443,-0.0,-0.0,-1.0,0.0455294412749827,2.0,0.0
33.29311752319336,16.358367919921875,-1.612775802612305,-0.3996179450340741,0.1009734724891371,-0.9111036471555966,0.1531628722579764,4.0,0.0
34.412384033203125,15.789506912231444,-1.773866891860962,0.319326122252617,0.5105156441527278,-0.7983762300585058,0.114089567539028,5.0,0.0
34.3493766784668,15.80007553100586,-1.7701385021209717,0.7968889646594411,-0.5622587987452423,0.2209819477639773,0.0915591720189218,4.0,0.0
34.07596969604492,16.037567138671875,-1.782679796218872,0.6769044442227455,-0.4408452859166565,0.5894538211569733,0.0124693242745582,3.0,0.0
33.549041748046875,16.284517288208008,-1.777613401412964,-0.950481861728475,0.2300827493215419,-0.2089166316735282,0.1217255118367679,3.0,0.0
32.79792785644531,17.754140853881836,-1.946148157119751,0.499168226582092,0.26334837021828,-0.8255172423845942,0.1085094698664493,4.0,0.0
33.1855354309082,16.25053596496582,-1.744532346725464,-0.0,-0.0,-1.0,0.1380744397820393,1.0,0.0
32.98082733154297,16.57141876220703,-1.7776310443878174,-0.0,-0.0,-1.0,0.045093912829251,1.0,0.0
34.44378662109375,15.79459285736084,-1.7461564540863037,0.3307632147925422,0.4659895205610842,-0.8206396666426462,0.1654289413215722,6.0,0.0
34.24189758300781,16.17962646484375,-1.7819430828094482,0.7782742481838587,0.4839193876933363,-0.40013900188354,0.0306269100873939,4.0,0.0
34.054290771484375,16.42621612548828,-1.8002455234527588,-0.0,-0.0,-1.0,0.0238050462633356,2.0,0.0
33.95459747314453,16.161087036132812,-1.7535436153411863,0.8255717517414919,-0.5642906166982905,-0.0027171000621091,0.012935377547427,3.0,0.0
33.95585632324219,16.470977783203125,-1.7979567050933838,-0.0,-0.0,-1.0,0.0275113040323967,2.0,0.0
33.190948486328125,17.649429321289062,-1.9054858684539795,-0.0,-0.0,-1.0,0.0278576837212826,2.0,0.0
33.0931396484375,17.69478988647461,-1.9043176174163816,-0.0,-0.0,-1.0,0.0339597172335873,1.0,0.0
33.379661560058594,16.35706329345703,-1.7313153743743896,-0.0,-0.0,-1.0,0.1608144422649169,2.0,0.0
33.117584228515625,16.598621368408203,-1.74411940574646,0.9510689901743856,-0.2705475975494981,-0.1492373056205103,0.1663859357794057,3.0,0.0
32.93517303466797,17.832141876220703,-1.9122350215911863,0.986435735681586,-0.050727724490717,-0.1561128993335349,0.0636702675627503,3.0,0.0
32.7174072265625,18.06043243408203,-1.929478883743286,-0.0,-0.0,-1.0,0.1122805461349016,1.0,0.0
33.081512451171875,16.555721282958984,-1.734750509262085,0.8945244421098291,-0.3222327001284529,-0.3098259340920721,0.2190385740940305,4.0,0.0
35.15681076049805,16.695148468017578,-1.7303717136383057,-0.6369069316475058,-0.3267712807066659,-0.6982621932517071,0.0989455099188928,5.0,0.0
35.1860237121582,16.432350158691406,-1.697749376296997,-0.0,-0.0,-1.0,0.1229763590854755,1.0,0.0
35.0104866027832,16.774818420410156,-1.7278072834014893,-0.0,-0.0,-1.0,0.1287115195404546,1.0,0.0
34.76800537109375,17.11917495727539,-1.753075361251831,-0.7814398815086733,0.5839514829205669,0.2198917396870132,0.0319049020347827,3.0,0.0
34.520484924316406,17.480144500732422,-1.7812864780426023,-0.0,-0.0,-1.0,0.0375736869997806,2.0,0.0
34.33605194091797,17.822505950927734,-1.8133604526519775,-0.724709092271175,0.0669997686330255,-0.6857898822398963,0.0195481313008687,3.0,0.0
34.193092346191406,17.893367767333984,-1.811245679855347,-0.0,-0.0,-1.0,0.0141576890691562,1.0,0.0
33.91640090942383,18.063091278076172,-1.8122589588165283,0.1328787475689084,-0.2877644540063118,-0.9484381147207062,0.0534857343461869,3.0,0.0
33.214534759521484,16.44647216796875,-1.5237047672271729,0.836286671121868,-0.0345251669699389,-0.5472043645198772,0.141069039545838,7.0,0.0
35.182411193847656,17.090415954589844,-1.6917147636413574,-0.0,-0.0,-1.0,0.0560908592005681,1.0,0.0
34.9267692565918,17.521760940551758,-1.7253623008728027,-0.0,-0.0,-1.0,0.0883093403455823,2.0,0.0
34.84640121459961,17.93767738342285,-1.7742929458618164,-0.0,-0.0,-1.0,0.0414258607371661,1.0,0.0
35.1101188659668,17.83551788330078,-1.6941468715667725,0.4415089709980609,0.8426832114986248,-0.308147421839933,0.1373141011857131,4.0,0.0
35.17939758300781,17.19615936279297,-1.6185142993927002,0.955419448838768,-0.0811935379770722,-0.2838684310933339,0.1115693544400517,8.0,0.0
35.16239929199219,17.59911346435547,-1.6684134006500244,-0.2617263343843044,-0.9221969332499498,-0.2846965791753442,0.1414584798754643,6.0,0.0
35.18317794799805,16.714813232421875,-1.7274818420410156,-0.3623280645544575,0.5916572952019857,-0.7201805458844962,0.0578302018488016,3.0,0.0
35.02057647705078,16.846683502197266,-1.7266693115234375,-0.0,-0.0,-1.0,0.1098034340227112,1.0,0.0
34.848167419433594,17.0886173248291,-1.7385153770446775,-0.0,-0.0,-1.0,0.042764082988813,1.0,0.0
34.68443298339844,17.48118782043457,-1.7703018188476562,-0.0,-0.0,-1.0,0.0611595935265296,1.0,0.0
34.55414962768555,17.906492233276367,-1.8105053901672363,-0.0,-0.0,-1.0,0.0517289481708589,1.0,0.0
35.20021438598633,17.626766204833984,-1.6187081336975098,-0.9372219137759796,0.1876062436394394,0.2939710558636504,0.1269542812190227,3.0,0.0
35.16826248168945,17.342782974243164,-1.588449001312256,0.7200172809981903,0.689505612327782,0.078467353928015,0.1135014027822094,5.0,0.0
34.576419830322266,15.707890510559082,-1.7392430305480957,-0.0,-0.0,-1.0,0.1147494672965074,2.0,0.0
34.580474853515625,16.117353439331055,-1.7816815376281738,-0.0,-0.0,-1.0,0.0602920728457473,1.0,0.0
