x,y,z,nx,ny,nz,curvature,density,label
33.27397155761719,-7.609392166137695,-0.3553637266159057,-0.0,-0.0,-1.0,0.0287011828526507,1.0,0.0
33.753055572509766,-7.566564559936523,-0.3562830686569214,0.8810202577807988,-0.0633343919523345,-0.4688198589819792,0.1337083124242353,3.0,0.0
33.24164581298828,-8.937875747680664,-0.2615725994110107,0.0641802206461301,-0.51054157899351,-0.8574544859038452,0.0496370147355244,4.0,0.0
33.87355422973633,-9.267616271972656,-0.2896173000335693,-0.382187897613584,-0.9146326852600524,0.1318311874015192,0.1070159434803945,4.0,0.0
34.772457122802734,-9.136955261230469,-0.2833352088928222,-0.0,-0.0,-1.0,0.0756111582368618,1.0,0.0
32.72426223754883,-8.55617904663086,-0.2315034866333007,-0.0602842037507072,-0.9857290747752612,-0.1571750804703153,0.0431130256690866,3.0,0.0
33.07142639160156,-8.578422546386719,-0.2317922115325927,-0.0,-0.0,-1.0,0.1522442414719898,1.0,0.0
33.55887222290039,-8.678380966186523,-0.2394425868988037,0.1662874137042193,-0.763526780567031,-0.6239994802886512,0.1068583042177474,5.0,0.0
34.10823059082031,-8.583072662353516,-0.2323174476623535,-0.0,-0.0,-1.0,0.081163443322081,1.0,0.0
34.41788101196289,-8.699569702148438,-0.2436748743057251,-0.0,-0.0,-1.0,0.0450127882863428,2.0,0.0
35.20665740966797,-8.866525650024414,-0.2645304203033447,-0.5061331570734798,-0.8415769855012128,-0.1886197359385368,0.1526841393029299,3.0,0.0
34.1882438659668,-8.379749298095703,-0.2153871059417724,0.746106060193346,0.1132409553453293,-0.6561266897293847,0.2099835086172191,3.0,0.0
32.966949462890625,-8.26983642578125,-0.3057169914245605,-0.0,-0.0,-1.0,0.0719627300816344,2.0,0.0
33.440818786621094,-8.465194702148438,-0.3180396556854248,-0.0,-0.0,-1.0,0.0500604284269685,2.0,0.0
33.63304138183594,-8.459997177124023,-0.3158769607543945,-0.0,-0.0,-1.0,0.0872979146775694,2.0,0.0
33.20356369018555,-8.038328170776367,-0.2826461791992187,-0.0121446518990299,0.1513154279320964,-0.9884109209736496,0.1046298319742832,7.0,0.0
33.28147506713867,-8.290557861328125,-0.3041110038757324,-0.0,-0.0,-1.0,0.0501972441162568,2.0,0.0
33.832313537597656,-8.426834106445312,-0.3113895654678345,0.1803869175683801,-0.0310865537598752,-0.9831043617772798,0.0527793187048075,4.0,0.0
34.153533935546875,-8.377771377563477,-0.3048820495605469,-0.4004585247163811,0.8434426357376084,0.3581026252374818,0.1471782677156908,3.0,0.0
35.06763458251953,-8.585569381713867,-0.3201388120651245,0.4901782205872579,0.8256291510538422,-0.2793954491254669,0.0408900286849498,4.0,0.0
34.41514587402344,-8.25120735168457,-0.2922173738479614,0.5183228676393173,0.6879264541856606,-0.5080340525139029,0.0407510955028631,5.0,0.0
34.69077682495117,-8.333925247192383,-0.2985246181488037,0.489867077754233,-0.6501062684172274,-0.5808546168338132,0.0331106436927464,3.0,0.0
35.077178955078125,-8.487236022949219,-0.3113635778427124,-0.0,-0.0,-1.0,0.0400737528563792,1.0,0.0
33.855167388916016,-9.329456329345703,0.2688376903533935,0.7854102650508294,-0.4935838462741043,0.3735046214574158,0.1154147261925628,3.0,1.0
32.93909454345703,-8.213579177856445,-0.3187813758850097,0.1336604127059976,0.5865697086635961,-0.7987933843952179,0.0591144874987019,3.0,0.0
33.367881774902344,-8.406267166137695,-0.3258204460144043,0.2667880472037547,0.096542026627883,-0.9589075945907344,0.0521099266321376,4.0,0.0
33.57044219970703,-8.481084823608398,-0.3280715942382812,0.8338115824461956,0.1073686305303168,0.5415073611287439,0.0940386006001157,6.0,0.0
33.20549774169922,-8.01150894165039,-0.2948673963546753,0.6638149517087764,-0.3562175714001285,-0.6576159606591594,0.1037087758161554,7.0,0.0
33.790931701660156,-8.411876678466797,-0.3175379037857055,0.1803869175683801,-0.0310865537598752,-0.9831043617772798,0.048794840053663,4.0,0.0
34.05665588378906,-8.408330917358398,-0.3121293783187866,0.5244361486115842,-0.2025872624280466,-0.8269976584799731,0.1492901906325683,7.0,0.0
34.298851013183594,-8.280622482299805,-0.2965258359909057,-0.965409421735377,-0.1936575648875855,-0.1745892207049882,0.076238037691817,3.0,0.0
34.73353576660156,-8.406518936157227,-0.3006126880645752,-0.0,-0.0,-1.0,0.0356922653080101,2.0,0.0
35.123878479003906,-8.627683639526367,-0.3147488832473755,-0.0,-0.0,-1.0,0.0320660223114494,2.0,0.0
33.79258346557617,-9.297094345092772,0.2564305067062378,-0.0,-0.0,-1.0,0.1512916568332821,1.0,1.0
32.90218734741211,-8.208924293518066,-0.3215388059616089,-0.0,-0.0,-1.0,0.0590073075164661,2.0,0.0
33.32668685913086,-8.368237495422363,-0.3293863534927368,0.014016262987327,-0.086058871748906,-0.9961914549749838,0.0460568474676777,3.0,0.0
33.26369094848633,-8.119000434875488,-0.30766761302948,-0.355350537876396,0.301776290810398,-0.8846790748829061,0.0579575531832546,3.0,0.0
33.5372200012207,-8.446375846862793,-0.3335956335067749,-0.0778069863689638,-0.8825266823086405,-0.4637809050462127,0.0716849447810186,6.0,0.0
33.81788635253906,-8.397099494934082,-0.3255584239959717,0.1803869175683801,-0.0310865537598752,-0.9831043617772798,0.0593589910012925,4.0,0.0
34.10726547241211,-8.3025541305542,-0.3136508464813232,-0.0,-0.0,-1.0,0.1378772080966973,2.0,0.0
34.37522888183594,-8.205962181091309,-0.3020336627960205,-0.7663615205042045,0.6397045439788662,-0.0588907149156376,0.0288926936469291,4.0,0.0
34.61794662475586,-8.309142112731934,-0.3094367980957031,-0.2786125769162789,0.0700475236204495,-0.957845695516096,0.0201983955429425,4.0,0.0
34.993961334228516,-8.500432014465332,-0.3244026899337768,-0.0,-0.0,-1.0,0.0435651340085304,2.0,0.0
33.88993835449219,-9.264456748962402,0.2333860397338867,-0.0,-0.0,-1.0,0.1782277226454579,1.0,1.0
33.983638763427734,-9.106667518615724,0.8717325329780579,0.0668732963402399,-0.2675443149277317,-0.9612221396672268,0.078908786007528,4.0,1.0
32.7910270690918,-8.28076457977295,-0.3043771982192993,-0.0,-0.0,-1.0,0.1393513485597663,2.0,0.0
33.08517074584961,-8.37125301361084,-0.304253339767456,0.7359536691889818,0.0137306344325144,-0.6768926550682581,0.0718346501874324,4.0,0.0
33.55129623413086,-8.495562553405762,-0.3032643795013428,0.832066294647628,-0.2853763176854572,0.4756322514460677,0.1055409929464956,3.0,0.0
33.80287170410156,-8.62924861907959,-0.3091317415237427,-0.0,-0.0,-1.0,0.0708290800070961,2.0,0.0
34.10552215576172,-8.361855506896973,-0.2782962322235107,-0.0,-0.0,-1.0,0.1660529280808759,2.0,0.0
33.92552947998047,-8.628708839416504,-0.3062667846679687,-0.0,-0.0,-1.0,0.0853799345945668,2.0,0.0
34.2994270324707,-8.308072090148926,-0.2692633867263794,-0.965409421735377,-0.1936575648875855,-0.1745892207049882,0.0843420172344092,3.0,0.0
34.48508071899414,-8.511214256286621,-0.2837905883789062,-0.0,-0.0,-1.0,0.0576307061205352,2.0,0.0
34.79167175292969,-8.506136894226074,-0.2773969173431396,-0.0,-0.0,-1.0,0.0237985582945228,1.0,0.0
35.05734634399414,-8.693259239196777,-0.2896751165390014,-0.4628022769605582,-0.3150469187530512,-0.8285888554792002,0.0674895937913858,3.0,0.0
34.00136184692383,-9.071833610534668,0.8822842836380005,-0.0,-0.0,-1.0,0.0836010464346528,2.0,1.0
32.81028366088867,-7.1054301261901855,-0.357923150062561,-0.0,-0.0,-1.0,0.0679432509656352,1.0,0.0
33.026771545410156,-7.130740642547607,-0.3632688522338867,0.9056323993109566,0.3491538296257878,0.240668985488215,0.0816411047938665,4.0,0.0
33.264347076416016,-7.272086620330811,-0.3833379745483398,-0.0,-0.0,-1.0,0.0643394009609472,1.0,0.0
33.61958312988281,-7.295109272003174,-0.3914816379547119,0.1250714053458594,-0.968155336023246,-0.2168695204368908,0.0970346516237368,6.0,0.0
33.86989974975586,-7.377665996551514,-0.4058278799057007,0.2132246986601707,-0.9573852704407942,0.194804188415667,0.0442226111504904,4.0,0.0
34.084712982177734,-7.494225025177002,-0.4242774248123169,-0.0,-0.0,-1.0,0.0127234459721559,1.0,0.0
34.42890548706055,-7.415266513824463,-0.4219341278076172,-0.0,-0.0,-1.0,0.0250105200647568,1.0,0.0
34.80216598510742,-7.510891437530518,-0.4428114891052246,-0.0,-0.0,-1.0,0.0190009462597182,1.0,0.0
34.999576568603516,-9.277244567871094,-0.0701156854629516,-0.0,-0.0,-1.0,0.1687256316383173,1.0,0.0
33.877166748046875,-9.296693801879885,0.5668067336082458,-0.4374020709639933,-0.4567074251965566,-0.7746597679541267,0.0847516505874169,3.0,1.0
32.793540954589844,-6.934922695159912,-0.2177978754043579,-0.0,-0.0,-1.0,0.2463387851736712,2.0,0.0
32.92536926269531,-7.916891574859619,-0.3354600667953491,0.1060665990922077,-0.7738565292420223,-0.6244164865748696,0.0242216640131484,3.0,0.0
33.00695037841797,-7.959492206573486,-0.3418771028518677,-0.0,-0.0,-1.0,0.0244399762099109,2.0,0.0
33.46526336669922,-7.849096775054932,-0.3377381563186645,0.2560933525707567,-0.7387685657620596,-0.6234077325562616,0.0085647309688778,3.0,0.0
33.356781005859375,-7.968987941741943,-0.3498469591140747,-0.1786850616175455,-0.634892267804283,-0.7516538146228415,0.0366164134036131,4.0,0.0
33.747257232666016,-7.7141547203063965,-0.3278275728225708,-0.0890350804446667,-0.8315938901384398,-0.5482010181809481,0.0934471016209908,3.0,0.0
33.8157958984375,-8.074289321899414,-0.3727952241897583,-0.0,-0.0,-1.0,0.0339304058992368,1.0,0.0
34.15907669067383,-8.030464172363281,-0.3763265609741211,-0.0,-0.0,-1.0,0.0497680023019785,2.0,0.0
34.479820251464844,-8.026491165161133,-0.3848994970321655,0.5321846888639268,-0.8449031605891848,-0.0540194980096245,0.0537913895134247,3.0,0.0
34.68479919433594,-8.164762496948242,-0.4079792499542236,-0.0,-0.0,-1.0,0.0283924378441802,1.0,0.0
35.11912536621094,-8.063850402832031,-0.4099447727203369,-0.0,-0.0,-1.0,0.026233698600101,1.0,0.0
34.92564392089844,-8.142417907714844,-0.4130450487136841,-0.0,-0.0,-1.0,0.0401625759729108,1.0,0.0
32.737579345703125,-8.358743667602539,-0.2958354949951172,-0.0,-0.0,-1.0,0.0533979903612618,2.0,0.0
33.177921295166016,-8.420478820800781,-0.3070064783096313,-0.0,-0.0,-1.0,0.0624732777084662,1.0,0.0
33.578182220458984,-8.449552536010742,-0.3152787685394287,-0.5066721629276734,-0.8492966368219237,-0.1482516171822847,0.0748830217675575,4.0,0.0
34.04958724975586,-8.420766830444336,-0.3190993070602417,0.3542294312321936,-0.0234417967742497,-0.9348646919276132,0.1972220816220038,6.0,0.0
33.85200119018555,-8.553937911987305,-0.3317940235137939,-0.0,-0.0,-1.0,0.0715455722658637,1.0,0.0
34.36546325683594,-8.27060317993164,-0.3068666458129883,-0.5390524446194084,-0.2382951622318291,-0.8078600606582466,0.0394766442693292,4.0,0.0
34.62516403198242,-8.276552200317383,-0.3128812313079834,-0.0,-0.0,-1.0,0.0268354137739627,2.0,0.0
34.81826400756836,-8.433517456054688,-0.3363480567932129,-0.0,-0.0,-1.0,0.0265915303889364,2.0,0.0
35.188018798828125,-8.464067459106445,-0.3494064807891845,-0.7218212714606015,-0.4506162388656207,-0.5252799799512663,0.0308577906409623,3.0,0.0
33.07744598388672,-8.406108856201172,-0.3117091655731201,0.9542257524965874,-0.1570262551729221,-0.2545505224089903,0.0781261547818828,3.0,0.0
33.46406555175781,-8.515909194946289,-0.3241492509841919,-0.0,-0.0,-1.0,0.0657023250225511,1.0,0.0
33.52688217163086,-8.58599853515625,-0.3326473236083984,0.7242981549235135,0.5563697775267791,-0.4072405351008129,0.0753272925093491,3.0,0.0
33.869483947753906,-8.475763320922852,-0.3195641040802002,-0.0,-0.0,-1.0,0.0818024651032997,2.0,0.0
33.87958526611328,-8.59974479675293,-0.3348526954650879,-0.5042361751403175,-0.2798209843989372,-0.8169737427664816,0.0768382032958076,4.0,0.0
34.28797149658203,-8.342002868652344,-0.3046592473983764,0.1842421097461564,-0.6689371363918496,-0.7201235675577888,0.0631921057287927,5.0,0.0
34.63772964477539,-8.388969421386719,-0.3129531145095825,0.0326442929978177,0.471154304592724,-0.8814465221432438,0.0292438170430433,4.0,0.0
34.82181930541992,-8.50840950012207,-0.3296929597854614,-0.0,-0.0,-1.0,0.0210800722953036,2.0,0.0
35.11541748046875,-8.586320877075195,-0.3430471420288086,-0.5071564588884258,0.8358417150595521,0.2101450774442712,0.0350006420564796,3.0,0.0
33.804649353027344,-9.35556411743164,0.0836513042449951,-0.1913474452572435,-0.6109064506069106,-0.7682313868883466,0.0763365178880788,6.0,1.0
33.83185958862305,-9.324819564819336,0.5935500860214233,-0.9156659822174162,0.3981993795410684,0.054708894550363,0.0854239898160209,4.0,1.0
32.816951751708984,-8.206674575805664,-0.3234220743179321,-0.0,-0.0,-1.0,0.0544689630900116,1.0,0.0
33.30678939819336,-8.436025619506836,-0.3428907394409179,0.1044056412305084,-0.4841898699334686,-0.8687114779563219,0.0545064924941987,3.0,0.0
33.735206604003906,-8.478416442871094,-0.3418846130371094,-0.0,-0.0,-1.0,0.0653592225844629,1.0,0.0
34.4915885925293,-6.949181079864502,-0.5208228826522827,-0.0,-0.0,-1.0,0.0110232415867042,1.0,0.0
34.605979919433594,-6.918572902679443,-0.5129923820495605,-0.0,-0.0,-1.0,0.0096462504287508,2.0,0.0
34.695858001708984,-6.9429707527160645,-0.5152637958526611,-0.0,-0.0,-1.0,0.0104729976848057,2.0,0.0
35.02454376220703,-6.972310543060303,-0.513934850692749,-0.0,-0.0,-1.0,0.0118968288233239,1.0,0.0
33.16708755493164,-8.090465545654297,-0.300559401512146,0.1319691345604367,0.0529066812255251,-0.9898409117656584,0.0864083170480794,3.0,0.0
33.72269058227539,-8.365238189697266,-0.3269803524017334,-0.0,-0.0,-1.0,0.0544835168675686,1.0,0.0
34.11130905151367,-8.38902473449707,-0.3255960941314697,0.2701692566499614,-0.5962115141780581,-0.7560029121125886,0.1642195079608661,4.0,0.0
34.490631103515625,-8.321334838867188,-0.313712477684021,-0.0016602365602871,-0.1468708671236203,-0.9891542811942532,0.0339807079358729,3.0,0.0
34.784488677978516,-8.488359451293945,-0.3354178667068481,-0.0,-0.0,-1.0,0.0257829563903443,2.0,0.0
34.98120880126953,-8.508495330810547,-0.3381589651107788,-0.0,-0.0,-1.0,0.0394412492995373,2.0,0.0
35.13027572631836,-8.458446502685547,-0.3314802646636963,0.0335259968914576,0.8328929373107816,-0.5524177427547492,0.0320355833050681,4.0,0.0
33.84944534301758,-9.278827667236328,0.4967918992042541,-0.0,-0.0,-1.0,0.0993762210251198,2.0,1.0
33.02696990966797,-6.889283657073975,-0.4219787120819092,0.1817960668866715,0.8320581447418869,0.5240509840017724,0.0893972553541904,3.0,0.0
33.229209899902344,-7.060509204864502,-0.4335548877716064,-0.0,-0.0,-1.0,0.1337971104294533,1.0,0.0
33.559959411621094,-7.174675464630127,-0.4300684928894043,-0.0,-0.0,-1.0,0.036382295201692,2.0,0.0
33.75187683105469,-7.310937404632568,-0.4395817518234253,0.1845025556419591,-0.9511363740375272,0.24758514685726,0.07963344265921,4.0,0.0
34.006107330322266,-7.456607341766357,-0.4486135244369507,-0.0,-0.0,-1.0,0.0230080148490035,1.0,0.0
34.37238311767578,-7.548062801361084,-0.4451818466186523,-0.1379209115346183,-0.6541658477491479,-0.7436698634475509,0.0204133017229747,4.0,0.0
34.56000518798828,-7.64143705368042,-0.4518375396728515,-0.0,-0.0,-1.0,0.0272282794064863,1.0,0.0
34.842777252197266,-7.782228946685791,-0.4636739492416382,-0.0,-0.0,-1.0,0.0276445963126993,1.0,0.0
32.74346923828125,-8.609283447265625,-0.2553499937057495,-0.0,-0.0,-1.0,0.0895199917189851,2.0,0.0
32.99473190307617,-8.682552337646484,-0.2540326118469238,-0.0,-0.0,-1.0,0.144970645725545,2.0,0.0
33.38412094116211,-8.717771530151367,-0.2436548471450805,-0.0,-0.0,-1.0,0.1552937589302154,1.0,0.0
33.56533432006836,-9.186429977416992,-0.2962005138397217,-0.0,-0.0,-1.0,0.0494180583888684,1.0,0.0
33.60506057739258,-8.73605728149414,-0.2384029626846313,0.6639210167678165,0.5841158247853778,-0.4669235341351807,0.1109324109890922,3.0,0.0
33.78673553466797,-9.16873550415039,-0.2874355316162109,-0.7622742635140669,0.317217970321734,-0.5641903105238928,0.0565668124168344,3.0,0.0
34.13167190551758,-8.438850402832031,-0.1846117973327636,-0.0,-0.0,-1.0,0.1389087426028536,2.0,0.0
34.2353630065918,-8.747047424316406,-0.2212119102478027,-0.1076856582642402,-0.304340516567686,-0.9464568922985934,0.1494429948271084,9.0,0.0
34.0125846862793,-8.906476974487305,-0.2475284337997436,-0.0,-0.0,-1.0,0.1105501287050153,2.0,0.0
34.43179702758789,-8.764045715332031,-0.2184667587280273,-0.0998525726688243,0.1126720822756344,-0.9886022787790292,0.032699883404921,5.0,0.0
34.72014236450195,-9.16615104675293,-0.264778733253479,-0.0,-0.0,-1.0,0.0636672992294715,2.0,0.0
34.582664489746094,-9.25945281982422,-0.2797144651412964,-0.0,-0.0,-1.0,0.1057282414495048,1.0,0.0
35.041568756103516,-9.021932601928713,-0.2403498888015747,0.1091689690206383,-0.953292856538953,-0.2816289507042452,0.1433970853913283,4.0,0.0
33.85869598388672,-9.29725456237793,0.5775666236877441,-0.8185283587635841,0.2765613365105124,-0.5035128131907997,0.0858139937252822,5.0,1.0
32.74737548828125,-8.65036392211914,-0.239938735961914,-0.0,-0.0,-1.0,0.1058683792167648,2.0,0.0
32.72227478027344,-6.99218225479126,-0.3878462314605713,-0.0,-0.0,-1.0,0.158114357773403,2.0,0.0
32.92204284667969,-7.153091907501221,-0.3995871543884277,-0.0,-0.0,-1.0,0.05333824952545,1.0,0.0
33.075843811035156,-8.74104118347168,-0.2408990859985351,-0.0,-0.0,-1.0,0.1898563624965407,2.0,0.0
33.131065368652344,-8.973915100097656,-0.2711957693099975,0.8398019157658606,-0.5011055105978096,0.2088684024080693,0.0150498116030344,4.0,0.0
33.166053771972656,-7.313073635101318,-0.4092905521392822,-0.0,-0.0,-1.0,0.0599542341211894,1.0,0.0
33.321449279785156,-7.429088115692139,-0.4188240766525268,-0.0,-0.0,-1.0,0.026066764837421,2.0,0.0
33.55479431152344,-8.687819480895996,-0.2186927795410156,-0.0273814484679974,-0.8709311530057426,-0.4906416034172826,0.1079065285700084,5.0,0.0
33.63843536376953,-9.184789657592772,-0.286818265914917,-0.0,-0.0,-1.0,0.0490286388265925,1.0,0.0
33.70539855957031,-7.483129978179932,-0.4062362909317016,-0.0,-0.0,-1.0,0.1092127511366285,2.0,0.0
33.9024658203125,-7.717906475067139,-0.4356863498687744,-0.0,-0.0,-1.0,0.0565499318741282,1.0,0.0
33.848140716552734,-9.258807182312012,-0.2925062179565429,-0.3387938587433616,-0.9294185740405082,0.146286826154277,0.1358430298737637,3.0,0.0
34.241851806640625,-7.733541965484619,-0.4228619337081909,-0.0,-0.0,-1.0,0.0660933713465293,2.0,0.0
34.24460220336914,-8.783477783203125,-0.2155483961105346,0.882233337704471,0.4541273188470029,0.1242284835279772,0.1574019145067634,11.0,0.0
34.34251022338867,-8.958186149597168,-0.2391169071197509,-0.0,-0.0,-1.0,0.0991574515989034,1.0,0.0
34.4443473815918,-9.294739723205566,-0.2868075370788574,-0.0,-0.0,-1.0,0.0305245047756084,1.0,0.0
34.55059051513672,-7.886151790618896,-0.436873197555542,-0.0,-0.0,-1.0,0.047539283232347,2.0,0.0
34.73106384277344,-8.030350685119629,-0.456010103225708,-0.0,-0.0,-1.0,0.0702405176566698,1.0,0.0
34.960784912109375,-9.061161041259766,-0.2457276582717895,-0.0,-0.0,-1.0,0.1361497753566021,2.0,0.0
34.726951599121094,-9.247840881347656,-0.2761048078536987,-0.0,-0.0,-1.0,0.1106336382343589,2.0,0.0
35.04713821411133,-8.044200897216797,-0.448759913444519,-0.0,-0.0,-1.0,0.0268978687105907,2.0,0.0
32.85574722290039,-7.208826065063477,-0.4079382419586181,-0.0,-0.0,-1.0,0.0513609504608138,2.0,0.0
32.82136535644531,-8.622533798217773,-0.2307990789413452,-0.0,-0.0,-1.0,0.0951355047168555,2.0,0.0
32.996116638183594,-8.99179458618164,-0.2616459131240845,-0.0,-0.0,-1.0,0.0716269642537916,1.0,0.0
33.06876754760742,-7.368990421295166,-0.4065582752227783,0.466573303956971,-0.1485109693062374,-0.8719253660895512,0.0623500584535969,3.0,0.0
33.27109146118164,-7.592856407165527,-0.4169402122497558,-0.0,-0.0,-1.0,0.0305111056961234,1.0,0.0
33.03312683105469,-8.647138595581055,-0.2172807455062866,-0.8347026235827781,-0.0621795108888439,-0.5471793477550577,0.199087686686659,8.0,0.0
33.14311218261719,-8.896029472351074,-0.2392399311065673,-0.0,-0.0,-1.0,0.0518646882420127,2.0,0.0
33.6737060546875,-7.646170616149902,-0.3841989040374756,-0.1287304389606313,0.3902578432450844,-0.9116618286791972,0.1097738820677552,4.0,0.0
33.775455474853516,-7.947381973266602,-0.419502854347229,-0.0,-0.0,-1.0,0.0735054381352163,1.0,0.0
33.5020637512207,-8.734418869018555,-0.1934561729431152,0.8716049455680747,-0.0034686423568811,-0.4901966823444178,0.1834180419277535,9.0,0.0
33.815128326416016,-7.629194259643555,-0.367820143699646,-0.0,-0.0,-1.0,0.1029757046051993,2.0,0.0
33.985660552978516,-8.048209190368652,-0.4157516956329345,-0.0,-0.0,-1.0,0.0296911094128621,1.0,0.0
33.921390533447266,-9.311817169189451,-0.2384823560714721,0.0233376554537167,-0.5863182855278454,-0.8097445411323325,0.0675356230112034,3.0,0.0
34.5114860534668,-7.097529411315918,-0.5283503532409668,-0.0,-0.0,-1.0,0.0079216859972082,1.0,0.0
34.44083786010742,-8.092198371887207,-0.3835183382034302,-0.0,-0.0,-1.0,0.0388390758378444,1.0,0.0
34.777503967285156,-7.196341037750244,-0.5182441473007202,0.079842624581111,-0.0793885450944645,-0.9936410892308069,0.0201628244050146,4.0,0.0
34.806514739990234,-8.335408210754395,-0.3938913345336914,-0.0,-0.0,-1.0,0.0656932437652557,1.0,0.0
35.12942123413086,-7.348217010498047,-0.5118801593780518,-0.0,-0.0,-1.0,0.0191874711767828,2.0,0.0
35.17782974243164,-8.98427677154541,-0.125113844871521,0.4007480225050329,-0.1629463656135185,-0.9015816681763508,0.1646738440025768,7.0,0.0
35.20793533325195,-9.047242164611816,-0.132201075553894,-0.0,-0.0,-1.0,0.0756697945464301,2.0,0.0
33.87837219238281,-9.23807144165039,0.5173776149749756,-0.6045713155516045,-0.5523128771335666,-0.573972133613335,0.0965057081646169,3.0,1.0
32.73030471801758,-7.550496578216553,-0.3729735612869262,-0.0,-0.0,-1.0,0.0133761866611401,2.0,0.0
33.01105499267578,-7.259707450866699,-0.300809383392334,-0.0,-0.0,-1.0,0.0686517094471591,1.0,0.0
33.068885803222656,-7.741344451904297,-0.3609483242034912,-0.0,-0.0,-1.0,0.0211227957327936,1.0,0.0
32.714664459228516,-8.67635440826416,-0.1681945323944091,-0.0,-0.0,-1.0,0.1912009627948159,2.0,0.0
32.740638732910156,-8.86989688873291,-0.1887297630310058,-0.0,-0.0,-1.0,0.0474599325974485,2.0,0.0
32.75456237792969,-9.274892807006836,-0.2358865737915039,-0.0,-0.0,-1.0,0.083541050220872,2.0,0.0
33.721954345703125,-6.969912528991699,-0.4780193567276001,-0.0,-0.0,-1.0,0.0218908504082723,2.0,0.0
33.39186096191406,-7.973875522613525,-0.359575867652893,-0.2889653934378082,-0.61706401472456,-0.7319364747895412,0.0246401144690191,3.0,0.0
33.999183654785156,-7.127804756164551,-0.4690313339233398,-0.0,-0.0,-1.0,0.0343224898447298,1.0,0.0
33.75401306152344,-8.018088340759277,-0.3293986320495605,-0.1523901746957142,-0.8016903709008697,-0.5779877021711066,0.0569255492998201,3.0,0.0
33.760169982910156,-8.248887062072754,-0.3637204170227051,-0.2184292109677846,0.9207170970515152,0.3233708505617377,0.0477293936486558,3.0,0.0
34.357757568359375,-7.40388298034668,-0.4744420051574707,-0.5699754702164469,0.117527250913129,-0.813212954055912,0.0223710390234014,3.0,0.0
34.25696563720703,-7.417389869689941,-0.4885363578796386,-0.0,-0.0,-1.0,0.015826389894341,1.0,0.0
34.27973937988281,-8.23705768585205,-0.3137595653533935,-0.4938369690912613,-0.2642156226627429,-0.8284413996775484,0.0667063634550826,3.0,0.0
34.13852310180664,-8.319218635559082,-0.3393126726150512,0.1202154849799727,0.8930846867354876,-0.4335296754428762,0.112757585535951,3.0,0.0
34.5546989440918,-7.478747844696045,-0.4654680490493774,-0.0,-0.0,-1.0,0.0221245643209572,2.0,0.0
34.73455810546875,-7.618146896362305,-0.4720606803894043,0.2235910933945155,0.8701667331306856,-0.4391091885935829,0.0289771458871271,3.0,0.0
34.417808532714844,-8.272614479064941,-0.3073230981826782,-0.1110449199021644,0.7945757469031616,-0.5969241226464256,0.0372939560872295,7.0,0.0
34.588539123535156,-8.394696235656738,-0.312556505203247,-0.0,-0.0,-1.0,0.0419787194664842,2.0,0.0
35.07029724121094,-7.851774215698242,-0.4826641082763672,-0.0,-0.0,-1.0,0.0183169494119084,1.0,0.0
34.909576416015625,-8.589997291564941,-0.3192143440246582,-0.0,-0.0,-1.0,0.0397759392848645,2.0,0.0
32.95689010620117,-8.645252227783203,-0.1446137428283691,-0.7761502273138752,-0.4760349642815188,-0.4134991383571589,0.1826771078424823,6.0,0.0
33.47574996948242,-8.775506019592285,-0.1198405027389526,-0.1579359870503442,-0.3481331601223816,-0.9240451973889794,0.1976557984163024,4.0,0.0
33.58995056152344,-8.977025032043457,-0.1364752054214477,-0.0,-0.0,-1.0,0.2468382342243689,2.0,0.0
33.854496002197266,-9.333853721618652,0.0148543119430542,-0.3888263590641733,-0.7667993457275862,-0.5107179514062965,0.0598390202440015,3.0,1.0
33.87262725830078,-9.268604278564451,0.552809476852417,-0.5353547485381112,-0.5184178715470837,-0.6668119702571985,0.0843232298575944,5.0,1.0
33.00737380981445,-6.879838943481445,-0.4301764965057373,0.1817960668866715,0.8320581447418869,0.5240509840017724,0.0890616711908401,3.0,0.0
33.208953857421875,-6.933417320251465,-0.4119939804077148,-0.0,-0.0,-1.0,0.0847351549156769,2.0,0.0
33.192230224609375,-7.0256757736206055,-0.4301959276199341,-0.0,-0.0,-1.0,0.1371215427506471,2.0,0.0
32.807403564453125,-8.109164237976074,-0.340980052947998,-0.0,-0.0,-1.0,0.006508123927682,1.0,0.0
33.72758102416992,-7.193480491638184,-0.391788125038147,-0.0,-0.0,-1.0,0.0667834902877587,2.0,0.0
33.47039794921875,-7.22760009765625,-0.4297065734863281,-0.0,-0.0,-1.0,0.0387710732443582,2.0,0.0
33.11848449707031,-8.136540412902832,-0.3149740695953369,-0.0,-0.0,-1.0,0.0601812872106148,1.0,0.0
32.86334991455078,-8.140748977661133,-0.3402696847915649,-0.0,-0.0,-1.0,0.0074097656436442,1.0,0.0
33.82392120361328,-7.455388069152832,-0.4287703037261963,-0.0,-0.0,-1.0,0.0750983290200153,2.0,0.0
33.29164505004883,-8.345024108886719,-0.3318847417831421,-0.5038974394768617,-0.7966001889868792,-0.3339393798202457,0.0381777969049284,3.0,0.0
33.34294891357422,-8.431679725646973,-0.3409671783447265,0.3469432286208211,-0.2558225381697811,-0.902322129329948,0.0504834731307706,4.0,0.0
34.56834411621094,-6.991340637207031,-0.5188417434692383,-0.0,-0.0,-1.0,0.0067752965486183,1.0,0.0
34.18838882446289,-7.676458358764648,-0.4303700923919678,-0.0,-0.0,-1.0,0.0409988404741585,1.0,0.0
33.78597640991211,-8.485389709472656,-0.3118197917938232,-0.0,-0.0,-1.0,0.0719431120382362,2.0,0.0
33.56330490112305,-8.513298988342285,-0.334913969039917,0.832066294647628,-0.2853763176854572,0.4756322514460677,0.0807690932630305,3.0,0.0
34.90899658203125,-7.15162467956543,-0.5128989219665527,-0.0,-0.0,-1.0,0.0143167069215007,2.0,0.0
34.537601470947266,-7.872735023498535,-0.4338067770004272,-0.6894178586840218,-0.7052347514758563,0.1653691671331893,0.0505336307264191,3.0,0.0
34.2698974609375,-8.410361289978027,-0.2609525918960571,0.0851403407076547,0.1735019660938991,-0.9811463653022092,0.1385808912524991,3.0,0.0
34.20680236816406,-8.574275016784668,-0.2938148975372314,-0.0,-0.0,-1.0,0.1188031379780895,2.0,0.0
34.8798828125,-8.068099021911621,-0.4424144029617309,-0.0,-0.0,-1.0,0.0608694549250002,1.0,0.0
34.674076080322266,-8.619422912597656,-0.2685484886169433,0.2684081980847695,0.5855717177897704,-0.7648939812324481,0.037640495355693,5.0,0.0
34.4518928527832,-8.619800567626953,-0.2837011814117431,-0.3058978959451671,-0.6397741656386507,-0.7050641773893265,0.0636995345324857,4.0,0.0
35.06208801269531,-8.802607536315918,-0.2771950960159302,-0.0675515361839373,-0.8880076960916677,-0.4548396658616739,0.0775120985167732,3.0,0.0
34.91359329223633,-8.865137100219727,-0.2970893383026123,-0.0,-0.0,-1.0,0.0570428068773208,1.0,0.0
35.0373420715332,-9.234173774719238,-0.0413037538528442,-0.0,-0.0,-1.0,0.2343646489721179,1.0,0.0
33.964698791503906,-9.136245727539062,0.5731491446495056,-0.0,-0.0,-1.0,0.1756687404757838,1.0,1.0
33.864131927490234,-9.336540222167969,0.3886825442314148,0.833547674595849,-0.2912990782481307,-0.4694072018915369,0.0953060787223201,3.0,1.0
34.00520324707031,-9.14143180847168,0.8951979875564575,-0.2531552608392908,-0.644202317152891,-0.7217449608305114,0.078908786007528,3.0,1.0
32.85036849975586,-6.9603142738342285,-0.3596705198287964,-0.0,-0.0,-1.0,0.1580704651081967,2.0,0.0
33.148616790771484,-6.997878074645996,-0.4519946575164795,-0.0,-0.0,-1.0,0.0484817204032613,1.0,0.0
33.19082260131836,-7.090845584869385,-0.4635416269302368,-0.0,-0.0,-1.0,0.1045640401157928,1.0,0.0
32.74516677856445,-7.7726240158081055,-0.3794095516204834,-0.0,-0.0,-1.0,0.0151212257898443,1.0,0.0
33.58415222167969,-7.227776050567627,-0.4310952425003052,-0.0,-0.0,-1.0,0.0637309576694449,1.0,0.0
33.43947982788086,-7.292004585266113,-0.4657572507858276,-0.0,-0.0,-1.0,0.0401202745854549,2.0,0.0
33.188804626464844,-7.986701011657715,-0.3631600141525268,-0.0,-0.0,-1.0,0.087184037877076,2.0,0.0
33.00233459472656,-7.936187267303467,-0.3763141632080078,-0.0,-0.0,-1.0,0.0228082495143343,2.0,0.0
33.87417221069336,-7.3944807052612305,-0.4249603748321533,0.2132246986601707,-0.9573852704407942,0.194804188415667,0.04474593658135,4.0,0.0
33.78367614746094,-7.555937767028809,-0.4720127582550049,-0.0,-0.0,-1.0,0.1085467519568779,1.0,0.0
33.41440200805664,-8.107933044433594,-0.3600244522094726,-0.0,-0.0,-1.0,0.0338932475906142,1.0,0.0
33.34174346923828,-8.202301979064941,-0.3854330778121948,-0.0,-0.0,-1.0,0.0389891342844464,2.0,0.0
32.96092224121094,-8.640951156616211,-0.208309531211853,-0.7678808440417785,-0.4955326839398973,-0.4059635063660377,0.1876012584119417,8.0,0.0
32.92911148071289,-9.062235832214355,-0.2780804634094238,-0.0,-0.0,-1.0,0.0086659890998027,2.0,0.0
34.297306060791016,-7.720168113708496,-0.4424277544021606,-0.0,-0.0,-1.0,0.0580526346380254,1.0,0.0
34.05611038208008,-7.708371162414551,-0.4693803787231445,-0.0,-0.0,-1.0,0.0169797774270664,1.0,0.0
33.744022369384766,-8.315299034118652,-0.3644698858261108,-0.0,-0.0,-1.0,0.0531537374555775,1.0,0.0
33.31071472167969,-8.967910766601562,-0.2315762042999267,0.7885116505319177,-0.6064882170141825,0.1020853544754994,0.0282979982111107,3.0,0.0
33.179561614990234,-9.187002182006836,-0.2781398296356201,-0.0,-0.0,-1.0,0.0854723386282915,2.0,0.0
34.545318603515625,-7.929945945739746,-0.4624700546264648,-0.0,-0.0,-1.0,0.0523805293386375,1.0,0.0
34.388301849365234,-7.878255367279053,-0.467785120010376,-0.0,-0.0,-1.0,0.0728440574031887,1.0,0.0
34.202064514160156,-8.373093605041504,-0.3319129943847656,-0.0,-0.0,-1.0,0.1483213086100188,2.0,0.0
33.75381088256836,-9.328987121582031,-0.2592668533325195,0.1229625179182301,-0.1065818634705739,-0.9866714374939352,0.1007945675782339,3.0,0.0
34.84638595581055,-8.093239784240723,-0.470158576965332,-0.0,-0.0,-1.0,0.0569377079418019,1.0,0.0
34.681514739990234,-8.48703670501709,-0.3146450519561767,-0.0,-0.0,-1.0,0.0361473397462856,1.0,0.0
34.46100997924805,-8.465825080871582,-0.3279738426208496,0.7536172829110608,0.3107782237590163,-0.579204529104306,0.109169754877156,4.0,0.0
34.975311279296875,-8.656189918518066,-0.328986644744873,0.0526492614642712,-0.6071481740403222,-0.7928424496876854,0.0567013262082353,5.0,0.0
34.94252014160156,-8.72159481048584,-0.3449393510818481,-0.0,-0.0,-1.0,0.044706198636506,1.0,0.0
33.48405838012695,-8.766311645507812,-0.1845669746398925,0.9364652840952964,-0.2579132458706162,-0.2377257438495007,0.2331069036281523,7.0,0.0
33.824378967285156,-9.338140487670898,0.0442196130752563,-0.0045087685824489,0.9995030116588224,0.0311993700387299,0.1228505769894581,8.0,1.0
35.1575813293457,-9.051765441894531,-0.1296561956405639,0.398315315839555,0.2908890104698224,-0.8699014270338469,0.074394064550611,4.0,0.0
33.83816909790039,-9.327794075012209,0.3429999351501465,-0.4457547451565884,-0.7071717217103628,-0.548826806181683,0.1056647351186278,4.0,1.0
33.841007232666016,-9.338062286376951,0.6365526914596558,-0.6749675476245376,-0.7332515806297595,-0.0822248694597734,0.0661638414936866,3.0,1.0
32.728904724121094,-7.251703262329102,-0.3876974582672119,-0.8260933512882565,-0.1044219630210654,-0.5537741675052783,0.0398414220937828,3.0,0.0
33.01798629760742,-7.534281253814697,-0.3878908157348633,-0.0,-0.0,-1.0,0.0388564291820886,2.0,0.0
33.37351608276367,-7.74204683303833,-0.369274377822876,0.8000057080733185,-0.5988667879211929,0.0367346889882279,0.0099577341941601,3.0,0.0
32.75783920288086,-8.316463470458984,-0.3095388412475586,0.6263503100394678,-0.4952502602447045,-0.6020070338800162,0.056171642739144,3.0,0.0
33.771827697753906,-7.937459945678711,-0.3482056856155395,-0.0,-0.0,-1.0,0.0735054381352164,2.0,0.0
33.63602066040039,-8.030370712280273,-0.387892484664917,-0.8252797070629546,-0.5169920276112917,0.2272281859639099,0.0318446992568095,3.0,0.0
33.31161117553711,-8.605568885803223,-0.288460373878479,-0.0,-0.0,-1.0,0.1137585415541526,2.0,0.0
33.09932327270508,-8.526857376098633,-0.3009542226791382,-0.0,-0.0,-1.0,0.1169324129338196,2.0,0.0
34.146549224853516,-8.23518180847168,-0.3610621690750122,-0.0,-0.0,-1.0,0.0694024984217541,2.0,0.0
33.87771224975586,-8.208325386047363,-0.3910039663314819,-0.0,-0.0,-1.0,0.0229979545569757,1.0,0.0
33.576175689697266,-8.647797584533691,-0.2650145292282104,0.894792471726264,-0.2154996263938763,0.3910324073092955,0.2078156075386896,4.0,0.0
34.6562614440918,-8.338303565979004,-0.3227330446243286,0.3442678029140752,0.0968482817351745,-0.9338629932713152,0.0360836022551562,5.0,0.0
34.45948028564453,-8.262924194335938,-0.3282556533813476,-0.3896933632557808,0.6648036338350549,-0.6373187672382671,0.0481191760607503,6.0,0.0
34.04737854003906,-8.875219345092773,-0.2569655179977417,0.4108585281809986,-0.6502680654008721,-0.6390201193552134,0.1059014219999077,3.0,0.0
33.788795471191406,-9.032846450805664,-0.3145802021026611,-0.0,-0.0,-1.0,0.0957272442022471,2.0,0.0
34.88837814331055,-8.506402969360352,-0.3378063440322876,-0.0,-0.0,-1.0,0.0270596764553781,1.0,0.0
34.20415496826172,-9.237135887145996,-0.3137341737747192,-0.9431588752608796,0.3130964854507733,-0.1114536980768555,0.1026981383140025,3.0,0.0
34.684104919433594,-9.26904296875,-0.278778076171875,-0.0,-0.0,-1.0,0.1337533070788955,2.0,0.0
34.362979888916016,-9.298405647277832,-0.3115540742874145,-0.0,-0.0,-1.0,0.0689531171222478,1.0,0.0
34.240325927734375,-8.777132034301758,-0.2183583974838256,0.987229452477726,0.0317006404799198,0.1561187930829997,0.1574019145067633,10.0,0.0
34.29908752441406,-8.853479385375977,-0.2277876138687133,0.8380153077148301,0.3283851112934483,-0.4357677853127832,0.0925121022950635,3.0,0.0
35.14402389526367,-8.918964385986328,-0.1701055765151977,-0.1216301558756296,-0.8145278437240987,-0.5672305501115401,0.162515993375028,6.0,0.0
32.7248649597168,-6.980519771575928,-0.346143364906311,0.2514712080747211,0.8590498621083658,-0.4458649637738289,0.2158966516547892,4.0,0.0
32.7408332824707,-7.291650772094727,-0.3979592323303222,-0.0,-0.0,-1.0,0.0304071182600009,2.0,0.0
33.153465270996094,-7.636177062988281,-0.3845391273498535,-0.0,-0.0,-1.0,0.0363280268536929,1.0,0.0
32.91939926147461,-7.565352916717529,-0.4140959978103637,-0.0,-0.0,-1.0,0.0271234303624225,1.0,0.0
33.3975944519043,-7.842841148376465,-0.383303165435791,-0.0,-0.0,-1.0,0.0136494055419703,1.0,0.0
33.82754135131836,-8.150335311889648,-0.378868818283081,-0.0,-0.0,-1.0,0.0305688887125952,1.0,0.0
33.65432357788086,-8.058826446533203,-0.386160135269165,-0.7844042189488041,-0.4806693048060367,0.3920038784407597,0.0317996251023869,3.0,0.0
32.851165771484375,-8.365011215209961,-0.3264635801315307,0.7764075181953087,-0.6087695194678493,-0.1630675867751937,0.0152123051834725,3.0,0.0
34.387760162353516,-8.297466278076172,-0.3321079015731811,0.0164993957057222,0.5219934919538716,-0.8527898711283741,0.0528744085547819,5.0,0.0
34.074031829833984,-8.284215927124023,-0.37239670753479,-0.0,-0.0,-1.0,0.0914788929619871,2.0,0.0
34.94037628173828,-8.568456649780273,-0.3302152156829834,-0.418286267987298,0.1397284213222111,-0.8975035188165342,0.0546116615411513,3.0,0.0
34.61125183105469,-8.441591262817383,-0.3378725051879883,-0.0,-0.0,-1.0,0.027115959066593,2.0,0.0
33.88615036010742,-9.12285041809082,-0.3332287073135376,-0.0,-0.0,-1.0,0.030786294521964,1.0,0.0
33.801143646240234,-9.099658012390137,-0.3384301662445068,-0.0,-0.0,-1.0,0.0275964943839402,1.0,0.0
35.09975051879883,-8.670211791992188,-0.3388960361480713,-0.0,-0.0,-1.0,0.0518213430350767,1.0,0.0
34.22225570678711,-9.313053131103516,-0.3360183238983154,-0.0,-0.0,-1.0,0.073732575902422,1.0,0.0
33.14011001586914,-8.527660369873047,-0.3139519691467285,-0.0,-0.0,-1.0,0.0600990388695212,2.0,0.0
32.83677291870117,-8.530558586120605,-0.2252253293991089,-0.0,-0.0,-1.0,0.0548143191791073,1.0,0.0
34.42433166503906,-8.279407501220703,-0.3229047060012817,-0.0842221212147211,0.7771637152409753,-0.623637069144336,0.0555762416843896,8.0,0.0
33.67478942871094,-8.640265464782715,-0.2636342048645019,0.43311424722218,-0.7990314633379324,0.4170860456179358,0.1867820253027862,3.0,0.0
33.36890411376953,-8.614603042602539,-0.2986569404602051,-0.0,-0.0,-1.0,0.1357689082150094,1.0,0.0
34.93377685546875,-8.525877952575684,-0.3205106258392334,0.8423134503289967,0.2404932706892775,-0.4823598637407914,0.0379150571411014,3.0,0.0
34.72332000732422,-8.431276321411133,-0.3215847015380859,-0.0,-0.0,-1.0,0.0391797201965387,2.0,0.0
34.271339416503906,-8.772502899169922,-0.2191705703735351,0.0481817263891954,0.4569951280609709,-0.888163258737206,0.1179668800053575,10.0,0.0
33.861080169677734,-8.897256851196289,-0.2911909818649292,-0.0,-0.0,-1.0,0.0650240855344462,1.0,0.0
33.702537536621094,-8.939579963684082,-0.3184244632720947,0.1173903692956966,0.3090606013988917,-0.9437695936294912,0.0631281354672283,3.0,0.0
34.5180778503418,-9.229081153869627,-0.2885211706161499,-0.0,-0.0,-1.0,0.0370079804599035,1.0,0.0
34.15876388549805,-9.205196380615234,-0.3201014995574951,-0.5035855098720285,0.0139434557585993,-0.8638328624730811,0.0535873185795738,3.0,0.0
32.895599365234375,-7.9621124267578125,-0.3782391548156738,-0.0,-0.0,-1.0,0.0185430878081352,1.0,0.0
33.19084548950195,-8.143333435058594,-0.3662819862365722,-0.0,-0.0,-1.0,0.0658548472041058,1.0,0.0
33.85803985595703,-8.488604545593262,-0.3424791097640991,-0.0,-0.0,-1.0,0.0793066694188823,2.0,0.0
33.53508758544922,-8.433767318725586,-0.3754544258117676,-0.2853501134264659,-0.9216130745704034,-0.2630677736789342,0.0716849447810186,3.0,0.0
34.30149459838867,-8.68382740020752,-0.3323757648468017,0.0785456903266999,-0.9950910910072877,0.0602021189745681,0.1546488068547178,4.0,0.0
34.1967887878418,-8.686858177185059,-0.3453140258789062,-0.0,-0.0,-1.0,0.204728727498143,2.0,0.0
34.8181037902832,-8.90658187866211,-0.3327016830444336,-0.0,-0.0,-1.0,0.0587276914319993,1.0,0.0
33.44282150268555,-9.280767440795898,-0.3192267417907715,-0.0,-0.0,-1.0,0.0345230185250152,2.0,0.0
34.22031021118164,-8.422502517700195,-0.2808490991592407,0.2933321295373009,-0.7200482953990598,-0.6288773442206519,0.1847425484959217,3.0,0.0
34.087791442871094,-8.426633834838867,-0.2983627319335937,0.7901895704935572,0.1649666056580801,-0.5902427142293745,0.1544883619654391,5.0,0.0
33.532127380371094,-8.691093444824219,-0.1949149370193481,0.5666874452728186,-0.4202175807928625,0.7087189317090101,0.1539870711138512,4.0,0.0
33.05792236328125,-8.65726089477539,-0.2480003833770752,-0.7242434111501463,-0.3609663238447442,-0.5875157823034299,0.1568538945297116,4.0,0.0
34.69975280761719,-8.700100898742676,-0.2934337854385376,-0.0,-0.0,-1.0,0.0368780894730212,2.0,0.0
34.51091384887695,-8.634346008300781,-0.2972856760025024,-0.0,-0.0,-1.0,0.0653273854829,1.0,0.0
33.5366325378418,-8.829113006591797,-0.2208361625671386,0.8620033415889868,-0.5054114492730221,-0.0388523620023765,0.1483191959014066,4.0,0.0
33.158390045166016,-8.935176849365234,-0.2866246700286865,0.4354436976350234,-0.8931689527461922,-0.1124188953877803,0.0369278364301917,5.0,0.0
33.042545318603516,-8.893293380737305,-0.2933218479156494,-0.0,-0.0,-1.0,0.0298689236204625,1.0,0.0
35.08078384399414,-9.01027011871338,-0.2232786417007446,0.2217612389264104,-0.5696444624313434,-0.7914083265490257,0.0962469562307575,4.0,0.0
33.39105224609375,-9.210472106933594,-0.3113402128219604,-0.0,-0.0,-1.0,0.0381326660955963,1.0,0.0
33.880340576171875,-9.337285041809082,0.6888448596000671,-0.8748805093365016,-0.3489522806826441,0.3358815270143398,0.0701671671516665,4.0,1.0
32.86643981933594,-8.766107559204102,-0.2360134124755859,-0.0,-0.0,-1.0,0.0942750966117388,2.0,0.0
34.01701736450195,-9.288578987121582,-0.2952576875686645,-0.0,-0.0,-1.0,0.0493542766499435,2.0,0.0
33.77248001098633,-9.315770149230955,-0.3128653764724731,-0.0,-0.0,-1.0,0.1346028557571763,2.0,0.0
33.28419876098633,-9.176629066467283,-0.3047517538070678,-0.0,-0.0,-1.0,0.0338199627148174,1.0,0.0
33.04859161376953,-9.130099296569824,-0.3096463680267334,-0.0,-0.0,-1.0,0.0130284381335571,2.0,0.0
33.779624938964844,-9.356467247009276,-0.3231115341186523,-0.0,-0.0,-1.0,0.0906708027874189,2.0,0.0
33.58951950073242,-8.860308647155762,-0.2053805589675903,-0.0,-0.0,-1.0,0.2261398973864407,2.0,0.0
33.02784729003906,-8.72601318359375,-0.2124738693237304,-0.0,-0.0,-1.0,0.1977180950869815,2.0,0.0
33.58493423461914,-8.966111183166504,-0.232533574104309,-0.0,-0.0,-1.0,0.2251108201857515,1.0,0.0
33.99197006225586,-9.309874534606934,0.7959755659103394,-0.0,-0.0,-1.0,0.075457533848776,1.0,1.0
32.81479263305664,-6.950552940368652,-0.1813547611236572,-0.15056218615604,0.8737233845458068,0.4625348369558059,0.2463387851736713,3.0,0.0
32.717342376708984,-7.693015098571777,-0.3737198114395141,-0.0,-0.0,-1.0,0.0202677603033007,2.0,0.0
33.34436798095703,-8.103574752807617,-0.3631036281585693,-0.0,-0.0,-1.0,0.0365939507313982,1.0,0.0
33.11990737915039,-7.983692169189453,-0.3707407712936401,-0.0,-0.0,-1.0,0.0471738406590793,1.0,0.0
32.881649017333984,-7.86545467376709,-0.3839825391769409,-0.0,-0.0,-1.0,0.0210459756907763,2.0,0.0
33.01814651489258,-8.530797004699707,-0.3069034814834595,-0.0,-0.0,-1.0,0.11584187888202,1.0,0.0
32.757568359375,-9.013011932373049,-0.2168798446655273,-0.0,-0.0,-1.0,0.0519993582930497,2.0,0.0
32.756290435791016,-9.19339370727539,-0.2524447441101074,-0.0,-0.0,-1.0,0.0440382711214353,1.0,0.0
32.7132568359375,-7.729389190673828,-0.3594328165054321,-0.0,-0.0,-1.0,0.0163609664930781,2.0,0.0
33.50932312011719,-8.095367431640625,-0.3367100954055786,-0.0,-0.0,-1.0,0.0233767790485355,2.0,0.0
33.248085021972656,-8.047122955322266,-0.3602373600006103,-0.0,-0.0,-1.0,0.0940427506638227,1.0,0.0
32.90782165527344,-7.891445159912109,-0.3699772357940674,-0.616639049867303,-0.7499632904608439,-0.2393978803997519,0.0235214901571681,3.0,0.0
34.3914909362793,-8.352163314819336,-0.3127148151397705,-0.0,-0.0,-1.0,0.045530665036079,1.0,0.0
34.099998474121094,-8.364398956298828,-0.3451393842697143,-0.0978538901402779,-0.6458443413971576,-0.7571721751818976,0.1648604720352868,3.0,0.0
33.7122917175293,-8.261886596679688,-0.3590481281280517,-0.0,-0.0,-1.0,0.0482776476054987,2.0,0.0
33.36735534667969,-8.371309280395508,-0.328548789024353,0.0146706819090952,-0.0775819843211021,-0.9968780300523842,0.0494788982573034,3.0,0.0
32.9062385559082,-8.4473237991333,-0.3058903217315674,-0.0,-0.0,-1.0,0.0257399339913506,2.0,0.0
34.40185546875,-8.679490089416504,-0.3088996410369873,-0.0,-0.0,-1.0,0.0805302578446784,1.0,0.0
34.16435623168945,-8.80289077758789,-0.263558030128479,-0.0,-0.0,-1.0,0.1027801111263514,1.0,0.0
33.719390869140625,-8.767330169677734,-0.294304609298706,-0.0,-0.0,-1.0,0.0901435550580822,1.0,0.0
33.31712341308594,-8.624319076538086,-0.3000020980834961,-0.0,-0.0,-1.0,0.1137585415541526,2.0,0.0
34.02149963378906,-8.95789909362793,-0.3168255090713501,-0.0,-0.0,-1.0,0.086092327316709,1.0,0.0
33.337955474853516,-9.22984504699707,-0.2228851318359375,-0.7267008224271152,-0.612011317584563,-0.3120065092785101,0.138432129946189,5.0,0.0
32.970008850097656,-9.221915245056152,-0.2555408477783203,-0.0,-0.0,-1.0,0.0494739788407418,1.0,0.0
33.46419143676758,-8.846439361572266,-0.1251766681671142,-0.0,-0.0,-1.0,0.253535825206238,2.0,0.0
32.832542419433594,-8.736512184143066,-0.1632707118988037,-0.0,-0.0,-1.0,0.0996239977213389,2.0,0.0
33.584896087646484,-8.969925880432129,-0.1426061391830444,-0.0,-0.0,-1.0,0.2506420529080712,2.0,0.0
33.46294021606445,-9.18789768218994,-0.2025398015975952,-0.0,-0.0,-1.0,0.0539063339725265,1.0,0.0
33.86117935180664,-9.35581874847412,0.4515154361724853,-0.0,-0.0,-1.0,0.1076080702025294,2.0,1.0
33.891754150390625,-9.293960571289062,0.7781668901443481,0.0326887455005663,-0.924425558933338,0.3799589871399084,0.0695301087658908,8.0,1.0
32.866424560546875,-8.638968467712402,-0.2031086683273315,0.6107299722415961,-0.7829018122640495,0.1186324296280166,0.1288427958365646,4.0,0.0
33.429134368896484,-8.882118225097656,-0.2010128498077392,-0.0,-0.0,-1.0,0.1579366100429531,1.0,0.0
33.070045471191406,-9.01504898071289,-0.2762377262115478,-0.0,-0.0,-1.0,0.0108418814696981,1.0,0.0
33.84031295776367,-9.336503982543944,-0.1869663000106811,0.397279451696105,-0.5787723822099521,-0.712173831905567,0.0688858868185373,5.0,0.0
33.606136322021484,-9.307629585266112,-0.1970912218093872,-0.0,-0.0,-1.0,0.1114123792743026,1.0,0.0
33.199920654296875,-9.194438934326172,-0.3093763589859009,-0.0,-0.0,-1.0,0.0265567890538012,2.0,0.0
33.835880279541016,-9.33822250366211,0.2112621068954467,-0.0,-0.0,-1.0,0.08796197335486,2.0,1.0
33.84575271606445,-9.292243003845217,0.6070811748504639,-0.7600715406818559,0.4977036323110049,-0.4178305247704407,0.0846463094592355,3.0,1.0
33.82217788696289,-9.32085418701172,0.5171555280685425,0.5876159288095396,-0.4921034167730995,-0.6422941284252434,0.0882421026753444,3.0,1.0
33.93196105957031,-9.127545356750488,0.8780630826950073,0.4324615826029244,-0.2997952246354709,-0.8503527520143278,0.0789087860075281,3.0,1.0
33.912967681884766,-9.150053024291992,0.8763388395309448,-0.2657459542021739,0.0700857500982572,-0.9614921088903128,0.0789087860075281,4.0,1.0
33.85929489135742,-9.285898208618164,0.777279257774353,-0.0691694981697524,-0.4015443730744019,-0.9132237934784824,0.0718024065670095,4.0,1.0
35.14393615722656,-8.73784065246582,-0.163793683052063,-0.0,-0.0,-1.0,0.1511811192417275,1.0,0.0
34.76277160644531,-8.828948020935059,-0.1997010707855224,-0.0,-0.0,-1.0,0.0295959517124802,1.0,0.0
35.07026290893555,-8.927939414978027,-0.0745712518692016,-0.0,-0.0,-1.0,0.165462896458554,1.0,0.0
34.740196228027344,-8.938854217529297,-0.2073936462402343,-0.0,-0.0,-1.0,0.1196390588748218,2.0,0.0
33.47493362426758,-9.125577926635742,0.3627208471298218,-0.0,-0.0,-1.0,0.1118114529010419,1.0,1.0
33.30563735961914,-9.17275047302246,0.3887864351272583,-0.0,-0.0,-1.0,0.0903382509397669,1.0,1.0
33.61225891113281,-9.045452117919922,0.4816140532493591,-0.0,-0.0,-1.0,0.1758621993545153,2.0,1.0
32.91889572143555,-8.29594612121582,-0.1082324981689453,-0.0,-0.0,-1.0,0.1700212137365511,1.0,0.0
34.214515686035156,-9.049934387207031,-0.1382317543029785,-0.0,-0.0,-1.0,0.0806166562342362,1.0,0.0
34.0806999206543,-9.031269073486328,-0.138465404510498,-0.0,-0.0,-1.0,0.1604983522684102,1.0,0.0
33.143775939941406,-8.470996856689453,-0.0726118087768554,-0.0,-0.0,-1.0,0.2334524820186439,1.0,0.0
33.59934997558594,-8.560697555541992,-0.0845696926116943,-0.0,-0.0,-1.0,0.1545071389427967,1.0,0.0
33.856361389160156,-9.17428207397461,-0.1124193668365478,-0.0,-0.0,-1.0,0.139156882508134,1.0,0.0
34.88134765625,-9.038274765014648,-0.0739936828613281,-0.0,-0.0,-1.0,0.0942916407660254,1.0,0.0
34.719268798828125,-9.114011764526367,-0.0731310844421386,-0.0,-0.0,-1.0,0.1457206734811764,1.0,0.0
34.68008041381836,-9.351221084594728,-0.0802963972091674,-0.0,-0.0,-1.0,0.125242480264468,1.0,0.0
32.96902084350586,-8.592090606689453,-0.1520256996154785,0.3090342569649272,-0.9456201720955448,0.1014904830421422,0.226283990659173,6.0,0.0
33.49439239501953,-8.640752792358398,-0.1846235990524292,-0.0755911867294726,0.2839133226454722,-0.9558656797444076,0.1357797099984453,9.0,0.0
34.17418670654297,-8.3336181640625,-0.2234102487564087,0.8474731801548424,0.1907283385780365,-0.4953906638013076,0.2107083876094827,4.0,0.0
33.7235107421875,-9.300809860229492,-0.2050646543502807,-0.0,-0.0,-1.0,0.1204079497139294,2.0,0.0
34.32337188720703,-8.636405944824219,-0.2354578971862793,-0.0,-0.0,-1.0,0.1215455031730195,2.0,0.0
34.401947021484375,-9.16075325012207,-0.2452716827392578,-0.0,-0.0,-1.0,0.0332440027192533,1.0,0.0
34.86376953125,-8.72425651550293,-0.2695575952529907,-0.0,-0.0,-1.0,0.036044319560968,2.0,0.0
33.832542419433594,-9.352408409118652,0.2860827445983886,-0.0,-0.0,-1.0,0.1224819842566889,2.0,1.0
34.04396057128906,-9.274142265319824,0.258212685585022,-0.0,-0.0,-1.0,0.1805629694083727,2.0,1.0
32.77666091918945,-8.384486198425293,-0.3160134553909302,-0.0,-0.0,-1.0,0.0625780565569176,1.0,0.0
33.08897399902344,-8.253201484680176,-0.3456246852874756,-0.0,-0.0,-1.0,0.0376363361905438,1.0,0.0
33.1502571105957,-8.033526420593262,-0.3517051935195923,-0.0,-0.0,-1.0,0.0870536914504071,1.0,0.0
