x,y,z,nx,ny,nz,curvature,density
39.305320739746094,24.34974670410156,-2.2563588619232178,-0.0,-0.0,-1.0,0.1770120190342458,1.0
38.650856018066406,25.424163818359375,-2.305393934249878,-0.0,-0.0,-1.0,0.0714487548264625,1.0
39.72679901123047,23.520843505859375,-2.2140209674835205,-0.2125205294046577,0.9351182093695136,-0.2835294677579709,0.0678512110668265,5.0
39.74520111083984,23.47237777709961,-2.2103912830352783,-0.5875556393190563,0.7028822772277519,-0.4009175414764303,0.0580833163537879,3.0
37.71131896972656,23.991491317749023,-1.8063008785247805,-0.99245970883816,0.001620951191795,0.1225605925659117,0.1329098804587057,6.0
37.76041030883789,23.96440887451172,-1.8128955364227295,-0.2847447941659933,-0.8446848923605809,-0.453241475168767,0.1283535529323513,4.0
38.453369140625,23.87307929992676,-1.962895154953003,-0.0,-0.0,-1.0,0.1776164870631239,1.0
38.750396728515625,23.69049072265625,-2.002279043197632,-0.0,-0.0,-1.0,0.1129626516290348,2.0
39.61603546142578,23.74164581298828,-2.2246696949005127,-0.0,-0.0,-1.0,0.0587580829767909,2.0
37.77217102050781,24.087940216064453,-1.8390891551971436,-0.0,-0.0,-1.0,0.1246475022303203,2.0
38.22816467285156,24.10502815246582,-1.95131516456604,-0.0,-0.0,-1.0,0.0934929268280687,1.0
38.61914825439453,24.71832847595215,-2.1604807376861572,-0.0,-0.0,-1.0,0.075553686142983,1.0
39.09197998046875,24.461894989013672,-2.2254769802093506,-0.0,-0.0,-1.0,0.0910470609388513,1.0
38.057579040527344,25.140228271484375,-2.111243963241577,-0.1675339370794467,-0.3650513916741904,-0.9157892013795516,0.19207798245067,3.0
38.44304656982422,24.983638763427734,-2.1702311038970947,-0.0,-0.0,-1.0,0.1147287925424919,2.0
38.6337890625,24.85445785522461,-2.190053701400757,-0.0,-0.0,-1.0,0.0448943442422611,2.0
38.06133270263672,25.207021713256836,-2.125469923019409,-0.0,-0.0,-1.0,0.136951988374343,2.0
38.38483047485352,25.633281707763672,-2.2858006954193115,-0.0,-0.0,-1.0,0.0735793328411253,1.0
39.64604187011719,25.47815704345703,-2.36689829826355,-0.0,-0.0,-1.0,0.1219768032198147,2.0
37.71344757080078,23.482561111450195,-1.9939520359039309,-0.0,-0.0,-1.0,0.1021485883999634,2.0
40.17787551879883,23.36032485961914,-2.0863497257232666,-0.0,-0.0,-1.0,0.1976166675853463,1.0
37.71337890625,24.060178756713867,-2.123833417892456,-0.0,-0.0,-1.0,0.0988646924652321,2.0
39.93802261352539,24.220535278320312,-2.186365842819214,-0.0,-0.0,-1.0,0.1754800353330185,1.0
39.388694763183594,24.352214813232425,-2.079000234603882,-0.0,-0.0,-1.0,0.1571497631073282,1.0
39.91086196899414,24.52518081665039,-2.2385246753692627,-0.0,-0.0,-1.0,0.0901549152394869,1.0
40.123287200927734,24.43617820739746,-2.2727091312408447,-0.0,-0.0,-1.0,0.1988456779494911,1.0
39.02609634399414,24.975446701049805,-2.1185367107391357,-0.0,-0.0,-1.0,0.1569824217772927,2.0
39.800758361816406,24.92833709716797,-2.2917168140411377,-0.0,-0.0,-1.0,0.1569782316806128,1.0
38.79385757446289,25.245014190673828,-2.1206748485565186,-0.2340532377150488,-0.3112709174306477,-0.9210480431969796,0.1673582808079226,3.0
38.96474075317383,25.310346603393555,-2.1738216876983643,-0.0,-0.0,-1.0,0.1585214551048223,2.0
39.60100555419922,25.349645614624023,-2.3298981189727783,-0.0,-0.0,-1.0,0.107044403890096,1.0
39.72926330566406,25.206790924072266,-2.3308260440826416,-0.0,-0.0,-1.0,0.0734023664642467,1.0
40.05027770996094,23.772239685058594,-2.2332701683044434,-0.0,-0.0,-1.0,0.094169994936851,2.0
39.884639739990234,23.99713134765625,-2.241666316986084,-0.0,-0.0,-1.0,0.0614789895849797,1.0
38.93236541748047,24.538171768188477,-2.1327505111694336,-0.0,-0.0,-1.0,0.0746042222574159,1.0
39.47734069824219,24.40933609008789,-2.234980583190918,-0.9282299788954672,-0.0409314891694075,-0.3697481838685555,0.1271956440079086,4.0
39.80622100830078,24.33977699279785,-2.300292491912842,-0.0,-0.0,-1.0,0.0955443464896146,2.0
39.15526580810547,24.964107513427734,-2.2903079986572266,-0.0,-0.0,-1.0,0.1104780735772825,2.0
39.547725677490234,24.798606872558594,-2.3448400497436523,-0.0,-0.0,-1.0,0.1134751057918131,1.0
38.8908805847168,25.361711502075195,-2.3268251419067383,-0.0,-0.0,-1.0,0.0881314282063559,1.0
39.06578063964844,25.28390312194824,-2.348245620727539,-0.0,-0.0,-1.0,0.065834359030365,1.0
38.74544906616211,25.636150360107425,-2.3634495735168457,-0.0,-0.0,-1.0,0.0486797627538225,2.0
38.196773529052734,23.9012451171875,-1.8008460998535156,-0.0,-0.0,-1.0,0.1033564347001882,1.0
38.49797821044922,23.602855682373047,-1.803750991821289,-0.0,-0.0,-1.0,0.2095575640634888,2.0
37.896751403808594,24.0478572845459,-1.7644977569580078,-0.0,-0.0,-1.0,0.1119404632058608,1.0
38.066436767578125,25.081981658935547,-2.0649232864379883,-0.0,-0.0,-1.0,0.1522558856263272,2.0
38.00968551635742,25.15822982788086,-2.0716705322265625,-0.9499170933999758,-0.2985697778449951,0.0922691900047458,0.1557524932943336,3.0
38.1910400390625,25.135982513427734,-2.107375144958496,-0.0,-0.0,-1.0,0.132243605865335,2.0
39.12657928466797,23.186729431152344,-2.2308754920959473,-0.0,-0.0,-1.0,0.0391492582286543,2.0
39.36931610107422,23.140962600708008,-2.2808966636657715,-0.0,-0.0,-1.0,0.0427611982914524,1.0
40.152400970458984,24.616764068603516,-2.265376091003418,-0.0,-0.0,-1.0,0.1209273401575095,1.0
39.86024856567383,24.899635314941406,-2.2627925872802734,-0.0,-0.0,-1.0,0.2175787616636019,2.0
39.717525482177734,25.295103073120117,-2.3158645629882812,-0.0,-0.0,-1.0,0.0766059107791592,2.0
37.720306396484375,23.50075340270996,-1.9661892652511597,-0.0,-0.0,-1.0,0.1021485883999634,2.0
40.16920852661133,23.371612548828125,-2.02951717376709,-0.0,-0.0,-1.0,0.1712087899433158,2.0
37.75921630859375,23.817277908325195,-2.0496387481689453,-0.0,-0.0,-1.0,0.1223222925567164,2.0
39.95273208618164,23.589889526367188,-2.023374080657959,-0.0,-0.0,-1.0,0.1432523025722621,1.0
39.62325668334961,24.08281517028809,-2.0489583015441895,0.5439076401766314,0.7796710489506521,-0.3102862136571295,0.2217909646346538,3.0
40.01054382324219,24.659440994262695,-2.244518756866455,-0.0,-0.0,-1.0,0.1876019842442452,2.0
40.124267578125,24.330472946166992,-2.202763080596924,-0.0,-0.0,-1.0,0.138616146263877,2.0
38.064796447753906,24.944652557373047,-1.9182227849960327,-0.5957713134670842,-0.5085920497365062,-0.6216033051669886,0.1536174960371017,3.0
38.88282775878906,24.780874252319336,-2.0413827896118164,-0.0,-0.0,-1.0,0.1085287626031737,1.0
39.142696380615234,25.120620727539062,-2.1649465560913086,-0.0,-0.0,-1.0,0.2102616576122674,1.0
39.850685119628906,24.871673583984375,-2.254826068878174,-0.0,-0.0,-1.0,0.1613356812001843,2.0
38.784881591796875,25.274946212768555,-2.128509521484375,-0.0,-0.0,-1.0,0.1576235383641895,2.0
39.32419967651367,25.403059005737305,-2.261007785797119,-0.0,-0.0,-1.0,0.112125609773538,1.0
39.73310852050781,23.52134704589844,-2.253185987472534,-0.4752480065239227,0.8774267043143131,-0.0652817803920849,0.1319340115849492,3.0
39.93461608886719,23.321508407592773,-2.261859655380249,-0.0,-0.0,-1.0,0.1308168024379155,2.0
39.65380096435547,23.781633377075195,-2.285633087158203,-0.5676892163738091,0.8030839634080926,-0.181066566018246,0.060232376916325,3.0
38.84864807128906,24.60724449157715,-2.2778289318084717,-0.0,-0.0,-1.0,0.0582037412716495,1.0
38.144813537597656,25.22064781188965,-2.267537832260132,0.1609739375000586,0.6446262526317987,-0.7473582714224897,0.232246058876789,3.0
38.43595886230469,24.97032928466797,-2.2705137729644775,-0.0,-0.0,-1.0,0.0838132842642485,1.0
38.165340423583984,25.494720458984375,-2.3337271213531494,-0.0,-0.0,-1.0,0.0472467719339189,1.0
38.24899673461914,25.27041244506836,-2.2995078563690186,-0.0,-0.0,-1.0,0.0374692393556401,1.0
38.25700378417969,23.16587257385254,-1.8508179187774656,0.6222266850535032,0.7743706810890164,-0.1148216037035759,0.035721207919629,3.0
38.08332443237305,23.46194648742676,-1.873516321182251,-0.0,-0.0,-1.0,0.0595426813138469,1.0
38.23051834106445,23.440465927124023,-1.9009921550750732,-0.0,-0.0,-1.0,0.0977162200470078,1.0
39.034271240234375,23.513229370117188,-2.0932891368865967,-0.0,-0.0,-1.0,0.0447875738919312,2.0
37.73735809326172,23.992427825927734,-1.9127442836761477,-0.0,-0.0,-1.0,0.078616680732843,1.0
37.81354904174805,24.01324462890625,-1.9330785274505615,-0.0,-0.0,-1.0,0.0874770215465391,1.0
39.313568115234375,23.839130401611328,-2.2205424308776855,-0.0,-0.0,-1.0,0.15567073965567,1.0
38.3032341003418,24.07529067993164,-2.0492594242095947,-0.0,-0.0,-1.0,0.0941103727554419,1.0
38.760520935058594,24.352359771728516,-2.2051336765289307,-0.0,-0.0,-1.0,0.0386962354862907,1.0
40.18690872192383,24.28063583374023,-2.0220136642456055,0.8024210724038593,-0.2110110620659285,-0.5582067307441294,0.1460683216598216,3.0
38.484527587890625,24.608840942382812,-2.201854944229126,-0.0,-0.0,-1.0,0.0967956913040361,2.0
38.798606872558594,24.503467559814453,-2.245184421539306,-0.0,-0.0,-1.0,0.048243462850596,2.0
40.13732147216797,24.544445037841797,-2.058577299118042,-0.0,-0.0,-1.0,0.095956816527302,2.0
38.19481658935547,25.02810287475586,-2.2344484329223633,-0.0,-0.0,-1.0,0.1402109203346883,2.0
38.30522537231445,24.983867645263672,-2.2470171451568604,-0.0,-0.0,-1.0,0.0859345567889794,2.0
39.069244384765625,25.175518035888672,-1.973778247833252,-0.0,-0.0,-1.0,0.1605546522015546,2.0
39.681427001953125,25.06847381591797,-2.066497564315796,-0.3585698902291774,-0.5359499175379814,-0.7643201683274271,0.1727019819230408,4.0
39.92481231689453,24.82733917236328,-2.0682694911956787,0.3656913005905634,-0.1823493368534254,-0.9126985219783686,0.2449417900207119,4.0
38.894378662109375,24.770641326904297,-1.8654186725616455,-0.0,-0.0,-1.0,0.1255891031032446,2.0
39.09508514404297,23.54568099975586,-2.031932830810547,-0.0,-0.0,-1.0,0.0706789749312966,1.0
38.24191665649414,23.95379638671875,-1.9475774765014648,-0.0,-0.0,-1.0,0.1065094310117543,1.0
38.61040115356445,23.7535400390625,-1.976292610168457,-0.0,-0.0,-1.0,0.208220843229846,1.0
39.862525939941406,23.700408935546875,-2.235868453979492,-0.0,-0.0,-1.0,0.0625679202703782,1.0
38.19229888916016,24.14668083190918,-1.9842524528503416,-0.0,-0.0,-1.0,0.0765475900165325,1.0
39.52643966674805,24.115785598754883,-2.255514621734619,-0.0,-0.0,-1.0,0.166195688921882,2.0
39.712100982666016,23.942373275756836,-2.25634765625,-0.0,-0.0,-1.0,0.1160970667436207,1.0
38.486209869384766,24.740114212036133,-2.188108205795288,-0.0,-0.0,-1.0,0.0978440758380601,1.0
38.69609832763672,24.596437454223633,-2.195322036743164,-0.0,-0.0,-1.0,0.0542368870056878,1.0
39.00150680541992,24.552650451660156,-2.2468786239624023,-0.0,-0.0,-1.0,0.0669021633538915,1.0
38.30556106567383,25.013578414916992,-2.2206742763519287,-0.7315477064840771,0.4569256258652556,-0.5060206770138266,0.1111340767269976,3.0
39.67887115478515,25.06768035888672,-2.0488221645355225,-0.3585698902291774,-0.5359499175379814,-0.7643201683274271,0.1727019819230408,4.0
40.03300857543945,24.90344619750977,-2.079749822616577,-0.0,-0.0,-1.0,0.2195019412382737,1.0
38.12453842163086,25.56713104248047,-2.326443672180176,-0.0,-0.0,-1.0,0.0796849317343098,2.0
38.21162796020508,25.435199737548828,-2.309086561203003,-0.0,-0.0,-1.0,0.0499818000021138,2.0
39.52223587036133,25.59933280944824,-2.133662462234497,-0.0,-0.0,-1.0,0.1257382441634987,1.0
37.774417877197266,23.97628402709961,-1.8592205047607424,-0.8474651051210303,-0.3929042847003889,-0.3569721539087837,0.1329904326651897,3.0
37.75960922241211,24.01403045654297,-1.865610122680664,-0.1874735576132693,-0.2349970382919563,-0.9537452789869172,0.1335251616263117,3.0
38.95588302612305,24.72876739501953,-1.8471899032592771,-0.0,-0.0,-1.0,0.1994621373294035,2.0
40.19404983520508,24.38100814819336,-2.0042028427124023,-0.2345395324166361,0.2564462548350761,-0.9376707983694752,0.1349957645648827,3.0
39.03567886352539,24.87525177001953,-1.892606258392334,-0.0,-0.0,-1.0,0.0885127542574564,1.0
39.401161193847656,25.025297164916992,-1.9897472858428955,-0.0,-0.0,-1.0,0.1327150175610958,2.0
39.754581451416016,24.96332550048828,-2.040809392929077,-0.0,-0.0,-1.0,0.1346548394306911,1.0
38.75168991088867,25.23538589477539,-1.9207582473754885,-0.0,-0.0,-1.0,0.1265427497589029,2.0
39.8087043762207,23.419424057006836,-2.2647974491119385,-0.0,-0.0,-1.0,0.1144730756606503,2.0
40.021446228027344,23.242170333862305,-2.270477533340454,-0.0,-0.0,-1.0,0.0860491355483148,1.0
39.342674255371094,23.826461791992188,-2.263848781585694,-0.0,-0.0,-1.0,0.1218256465697776,1.0
39.648681640625,23.69698715209961,-2.299046516418457,-0.0,-0.0,-1.0,0.0493303505568701,1.0
37.83432388305664,25.059619903564453,-2.303920030593872,-0.0,-0.0,-1.0,0.040379038731837,2.0
38.24208068847656,23.178619384765625,-1.8457212448120115,-0.0,-0.0,-1.0,0.035721207919629,2.0
38.96478271484375,23.157081604003903,-2.0007283687591553,-0.0,-0.0,-1.0,0.0250031386511403,1.0
38.08833312988281,23.342973709106445,-1.8582074642181396,-0.0,-0.0,-1.0,0.0397035423732536,2.0
39.02824783325195,23.496999740600582,-2.105180501937866,-0.0,-0.0,-1.0,0.0499235895138934,2.0
37.78658676147461,23.94392204284668,-1.9671788215637207,-0.0,-0.0,-1.0,0.1316735629178122,2.0
39.08646774291992,23.790237426757812,-2.196884870529175,-0.0,-0.0,-1.0,0.1282725066806262,1.0
39.30257034301758,23.76032066345215,-2.2370710372924805,-0.0,-0.0,-1.0,0.1222854614109412,2.0
37.97073745727539,24.165477752685547,-2.0673463344573975,-0.0,-0.0,-1.0,0.0646842590987404,1.0
38.254493713378906,24.25142288208008,-2.148908853530884,-0.0,-0.0,-1.0,0.0551414391036743,1.0
38.524166107177734,24.231639862060547,-2.198317050933838,-0.0,-0.0,-1.0,0.0445001957244613,1.0
39.5489616394043,24.0267333984375,-1.9555671215057373,-0.0,-0.0,-1.0,0.2125313428630157,1.0
39.62733459472656,24.000083923339844,-1.964810132980347,-0.0,-0.0,-1.0,0.1683669365220141,1.0
37.93782806396485,24.57340431213379,-2.1795971393585205,-0.0,-0.0,-1.0,0.0362184313271146,1.0
38.34416961669922,24.43337059020996,-2.218928098678589,-0.0,-0.0,-1.0,0.0608258311935585,1.0
40.008697509765625,24.68448257446289,-2.20357084274292,-0.0,-0.0,-1.0,0.2083783064765513,2.0
37.91445541381836,24.859289169311523,-2.259277582168579,-0.1579362816942883,0.8910119127288751,0.425621783159431,0.0364779607652587,3.0
38.08213424682617,24.910297393798828,-1.906730890274048,-0.5957713134670842,-0.5085920497365062,-0.6216033051669886,0.13323827637992,3.0
39.02376937866211,25.034320831298828,-2.103681802749634,-0.0,-0.0,-1.0,0.2340918228024568,1.0
39.85947799682617,25.054302215576172,-2.264399528503418,-0.0,-0.0,-1.0,0.183131166174397,1.0
40.11092758178711,24.90079116821289,-2.275657415390014,-0.0,-0.0,-1.0,0.1886500556599052,1.0
38.76398086547851,25.220386505126953,-2.104759693145752,-0.0,-0.0,-1.0,0.21231903864805,2.0
39.74812698364258,25.375484466552734,-2.3225066661834717,-0.0,-0.0,-1.0,0.0593072298712655,2.0
40.1700553894043,24.631359100341797,-1.7909090518951416,-0.0,-0.0,-1.0,0.0757604170163973,1.0
39.80729675292969,24.337541580200195,-2.288846015930176,-0.0,-0.0,-1.0,0.0955443464896145,2.0
39.43011093139648,24.62115478515625,-2.286417245864868,-0.0,-0.0,-1.0,0.06807048835767,1.0
39.70294570922851,24.43998336791992,-2.294299602508545,-0.0,-0.0,-1.0,0.0490789598636741,2.0
39.035247802734375,24.884735107421875,-2.2803597450256348,-0.0,-0.0,-1.0,0.1020148294951273,1.0
39.19965362548828,24.882720947265625,-2.3131282329559326,-0.0,-0.0,-1.0,0.0853220305466302,1.0
38.2247200012207,25.50397491455078,-2.3101727962493896,-0.0,-0.0,-1.0,0.0950038977129748,1.0
38.380558013916016,25.435937881469727,-2.3176934719085693,-0.0,-0.0,-1.0,0.086555209397575,1.0
38.52140808105469,23.604520797729492,-1.8072304725646973,-0.0,-0.0,-1.0,0.2095575640634888,2.0
37.766414642333984,24.007226943969727,-1.7756481170654297,0.0178709447124999,-0.762947159998433,-0.6462137884519399,0.1209787757639621,3.0
38.5743293762207,23.75263404846191,-1.8605377674102783,-0.0,-0.0,-1.0,0.1591926754375221,1.0
40.15019226074219,23.83568000793457,-2.231184959411621,-0.0,-0.0,-1.0,0.1181910787882568,1.0
39.788917541503906,24.141111373901367,-2.231024265289306,-0.0,-0.0,-1.0,0.2058295505786866,1.0
40.111446380615234,24.16731834411621,-2.106783390045166,0.0863515355384191,-0.977535362186563,-0.19227071535973,0.2160773180077412,3.0
38.57181167602539,24.731653213500977,-2.144001007080078,-0.0,-0.0,-1.0,0.0916717669284516,1.0
38.83885955810547,24.67235565185547,-2.1797125339508057,-0.0,-0.0,-1.0,0.1122221832047876,2.0
39.41060256958008,24.50408172607422,-2.249239206314087,-0.0,-0.0,-1.0,0.0837744575241527,1.0
39.4807014465332,24.44784927368164,-2.2483577728271484,-0.9271342813341146,-0.0481747385638603,-0.3716197235607636,0.1131766358800731,3.0
40.1910514831543,24.561370849609375,-2.0211000442504883,-0.3466120619216331,-0.471301411970485,-0.8110086667878836,0.0606221689480146,4.0
38.255332946777344,25.027667999267575,-2.1719651222229004,-0.0,-0.0,-1.0,0.1793011744983922,2.0
38.50735092163086,24.954978942871097,-2.1976377964019775,0.6828904129456771,-0.3411096192429458,-0.645991417564363,0.0711730028705362,3.0
38.82830810546875,24.833730697631836,-2.2242720127105713,-0.0,-0.0,-1.0,0.1650945858417493,1.0
39.3994026184082,24.985858917236328,-1.9748313426971436,-0.0,-0.0,-1.0,0.1111059478822324,2.0
39.75141525268555,25.0489559173584,-2.0564045906066895,-0.0,-0.0,-1.0,0.2421442961049233,2.0
39.96060562133789,24.85317611694336,-2.0473921298980713,-0.0,-0.0,-1.0,0.1940078133756014,2.0
38.76502227783203,25.268890380859375,-1.935293197631836,-0.0,-0.0,-1.0,0.1783150354031784,2.0
40.07404708862305,25.635732650756836,-2.2647793292999268,-0.0,-0.0,-1.0,0.0838962953662112,1.0
38.96028900146485,24.730175018310547,-1.8294708728790283,0.8530881037820403,0.458751793273164,-0.2485708739056502,0.1994621373294035,3.0
39.68270111083984,25.116134643554688,-2.2290594577789307,-0.0,-0.0,-1.0,0.227484887847416,1.0
39.96354293823242,25.002201080322266,-2.2462453842163086,-0.0,-0.0,-1.0,0.1508396882277944,1.0
39.641544342041016,25.37374496459961,-2.299074172973633,-0.0,-0.0,-1.0,0.1118349825709139,1.0
39.8575439453125,25.155851364135746,-2.272178649902344,-0.0,-0.0,-1.0,0.0927160005573478,2.0
39.63864517211914,24.220619201660156,-1.9562134742736816,-0.0,-0.0,-1.0,0.0977094465306851,1.0
40.120140075683594,24.314245223999023,-2.0757827758789062,-0.0,-0.0,-1.0,0.1889195152748149,1.0
39.994384765625,24.45983123779297,-2.0933680534362793,-0.0,-0.0,-1.0,0.1877964738068386,1.0
38.92244720458984,25.01474380493164,-2.0685184001922607,-0.0,-0.0,-1.0,0.1798167313448619,1.0
39.693138122558594,25.02937889099121,-2.205010414123535,-0.0,-0.0,-1.0,0.2083836951992842,2.0
40.08458709716797,24.94202041625977,-2.0501980781555176,-0.0,-0.0,-1.0,0.1770141923653126,1.0
38.67554473876953,25.249858856201172,-2.101715564727783,-0.0,-0.0,-1.0,0.1623003221161451,1.0
40.09591293334961,24.616737365722656,-1.7702476978302002,-0.0,-0.0,-1.0,0.0948087556895861,2.0
39.990028381347656,25.57579040527344,-2.3194761276245117,-0.0,-0.0,-1.0,0.0825247379874369,2.0
40.05284118652344,24.308481216430664,-1.938414454460144,-0.0,-0.0,-1.0,0.1052389209290237,2.0
40.09111404418945,24.649494171142575,-2.0496373176574707,-0.0,-0.0,-1.0,0.1533731607364576,2.0
39.639400482177734,25.080890655517575,-2.1063685417175293,0.8151372046230073,-0.4820494350989256,-0.3212159394553702,0.1635995537415082,3.0
39.9659309387207,25.040639877319336,-2.148493766784668,-0.0,-0.0,-1.0,0.2368063082398139,1.0
40.00175476074219,25.398357391357425,-2.266180515289306,-0.0,-0.0,-1.0,0.0376243480120656,1.0
38.599891662597656,24.38652801513672,-2.1837170124053955,-0.0,-0.0,-1.0,0.0512458062863675,1.0
38.369232177734375,24.152240753173828,-2.1819820404052734,-0.0,-0.0,-1.0,0.0545095755581639,1.0
38.30789566040039,23.614456176757812,-2.113408327102661,-0.0,-0.0,-1.0,0.1447911170538511,1.0
38.33121871948242,23.213443756103516,-2.053489446640014,-0.0,-0.0,-1.0,0.0686855258249293,1.0
38.92229843139648,25.17444229125977,-2.258958578109741,-0.0,-0.0,-1.0,0.1355299165108666,1.0
38.858280181884766,24.893856048583984,-2.2243897914886475,-0.0,-0.0,-1.0,0.1599397551997661,1.0
38.76394271850586,24.483306884765625,-2.17516565322876,-0.0,-0.0,-1.0,0.0506137089932931,1.0
38.6987419128418,23.58034896850586,-2.05155086517334,-0.0,-0.0,-1.0,0.1832458392555626,1.0
39.518856048583984,24.80804443359375,-2.12209153175354,-0.0,-0.0,-1.0,0.1581920200059445,1.0
39.25218200683594,24.251380920410156,-2.0725557804107666,-0.0,-0.0,-1.0,0.1443435300774675,1.0
39.831077575683594,24.147430419921875,-1.9776630401611328,-0.0,-0.0,-1.0,0.127346801288672,1.0
39.9669189453125,24.12853240966797,-1.9564549922943115,-0.0,-0.0,-1.0,0.1804005371922423,1.0
38.93055725097656,25.014673233032227,-2.282963991165161,-0.0,-0.0,-1.0,0.1162806742632337,1.0
38.90642547607422,24.82231903076172,-2.256028890609741,-0.0,-0.0,-1.0,0.1351058223713281,1.0
38.717247009277344,24.297992706298828,-2.20103120803833,-0.0,-0.0,-1.0,0.0317488276725086,2.0
38.49342727661133,24.037525177001953,-2.193121910095215,-0.0,-0.0,-1.0,0.0748231745084228,2.0
38.40925216674805,23.604259490966797,-2.1410646438598633,-0.0,-0.0,-1.0,0.1455674602133892,1.0
39.294090270996094,25.02655029296875,-2.236588716506958,-0.0,-0.0,-1.0,0.1732110463713171,1.0
39.175689697265625,24.281005859375,-2.1352062225341797,-0.0,-0.0,-1.0,0.1173382426660204,1.0
38.39851760864258,23.166736602783203,-2.079133987426758,-0.0,-0.0,-1.0,0.064418891247323,1.0
39.41767883300781,23.869930267333984,-2.0385420322418213,-0.0,-0.0,-1.0,0.0988809912403564,2.0
39.97164535522461,24.199207305908203,-2.015475034713745,-0.0,-0.0,-1.0,0.2039063027630454,1.0
40.130863189697266,23.94438743591309,-1.9538321495056152,-0.0,-0.0,-1.0,0.1396604364710222,2.0
39.63257598876953,23.234169006347656,-2.2448134422302246,-0.0,-0.0,-1.0,0.0316213024934622,1.0
40.10960388183594,23.44829559326172,-2.2087106704711914,-0.0,-0.0,-1.0,0.2334834743326573,2.0
39.81188201904297,23.233078002929688,-2.2171196937561035,-0.0,-0.0,-1.0,0.0563690378946705,2.0
38.11207962036133,24.721925735473633,-2.0702590942382812,-0.0,-0.0,-1.0,0.1622783895553519,1.0
38.46707534790039,24.61888885498047,-2.0102052688598633,-0.0,-0.0,-1.0,0.1439298785695751,1.0
37.84146881103515,23.98115921020508,-2.004054069519043,-0.0,-0.0,-1.0,0.1932861966839788,2.0
37.75908660888672,23.861217498779297,-1.9990546703338623,-0.699858050281135,0.6228860859357828,0.3495878049993862,0.1152596091690796,3.0
38.12519073486328,23.40816307067871,-1.889028549194336,-0.0,-0.0,-1.0,0.0538069613867415,1.0
40.10721969604492,24.01142120361328,-2.2270398139953613,-0.0,-0.0,-1.0,0.1200566505260381,1.0
39.86650085449219,23.748836517333984,-2.217395782470703,-0.0,-0.0,-1.0,0.0459749998827598,1.0
39.40593719482422,23.56157684326172,-2.254748821258545,-0.0,-0.0,-1.0,0.0501439245308229,1.0
39.21040725708008,23.222930908203125,-2.2302889823913574,-0.0,-0.0,-1.0,0.0448505147516688,1.0
39.946067810058594,23.456165313720703,-2.1572957038879395,-0.0,-0.0,-1.0,0.2302613342399734,1.0
38.03412628173828,25.003440856933594,-2.0294270515441895,-0.0,-0.0,-1.0,0.1073335481506155,2.0
37.72146987915039,23.85430335998535,-1.9195464849472048,-0.0,-0.0,-1.0,0.0969293256003399,1.0
37.80931091308594,23.228843688964844,-1.829159379005432,-0.0,-0.0,-1.0,0.0782076428703463,1.0
39.0718994140625,25.069616317749023,-2.268433094024658,-0.0,-0.0,-1.0,0.1518790075059657,1.0
39.75749588012695,24.83222770690918,-2.145087242126465,-0.0,-0.0,-1.0,0.2041863920232517,1.0
39.00068283081055,24.49687385559082,-2.1850600242614746,-0.0,-0.0,-1.0,0.0690710895388444,1.0
38.70282745361328,24.298856735229492,-2.192411422729492,-0.0,-0.0,-1.0,0.0351600189724102,2.0
39.32874298095703,24.37795639038086,-2.1240859031677246,-0.0,-0.0,-1.0,0.1738178842953173,1.0
38.63252258300781,23.96871566772461,-2.1501059532165527,-0.0,-0.0,-1.0,0.0920625676002194,1.0
38.47603988647461,23.746036529541016,-2.136913776397705,-0.0,-0.0,-1.0,0.2021170461204327,1.0
38.89699172973633,23.54153823852539,-2.0484704971313477,-0.0,-0.0,-1.0,0.0699053000078568,1.0
38.46799850463867,23.40939712524414,-2.0867671966552734,-0.0,-0.0,-1.0,0.1358021323950672,1.0
38.46376037597656,23.210124969482425,-2.0572943687438965,-0.0,-0.0,-1.0,0.1016206251369622,2.0
40.11689758300781,24.120689392089844,-1.9839109182357788,-0.0,-0.0,-1.0,0.21879421275239,2.0
39.72783660888672,24.016334533691406,-2.015239715576172,-0.0,-0.0,-1.0,0.1216224088296072,1.0
39.150733947753906,24.980655670166016,-2.24847412109375,-0.0,-0.0,-1.0,0.1419865762808669,2.0
38.84539413452149,24.40625762939453,-2.1938107013702393,-0.0,-0.0,-1.0,0.0461896472984294,1.0
38.62147521972656,24.28112030029297,-2.203329563140869,-0.0,-0.0,-1.0,0.0279070976105955,1.0
39.300567626953125,24.264137268066406,-2.111109495162964,-0.0,-0.0,-1.0,0.1866600980194013,1.0
38.4664192199707,24.05295181274414,-2.188053607940674,-0.0,-0.0,-1.0,0.0645147354917732,2.0
38.73384094238281,23.779342651367188,-2.108261823654175,-0.0,-0.0,-1.0,0.1299489089787377,1.0
38.45122528076172,23.669830322265625,-2.12994122505188,-0.0,-0.0,-1.0,0.2160647311902714,1.0
40.12259292602539,24.16857147216797,-1.9913482666015625,-0.0,-0.0,-1.0,0.1996205017742787,2.0
39.67105484008789,24.19493865966797,-2.052284002304077,-0.0,-0.0,-1.0,0.1835301691847096,1.0
39.47249603271485,24.222702026367188,-2.082160472869873,-0.0,-0.0,-1.0,0.1186420601817637,1.0
40.084999084472656,23.95959091186523,-1.9609510898590088,-0.0,-0.0,-1.0,0.133658373595141,2.0
39.41930389404297,23.836135864257812,-2.025801181793213,-0.0,-0.0,-1.0,0.0972802364140603,2.0
38.70502471923828,23.724319458007812,-2.103494882583618,-0.0,-0.0,-1.0,0.1750104599216936,1.0
38.4470329284668,23.241466522216797,-2.064124822616577,-0.0,-0.0,-1.0,0.1168075774141643,2.0
38.407745361328125,25.45022964477539,-2.277573585510254,-0.0,-0.0,-1.0,0.081833878231488,2.0
39.6799201965332,25.105636596679688,-2.08057165145874,-0.3585698902291774,-0.5359499175379814,-0.7643201683274271,0.23059512836582,4.0
39.222190856933594,25.008684158325195,-2.1119627952575684,-0.0,-0.0,-1.0,0.1485316843920747,1.0
38.704795837402344,25.138206481933594,-2.191056728363037,-0.0,-0.0,-1.0,0.1312283494933922,1.0
38.52134704589844,24.94787216186523,-2.1790895462036133,0.6828904129456771,-0.3411096192429458,-0.645991417564363,0.0704229314585294,3.0
37.9101676940918,25.147233963012695,-2.2830848693847656,-0.0,-0.0,-1.0,0.0716164082215338,1.0
38.40445709228515,24.81763458251953,-2.1703991889953613,-0.0,-0.0,-1.0,0.1141530008626512,1.0
38.05270767211914,24.669666290283203,-2.186638355255127,-0.0,-0.0,-1.0,0.1112907932712063,1.0
38.312042236328125,24.48319625854492,-2.1249780654907227,-0.0,-0.0,-1.0,0.1167211168456347,1.0
38.12921905517578,24.062334060668945,-2.077220916748047,-0.0,-0.0,-1.0,0.0748584188979351,1.0
38.02277374267578,23.963546752929688,-2.07405424118042,-0.0,-0.0,-1.0,0.0799927673609063,1.0
39.72114944458008,24.887184143066406,-2.0377073287963867,-0.0,-0.0,-1.0,0.1493663320510166,1.0
39.576995849609375,24.012123107910156,-1.9007269144058228,-0.0,-0.0,-1.0,0.2125313428630157,1.0
39.56199645996094,23.93895149230957,-1.889811873435974,-0.0,-0.0,-1.0,0.1693592464328083,1.0
38.54254150390625,23.781044006347656,-1.981100916862488,-0.0,-0.0,-1.0,0.1902568838542735,2.0
38.05723190307617,23.78796005249023,-2.0412817001342773,-0.0,-0.0,-1.0,0.0965209917361223,1.0
38.13753890991211,23.56580352783203,-1.9953941106796265,-0.0,-0.0,-1.0,0.0882263029882422,1.0
38.8248405456543,25.60009765625,-2.2361061573028564,-0.0,-0.0,-1.0,0.0963796400843721,1.0
38.97742462158203,25.305034637451172,-2.1662800312042236,-0.0,-0.0,-1.0,0.1671063878538448,2.0
38.343414306640625,25.372079849243164,-2.278855562210083,-0.0,-0.0,-1.0,0.085980163315664,1.0
40.06495666503906,23.9825382232666,-2.331503391265869,-0.0,-0.0,-1.0,0.0675803102759075,2.0
40.206886291503906,23.516307830810547,-2.216707706451416,-0.0,-0.0,-1.0,0.1755732759048183,1.0
39.866493225097656,23.6395263671875,-2.2941019535064697,-0.0,-0.0,-1.0,0.088204844953305,1.0
39.589324951171875,23.80426597595215,-2.370532512664795,-0.0,-0.0,-1.0,0.0546443242628544,1.0
38.462886810302734,24.610252380371097,-2.1377902030944824,-0.0,-0.0,-1.0,0.1474050672682987,2.0
38.275115966796875,24.54371452331543,-2.154477834701538,-0.0,-0.0,-1.0,0.1059561249126299,1.0
38.26375198364258,24.371227264404297,-2.128670454025269,-0.0,-0.0,-1.0,0.0734183545177877,1.0
38.05821228027344,24.416439056396484,-2.1665077209472656,-0.0,-0.0,-1.0,0.0180904213898431,1.0
37.91520690917969,24.0592041015625,-2.132416009902954,-0.0,-0.0,-1.0,0.0600127900318087,1.0
39.11979675292969,23.945310592651367,-1.935405969619751,-0.0,-0.0,-1.0,0.1542632829673251,1.0
38.393821716308594,23.59460830688477,-1.98704195022583,-0.0,-0.0,-1.0,0.170229413121699,1.0
37.93001937866211,23.535865783691406,-2.0499377250671387,-0.0,-0.0,-1.0,0.1149739926880629,1.0
38.54416275024414,25.58838653564453,-2.18123197555542,-0.0,-0.0,-1.0,0.0741994658966386,1.0
39.92971420288086,23.713294982910156,-2.203190565109253,-0.0,-0.0,-1.0,0.0754454537539001,1.0
39.723934173583984,23.54117202758789,-2.2027385234832764,0.6056831588615569,0.4496904696272891,-0.6564498401232758,0.0554805142286416,3.0
39.50519180297851,23.599790573120117,-2.249523639678955,-0.0,-0.0,-1.0,0.0450389881750461,1.0
39.25087356567383,23.29631805419922,-2.2345664501190186,-0.0,-0.0,-1.0,0.0476225801816098,1.0
40.15409851074219,25.24003219604492,-1.909259557723999,-0.0,-0.0,-1.0,0.1671105196372204,1.0
40.181915283203125,25.36079788208008,-1.9263765811920168,-0.0,-0.0,-1.0,0.1116153030588288,1.0
40.01800537109375,24.67574691772461,-1.831230401992798,-0.0,-0.0,-1.0,0.1282455977814077,1.0
39.40391540527344,25.278583526611328,-2.0130627155303955,-0.0,-0.0,-1.0,0.1242145358848027,1.0
38.86937713623047,25.18893051147461,-2.0709848403930664,-0.0,-0.0,-1.0,0.183443766299911,1.0
38.70399856567383,24.84642791748047,-2.0387723445892334,-0.0,-0.0,-1.0,0.1468158034505282,1.0
38.598087310791016,25.30442237854004,-2.127617120742798,-0.0,-0.0,-1.0,0.1308295168325239,1.0
38.329856872558594,25.19396209716797,-2.147885799407959,-0.0,-0.0,-1.0,0.1961894833417007,1.0
38.2232666015625,24.75986099243164,-2.0944831371307373,-0.0,-0.0,-1.0,0.2103319343484989,1.0
37.947242736816406,24.849952697753903,-2.1492278575897217,-0.0,-0.0,-1.0,0.1839366981463602,1.0
38.39677047729492,23.93206787109375,-1.9392504692077637,-0.0,-0.0,-1.0,0.1466502219218884,1.0
38.37922668457031,23.780242919921875,-1.9184238910675049,-0.0,-0.0,-1.0,0.256036810850298,1.0
37.84441375732422,23.897106170654297,-2.018082857131958,-0.0,-0.0,-1.0,0.1766157573165413,2.0
37.85996627807617,24.142162322998047,-2.052970170974731,-0.0,-0.0,-1.0,0.1282351634435278,1.0
37.93508529663086,23.6567325592041,-1.9677026271820068,-0.0,-0.0,-1.0,0.0696093281734044,1.0
40.10821914672851,24.771530151367188,-1.9416799545288088,-0.0,-0.0,-1.0,0.0982521828040331,1.0
39.65948867797851,25.08638381958008,-2.0636351108551025,0.654698448190814,-0.4366955593079559,-0.6169821151518509,0.1727019819230409,5.0
39.63111877441406,24.97454261779785,-2.0468626022338867,-0.0,-0.0,-1.0,0.2297836712871095,1.0
39.281856536865234,25.023174285888672,-2.106508255004883,-0.0,-0.0,-1.0,0.1345158755348227,1.0
39.00183868408203,25.091880798339844,-2.1606221199035645,-0.0,-0.0,-1.0,0.2098321611102291,1.0
38.66447067260742,25.552310943603516,-2.294997215270996,-0.0,-0.0,-1.0,0.0569110758877526,1.0
38.71731948852539,24.860523223876953,-2.162180185317993,-0.0,-0.0,-1.0,0.1015450853055059,2.0
40.01627349853515,23.54877662658691,-2.2131688594818115,-0.0,-0.0,-1.0,0.1834911322613896,2.0
38.438228607177734,24.723880767822266,-2.1816294193267822,-0.0,-0.0,-1.0,0.1041075806480716,1.0
38.2419319152832,24.645912170410156,-2.1992502212524414,-0.0,-0.0,-1.0,0.1065116847276069,2.0
39.85203552246094,23.421810150146484,-2.213830947875977,-0.3481240321860605,0.9365519906594414,0.0409881325063279,0.1168478076198969,3.0
39.63551712036133,23.379383087158203,-2.242562770843506,-0.0,-0.0,-1.0,0.0386361040563914,1.0
38.77511215209961,23.774255752563477,-1.9609754085540771,-0.0,-0.0,-1.0,0.0924394597960688,1.0
38.18878936767578,24.35834503173828,-2.157946825027466,-0.0,-0.0,-1.0,0.0538839880486609,1.0
38.27433395385742,23.763111114501953,-2.0416054725646973,-0.0,-0.0,-1.0,0.1670418686334939,1.0
38.137882232666016,23.890621185302734,-2.0862414836883545,-0.0,-0.0,-1.0,0.0976380366256159,1.0
38.09619903564453,23.54778289794922,-2.0353400707244873,-0.0,-0.0,-1.0,0.0858147946578868,1.0
39.470558166503906,23.980792999267575,-1.8883764743804932,-0.0,-0.0,-1.0,0.192450113165045,1.0
38.205841064453125,23.242916107177734,-1.9655234813690183,-0.0,-0.0,-1.0,0.0408627812136483,1.0
39.275787353515625,25.326229095458984,-2.1914846897125244,-0.0,-0.0,-1.0,0.1187761018939217,1.0
38.96225357055664,25.49638557434082,-2.2741057872772217,0.5797779314257154,-0.675505010555804,-0.4555771404995232,0.1263647831541636,3.0
38.76548385620117,25.09556770324707,-2.218251466751098,-0.0,-0.0,-1.0,0.1066526925109402,1.0
38.60869598388672,24.893142700195312,-2.200058937072754,-0.0,-0.0,-1.0,0.0829465027697366,2.0
39.62914276123047,25.046140670776367,-2.080249786376953,-0.0,-0.0,-1.0,0.1727019819230409,2.0
40.13166809082031,24.5175724029541,-1.894985914230347,0.9228679660632872,-0.0248080558064879,-0.384316637138329,0.0735478675909521,3.0
38.90520477294922,24.96945571899414,-2.169996500015259,-0.0,-0.0,-1.0,0.1407925407499897,2.0
38.785987854003906,24.899763107299805,-2.1736185550689697,-0.0,-0.0,-1.0,0.1267237586848416,1.0
38.57071304321289,24.792804718017575,-2.185192108154297,-0.0,-0.0,-1.0,0.0628625669399967,2.0
38.33888244628906,24.708492279052734,-2.2051074504852295,-0.0,-0.0,-1.0,0.0762903147974304,1.0
39.449859619140625,24.038558959960938,-1.8887231349945068,-0.0,-0.0,-1.0,0.1255550133732752,1.0
38.24275970458984,24.498598098754883,-2.1777915954589844,-0.0,-0.0,-1.0,0.072124090767758,1.0
38.41923522949219,23.851863861083984,-2.0158352851867676,-0.0,-0.0,-1.0,0.2156122106169859,1.0
38.073429107666016,24.02130126953125,-2.1097676753997803,-0.0,-0.0,-1.0,0.0558499424434322,1.0
38.11507415771485,23.609825134277344,-2.0199804306030273,-0.0,-0.0,-1.0,0.0869865866326806,1.0
37.71298599243164,24.01127815246582,-1.684274196624756,-0.0,-0.0,-1.0,0.1209787757639622,1.0
38.94904327392578,24.820613861083984,-1.8249155282974243,0.1307058076011551,0.5418107391071428,-0.830275324725179,0.0803275280813388,3.0
38.02809524536133,25.03722381591797,-2.0041441917419434,-0.7949574489691494,0.2660984827378013,-0.5451919403412915,0.1165527458014051,3.0
37.71343994140625,24.003801345825195,-1.8441137075424192,-0.9651187008477008,-0.17912245599039,-0.1909477390125814,0.1329098804587057,5.0
38.836952209472656,25.383766174316406,-2.000969409942627,-0.0,-0.0,-1.0,0.1366460517792314,1.0
38.00959014892578,25.164634704589844,-2.051927089691162,-0.9499170933999758,-0.2985697778449951,0.0922691900047458,0.1557524932943337,3.0
38.044044494628906,24.89555931091309,-1.9840039014816284,-0.0,-0.0,-1.0,0.1817548077424974,1.0
38.932518005371094,24.791030883789062,-1.846821904182434,0.5518403991869312,-0.3781504745104647,-0.7432862116659492,0.1196069437276418,5.0
40.06864929199219,23.276596069335938,-2.202115297317505,-0.0,-0.0,-1.0,0.1408527406959336,1.0
39.91871643066406,23.315982818603516,-2.190107822418213,-0.0,-0.0,-1.0,0.1129105340365941,1.0
40.14548110961914,24.637548446655273,-1.8735722303390503,-0.0,-0.0,-1.0,0.0757604170163973,1.0
39.40895462036133,23.956186294555664,-2.055981159210205,-0.0,-0.0,-1.0,0.1468706668359385,1.0
38.42802429199219,24.569684982299805,-2.0667810440063477,-0.0,-0.0,-1.0,0.1576131576360846,1.0
39.794219970703125,24.22182846069336,-2.1282458305358887,-0.0,-0.0,-1.0,0.1557026755931573,1.0
40.10952377319336,24.262182235717773,-2.161376953125,-0.0,-0.0,-1.0,0.1867592107379396,1.0
38.434837341308594,25.05208396911621,-2.1413912773132324,-0.0,-0.0,-1.0,0.1417342084769765,1.0
38.79569625854492,24.855457305908203,-2.140113353729248,-0.0,-0.0,-1.0,0.1338526219144968,2.0
40.152069091796875,24.76051139831543,-2.238558292388916,-0.0,-0.0,-1.0,0.1513021304601269,1.0
39.24637222290039,25.11683654785156,-2.2165207862854004,-0.0,-0.0,-1.0,0.1495319517166357,2.0
39.788028717041016,24.02422332763672,-2.2128448486328125,-0.0,-0.0,-1.0,0.1285720031156798,1.0
40.048152923583984,23.89657974243164,-2.216763496398926,-0.0,-0.0,-1.0,0.1160001337767534,1.0
38.05524444580078,25.030086517333984,-2.224505662918091,-0.0,-0.0,-1.0,0.195405300188827,1.0
38.154056549072266,25.153789520263672,-2.253152847290039,-0.9408036023220736,-0.1639580306921596,-0.2966586355212983,0.2242727859414084,3.0
38.02774429321289,25.610179901123047,-2.318830966949463,-0.0,-0.0,-1.0,0.0402131957080697,2.0
38.15974807739258,25.43667221069336,-2.300574779510498,0.9182488050266304,0.3515027788452213,-0.1823867553613823,0.0531976312691425,3.0
37.76505279541016,23.99771499633789,-2.0301575660705566,-0.0,-0.0,-1.0,0.1472657230479311,2.0
39.017601013183594,23.585954666137695,-2.073383331298828,-0.0,-0.0,-1.0,0.0911940874820471,1.0
37.75751876831055,24.29566192626953,-2.0784733295440674,-0.0,-0.0,-1.0,0.1034811013550563,2.0
39.90589141845703,23.207218170166016,-2.304961681365967,-0.0,-0.0,-1.0,0.0927328573721048,1.0
38.06645965576172,25.115001678466797,-2.1028127670288086,-0.0,-0.0,-1.0,0.1792147846385233,2.0
40.15007400512695,24.593027114868164,-1.93687903881073,-0.0,-0.0,-1.0,0.0757604170163973,2.0
38.02372741699219,25.172372817993164,-2.1178646087646484,-0.0,-0.0,-1.0,0.1656711222402804,2.0
38.992401123046875,25.142791748046875,-2.085188388824463,-0.0,-0.0,-1.0,0.1814529460614888,1.0
39.799171447753906,25.072105407714844,-2.0521936416625977,0.5154568916306804,-0.8452235256879773,-0.1410722669202629,0.2265795470915032,3.0
40.09710311889648,24.999656677246097,-2.030519962310791,-0.0,-0.0,-1.0,0.1927358509054304,1.0
39.979774475097656,25.200786590576172,-2.2352359294891357,-0.0,-0.0,-1.0,0.1308109814948703,2.0
39.82500076293945,25.56769371032715,-2.2748115062713623,-0.0,-0.0,-1.0,0.0912712089955805,1.0
40.08591079711914,23.5125732421875,-1.9981629848480225,-0.0,-0.0,-1.0,0.1958708549293726,1.0
37.71034240722656,23.98743438720703,-1.8305468559265137,-0.9651187008477008,-0.17912245599039,-0.1909477390125814,0.1221422135623137,5.0
39.64307403564453,24.07492446899414,-2.034047365188598,0.5439076401766314,0.7796710489506521,-0.3102862136571295,0.1981952269814221,3.0
40.20478820800781,24.04671859741211,-2.0881402492523193,-0.0,-0.0,-1.0,0.1207253868146382,1.0
39.36051940917969,24.40083885192871,-2.05374813079834,-0.0,-0.0,-1.0,0.1296338604694017,1.0
39.72883605957031,24.344404220581055,-2.0826127529144287,-0.0,-0.0,-1.0,0.1217397164342313,1.0
40.205284118652344,24.303409576416016,-2.125659942626953,-0.0,-0.0,-1.0,0.1049068456431127,1.0
38.01939392089844,25.13806915283203,-2.036958932876587,-0.9429596787242202,-0.32444196733056,0.0745952688512569,0.1571130878894421,4.0
39.00312805175781,24.964141845703125,-2.1032521724700928,-0.0,-0.0,-1.0,0.1421826642699082,2.0
40.18758010864258,24.537925720214844,-2.158184289932251,-0.0,-0.0,-1.0,0.1338085226064214,1.0
39.598514556884766,25.040054321289062,-2.173125982284546,-0.0,-0.0,-1.0,0.0938045903286035,2.0
40.08865737915039,25.012611389160156,-2.218177318572998,-0.0,-0.0,-1.0,0.1823459793084462,1.0
38.734474182128906,23.207855224609375,-2.198330879211426,-0.0,-0.0,-1.0,0.0404182172904497,1.0
40.16804122924805,24.30603790283203,-1.901821970939636,-0.0,-0.0,-1.0,0.136102611800366,1.0
40.1187629699707,24.521785736083984,-1.926247239112854,-0.0,-0.0,-1.0,0.093990096343414,2.0
39.00653076171875,23.6103515625,-2.19642972946167,-0.0,-0.0,-1.0,0.0451642928358841,1.0
39.32215118408203,23.763816833496097,-2.2577638626098633,-0.0,-0.0,-1.0,0.1234327591492887,2.0
39.70955657958984,23.50857162475586,-2.2534384727478027,-0.4752480065239227,0.8774267043143131,-0.0652817803920849,0.0656590240145327,3.0
40.02873992919922,23.48230743408203,-2.2840170860290527,-0.0,-0.0,-1.0,0.1356182172794466,1.0
38.99935150146485,23.963890075683594,-2.2606844902038574,-0.0,-0.0,-1.0,0.0725789082164153,1.0
39.50201416015625,23.87683486938477,-2.297517776489258,-0.0,-0.0,-1.0,0.1190501790081881,1.0
39.70999526977539,23.8400821685791,-2.231773853302002,-0.0,-0.0,-1.0,0.0915367152563018,1.0
39.99189758300781,23.634624481201172,-2.2243993282318115,-0.0,-0.0,-1.0,0.1397151802350917,1.0
39.589202880859375,24.029029846191406,-2.254014730453491,-0.0,-0.0,-1.0,0.1650778930751596,1.0
39.1863899230957,24.131168365478516,-2.269533157348633,-0.0,-0.0,-1.0,0.0728702005466206,1.0
38.62226867675781,23.362525939941406,-2.0813069343566895,-0.0,-0.0,-1.0,0.1258016282195108,1.0
38.86301803588867,23.735525131225582,-2.1712467670440674,-0.0,-0.0,-1.0,0.0489691416375398,1.0
39.21977615356445,23.606246948242188,-2.1533491611480713,-0.0,-0.0,-1.0,0.1053881350845246,1.0
39.96086120605469,24.257091522216797,-2.0436887741088867,-0.0,-0.0,-1.0,0.2325203330320885,1.0
37.848876953125,23.289791107177734,-1.817548394203186,-0.0,-0.0,-1.0,0.0596809214114238,1.0
40.106197357177734,24.241024017333984,-2.0091564655303955,-0.0,-0.0,-1.0,0.2205480397558219,1.0
38.48588562011719,23.542600631713867,-1.814537525177002,-0.0,-0.0,-1.0,0.1928019154116091,1.0
40.129493713378906,24.50819396972656,-1.8136388063430784,-0.0,-0.0,-1.0,0.0966784569860527,2.0
37.72612380981445,23.950510025024418,-1.7425726652145386,-0.0,-0.0,-1.0,0.1283535529323513,1.0
40.14498519897461,24.53412818908691,-1.8094444274902344,-0.0,-0.0,-1.0,0.0921380707143947,2.0
38.92687225341797,24.686046600341797,-1.809675455093384,-0.0,-0.0,-1.0,0.1618652628168886,1.0
40.14175033569336,23.16347312927246,-2.17551326751709,-0.0,-0.0,-1.0,0.1554678546800005,2.0
40.0253791809082,23.519939422607425,-2.2227225303649902,-0.0,-0.0,-1.0,0.1799062610004151,2.0
39.72395324707031,23.45584487915039,-2.2082371711730957,-0.5875556393190563,0.7028822772277519,-0.4009175414764303,0.0644168611154086,3.0
39.63457489013672,23.775754928588867,-2.251427173614502,-0.7658153826702128,0.640193953075376,-0.0606506563146571,0.060232376916325,4.0
40.0869140625,24.47675132751465,-1.9389914274215696,-0.0,-0.0,-1.0,0.1844028334346189,2.0
38.012447357177734,25.0389461517334,-1.9804869890213013,-0.0,-0.0,-1.0,0.0992710599141424,2.0
39.725250244140625,23.371078491210938,-2.2413687705993652,-0.0,-0.0,-1.0,0.0567659152656222,1.0
37.8220329284668,25.5878849029541,-2.3586971759796143,-0.0,-0.0,-1.0,0.0169621671941225,1.0
38.961158752441406,23.45757102966309,-2.1811020374298096,-0.0,-0.0,-1.0,0.0495103188911688,1.0
40.16696548461914,24.375112533569336,-2.1852593421936035,-0.0,-0.0,-1.0,0.1594856271667072,1.0
39.579368591308594,23.99876594543457,-2.104412078857422,-0.0,-0.0,-1.0,0.1669108619916292,2.0
39.64124298095703,24.348094940185547,-2.161398410797119,-0.0,-0.0,-1.0,0.1248764718076569,1.0
38.01267623901367,25.55986785888672,-2.306367874145508,-0.0,-0.0,-1.0,0.0162986941646912,1.0
40.18532180786133,23.365768432617188,-2.0362610816955566,-0.0,-0.0,-1.0,0.1879022093627247,2.0
40.13291931152344,24.320289611816406,-2.163050651550293,-0.0,-0.0,-1.0,0.1415925835430951,2.0
40.17425155639648,24.806739807128903,-2.234347105026245,-0.0,-0.0,-1.0,0.1319210516525906,1.0
40.0278205871582,23.418628692626953,-2.029890298843384,-0.0,-0.0,-1.0,0.1580652802513952,1.0
39.85612106323242,24.199222564697266,-2.1231205463409424,-0.0,-0.0,-1.0,0.1920862405322858,1.0
39.58634185791016,24.024627685546875,-2.0763723850250244,-0.0,-0.0,-1.0,0.1897976263173501,2.0
38.90756607055664,24.82799530029297,-2.135511636734009,-0.0,-0.0,-1.0,0.2052403741234223,1.0
37.781436920166016,23.94797134399414,-1.921037197113037,-0.0,-0.0,-1.0,0.1120554290338832,2.0
40.12578201293945,24.60884475708008,-1.8059035539627075,-0.0,-0.0,-1.0,0.0757604170163973,2.0
40.13972473144531,24.551801681518555,-1.8778488636016848,-0.4270515140879576,0.52567025141669,-0.7357294279085871,0.0902965499858343,4.0
39.14301300048828,23.173187255859375,-2.221425771713257,-0.0,-0.0,-1.0,0.0391492582286543,2.0
40.12355041503906,24.56269264221191,-1.8661117553710935,0.0935971981665013,0.7908302454497028,-0.6048364137329558,0.0847711867482504,3.0
38.94540786743164,24.768882751464844,-1.8091051578521729,-0.2979181227675008,-0.3432208059637983,-0.8907548879912185,0.1952987228746437,4.0
40.12594985961914,24.733226776123047,-2.032292366027832,-0.0,-0.0,-1.0,0.1079623236124039,1.0
39.71782684326172,25.160310745239254,-2.0549497604370117,-0.0,-0.0,-1.0,0.229088809527973,1.0
39.0869255065918,25.143157958984375,-1.9906716346740725,-0.0,-0.0,-1.0,0.1929178440438819,2.0
39.29362487792969,23.192441940307617,-2.228954315185547,-0.0,-0.0,-1.0,0.0427338668146558,1.0
38.02517318725586,24.96424865722656,-2.2685933113098145,-0.6906405505069089,0.6649819305890682,-0.2842791972437474,0.0455368987222488,3.0
38.01240921020508,25.39229965209961,-2.328824520111084,-0.0,-0.0,-1.0,0.0165170404625704,1.0
40.12601852416992,24.577241897583008,-1.846706509590149,0.0935971981665013,0.7908302454497028,-0.6048364137329558,0.0685074958249552,3.0
37.975791931152344,24.77299118041992,-2.234180450439453,-0.0,-0.0,-1.0,0.048614918407963,2.0
37.8404655456543,24.54747772216797,-2.1826086044311523,-0.0,-0.0,-1.0,0.0363781140347532,1.0
37.73004150390625,23.942840576171875,-2.082488536834717,-0.0,-0.0,-1.0,0.143019165862566,1.0
37.741722106933594,25.35680770874023,-2.3329296112060547,-0.0,-0.0,-1.0,0.021318169919337,1.0
37.82429122924805,24.932701110839844,-2.282104015350342,-0.0,-0.0,-1.0,0.0412800040857764,2.0
37.76884841918945,25.180397033691406,-2.3106069564819336,-0.0,-0.0,-1.0,0.025211548492031,1.0
40.18366241455078,24.2983455657959,-2.033374786376953,-0.0,-0.0,-1.0,0.1428415195448628,2.0
40.17179870605469,24.682302474975582,-2.065183639526367,-0.0,-0.0,-1.0,0.0660140006618656,2.0
39.779319763183594,25.05821228027344,-2.0414891242980957,0.4510121845685455,-0.8733701506620196,-0.1838819983122574,0.2343807198515034,4.0
40.197509765625,25.546649932861328,-2.296862840652466,-0.0,-0.0,-1.0,0.1401377801820015,1.0
40.20688247680664,24.869468688964844,-2.2408649921417236,-0.0,-0.0,-1.0,0.1267629109090529,2.0
40.07986831665039,24.630271911621097,-2.201145648956299,-0.0,-0.0,-1.0,0.1952983574040726,1.0
40.081207275390625,23.636186599731445,-2.127037286758423,-0.0,-0.0,-1.0,0.1958230510190583,1.0
40.20594787597656,25.265438079833984,-2.22160005569458,-0.0,-0.0,-1.0,0.0954368540918003,1.0
40.049930572509766,25.57305908203125,-2.218754768371582,-0.0,-0.0,-1.0,0.1415936780686802,1.0
39.98182678222656,24.802440643310547,-2.1543986797332764,-0.0,-0.0,-1.0,0.2149434146180858,1.0
39.53083038330078,25.229267120361328,-2.1118531227111816,-0.0,-0.0,-1.0,0.0994991989802153,1.0
40.06097412109375,24.463417053222656,-2.145604133605957,0.0646340720362125,-0.904808659774553,-0.4208844567443592,0.2384722701461978,4.0
39.89915466308594,24.656721115112305,-2.1315712928771973,-0.0,-0.0,-1.0,0.1212344455399991,1.0
40.20561981201172,23.84043884277344,-2.132721185684204,-0.0,-0.0,-1.0,0.0922251752990114,1.0
39.46994400024414,24.272216796875,-2.037710666656494,-0.0,-0.0,-1.0,0.1354847330728722,1.0
40.11154556274414,25.167400360107425,-2.110661745071411,-0.0,-0.0,-1.0,0.1900397730259594,1.0
40.087913513183594,24.781755447387695,-2.0866804122924805,-0.0,-0.0,-1.0,0.2363793466837521,1.0
39.564849853515625,25.180177688598633,-2.025576591491699,-0.0,-0.0,-1.0,0.1545346173901901,1.0
39.96404266357422,24.518081665039062,-2.0538172721862793,-0.0,-0.0,-1.0,0.1320071247105801,1.0
39.430152893066406,24.187164306640625,-1.952686071395874,-0.0,-0.0,-1.0,0.1167586519269004,1.0
40.00071334838867,23.487361907958984,-2.013859748840332,-0.0,-0.0,-1.0,0.1889850247937163,1.0
40.20087814331055,25.43109893798828,-2.2805581092834473,-0.0,-0.0,-1.0,0.1122126624616168,1.0
40.10716247558594,25.55200958251953,-2.2643895149230957,-0.0,-0.0,-1.0,0.1394006921996508,1.0
39.91071701049805,25.63344383239746,-2.2300686836242676,0.2336844035741469,-0.940827671789202,-0.2454279762413093,0.0866911768015139,3.0
40.09593963623047,25.09138298034668,-2.261262893676758,-0.0,-0.0,-1.0,0.1429869220869627,1.0
39.992225646972656,24.835771560668945,-2.242764472961426,-0.0,-0.0,-1.0,0.1831410541409971,1.0
39.780757904052734,24.911340713500977,-2.2047014236450195,-0.0,-0.0,-1.0,0.2658670018755606,1.0
37.72047805786133,23.979900360107425,-1.8360610008239744,-0.410899695464696,-0.7793638097363196,-0.4730258897146217,0.1221422135623137,6.0
