x,y,z,nx,ny,nz,curvature,density
9.964738845825195,-0.0245618820190429,0.1300534009933471,-0.0,-0.0,-1.0,0.1239270339931818,1.0
10.681222915649414,-0.3498878479003906,0.1132498979568481,-0.0,-0.0,-1.0,0.0643016516251315,1.0
9.913853645324709,0.8892488479614258,0.2010180950164795,0.4876960161759087,-0.7396547494010585,-0.463749336920933,0.2272377623196671,6.0
9.923206329345703,0.5722560882568359,0.1768605709075927,-0.0,-0.0,-1.0,0.1007077657682055,2.0
10.870421409606934,-0.2711439132690429,0.1222262382507324,0.0183692263698551,-0.9694481365540494,-0.2446076083331314,0.1919666565571983,5.0
11.559925079345703,1.3622722625732422,-0.0017557144165039,-0.468357660074118,-0.1170344650996354,-0.875753410629236,0.0495626225712443,3.0
11.63089656829834,1.165231704711914,-0.0195720195770263,-0.0802492258495723,0.5447940525763159,-0.8347212121588972,0.0331583102827816,3.0
9.81903076171875,0.7449264526367188,0.3731374144554138,-0.6335555383624027,-0.7044379895460974,-0.3199601517292092,0.1227524413503904,4.0
9.81736183166504,0.4643783569335937,0.353469967842102,-0.0611922747965741,-0.9808973938303234,0.184650503064845,0.0990273152024765,3.0
9.854567527770996,0.0075502395629882,0.3213825225830078,-0.0,-0.0,-1.0,0.1432342363278536,2.0
11.584233283996582,1.4944438934326172,0.0126045942306518,-0.0,-0.0,-1.0,0.0780812802547385,1.0
9.77401638031006,0.0122919082641601,0.2413791418075561,-0.0,-0.0,-1.0,0.1140629804638178,2.0
9.86086082458496,0.7446880340576172,0.2984349727630615,-0.0,-0.0,-1.0,0.1087594489562729,2.0
9.862730026245115,0.4930286407470703,0.2797448635101318,-0.8815413372856715,-0.3400536513318129,-0.3274879919516002,0.1297389192682595,3.0
9.917853355407717,0.0599260330200195,0.2480174303054809,-0.7585651504996902,0.2960903870142714,-0.580438967648728,0.2357852667275209,5.0
10.631010055541992,-0.3594827651977539,0.227644681930542,-0.5160395856182812,0.7634086486362395,-0.3884718538868715,0.0785926986446742,8.0
10.424775123596191,1.5358161926269531,-0.0401177406311035,-0.0,-0.0,-1.0,0.0691835401773174,2.0
11.171480178833008,0.7749338150024414,-0.0503695011138916,-0.0,-0.0,-1.0,0.0281987458208741,2.0
11.32528305053711,0.8183746337890625,-0.0379464626312255,-0.0,-0.0,-1.0,0.0346451592955964,2.0
11.47276496887207,1.3790693283081057,0.0157762765884399,-0.0976189994197827,-0.9380492551568036,-0.3324667289399744,0.0626501177890784,4.0
11.600301742553713,1.0443191528320312,-0.0036287307739257,-0.0,-0.0,-1.0,0.0327538888916034,2.0
9.809368133544922,0.7716207504272461,0.3692253828048706,0.8174368134237465,-0.1483413178204298,0.5565895341155175,0.1547653708692959,4.0
9.926224708557127,-0.0478744506835937,0.333921730518341,-0.4762096404017082,0.1473611930398307,-0.8668962205329731,0.1547954727306801,3.0
9.772754669189451,0.0032119750976562,0.2179839611053466,-0.0,-0.0,-1.0,0.1166264332887792,2.0
9.873031616210938,0.6033420562744141,0.2632362842559814,0.6107228492261615,0.0745442736106188,-0.7883278205828744,0.1028680306053799,3.0
9.938406944274902,0.0697135925292968,0.226853609085083,-0.7566079662215394,0.3001429675126653,-0.5809118560528759,0.1838988885639802,4.0
9.84858226776123,0.9234409332275392,0.2846193313598633,0.7150695188304826,0.2023065604590629,-0.6691394763685413,0.1232051975663201,8.0
9.887389183044434,0.7861261367797852,0.2763391733169555,0.8173685856168512,-0.1507188239434539,0.5560507453064066,0.1251044733155574,3.0
10.774981498718262,-0.3438224792480469,0.2125180959701538,0.5255077603243364,-0.83239040228334,-0.175976737171362,0.1437654618035944,5.0
10.535042762756348,0.0754375457763671,-0.0001664161682128,-0.0,-0.0,-1.0,0.057501686738919,1.0
10.572010040283203,-0.0326223373413085,-0.0070332288742065,-0.0,-0.0,-1.0,0.0862026663958796,1.0
10.88752555847168,-0.3577089309692383,-0.0203191041946411,-0.0,-0.0,-1.0,0.1343137508566868,2.0
9.784063339233398,1.2040433883666992,0.0454555749893188,-0.0,-0.0,-1.0,0.0440736583402372,1.0
9.953207969665527,1.0932989120483398,0.0468286275863647,-0.0,-0.0,-1.0,0.0629010924080812,1.0
10.22446346282959,0.5851430892944336,0.0242115259170532,-0.0,-0.0,-1.0,0.0289971632809284,2.0
10.55822467803955,0.3520402908325195,0.0220485925674438,-0.0,-0.0,-1.0,0.0226960979589347,1.0
10.365875244140623,1.1758317947387695,0.0735864639282226,-0.7291636393281874,-0.0573782033398337,-0.6819297096205487,0.0758876951393771,3.0
10.443802833557127,0.9213123321533204,0.0591341257095336,-0.0,-0.0,-1.0,0.061432888643642,2.0
10.859795570373535,0.7972679138183594,0.0694564580917358,-0.0,-0.0,-1.0,0.0848571813909922,1.0
11.387935638427734,-0.0065908432006835,0.0275615453720092,-0.0,-0.0,-1.0,0.0428653444707611,1.0
10.080182075500488,-0.1876811981201172,0.487210750579834,-0.0,-0.0,-1.0,0.1327736122837027,2.0
9.748847007751465,0.8359394073486328,0.5292055606842041,0.2381817684480422,-0.4439469117507687,-0.8638174487274027,0.1846856744221229,11.0
9.740047454833984,0.8960838317871094,0.5317038297653198,0.3649459182034579,-0.4408689151126297,-0.820029924133289,0.1273270231329198,6.0
11.26986598968506,0.2849407196044922,-0.03898286819458,-0.0,-0.0,-1.0,0.0579724395127194,1.0
11.462038040161133,0.0970325469970703,-0.0341361761093139,-0.0,-0.0,-1.0,0.061297248548553,1.0
10.956096649169922,0.6661205291748047,-0.045242428779602,-0.0,-0.0,-1.0,0.0553335008134039,2.0
11.078291893005373,1.094904899597168,-0.0158045291900634,-0.0,-0.0,-1.0,0.0179543801835162,2.0
11.16332721710205,1.5064153671264648,0.0091092586517333,-0.0,-0.0,-1.0,0.1052589627814009,1.0
11.204318046569824,1.4223947525024414,0.0089714527130126,-0.1889515899818331,0.3316218119054498,-0.924296635562352,0.102535005652298,3.0
9.810298919677734,0.6399984359741211,0.3895928263664245,-0.0,-0.0,-1.0,0.1593655085254645,2.0
9.914166450500488,0.0507688522338867,0.0939545631408691,-0.0,-0.0,-1.0,0.1163778558880213,1.0
10.478179931640623,-0.3293294906616211,0.1467210054397583,-0.0,-0.0,-1.0,0.0752080157928513,1.0
10.848152160644531,-0.3160133361816406,0.1807354688644409,0.3112814063408259,-0.5746796310719228,-0.7568667040486826,0.171433873432831,3.0
9.869913101196287,0.2417984008789062,0.0893757343292236,-0.0,-0.0,-1.0,0.1139027803806402,1.0
9.93303680419922,0.1361503601074218,0.0957200527191162,0.3682306766206386,0.9188272803764092,-0.1419950619972333,0.1899664701194957,3.0
9.984079360961914,0.7112541198730469,0.0991815328598022,-0.0,-0.0,-1.0,0.1085672579813321,2.0
10.032536506652832,0.5479888916015625,0.1046406030654907,-0.2363018382065508,-0.4522226124376832,-0.8600326447642798,0.0968837834793943,5.0
9.714271545410156,1.3251466751098633,0.0672893524169921,-0.0,-0.0,-1.0,0.0360785459491632,2.0
9.87110710144043,1.1450138092041016,0.0851075649261474,-0.0,-0.0,-1.0,0.0650457844032936,2.0
10.074525833129885,1.0591754913330078,0.1064316034317016,-0.0,-0.0,-1.0,0.0672489250326831,1.0
11.201086044311523,0.5612926483154297,-0.052762746810913,-0.0,-0.0,-1.0,0.0242895783567126,1.0
9.827049255371094,0.93729829788208,0.1726473569869995,-0.0,-0.0,-1.0,0.1155436303751452,2.0
10.005577087402344,0.5753893852233887,0.1704459190368652,-0.0,-0.0,-1.0,0.1393470493503471,2.0
9.897663116455078,0.3449997901916504,0.1608608961105346,-0.0,-0.0,-1.0,0.0960089197172747,1.0
10.026592254638672,0.779876708984375,0.1761527061462402,0.7547319485891869,-0.088712726773229,0.6500074906393218,0.1339568197026002,3.0
9.716712951660156,1.0799427032470703,0.3538528680801391,-0.0,-0.0,-1.0,0.1481291521670337,1.0
9.854499816894531,0.904000759124756,0.3546023368835449,0.5635384428960915,0.825948913420572,0.0152583025800811,0.1163363611774249,3.0
9.86305809020996,0.6575798988342285,0.3501443862915039,0.682395874294808,-0.5273494242169127,-0.5062000153333815,0.1481241226869381,5.0
10.882965087890623,-0.2575516700744629,0.3598511219024658,-0.0,-0.0,-1.0,0.0939613366094006,2.0
9.726221084594728,1.0821104049682615,0.1994924545288086,-0.0,-0.0,-1.0,0.0806042691688149,2.0
9.877408981323242,0.6019463539123535,0.1971588134765625,-0.0,-0.0,-1.0,0.0742567686769749,1.0
9.98387336730957,0.1668906211853027,0.1933494806289672,-0.0,-0.0,-1.0,0.1341385896778957,1.0
9.953407287597656,0.9163093566894532,0.2049849033355713,0.4532292567464678,-0.378329301143749,-0.8071246376645473,0.1478946449671427,5.0
10.886009216308594,-0.2540974617004394,0.2168500423431396,0.8586980170046528,0.5072202734547265,0.0732482749884909,0.2571634250762123,3.0
11.17584228515625,0.9770774841308594,-0.0144892930984497,-0.0,-0.0,-1.0,0.0356117425779066,2.0
11.531778335571287,1.3960015773773191,0.0087897777557373,0.7264584700631622,0.4482248789488487,-0.5209151074453297,0.0596792503232645,6.0
11.500322341918944,1.30257248878479,0.0057837963104248,-0.0,-0.0,-1.0,0.0481956365626436,2.0
9.964101791381836,1.0884358882904053,0.1357417106628418,-0.0,-0.0,-1.0,0.0753451304178773,1.0
9.995750427246094,0.5891673564910889,0.139998197555542,-0.0,-0.0,-1.0,0.1082111455333123,2.0
9.919614791870115,0.1839954853057861,0.1387813091278076,-0.0,-0.0,-1.0,0.135490435852784,2.0
9.967769622802734,0.0379085540771484,0.1412626504898071,-0.260682380593138,0.8972880739053956,0.3562566615172819,0.1592310767348402,6.0
9.898523330688477,0.8935334086418152,0.1821022033691406,0.153071454503709,0.9664825265362852,-0.2061083591612839,0.1525117035278027,5.0
9.873891830444336,0.4229254722595215,0.1794193983078003,-0.0,-0.0,-1.0,0.1068081479779385,2.0
9.943655014038086,0.0214354991912841,0.1800891160964965,-0.0200667591926163,0.9963306743940524,0.0832016372254692,0.1003636675666226,5.0
10.023181915283203,0.8281465768814087,0.1867003440856933,-0.0,-0.0,-1.0,0.1480140549535217,2.0
9.71021842956543,0.7934657335281372,0.178181767463684,-0.0,-0.0,-1.0,0.1546498327943277,1.0
9.928058624267578,1.0400846004486084,0.1836240291595459,-0.0,-0.0,-1.0,0.1158176867614443,1.0
9.924848556518556,0.7842586636543274,0.1785041093826294,-0.0,-0.0,-1.0,0.1415747262455944,2.0
9.90677261352539,0.4661030173301697,0.180906057357788,-0.0,-0.0,-1.0,0.1401734306631094,2.0
9.77065086364746,0.2319110631942749,0.177960991859436,-0.0,-0.0,-1.0,0.1420979584924107,1.0
9.849088668823242,0.7761130332946777,0.5750950574874878,-0.0,-0.0,-1.0,0.1114327828996756,1.0
9.880500793457031,0.8540019989013672,0.3235164880752563,0.8742043951076732,0.2399145848111613,-0.4221465001268103,0.1336945119773017,8.0
9.94427490234375,0.6021831035614014,0.3276025652885437,-0.0,-0.0,-1.0,0.1186212722358567,1.0
9.863943099975586,0.464210033416748,0.3258841037750244,-0.0,-0.0,-1.0,0.1273475037026024,2.0
11.335832595825195,1.6085991859436035,-0.0145065784454345,0.5763638322081064,-0.3925776565878091,-0.716719970748974,0.0908798189466581,3.0
11.512659072875977,1.382617473602295,-0.0044718980789184,-0.0466832487109823,-0.9339796828625064,-0.3542634983876273,0.0596792503232645,6.0
11.086971282958984,0.6177592277526855,-0.0206748247146606,-0.0,-0.0,-1.0,0.0389097721216906,2.0
10.694318771362305,0.059131383895874,-0.0373151302337646,-0.9735359711450632,-0.2102757915655425,-0.0895086831995827,0.0547899813984889,3.0
10.995861053466797,1.577746868133545,0.0568698644638061,-0.0,-0.0,-1.0,0.0802850819352327,2.0
10.52358627319336,1.4177374839782717,0.0380239486694335,0.243277907263257,0.7760408220752381,-0.5818732699741401,0.0448933347574388,3.0
10.511096954345703,1.2312922477722168,0.0394524335861206,-0.0,-0.0,-1.0,0.0263027705957181,2.0
10.255355834960938,0.7996406555175781,0.0325499773025512,-0.0,-0.0,-1.0,0.0415061548282768,1.0
10.151073455810549,0.6788434982299805,0.0291084051132202,-0.0,-0.0,-1.0,0.0564197760270328,1.0
10.378179550170898,0.1699686050415039,0.0435793399810791,-0.0,-0.0,-1.0,0.0451495472997721,1.0
10.372087478637695,0.0286564826965332,0.0444700717926025,-0.0,-0.0,-1.0,0.0569319926217796,1.0
9.870534896850586,0.8934857845306396,0.3315622806549072,0.9345682685584484,0.3514445291733883,0.0553976020939473,0.1625702261782336,5.0
9.865842819213867,0.6597082614898682,0.3323234319686889,0.682395874294808,-0.5273494242169127,-0.5062000153333815,0.1556084601234862,5.0
9.84404754638672,1.0481760501861572,0.2616182565689087,-0.0,-0.0,-1.0,0.2024230681150291,1.0
9.749029159545898,0.7407572269439697,0.2499369382858276,-0.0,-0.0,-1.0,0.169613281331058,1.0
10.525629043579102,1.599374532699585,0.045855164527893,-0.0,-0.0,-1.0,0.0493654686464815,1.0
10.478666305541992,1.4309499263763428,0.0368645191192626,0.1457271891825362,0.4167074434605401,-0.8972839533266701,0.0477379048268649,3.0
10.971588134765623,0.8787147998809814,0.0432868003845214,0.2693723534979052,0.9140049884059938,-0.3033700979660963,0.0704568749771182,3.0
10.48379898071289,0.8271052837371826,0.0138784646987915,-0.0,-0.0,-1.0,0.035091192481692,1.0
10.558935165405272,0.2676012516021728,-0.0040929317474365,-0.9891554946029072,0.038043435053714,0.1418594534960295,0.030637649891336,3.0
9.750577926635742,0.8681507110595703,0.6134771108627319,0.3927173754615471,0.8246529307446713,-0.4070879595674853,0.2650755849121157,4.0
9.869535446166992,0.8843145370483398,0.3019511699676513,0.5993767784934599,-0.2742311738408436,-0.752027087741309,0.1350966997338417,6.0
9.827310562133787,0.6117501258850098,0.295484185218811,0.8169733949883046,-0.5535612620472217,0.1616304459004275,0.1371193140517998,4.0
9.85044288635254,0.9618020057678224,0.3115359544754028,0.9869156401913416,0.0577585786125287,-0.1505372569909994,0.2001412087543321,3.0
9.86430549621582,0.7807765007019043,0.3088210821151733,0.697593807926359,-0.3052675082796708,0.6482087839049414,0.1080182753094461,8.0
9.799272537231444,0.5729703903198242,0.3019406795501709,-0.6057966983317422,0.3164607966833631,-0.729974605347947,0.0912247569402496,3.0
9.8179931640625,0.7968721389770508,0.5328961610794067,0.9025270279247144,0.4161065350997317,0.1109067865943186,0.1502353878584888,4.0
9.948793411254885,0.7606902122497559,0.1555575132369995,-0.0,-0.0,-1.0,0.1195539016246881,2.0
9.917240142822266,0.4719414710998535,0.1385583877563476,-0.7762337454551165,-0.249174096664218,-0.5791143600087052,0.155378291401373,6.0
9.759349822998049,1.2785258293151855,0.8478268384933472,-0.0,-0.0,-1.0,0.0872317788541919,1.0
10.052099227905272,0.7791552543640137,-0.0331748723983764,-0.0,-0.0,-1.0,0.0908277296400689,1.0
9.93162727355957,0.5266914367675781,-0.0302731990814209,-0.0,-0.0,-1.0,0.1433567154381382,1.0
10.32513427734375,1.1066069602966309,0.1552323102951049,-0.0,-0.0,-1.0,0.071332479252931,1.0
10.033483505249023,0.6324400901794434,0.1592967510223388,-0.0,-0.0,-1.0,0.0798365417237194,1.0
11.15977668762207,0.3766250610351562,0.0250964164733886,-0.0,-0.0,-1.0,0.0603514361482451,2.0
10.263397216796877,1.0866985321044922,0.1394752264022827,-0.0,-0.0,-1.0,0.0479226951326548,2.0
9.990114212036133,0.6408810615539551,0.1304123401641845,-0.0,-0.0,-1.0,0.0995322349168131,1.0
10.121261596679688,0.9831700325012208,0.1331397294998169,-0.8487256655992007,0.2347916302573476,-0.4738540227900268,0.0736986148034936,4.0
9.969627380371094,0.438817024230957,0.1318309307098388,-0.0,-0.0,-1.0,0.1295964481511565,2.0
11.485292434692385,1.5199689865112305,-0.034069538116455,-0.0,-0.0,-1.0,0.0722316781550074,1.0
10.980752944946287,0.8323345184326172,0.0029535293579101,0.5275974767370011,-0.1891263571847437,-0.8281739693800925,0.0757809874251444,7.0
10.949758529663086,0.7706537246704102,0.0068000555038452,-0.0,-0.0,-1.0,0.0916532843295039,1.0
10.605812072753906,0.7894010543823242,-0.0096136331558227,-0.0,-0.0,-1.0,0.0173905582971941,1.0
10.526338577270508,0.4109244346618652,0.0184328556060791,-0.0,-0.0,-1.0,0.0179747789151091,2.0
10.31049919128418,0.666541576385498,-0.0121271610260009,-0.0,-0.0,-1.0,0.0201548953679188,1.0
9.931150436401367,0.8454701900482178,0.2561150789260864,-0.0,-0.0,-1.0,0.1360170631104702,2.0
9.810165405273438,0.5053732395172119,0.2880917191505432,0.3067647012049648,-0.1959572004705229,-0.9313947571671124,0.0632384518103781,3.0
10.057575225830078,0.1360745429992675,0.3337913751602173,-0.790631762758487,0.0817795850727575,0.6068059946825961,0.138915412817331,3.0
10.06319808959961,0.9607579708099364,0.1552929878234863,-0.0,-0.0,-1.0,0.0623307881326445,2.0
9.891515731811523,1.219606637954712,0.1247457265853881,-0.0,-0.0,-1.0,0.0645600874384939,1.0
9.74726104736328,1.628786325454712,0.0810229778289794,-0.0,-0.0,-1.0,0.0256972267758726,1.0
9.884475708007812,0.4137594699859619,0.1955683231353759,-0.0,-0.0,-1.0,0.1070836031129696,2.0
9.93193817138672,0.7015299797058105,0.1726548671722412,-0.0,-0.0,-1.0,0.1125844642560546,1.0
11.64641571044922,1.5498597621917725,-0.1596866846084594,-0.0,-0.0,-1.0,0.0778783448885866,1.0
10.85416316986084,-0.3371510505676269,0.2902784347534179,-0.0,-0.0,-1.0,0.1071739407970278,2.0
10.065926551818848,0.519495964050293,0.104194164276123,-0.4849792598309634,-0.5577797546238293,-0.6735553896047393,0.058772328867192,3.0
10.082870483398438,0.9696860313415528,0.0906773805618286,-0.0,-0.0,-1.0,0.0620325917096219,2.0
9.743576049804688,1.263420581817627,0.0489033460617065,0.3706006804782684,-0.8675231363694693,-0.3317510263627279,0.0412545793533355,3.0
10.764580726623535,-0.3460903167724609,0.2231299877166748,0.5255077603243364,-0.83239040228334,-0.175976737171362,0.1424630718074458,5.0
10.648895263671877,-0.349522590637207,0.214369535446167,-0.0238858653503661,0.8063561886570119,-0.5909476816529539,0.098535400449213,8.0
10.861238479614258,-0.3077707290649414,0.023497462272644,0.3644302816129088,-0.7971753719576129,0.4813543353786042,0.1364402575060274,5.0
10.75059986114502,-0.2377424240112304,0.0143697261810302,0.810046219948768,-0.2886011949295064,-0.5104257750466498,0.1995851875658575,3.0
10.809057235717772,-0.3420162200927734,0.4398490190505981,0.9414414982973266,-0.2449488684341072,-0.2317066186722668,0.0715129445122784,3.0
11.590232849121094,-0.2567377090454101,0.033589482307434,-0.0,-0.0,-1.0,0.0978957104492811,2.0
9.869037628173828,0.7928600311279297,0.4670904874801636,-0.0,-0.0,-1.0,0.2008051619927959,1.0
9.826154708862305,0.8501453399658203,0.5901768803596497,-0.0,-0.0,-1.0,0.1989704699225092,2.0
9.86071491241455,1.0016021728515625,0.1423993110656738,-0.0,-0.0,-1.0,0.1156825399907379,1.0
11.082130432128906,0.7788982391357422,0.0106184482574462,0.0238153589586793,0.9239871789365448,-0.3816811782608031,0.0652935163436369,4.0
11.020792007446287,0.7802066802978516,0.0163745880126953,0.4031994760573369,0.5214456140911428,-0.7520137326220849,0.0747253553085605,5.0
10.747854232788086,0.046518325805664,-0.0253671407699584,-0.0,-0.0,-1.0,0.0422178110612943,1.0
11.626208305358888,0.1817588806152343,-0.0939927101135253,-0.0,-0.0,-1.0,0.0344667172702671,2.0
10.9852876663208,-0.2911491394042969,-0.0779447555541992,-0.0,-0.0,-1.0,0.1049257229599235,1.0
9.874001502990724,1.632889747619629,0.0024452209472656,-0.0,-0.0,-1.0,0.0180388057864256,1.0
9.912946701049805,0.8138084411621094,0.5156981945037842,-0.0,-0.0,-1.0,0.1760311640509566,1.0
10.248486518859863,-0.14227294921875,0.4084324836730957,-0.0,-0.0,-1.0,0.1245182203421791,1.0
9.851710319519045,0.9578380584716796,0.2069677114486694,0.9150403054113532,-0.3771277123028037,-0.1430941231705609,0.2027189634033084,4.0
11.056686401367188,-0.3346710205078125,-0.0156784057617187,-0.0,-0.0,-1.0,0.0983472527967361,1.0
9.79050064086914,0.9938020706176758,0.1346081495285034,-0.0,-0.0,-1.0,0.1067168523356427,1.0
11.012754440307615,-0.3617076873779297,-0.0148298740386962,-0.0,-0.0,-1.0,0.1032898159794614,1.0
11.577800750732422,0.0602226257324218,-0.0009597539901733,-0.0,-0.0,-1.0,0.04368694585778,1.0
10.065811157226562,0.0626478195190429,0.3249638676643371,-0.0,-0.0,-1.0,0.1066922283200708,2.0
9.90277862548828,0.7256679534912109,0.3733449578285217,-0.7491335242478553,-0.6008910334680897,-0.2787990831147754,0.1868207809383138,3.0
9.810620307922363,0.9787654876708984,0.267736554145813,-0.0,-0.0,-1.0,0.1852749871231587,2.0
10.650819778442385,-0.3198575973510742,0.028041124343872,0.0199667143518449,-0.7085149220048466,-0.7054133083621675,0.1133328899594697,5.0
10.971055030822754,-0.3263206481933594,-0.0127109289169311,0.9906105145967888,-0.0290772858656606,-0.133586375865851,0.1356502513643717,4.0
11.665301322937012,0.7947854995727539,0.0208387374877929,0.2570436159909092,0.5926009974078332,-0.7633823664125068,0.0393534807232926,3.0
11.489859580993652,0.0310955047607421,-0.0400898456573486,0.700704808158283,-0.4961695468987194,-0.5126680724934836,0.0503506585075022,3.0
9.77634048461914,0.9288969039916992,0.2711811065673828,-0.0,-0.0,-1.0,0.1317369927917721,1.0
10.789466857910156,-0.2221260070800781,0.0708595514297485,-0.0,-0.0,-1.0,0.1203055938789559,2.0
11.439122200012209,-0.3428449630737304,-0.0035821199417114,-0.0,-0.0,-1.0,0.0337992532341115,2.0
11.693716049194336,-0.1592521667480468,-0.0105036497116088,-0.0,-0.0,-1.0,0.0317054146700656,1.0
9.757946968078612,0.846095085144043,0.3905390501022339,-0.0,-0.0,-1.0,0.1028341617755151,2.0
9.872068405151367,0.0694026947021484,0.3178095817565918,-0.0,-0.0,-1.0,0.2289905095703679,2.0
10.626105308532717,-0.3130064010620117,0.2367900609970092,0.2751993593104148,0.657788746154731,-0.7011271482886138,0.0740799227261866,8.0
9.862820625305176,0.067112922668457,0.2863919734954834,-0.0,-0.0,-1.0,0.1622579485472597,2.0
9.83054256439209,0.7680215835571289,0.3401094675064087,0.8259535649009847,-0.199598939682312,0.5272200412589145,0.1324278501767907,7.0
9.832416534423828,0.6278247833251953,0.3294461965560913,0.7705370399340006,-0.5786418750375832,-0.2672943144601813,0.1510230589471843,6.0
10.652323722839355,-0.3196821212768554,0.2460908889770507,-0.3275300192801491,0.7049004290434531,-0.6291577477904098,0.0922280707206283,8.0
9.814002990722656,0.9316673278808594,0.3526588678359985,-0.0,-0.0,-1.0,0.1320981750894546,2.0
10.824195861816406,-0.2645015716552734,0.2476605176925659,-0.0,-0.0,-1.0,0.1927949747435214,2.0
9.736831665039062,0.9946203231811525,0.3580555319786072,-0.1885222325634805,0.6803608120845297,-0.708215033170689,0.1079292654099801,5.0
10.121292114257812,0.4922952651977539,0.0611391067504882,-0.7740776335881332,0.5495005387689084,-0.314408929693918,0.0391074642976129,3.0
10.187451362609863,0.2137584686279297,0.0376944541931152,-0.0,-0.0,-1.0,0.0269018268408087,2.0
10.494171142578123,0.0835351943969726,0.0279865264892578,-0.0,-0.0,-1.0,0.050348377504888,1.0
10.807228088378906,-0.3391523361206054,-0.0090111494064331,-0.0,-0.0,-1.0,0.1280998288378994,2.0
10.257607460021973,0.940683364868164,0.1007030010223388,-0.0,-0.0,-1.0,0.0450991642951318,1.0
10.566184997558594,0.2733030319213867,0.0449295043945312,-0.9891554946029072,0.038043435053714,0.1418594534960295,0.030637649891336,3.0
11.492494583129885,-0.2453956604003906,-0.0035033226013183,-0.0,-0.0,-1.0,0.0429597404623956,2.0
11.597471237182615,-0.3173627853393554,-0.0109891891479492,-0.0,-0.0,-1.0,0.0953737281330424,1.0
10.151573181152344,-0.1626749038696289,0.5069940090179443,-0.0,-0.0,-1.0,0.1030865348914808,2.0
9.740961074829102,0.8304615020751953,0.5608330965042114,0.6659097334928028,-0.169056879219111,0.7266250741807906,0.1398058125214112,9.0
10.446216583251951,0.5416727066040039,-0.018274188041687,-0.0,-0.0,-1.0,0.0146128052755803,1.0
10.077728271484377,1.0341644287109375,0.0270520448684692,-0.0,-0.0,-1.0,0.0467120651803612,2.0
10.356045722961426,1.1325759887695312,0.0397206544876098,-0.0,-0.0,-1.0,0.0918160863465519,1.0
10.79175090789795,0.7669858932495117,0.006226897239685,-0.0,-0.0,-1.0,0.0543185733238171,2.0
11.093587875366213,0.5338726043701172,-0.0170873403549194,-0.0,-0.0,-1.0,0.0241452057365979,1.0
11.272289276123049,0.3763971328735351,-0.0336805582046508,-0.0,-0.0,-1.0,0.079636562778099,2.0
11.65605926513672,0.1416940689086914,-0.0604089498519897,-0.0,-0.0,-1.0,0.0353454844609558,2.0
10.42917251586914,1.2244644165039062,0.0495804548263549,-0.1376099551259723,0.658991045334509,-0.7394554093514762,0.0413893369082948,4.0
10.994706153869627,0.8136701583862305,0.0116341114044189,-0.0890560413159249,-0.1639084234273286,-0.9824474796317124,0.0970401416227266,7.0
10.031177520751951,0.0935029983520507,0.4237643480300903,-0.8026657001310012,0.3608539962858342,-0.4748812137764061,0.1596392153117002,5.0
9.754779815673828,0.8432245254516602,0.4751226902008056,0.1899380504555929,0.2550354792523068,-0.9480930551964164,0.1654495253323622,6.0
11.708072662353516,0.7520589828491211,0.0039590597152709,0.3210199768216407,0.5580373725349014,-0.7652061587152688,0.0404527539406962,3.0
9.89762020111084,1.1456499099731443,0.0395183563232421,-0.0,-0.0,-1.0,0.0593079919983688,1.0
10.484691619873049,0.6219444274902344,-0.0052853822708129,0.5468899095358851,0.8371372912639145,-0.0106104864708503,0.0137390766705048,3.0
10.227563858032228,1.2205305099487305,0.0528591871261596,-0.0,-0.0,-1.0,0.0751578761455613,2.0
10.74370002746582,0.79681396484375,0.0156899690628051,-0.0,-0.0,-1.0,0.0323339682973552,2.0
11.037424087524414,0.5930347442626953,-0.0039286613464355,-0.0,-0.0,-1.0,0.0420074860248364,1.0
11.275056838989258,0.3789005279541015,-0.0261683464050292,-0.0,-0.0,-1.0,0.079636562778099,2.0
11.623872756958008,0.1738185882568359,-0.0488941669464111,-0.7251553509017439,-0.6707623495610494,-0.155652136091702,0.036371030286274,3.0
9.73916244506836,0.8615999221801758,0.4771053791046142,0.062638564792153,0.8643503430303316,-0.4989738417032774,0.1358480077969012,9.0
9.744539260864258,0.4986686706542969,0.4513177871704101,-0.0,-0.0,-1.0,0.1119244791871565,1.0
10.04593276977539,0.1345052719116211,0.4235723614692688,-0.8026657001310012,0.3608539962858342,-0.4748812137764061,0.1450997459640245,5.0
10.819480895996094,-0.3447198867797851,0.3799007534980774,-0.494598232403573,-0.6482420310348606,-0.5789256063632532,0.0793253200339135,3.0
10.380707740783691,1.2137317657470703,0.0545376539230346,-0.0562476395822799,-0.420435987982533,-0.9055770442378568,0.0490473623898406,4.0
10.999286651611328,0.8406085968017578,0.0224546194076538,0.6263337254624186,-0.2877100848265916,-0.7245198212867904,0.0863259340007856,8.0
11.69914436340332,0.7764549255371094,0.0180045366287231,0.2755775229920128,0.584250795737243,-0.7633531532010494,0.0404527539406962,4.0
9.925073623657228,0.1052827835083007,0.2634043097496032,-0.9936487665984328,-0.1068653486645458,-0.0352409689455,0.230193766072676,5.0
10.668591499328612,-0.3327865600585937,0.2283209562301635,0.0324333442133509,0.5354711051463994,-0.8439305503040117,0.1044971921040726,7.0
9.858386993408203,0.7913169860839844,0.3193583488464355,0.7495818884877127,-0.5297959178082903,0.3967912271268933,0.1133607196429968,7.0
10.900179862976074,-0.3240385055541992,0.2290023565292358,0.6125586327929167,0.2722174734951874,-0.7420711344034142,0.1755336974431196,5.0
11.665267944335938,1.3928813934326172,-0.0373042821884155,-0.0,-0.0,-1.0,0.0704201616124753,1.0
10.725184440612791,-0.2545480728149414,-0.0164624452590942,-0.0,-0.0,-1.0,0.193693119537503,2.0
10.16571807861328,0.4909229278564453,0.0370329618453979,-0.0,-0.0,-1.0,0.0391074642976129,1.0
10.373241424560549,0.261876106262207,0.0226532220840454,-0.0,-0.0,-1.0,0.0214248821048691,1.0
10.59756088256836,0.0435152053833007,0.0087238550186157,-0.0,-0.0,-1.0,0.0567169023222696,1.0
10.949923515319824,-0.2984914779663086,-0.0154906511306762,0.5949050251799944,0.513497255955307,0.6183919300427196,0.1356502513643717,3.0
10.03347110748291,1.0441904067993164,0.0812362432479858,-0.0,-0.0,-1.0,0.0538275241806828,1.0
10.23183822631836,0.8250064849853516,0.0691586732864379,-0.0,-0.0,-1.0,0.0496035806197919,2.0
10.635201454162598,0.3525476455688476,0.0388652086257934,-0.0,-0.0,-1.0,0.0239348825299076,1.0
11.612600326538086,-0.2406549453735351,0.0037919282913208,-0.0,-0.0,-1.0,0.0900578186024874,2.0
10.337801933288574,1.1747474670410156,0.1036955118179321,-0.0,-0.0,-1.0,0.0758876951393771,2.0
10.337602615356444,1.1079893112182615,0.0978364944458007,0.837657254546186,0.5008992881687363,-0.2177848181536065,0.0829791483826192,5.0
9.771302223205566,0.8459405899047852,0.528037965297699,0.5853477939359752,-0.4878833482980705,-0.6475629688206008,0.2242072829028022,11.0
9.993550300598145,0.2270975112915039,0.051720380783081,-0.0,-0.0,-1.0,0.0929527422877338,1.0
10.195995330810549,0.178532600402832,0.0577738285064697,-0.5349220403460011,-0.5125936354422501,-0.671644381839206,0.0269018268408087,3.0
10.064382553100586,0.5645618438720703,0.0803687572479248,-0.5181198928137446,0.7355443380384795,-0.4364931883205155,0.0505949650698668,4.0
10.268985748291016,0.2076015472412109,0.0635454654693603,-0.0,-0.0,-1.0,0.0174569121503625,1.0
9.883187294006348,1.0634469985961914,0.106525182723999,-0.2962949790813533,-0.946673566537846,-0.1265639908887809,0.0885293856485541,3.0
10.141182899475098,0.9166193008422852,0.1099809408187866,-0.091237846077833,-0.1366949683908001,-0.9864026262433188,0.0822118578255169,4.0
10.23047924041748,-0.0104131698608398,0.5341943502426147,-0.0,-0.0,-1.0,0.1167697653573553,1.0
9.78196620941162,0.8757781982421875,0.5667158961296082,0.9451007922384091,-0.311649822949525,-0.0982796030001199,0.2720849290631798,7.0
10.895304679870604,-0.2542238235473633,-0.0681784152984619,-0.0,-0.0,-1.0,0.1252677822289763,1.0
11.204291343688965,-0.1486530303955078,-0.0426509380340576,-0.0,-0.0,-1.0,0.0554396183234207,1.0
9.827362060546877,1.596883773803711,-0.0041781663894653,-0.0,-0.0,-1.0,0.0193307961354373,1.0
9.904305458068848,1.3685340881347656,-0.0130989551544189,-0.0,-0.0,-1.0,0.0360327835626197,1.0
10.456315994262695,1.0968904495239258,0.0062614679336547,-0.0,-0.0,-1.0,0.0487861948043186,1.0
10.551980018615724,0.91973876953125,4.2557716369628906e-05,-0.0,-0.0,-1.0,0.0371695095273515,1.0
10.818570137023926,0.5056295394897461,-0.0135378837585449,-0.0,-0.0,-1.0,0.0174898970897307,1.0
11.311172485351562,0.4024906158447265,0.007447600364685,-0.0,-0.0,-1.0,0.073696448203623,1.0
11.47741413116455,-0.0106925964355468,-0.016656756401062,0.700704808158283,-0.4961695468987194,-0.5126680724934836,0.0444248227482431,3.0
10.29872989654541,1.4653644561767578,0.0204339027404785,-0.0,-0.0,-1.0,0.0377891550882331,2.0
10.449382781982422,1.421616554260254,0.0277740955352783,-0.0,-0.0,-1.0,0.0500830794241341,2.0
10.863706588745115,0.9086408615112304,0.0190463066101074,0.1110385943581295,0.9728085225308176,0.2032584784317201,0.0839476476259799,4.0
10.969486236572266,0.8219842910766602,0.0192515850067138,0.0240580573203094,-0.227734945631364,-0.973425911107904,0.0750530569841933,6.0
10.754156112670898,1.4797868728637695,0.0521445274353027,-0.0,-0.0,-1.0,0.0488145366434443,1.0
9.82009220123291,0.5473356246948242,0.422730803489685,0.9539017470602612,0.0336097897096404,-0.2982311838005148,0.119372959821593,4.0
10.037354469299316,0.0995702743530273,0.4089584350585937,-0.8026657001310012,0.3608539962858342,-0.4748812137764061,0.1355864253542356,5.0
10.798232078552246,-0.3554153442382812,0.4100304841995239,0.5956355290587784,-0.7910934656555568,0.1392459878055737,0.0760020785472706,3.0
9.778989791870115,0.8847332000732422,0.4366588592529297,0.9485404929371536,0.1810540211043735,-0.2597890965773549,0.1566402253065785,4.0
9.801586151123049,0.7234888076782227,0.4302094578742981,-0.0102861804437867,-0.8464296863709584,-0.532401146243919,0.1407026274192556,3.0
10.629881858825684,0.1338367462158203,-0.0195964574813842,-0.8451346902002403,-0.3106129265962217,-0.435048233247158,0.0446921992690478,3.0
10.726974487304688,-0.0745964050292968,-0.0269643068313598,-0.0,-0.0,-1.0,0.0600698339594811,1.0
10.393685340881348,0.6747665405273438,-0.0021401643753051,-0.0,-0.0,-1.0,0.0227959263083337,2.0
9.928704261779783,1.4849166870117188,0.0084580183029174,-0.0,-0.0,-1.0,0.0280169070600622,1.0
10.50821304321289,1.154383659362793,0.0335628986358642,-0.0,-0.0,-1.0,0.0368758759824727,1.0
10.51617431640625,0.9926066398620604,0.0249360799789428,-0.0,-0.0,-1.0,0.0501945226793198,2.0
10.919597625732422,0.8439540863037109,0.0442264080047607,0.2625148023718447,-0.4480254096444035,-0.8546105609273946,0.0921144610840665,4.0
11.315436363220217,0.3462562561035156,0.0387078523635864,-0.0,-0.0,-1.0,0.0839075979065662,2.0
10.54686164855957,1.3680648803710938,0.0481171607971191,-0.0,-0.0,-1.0,0.0285020185008878,1.0
10.92360496520996,1.569291114807129,0.0864876508712768,0.0369086716204836,-0.6443011399041255,-0.7638807440153571,0.0785737084676199,3.0
10.017582893371582,0.110753059387207,0.4484385848045349,-0.7897282079720269,0.328699062931333,-0.5179635928917733,0.1493302597723994,4.0
9.768811225891112,0.6411771774291992,0.4586115479469299,-0.0,-0.0,-1.0,0.1027794943428652,2.0
10.89607048034668,-0.3422021865844726,0.4615394473075866,-0.0,-0.0,-1.0,0.0734621438255687,2.0
10.638065338134766,-0.3529796600341797,0.1787042617797851,0.4877847646871743,-0.8559778344200166,-0.1713708561007292,0.0692474437529423,5.0
9.85300064086914,0.9978175163269044,0.1968293190002441,-0.0,-0.0,-1.0,0.1786958214227472,2.0
11.39136028289795,1.0984382629394531,-0.0263720750808715,-0.0,-0.0,-1.0,0.0382025819244132,1.0
11.383448600769045,0.8400735855102539,-0.0414388179779052,-0.0,-0.0,-1.0,0.0381555719343735,1.0
11.425975799560549,1.5874028205871582,0.0027554035186767,-0.0,-0.0,-1.0,0.0458369335444022,2.0
11.549062728881836,1.2971296310424805,-0.0029501914978027,-0.0,-0.0,-1.0,0.0428015126375125,2.0
9.839648246765137,0.5381979942321777,0.3424463272094726,0.0217249347930021,-0.921416068902252,0.3879696575467727,0.1096939800325367,4.0
9.799811363220217,0.4624695777893066,0.3375140428543091,-0.0611922747965741,-0.9808973938303234,0.184650503064845,0.0908682794450862,3.0
9.944679260253906,-0.0487933158874511,0.3236279487609863,-0.0,-0.0,-1.0,0.1773627467912105,2.0
9.84092903137207,0.7954421043395996,0.3525983095169067,0.5166731224896562,-0.8533147698493257,0.0700199118378543,0.1309437383028444,8.0
10.07840061187744,1.6284174919128418,-0.0167082548141479,-0.0,-0.0,-1.0,0.0265638593261411,1.0
10.523018836975098,0.0165286064147949,-0.0233895778656005,-0.0,-0.0,-1.0,0.0833452713496793,1.0
10.50031852722168,1.3598814010620115,0.0125707387924194,-0.6547052636395283,0.2858158815730714,-0.6997644600887527,0.0258025167992471,4.0
10.654000282287598,1.0294814109802246,0.0169535875320434,-0.0,-0.0,-1.0,0.031787348448081,2.0
10.74956226348877,0.5931005477905273,0.0126328468322753,-0.0,-0.0,-1.0,0.030895965923143,2.0
10.81882381439209,0.3381853103637695,0.0106594562530517,-0.0,-0.0,-1.0,0.0269672287156027,1.0
10.984379768371582,-0.2557191848754883,0.0047290325164794,-0.0,-0.0,-1.0,0.1356848916870741,1.0
10.867376327514648,0.9064559936523438,0.0312889814376831,0.1110385943581295,0.9728085225308176,0.2032584784317201,0.0839476476259799,4.0
10.88294792175293,0.8368306159973145,0.0306285619735717,-0.0,-0.0,-1.0,0.090355324137822,2.0
10.888051986694336,1.529611110687256,0.0491961240768432,-0.0,-0.0,-1.0,0.0509353530362002,2.0
10.914213180541992,1.0229840278625488,0.0383682250976562,-0.0,-0.0,-1.0,0.0244112259436057,1.0
11.108553886413574,0.4643287658691406,0.0381392240524292,-0.0,-0.0,-1.0,0.0300071977204109,1.0
11.280582427978516,-0.0883522033691406,0.034112811088562,-0.0,-0.0,-1.0,0.0439753846263489,1.0
9.734256744384766,0.7928676605224609,0.4531439542770386,0.8880754464498222,-0.2259501180015856,0.400335541250111,0.1130474210146672,4.0
9.941727638244627,0.2465238571166992,0.4553377628326416,-0.0,-0.0,-1.0,0.0769372920362469,1.0
9.942757606506348,0.1348891258239746,0.4535906314849853,-0.0,-0.0,-1.0,0.228000996001455,1.0
10.791507720947266,-0.3436412811279297,0.4866849184036255,-0.0,-0.0,-1.0,0.0729739836453479,2.0
9.727986335754396,1.4224095344543457,0.064759612083435,-0.0,-0.0,-1.0,0.026130360732605,2.0
10.30811595916748,0.8771276473999023,0.0865870714187622,-0.0,-0.0,-1.0,0.0479976354462345,1.0
10.180671691894531,0.6028084754943848,0.0654503107070922,-0.0,-0.0,-1.0,0.0409727736713675,1.0
10.24848461151123,0.2593827247619629,0.0548204183578491,-0.0,-0.0,-1.0,0.0144254091378214,1.0
10.337624549865724,1.2854619026184082,0.1052132844924926,0.2981745021752683,0.8098243018645326,-0.5052490142119561,0.0310222614756222,3.0
10.357158660888672,1.0668339729309082,0.098000168800354,0.8354518259246221,0.5027472860984833,-0.2219581331689027,0.0776904261366548,4.0
10.433650016784668,0.1399431228637695,0.0624583959579467,-0.0,-0.0,-1.0,0.0398581141946973,1.0
10.565919876098633,-0.1296253204345703,0.0584496259689331,-0.0,-0.0,-1.0,0.0982845740854313,1.0
10.88218593597412,-0.2959322929382324,0.0721610784530639,0.0921406357028221,-0.9245331895542006,0.3697951928635855,0.1430957122317782,4.0
9.732869148254396,0.8336997032165527,0.5512257814407349,-0.3714579603219534,-0.5033208018979981,-0.7801840514200541,0.1492624268587478,11.0
9.71819019317627,1.3716773986816406,0.0758281946182251,-0.8707811364608515,0.1587292199495887,-0.4653442243309176,0.0285078555722482,3.0
9.910785675048828,1.1674256324768066,0.0897973775863647,0.3369783165710914,-0.4202998939094526,-0.8424925004655033,0.0684784957064852,3.0
10.120211601257324,0.9596614837646484,0.1043801307678222,0.5803545408757977,0.4230263065128807,-0.6958716482821472,0.0731631191905772,5.0
10.021093368530272,0.5550177097320557,0.0895808935165405,-0.2349401496502545,-0.4553262722907713,-0.8587672046859418,0.2039063622922613,4.0
10.032356262207031,0.1568210124969482,0.0822889804840087,-0.0,-0.0,-1.0,0.1108638321035115,1.0
10.923687934875488,-0.2917079925537109,0.1414469480514526,-0.1515885318445496,-0.9881577343642356,-0.0237741252069315,0.1866464745191607,4.0
9.789694786071776,0.9022414684295654,0.5774476528167725,0.404959756382114,-0.4427012710554216,0.8000144875668521,0.2480076092077791,3.0
10.13718032836914,-0.2520921230316162,-0.0280505418777465,-0.0,-0.0,-1.0,0.0670853311874867,1.0
10.490697860717772,1.3481818437576294,0.0269663333892822,-0.0,-0.0,-1.0,0.0259217497426651,2.0
10.525371551513672,1.0534272193908691,0.0280041694641113,-0.0,-0.0,-1.0,0.045364624846731,1.0
10.615973472595217,0.5492630004882812,0.0302461385726928,-0.0,-0.0,-1.0,0.0151696062861087,1.0
10.56143283843994,0.242363691329956,0.0200909376144409,-0.9891554946029072,0.038043435053714,0.1418594534960295,0.0306148976660793,3.0
10.615297317504885,-0.0450339317321777,0.019202709197998,-0.0,-0.0,-1.0,0.0707964277827585,1.0
10.900189399719238,1.5928711891174316,0.0654674768447876,0.7966881674031522,0.3552479070090796,-0.4889651199068038,0.0740474416911633,3.0
10.83670425415039,0.903677225112915,0.0549161434173584,0.1110385943581295,0.9728085225308176,0.2032584784317201,0.0624470290343569,4.0
10.922433853149414,0.798922061920166,0.0614521503448486,-0.6629205688852369,-0.3927193621675118,-0.6374227968370889,0.0921144610840665,4.0
10.93968677520752,-0.2614274024963379,0.043130874633789,-0.0,-0.0,-1.0,0.1276197972591075,2.0
10.97712230682373,-0.3242387771606445,0.0448641777038574,0.1665359943274846,-0.9583810578222336,0.2318868487018891,0.1118527617327521,3.0
11.212479591369627,1.4329622983932495,0.0934939384460449,-0.0,-0.0,-1.0,0.0642538664757306,1.0
9.784846305847168,0.6783839464187622,0.4586918354034424,-0.0,-0.0,-1.0,0.1217865402929651,2.0
10.796671867370604,-0.3129193782806396,0.5018033981323242,-0.0,-0.0,-1.0,0.0729739836453479,2.0
10.795610427856444,1.1965442895889282,-0.0160833597183227,-0.0,-0.0,-1.0,0.0167252531259075,1.0
10.789787292480469,1.0830814838409424,-0.0185316801071167,-0.0,-0.0,-1.0,0.0186296826868987,2.0
10.85672664642334,0.3987772464752197,-0.0266715288162231,-0.0,-0.0,-1.0,0.0191762456358599,1.0
10.646773338317873,0.135927677154541,-0.0539031028747558,-0.0,-0.0,-1.0,0.0424970087827942,2.0
10.614405632019045,-0.1054835319519043,-0.0640680789947509,-0.0,-0.0,-1.0,0.0711069826547075,1.0
10.938703536987305,1.3928790092468262,0.0005075931549072,-0.0,-0.0,-1.0,0.0522416995782794,1.0
10.998079299926758,0.8808586597442627,-0.0022757053375244,0.8863878424080133,-0.1881502458978358,-0.4229847252559495,0.0678539604138389,4.0
11.018603324890137,0.7262036204338074,-0.0034599304199218,-0.0,-0.0,-1.0,0.0620048717650475,1.0
11.189208030700684,0.3512754440307617,0.003939151763916,-0.0,-0.0,-1.0,0.0941505440409326,2.0
11.446860313415527,0.1508154869079589,0.0230445861816406,-0.0,-0.0,-1.0,0.0528295856307208,1.0
9.819751739501951,0.8697602152824402,0.3881956338882446,0.6189825763259978,0.6868731233509366,0.3808751535909889,0.1003579031861141,3.0
9.82327938079834,0.5619043707847595,0.3823586702346802,0.5191109064719213,-0.8190481849313561,0.2443029626151745,0.1251805138220433,4.0
10.03132152557373,0.0482058525085449,0.3830459713935852,-0.0,-0.0,-1.0,0.1694589141211094,2.0
9.713781356811523,1.2315462827682495,0.0946044921875,-0.298632572045716,0.3296650124362361,-0.8956224463962348,0.0413040130291518,4.0
9.961033821105955,0.8977574706077576,0.1225268840789794,-0.0,-0.0,-1.0,0.1183057462700984,1.0
9.897831916809082,0.4989420175552368,0.1248106956481933,0.356972696625792,-0.1945748523689732,-0.9136252627249876,0.1767495062729625,4.0
9.957213401794434,0.0940068438649177,0.1356177330017089,-0.2529303952888003,0.6570307155897969,-0.7101667789404194,0.1717999695229081,3.0
9.744867324829102,-0.0027258992195129,0.1245591640472412,-0.0,-0.0,-1.0,0.1457000726644625,1.0
9.719340324401855,1.2507249116897583,0.1019849777221679,-0.3189290371637879,0.4195018908563039,-0.8498837760669189,0.0383780496208721,3.0
9.970810890197754,0.8333410024642944,0.1384832859039306,-0.0,-0.0,-1.0,0.1518985906372141,1.0
9.936184883117676,0.5058993101119995,0.1399810314178466,0.356972696625792,-0.1945748523689732,-0.9136252627249876,0.1695827648595901,4.0
9.9274320602417,0.0496798157691955,0.1446177959442138,0.5177108793606274,0.5730297405907687,0.6353049360662347,0.124806531283304,4.0
10.098896980285645,0.9425790309906006,0.1508255004882812,-0.2520989657000117,-0.2664375521323919,-0.9302994906516304,0.0695005386224428,3.0
9.713685989379885,-0.0258307456970214,0.3704588413238525,-0.0,-0.0,-1.0,0.2029845380654245,1.0
9.848685264587402,0.8544434309005737,0.3687964677810669,0.28639235362084,0.3148395734337737,-0.9049063281840588,0.090541575857139,5.0
9.853418350219728,0.5589238405227661,0.3749966621398926,0.5038675606014099,-0.8624128102326686,0.0485965649009822,0.1417632729456894,5.0
10.663884162902832,-0.0467042922973632,-0.0496693849563598,-0.0,-0.0,-1.0,0.0600557645059329,2.0
10.918805122375488,0.5405997037887573,-0.0292741060256958,-0.0,-0.0,-1.0,0.0239417470923792,1.0
10.686832427978516,0.0989320278167724,-0.0493909120559692,-0.0,-0.0,-1.0,0.031479600238845,2.0
11.14487361907959,1.1935516595840454,-0.0200847387313842,-0.0,-0.0,-1.0,0.0490161237783407,1.0
11.079235076904297,0.7064715623855591,-0.0130842924118042,-0.0,-0.0,-1.0,0.0427075809294955,2.0
11.420482635498049,1.478941798210144,0.0041816234588623,-0.0,-0.0,-1.0,0.0488360405584834,1.0
10.03796100616455,0.092352271080017,0.3998267650604248,-0.9028862419085834,0.2969249456428225,-0.3108568976670807,0.1649116028696615,5.0
10.008138656616213,0.7316708564758301,0.0623935461044311,-0.0,-0.0,-1.0,0.1002091563214137,2.0
9.99986171722412,0.3426916599273681,0.0935727357864379,-0.0,-0.0,-1.0,0.0623804631282871,2.0
10.210269927978516,0.8332839012145996,0.0725424289703369,-0.0,-0.0,-1.0,0.0644177313494955,2.0
10.126444816589355,0.5169098377227783,0.0914726257324218,-0.7740776335881332,0.5495005387689084,-0.314408929693918,0.0421136068001421,3.0
10.47529125213623,1.5195424556732178,0.0348533391952514,-0.0,-0.0,-1.0,0.0564079925014502,2.0
10.45390510559082,1.2321736812591553,0.0596630573272705,0.4565672047804982,-0.5413285083408893,-0.7060522881319417,0.023149500968467,3.0
10.473177909851074,0.9724054336547852,0.0850181579589843,-0.0,-0.0,-1.0,0.0679157327522315,1.0
10.845778465270996,1.6230647563934326,0.0584641695022583,-0.0,-0.0,-1.0,0.0430327952743731,2.0
10.923392295837402,1.4891393184661863,0.0785149335861206,-0.0,-0.0,-1.0,0.063612252646044,2.0
9.777134895324709,0.8547813892364502,0.5935933589935303,0.1648306062003786,0.9114506861655975,-0.3769463064520954,0.2648729956206879,7.0
10.20716667175293,0.3242912292480469,0.0459173917770385,-0.0,-0.0,-1.0,0.0163089702926969,1.0
10.386363983154297,0.6806001663208008,0.0416934490203857,0.7989918347985524,0.5989355255782449,0.0537427588197162,0.0227959263083337,3.0
10.60627555847168,0.3781137466430664,0.0823256969451904,-0.0,-0.0,-1.0,0.0229229941270947,1.0
10.782941818237305,1.154433250427246,0.0490347146987915,-0.0,-0.0,-1.0,0.0161466125196306,1.0
10.924159049987791,0.7635698318481445,0.0891799926757812,0.7397003816083176,-0.39258239470561,-0.5465550373162049,0.0982926440305305,3.0
11.075910568237305,1.600666046142578,0.0452909469604492,-0.0,-0.0,-1.0,0.0752749848067351,1.0
11.094281196594238,1.432573318481445,0.0594274997711181,-0.0,-0.0,-1.0,0.0907695628784653,1.0
9.76565170288086,0.8246369361877441,0.5563344955444336,0.3367941360543983,0.3055209749318569,-0.8906327210450214,0.1831478062718912,10.0
9.811399459838867,0.4125714302062988,0.2873554229736328,-0.0,-0.0,-1.0,0.0676580817646349,2.0
9.897106170654297,0.6339807510375977,0.284784197807312,0.8382763491816265,-0.3925348966782916,-0.378429804973771,0.1163648118001813,3.0
9.929449081420898,0.7357220649719238,0.3101199865341186,-0.0,-0.0,-1.0,0.1249458567921405,2.0
9.727153778076172,1.4984641075134275,0.0741504430770874,-0.0,-0.0,-1.0,0.0283620626609878,2.0
9.751747131347656,1.2511773109436035,0.0900472402572631,0.3626542891922864,-0.9067299167588362,-0.2152271464870342,0.0418880667642919,5.0
9.928628921508787,1.0480523109436035,0.1152924299240112,-0.0,-0.0,-1.0,0.0630969076245979,2.0
10.274836540222168,0.9397578239440918,0.1485970020294189,-0.0,-0.0,-1.0,0.0429300795405066,1.0
11.657861709594728,1.5743904113769531,-0.0330790281295776,-0.0,-0.0,-1.0,0.0568348090962105,1.0
11.158668518066406,0.9423332214355468,-0.0297728776931762,-0.0,-0.0,-1.0,0.0361830048511947,2.0
11.104120254516602,0.7647542953491211,-0.0225120782852172,-0.2208007167201038,0.8354692777746093,-0.5032277112706148,0.0500881483697218,3.0
11.308700561523438,0.2616481781005859,0.0282171964645385,-0.0,-0.0,-1.0,0.0528219200883886,1.0
9.81031608581543,0.7898435592651367,0.5094856023788452,0.9025270279247144,0.4161065350997317,0.1109067865943186,0.1288267270966493,4.0
10.950690269470217,1.338414192199707,-0.0351790189743042,-0.0,-0.0,-1.0,0.0443009916316079,2.0
11.17767333984375,1.2643718719482422,-0.0120716094970703,-0.0,-0.0,-1.0,0.0614769683191147,2.0
10.999664306640623,0.8486213684082031,0.0018979310989379,0.6263337254624186,-0.2877100848265916,-0.7245198212867904,0.0863259340007856,8.0
10.754323959350586,0.7186832427978516,-0.009552001953125,-0.0,-0.0,-1.0,0.033048637985259,1.0
11.01247215270996,-0.3103322982788086,0.0769517421722412,-0.3855772195563974,-0.6123661105782617,0.6901724091662963,0.1077133574964699,3.0
9.825708389282228,0.8991212844848633,0.5574913024902344,-0.2879935530486184,-0.8779469301402898,-0.3824511750010363,0.2841535459844561,3.0
9.832515716552734,0.7355308532714844,0.4104670286178589,0.1781578702448157,-0.8842097055738712,-0.4317788436674487,0.1466546701063875,5.0
9.840190887451172,0.5322113037109375,0.4206740856170654,-0.3262484090431424,-0.5391398199735519,0.7764600634390054,0.114794804571613,3.0
9.850109100341797,0.5049533843994141,0.3013359308242798,-0.0848715164445924,-0.5859655929468118,-0.8058791159838343,0.1473037369075795,5.0
11.327174186706545,1.5836687088012695,-0.0078139305114746,0.5763638322081064,-0.3925776565878091,-0.716719970748974,0.0978871639995389,3.0
10.901820182800291,1.4645929336547852,-0.0161393880844116,-0.0,-0.0,-1.0,0.0740474416911632,1.0
9.728495597839355,0.7848882675170898,0.4679000377655029,0.8880754464498222,-0.2259501180015856,0.400335541250111,0.1327285837782492,4.0
9.808419227600098,0.4973945617675781,0.4945316314697265,-0.0,-0.0,-1.0,0.1218075753987742,1.0
11.6531982421875,1.111435890197754,-0.0234384536743164,-0.0,-0.0,-1.0,0.0330830530385906,1.0
11.700777053833008,0.6855068206787109,0.0384178161621093,-0.0,-0.0,-1.0,0.0410651692796039,1.0
10.531206130981444,1.2132282257080078,0.0546686649322509,-0.0,-0.0,-1.0,0.0283776119779756,2.0
10.696584701538086,1.204328536987305,0.0520241260528564,-0.0,-0.0,-1.0,0.0240495825813909,1.0
11.176816940307615,1.4455909729003906,0.0229158401489257,-0.1889515899818331,0.3316218119054498,-0.924296635562352,0.0985796044888577,3.0
11.687646865844728,0.9578075408935548,0.0355379581451416,-0.0,-0.0,-1.0,0.038175799318099,1.0
11.520513534545898,1.383779525756836,-0.0268678665161132,0.927306882472074,-0.2015363285423011,-0.3154125140155547,0.0566633929676201,4.0
