x,y,z,nx,ny,nz,curvature,density
15.222118377685549,25.23509979248047,-0.909771203994751,-0.0,-0.0,-1.0,0.0936917965448559,1.0
13.765653610229492,24.85025405883789,-1.3192797899246216,0.467496457772371,0.7591732411586802,-0.4528830443711826,0.0400388001937457,3.0
13.97412395477295,25.00671005249023,-1.328738808631897,0.5519108183340627,-0.092990926948421,-0.8287020792245536,0.1632059376751904,3.0
14.054877281188965,25.338085174560547,-1.3689314126968384,0.5152137901363285,0.7920975694554251,-0.3273166523661256,0.2147025408086766,3.0
14.828333854675291,24.583946228027344,-1.2840096950531006,-0.0,-0.0,-1.0,0.1513873922790267,2.0
14.119694709777832,25.02473258972168,-1.3789377212524414,-0.0,-0.0,-1.0,0.1262891211810316,1.0
15.36264705657959,24.80774688720703,-1.2906417846679688,0.6253536917547552,-0.7679074712086533,-0.1387475256378655,0.2407694215587099,3.0
14.14295482635498,25.321537017822266,-1.4188790321350098,-0.0,-0.0,-1.0,0.2302362496096857,1.0
15.479154586791992,24.99507522583008,-1.311781406402588,-0.0,-0.0,-1.0,0.1760715136941326,2.0
15.548224449157717,23.731969833374023,-1.1316564083099363,-0.0,-0.0,-1.0,0.1429562967156474,2.0
15.370773315429688,24.9854679107666,-0.6612610816955566,-0.0,-0.0,-1.0,0.0821914309893202,1.0
15.130244255065918,25.220359802246097,-0.6933789253234863,-0.0,-0.0,-1.0,0.1881265828584852,2.0
15.433857917785645,24.708599090576172,-1.1848684549331665,-0.0,-0.0,-1.0,0.1987654126829866,2.0
15.491989135742188,24.961437225341797,-1.1934744119644165,-0.0,-0.0,-1.0,0.2598127289135903,1.0
15.520916938781738,25.48810577392578,-1.223171353340149,-0.0,-0.0,-1.0,0.1304909359369074,2.0
15.280208587646484,24.848716735839844,-0.9917553663253784,0.5382566490173039,-0.8376161768185653,-0.0931607219836404,0.1724184154776128,4.0
15.037261962890623,24.65853500366211,-0.988184094429016,-0.0,-0.0,-1.0,0.1753218420780423,2.0
14.87490463256836,23.874528884887695,-1.391610026359558,-0.0,-0.0,-1.0,0.0256694174250816,2.0
14.815534591674805,23.755460739135746,-1.3858944177627563,-0.0,-0.0,-1.0,0.1046992381687563,2.0
15.445718765258787,25.46951675415039,-0.5339810848236084,-0.0,-0.0,-1.0,0.1113731492781157,1.0
13.854976654052734,25.60545539855957,-1.197344422340393,-0.0,-0.0,-1.0,0.0779952188876238,1.0
15.701288223266602,25.070486068725582,-1.1183463335037231,-0.0,-0.0,-1.0,0.165367318536976,2.0
15.506561279296877,24.922529220581055,-1.113010048866272,-0.0,-0.0,-1.0,0.2606990451760075,1.0
15.04298973083496,25.189720153808594,-1.080828309059143,-0.0,-0.0,-1.0,0.1962702295511335,2.0
15.637822151184082,24.953197479248047,-1.1070786714553833,-0.0,-0.0,-1.0,0.1675038774716593,1.0
14.16347312927246,25.605070114135746,-1.1992363929748535,-0.0,-0.0,-1.0,0.1380192505981459,2.0
15.687901496887209,24.301401138305664,-1.0866379737854004,-0.0,-0.0,-1.0,0.0972614317712677,1.0
14.640531539916992,24.473901748657227,-1.1181318759918213,-0.0,-0.0,-1.0,0.1861379350559616,1.0
14.38930320739746,24.421640396118164,-1.1199440956115725,-0.0,-0.0,-1.0,0.0958095081912775,1.0
14.356483459472656,24.087343215942383,-1.0995855331420898,-0.0,-0.0,-1.0,0.0888972209072773,1.0
15.227474212646484,25.272584915161133,-0.6183303594589233,0.0300505054987022,0.5107413600831596,-0.8592090724728626,0.1309904119720358,3.0
15.618213653564451,24.11454200744629,-1.1753605604171753,-0.0,-0.0,-1.0,0.1469873106442003,1.0
15.547367095947266,24.00565719604492,-1.17365562915802,-0.0,-0.0,-1.0,0.2202473350209828,2.0
15.024774551391602,24.668916702270508,-1.2419739961624146,-0.0,-0.0,-1.0,0.2018929838588383,1.0
14.101238250732422,25.56728172302246,-1.3478349447250366,-0.0,-0.0,-1.0,0.1061037424124145,2.0
13.98317050933838,25.038509368896484,-1.3262821435928345,0.5519108183340627,-0.092990926948421,-0.8287020792245536,0.2055581728410112,3.0
13.783340454101562,24.791770935058594,-1.3253248929977417,0.9525356636072478,0.0187843739509453,-0.3038469299689749,0.0392884812660609,3.0
13.997315406799316,23.804941177368164,-1.2585314512252808,-0.0,-0.0,-1.0,0.0282880458106827,1.0
13.789484024047852,23.710670471191406,-1.266548991203308,-0.4158442230743264,0.7363544286707623,-0.5337187813002882,0.0267459523581909,3.0
15.630988121032717,23.981884002685547,-1.233783721923828,-0.0,-0.0,-1.0,0.0890221611634841,2.0
14.94548225402832,24.651416778564453,-1.2914457321166992,-0.0,-0.0,-1.0,0.1568454811402355,2.0
15.593524932861328,23.809890747070312,-1.2189364433288574,0.4774239152778687,-0.260453885280735,-0.839184234100546,0.2493007002843663,3.0
13.885076522827148,25.399730682373047,-1.3560104370117188,-0.0,-0.0,-1.0,0.07637165206034,1.0
15.692416191101074,24.957128524780273,-1.0687658786773682,-0.0,-0.0,-1.0,0.1207352445133519,2.0
15.69255256652832,25.224199295043945,-1.0962278842926023,-0.0,-0.0,-1.0,0.1472566040746813,1.0
15.547303199768066,24.758949279785156,-1.0413641929626465,-0.0,-0.0,-1.0,0.1911008028361643,1.0
15.572675704956056,24.9638671875,-1.0636489391326904,0.3683008959764075,-0.1975360258926108,-0.9084789312348028,0.1652237174735949,3.0
15.572040557861328,23.95526695251465,-0.9600205421447754,-0.0,-0.0,-1.0,0.2395258116780756,1.0
14.084657669067385,25.09242057800293,-1.0051867961883545,-0.0,-0.0,-1.0,0.1216259771210434,1.0
15.633696556091309,25.545364379882812,-1.2770154476165771,-0.0,-0.0,-1.0,0.133215493699465,1.0
14.304415702819824,25.125089645385746,-1.154395580291748,-0.0,-0.0,-1.0,0.218519081414567,1.0
14.190210342407228,25.114770889282227,-1.146911859512329,-0.0,-0.0,-1.0,0.1475979536536716,2.0
15.67526626586914,23.934267044067383,-1.0970253944396973,-0.0,-0.0,-1.0,0.1202894108934823,1.0
15.331952095031738,24.427175521850582,-1.133272647857666,-0.0,-0.0,-1.0,0.219335385884588,1.0
15.10865592956543,24.663217544555664,-1.147320032119751,0.3911575842265042,0.6543234787595753,-0.6471912618739942,0.1475897052839748,3.0
15.60600471496582,25.08767890930176,-1.4310630559921265,-0.0,-0.0,-1.0,0.2668623621293577,2.0
15.496301651000977,23.70206642150879,-1.3291527032852173,0.6677252243406344,-0.6894397773261944,0.2807415505757152,0.1824146662678792,3.0
15.587013244628906,23.942663192749023,-1.3422149419784546,-0.0157756823786963,0.5768633766474972,-0.8166882958193623,0.1529641557303213,3.0
14.981852531433104,24.00425910949707,-1.3857938051223757,-0.0,-0.0,-1.0,0.0714766176764055,1.0
14.872802734375,24.643795013427734,-1.4427238702774048,-0.0,-0.0,-1.0,0.1683059735252356,2.0
14.724337577819824,23.837696075439453,-1.389525055885315,-0.0,-0.0,-1.0,0.0275703918847713,2.0
14.792540550231934,24.15717887878418,-1.4099372625350952,-0.0,-0.0,-1.0,0.0450133010128546,1.0
14.582993507385254,25.003202438354492,-1.48941171169281,-0.0,-0.0,-1.0,0.0640621898788955,2.0
15.563498497009276,24.06108283996582,-1.011891484260559,-0.254926722807502,-0.0902645214224036,-0.9627381171279196,0.2429761709659702,3.0
15.435331344604492,24.93336296081543,-1.0784488916397097,-0.0,-0.0,-1.0,0.2762702187709284,2.0
15.584931373596191,25.151521682739254,-1.0834392309188845,-0.5903526205802415,0.0865119565474493,-0.8024957724177577,0.2253721120870393,3.0
15.460637092590332,23.9757022857666,-1.012912392616272,-0.0,-0.0,-1.0,0.2229120772375095,1.0
13.72409439086914,25.49742126464844,-1.228279709815979,-0.0,-0.0,-1.0,0.1451969202927223,2.0
15.409055709838867,24.821958541870117,-1.0795767307281494,0.0949418361599176,-0.9176783020657472,0.3858141802271017,0.2088322393897917,5.0
15.534090995788574,24.96880149841309,-1.080364227294922,-0.0,-0.0,-1.0,0.2342423224448974,2.0
15.505367279052734,25.436222076416016,-1.1141471862792969,-0.0,-0.0,-1.0,0.1693514307862516,2.0
15.305480003356934,24.84320831298828,-1.088620662689209,-0.0997464424281568,-0.1483291243382889,-0.983894871465424,0.1374337884920836,4.0
14.1859769821167,25.637121200561523,-1.224942922592163,0.0930920527685068,-0.6619100655640296,-0.7437801656513622,0.1209367728557245,3.0
13.873583793640137,25.443191528320312,-1.2354342937469482,-0.2603098919025128,-0.1741102571017599,-0.949696993019174,0.1343668244289086,3.0
15.380049705505373,24.983224868774418,-0.7131929397583008,-0.0,-0.0,-1.0,0.0935413655349988,2.0
15.507749557495115,25.036865234375,-1.4240922927856443,-0.0,-0.0,-1.0,0.1772265566055781,1.0
15.521848678588867,25.271926879882812,-1.4395196437835691,-0.0,-0.0,-1.0,0.1190154238735161,1.0
14.852824211120604,24.665212631225582,-1.473292350769043,-0.0,-0.0,-1.0,0.1731292997891687,2.0
14.69880485534668,24.77613067626953,-1.4991819858551023,-0.0,-0.0,-1.0,0.1002458287404823,1.0
14.162407875061035,24.578943252563477,-1.5499727725982666,-0.0,-0.0,-1.0,0.0455938877231902,1.0
14.181164741516112,24.789749145507812,-1.5619895458221436,-0.0,-0.0,-1.0,0.0639643004634097,1.0
14.164942741394045,25.140687942504883,-1.5878937244415283,-0.0,-0.0,-1.0,0.0791517909746057,1.0
14.10752773284912,25.484739303588867,-1.6183979511260986,-0.0,-0.0,-1.0,0.0862800898228367,1.0
15.440765380859377,23.927587509155273,-1.3527143001556396,-0.0,-0.0,-1.0,0.1717045698082777,1.0
15.462743759155272,24.046796798706055,-1.3585493564605713,-0.0,-0.0,-1.0,0.264853932545766,2.0
14.234369277954102,23.69852066040039,-1.4822990894317627,-0.0,-0.0,-1.0,0.0443842379986373,1.0
14.38717555999756,23.97275161743164,-1.481764793395996,-0.0,-0.0,-1.0,0.0344670242472408,1.0
15.581979751586914,24.88127326965332,-0.989331841468811,-0.0,-0.0,-1.0,0.2306204625059938,2.0
15.507814407348633,24.07022476196289,-0.9345461130142212,-0.8049412971777431,-0.4770608393821293,0.3528207244845893,0.2030917469010891,3.0
15.3154878616333,24.88511657714844,-1.0114151239395142,-0.336584805738023,-0.9394778676180666,-0.0639687799016648,0.172971752238281,4.0
14.992658615112305,24.92877769470215,-1.041253924369812,-0.0,-0.0,-1.0,0.1648000794910814,1.0
15.585494995117188,23.775531768798828,-1.3522955179214478,-0.0,-0.0,-1.0,0.1726855333408657,2.0
15.302655220031738,23.913986206054688,-1.3823052644729614,-0.0,-0.0,-1.0,0.1347300222435719,1.0
15.06212329864502,23.998430252075195,-1.4036442041397097,0.5993479332482007,0.411778276209426,-0.6864551741760738,0.0920756380876592,3.0
14.601404190063477,23.699426651000977,-1.385486721992493,-0.0,-0.0,-1.0,0.0626283181396229,2.0
14.696619033813477,23.952978134155273,-1.4138280153274536,-0.0,-0.0,-1.0,0.0276046756695197,2.0
15.418363571166992,24.865947723388672,-0.7627102136611938,-0.7546166557444519,-0.1405276463671414,-0.6409412480715933,0.1443709752598839,5.0
15.059839248657228,25.144800186157227,-0.799209475517273,-0.0,-0.0,-1.0,0.135347477235839,2.0
14.747135162353516,24.93323135375977,-0.7858914136886597,-0.2043510379078345,-0.3366000929227352,-0.9192067399396052,0.1495573946394527,4.0
14.515902519226074,25.566370010375977,-0.8546005487442017,-0.0,-0.0,-1.0,0.1540926662648865,1.0
15.46496295928955,23.89341735839844,-0.9957374334335328,-0.0,-0.0,-1.0,0.1836071676417659,1.0
15.438331604003906,24.971763610839844,-1.1209090948104858,-0.2716251090754431,-0.4906941416041815,-0.8279124709261776,0.2344748961983089,3.0
15.504222869873049,25.21556854248047,-1.1466506719589231,-0.0,-0.0,-1.0,0.1931209435882507,1.0
15.231451034545898,24.629528045654297,-1.0892733335494995,-0.0,-0.0,-1.0,0.1481052773350521,1.0
14.727250099182127,24.79018783569336,-1.1271032094955444,-0.0,-0.0,-1.0,0.2706172912335299,1.0
13.882736206054688,25.399517059326172,-1.2299360036849976,-0.2603098919025128,-0.1741102571017599,-0.949696993019174,0.1496091873310915,3.0
13.72730541229248,25.50581741333008,-1.2482389211654663,-0.0,-0.0,-1.0,0.1451969202927223,2.0
15.3895845413208,24.154476165771484,-1.1140921115875244,-0.0,-0.0,-1.0,0.1237719515286879,1.0
15.417594909667969,24.86115264892578,-1.2011322975158691,0.3337897502766963,-0.5622979719901249,-0.7565747770749521,0.2329436435071143,5.0
15.524454116821287,25.06930160522461,-1.2223875522613523,-0.0,-0.0,-1.0,0.2217432982581524,2.0
15.27219581604004,24.851089477539062,-1.2066490650177002,0.3356365351906942,-0.1182736855506175,-0.9345370252437618,0.1722048462252371,3.0
14.824002265930176,24.680356979370117,-1.206819772720337,-0.0,-0.0,-1.0,0.26249281037151,1.0
13.788847923278809,25.0135498046875,-1.299712896347046,0.9077571999647416,-0.2969941248924511,-0.2962623089283196,0.0997765014879436,3.0
13.929489135742188,25.497417449951172,-1.352048635482788,-0.0,-0.0,-1.0,0.0438290558609609,1.0
15.394699096679688,24.020008087158203,-1.0971109867095947,-0.0,-0.0,-1.0,0.1635644016747016,2.0
13.782882690429688,24.99433135986328,-1.242458701133728,0.905183770465103,0.1416683663145528,0.4007148807722838,0.1412070420130399,3.0
13.867074966430664,25.497447967529297,-1.29609477519989,-0.0,-0.0,-1.0,0.086607016255005,1.0
13.731037139892578,25.393165588378903,-1.2926446199417114,-0.0,-0.0,-1.0,0.1316118849708704,1.0
15.44407081604004,24.06142234802246,-1.025141358375549,-0.824006361979649,-0.3439922795056291,0.4502030953442956,0.1868214071479813,4.0
15.432016372680664,25.006227493286133,-1.1392635107040403,-0.0,-0.0,-1.0,0.2813802196451881,2.0
15.278043746948242,24.874513626098633,-1.1327892541885376,-0.0,-0.0,-1.0,0.1688980705048085,2.0
14.77673625946045,24.602294921875,-1.1317135095596311,-0.0,-0.0,-1.0,0.235692473524681,2.0
15.213842391967772,25.344982147216797,-0.543979287147522,-0.2953673159984211,0.7798464900422956,0.551903615324814,0.1370569588350743,3.0
15.469568252563477,23.79446792602539,-1.1925060749053955,-0.0,-0.0,-1.0,0.1413607805678931,1.0
15.46617603302002,24.737945556640625,-1.3019640445709229,-0.0,-0.0,-1.0,0.1869056732598883,2.0
15.532328605651855,25.110279083251953,-1.3391058444976809,-0.0,-0.0,-1.0,0.2051978649731513,2.0
15.23012924194336,24.82165145874023,-1.3347012996673584,-0.0,-0.0,-1.0,0.1776124412512329,1.0
15.366656303405762,24.9820499420166,-1.3400816917419434,-0.0,-0.0,-1.0,0.1170283370611967,1.0
14.301565170288086,24.015457153320312,-1.3358008861541748,-0.0,-0.0,-1.0,0.0645884167264043,1.0
14.285789489746094,25.21479034423828,-1.4733879566192627,-0.0,-0.0,-1.0,0.0710646659054254,1.0
14.01466178894043,24.08725357055664,-1.373429536819458,-0.0,-0.0,-1.0,0.0095979110641721,2.0
14.168371200561523,24.763626098632812,-1.433802604675293,-0.0,-0.0,-1.0,0.0652699740167421,2.0
14.185373306274414,25.09828186035156,-1.4701488018035889,-0.0,-0.0,-1.0,0.090546596163643,1.0
15.363048553466797,24.67859649658203,-0.7069926261901855,-0.0,-0.0,-1.0,0.1443112695779021,2.0
15.259907722473145,25.07748794555664,-0.7497611045837402,-0.0,-0.0,-1.0,0.0794259855862198,1.0
14.759221076965332,24.892711639404297,-0.7723910808563232,-0.5199252971917855,-0.405562248893083,-0.7517958151072793,0.1785299569622018,3.0
15.032516479492188,25.250389099121097,-0.7823302745819092,-0.0,-0.0,-1.0,0.179880102198471,2.0
14.42699146270752,25.55694580078125,-0.8558094501495361,-0.0,-0.0,-1.0,0.1828289188174451,1.0
15.428317070007324,24.07452964782715,-1.1197171211242676,-0.0,-0.0,-1.0,0.1273518728137437,1.0
15.375554084777832,24.905597686767575,-1.2081284523010254,-0.6540212037662265,0.1505759569151856,-0.7413387526787276,0.2565194202421912,4.0
15.514945030212402,25.151065826416016,-1.21563982963562,-0.3726987494921104,-0.9257912523456536,0.0632945432662537,0.1596097979703712,4.0
15.251686096191406,24.78821182250977,-1.2116997241973877,-0.0,-0.0,-1.0,0.2193034827695017,2.0
14.836420059204102,24.58636474609375,-1.2434203624725342,-0.0,-0.0,-1.0,0.1688245341856724,2.0
14.63207721710205,24.74040985107422,-1.28395676612854,-0.0,-0.0,-1.0,0.1757776015930011,2.0
13.80601978302002,23.702133178710938,-1.2912113666534424,-0.4158442230743264,0.7363544286707623,-0.5337187813002882,0.0267459523581908,3.0
13.800823211669922,24.11637306213379,-1.3303709030151367,-0.0,-0.0,-1.0,0.0076290706907736,1.0
13.780487060546877,24.39880752563477,-1.3594787120819092,-0.0,-0.0,-1.0,0.0134523314832575,1.0
13.86534023284912,24.878400802612305,-1.3940677642822266,-0.0,-0.0,-1.0,0.0415388327954662,2.0
14.028889656066896,25.19396209716797,-1.4036273956298828,-0.0,-0.0,-1.0,0.1150187499871256,1.0
13.750565528869627,24.346769332885746,-1.3584449291229248,0.8637908453762618,0.1587152890869069,-0.4781995738749904,0.0095260512197256,3.0
15.197245597839355,25.211000442504883,-0.675363302230835,-0.0,-0.0,-1.0,0.1901316932994669,1.0
15.68932056427002,25.128944396972656,-1.4131686687469482,-0.0,-0.0,-1.0,0.1759197698156398,2.0
15.668697357177734,25.486387252807617,-1.4539203643798828,-0.0,-0.0,-1.0,0.1281048655776422,1.0
15.446861267089844,24.562698364257812,-1.392401933670044,-0.0,-0.0,-1.0,0.1485145104768727,1.0
15.498863220214844,24.92696952819824,-1.4216673374176023,-0.2343777568515166,-0.2887545386389376,-0.9282714492586024,0.1081154781211697,3.0
15.269221305847168,23.76979637145996,-1.341301202774048,-0.0,-0.0,-1.0,0.0826524420237281,1.0
15.293030738830566,24.485347747802734,-1.4087717533111572,-0.0,-0.0,-1.0,0.1765428503763575,1.0
14.954789161682127,23.88838577270508,-1.403761863708496,-0.0,-0.0,-1.0,0.0387489376905032,1.0
15.62678050994873,24.95241928100586,-0.8651721477508545,-0.0,-0.0,-1.0,0.1980205283099883,2.0
15.53890895843506,24.07652282714844,-0.8114151954650879,-0.0,-0.0,-1.0,0.1405171954798792,1.0
15.464776992797852,24.729412078857425,-0.8698470592498779,-0.0,-0.0,-1.0,0.2636635591945201,2.0
15.347426414489746,24.874177932739254,-0.8963780403137207,-0.0,-0.0,-1.0,0.1786709145207878,2.0
15.401810646057127,24.080345153808594,-0.830230712890625,-0.0,-0.0,-1.0,0.1420904212315373,1.0
15.223782539367676,24.690399169921875,-0.8991787433624268,-0.0,-0.0,-1.0,0.2499450474720411,2.0
15.005080223083496,24.784740447998047,-0.935570240020752,-0.0,-0.0,-1.0,0.1594514949898434,1.0
14.79472541809082,25.118127822875977,-0.988511562347412,-0.0,-0.0,-1.0,0.2194503041880095,1.0
13.915990829467772,24.976009368896484,-1.0977869033813477,-0.0,-0.0,-1.0,0.1573380496826221,1.0
14.160052299499512,25.048725128173828,-1.4476956129074097,-0.0,-0.0,-1.0,0.0910449468059692,1.0
15.523513793945312,25.28238296508789,-1.288996338844299,-0.0,-0.0,-1.0,0.1416610054964555,1.0
15.37966537475586,24.937122344970703,-1.2665005922317505,-0.0,-0.0,-1.0,0.2603088707448096,2.0
15.44754409790039,23.99439239501953,-1.1463018655776978,-0.839901801324773,0.5386818437662831,-0.0662331890215115,0.1981139004505533,3.0
15.2462158203125,24.47879981994629,-1.2304283380508425,-0.0,-0.0,-1.0,0.1913654855959069,1.0
15.214028358459473,24.746490478515625,-1.266266703605652,-0.0,-0.0,-1.0,0.2369278450046245,1.0
14.159805297851562,24.623966217041016,-1.3999027013778689,-0.0,-0.0,-1.0,0.0568031680448881,1.0
14.144763946533203,24.87158203125,-1.4297853708267212,-0.0,-0.0,-1.0,0.0887029917416821,1.0
14.194576263427734,23.744918823242188,-1.298805594444275,-0.0,-0.0,-1.0,0.0392525681380587,1.0
14.045977592468262,24.297269821166992,-1.3802813291549685,-0.0,-0.0,-1.0,0.0111834612966943,2.0
14.081889152526855,24.446943283081055,-1.391485333442688,-0.0,-0.0,-1.0,0.0299391358144557,2.0
15.45888900756836,24.94437026977539,-0.7456022500991821,-0.0,-0.0,-1.0,0.1535093677077725,2.0
15.534319877624512,24.133411407470703,-0.6630656719207764,-0.0,-0.0,-1.0,0.1166695782632219,1.0
15.075096130371094,24.66480255126953,-0.7632838487625122,-0.0,-0.0,-1.0,0.1227994505586639,1.0
14.714981079101562,25.15796661376953,-0.8486267328262329,-0.0,-0.0,-1.0,0.1449105370031486,1.0
13.906235694885254,25.10949325561523,-0.937987208366394,0.4334061565413644,-0.8129458244714938,0.3889449703318008,0.2104749113002427,3.0
15.566251754760742,25.12853622436523,-1.315184235572815,-0.0,-0.0,-1.0,0.2013896654335508,2.0
15.57203197479248,25.43039321899414,-1.3547433614730835,-0.0,-0.0,-1.0,0.146766457989271,2.0
15.358339309692385,24.679662704467773,-1.285736918449402,-0.0,-0.0,-1.0,0.2539852662418278,2.0
15.33724308013916,24.86178970336914,-1.312433123588562,-0.0,-0.0,-1.0,0.1773454183622351,1.0
15.145956993103027,24.784820556640625,-1.329943299293518,-0.0,-0.0,-1.0,0.1501808445915819,1.0
14.262125968933104,24.974998474121097,-1.483962893486023,-0.0,-0.0,-1.0,0.0850768727230077,1.0
14.299847602844238,25.076576232910156,-1.4910415410995483,-0.0,-0.0,-1.0,0.0828070532210877,1.0
14.194089889526367,24.50711441040039,-1.43659508228302,-0.0,-0.0,-1.0,0.0308502980629544,2.0
14.234830856323242,24.70666885375977,-1.4548550844192505,-0.0,-0.0,-1.0,0.0609732993847066,1.0
14.193397521972656,23.783355712890625,-1.3502005338668823,-0.0,-0.0,-1.0,0.0407730214704621,1.0
15.579533576965332,24.157127380371097,-1.186451077461243,-0.0,-0.0,-1.0,0.1727319138943033,1.0
15.34503936767578,24.6834716796875,-0.8171316385269165,-0.0,-0.0,-1.0,0.1746642327087179,1.0
15.352370262145996,24.89026260375977,-0.8376172780990601,0.2787502786760127,-0.8482650812845441,-0.4502717335247365,0.1874016615275014,3.0
15.584208488464355,23.758411407470703,-1.1351500749588013,-0.0,-0.0,-1.0,0.1092564219054178,2.0
15.547289848327637,23.994346618652344,-1.170399785041809,-0.0,-0.0,-1.0,0.2202473350209829,2.0
15.151473999023438,24.490375518798828,-0.8209832906723022,-0.0,-0.0,-1.0,0.1590489404884865,1.0
15.063608169555664,24.79772567749023,-0.8627556562423706,-0.0,-0.0,-1.0,0.1180245528317118,1.0
14.013956069946287,25.153812408447266,-1.0273946523666382,-0.3704020262768853,-0.5555404643785756,-0.7444307431642074,0.1742333782792089,9.0
15.609606742858888,24.182025909423828,-0.7340778112411499,-0.0,-0.0,-1.0,0.1446909274213549,2.0
15.57649040222168,25.27127456665039,-1.3549388647079468,-0.0,-0.0,-1.0,0.1331281204267188,1.0
14.513182640075684,24.922391891479492,-1.5041316747665403,-0.0,-0.0,-1.0,0.0422430416291794,1.0
14.529273986816406,24.479434967041016,-1.4479652643203735,-0.0,-0.0,-1.0,0.0907659320239196,1.0
15.478832244873049,24.917930603027344,-1.3261524438858032,-0.0,-0.0,-1.0,0.204286941853537,2.0
15.547403335571287,24.066974639892575,-1.2059637308120728,-0.0,-0.0,-1.0,0.2778505584721596,2.0
15.46214485168457,24.597400665283203,-1.28815495967865,-0.0,-0.0,-1.0,0.1416591156173813,1.0
15.25439167022705,24.758113861083984,-1.3463493585586548,-0.0,-0.0,-1.0,0.2003592653342664,1.0
14.575393676757812,24.078350067138672,-1.3920730352401731,-0.0,-0.0,-1.0,0.0242340841810793,2.0
13.742084503173828,25.43983459472656,-1.21550190448761,-0.0,-0.0,-1.0,0.1451969202927223,1.0
14.513484001159668,23.805307388305664,-1.373010754585266,-0.0,-0.0,-1.0,0.0340318015126573,1.0
15.70320987701416,24.438901901245117,-0.8028968572616577,-0.0,-0.0,-1.0,0.0710978090280651,1.0
15.55203628540039,24.87164878845215,-0.8704146146774292,-0.0,-0.0,-1.0,0.2285965522431438,2.0
15.470304489135742,25.018726348876953,-0.8982359170913696,-0.0,-0.0,-1.0,0.2762089080331457,2.0
15.628381729125977,24.137065887451172,-0.784680962562561,-0.0,-0.0,-1.0,0.1390467533068131,1.0
15.35268211364746,24.49889373779297,-0.8644250631332397,-0.0,-0.0,-1.0,0.2360304768142299,1.0
15.113472938537598,24.90392303466797,-0.942447543144226,0.1523259131220213,-0.8670227450135729,0.4744137179937693,0.2141912874155646,3.0
15.506370544433594,24.56183624267578,-1.4240515232086182,-0.0,-0.0,-1.0,0.159001374561071,1.0
15.492477416992188,24.807783126831055,-1.465480089187622,-0.0,-0.0,-1.0,0.2080472066384991,1.0
15.594377517700195,24.21593475341797,-1.3524487018585205,-0.0,-0.0,-1.0,0.1909938383288702,1.0
15.3541259765625,24.535388946533203,-1.4509291648864746,-0.0,-0.0,-1.0,0.1718404452555918,2.0
15.033361434936523,23.98620986938477,-1.436086893081665,0.5993479332482007,0.411778276209426,-0.6864551741760738,0.0920756380876592,3.0
14.874980926513672,23.696212768554688,-1.429016351699829,-0.0,-0.0,-1.0,0.0956927697260435,1.0
15.530826568603516,25.119070053100582,-1.0997636318206787,-0.0,-0.0,-1.0,0.2262717838738643,2.0
15.525384902954102,25.41116714477539,-1.139977216720581,-0.0,-0.0,-1.0,0.1354362223568552,2.0
15.333685874938965,24.81241226196289,-1.0940320491790771,-0.0,-0.0,-1.0,0.1577593441830691,2.0
15.265409469604492,25.016345977783203,-1.132493019104004,-0.0,-0.0,-1.0,0.2086269882474264,1.0
15.565040588378906,24.116273880004883,-1.1538140773773191,-0.0,-0.0,-1.0,0.2261841577477432,2.0
15.50442123413086,24.183563232421875,-0.9830102920532228,-0.0,-0.0,-1.0,0.2049520857194051,1.0
15.00432014465332,24.646728515625,-1.1321361064910889,-0.0,-0.0,-1.0,0.2111478113881879,1.0
14.027706146240234,24.976558685302734,-1.3529374599456787,0.8169999394342625,0.3082207606805683,0.4873510661216447,0.1345086072645666,3.0
13.97009563446045,25.17515563964844,-1.3876686096191406,-0.0,-0.0,-1.0,0.1080237423407403,1.0
13.816327095031738,24.741132736206055,-1.3653361797332764,-0.0,-0.0,-1.0,0.0374584383951132,1.0
13.818554878234863,24.83572006225586,-1.3759315013885498,-0.0,-0.0,-1.0,0.032660950122881,2.0
13.816827774047852,23.97161865234375,-1.278580904006958,-0.0,-0.0,-1.0,0.0159605704540733,2.0
15.399772644042969,24.86796188354492,-0.6913803815841675,-0.917893083076088,-0.2662137839716645,0.2942830427744031,0.1275527580636039,4.0
15.13360595703125,25.226905822753903,-0.7689459323883057,-0.5146660057212232,0.8231352324056684,0.2399318480890528,0.1264393953892075,3.0
15.52766227722168,24.00027084350586,-0.9558377265930176,-0.0,-0.0,-1.0,0.2623752998891663,2.0
14.780850410461426,24.9421329498291,-0.7943005561828613,-0.0425295132602669,-0.5962434049562915,-0.8016763951545363,0.1851279090978615,3.0
15.665369033813477,24.54916000366211,-1.4688189029693604,-0.0,-0.0,-1.0,0.1637180994416704,1.0
15.64048671722412,24.618772506713867,-1.486894607543945,-0.0,-0.0,-1.0,0.1286309770556501,1.0
15.643075942993164,24.19408416748047,-1.4105525016784668,-0.0,-0.0,-1.0,0.1414858510380309,1.0
15.5402250289917,23.732351303100582,-1.3551061153411863,-0.0,-0.0,-1.0,0.1990161095462278,2.0
15.28219985961914,23.78798484802246,-1.4271812438964844,-0.0,-0.0,-1.0,0.0433855306289528,2.0
14.195430755615234,24.739126205444336,-1.4488246440887451,-0.0,-0.0,-1.0,0.0605639984026165,2.0
14.208606719970703,25.002538681030273,-1.4828684329986572,-0.0,-0.0,-1.0,0.1118276512778262,2.0
14.144371032714844,24.58232879638672,-1.4385576248168943,-0.0,-0.0,-1.0,0.0469500004036164,1.0
14.060221672058104,24.061132431030273,-1.3883652687072754,-0.7038137829639671,-0.0313897591487737,-0.7096906663684761,0.0126444121821986,3.0
14.063386917114258,24.106605529785156,-1.3935155868530271,-0.0,-0.0,-1.0,0.0099068047716916,2.0
15.58066749572754,25.100093841552734,-1.2133173942565918,0.1083886049511767,-0.5256138832638865,-0.8437902322479176,0.2392204355259145,3.0
15.581520080566406,25.297964096069336,-1.2446372509002686,0.6206856702695985,-0.757706293329589,0.2015700170429953,0.1243591580981989,3.0
15.334922790527344,24.793916702270508,-1.215439796447754,0.8228525990730069,-0.4538880406465206,-0.3419053184097312,0.2015613438052553,4.0
15.306983947753906,24.96673583984375,-1.247504949569702,-0.0,-0.0,-1.0,0.214044607387688,1.0
15.009525299072266,25.161022186279297,-0.9531095027923584,0.6314395425552621,-0.5107016152798385,-0.5834963275361422,0.2424412222381007,4.0
15.509602546691896,24.12404441833496,-1.0792760848999023,-0.0,-0.0,-1.0,0.2064719284787628,1.0
15.235795974731444,24.646202087402344,-1.2136106491088867,-0.0,-0.0,-1.0,0.2489565571783268,1.0
15.039710998535156,24.75518798828125,-1.270951271057129,0.8229622417088143,-0.52218371304302,0.2237349292225251,0.1918562498242316,4.0
14.84406852722168,24.942237854003903,-0.956305742263794,-0.0,-0.0,-1.0,0.1714663724523951,2.0
15.451766967773438,23.689130783081055,-1.0291087627410889,-0.0,-0.0,-1.0,0.1240698490369036,1.0
14.127330780029297,25.21324348449707,-1.121727466583252,-0.0,-0.0,-1.0,0.1929191524199066,2.0
14.08274269104004,23.875896453857425,-1.3596091270446775,-0.0,-0.0,-1.0,0.0330186379135594,1.0
15.644800186157228,25.100454330444336,-0.8332207202911377,-0.940249666225948,-0.3080217625327731,0.1450970674004037,0.1992409240402738,3.0
15.425376892089844,25.1826229095459,-0.8820178508758545,-0.0,-0.0,-1.0,0.1657275219767775,1.0
15.19595432281494,25.35265350341797,-0.5643923282623291,-0.2932489295803596,0.7803256313721574,0.5523558403091411,0.1370569588350745,4.0
15.47702693939209,24.81522560119629,-0.826336145401001,-0.0,-0.0,-1.0,0.2480327359474843,2.0
15.30158805847168,24.9410457611084,-0.8734893798828125,-0.0,-0.0,-1.0,0.2139647004965206,2.0
15.472774505615234,24.206951141357425,-0.7520051002502441,-0.0,-0.0,-1.0,0.1519425852778995,1.0
15.115203857421877,24.593244552612305,-0.8643295764923096,-0.0,-0.0,-1.0,0.2461357019518803,1.0
15.050532341003418,24.853342056274418,-0.9077355861663818,-0.0,-0.0,-1.0,0.1331519816661384,2.0
15.609508514404297,25.15703010559082,-1.1755657196044922,-0.0,-0.0,-1.0,0.1988125343801237,1.0
15.592761993408203,25.316225051879883,-1.2106106281280518,0.1623771299525083,-0.8907912463498415,0.4244109130251974,0.124797710051009,3.0
15.439777374267578,24.913908004760746,-1.1598737239837646,-0.0,-0.0,-1.0,0.2403307816708173,2.0
15.350967407226562,25.012113571166992,-1.196225643157959,-0.0,-0.0,-1.0,0.2253625362676952,1.0
15.057034492492676,24.78275680541992,-1.210301637649536,0.740246944967872,-0.64667883925485,-0.1839590697022889,0.2229361586435273,3.0
14.191850662231444,25.191728591918945,-1.4620776176452637,-0.0,-0.0,-1.0,0.068904211700686,1.0
14.110600471496582,24.99048614501953,-1.4436097145080566,0.7462750895478953,-0.5648054628312054,0.3522332747999663,0.1232170610353832,3.0
13.888391494750977,24.639400482177734,-1.431135654449463,-0.0,-0.0,-1.0,0.0245044466893894,1.0
13.898599624633787,24.01626205444336,-1.326774835586548,-0.0,-0.0,-1.0,0.0162936062969767,1.0
13.841856956481934,24.310304641723633,-1.38686203956604,-0.0,-0.0,-1.0,0.009448611990977,1.0
13.793991088867188,23.688779830932617,-1.300262451171875,-0.4158442230743264,0.7363544286707623,-0.5337187813002882,0.0267459523581909,3.0
15.368343353271484,25.25481414794922,-0.8938486576080322,-0.0,-0.0,-1.0,0.1217981464804698,1.0
15.263381958007812,25.50109481811523,-0.9525012969970704,-0.0,-0.0,-1.0,0.1054044765204087,1.0
15.54836654663086,24.856861114501953,-0.9619083404541016,-0.6073786282871403,-0.0540374354961816,-0.7925724935077095,0.2399060962306114,3.0
15.23245620727539,25.060361862182617,-0.884636402130127,-0.0,-0.0,-1.0,0.2085521964066329,1.0
15.595169067382812,24.138450622558594,-0.9818837642669678,-0.0,-0.0,-1.0,0.2299808916369276,2.0
15.343589782714844,24.66735458374023,-0.9658472537994384,-0.0,-0.0,-1.0,0.1613920208991011,2.0
15.060073852539062,24.86594009399414,-0.8827617168426514,-0.0,-0.0,-1.0,0.1256291961589923,2.0
15.573518753051758,23.798051834106445,-0.9237737655639648,-0.0,-0.0,-1.0,0.1294648381341375,1.0
15.466024398803713,24.067718505859375,-0.9950332641601562,-0.6533841552611641,-0.5504352017672469,0.5197213044595197,0.247513572144824,5.0
13.958270072937012,25.25098419189453,-1.1408023834228516,-0.0,-0.0,-1.0,0.1507602709169518,1.0
15.59954071044922,24.1915283203125,-0.680586576461792,-0.0,-0.0,-1.0,0.1446909274213549,1.0
15.122639656066896,25.30090713500977,-0.6794625520706177,-0.0,-0.0,-1.0,0.091764445738735,2.0
14.883270263671877,25.446001052856445,-0.7484502792358398,-0.0,-0.0,-1.0,0.0912456871909789,1.0
14.978757858276367,25.273143768310547,-0.7048990726470947,-0.0,-0.0,-1.0,0.1486223687013765,1.0
15.122194290161133,24.72513198852539,-1.330165147781372,-0.0,-0.0,-1.0,0.1637385586273432,2.0
15.20566177368164,24.551353454589844,-1.2937047481536863,-0.0,-0.0,-1.0,0.1866503150302014,1.0
15.394189834594728,25.030914306640625,-1.4185855388641355,-0.0,-0.0,-1.0,0.1680098897335862,1.0
15.450102806091309,23.99462127685547,-1.176887273788452,-0.832672081886999,-0.5488312026668369,-0.073766625415865,0.1543420621668716,3.0
15.147497177124023,24.896968841552734,-0.9660813808441162,0.1523259131220213,-0.8670227450135729,0.4744137179937693,0.2250114973209012,3.0
15.420923233032228,24.671199798583984,-0.9361743927001952,-0.0,-0.0,-1.0,0.2614933914115748,2.0
15.496938705444336,24.106117248535156,-1.2062427997589111,-0.0,-0.0,-1.0,0.2096662740636937,2.0
15.319422721862791,25.008644104003903,-0.9978580474853516,-0.0,-0.0,-1.0,0.2140140733584311,1.0
15.56850528717041,24.82101058959961,-0.9748971462249756,-0.0,-0.0,-1.0,0.1923983291302793,2.0
15.405928611755373,24.72481155395508,-0.5506988763809204,-0.0,-0.0,-1.0,0.1088118350120648,1.0
14.339447021484377,24.914222717285156,-1.3530917167663574,-0.0,-0.0,-1.0,0.1053676229273024,1.0
14.26246452331543,25.321956634521484,-1.439836502075195,-0.0,-0.0,-1.0,0.1594662253736294,1.0
14.43432331085205,25.29039001464844,-1.4397039413452148,-0.0,-0.0,-1.0,0.0627696462454655,1.0
14.689779281616213,24.777587890625,-1.337472438812256,-0.0,-0.0,-1.0,0.2667822302571405,1.0
14.964767456054688,24.617746353149418,-1.314762830734253,-0.0,-0.0,-1.0,0.149057936531293,2.0
15.186834335327148,24.901582717895508,-1.388148069381714,-0.0,-0.0,-1.0,0.1580187604574661,1.0
14.526606559753418,25.284160614013672,-1.000610589981079,-0.0,-0.0,-1.0,0.1011231612343666,1.0
14.817190170288086,24.98357582092285,-0.9584031105041504,-0.0,-0.0,-1.0,0.1798563216941286,2.0
14.479562759399414,25.637367248535156,-1.0635263919830322,-0.0,-0.0,-1.0,0.1479048876173617,1.0
14.592439651489258,25.596385955810547,-1.060973882675171,-0.0,-0.0,-1.0,0.1601399796276934,1.0
15.127423286437988,25.19301986694336,-0.579832911491394,-0.0,-0.0,-1.0,0.2031003264790653,1.0
14.465566635131836,23.788515090942383,-1.3598140478134155,-0.0,-0.0,-1.0,0.0482230191735223,1.0
14.675167083740234,23.925472259521484,-1.3996962308883667,-0.1102854250554778,-0.3848027778587549,-0.9163863525678012,0.0282385443604122,3.0
15.0819730758667,23.897459030151367,-1.4097384214401243,-0.0,-0.0,-1.0,0.0550963418457502,2.0
15.470109939575195,23.656354904174805,-1.3709152936935425,-0.0,-0.0,-1.0,0.1091127207971842,1.0
15.197715759277344,23.94797134399414,-1.4269975423812866,-0.0,-0.0,-1.0,0.0852685743609976,1.0
15.389887809753418,23.769779205322266,-1.3938459157943726,-0.0,-0.0,-1.0,0.0659276684782825,2.0
14.809356689453123,24.597671508789062,-1.1217859983444214,-0.0,-0.0,-1.0,0.2428285449152372,2.0
15.40151596069336,24.02450180053711,-1.035042643547058,-0.9213685820515908,-0.2226741451202858,-0.3185846215735952,0.1901154713610938,3.0
14.938090324401855,24.79008674621582,-1.1663464307785034,-0.0,-0.0,-1.0,0.1696770145015071,2.0
15.160762786865234,24.71807289123535,-1.162528395652771,-0.0,-0.0,-1.0,0.1473575137643361,1.0
15.46141529083252,24.81224822998047,-1.196963906288147,-0.5350360894947782,0.3405864900590117,-0.7731346750259097,0.255426859791266,4.0
15.359798431396484,24.75089454650879,-0.7386960983276367,-0.0,-0.0,-1.0,0.1597917378693647,1.0
15.089534759521484,25.149715423583984,-0.7904320955276489,-0.0,-0.0,-1.0,0.116404619007106,2.0
15.524581909179688,23.72554588317871,-1.3387550115585327,0.6649492112186836,-0.6516655709877807,0.3649308565863129,0.2226356742907048,3.0
14.405112266540527,23.72735595703125,-1.4052938222885132,-0.0,-0.0,-1.0,0.0482230191735224,2.0
15.064202308654783,23.960601806640625,-1.4245208501815796,0.5993479332482007,0.411778276209426,-0.6864551741760738,0.0922664960216179,3.0
15.60435962677002,23.894065856933594,-1.417474627494812,-0.0,-0.0,-1.0,0.1246429912276643,1.0
13.772534370422363,24.92867660522461,-1.2871476411819458,-0.0,-0.0,-1.0,0.0965048545199288,1.0
15.25644302368164,24.699058532714844,-1.3084930181503296,-0.0,-0.0,-1.0,0.2185864580722823,2.0
15.041910171508787,24.74633026123047,-1.3062833547592163,0.8342162190738638,-0.5204015626284157,0.1823883588610041,0.1772326966385892,3.0
15.66425609588623,23.99007797241211,-1.2568615674972534,-0.0,-0.0,-1.0,0.1714648895819521,2.0
15.634775161743164,24.913780212402344,-1.4362103939056396,-0.0,-0.0,-1.0,0.1996882268242993,1.0
15.615410804748535,23.929603576660156,-1.3519880771636963,-0.0278426760657422,-0.2764386618868343,-0.9606281547007228,0.1526051268333846,4.0
15.454479217529297,23.83000946044922,-1.3476192951202393,-0.0,-0.0,-1.0,0.1346474538959585,2.0
14.078288078308104,25.454978942871097,-1.304821252822876,-0.0,-0.0,-1.0,0.1001073647810019,1.0
13.960721969604492,25.106521606445312,-1.281161546707153,-0.0,-0.0,-1.0,0.1712776410883381,1.0
13.796122550964355,25.01622772216797,-1.2801077365875244,0.9811305150749292,-0.1884772212073699,0.0431190152340323,0.1415099809931666,4.0
15.562345504760742,24.92383575439453,-1.3948776721954346,-0.0,-0.0,-1.0,0.2127747857766972,1.0
14.63543701171875,25.178489685058594,-1.4610226154327393,-0.0,-0.0,-1.0,0.12334825068824,1.0
14.46738338470459,25.117374420166016,-1.4640285968780518,-0.0,-0.0,-1.0,0.0436345963561161,1.0
15.188562393188477,24.895183563232425,-1.0063188076019287,-0.0,-0.0,-1.0,0.120864893802293,1.0
14.91766357421875,25.08869171142578,-1.038100004196167,-0.0,-0.0,-1.0,0.2416610722864833,2.0
14.09190845489502,25.158424377441406,-1.0925438404083252,-0.0,-0.0,-1.0,0.1836371613059078,2.0
15.12398910522461,24.8476505279541,-1.0435004234313965,-0.0,-0.0,-1.0,0.1473494009039133,2.0
15.09200668334961,25.070104598999023,-1.0645570755004885,0.6764697527756441,-0.0108499653065308,-0.7363904886895986,0.2638302249247072,3.0
15.308111190795898,24.879995346069336,-1.1974084377288818,0.3356365351906942,-0.1182736855506175,-0.9345370252437618,0.2148413928659731,3.0
15.097386360168455,24.73407936096191,-1.194065809249878,-0.0,-0.0,-1.0,0.2008755596048111,2.0
14.108783721923828,25.59391975402832,-1.3247015476226809,-0.0,-0.0,-1.0,0.0550283300610707,2.0
15.685199737548828,24.88858413696289,-1.3342700004577637,-0.0,-0.0,-1.0,0.1568268604734786,1.0
15.575462341308594,24.022464752197266,-1.2514290809631348,-0.0,-0.0,-1.0,0.2125243367436322,2.0
15.13131618499756,24.71992874145508,-1.3478631973266602,-0.0,-0.0,-1.0,0.1900876322793236,2.0
13.952116012573242,24.850975036621097,-1.4299616813659668,-0.0,-0.0,-1.0,0.0814091492603636,1.0
15.672449111938477,24.49881935119629,-0.952951431274414,-0.0,-0.0,-1.0,0.1173648935727275,1.0
15.392796516418455,24.857458114624023,-1.0073738098144531,-0.0,-0.0,-1.0,0.1813686352359393,2.0
15.24388313293457,25.08925437927246,-1.0407371520996094,-0.0,-0.0,-1.0,0.2006252501561187,2.0
15.1148681640625,25.03899574279785,-1.0430974960327148,0.4296654416472956,-0.3418167391023586,-0.8357923935544429,0.178943172860247,4.0
15.629460334777832,24.858545303344727,-0.9224340915679932,-0.0,-0.0,-1.0,0.2220059787253664,2.0
15.234829902648926,25.1342716217041,-0.9731018543243408,-0.0,-0.0,-1.0,0.249441281110742,1.0
15.377264022827148,24.78068733215332,-0.9271700382232666,0.4206896798510639,-0.0510585576012461,-0.905766645975932,0.188961994455467,4.0
15.133140563964844,24.792966842651367,-0.9414422512054444,-0.0,-0.0,-1.0,0.2147653171578821,1.0
14.85487937927246,25.108022689819336,-0.9905602931976318,-0.0,-0.0,-1.0,0.2036975085654911,1.0
15.672330856323242,23.87715530395508,-1.2597377300262451,-0.0,-0.0,-1.0,0.1615158485426403,2.0
15.530170440673828,24.014747619628903,-1.2861225605010986,0.073989915921444,0.1733650489976686,-0.9820743618117588,0.1684301181345323,3.0
15.41994857788086,24.666671752929688,-1.3913652896881104,-0.0,-0.0,-1.0,0.2483596529380952,2.0
15.21465301513672,24.74824905395508,-1.411663293838501,-0.0,-0.0,-1.0,0.2597232737764274,1.0
14.663186073303224,25.081588745117188,-1.4850704669952393,-0.0,-0.0,-1.0,0.0853469456494835,1.0
14.288277626037598,24.604454040527344,-1.4263904094696045,-0.0,-0.0,-1.0,0.0390537615770993,1.0
14.184822082519531,24.52819061279297,-1.4189541339874268,-0.0,-0.0,-1.0,0.0420792787473062,2.0
15.299131393432615,24.822830200195312,-1.2633323669433594,-0.0,-0.0,-1.0,0.1411334897485535,1.0
14.978879928588867,24.731348037719727,-1.2604074478149414,-0.0,-0.0,-1.0,0.2450329913996986,2.0
14.835646629333496,24.93242073059082,-1.297215461730957,-0.0,-0.0,-1.0,0.1695934350056981,2.0
14.149072647094728,25.221166610717773,-1.3695402145385742,-0.0,-0.0,-1.0,0.2331756091640985,1.0
13.94835376739502,25.042387008666992,-1.349905014038086,0.5519108183340627,-0.092990926948421,-0.8287020792245536,0.1407483119784956,3.0
13.745445251464844,24.899394989013672,-1.336158275604248,-0.0,-0.0,-1.0,0.0464815490412659,2.0
15.45643711090088,24.881366729736328,-1.2078406810760498,0.0152087368082431,-0.3411421316597488,-0.939888685074642,0.261407018480717,3.0
15.565645217895508,24.03369140625,-1.0722649097442627,-0.0,-0.0,-1.0,0.2308551768233956,1.0
15.21186637878418,24.796977996826172,-1.203945875167847,0.4156636634005427,-0.0407529508688321,-0.9086049284061376,0.200745130073786,4.0
15.024333953857422,24.900897979736328,-1.2274000644683838,0.601825176147851,-0.796613239261658,-0.0566904258905907,0.1854151885431154,3.0
14.869935035705566,24.80426788330078,-1.2185170650482178,-0.0,-0.0,-1.0,0.2100118952299074,1.0
13.867053031921388,25.00979232788086,-1.293895959854126,-0.0,-0.0,-1.0,0.1030653399180427,2.0
15.653806686401367,25.03927230834961,-1.236284255981445,-0.9743301009639652,0.1764112426439169,0.1398568118626254,0.2001630275781642,3.0
15.64255142211914,24.172571182250977,-1.103506565093994,-0.0,-0.0,-1.0,0.1865164082034629,1.0
15.403332710266112,24.88585090637207,-1.2203822135925293,0.298046137081147,0.1846838949347845,-0.9365150074199152,0.2114058892599262,5.0
14.977564811706545,24.82996368408203,-1.2255773544311523,-0.0,-0.0,-1.0,0.1811887802715732,2.0
14.85517406463623,25.49321746826172,-1.3319368362426758,-0.0,-0.0,-1.0,0.2307491832075554,1.0
13.927165985107422,25.044218063354492,-1.297335147857666,-0.0,-0.0,-1.0,0.1247942568102672,1.0
15.480087280273438,23.981416702270508,-1.4361181259155271,0.9459218423850382,0.1936879496748626,0.2602246073099987,0.1767629840153151,3.0
15.391201972961426,24.2972469329834,-1.4905142784118652,-0.0,-0.0,-1.0,0.0739424783615616,2.0
15.633092880249023,23.833301544189453,-1.408677577972412,-0.0,-0.0,-1.0,0.1731163229775408,1.0
15.036163330078123,23.906246185302734,-1.432711124420166,-0.0,-0.0,-1.0,0.0550089608803942,2.0
14.861644744873049,23.8928165435791,-1.4344940185546875,-0.0,-0.0,-1.0,0.0256694174250815,2.0
14.658490180969238,25.590267181396484,-1.188751220703125,-0.0,-0.0,-1.0,0.0954094910825383,1.0
14.211813926696776,25.617338180541992,-1.204103708267212,-0.0,-0.0,-1.0,0.107735240942542,2.0
13.772552490234377,25.620037078857425,-1.216801643371582,-0.0,-0.0,-1.0,0.0924272055837713,1.0
15.664968490600586,24.168270111083984,-0.955010175704956,-0.0,-0.0,-1.0,0.1602709978084453,1.0
15.467601776123049,24.894908905029297,-1.0672452449798584,-0.0,-0.0,-1.0,0.2015456315584297,2.0
15.223708152770996,24.89892578125,-1.0724501609802246,-0.0,-0.0,-1.0,0.2763869656769136,1.0
15.018511772155762,24.99169158935547,-1.090590476989746,-0.0,-0.0,-1.0,0.190674492438412,1.0
14.08174991607666,25.156644821166992,-1.1380372047424316,-0.2760548610211042,-0.9223179188913052,0.270413332139211,0.1836371613059078,4.0
15.700592041015623,23.948928833007812,-1.3666009902954102,-0.0,-0.0,-1.0,0.208006131114911,1.0
15.583703994750977,23.77058219909668,-1.336627721786499,-0.0,-0.0,-1.0,0.1754850551352035,2.0
15.510372161865234,24.020069122314453,-1.3807470798492432,0.598055015410517,0.2431969055049269,-0.7636658062890824,0.2653969464788841,4.0
15.35653591156006,24.51949882507324,-1.4694952964782717,-0.8948665160284955,0.2750200582743148,-0.3515364647341928,0.1220032584418087,3.0
15.004121780395508,24.620067596435547,-1.491851806640625,-0.0,-0.0,-1.0,0.2830461713742425,2.0
14.804208755493164,24.937667846679688,-1.5507192611694336,-0.0,-0.0,-1.0,0.1327874944556138,1.0
14.487208366394045,24.034027099609375,-1.3978943824768066,-0.0,-0.0,-1.0,0.021825600208693,2.0
15.157838821411133,25.23076629638672,-0.7302093505859375,-0.2261449603137457,0.9626125783923448,0.1491156626432518,0.1039605751152197,5.0
15.571971893310549,24.777923583984375,-1.0959851741790771,-0.0,-0.0,-1.0,0.1827332844718324,1.0
15.412765502929688,24.801036834716797,-1.1000323295593262,-0.3693388922630585,-0.6823246881623822,0.6308896912979352,0.2239971488645848,3.0
15.24907684326172,24.926685333251953,-1.121002197265625,-0.0,-0.0,-1.0,0.2230165559455364,1.0
14.969406127929688,25.02591896057129,-1.1383566856384275,-0.0,-0.0,-1.0,0.2152413241059317,2.0
14.91592025756836,25.18016242980957,-1.1637816429138184,-0.0,-0.0,-1.0,0.2399737337314203,1.0
14.092536926269531,25.137378692626953,-1.1641507148742676,-0.0,-0.0,-1.0,0.1951053110566876,2.0
13.823476791381836,25.552907943725582,-1.2356839179992676,-0.0,-0.0,-1.0,0.1141093386456351,2.0
15.695816040039062,23.893171310424805,-0.9529714584350586,-0.0,-0.0,-1.0,0.1300202732050854,1.0
15.664438247680664,24.102737426757812,-0.9867815971374512,-0.0,-0.0,-1.0,0.1826329484416808,1.0
14.677604675292969,25.62733268737793,-1.3105642795562744,-0.0,-0.0,-1.0,0.0776966715133229,1.0
15.565051078796388,24.897850036621097,-1.1984732151031494,-0.0,-0.0,-1.0,0.2208956022564324,2.0
15.630243301391602,24.077985763549805,-1.0615980625152588,-0.9795304840270298,0.1973357233213601,-0.0397321426933956,0.2667183328980287,3.0
15.36508846282959,24.735103607177734,-1.1678309440612793,-0.0,-0.0,-1.0,0.1904868874423179,2.0
15.335798263549805,24.833024978637695,-1.183955430984497,-0.5346737832259022,0.4248638389290765,-0.730489331818986,0.2427528504293691,5.0
15.031471252441406,24.90374755859375,-1.1916728019714355,-0.5437990638736642,-0.8209547771480133,0.1741144221711177,0.1973874502325508,3.0
14.865711212158203,25.190444946289062,-1.2382659912109375,-0.0,-0.0,-1.0,0.1957234514113496,1.0
14.097628593444824,25.08771324157715,-1.2140262126922607,-0.0,-0.0,-1.0,0.0888602727094737,1.0
15.70118522644043,24.99971580505371,-1.3442180156707764,-0.0,-0.0,-1.0,0.229780219135264,1.0
15.620479583740234,23.996387481689453,-1.1597182750701904,-0.0,-0.0,-1.0,0.1553283969579812,1.0
15.38473415374756,24.83000373840332,-1.3142743110656738,0.6253536917547552,-0.7679074712086533,-0.1387475256378655,0.2701238474735626,3.0
15.572198867797852,24.95354461669922,-1.3361985683441162,-0.0,-0.0,-1.0,0.2802389106435218,1.0
15.100507736206056,24.786664962768555,-1.3080668449401855,-0.0,-0.0,-1.0,0.166591187702189,2.0
14.900604248046877,24.905406951904297,-1.33162260055542,-0.0,-0.0,-1.0,0.1618235569063671,1.0
14.830028533935549,25.31591033935547,-1.4085361957550049,-0.0,-0.0,-1.0,0.1836124488230202,1.0
14.824371337890623,24.928321838378903,-1.3365659713745115,-0.0,-0.0,-1.0,0.2037832693973461,2.0
14.791662216186523,25.481122970581055,-1.4396467208862305,-0.0,-0.0,-1.0,0.1701086346178972,1.0
14.209077835083008,25.092716217041016,-1.3743677139282229,-0.0,-0.0,-1.0,0.2446193262920185,1.0
14.225414276123049,25.373308181762695,-1.4264953136444092,-0.0,-0.0,-1.0,0.1427021255195419,1.0
15.502613067626951,24.331308364868164,-1.427863836288452,-0.0,-0.0,-1.0,0.0347148433943863,1.0
15.35214138031006,24.586502075195312,-1.477546453475952,-0.0,-0.0,-1.0,0.1520434981114979,1.0
14.958223342895508,24.64274024963379,-1.4857170581817627,-0.0,-0.0,-1.0,0.2103748271960947,2.0
15.656621932983398,23.876049041748047,-1.3388030529022217,-0.0,-0.0,-1.0,0.2078002899275892,2.0
15.4984130859375,24.067100524902344,-1.3750042915344238,-0.3028816454553297,0.3500246191432714,-0.8864228532928736,0.2639538562091832,6.0
14.413158416748049,24.056201934814453,-1.364879131317139,-0.0,-0.0,-1.0,0.0755945068115768,1.0
14.322025299072266,24.285043716430664,-1.4108693599700928,-0.0,-0.0,-1.0,0.0596105801120779,1.0
13.977102279663086,23.68575668334961,-1.2890877723693848,-0.0,-0.0,-1.0,0.0277361339815878,1.0
15.454696655273438,24.7750244140625,-0.7697763442993164,-0.0,-0.0,-1.0,0.1289371770317148,2.0
15.414052963256836,24.898853302001953,-0.7902829647064209,-0.8385070661125189,0.0686404701590944,-0.5405500771766798,0.1325578464390627,4.0
15.12573528289795,25.23824119567871,-0.8469836711883545,0.0319487049185063,0.6866484857385334,0.7262872278148703,0.1409999215438447,4.0
14.837823867797852,25.000656127929688,-0.8082993030548096,-0.6876285745491684,-0.0711905886956777,-0.7225640757362918,0.2267704744919174,3.0
15.689801216125488,23.77545738220215,-1.3413591384887695,-0.0,-0.0,-1.0,0.1658699502599068,2.0
15.550897598266602,24.41053771972656,-1.477912664413452,-0.0,-0.0,-1.0,0.064334640666632,1.0
15.496187210083008,24.02738380432129,-1.3951878547668457,0.7515926856439886,0.2648788501770371,-0.6041089550862054,0.2344709517542525,3.0
15.46126937866211,24.464778900146484,-1.4896724224090576,-0.0,-0.0,-1.0,0.0797388761486338,2.0
15.035426139831545,24.57183837890625,-1.514159917831421,-0.0,-0.0,-1.0,0.1429720094261146,1.0
14.817012786865234,24.787263870239254,-1.5624797344207764,-0.0,-0.0,-1.0,0.082308302615171,1.0
14.493173599243164,24.070392608642575,-1.4086024761199951,-0.0,-0.0,-1.0,0.0680543614862236,2.0
