x,y,z,nx,ny,nz,curvature,density,label
12.26556396484375,12.646023750305176,-0.4576632976531982,0.3977784648444807,-0.8943005849596015,0.2049359818257467,0.1519031532785153,3.0,0.0
11.955448150634766,12.694222450256348,-0.4590692520141601,-0.0,-0.0,-1.0,0.1861290604411244,2.0,0.0
12.680176734924316,12.386768341064451,-0.4006549119949341,-0.0,-0.0,-1.0,0.1765393083365734,1.0,0.0
12.227919578552246,12.404621124267578,-0.2882077693939209,0.4889264763755921,-0.7339291423821218,-0.4714858583894017,0.1161323203821149,3.0,0.0
12.357601165771484,12.065881729125977,-0.6224565505981445,-0.0,-0.0,-1.0,0.1655652356705556,1.0,0.0
12.119508743286133,11.996576309204102,-0.65159010887146,-0.0,-0.0,-1.0,0.0423016608771328,1.0,0.0
10.946673393249512,11.334247589111328,-0.603179931640625,-0.0,-0.0,-1.0,0.0756939451444948,2.0,0.0
10.618171691894531,11.413623809814451,-0.599021315574646,-0.0,-0.0,-1.0,0.01234542533959,1.0,0.0
11.723540306091309,11.087285995483398,-0.6385594606399536,-0.0,-0.0,-1.0,0.0173751523561997,1.0,0.0
11.443822860717772,11.192703247070312,-0.6200227737426758,-0.0,-0.0,-1.0,0.0193380490829643,1.0,0.0
11.152795791625977,11.273834228515623,-0.6096765995025635,-0.0,-0.0,-1.0,0.0459080709905495,1.0,0.0
10.223320960998535,10.83754539489746,-0.437089204788208,-0.3407270318108161,-0.7367328959949687,-0.5840631213766686,0.1078035313556214,3.0,0.0
12.692901611328123,11.055317878723145,-0.6326966285705566,-0.0,-0.0,-1.0,0.1585170731162579,1.0,0.0
12.398712158203123,11.026464462280272,-0.6423496007919312,-0.0,-0.0,-1.0,0.1331651077644072,1.0,0.0
11.932872772216797,11.019121170043944,-0.6514890193939209,-0.0,-0.0,-1.0,0.0289921682372959,1.0,0.0
12.43212604522705,10.77036476135254,-0.4190397262573242,-0.0,-0.0,-1.0,0.1110782307706058,1.0,0.0
12.130712509155272,12.326805114746094,-0.0703158378601074,0.4495953623131139,-0.8739196602348902,-0.1847388363108143,0.1723953114173094,9.0,0.0
12.43543529510498,10.677817344665527,-0.1509531736373901,0.5694092715664669,0.0462952588727742,-0.8207495540419432,0.1379965506854106,3.0,0.0
10.42120361328125,12.128362655639648,-0.6618205308914185,-0.0,-0.0,-1.0,0.0066544390132234,1.0,0.0
10.972293853759766,12.016331672668455,-0.6727304458618164,-0.0,-0.0,-1.0,0.0094221398067899,2.0,0.0
10.688297271728516,12.071423530578612,-0.6662930250167847,-0.0,-0.0,-1.0,0.0061762609242708,1.0,0.0
11.516657829284668,11.86350440979004,-0.7083815336227417,-0.0,-0.0,-1.0,0.0094480653770059,1.0,0.0
11.246325492858888,11.930891036987305,-0.691545844078064,-0.0,-0.0,-1.0,0.0144234057832481,1.0,0.0
10.79686164855957,11.323437690734863,-0.6150604486465454,0.1130557997615615,-0.8005002001220161,-0.588572693679282,0.0687791305402014,3.0,0.0
10.47750186920166,11.343057632446287,-0.6146472692489624,-0.0,-0.0,-1.0,0.0125468797080223,2.0,0.0
12.38906192779541,11.975591659545898,-0.6721842288970947,-0.0,-0.0,-1.0,0.186848557184669,1.0,0.0
12.012393951416016,11.876155853271484,-0.7015539407730103,-0.0,-0.0,-1.0,0.045243555107016,1.0,0.0
11.78740692138672,11.830818176269531,-0.7163393497467041,-0.0,-0.0,-1.0,0.0146550960613568,1.0,0.0
11.399843215942385,11.241764068603516,-0.6367068290710449,-0.0,-0.0,-1.0,0.0181259424263435,1.0,0.0
11.047901153564451,11.27088737487793,-0.628192663192749,-0.0,-0.0,-1.0,0.038938509442298,1.0,0.0
12.272601127624512,11.2454252243042,-0.6510055065155029,-0.0,-0.0,-1.0,0.0881636078942985,1.0,0.0
11.965746879577637,11.14072036743164,-0.67425537109375,-0.0,-0.0,-1.0,0.028927447565025,1.0,0.0
11.652727127075195,11.19256591796875,-0.6533100605010986,-0.0,-0.0,-1.0,0.0116337836887467,1.0,0.0
12.516863822937012,11.158233642578123,-0.6860356330871582,-0.0,-0.0,-1.0,0.1373468628310783,1.0,0.0
12.167718887329102,11.12067699432373,-0.685269832611084,-0.0,-0.0,-1.0,0.0537170780791074,1.0,0.0
12.519647598266602,12.746328353881836,-0.4160951375961303,-0.0,-0.0,-1.0,0.1317306273080613,1.0,0.0
12.137412071228027,12.665207862854004,-0.4417600631713867,-0.0,-0.0,-1.0,0.1811380984330826,1.0,0.0
12.623245239257812,12.479076385498049,-0.3994779586791992,-0.0,-0.0,-1.0,0.1871726692492876,2.0,0.0
12.278558731079102,12.424885749816896,-0.2999583482742309,-0.0865038125485511,-0.978617894767316,-0.1866121819596762,0.118094634043994,6.0,0.0
10.29259204864502,10.832356452941896,-0.4594824314117431,-0.0,-0.0,-1.0,0.0727301603716719,2.0,0.0
12.645233154296877,10.844585418701172,-0.515613317489624,-0.5099880273248649,-0.0693667532029313,-0.8573800006621197,0.1949398441186758,3.0,0.0
12.341800689697266,10.681554794311523,-0.5439531803131104,-0.0,-0.0,-1.0,0.1614072187322966,2.0,0.0
12.16358470916748,12.347929000854492,-0.0999356508255004,0.3555416042139039,-0.934651004535232,-0.0042032599593393,0.0890981657715514,7.0,0.0
12.002227783203123,12.226117134094238,0.0961785316467285,-0.0515886920344984,-0.9950514557658028,-0.0849188273148315,0.0779571893832235,9.0,1.0
12.324247360229492,10.754474639892578,-0.2517718076705932,-0.4067878421883734,0.8085546521688143,-0.4251623524065775,0.1940819164430624,4.0,0.0
12.451250076293944,10.776477813720703,-0.2537012100219726,-0.0,-0.0,-1.0,0.1739256523690814,2.0,0.0
10.733001708984377,11.224772453308104,-0.5939750671386719,-0.0,-0.0,-1.0,0.1008177459949506,1.0,0.0
10.323912620544434,11.154182434082031,-0.4809941053390503,-0.0,-0.0,-1.0,0.2026574609552098,1.0,0.0
10.21151065826416,10.83677101135254,-0.4292225837707519,-0.3407270318108161,-0.7367328959949687,-0.5840631213766686,0.0908567915792247,3.0,0.0
11.274280548095703,11.114622116088867,-0.6282260417938232,0.8076759527050241,0.559076138826483,-0.1873323955350565,0.0151384169301069,5.0,0.0
11.045673370361328,11.167367935180664,-0.6106665134429932,-0.0,-0.0,-1.0,0.0806619407998815,2.0,0.0
11.887434005737305,11.120258331298828,-0.6397589445114136,-0.0,-0.0,-1.0,0.0201441575274652,2.0,0.0
11.572990417480469,11.114532470703123,-0.6335008144378662,-0.0,-0.0,-1.0,0.0210999794343461,1.0,0.0
12.403493881225586,11.173532485961914,-0.6444052457809448,-0.0,-0.0,-1.0,0.1217434357864475,1.0,0.0
12.118926048278809,11.121850967407228,-0.6480262279510498,-0.6038674134169139,-0.7855414579452863,0.1351619948889483,0.0873999661552379,3.0,0.0
12.708937644958496,11.108236312866213,-0.6835124492645264,-0.0,-0.0,-1.0,0.1517160638538058,1.0,0.0
12.387197494506836,10.65383243560791,-0.5452399253845215,-0.0,-0.0,-1.0,0.0894164270263641,2.0,0.0
12.20800495147705,12.612186431884766,-0.1793358325958252,-0.0,-0.0,-1.0,0.073814586582037,1.0,0.0
12.18796730041504,12.34823226928711,-0.1578208208084106,0.9723517333939832,-0.1785162238546546,-0.1505458879756968,0.1151884806911462,5.0,0.0
12.525643348693848,10.775486946105955,-0.3912825584411621,-0.0,-0.0,-1.0,0.0545911045116449,2.0,0.0
12.001260757446287,12.220566749572754,0.1232134103775024,0.0749872584817065,-0.9783101790284082,-0.1930961021740249,0.0779571893832235,8.0,1.0
10.216819763183594,11.036664962768556,-0.3461536169052124,-0.9402952017933373,-0.1970072159392102,-0.2775483567818567,0.1219133328975842,3.0,0.0
10.730567932128906,11.091055870056152,-0.4460809230804443,-0.0,-0.0,-1.0,0.2196366956221967,2.0,0.0
10.602994918823242,10.772846221923828,-0.5370473861694336,-0.1281040304095161,-0.0710772758930262,-0.9892104822758724,0.0625648874959179,5.0,0.0
12.700014114379885,10.84109115600586,-0.5481882095336914,-0.0,-0.0,-1.0,0.1707721376122434,1.0,0.0
12.39980697631836,10.675811767578123,-0.583640456199646,-0.0,-0.0,-1.0,0.0847956385565306,2.0,0.0
12.146199226379396,12.312028884887695,-0.0899567604064941,0.6802438630361635,-0.7319240013154373,-0.0394403739845007,0.182904369096123,6.0,0.0
12.248824119567873,10.75629425048828,-0.3094403743743896,0.3112897554680035,0.9451706954536202,-0.0987473776684237,0.2068757349204214,6.0,0.0
12.674824714660645,10.821935653686523,-0.3142106533050537,-0.0,-0.0,-1.0,0.127262718483844,2.0,0.0
12.413400650024414,10.671547889709473,-0.2173571586608886,-0.0,-0.0,-1.0,0.1278518808402113,1.0,0.0
12.00966453552246,12.22658348083496,0.0794093608856201,-0.1009876050375553,-0.974348072199796,-0.2011152351994233,0.0503920467104021,8.0,1.0
12.474913597106934,10.693954467773438,-0.2110568284988403,-0.0,-0.0,-1.0,0.1307665531545945,1.0,0.0
12.699495315551758,10.665056228637695,-0.2166470289230346,-0.0,-0.0,-1.0,0.1281121376132366,2.0,0.0
10.652324676513672,10.931581497192385,-0.5206602811813354,0.0639567929438953,-0.5217468480428877,-0.8506995681165255,0.0648706055359237,3.0,0.0
10.303598403930664,11.03097152709961,-0.4601157903671264,-0.965171142116454,0.2318416988545977,0.1212191944282493,0.1624173951904204,3.0,0.0
10.348122596740724,10.6856050491333,-0.4357475042343139,-0.5982954559627099,0.2867588878376454,-0.7482057789274887,0.1207509113078061,4.0,0.0
12.431549072265623,12.407535552978516,-0.3590272665023803,-0.0,-0.0,-1.0,0.055163790033537,1.0,0.0
12.679049491882324,12.956159591674805,-0.3842602968215942,-0.0,-0.0,-1.0,0.1511841152083831,2.0,0.0
12.123032569885254,12.174623489379885,0.1170281171798706,-0.0,-0.0,-1.0,0.0765019299829115,2.0,1.0
12.522887229919434,11.468667984008787,-0.6886379718780518,-0.0,-0.0,-1.0,0.0463303852658742,1.0,0.0
12.449209213256836,11.284759521484377,-0.6718112230300903,-0.0,-0.0,-1.0,0.1320546977108374,2.0,0.0
12.353705406188965,12.282638549804688,-0.2962337732315063,-0.0,-0.0,-1.0,0.1427463229631843,1.0,0.0
10.25573444366455,10.948664665222168,-0.4403212070465088,-0.0,-0.0,-1.0,0.1139452722766501,2.0,0.0
10.242188453674316,10.69735336303711,-0.4187490940093994,0.0169735368909033,-0.8392436502100445,-0.5434905653528255,0.1327718941986601,3.0,0.0
10.219476699829102,10.916015625,-0.4000918865203857,-0.0,-0.0,-1.0,0.0909391040484789,2.0,0.0
11.10695743560791,10.974851608276367,-0.5764316320419312,-0.0,-0.0,-1.0,0.0320002284044407,1.0,0.0
11.349892616271973,11.15752410888672,-0.5821293592453003,-0.0,-0.0,-1.0,0.0178967912139354,1.0,0.0
11.28061866760254,11.112607955932615,-0.5811229944229126,0.8076759527050241,0.559076138826483,-0.1873323955350565,0.0151384169301069,5.0,0.0
12.231338500976562,12.314552307128906,-0.0276911258697509,0.7685769946472204,-0.15932149637221,-0.6196015365480998,0.204306430780296,3.0,0.0
12.30410099029541,12.335270881652832,-0.2897166013717651,-0.0,-0.0,-1.0,0.1384624762476352,1.0,0.0
12.312788963317873,12.522149085998535,-0.4425760507583618,-0.0,-0.0,-1.0,0.1292278135264344,1.0,0.0
11.199682235717772,11.23296070098877,-0.6072440147399902,0.9777920697186951,-0.1974133684003772,0.0703607161138023,0.0418177435780406,3.0,0.0
12.612914085388184,12.106484413146973,-0.6352789402008057,-0.0,-0.0,-1.0,0.1583256965742905,1.0,0.0
11.564971923828123,11.427620887756348,-0.6105897426605225,-0.0,-0.0,-1.0,0.0114958117474201,2.0,0.0
11.052343368530272,10.75361156463623,-0.5722427368164062,-0.0,-0.0,-1.0,0.0289736279429219,2.0,0.0
10.91172695159912,11.058100700378418,-0.5041866302490234,-0.0,-0.0,-1.0,0.2174547751513854,1.0,0.0
11.424324035644531,11.227038383483888,-0.5226869583129883,-0.0,-0.0,-1.0,0.0312977353940605,1.0,0.0
12.424083709716797,12.491106033325195,-0.4060025215148926,-0.9608315744387436,-0.1408662663912764,-0.2386616444981207,0.1174880153036108,3.0,0.0
12.30453109741211,11.358102798461914,-0.6806612014770508,-0.0,-0.0,-1.0,0.0782805884514723,1.0,0.0
10.889690399169922,10.993600845336914,-0.5988433361053467,-0.0,-0.0,-1.0,0.1409742014710384,2.0,0.0
10.693222045898438,10.764608383178713,-0.5864925384521484,-0.0,-0.0,-1.0,0.0422439513193087,1.0,0.0
12.414043426513672,11.854562759399414,-0.6270327568054199,-0.0,-0.0,-1.0,0.1738391844270553,1.0,0.0
11.290056228637695,11.128702163696287,-0.5984406471252441,0.8076759527050241,0.559076138826483,-0.1873323955350565,0.0151384169301069,5.0,0.0
12.637555122375488,12.63125228881836,-0.4820132255554199,-0.0,-0.0,-1.0,0.2520105025027251,1.0,0.0
10.279887199401855,10.800498962402344,-0.4227149486541748,-0.0,-0.0,-1.0,0.1308404370887972,2.0,0.0
10.223885536193848,10.804332733154297,-0.316011905670166,-0.1763277197294538,-0.1574773936997726,-0.9716529245201388,0.0907081902847154,4.0,0.0
10.500236511230469,12.913429260253906,-0.6491858959197998,-0.0,-0.0,-1.0,0.0253608242786169,1.0,0.0
11.233192443847656,11.384193420410156,-0.4814612865447998,-0.0,-0.0,-1.0,0.0327762600193664,1.0,0.0
10.649029731750488,11.056468963623049,-0.4874703884124756,-0.0,-0.0,-1.0,0.1358000334519683,1.0,0.0
12.248411178588867,12.35330581665039,-0.1278142929077148,-0.4949759415496786,-0.8689003228356217,-0.003323591906659,0.1203191550482454,8.0,0.0
12.686673164367676,13.058279037475586,-0.3944833278656006,0.9499376759110651,-0.3114877866950595,0.0243674090641017,0.1986229763934214,3.0,0.0
12.415706634521484,12.47197151184082,-0.3480677604675293,0.28716027638282,-0.4490576547384025,-0.8461005840847696,0.063366804155519,4.0,0.0
11.696297645568848,12.643133163452148,-0.6489944458007812,-0.4333888893803359,-0.5061450491684925,-0.7456482144844869,0.0891567153887104,3.0,0.0
11.513662338256836,12.756479263305664,-0.6755716800689697,-0.0,-0.0,-1.0,0.0899832975220043,1.0,0.0
11.036417961120604,12.78840446472168,-0.7137229442596436,-0.0,-0.0,-1.0,0.0364372053288616,1.0,0.0
11.12479019165039,13.048349380493164,-0.7385251522064209,-0.0,-0.0,-1.0,0.040242729272293,1.0,0.0
10.918834686279297,12.523897171020508,-0.6906542778015137,-0.0,-0.0,-1.0,0.0209005968478934,1.0,0.0
10.781360626220703,11.733797073364258,-0.6064953804016113,-0.0,-0.0,-1.0,0.0171438844762191,1.0,0.0
10.811269760131836,11.842880249023438,-0.6172318458557129,-0.0,-0.0,-1.0,0.0137401570568174,2.0,0.0
10.496506690979004,11.584251403808594,-0.610285758972168,-0.0,-0.0,-1.0,0.0160923980797109,2.0,0.0
10.452598571777344,10.811817169189451,-0.5220568180084229,0.2420813715731304,0.8205280103778385,0.5178130876316837,0.0718001121326663,3.0,0.0
12.607933044433594,12.945871353149414,-0.4675624370574951,-0.0,-0.0,-1.0,0.1581891286622052,1.0,0.0
12.362090110778809,12.745519638061523,-0.4609808921813965,-0.6645880989794716,-0.7391847808342703,-0.1092177571544304,0.1449400014038368,4.0,0.0
10.23777198791504,12.72700309753418,-0.6220262050628662,-0.0,-0.0,-1.0,0.0406953071649675,1.0,0.0
10.29051399230957,10.907337188720703,-0.4031310081481933,-0.895041168845748,0.4263285232319218,0.1309400486868939,0.0732161811220039,5.0,0.0
12.16482162475586,10.748455047607422,-0.597402811050415,-0.0,-0.0,-1.0,0.1468212513966744,1.0,0.0
11.709177017211914,10.656658172607422,-0.6231787204742432,-0.6069703574347752,-0.684801722278095,-0.4032785468636489,0.0249622720646791,3.0,0.0
11.721879005432127,12.31100845336914,-0.6787300109863281,-0.0,-0.0,-1.0,0.020954575248071,1.0,0.0
11.754115104675291,12.554615020751951,-0.7106211185455322,-0.0,-0.0,-1.0,0.0643638008113293,1.0,0.0
11.517780303955078,12.17534637451172,-0.6753900051116943,-0.0,-0.0,-1.0,0.0132753183941193,1.0,0.0
11.552382469177246,12.275318145751951,-0.6867477893829346,-0.0,-0.0,-1.0,0.0188909299702462,1.0,0.0
11.2806396484375,11.588151931762695,-0.6115126609802246,-0.0,-0.0,-1.0,0.0256594291519269,2.0,0.0
11.340736389160156,12.053890228271484,-0.6721234321594238,-0.0,-0.0,-1.0,0.0114656383344967,1.0,0.0
11.067445755004885,11.421098709106444,-0.6052286624908447,-0.0,-0.0,-1.0,0.0400594652022027,1.0,0.0
10.783483505249023,11.083843231201172,-0.5813038349151611,-0.0,-0.0,-1.0,0.1843168966838758,2.0,0.0
12.62105941772461,13.082679748535156,-0.3877441883087158,0.6899839950093362,-0.6919327955277242,0.2124878657809545,0.2118387713454496,3.0,0.0
10.226524353027344,10.756633758544922,-0.2987651824951172,-0.8700678793990998,-0.4715779758337283,-0.1435134068528687,0.1005031262181158,3.0,0.0
12.07866096496582,10.750075340270996,-0.5304605960845947,-0.0,-0.0,-1.0,0.179042529808937,1.0,0.0
12.061691284179688,11.01596736907959,-0.5752935409545898,-0.0,-0.0,-1.0,0.0910916657596487,1.0,0.0
11.788581848144531,10.721861839294434,-0.5457391738891602,-0.0,-0.0,-1.0,0.0307460738121456,1.0,0.0
12.21872329711914,12.312373161315918,0.0233962535858154,-0.0,-0.0,-1.0,0.1803584132944935,2.0,1.0
12.184062004089355,10.677871704101562,-0.6042711734771729,-0.0,-0.0,-1.0,0.1077623454632717,1.0,0.0
12.2732515335083,12.364704132080078,-0.1383061408996582,-0.2339077081245291,-0.7859208605285042,-0.5723771353452767,0.1260415889362516,6.0,0.0
11.840134620666504,12.140667915344238,-0.6787035465240479,-0.0,-0.0,-1.0,0.0105019213468389,1.0,0.0
11.45938205718994,11.71480655670166,-0.6324765682220459,-0.0,-0.0,-1.0,0.0100509566733268,1.0,0.0
11.565486907958984,11.900242805480955,-0.6571290493011475,-0.0,-0.0,-1.0,0.0134347663941233,2.0,0.0
11.270750999450684,11.446356773376465,-0.6001040935516357,-0.0026745799380303,-0.705953159786178,-0.7082534735601844,0.0263256516259109,3.0,0.0
11.007328033447266,11.222886085510254,-0.5827569961547852,0.1659332647979055,-0.7677040864850717,-0.6189479681101073,0.1092597702800653,3.0,0.0
10.633782386779783,10.761120796203612,-0.5340797901153564,-0.0765398145254178,-0.4287916083810114,-0.9001552162679718,0.0562346980236112,3.0,0.0
10.76490592956543,11.073468208312988,-0.5775418281555176,-0.0,-0.0,-1.0,0.2029997122556311,2.0,0.0
11.874065399169922,12.07872200012207,-0.6849451065063477,-0.0,-0.0,-1.0,0.008728814299714,1.0,0.0
11.45325756072998,11.584495544433594,-0.6229689121246338,-0.0,-0.0,-1.0,0.0094430794683263,2.0,0.0
11.5703125,11.808053970336914,-0.6563818454742432,-0.0,-0.0,-1.0,0.0110673236762443,1.0,0.0
11.277263641357422,11.459728240966797,-0.6134567260742188,-0.0,-0.0,-1.0,0.0247706884138514,2.0,0.0
11.102890968322754,11.342046737670898,-0.6054685115814209,0.2519383001148087,0.3645661937227272,-0.8964477582825356,0.0564875717680251,3.0,0.0
10.90561580657959,11.189085006713867,-0.5932731628417969,0.1574548428685906,-0.2397762952358588,-0.9579745824917244,0.1022688675812953,3.0,0.0
10.58009147644043,10.744857788085938,-0.5380511283874512,-0.7926123056743011,0.6047578609061091,-0.0776766539311238,0.0743145540835165,4.0,0.0
10.68072509765625,11.01409149169922,-0.5797743797302246,-0.0,-0.0,-1.0,0.0805465579910714,1.0,0.0
12.183479309082031,12.32282829284668,-0.0136237144470214,0.7708878820386951,-0.6229872912325528,-0.1327354824024885,0.1734101144317562,9.0,0.0
12.395371437072754,12.789692878723145,-0.5344836711883545,0.6063087467149674,-0.6018741876796091,-0.5197472134239259,0.18165920038474,3.0,0.0
11.807265281677246,13.06518268585205,-0.6242709159851074,-0.0,-0.0,-1.0,0.0701549717822718,1.0,0.0
11.570234298706056,12.920336723327637,-0.6125805377960205,-0.0,-0.0,-1.0,0.0699497813238181,1.0,0.0
11.382729530334473,13.038256645202637,-0.6480612754821777,-0.0,-0.0,-1.0,0.097768590137654,1.0,0.0
10.78029727935791,13.03041934967041,-0.6907196044921875,0.75930782081565,0.4521720229707913,0.4679659121033183,0.0757968310698347,4.0,0.0
10.55832576751709,12.946005821228027,-0.6919856071472168,-0.0,-0.0,-1.0,0.0368377968841411,2.0,0.0
10.210363388061523,12.671544075012209,-0.6683018207550049,-0.0,-0.0,-1.0,0.0405425557041834,2.0,0.0
10.364160537719728,12.902003288269045,-0.6990962028503418,-0.3390664499960944,-0.2475485506000362,-0.9076087579914968,0.0437886674595,3.0,0.0
12.519760131835938,12.605975151062012,-0.4918360710144043,-0.6701119506028237,-0.6311180726091257,-0.3906916329861964,0.1404488977338908,4.0,0.0
10.240784645080566,11.105792045593262,-0.3717851638793945,-0.8216101485007555,0.3309492192943323,-0.464143704179038,0.1978248596823314,6.0,0.0
12.123860359191896,11.071151733398438,-0.5897891521453857,-0.0,-0.0,-1.0,0.0943208763973141,2.0,0.0
12.003047943115234,11.28335666656494,-0.6464836597442627,-0.0,-0.0,-1.0,0.0161433903704169,2.0,0.0
11.663494110107422,11.027908325195312,-0.6141071319580078,-0.1873454930805978,-0.255896260976426,-0.9483769133844792,0.0146897238300339,3.0,0.0
11.774568557739258,11.177763938903809,-0.6394052505493164,-0.0,-0.0,-1.0,0.0151684490590461,1.0,0.0
11.296475410461426,10.849867820739746,-0.6033973693847656,-0.0,-0.0,-1.0,0.020915354999194,2.0,0.0
11.072301864624023,10.652124404907228,-0.577892541885376,-0.0,-0.0,-1.0,0.0227357363716864,2.0,0.0
12.316669464111328,12.427437782287598,-0.2529764175415039,-0.8125316130955723,-0.0698959703925302,0.5787114402214577,0.1290093491705247,6.0,0.0
12.10523509979248,12.829434394836426,-0.7274987697601318,-0.0,-0.0,-1.0,0.1706621106273192,1.0,0.0
11.908191680908203,12.762459754943848,-0.725109338760376,-0.0,-0.0,-1.0,0.1255620210747814,1.0,0.0
11.565563201904297,12.534756660461426,-0.6968488693237305,-0.0,-0.0,-1.0,0.0600334899078192,1.0,0.0
11.178315162658691,12.416523933410645,-0.6987936496734619,-0.0,-0.0,-1.0,0.0201283001286062,1.0,0.0
10.90180206298828,11.91287326812744,-0.6063692569732666,-0.0,-0.0,-1.0,0.009999326149706,2.0,0.0
10.977943420410156,12.145926475524902,-0.6530330181121826,-0.0,-0.0,-1.0,0.0081634252837555,2.0,0.0
10.500909805297852,11.812507629394531,-0.6179056167602539,-0.0,-0.0,-1.0,0.0135619105359592,1.0,0.0
10.31568431854248,11.753766059875488,-0.6212029457092285,-0.0,-0.0,-1.0,0.011896925269171,1.0,0.0
10.853678703308104,11.208074569702148,-0.4506418704986572,-0.0,-0.0,-1.0,0.1565558802428556,2.0,0.0
10.313799858093262,10.940503120422363,-0.4383485317230224,-0.3592661607473711,0.2148417209383747,-0.9081689604286648,0.0790107712509952,5.0,0.0
12.17497444152832,12.31446361541748,-0.0179123878479003,0.199733769346347,-0.9627671333753306,-0.1821698884968332,0.1734101144317561,11.0,0.0
12.164209365844728,12.854004859924316,-0.6178996562957764,-0.0,-0.0,-1.0,0.2366555883650379,1.0,0.0
12.05049991607666,12.939616203308104,-0.6448192596435547,-0.0,-0.0,-1.0,0.2395573193925755,2.0,0.0
12.238381385803224,10.69282341003418,-0.6189534664154053,0.6984046318202186,-0.5203510188483517,-0.4913916843369933,0.1113961226032586,3.0,0.0
12.18278694152832,10.859590530395508,-0.6669495105743408,-0.0,-0.0,-1.0,0.0544894203860193,1.0,0.0
11.708560943603516,10.674453735351562,-0.6524698734283447,-0.6069703574347752,-0.684801722278095,-0.4032785468636489,0.0249622720646791,3.0,0.0
10.862082481384276,12.964279174804688,-0.7386536598205566,-0.0,-0.0,-1.0,0.0799277845564836,1.0,0.0
10.497421264648438,12.792146682739258,-0.7309825420379639,-0.0,-0.0,-1.0,0.0268430604025652,1.0,0.0
10.218255996704102,12.636719703674316,-0.7211332321166992,-0.0,-0.0,-1.0,0.037366289953824,1.0,0.0
12.600024223327637,12.672995567321776,-0.5501177310943604,-0.0,-0.0,-1.0,0.2720627429757911,2.0,0.0
12.327279090881348,12.812512397766112,-0.5982446670532227,-0.0,-0.0,-1.0,0.1936247898335204,1.0,0.0
10.216588973999023,11.070350646972656,-0.3692822456359863,-0.8763323139749689,0.020257334930832,-0.4812809115940263,0.1978248596823314,7.0,0.0
12.113519668579102,12.277399063110352,0.0596590042114257,-0.8012719608959827,-0.2362472637346219,-0.5496821582149184,0.081133069753229,6.0,1.0
12.704667091369627,12.726466178894045,-0.4918789863586426,-0.0,-0.0,-1.0,0.1640201532565792,1.0,0.0
12.403050422668455,12.719597816467283,-0.5045382976531982,-0.8960425666307185,-0.308950007139723,-0.3188379084647868,0.2133088209197737,4.0,0.0
12.249743461608888,12.987013816833496,-0.5732913017272949,0.407946638154863,-0.900830763981971,-0.1486050977651964,0.1860892154527682,3.0,0.0
12.026951789855955,12.780376434326172,-0.5386979579925537,-0.0,-0.0,-1.0,0.1578629129528461,1.0,0.0
12.256573677062988,10.96385097503662,-0.583824872970581,-0.0,-0.0,-1.0,0.1033412423115462,2.0,0.0
12.052009582519531,11.158283233642578,-0.6470563411712646,-0.2346270085510668,0.6441378909497463,-0.7280360872245212,0.0490192866171821,3.0,0.0
11.738110542297363,10.952242851257324,-0.6125326156616211,0.1048817498886466,-0.3347965282940146,-0.9364353171375857,0.0144878008141116,3.0,0.0
10.787063598632812,12.992431640625,-0.6696987152099609,0.7936365331512888,0.3966390516619826,0.4613225725501475,0.0956170674289505,3.0,0.0
11.364521980285645,10.796796798706056,-0.5979917049407959,-0.0,-0.0,-1.0,0.018371517611102,1.0,0.0
10.529155731201172,12.971824645996094,-0.685366153717041,-0.0,-0.0,-1.0,0.035410920082326,2.0,0.0
11.049294471740724,10.641800880432127,-0.5819058418273926,-0.0,-0.0,-1.0,0.0246102180986139,2.0,0.0
10.27733039855957,11.095621109008787,-0.2853529453277588,-0.0,-0.0,-1.0,0.097773339577223,1.0,0.0
12.12058925628662,12.201231956481934,0.106396198272705,-0.0,-0.0,-1.0,0.0765019299829115,2.0,1.0
12.19286823272705,12.881834030151367,-0.6591265201568604,-0.0,-0.0,-1.0,0.240076605732089,1.0,0.0
11.933605194091797,12.89519500732422,-0.6745259761810303,-0.0,-0.0,-1.0,0.1216450347504452,1.0,0.0
11.271258354187012,13.106734275817873,-0.7633202075958252,-0.0,-0.0,-1.0,0.0747741865658701,1.0,0.0
10.902426719665527,12.849651336669922,-0.7258622646331787,-0.0,-0.0,-1.0,0.0490893897304977,1.0,0.0
12.191229820251465,12.727441787719728,-0.621729850769043,-0.0,-0.0,-1.0,0.1677660457566352,1.0,0.0
12.238116264343262,12.764451026916504,-0.6285722255706787,-0.0,-0.0,-1.0,0.151902514524791,2.0,0.0
11.67872714996338,12.760649681091309,-0.6555395126342773,0.5111747434338404,-0.3521512198842324,-0.7840216196058591,0.1332238697697983,4.0,0.0
10.54135513305664,12.678325653076172,-0.7111988067626953,-0.0,-0.0,-1.0,0.0223642904544606,1.0,0.0
10.275102615356444,12.566447257995604,-0.7055788040161133,-0.0,-0.0,-1.0,0.0295786766766749,1.0,0.0
12.216836929321287,12.281627655029297,-0.0372133255004882,0.7685769946472204,-0.15932149637221,-0.6196015365480998,0.2250754049121288,3.0,0.0
12.37459945678711,10.669283866882324,-0.1171877384185791,-0.7107835718479804,-0.2498512581667128,-0.6575416814039529,0.1231127168368933,5.0,0.0
10.307263374328612,11.131217956542969,-0.3602447509765625,0.6549684512876331,0.5621115881358968,-0.5050216731004913,0.2050134135525862,5.0,0.0
12.457533836364746,12.593338012695312,-0.6271655559539795,-0.0,-0.0,-1.0,0.2137692868007465,1.0,0.0
12.21364688873291,12.794666290283203,-0.6869933605194092,-0.0,-0.0,-1.0,0.1626953287338545,2.0,0.0
11.731660842895508,12.745933532714844,-0.6922376155853271,-0.0,-0.0,-1.0,0.098956338881834,1.0,0.0
11.826102256774902,12.911768913269045,-0.7314128875732422,-0.0,-0.0,-1.0,0.0984954776469151,1.0,0.0
11.327688217163086,12.900091171264648,-0.7513113021850586,-0.0,-0.0,-1.0,0.0751487286811207,1.0,0.0
10.926542282104492,12.707232475280762,-0.7232151031494141,-0.0,-0.0,-1.0,0.0322149270405942,1.0,0.0
10.550555229187012,12.560524940490724,-0.7090685367584229,-0.0,-0.0,-1.0,0.0165439735929607,2.0,0.0
10.23475742340088,12.384174346923828,-0.6859166622161865,-0.0,-0.0,-1.0,0.0221450964292606,1.0,0.0
10.276928901672363,11.15439224243164,-0.363765001296997,-0.1067807652491673,0.4890872539542236,-0.8656740299860676,0.2113592279833816,5.0,0.0
12.262107849121094,12.36848258972168,-0.1290082931518554,-0.4949759415496786,-0.8689003228356217,-0.003323591906659,0.1174016314234357,8.0,0.0
12.379169464111328,10.645487785339355,-0.1217784881591796,-0.7107835718479804,-0.2498512581667128,-0.6575416814039529,0.1495921471635994,5.0,0.0
12.271323204040527,12.400185585021973,-0.2107691764831543,-0.2675326084956333,-0.8804939948812855,-0.3913523072239601,0.1179490335493737,7.0,0.0
12.30874252319336,12.428943634033203,-0.2307033538818359,-0.9192269158394922,-0.0258836894907935,0.3928764587176991,0.1641886550760001,9.0,0.0
12.173542976379396,12.309285163879396,-0.0441956520080566,0.2326555978246053,-0.9561546369009042,-0.1778754708603064,0.1665869306367654,11.0,0.0
12.13319206237793,12.290611267089844,0.0218958854675292,-0.4674296466118099,-0.585081784435836,-0.6627132343553555,0.1107727332047314,10.0,1.0
12.514456748962402,11.116917610168455,-0.6369757652282715,-0.0,-0.0,-1.0,0.1760442411747833,2.0,0.0
12.684738159179688,12.5972318649292,-0.431941270828247,-0.0,-0.0,-1.0,0.2179409133812097,2.0,0.0
12.381092071533203,11.084359169006348,-0.6228179931640625,-0.0,-0.0,-1.0,0.1362220760290849,1.0,0.0
12.677717208862305,12.67973518371582,-0.4184699058532715,-0.0,-0.0,-1.0,0.206152145295207,1.0,0.0
12.40963363647461,12.5629243850708,-0.3929402828216553,-0.0,-0.0,-1.0,0.1109740199404232,1.0,0.0
12.633551597595217,13.03727912902832,-0.3583695888519287,-0.0,-0.0,-1.0,0.2224597213686003,1.0,0.0
12.27782917022705,11.684794425964355,-0.6852865219116211,-0.0,-0.0,-1.0,0.0541191599401289,2.0,0.0
12.41613483428955,12.017548561096191,-0.6539654731750488,-0.0,-0.0,-1.0,0.1676201745577858,1.0,0.0
12.530248641967772,12.397497177124023,-0.6132092475891113,-0.0,-0.0,-1.0,0.185220380579032,1.0,0.0
11.844645500183104,11.505767822265623,-0.6493175029754639,-0.0,-0.0,-1.0,0.005968109831387,2.0,0.0
12.052119255065918,11.594950675964355,-0.6653890609741211,-0.0,-0.0,-1.0,0.0383726992127769,2.0,0.0
12.413788795471191,12.6544189453125,-0.5547521114349365,-0.4632597346084871,-0.591717621863895,-0.6597428849682356,0.2110446810656304,3.0,0.0
12.379183769226074,12.897302627563477,-0.5120866298675537,0.6854308015642433,0.7181608683723751,-0.1201232009465071,0.2671450639955396,8.0,0.0
11.275033950805664,11.219605445861816,-0.6167521476745605,-0.0,-0.0,-1.0,0.0407743741554181,2.0,0.0
11.542036056518556,11.423367500305176,-0.6193253993988037,-0.0,-0.0,-1.0,0.0115005572694633,2.0,0.0
10.83151149749756,11.01926612854004,-0.5925147533416748,-0.0,-0.0,-1.0,0.0940143690584363,1.0,0.0
11.05855941772461,11.125222206115724,-0.6037015914916992,-0.0,-0.0,-1.0,0.0408040385194697,2.0,0.0
10.42882251739502,11.099671363830566,-0.5274810791015625,-0.3279202145864382,0.5117821992994531,0.7940700934714763,0.0767342089525184,3.0,0.0
12.53699779510498,10.859491348266602,-0.2925295829772949,-0.0,-0.0,-1.0,0.0853603104956553,1.0,0.0
12.209145545959473,12.38582992553711,-0.0499639511108398,0.1679975066528631,0.5228119265881735,-0.8357299367472628,0.1770777839477757,4.0,0.0
11.965649604797363,12.93185043334961,-0.4392499923706054,-0.0,-0.0,-1.0,0.1524620464499106,1.0,0.0
12.42783546447754,10.81037712097168,-0.3639235496520996,-0.0,-0.0,-1.0,0.0755459895703466,2.0,0.0
11.914302825927734,11.918254852294922,-0.6868677139282227,-0.0,-0.0,-1.0,0.0421311985831133,1.0,0.0
12.144044876098633,12.220377922058104,-0.6711258888244629,-0.0,-0.0,-1.0,0.0894729745096952,1.0,0.0
12.328266143798828,12.447738647460938,-0.6624941825866699,-0.0,-0.0,-1.0,0.1614679201907418,2.0,0.0
12.641816139221191,12.874464988708496,-0.6450507640838623,-0.0,-0.0,-1.0,0.2330535712424971,2.0,0.0
11.42226791381836,11.757440567016602,-0.6441922187805176,-0.0,-0.0,-1.0,0.0101224903929869,2.0,0.0
11.710861206054688,11.808634757995604,-0.675830602645874,-0.2034002393895658,-0.3024427069044779,-0.9312125169135984,0.0094806327416317,3.0,0.0
12.27663803100586,12.847112655639648,-0.5904364585876465,-0.0,-0.0,-1.0,0.2638551703735315,2.0,0.0
12.360113143920898,12.898951530456545,-0.5955402851104736,-0.1362733282452894,0.2104892808514859,-0.9680515702459122,0.1724361716547334,4.0,0.0
10.631591796875,11.359387397766112,-0.610297679901123,-0.0,-0.0,-1.0,0.019516380227823,1.0,0.0
10.919569969177246,11.566560745239258,-0.61006760597229,-0.0,-0.0,-1.0,0.0170116832773086,1.0,0.0
11.142805099487305,11.690628051757812,-0.6176018714904785,-0.0,-0.0,-1.0,0.0121401415177933,1.0,0.0
10.347954750061035,11.318016052246094,-0.5832614898681641,-0.0,-0.0,-1.0,0.0246564379446671,2.0,0.0
12.157929420471191,11.094189643859863,-0.634533166885376,-0.7585125435519644,-0.5367459995318948,-0.3695435742383245,0.0840196858615336,4.0,0.0
12.495220184326172,11.260650634765623,-0.6455211639404297,0.1722130581934901,-0.9831351483489112,0.0615462644569876,0.1201850807285436,3.0,0.0
11.611848831176758,10.999354362487791,-0.5919954776763916,-0.0,-0.0,-1.0,0.0120190270688022,2.0,0.0
12.008844375610352,11.043187141418455,-0.6268093585968018,-0.0,-0.0,-1.0,0.0483314938808229,2.0,0.0
12.325536727905272,11.330926895141602,-0.6140122413635254,-0.0,-0.0,-1.0,0.1070881254153938,2.0,0.0
12.597466468811035,12.105846405029297,-0.5194282531738281,-0.0,-0.0,-1.0,0.1372442765787691,2.0,0.0
10.819631576538086,10.744829177856444,-0.5595211982727051,-0.0,-0.0,-1.0,0.0260908352238727,1.0,0.0
11.153337478637695,10.81033992767334,-0.5792527198791504,-0.0,-0.0,-1.0,0.0311525001807486,1.0,0.0
11.42152214050293,10.934643745422363,-0.5837023258209229,-0.0,-0.0,-1.0,0.0164013113463552,1.0,0.0
12.452144622802734,12.042344093322754,-0.5116920471191406,-0.0,-0.0,-1.0,0.2087504192082281,2.0,0.0
10.554557800292969,10.915127754211426,-0.5055239200592041,-0.0,-0.0,-1.0,0.0394984823219036,1.0,0.0
10.91781234741211,11.224620819091797,-0.4837555885314941,-0.0,-0.0,-1.0,0.2545032571316338,2.0,0.0
12.455875396728516,10.70273208618164,-0.1353671550750732,0.5611298009805585,-0.1816846641363163,-0.8075419674971651,0.1720194632820886,4.0,0.0
12.319513320922852,10.786340713500977,-0.1108319759368896,-0.0,-0.0,-1.0,0.10584782394383,2.0,0.0
12.443156242370604,12.537365913391112,-0.4303863048553467,0.2774184391659043,-0.6142606086145349,-0.7387306101111926,0.1248159438181336,3.0,0.0
12.246696472167969,12.73204517364502,-0.3743751049041748,-0.0,-0.0,-1.0,0.155433365016148,1.0,0.0
12.589252471923828,12.789859771728516,-0.4088308811187744,0.5974831154610507,-0.7417744559329306,0.3046056192265026,0.1481807382508037,4.0,0.0
12.064298629760742,11.531311988830566,-0.6634454727172852,-0.0,-0.0,-1.0,0.0341756445550528,1.0,0.0
12.300683975219728,11.669015884399414,-0.6671285629272461,-0.0,-0.0,-1.0,0.0521675209830847,2.0,0.0
11.10938835144043,11.377476692199709,-0.5892338752746582,0.2519383001148087,0.3645661937227272,-0.8964477582825356,0.0540973086967583,3.0,0.0
11.461030960083008,11.514483451843262,-0.600679874420166,-0.0401891383249495,-0.2128413633051819,-0.9762598973772764,0.0073495275083309,3.0,0.0
11.803308486938477,11.519238471984863,-0.6364107131958008,-0.0,-0.0,-1.0,0.0064909160596869,2.0,0.0
12.262088775634766,11.88900661468506,-0.6249074935913086,-0.581736266905769,-0.7953791129871428,-0.1701616360709011,0.1297790062212629,3.0,0.0
12.464913368225098,12.089704513549805,-0.6153743267059326,-0.0,-0.0,-1.0,0.1860381949869853,2.0,0.0
10.280160903930664,11.237975120544434,-0.5383090972900391,-0.0,-0.0,-1.0,0.0967597283373673,1.0,0.0
10.647053718566896,11.248272895812988,-0.5687880516052246,-0.0,-0.0,-1.0,0.0766761477699688,2.0,0.0
10.90086841583252,11.327803611755373,-0.5778799057006836,-0.0,-0.0,-1.0,0.1622338071294356,2.0,0.0
12.570985794067385,12.603988647460938,-0.5424647331237793,-0.2834729914571315,-0.9303855974789528,0.2324342984976119,0.241328527900903,3.0,0.0
12.529142379760742,10.843610763549805,-0.2291460037231445,-0.0,-0.0,-1.0,0.1183384234575663,1.0,0.0
12.297492980957031,12.632635116577148,-0.5032904148101807,-0.0,-0.0,-1.0,0.1505941869282892,2.0,0.0
12.54434585571289,12.842851638793944,-0.499417781829834,-0.0,-0.0,-1.0,0.2556021137770441,1.0,0.0
11.95875358581543,12.689855575561523,-0.4523491859436035,-0.0,-0.0,-1.0,0.1700693133411265,2.0,0.0
12.247036933898926,13.025569915771484,-0.4310755729675293,-0.0,-0.0,-1.0,0.1264693056926629,2.0,0.0
12.149136543273926,12.306049346923828,0.0119588375091552,-0.0024054077749072,-0.9107031332354408,-0.4130544965601843,0.1358842247894272,11.0,1.0
11.698907852172852,11.033003807067873,-0.6224777698516846,-0.0,-0.0,-1.0,0.01503715658627,2.0,0.0
11.988816261291504,11.066583633422852,-0.642641544342041,-0.0,-0.0,-1.0,0.0275204309162982,2.0,0.0
12.356828689575195,11.275504112243652,-0.6413404941558838,-0.0,-0.0,-1.0,0.1340348756756909,1.0,0.0
12.662154197692873,11.190295219421388,-0.6863894462585449,-0.0,-0.0,-1.0,0.1319984680291887,1.0,0.0
10.803125381469728,10.839876174926758,-0.5851733684539795,-0.0,-0.0,-1.0,0.028839931681307,1.0,0.0
11.221983909606934,10.898272514343262,-0.6066811084747314,-0.0,-0.0,-1.0,0.0217504561086754,1.0,0.0
11.499147415161133,11.035816192626951,-0.6048629283905029,-0.0,-0.0,-1.0,0.0194903314414657,2.0,0.0
12.343667984008787,11.4111909866333,-0.6164817810058594,-0.0,-0.0,-1.0,0.0798726534205653,2.0,0.0
10.231131553649902,11.088692665100098,-0.5006215572357178,-0.0,-0.0,-1.0,0.1674355798062924,2.0,0.0
10.538719177246094,10.983447074890137,-0.5403087139129639,-0.0,-0.0,-1.0,0.0575009462389457,2.0,0.0
12.48265552520752,12.057717323303224,-0.5198256969451904,0.3109444320935716,-0.84613856681369,-0.4328545782367111,0.19340268622534,3.0,0.0
12.624738693237305,12.599685668945312,-0.4434115886688232,-0.0,-0.0,-1.0,0.21771772718902,1.0,0.0
12.35247802734375,10.742778778076172,-0.1217801570892334,-0.948186366993826,0.08954285367097,-0.3048355143409439,0.1171879117397837,3.0,0.0
12.520435333251951,10.709060668945312,-0.14056396484375,0.7440870581266463,-0.0939997667511596,-0.6614366891692363,0.1233937732249858,3.0,0.0
12.169794082641602,12.761685371398926,-0.3673017024993896,-0.0,-0.0,-1.0,0.1650259051042868,2.0,0.0
12.697242736816406,13.092509269714355,-0.3689630031585693,0.9499376759110651,-0.3114877866950595,0.0243674090641017,0.2211976002517272,3.0,0.0
12.043770790100098,12.265740394592283,0.1163630485534668,0.3916698817005138,-0.7089233040536262,-0.5865342724329031,0.0779571893832236,7.0,1.0
10.916803359985352,11.14345645904541,-0.5800137519836426,0.086378318020717,0.0935259912288477,-0.991862729988668,0.1491980031414298,4.0,0.0
11.261693954467772,11.14275360107422,-0.6009244918823242,0.6127085352330781,0.5083692572814947,-0.6051024286049402,0.0275126163785175,7.0,0.0
11.721968650817873,11.242794036865234,-0.6129546165466309,-0.0,-0.0,-1.0,0.0117159806873484,2.0,0.0
12.071610450744627,11.234285354614258,-0.6400551795959473,-0.0,-0.0,-1.0,0.0420203379525877,1.0,0.0
12.405749320983888,11.401082992553713,-0.635953426361084,-0.0,-0.0,-1.0,0.1106780150973937,2.0,0.0
12.696588516235352,11.321152687072754,-0.6744687557220459,-0.0,-0.0,-1.0,0.0965018993431859,1.0,0.0
10.428625106811523,11.199137687683104,-0.5435338020324707,-0.0,-0.0,-1.0,0.0321360264181922,1.0,0.0
10.795820236206056,11.153254508972168,-0.571401834487915,-0.0,-0.0,-1.0,0.2034133997652134,1.0,0.0
11.20313835144043,11.26153564453125,-0.5750994682312012,0.9777920697186951,-0.1974133684003772,0.0703607161138023,0.0402442033846388,3.0,0.0
11.531689643859863,11.314295768737791,-0.5866553783416748,-0.0,-0.0,-1.0,0.016078983660381,1.0,0.0
12.539833068847656,11.992244720458984,-0.5408165454864502,-0.0,-0.0,-1.0,0.1835865955737297,1.0,0.0
12.606134414672852,12.22743797302246,-0.5046043395996094,-0.0,-0.0,-1.0,0.1411496964166775,1.0,0.0
12.679447174072266,12.597265243530272,-0.4454126358032226,-0.0,-0.0,-1.0,0.2179409133812098,2.0,0.0
12.649310111999512,10.720064163208008,-0.1615533828735351,0.110947065930247,0.8060259060820189,-0.5813888434482811,0.1142085752278954,6.0,0.0
12.359064102172852,10.771127700805664,-0.1339387893676757,-0.6719421614749528,0.1028766009226391,-0.7334235724429459,0.1594225222296105,5.0,0.0
12.44965934753418,10.77375602722168,-0.1397302150726318,-0.0,-0.0,-1.0,0.1843336353050053,2.0,0.0
12.181718826293944,12.78628158569336,-0.3679404258728027,-0.0,-0.0,-1.0,0.1624430701288068,2.0,0.0
12.072696685791016,12.27064323425293,0.1056327819824218,0.5391696579072496,-0.8412025196190414,-0.0409194449956966,0.0779571893832235,6.0,1.0
10.731541633605955,10.898984909057615,-0.5639216899871826,-0.0,-0.0,-1.0,0.043400660187485,1.0,0.0
11.098835945129396,10.904468536376951,-0.5817046165466309,-0.0,-0.0,-1.0,0.0255282818197719,1.0,0.0
11.485761642456056,10.972087860107422,-0.5913383960723877,-0.0,-0.0,-1.0,0.0120353225273545,1.0,0.0
11.884296417236328,10.97842788696289,-0.6155107021331787,-0.0,-0.0,-1.0,0.0218802060182967,2.0,0.0
12.15644645690918,11.046472549438477,-0.621718168258667,-0.9142166071795484,-0.0783618122858305,-0.3975769378779351,0.1158784276030259,3.0,0.0
12.548141479492188,11.100486755371094,-0.6409738063812256,-0.0,-0.0,-1.0,0.2019311704779776,2.0,0.0
10.297880172729492,11.052398681640623,-0.5158970355987549,0.2513577870825232,0.8920608251947508,-0.375561908379747,0.1327104418492614,3.0,0.0
10.522830963134766,11.02713394165039,-0.5302224159240723,-0.0,-0.0,-1.0,0.0588493562545784,2.0,0.0
12.35232925415039,11.207751274108888,-0.6066648960113525,-0.0,-0.0,-1.0,0.1331521034755061,1.0,0.0
12.603615760803224,11.890958786010742,-0.5026223659515381,-0.0,-0.0,-1.0,0.1505653372763508,2.0,0.0
12.325329780578612,12.278849601745604,-0.4103024005889892,-0.0,-0.0,-1.0,0.1207943865390308,1.0,0.0
12.4918794631958,12.263971328735352,-0.4262545108795166,-0.0,-0.0,-1.0,0.1106847942679141,1.0,0.0
12.617231369018556,12.475041389465332,-0.3988471031188965,-0.0,-0.0,-1.0,0.1871726692492876,2.0,0.0
12.573992729187012,12.577717781066896,-0.3765590190887451,-0.0,-0.0,-1.0,0.1299024737065211,2.0,0.0
10.441761016845703,10.788528442382812,-0.4800868034362793,0.3271878052671484,0.8076098060009387,0.4906266822499493,0.0978836515952703,4.0,0.0
10.784746170043944,11.11432933807373,-0.4288408756256103,-0.6172476874747139,0.2932704202077067,-0.7300669509971767,0.2129065520836945,3.0,0.0
12.198466300964355,10.924497604370115,-0.5269513130187988,-0.0,-0.0,-1.0,0.1629345927520014,1.0,0.0
12.364779472351074,10.95242691040039,-0.5312352180480957,-0.0,-0.0,-1.0,0.1635882573017882,1.0,0.0
12.64635944366455,10.969367980957031,-0.5451478958129883,-0.0,-0.0,-1.0,0.1677789828212811,2.0,0.0
12.242125511169434,12.335616111755373,-0.2678704261779785,-0.0,-0.0,-1.0,0.1443610755521784,2.0,0.0
10.512020111083984,10.640951156616213,-0.5699729919433594,-0.0,-0.0,-1.0,0.0574766389371268,1.0,0.0
10.611862182617188,10.922985076904297,-0.5184299945831299,-0.1986348438578063,0.9704676466435048,0.1368822326812448,0.0537979801578493,3.0,0.0
11.08568286895752,10.702106475830078,-0.5782852172851562,-0.0,-0.0,-1.0,0.0282744250912372,1.0,0.0
11.459918975830078,10.763803482055664,-0.5812056064605713,-0.0,-0.0,-1.0,0.0312687972315492,1.0,0.0
11.678629875183104,10.81436538696289,-0.5801048278808594,-0.0,-0.0,-1.0,0.0279917647276728,2.0,0.0
11.985047340393066,10.829582214355469,-0.5926809310913086,-0.0,-0.0,-1.0,0.0537242906935915,1.0,0.0
12.332616806030272,10.778635025024414,-0.6214377880096436,-0.0,-0.0,-1.0,0.14308583865365,2.0,0.0
12.543514251708984,10.894445419311523,-0.6117081642150879,-0.0,-0.0,-1.0,0.0920324313114072,1.0,0.0
10.38084602355957,12.84029769897461,-0.6528487205505371,-0.0,-0.0,-1.0,0.0453371026600225,1.0,0.0
10.696980476379396,12.757978439331056,-0.6820499897003174,-0.0,-0.0,-1.0,0.0268617231016901,2.0,0.0
11.016783714294434,12.65663242340088,-0.717695951461792,-0.0,-0.0,-1.0,0.0324629544400864,2.0,0.0
11.260443687438965,12.716933250427246,-0.7144176959991455,-0.0,-0.0,-1.0,0.0437317668580717,1.0,0.0
11.56537914276123,12.750642776489258,-0.7201189994812012,-0.0,-0.0,-1.0,0.104864601232833,2.0,0.0
11.87575626373291,12.803979873657228,-0.7246670722961426,-0.0,-0.0,-1.0,0.1129889843726437,1.0,0.0
12.122291564941406,12.934802055358888,-0.7098915576934814,-0.0,-0.0,-1.0,0.1175357314721328,1.0,0.0
12.363794326782228,13.051387786865234,-0.6989960670471191,-0.0,-0.0,-1.0,0.1604717609129632,2.0,0.0
12.60342502593994,13.08337688446045,-0.7087047100067139,-0.0,-0.0,-1.0,0.1637278583588871,1.0,0.0
12.580427169799805,12.34409236907959,-0.3366138935089111,-0.0,-0.0,-1.0,0.1385519767006582,1.0,0.0
10.350903511047363,10.669676780700684,-0.4552981853485107,-0.3289974705725562,0.70865718840611,-0.62415194758745,0.1207509113078061,3.0,0.0
10.448403358459473,12.316821098327637,-0.6598386764526367,0.3767724327751092,-0.8887153948994043,0.2612039064974369,0.0141266948021357,3.0,0.0
10.89427661895752,12.29539966583252,-0.6733970642089844,-0.0,-0.0,-1.0,0.0091316390920209,1.0,0.0
12.4354829788208,10.739474296569824,-0.5104444026947021,-0.0,-0.0,-1.0,0.1283383847351289,2.0,0.0
12.622838973999023,10.83436679840088,-0.5014660358428955,-0.5099880273248649,-0.0693667532029313,-0.8573800006621197,0.1949398441186757,3.0,0.0
11.03184700012207,12.29258632659912,-0.6776313781738281,-0.0,-0.0,-1.0,0.0162333850987874,1.0,0.0
11.33379364013672,12.3390474319458,-0.6758019924163818,-0.0,-0.0,-1.0,0.0315720314518171,1.0,0.0
11.64849090576172,12.438072204589844,-0.6643002033233643,-0.0,-0.0,-1.0,0.060866019866506,1.0,0.0
11.895837783813477,12.431252479553224,-0.6757721900939941,-0.0,-0.0,-1.0,0.0675240718669549,1.0,0.0
12.120302200317385,12.626649856567385,-0.6413242816925049,-0.0,-0.0,-1.0,0.1718218813256996,1.0,0.0
12.42413330078125,12.811509132385254,-0.6143956184387207,-0.0,-0.0,-1.0,0.1469362590834666,2.0,0.0
10.238669395446776,10.925798416137695,-0.4042787551879883,-0.3546013102758816,0.8563498955397851,0.3753968129321649,0.0744292166949971,3.0,0.0
10.265053749084473,11.903924942016602,-0.6144428253173828,-0.0,-0.0,-1.0,0.0082162134917985,2.0,0.0
10.460933685302734,11.92183780670166,-0.6118900775909424,-0.0,-0.0,-1.0,0.0071249135472565,2.0,0.0
10.83315086364746,11.936190605163574,-0.6132433414459229,-0.0,-0.0,-1.0,0.0103969993199535,2.0,0.0
11.12570095062256,11.896474838256836,-0.627704381942749,-0.0,-0.0,-1.0,0.0153598048160043,2.0,0.0
11.393223762512209,11.833060264587402,-0.648491382598877,-0.1641677714855433,0.0976599835383346,-0.9815862012175816,0.0127392690439474,5.0,0.0
11.664102554321287,11.801973342895508,-0.6634538173675537,-0.2034002393895658,-0.3024427069044779,-0.9312125169135984,0.0101008225344819,3.0,0.0
11.955360412597656,11.77343463897705,-0.6799614429473877,-0.0,-0.0,-1.0,0.0425105287381005,2.0,0.0
12.253718376159668,12.072763442993164,-0.6239397525787354,-0.0,-0.0,-1.0,0.1285078780327523,1.0,0.0
12.35462760925293,12.51023292541504,-0.5289685726165771,-0.0,-0.0,-1.0,0.2464863703399978,1.0,0.0
12.65508270263672,12.392882347106934,-0.5703270435333252,-0.0,-0.0,-1.0,0.1536876045693952,1.0,0.0
12.374834060668944,10.818509101867676,-0.356947660446167,-0.0,-0.0,-1.0,0.0799787617992745,2.0,0.0
12.393589973449709,12.72152328491211,-0.482985258102417,-0.6858778323697101,-0.6228805906593626,-0.3762862857501873,0.1835909975067969,5.0,0.0
12.67908000946045,12.588631629943848,-0.526867151260376,-0.0,-0.0,-1.0,0.2476615832065473,1.0,0.0
12.582030296325684,13.046319961547852,-0.4181773662567138,-0.0,-0.0,-1.0,0.1694827952672676,2.0,0.0
10.422609329223633,11.930238723754885,-0.6163461208343506,-0.0,-0.0,-1.0,0.0064938343255258,2.0,0.0
10.867870330810549,11.929769515991213,-0.6167690753936768,-0.204155949619898,-0.7767314478662569,-0.5958259864510662,0.0104054558821394,3.0,0.0
11.105992317199709,11.884964942932127,-0.6288518905639648,-0.4524435577843311,0.811580492674554,-0.3696375669890509,0.0151337272522056,3.0,0.0
11.208206176757812,11.945931434631348,-0.6155872344970703,0.2121349919153386,0.7285284012552528,-0.6513410118897354,0.0105691881418184,4.0,0.0
11.436271667480469,11.815625190734863,-0.6495180130004883,0.089008918464029,0.2761173346982737,-0.9569935370278032,0.0096400175615613,3.0,0.0
11.688910484313965,11.781436920166016,-0.6622025966644287,-0.2034002393895658,-0.3024427069044779,-0.9312125169135984,0.0094520199918064,3.0,0.0
11.957818031311035,11.730656623840332,-0.6805698871612549,-0.0,-0.0,-1.0,0.0413616539191087,2.0,0.0
12.26052951812744,11.895618438720703,-0.650482177734375,-0.0,-0.0,-1.0,0.1449505427275576,2.0,0.0
12.431365966796877,11.923347473144531,-0.6496517658233643,-0.0,-0.0,-1.0,0.2036412588484947,2.0,0.0
12.332386016845703,10.807445526123049,-0.369899034500122,-0.0,-0.0,-1.0,0.1281175108933381,2.0,0.0
12.660208702087402,10.911048889160156,-0.3608112335205078,-0.0,-0.0,-1.0,0.1072113922230585,1.0,0.0
12.319565773010254,12.663433074951172,-0.4712245464324951,-0.8946697706222715,0.3421292443114145,0.2872517740965105,0.178063772156358,3.0,0.0
12.537127494812012,12.40896987915039,-0.5389256477355957,-0.0,-0.0,-1.0,0.1510494240186043,1.0,0.0
12.6300630569458,13.093738555908203,-0.3809692859649658,-0.0,-0.0,-1.0,0.2118387713454496,2.0,0.0
12.592241287231444,12.90536117553711,-0.4239120483398437,-0.0,-0.0,-1.0,0.103334463175728,1.0,0.0
12.160496711730955,12.386831283569336,-0.0494143962860107,-0.2160990155245334,0.0943110869234406,-0.9718058624913962,0.1650246735014932,5.0,0.0
10.39953899383545,10.931717872619627,-0.4526770114898681,0.8899903432557629,0.2801034859142152,0.3598044275577982,0.0632603327546557,4.0,0.0
10.61190700531006,10.731515884399414,-0.4979085922241211,0.5563639115037459,0.818123850885794,0.1453704323033103,0.0763035834857483,3.0,0.0
10.84095859527588,11.006532669067385,-0.4378345012664795,-0.0,-0.0,-1.0,0.178781957164867,1.0,0.0
10.880248069763184,10.748151779174805,-0.4961178302764892,-0.0,-0.0,-1.0,0.0268380916373757,1.0,0.0
12.339517593383787,10.693222999572754,-0.5434286594390869,-0.0,-0.0,-1.0,0.1614072187322967,2.0,0.0
