x,y,z,nx,ny,nz,curvature,density,label
19.785646438598633,30.257152557373047,-1.9385640621185305,-0.0,-0.0,-1.0,0.1386604312963242,2.0,0.0
19.41118621826172,30.41024398803711,-1.936230421066284,-0.0,-0.0,-1.0,0.1718991043461332,1.0,0.0
18.99940490722656,29.935192108154297,-1.8137919902801511,-0.0,-0.0,-1.0,0.1054674229656498,1.0,0.0
19.529043197631836,28.76675033569336,-1.6406333446502686,-0.0,-0.0,-1.0,0.0833443874254628,2.0,0.0
19.13137435913086,28.33061981201172,-1.5252978801727295,-0.0,-0.0,-1.0,0.0714079230313174,2.0,0.0
18.463809967041016,28.996906280517575,-1.594313383102417,-0.0,-0.0,-1.0,0.1850945884523563,1.0,0.0
20.200422286987305,30.475021362304688,-2.1414053440093994,-0.0,-0.0,-1.0,0.0311405039829374,2.0,0.0
19.17749786376953,29.72385025024414,-1.8891069889068604,-0.0,-0.0,-1.0,0.2303962214643103,1.0,0.0
18.74230194091797,29.93721389770508,-1.888737440109253,-0.0,-0.0,-1.0,0.2159458370442966,2.0,0.0
18.29395294189453,29.69919204711914,-1.7991454601287842,-0.0,-0.0,-1.0,0.0739777687887089,1.0,0.0
18.332660675048828,30.03791046142578,-1.8708274364471436,-0.0,-0.0,-1.0,0.0640776103405998,1.0,0.0
18.74660301208496,28.60370635986328,-1.6257402896881104,-0.0,-0.0,-1.0,0.0923893184839941,1.0,0.0
18.46601104736328,28.672218322753903,-1.6109845638275146,-0.0,-0.0,-1.0,0.1473025603242417,1.0,0.0
18.526756286621097,29.02316665649414,-1.6863534450531006,-0.0,-0.0,-1.0,0.2016745491781688,1.0,0.0
19.769878387451172,30.07799911499023,-2.197957992553711,-0.0,-0.0,-1.0,0.1085198250412938,1.0,0.0
20.098793029785156,29.482460021972656,-2.107609748840332,0.0452393450178154,0.650461214700717,-0.7581910114426483,0.1763451962971862,4.0,0.0
19.56288146972656,29.508697509765625,-2.054877281188965,-0.0,-0.0,-1.0,0.2204727596185209,2.0,0.0
19.288494110107425,29.818115234375,-2.092524528503418,-0.0,-0.0,-1.0,0.1162856552455617,2.0,0.0
18.6802978515625,28.73528289794922,-1.7978019714355469,-0.0,-0.0,-1.0,0.1389138124087436,1.0,0.0
18.64947509765625,29.687969207763672,-2.0010881423950195,-0.0,-0.0,-1.0,0.0657756040981636,2.0,0.0
18.858104705810547,29.927715301513672,-2.073488235473633,-0.0,-0.0,-1.0,0.1952696943171521,2.0,0.0
18.476797103881836,28.92322158813477,-1.8179187774658203,0.1372554123302761,-0.5134307956952148,-0.8470830949899926,0.2111160623924582,3.0,0.0
18.362300872802734,29.519039154052734,-1.9368700981140137,-0.8143219144637152,0.1410725218843221,-0.563008315385614,0.0561744373750091,3.0,0.0
18.06224822998047,29.465984344482425,-1.8973970413208008,-0.0,-0.0,-1.0,0.024545305291338,1.0,0.0
19.068939208984375,28.19714736938477,-1.7239642143249512,-0.0,-0.0,-1.0,0.1251936851657134,1.0,0.0
18.50507354736328,28.552581787109375,-1.7405734062194824,-0.0,-0.0,-1.0,0.1036510979867879,2.0,0.0
18.360729217529297,28.44388198852539,-1.9293015003204343,-0.0,-0.0,-1.0,0.1020495772892138,1.0,0.0
17.938745498657227,28.339035034179688,-1.862983465194702,-0.0,-0.0,-1.0,0.0480836481242348,1.0,0.0
17.8470458984375,28.427024841308594,-1.876447916030884,-0.0,-0.0,-1.0,0.0475392184608384,1.0,0.0
19.67733383178711,30.30026054382324,-1.7509963512420654,-0.0,-0.0,-1.0,0.0930320159140913,1.0,0.0
19.320327758789062,30.524595260620117,-1.770961046218872,-0.0,-0.0,-1.0,0.0843518370700747,1.0,0.0
18.850162506103516,29.987401962280273,-1.618862867355347,-0.0,-0.0,-1.0,0.1873184146052027,1.0,0.0
17.79141616821289,28.206085205078125,-1.816112279891968,-0.0,-0.0,-1.0,0.0464247567745725,1.0,0.0
19.14294815063477,28.168479919433594,-1.2549993991851809,-0.0,-0.0,-1.0,0.0733867644532278,1.0,0.0
18.79400634765625,28.154972076416016,-1.2220346927642822,-0.0,-0.0,-1.0,0.0432253825656303,1.0,0.0
18.7758846282959,28.67963218688965,-1.3318517208099363,-0.0,-0.0,-1.0,0.0226575478233333,1.0,0.0
19.327857971191406,30.52117919921875,-1.8619384765625,-0.0,-0.0,-1.0,0.0796555609859315,1.0,0.0
19.414596557617188,30.53680419921875,-1.8740005493164065,-0.0,-0.0,-1.0,0.1274369146793779,1.0,0.0
18.743745803833008,28.15910530090332,-1.9358153343200684,-0.0,-0.0,-1.0,0.128110564734171,1.0,0.0
18.841331481933594,29.982959747314453,-1.6951727867126465,-0.1238695667794421,0.9889294769591476,0.0816995717686477,0.1351638578456217,3.0,0.0
18.35402488708496,28.375469207763672,-1.9409337043762207,-0.0,-0.0,-1.0,0.143075343566302,1.0,0.0
17.860397338867188,28.220294952392575,-1.8428301811218264,-0.0,-0.0,-1.0,0.0657531698142783,2.0,0.0
18.736225128173828,28.611928939819336,-1.3839130401611328,-0.0,-0.0,-1.0,0.018728575070687,2.0,0.0
18.53803253173828,29.03765869140625,-2.088685989379883,-0.0,-0.0,-1.0,0.0949450152472851,1.0,0.0
19.663057327270508,30.230823516845703,-1.8469576835632324,-0.0,-0.0,-1.0,0.0999775938730948,1.0,0.0
18.43996810913086,28.94961166381836,-2.05469274520874,-0.0,-0.0,-1.0,0.1523481760489079,1.0,0.0
18.762466430664062,29.9317626953125,-1.6791365146636963,-0.0,-0.0,-1.0,0.1534289399360028,1.0,0.0
17.867984771728516,28.622575759887695,-1.899766445159912,-0.0,-0.0,-1.0,0.0467883333769713,1.0,0.0
17.81334114074707,29.08923721313477,-1.9992876052856443,-0.0,-0.0,-1.0,0.0742612886603638,1.0,0.0
19.12356948852539,28.330001831054688,-1.4242439270019531,-0.0,-0.0,-1.0,0.0747628999511482,1.0,0.0
19.075450897216797,29.363773345947266,-1.6147513389587402,-0.0,-0.0,-1.0,0.0733810101576801,1.0,0.0
19.789852142333984,30.28992462158203,-1.9398033618927,-0.0,-0.0,-1.0,0.0916378033410206,2.0,0.0
19.70553207397461,29.631576538085938,-1.7981140613555908,-0.0,-0.0,-1.0,0.1568587468658661,1.0,0.0
19.555362701416016,30.380109786987305,-1.9223740100860596,-0.0,-0.0,-1.0,0.1073958975440704,2.0,0.0
19.800195693969727,28.69385528564453,-1.635298490524292,-0.0,-0.0,-1.0,0.1191693280411587,2.0,0.0
19.477787017822266,28.835784912109375,-1.609192132949829,-0.0,-0.0,-1.0,0.0918563368730653,1.0,0.0
19.15777587890625,28.14714813232422,-1.427090406417847,-0.0,-0.0,-1.0,0.110716166633792,1.0,0.0
18.743179321289062,28.649961471557617,-1.4567677974700928,-0.0,-0.0,-1.0,0.0239479846179656,2.0,0.0
18.8115177154541,29.982271194458008,-1.7320406436920166,-0.0,-0.0,-1.0,0.1351638578456217,2.0,0.0
18.490982055664062,30.12504196166992,-1.7152178287506104,-0.0,-0.0,-1.0,0.1581587165088971,1.0,0.0
18.875730514526367,29.68680000305176,-2.0855307579040527,-0.0,-0.0,-1.0,0.0384820091535192,1.0,0.0
19.21246337890625,29.80928421020508,-2.11849594116211,-0.0,-0.0,-1.0,0.1046938988010064,2.0,0.0
19.446109771728516,29.711589813232425,-2.0802621841430664,-0.0,-0.0,-1.0,0.0870683135913999,1.0,0.0
19.580453872680664,29.98528289794922,-2.1715126037597656,-0.0,-0.0,-1.0,0.0205548276727661,1.0,0.0
19.266883850097656,28.765296936035156,-1.7623414993286133,-0.0,-0.0,-1.0,0.1221548457261889,1.0,0.0
19.43655776977539,28.797889709472656,-1.7693519592285156,0.1383565145607503,0.2851761756995031,-0.9484366208092172,0.1289594372779851,3.0,0.0
18.749757766723633,29.429990768432617,-2.0026283264160156,-0.0,-0.0,-1.0,0.1323432176706347,1.0,0.0
19.042715072631836,29.601638793945312,-2.0519580841064453,-0.0,-0.0,-1.0,0.1074189370000011,1.0,0.0
19.001930236816406,30.48831558227539,-2.141928434371948,-0.0,-0.0,-1.0,0.059189768579274,1.0,0.0
19.253408432006836,30.611602783203125,-2.172792673110962,-0.0,-0.0,-1.0,0.1305787941464243,1.0,0.0
19.54171562194824,30.59352684020996,-2.1584737300872803,-0.0,-0.0,-1.0,0.0854728945256933,1.0,0.0
19.468320846557617,29.514820098876953,-1.8137352466583252,-0.0,-0.0,-1.0,0.1836818384872923,1.0,0.0
19.932945251464844,30.45454788208008,-2.1957221031188965,-0.0,-0.0,-1.0,0.0684684572949764,1.0,0.0
17.934131622314453,28.45345115661621,-1.9475831985473633,-0.0,-0.0,-1.0,0.0468469076209173,1.0,0.0
18.008153915405273,28.583669662475582,-1.9713706970214844,-0.0,-0.0,-1.0,0.0300709761262278,2.0,0.0
18.905441284179688,28.45785140991211,-1.91942036151886,-0.0,-0.0,-1.0,0.1347870965729377,1.0,0.0
18.321792602539062,28.632137298583984,-1.426005482673645,-0.0,-0.0,-1.0,0.1569768396390088,2.0,0.0
17.862388610839844,29.879535675048828,-1.7840285301208496,-0.0,-0.0,-1.0,0.1117588733291281,1.0,0.0
18.095226287841797,29.807701110839844,-1.7564213275909424,-0.0,-0.0,-1.0,0.1763768051423686,1.0,0.0
17.838228225708008,30.000335693359375,-1.8063061237335205,-0.0,-0.0,-1.0,0.1158868918813931,2.0,0.0
18.473134994506836,28.947174072265625,-1.5842962265014648,-0.0,-0.0,-1.0,0.1876695967583892,1.0,0.0
19.07579040527344,29.018505096435547,-1.5570104122161863,-0.0,-0.0,-1.0,0.0973074816383557,1.0,0.0
19.235607147216797,29.427316665649418,-1.8640460968017576,-0.0,-0.0,-1.0,0.1460633098614554,1.0,0.0
18.665542602539062,29.953224182128903,-1.9973878860473633,-0.0,-0.0,-1.0,0.2028263363343178,1.0,0.0
18.6180477142334,30.392436981201172,-2.082094192504883,-0.0,-0.0,-1.0,0.0638222847020704,1.0,0.0
18.780433654785156,30.354686737060547,-2.0652215480804443,-0.0,-0.0,-1.0,0.1033197308723303,1.0,0.0
18.7627010345459,30.57185935974121,-2.10696792602539,-0.0,-0.0,-1.0,0.0759948077787212,1.0,0.0
19.469633102416992,29.17240524291992,-1.8019688129425049,-0.0,-0.0,-1.0,0.2025819502987327,1.0,0.0
20.0677490234375,29.169113159179688,-1.9110870361328125,-0.0,-0.0,-1.0,0.1704308216535867,1.0,0.0
19.21872329711914,29.961910247802734,-2.1170125007629395,-0.0,-0.0,-1.0,0.0794181470392028,1.0,0.0
19.38960838317871,30.018657684326172,-2.115116596221924,-0.0,-0.0,-1.0,0.0167362635908414,1.0,0.0
19.611896514892575,30.25305557250977,-2.142679214477539,-0.0,-0.0,-1.0,0.0903692432588197,1.0,0.0
19.834060668945312,30.345958709716797,-2.144688367843628,-0.0,-0.0,-1.0,0.1151178825426056,2.0,0.0
19.81472396850586,30.61658477783203,-2.1965625286102295,-0.0,-0.0,-1.0,0.0439560241710021,1.0,0.0
18.935955047607425,30.24665069580078,-2.1187539100646973,-0.0,-0.0,-1.0,0.0518950493499898,1.0,0.0
19.406578063964844,30.434085845947266,-2.144554853439331,-0.0,-0.0,-1.0,0.2189897189701649,1.0,0.0
19.200353622436523,29.82801055908203,-2.1248533725738525,-0.0,-0.0,-1.0,0.1027374046458526,2.0,0.0
19.59158706665039,30.036396026611328,-2.1069469451904297,-0.0,-0.0,-1.0,0.1322104001517177,1.0,0.0
19.419780731201172,29.14180374145508,-2.0684831142425537,-0.0,-0.0,-1.0,0.1647319418321357,2.0,0.0
20.01525497436523,29.653339385986328,-2.052008628845215,-0.0,-0.0,-1.0,0.1825870802223259,1.0,0.0
19.415279388427734,30.570556640625,-2.150505542755127,-0.0,-0.0,-1.0,0.2236811903009055,1.0,0.0
19.72467613220215,30.522958755493164,-2.1235880851745605,-0.0,-0.0,-1.0,0.1278997192453888,2.0,0.0
19.45093536376953,30.391925811767575,-2.1376471519470215,-0.0,-0.0,-1.0,0.162728219561648,1.0,0.0
19.72767448425293,29.362232208251953,-2.058711528778076,-0.0,-0.0,-1.0,0.2655492312298184,1.0,0.0
19.547624588012695,30.418460845947266,-1.944090485572815,-0.0,-0.0,-1.0,0.1343319556887851,2.0,0.0
18.64984130859375,30.266986846923828,-1.9990440607070925,-0.0,-0.0,-1.0,0.0424882335890407,1.0,0.0
18.740955352783203,29.841537475585938,-1.9670463800430296,-0.0,-0.0,-1.0,0.1159377994027391,2.0,0.0
18.588584899902344,29.714839935302734,-1.9705651998519895,-0.0,-0.0,-1.0,0.0597185640341644,1.0,0.0
18.65336799621582,29.53101348876953,-1.9550286531448364,-0.0,-0.0,-1.0,0.0865165539122843,2.0,0.0
18.34629821777344,29.367839813232425,-1.9678682088851929,-0.0,-0.0,-1.0,0.0722879444415051,1.0,0.0
18.488872528076172,29.07232666015625,-1.9402977228164673,0.2517221142138807,0.9104560355586444,-0.328185594642011,0.1636842502942556,3.0,0.0
19.20318603515625,28.511619567871097,-1.855561137199402,-0.0,-0.0,-1.0,0.2084181977046462,1.0,0.0
18.747922897338867,28.65247344970703,-1.8971182107925415,-0.0,-0.0,-1.0,0.2414166696652172,1.0,0.0
18.97663688659668,30.12813949584961,-0.2564127445220947,-0.0,-0.0,-1.0,0.1726267262433375,1.0,0.0
18.75531005859375,30.47739028930664,-0.2716162204742431,-0.0,-0.0,-1.0,0.1443296123277672,1.0,0.0
18.746021270751953,30.06782913208008,-0.2668995857238769,-0.0,-0.0,-1.0,0.1060680550193126,1.0,0.0
18.663188934326172,29.869537353515625,-1.5497756004333496,-0.0,-0.0,-1.0,0.1821438982889429,1.0,0.0
19.732091903686523,28.65597915649414,-1.433927059173584,-0.0,-0.0,-1.0,0.0835739655319343,1.0,0.0
19.2283878326416,30.40130615234375,-2.103468179702759,-0.0,-0.0,-1.0,0.0564271250738529,1.0,0.0
19.54724884033203,29.391990661621097,-2.038281202316284,-0.0,-0.0,-1.0,0.2301060450464329,1.0,0.0
19.205848693847656,29.74199676513672,-2.084728956222534,-0.0,-0.0,-1.0,0.1516351742684575,1.0,0.0
19.0756893157959,30.09671401977539,-2.109445333480835,-0.0,-0.0,-1.0,0.0751081586255049,1.0,0.0
18.388731002807617,30.064773559570312,-1.8514958620071411,-0.0,-0.0,-1.0,0.0828259670896801,1.0,0.0
18.43964385986328,29.71162796020508,-1.8338104486465456,-0.0,-0.0,-1.0,0.0695869113771632,1.0,0.0
18.268651962280273,29.62040328979492,-1.8464332818984983,-0.0,-0.0,-1.0,0.0615543781267578,1.0,0.0
18.065025329589844,29.411937713623047,-1.8582078218460083,-0.0,-0.0,-1.0,0.0255936432548625,1.0,0.0
18.583955764770508,28.58587646484375,-1.781643033027649,-0.4950951988299737,-0.8512247582575438,-0.1740607796859906,0.0994397439237841,4.0,0.0
18.02668571472168,28.783653259277344,-1.8410030603408811,-0.0,-0.0,-1.0,0.0532963987992241,1.0,0.0
17.920486450195312,29.169780731201172,-1.8636456727981567,-0.0,-0.0,-1.0,0.0878302833531016,1.0,0.0
19.65492820739746,29.542922973632812,-1.754516839981079,0.7032619557530517,-0.6960272849824276,0.1448055252757395,0.0634648219258754,3.0,0.0
18.441097259521484,30.01995849609375,-1.8950965404510496,-0.0,-0.0,-1.0,0.1017057484883306,1.0,0.0
19.399442672729492,29.207225799560547,-1.775102138519287,-0.6807490187701624,0.5682444530400234,-0.4622542752995429,0.2249481489888965,3.0,0.0
18.3728084564209,29.566158294677734,-1.8934032917022705,-0.0,-0.0,-1.0,0.0718855159402135,1.0,0.0
19.422941207885746,28.81934356689453,-1.7648875713348389,-0.0,-0.0,-1.0,0.1607878517253797,2.0,0.0
18.109973907470703,29.1978702545166,-1.915003538131714,-0.0,-0.0,-1.0,0.085198469977842,1.0,0.0
17.96651840209961,29.353334426879883,-1.933499336242676,-0.0,-0.0,-1.0,0.0204219281647185,2.0,0.0
18.66614151000977,29.987781524658203,-1.8371373414993288,0.3238625688452657,0.3104962969171339,-0.8937030189619439,0.1652278569317649,3.0,0.0
18.231433868408203,30.288742065429688,-1.894483208656311,-0.0,-0.0,-1.0,0.0453424648509008,1.0,0.0
20.178512573242188,29.282060623168945,-1.6500731706619265,-0.0,-0.0,-1.0,0.2127728566907603,2.0,0.0
19.648332595825195,29.544239044189453,-1.716158747673035,0.7032619557530517,-0.6960272849824276,0.1448055252757395,0.0634648219258755,3.0,0.0
18.352447509765625,29.764965057373047,-1.8628982305526731,0.1435865445581567,-0.5766447074964575,-0.8042784253840042,0.0714938021117158,3.0,0.0
18.165924072265625,29.705753326416016,-1.880928635597229,-0.0,-0.0,-1.0,0.100854130075242,2.0,0.0
19.20049285888672,29.370738983154297,-1.7578495740890503,-0.0,-0.0,-1.0,0.1408338460199088,1.0,0.0
17.914310455322266,29.5033016204834,-1.9011975526809692,-0.0,-0.0,-1.0,0.019645861166754,1.0,0.0
19.35232734680176,28.79637908935547,-1.7214447259902954,-0.0,-0.0,-1.0,0.1302282947615628,1.0,0.0
19.05659294128418,28.75777053833008,-1.752144455909729,-0.0,-0.0,-1.0,0.13906136060867,1.0,0.0
18.43528175354004,28.92407989501953,-1.825165867805481,-0.3142103189549681,0.3785719020029181,-0.8706062200995986,0.2120782483719672,4.0,0.0
19.04861068725586,28.41399383544922,-1.7414790391921997,-0.0,-0.0,-1.0,0.1655872899317452,1.0,0.0
18.596193313598633,28.591136932373047,-1.7966185808181765,-0.4950951988299737,-0.8512247582575438,-0.1740607796859906,0.0937595087441807,4.0,0.0
18.01852798461914,29.747821807861328,-1.6766639947891235,-0.0,-0.0,-1.0,0.1415243166131071,1.0,0.0
18.019569396972656,29.78252410888672,-1.7371588945388794,-0.0,-0.0,-1.0,0.1546141950930498,1.0,0.0
19.00936508178711,29.243999481201172,-1.6089729070663452,-0.0,-0.0,-1.0,0.1591778522573533,1.0,0.0
18.41960334777832,28.98794937133789,-1.6618255376815796,-0.0,-0.0,-1.0,0.1935982271740177,1.0,0.0
18.675979614257812,30.00326919555664,-1.6656805276870728,-0.0,-0.0,-1.0,0.1593795729310488,1.0,0.0
18.458404541015625,28.94377899169922,-1.657166838645935,-0.0,-0.0,-1.0,0.1876695967583892,1.0,0.0
18.67989730834961,28.57917022705078,-1.6194618940353394,-0.0,-0.0,-1.0,0.0864874607653398,2.0,0.0
18.599699020385746,30.07383728027344,-1.9553810358047483,-0.0,-0.0,-1.0,0.1042343648668785,2.0,0.0
19.579608917236328,29.514068603515625,-1.8016828298568728,-0.0,-0.0,-1.0,0.1124367998902256,1.0,0.0
19.282520294189453,29.64326858520508,-1.846331000328064,-0.0,-0.0,-1.0,0.2038207983073824,1.0,0.0
18.551952362060547,29.77356719970703,-1.9475497007369995,-0.0,-0.0,-1.0,0.0589989267721814,2.0,0.0
18.36934280395508,29.47575569152832,-1.957900881767273,-0.8143219144637152,0.1410725218843221,-0.563008315385614,0.0525829321504851,3.0,0.0
19.67508888244629,28.696102142333984,-1.75092875957489,-0.0,-0.0,-1.0,0.1148139709353287,1.0,0.0
19.056772232055664,28.861326217651367,-1.8397482633590696,-0.0,-0.0,-1.0,0.1903696716941317,2.0,0.0
18.231870651245117,29.078876495361328,-1.958593487739563,-0.0,-0.0,-1.0,0.0661822820049274,1.0,0.0
18.599712371826172,28.565425872802734,-1.88752019405365,-0.0,-0.0,-1.0,0.1231060302516623,2.0,0.0
18.03215980529785,29.800548553466797,-1.8028626441955569,-0.0,-0.0,-1.0,0.1546141950930498,1.0,0.0
17.819232940673828,29.803466796875,-1.8289387226104736,-0.0,-0.0,-1.0,0.0899806220900391,1.0,0.0
19.060802459716797,29.203609466552734,-1.646404504776001,-0.0,-0.0,-1.0,0.2245422351876023,1.0,0.0
18.5910701751709,28.950050354003903,-1.6903111934661863,-0.0,-0.0,-1.0,0.2080312530501982,1.0,0.0
18.40894317626953,28.984783172607425,-1.7144391536712646,-0.0,-0.0,-1.0,0.1498972333837749,1.0,0.0
18.7260684967041,28.549755096435547,-1.653322458267212,-0.0,-0.0,-1.0,0.1434219146999053,2.0,0.0
17.718936920166016,28.321643829345703,-1.7676234245300293,-0.0,-0.0,-1.0,0.0475392184608384,1.0,0.0
20.169090270996097,29.216651916503903,-1.514345645904541,-0.0,-0.0,-1.0,0.1862852175457138,1.0,0.0
19.43298721313477,30.480358123779297,-2.158966064453125,-0.0,-0.0,-1.0,0.1530356390463348,2.0,0.0
19.812816619873047,30.502933502197266,-2.108954668045044,0.5309160636695086,-0.8248865407515921,-0.1941399707029608,0.1455976269022975,3.0,0.0
19.930097579956055,30.291893005371097,-2.0766115188598633,-0.0,-0.0,-1.0,0.1523846513815367,1.0,0.0
19.52875709533691,30.241029739379883,-2.1275668144226074,-0.0,-0.0,-1.0,0.0788809180374693,1.0,0.0
20.08363914489746,29.63652801513672,-2.005389451980591,-0.0,-0.0,-1.0,0.2617560498054364,1.0,0.0
19.42900657653809,30.113954544067383,-2.131709337234497,-0.0,-0.0,-1.0,0.0140896710368094,2.0,0.0
20.17924690246582,29.254417419433594,-1.9635109901428225,-0.0,-0.0,-1.0,0.2081237165830458,1.0,0.0
19.930036544799805,29.570087432861328,-2.0216176509857178,-0.0,-0.0,-1.0,0.1771737839479498,1.0,0.0
19.445209503173828,29.527896881103516,-2.0861501693725586,-0.0,-0.0,-1.0,0.1943251653978989,2.0,0.0
19.73500633239746,30.262592315673828,-1.8421611785888672,-0.0,-0.0,-1.0,0.0927462895664879,1.0,0.0
18.49424171447754,30.27380752563477,-1.9944260120391848,-0.0,-0.0,-1.0,0.0429083975902546,2.0,0.0
18.356096267700195,30.607269287109375,-2.038440704345703,-0.0,-0.0,-1.0,0.0811036256118284,1.0,0.0
18.63495826721191,29.945293426513672,-1.9506924152374268,-0.0,-0.0,-1.0,0.1972894933050336,1.0,0.0
19.435182571411133,29.24320602416992,-1.7950518131256104,-0.8132845022975207,0.4520050121939195,-0.366414774912596,0.2097688931060471,3.0,0.0
18.450841903686523,29.695770263671875,-1.954188346862793,-0.0,-0.0,-1.0,0.0663824019792689,1.0,0.0
19.47353744506836,28.820972442626953,-1.757016897201538,-0.0,-0.0,-1.0,0.1099389453874147,2.0,0.0
19.084213256835938,28.86528587341309,-1.8097667694091797,-0.0,-0.0,-1.0,0.2209307816296213,2.0,0.0
18.21203994750977,29.39910888671875,-1.9617085456848145,-0.0,-0.0,-1.0,0.0389650326517891,2.0,0.0
19.01451301574707,28.549457550048828,-1.794764280319214,-0.0,-0.0,-1.0,0.1405921703231051,1.0,0.0
18.657583236694336,28.602405548095703,-1.8447721004486084,-0.0,-0.0,-1.0,0.1762350694324505,2.0,0.0
18.72699737548828,30.156450271606445,-1.842956781387329,-0.0,-0.0,-1.0,0.1933756108630047,1.0,0.0
18.387920379638672,30.16968536376953,-1.8877496719360352,-0.0,-0.0,-1.0,0.072998459011773,2.0,0.0
18.149442672729492,30.29304313659668,-1.9285712242126465,-0.0,-0.0,-1.0,0.0366083048347735,1.0,0.0
19.132057189941406,29.773120880126953,-1.7596728801727295,-0.0,-0.0,-1.0,0.1035478552838069,1.0,0.0
18.581356048583984,29.886783599853516,-1.8400731086730957,-0.0,-0.0,-1.0,0.1199985007319358,1.0,0.0
18.280120849609375,29.91993522644043,-1.8819549083709717,-0.0,-0.0,-1.0,0.0467041781797466,1.0,0.0
18.157075881958008,29.585399627685547,-1.87206768989563,-0.0,-0.0,-1.0,0.05141999963991,1.0,0.0
17.845653533935547,29.551532745361328,-1.910877704620361,-0.0,-0.0,-1.0,0.0170080640599015,1.0,0.0
18.435850143432617,28.954179763793945,-1.7867820262908936,-0.0,-0.0,-1.0,0.1530290937671631,2.0,0.0
17.750247955322266,29.251239776611328,-1.9012715816497805,-0.0,-0.0,-1.0,0.041282965507028,2.0,0.0
18.460948944091797,28.564529418945312,-1.7543621063232422,-0.0437865856722935,-0.820126820588701,-0.570503929054158,0.0990320190152634,3.0,0.0
17.72357177734375,28.472721099853516,-1.8485338687896729,-0.0,-0.0,-1.0,0.043459091736053,2.0,0.0
20.1859073638916,29.72704315185547,-1.6224801540374756,-0.0,-0.0,-1.0,0.153456803202698,1.0,0.0
19.487518310546875,28.773828506469727,-1.6335091590881348,-0.0,-0.0,-1.0,0.0911315065736214,2.0,0.0
19.13015365600586,28.141769409179688,-1.6326704025268557,-0.0,-0.0,-1.0,0.1120967195010914,1.0,0.0
18.523122787475582,30.25915145874023,-1.9715096950531008,-0.0,-0.0,-1.0,0.0673394125243712,2.0,0.0
18.388591766357425,30.54206085205078,-2.0130019187927246,-0.0,-0.0,-1.0,0.0466008854288733,1.0,0.0
18.513248443603516,30.02112579345703,-1.9554669857025144,-0.0,-0.0,-1.0,0.0946795295102245,2.0,0.0
20.187225341796875,29.31043243408203,-1.64902925491333,-0.0,-0.0,-1.0,0.197536219347078,2.0,0.0
19.539758682250977,29.595346450805664,-1.767866849899292,-0.0,-0.0,-1.0,0.1048130826875389,2.0,0.0
18.5345458984375,29.80596923828125,-1.9365477561950684,-0.0,-0.0,-1.0,0.0674256220892215,2.0,0.0
19.419727325439453,29.243927001953125,-1.7598583698272705,-0.7546131736202651,0.5594749918126817,-0.3428508301505943,0.1428444671057377,3.0,0.0
18.359853744506836,29.488624572753903,-1.940951585769653,-0.8143219144637152,0.1410725218843221,-0.563008315385614,0.0591719426611687,3.0,0.0
19.330810546875,28.870943069458008,-1.7464358806610107,-0.0,-0.0,-1.0,0.1246893499052625,2.0,0.0
18.1905460357666,29.203876495361328,-1.9476861953735352,-0.0,-0.0,-1.0,0.064799858467547,1.0,0.0
19.060985565185547,28.492530822753903,-1.7619447708129885,-0.0,-0.0,-1.0,0.2305307821765679,1.0,0.0
18.60192108154297,28.63446807861328,-1.8440189361572263,-0.0,-0.0,-1.0,0.134203403628741,2.0,0.0
18.74087142944336,28.648941040039062,-1.137075901031494,-0.0,-0.0,-1.0,0.1837232411034115,1.0,0.0
19.084152221679688,28.17817497253418,-1.0711514949798584,-0.0,-0.0,-1.0,0.0490833994048458,2.0,0.0
20.03309440612793,30.450912475585938,-2.1500744819641113,-0.0,-0.0,-1.0,0.0703608754304575,2.0,0.0
19.73962020874023,30.224687576293945,-2.1664910316467285,-0.0,-0.0,-1.0,0.1003968006739786,1.0,0.0
19.70743179321289,29.662586212158203,-2.106505870819092,-0.0,-0.0,-1.0,0.1228203440115401,1.0,0.0
20.022533416748047,29.50819206237793,-2.0413403511047363,-0.0,-0.0,-1.0,0.1924525647560349,1.0,0.0
19.69756507873535,29.30449676513672,-2.067574977874756,-0.0,-0.0,-1.0,0.1612694812198561,1.0,0.0
19.50818252563477,29.408140182495117,-2.10828161239624,-0.0,-0.0,-1.0,0.1855783510246152,1.0,0.0
19.423664093017575,29.17956924438477,-2.0960049629211426,-0.4927349277882578,-0.4788371013334067,-0.72658607289441,0.1368588291687394,3.0,0.0
20.074464797973633,28.22837829589844,-1.890600562095642,-0.0,-0.0,-1.0,0.1984329592537169,1.0,0.0
18.922618865966797,30.105676651000977,-1.897653579711914,-0.0,-0.0,-1.0,0.1185169450033454,1.0,0.0
18.316328048706055,30.483213424682617,-2.0208516120910645,-0.0,-0.0,-1.0,0.0457839919315572,1.0,0.0
19.00545883178711,29.915605545043945,-1.8649775981903076,-0.0,-0.0,-1.0,0.1339941972993117,1.0,0.0
18.481773376464844,30.043262481689453,-1.9490766525268557,-0.0,-0.0,-1.0,0.1092273036069372,2.0,0.0
18.2550048828125,29.628101348876953,-1.9336035251617432,-0.4160827990754739,-0.841586574547557,-0.3443938760414129,0.0607038954972087,3.0,0.0
18.07366180419922,29.503963470458984,-1.9448657035827637,-0.0,-0.0,-1.0,0.024545305291338,1.0,0.0
18.12450408935547,29.31115341186523,-1.9169495105743408,-0.0,-0.0,-1.0,0.0478550149601304,1.0,0.0
17.82637596130371,29.20001220703125,-1.9466402530670168,-0.0,-0.0,-1.0,0.0554220566674809,1.0,0.0
17.792198181152344,28.446165084838867,-1.872722864151001,-0.0,-0.0,-1.0,0.0475392184608384,1.0,0.0
19.76311492919922,28.703548431396484,-1.6267285346984863,-0.0,-0.0,-1.0,0.1257481263208932,2.0,0.0
19.441349029541016,28.79204368591309,-1.679840087890625,-0.0,-0.0,-1.0,0.149069852603304,2.0,0.0
19.141780853271484,28.931913375854492,-1.735914707183838,-0.0,-0.0,-1.0,0.1451529836105198,1.0,0.0
19.071502685546875,28.141834259033203,-1.0594761371612549,-0.0,-0.0,-1.0,0.0490833994048458,2.0,0.0
18.99966049194336,30.621803283691406,-2.07956600189209,-0.0,-0.0,-1.0,0.1319751692562795,1.0,0.0
18.632980346679688,30.515239715576172,-2.1183791160583496,-0.0,-0.0,-1.0,0.0953507621571225,2.0,0.0
19.82428741455078,30.18191146850586,-1.907619833946228,-0.0,-0.0,-1.0,0.0672579130956398,1.0,0.0
19.84663963317871,29.47393035888672,-1.813449740409851,-0.0,-0.0,-1.0,0.1608684762983147,1.0,0.0
19.61290740966797,29.555381774902344,-1.8570700883865356,-0.0,-0.0,-1.0,0.0978596205315362,1.0,0.0
18.735271453857425,29.86038398742676,-2.0224366188049316,-0.0,-0.0,-1.0,0.0927159223114702,1.0,0.0
19.54694366455078,29.251171112060547,-1.8284419775009155,-0.0,-0.0,-1.0,0.1582582234697036,1.0,0.0
18.67224884033203,29.52025604248047,-1.9903589487075808,-0.0,-0.0,-1.0,0.0819404847451474,2.0,0.0
18.509021759033203,29.479576110839844,-2.0099844932556152,-0.0,-0.0,-1.0,0.056623316154124,1.0,0.0
18.523040771484375,29.05660057067871,-1.957717776298523,-0.0,-0.0,-1.0,0.1565611929689839,2.0,0.0
18.4508056640625,29.318397521972656,-1.9996200799942017,-0.0,-0.0,-1.0,0.100351679283877,2.0,0.0
18.64322280883789,28.83841896057129,-1.913702368736267,-0.0,-0.0,-1.0,0.1502031096285417,1.0,0.0
18.15426254272461,28.38962745666504,-1.938907504081726,-0.0,-0.0,-1.0,0.0367929016697037,1.0,0.0
19.83967399597168,28.67605209350586,-1.714535355567932,-0.0,-0.0,-1.0,0.0755367159105766,1.0,0.0
19.521987915039062,28.79765510559082,-1.7762306928634644,-0.0,-0.0,-1.0,0.0894612643812555,2.0,0.0
19.18465232849121,28.50362777709961,-1.7915369272232056,-0.0,-0.0,-1.0,0.2519295661066153,1.0,0.0
18.85111618041992,28.67321395874023,-1.2682186365127563,-0.0,-0.0,-1.0,0.0289970572627481,1.0,0.0
19.171703338623047,28.166906356811523,-1.180895447731018,-0.0,-0.0,-1.0,0.0531224735318784,2.0,0.0
20.125999450683594,30.047462463378903,-2.2001266479492188,-0.0,-0.0,-1.0,0.0344312164572744,1.0,0.0
20.066396713256836,29.789247512817383,-2.1651625633239746,-0.0,-0.0,-1.0,0.0637200719093153,1.0,0.0
19.924854278564453,29.458864212036133,-2.13067626953125,-0.0,-0.0,-1.0,0.1149718809937213,1.0,0.0
19.313011169433594,30.63140106201172,-1.795214056968689,-0.0,-0.0,-1.0,0.0754522144039611,1.0,0.0
18.8997802734375,30.54995346069336,-1.8354402780532837,-0.0,-0.0,-1.0,0.1253520283437441,1.0,0.0
18.636383056640625,30.60132598876953,-1.8756221532821655,-0.0,-0.0,-1.0,0.1531221413658144,1.0,0.0
18.46860122680664,30.22837257385254,-1.848403811454773,-0.0,-0.0,-1.0,0.074963211499176,1.0,0.0
18.764354705810547,29.941974639892575,-1.7725847959518433,-0.0,-0.0,-1.0,0.1602390037691578,2.0,0.0
18.229827880859375,29.81481170654297,-1.8270341157913208,-0.0,-0.0,-1.0,0.1119135584285257,2.0,0.0
17.980209350585938,29.98003196716309,-1.8817003965377808,-0.0,-0.0,-1.0,0.083393066206092,1.0,0.0
20.144134521484375,29.475820541381836,-2.1019272804260254,-0.0,-0.0,-1.0,0.1763451962971862,2.0,0.0
20.085159301757812,29.466073989868164,-2.108734130859375,-0.5621938118634365,0.5123118546991922,-0.649210814325465,0.1763451962971862,3.0,0.0
17.750240325927734,29.633445739746097,-1.8700131177902224,-0.5710514646845951,0.1387297647066096,-0.8091070862784648,0.0506801043776639,3.0,0.0
19.714359283447266,29.09981155395508,-2.1031203269958496,-0.0,-0.0,-1.0,0.1406659510699594,1.0,0.0
19.66083526611328,29.040481567382812,-2.1015920639038086,-0.0,-0.0,-1.0,0.1131372242788766,1.0,0.0
19.64196014404297,29.60761451721191,-1.6163288354873655,-0.0,-0.0,-1.0,0.0943979435230624,2.0,0.0
18.69302749633789,29.50950813293457,-1.7261337041854858,-0.0,-0.0,-1.0,0.1360922810113839,1.0,0.0
18.54715919494629,28.92940139770508,-1.6726669073104858,-0.0,-0.0,-1.0,0.1811015658397571,1.0,0.0
18.50347900390625,28.551916122436523,-1.6321996450424194,-0.0,-0.0,-1.0,0.0929508425649675,1.0,0.0
19.017465591430664,28.32598876953125,-1.532981276512146,-0.0,-0.0,-1.0,0.1230740187477688,1.0,0.0
19.10493850708008,30.537429809570312,-2.1377015113830566,-0.0,-0.0,-1.0,0.0281160737716453,1.0,0.0
19.085233688354492,30.04550552368164,-2.0596671104431152,-0.0,-0.0,-1.0,0.1128419995039459,1.0,0.0
18.94167709350586,30.304885864257812,-2.121071100234986,-0.0,-0.0,-1.0,0.0555087896669194,1.0,0.0
18.841711044311523,29.91124725341797,-2.070674180984497,-0.0,-0.0,-1.0,0.1157880993341543,2.0,0.0
18.714122772216797,29.61579704284668,-2.0411126613616943,-0.6962490650868924,0.2197747385688128,-0.6833273766304392,0.0818092747199505,3.0,0.0
18.552490234375,29.371936798095703,-2.0255565643310547,-0.0,-0.0,-1.0,0.087801148899213,2.0,0.0
19.667638778686523,29.43816375732422,-1.8837871551513672,-0.0,-0.0,-1.0,0.0858087742849534,1.0,0.0
19.361480712890625,29.472610473632812,-1.9298317432403564,-0.0,-0.0,-1.0,0.1787766125447082,1.0,0.0
19.489723205566406,28.77020263671875,-1.79941987991333,-0.0,-0.0,-1.0,0.095526147683126,2.0,0.0
19.000974655151367,28.933338165283203,-1.8932931423187256,-0.0,-0.0,-1.0,0.2610425038916997,1.0,0.0
18.46405792236328,29.214065551757812,-2.01371693611145,-0.0,-0.0,-1.0,0.0905480178783408,1.0,0.0
19.15036392211914,28.54836082458496,-1.8118607997894287,-0.0,-0.0,-1.0,0.1912318775045086,1.0,0.0
18.125905990600582,28.43626594543457,-1.946427345275879,-0.0,-0.0,-1.0,0.0363512097448121,1.0,0.0
19.19278335571289,30.523923873901367,-2.141116142272949,-0.0,-0.0,-1.0,0.1086317378074199,1.0,0.0
19.02577781677246,30.28794860839844,-2.119110584259033,-0.0,-0.0,-1.0,0.0642995590684312,1.0,0.0
18.798545837402344,30.209964752197266,-2.134185791015625,-0.0,-0.0,-1.0,0.052171208888033,1.0,0.0
19.156858444213867,29.90804672241211,-2.0344300270080566,-0.0,-0.0,-1.0,0.1182088116452059,1.0,0.0
18.69397354125977,29.663883209228516,-2.052070140838623,-0.0,-0.0,-1.0,0.0601996992053646,2.0,0.0
19.53800392150879,29.53625106811523,-1.9196900129318235,-0.2831401710317247,0.3871348794604768,-0.8774726369826287,0.1592786177991147,3.0,0.0
18.635406494140625,29.55738067626953,-2.0414085388183594,-0.0,-0.0,-1.0,0.0671597718734886,1.0,0.0
19.761999130249023,29.44641876220703,-1.875784993171692,-0.0,-0.0,-1.0,0.1922615178202973,1.0,0.0
19.582324981689453,29.360591888427734,-1.882722020149231,-0.0,-0.0,-1.0,0.2013692537974803,1.0,0.0
19.249418258666992,29.341487884521484,-1.9216700792312624,-0.0,-0.0,-1.0,0.2115954030998773,1.0,0.0
18.56121253967285,29.38422966003418,-2.021766662597656,-0.0,-0.0,-1.0,0.087801148899213,2.0,0.0
18.454288482666016,29.27413558959961,-2.017916202545166,-0.0,-0.0,-1.0,0.0871476412656509,2.0,0.0
19.48122215270996,28.8540096282959,-1.8051904439926147,-0.0,-0.0,-1.0,0.2329533410946423,1.0,0.0
19.110538482666016,28.404861450195312,-1.777346968650818,-0.0,-0.0,-1.0,0.2016765114103654,1.0,0.0
18.2130126953125,28.723024368286133,-1.960487961769104,-0.0,-0.0,-1.0,0.0403050931055768,1.0,0.0
18.040821075439453,28.619464874267575,-1.9694041013717651,-0.089497122419648,0.1358842572381733,-0.9866740767413688,0.0313349036097724,3.0,0.0
18.83727264404297,28.171646118164062,-1.7769593000411987,-0.0,-0.0,-1.0,0.1900244185950844,1.0,0.0
18.73655128479004,28.65266227722168,-1.3540133237838743,-0.8606760254611715,0.3909123885241388,-0.3262273497037207,0.0226575478233333,3.0,0.0
18.442705154418945,30.4266414642334,-2.051419496536255,-0.0,-0.0,-1.0,0.0466008854288733,1.0,0.0
18.564607620239254,30.079662322998047,-1.9745397567749023,-0.0,-0.0,-1.0,0.0961200678327293,2.0,0.0
19.699542999267575,30.262386322021484,-1.8805158138275144,-0.0,-0.0,-1.0,0.0851466881024622,2.0,0.0
18.998836517333984,30.02420997619629,-1.9131674766540527,-0.0,-0.0,-1.0,0.1469443043365959,1.0,0.0
18.624189376831055,30.022491455078125,-1.9571521282196045,-0.0,-0.0,-1.0,0.1851512205898751,1.0,0.0
19.620508193969727,29.64266586303711,-1.773456335067749,-0.0,-0.0,-1.0,0.1495796457479621,1.0,0.0
19.209720611572266,29.87962532043457,-1.8627309799194336,-0.0,-0.0,-1.0,0.1220345417081191,1.0,0.0
18.46099853515625,29.755863189697266,-1.929737329483032,-0.0,-0.0,-1.0,0.059718172594893,2.0,0.0
18.292695999145508,29.60580062866211,-1.9246447086334229,-0.0,-0.0,-1.0,0.0567440691193949,2.0,0.0
17.892122268676758,29.39105224609375,-1.940385818481445,-0.0,-0.0,-1.0,0.020651568443129,1.0,0.0
19.66437339782715,29.552967071533203,-1.7521100044250488,0.0265727978603679,-0.9958722505022948,-0.0867890954749879,0.0634648219258755,4.0,0.0
18.98013687133789,29.33883285522461,-1.7917828559875488,-0.0,-0.0,-1.0,0.1258691748462307,1.0,0.0
17.773704528808594,29.21797561645508,-1.9272642135620115,-0.0,-0.0,-1.0,0.0527038008074058,2.0,0.0
19.420747756958008,28.84804344177246,-1.6507761478424072,-0.0,-0.0,-1.0,0.171638947737805,1.0,0.0
18.73329734802246,28.545005798339844,-1.682644605636597,-0.0,-0.0,-1.0,0.1531676317019424,2.0,0.0
19.08084487915039,30.60529327392578,-2.1319808959960938,-0.0,-0.0,-1.0,0.1330588576677819,2.0,0.0
18.727001190185547,30.03623962402344,-2.0449345111846924,-0.0,-0.0,-1.0,0.1917385803363717,1.0,0.0
18.641244888305664,29.669384002685547,-1.9781200885772705,-0.0,-0.0,-1.0,0.0641977052374964,2.0,0.0
18.443025588989254,29.619609832763672,-1.987077713012695,-0.0,-0.0,-1.0,0.0605638690161843,2.0,0.0
19.610410690307617,29.503875732421875,-1.8597238063812256,-0.0,-0.0,-1.0,0.0978345909155043,2.0,0.0
19.39778709411621,29.52209854125977,-1.8808183670043943,-0.0,-0.0,-1.0,0.1482193651900648,1.0,0.0
18.026714324951172,29.297664642333984,-1.9654653072357176,-0.0,-0.0,-1.0,0.0263334898239598,1.0,0.0
19.803333282470703,29.39250946044922,-1.8212947845458984,-0.0,-0.0,-1.0,0.1445524367561283,1.0,0.0
19.419479370117188,29.200843811035156,-1.8124549388885496,-0.7412195840096234,0.4711764328733842,-0.4781069936586517,0.2074297379597524,3.0,0.0
19.029333114624023,28.917081832885746,-1.7890222072601318,-0.0,-0.0,-1.0,0.1491136319175525,1.0,0.0
18.46044158935547,28.581024169921875,-1.7780351638793943,-0.0,-0.0,-1.0,0.1053404730840185,2.0,0.0
17.802146911621094,28.36589813232422,-1.809178113937378,-0.0,-0.0,-1.0,0.0475392184608384,1.0,0.0
19.79376983642578,28.641704559326172,-1.6652798652648926,-0.0,-0.0,-1.0,0.1148139709353287,1.0,0.0
19.422008514404297,28.759836196899418,-1.7214665412902832,-0.0,-0.0,-1.0,0.1607878517253797,1.0,0.0
18.68111038208008,28.55733108520508,-1.7505364418029783,-0.0,-0.0,-1.0,0.1176352432461037,2.0,0.0
18.79727554321289,28.640117645263672,-1.2632713317871094,-0.0,-0.0,-1.0,0.0226575478233334,1.0,0.0
20.09972381591797,30.26291847229004,-2.2033770084381104,-0.0,-0.0,-1.0,0.0368642394180459,2.0,0.0
19.814002990722656,30.13623046875,-2.1887662410736084,-0.0,-0.0,-1.0,0.1100584660046581,1.0,0.0
19.550657272338867,30.051464080810547,-2.1841955184936523,-0.0,-0.0,-1.0,0.0133985159087976,1.0,0.0
19.81065368652344,30.011308670043945,-2.1601204872131348,-0.0,-0.0,-1.0,0.0908319703931359,1.0,0.0
19.574960708618164,29.611412048339844,-2.08164644241333,-0.0,-0.0,-1.0,0.1546372809104649,2.0,0.0
19.038253784179688,29.57791328430176,-2.1095001697540283,-0.0,-0.0,-1.0,0.096876720833555,2.0,0.0
18.884944915771484,29.463062286376953,-2.094571352005005,-0.0,-0.0,-1.0,0.055536206234654,1.0,0.0
19.80844497680664,29.30917739868164,-1.9981870651245115,-0.0,-0.0,-1.0,0.1478792600983335,1.0,0.0
19.181869506835938,29.418914794921875,-2.0633316040039062,-0.0,-0.0,-1.0,0.104079897288902,1.0,0.0
18.83189582824707,29.23978042602539,-2.0482919216156006,-0.0,-0.0,-1.0,0.1375162280683745,2.0,0.0
18.08371353149414,28.61734390258789,-1.9735867977142336,-0.0,-0.0,-1.0,0.0234505835558886,2.0,0.0
17.843830108642578,28.40594482421875,-1.950629711151123,-0.0,-0.0,-1.0,0.0475392184608384,1.0,0.0
18.858257293701172,30.61440086364746,-1.7976880073547363,-0.0,-0.0,-1.0,0.0783038806150206,1.0,0.0
18.798460006713867,29.976234436035156,-1.6787664890289309,-0.0,-0.0,-1.0,0.1433339427763639,2.0,0.0
19.665441513061523,29.66006088256836,-1.5697505474090576,-0.0,-0.0,-1.0,0.0943979435230624,1.0,0.0
18.602928161621097,28.553844451904297,-1.913607835769653,-0.0,-0.0,-1.0,0.1231060302516622,2.0,0.0
18.2109375,28.49915885925293,-1.93603515625,-0.0,-0.0,-1.0,0.064999348806512,2.0,0.0
17.85842514038086,28.267087936401367,-1.9192533493041992,-0.0,-0.0,-1.0,0.0464247567745724,1.0,0.0
19.75942039489746,28.540796279907227,-1.8248686790466309,-0.0,-0.0,-1.0,0.1561971809283905,1.0,0.0
19.15484619140625,28.460063934326172,-1.848521709442139,-0.0,-0.0,-1.0,0.2566013882428081,1.0,0.0
18.753211975097656,28.65793800354004,-1.4312248229980469,-0.0,-0.0,-1.0,0.018789224270951,2.0,0.0
19.134063720703125,28.143817901611328,-1.3085041046142578,-0.0,-0.0,-1.0,0.1040072496954852,1.0,0.0
19.51152992248535,30.549692153930664,-2.183830738067627,-0.0,-0.0,-1.0,0.1207441426222117,1.0,0.0
19.464519500732425,30.514904022216797,-2.175586223602295,-0.0,-0.0,-1.0,0.1205250915866036,2.0,0.0
18.87460708618164,30.300193786621097,-2.1268911361694336,-0.0,-0.0,-1.0,0.0456220507553701,1.0,0.0
20.015552520751953,30.413047790527344,-2.157083511352539,-0.0,-0.0,-1.0,0.0647625776386562,2.0,0.0
19.891847610473633,30.36246681213379,-2.143826484680176,-0.0,-0.0,-1.0,0.1051783278722814,1.0,0.0
19.28742218017578,30.358125686645508,-2.1390886306762695,-0.0,-0.0,-1.0,0.0490052639064523,1.0,0.0
19.05035400390625,30.231197357177734,-2.110307216644287,-0.0,-0.0,-1.0,0.0527339032136709,2.0,0.0
19.23020362854004,29.913135528564453,-2.037167549133301,-0.0,-0.0,-1.0,0.1020778810293716,1.0,0.0
18.6822509765625,29.814868927001953,-2.018463134765625,-0.0,-0.0,-1.0,0.0665000528274726,1.0,0.0
18.41493034362793,29.55093765258789,-1.962957501411438,-0.0,-0.0,-1.0,0.0489750281145163,1.0,0.0
18.012592315673828,29.34463882446289,-1.9251333475112915,-0.0,-0.0,-1.0,0.0236706468101838,2.0,0.0
19.861467361450195,30.093284606933594,-2.0812463760375977,-0.0,-0.0,-1.0,0.154942643802501,1.0,0.0
18.38139533996582,29.23058700561523,-1.8914142847061155,-0.0,-0.0,-1.0,0.0699952642612117,2.0,0.0
20.107192993164062,29.57044982910156,-1.9630743265151975,-0.0,-0.0,-1.0,0.2731295437645343,1.0,0.0
19.803300857543945,29.50586700439453,-1.9452983140945437,-0.0,-0.0,-1.0,0.185074273952725,1.0,0.0
19.580495834350582,29.475793838500977,-1.9371248483657837,-0.0,-0.0,-1.0,0.142303483835273,1.0,0.0
19.200658798217773,29.378612518310547,-1.9151562452316284,-0.0,-0.0,-1.0,0.1787088411976803,2.0,0.0
19.360153198242188,28.845401763916016,-1.793095946311951,-0.0,-0.0,-1.0,0.1302282947615627,2.0,0.0
18.67426109313965,28.577077865600582,-1.7394133806228638,-0.0,-0.0,-1.0,0.1176352432461037,2.0,0.0
18.351985931396484,28.208969116210938,-1.6641491651535034,-0.0,-0.0,-1.0,0.1471445052216751,1.0,0.0
19.156625747680664,28.141799926757812,-1.1579121351242063,-0.0,-0.0,-1.0,0.0531224735318784,2.0,0.0
18.367469787597656,29.6783504486084,-1.9289817810058592,-0.0,-0.0,-1.0,0.07829311450313,2.0,0.0
18.03180694580078,29.560869216918945,-1.9136922359466553,0.3287073718050741,0.2123612943079045,-0.9202467845099336,0.0220140349058989,3.0,0.0
19.66047477722168,30.63418197631836,-2.11600112915039,-0.0,-0.0,-1.0,0.1191177933573677,1.0,0.0
19.362548828125,30.423004150390625,-2.0716750621795654,-0.0,-0.0,-1.0,0.253467881923977,1.0,0.0
19.16852378845215,30.26517868041992,-2.0394997596740723,-0.0,-0.0,-1.0,0.0371172618952524,1.0,0.0
18.7329044342041,29.84778594970703,-1.9570019245147705,-0.0,-0.0,-1.0,0.1229484461912559,2.0,0.0
18.675146102905273,29.737159729003903,-1.934788942337036,-0.0,-0.0,-1.0,0.0711803720221244,1.0,0.0
18.240602493286133,29.554248809814453,-1.9063072204589844,-0.0,-0.0,-1.0,0.0670967518162428,1.0,0.0
17.735145568847656,29.31857109069824,-1.873286247253418,-0.0,-0.0,-1.0,0.0395707851367955,1.0,0.0
18.109758377075195,29.421497344970703,-1.8823668956756592,-0.0,-0.0,-1.0,0.038382023900567,1.0,0.0
19.612424850463867,29.500598907470703,-1.8746483325958252,-0.0,-0.0,-1.0,0.1013341649674369,2.0,0.0
19.39084243774414,29.274328231811523,-1.8277854919433592,-0.0,-0.0,-1.0,0.2194113559980579,1.0,0.0
18.681175231933594,28.54696273803711,-1.685434103012085,-0.0,-0.0,-1.0,0.1126743734482984,1.0,0.0
18.37303352355957,28.195537567138672,-1.6204755306243896,-0.0,-0.0,-1.0,0.1795956116547,1.0,0.0
19.83893394470215,29.32058334350586,-1.8360302448272705,-0.0,-0.0,-1.0,0.1198811083580272,1.0,0.0
19.53184700012207,28.732078552246097,-1.711812973022461,-0.0,-0.0,-1.0,0.1033142141494997,1.0,0.0
18.862079620361328,28.402191162109375,-1.65124773979187,-0.0,-0.0,-1.0,0.1526111622447212,1.0,0.0
18.829618453979492,28.619489669799805,-1.1852192878723145,-0.0,-0.0,-1.0,0.1030004311024278,1.0,0.0
18.19392204284668,28.303966522216797,-1.9826245307922363,-0.0,-0.0,-1.0,0.0667632671792372,1.0,0.0
18.393918991088867,28.32737159729004,-1.9882230758666992,-0.0,-0.0,-1.0,0.1430753435663021,1.0,0.0
18.310039520263672,28.239105224609375,-1.967961072921753,-0.0,-0.0,-1.0,0.1185474587657075,1.0,0.0
18.453893661499023,28.48474884033203,-1.7608543634414673,-0.0,-0.0,-1.0,0.1341475336380142,1.0,0.0
18.31841278076172,29.413135528564453,-1.867876887321472,-0.0,-0.0,-1.0,0.0683974165497464,1.0,0.0
19.723339080810547,29.208778381347656,-2.0426015853881836,-0.0,-0.0,-1.0,0.1157016594588289,1.0,0.0
19.29920196533203,29.906618118286133,-2.1541285514831543,-0.0,-0.0,-1.0,0.0655631278059093,2.0,0.0
19.35028839111328,29.97932243347168,-2.1604723930358887,-0.0,-0.0,-1.0,0.0167207716416727,1.0,0.0
19.61201858520508,30.18515396118164,-2.172348976135254,-0.0,-0.0,-1.0,0.0202659749430181,2.0,0.0
19.046998977661133,30.608638763427734,-2.0228066444396973,-0.0,-0.0,-1.0,0.1654115293128225,1.0,0.0
18.904125213623047,30.591262817382812,-2.02618408203125,-0.0,-0.0,-1.0,0.1235403095603508,1.0,0.0
19.153112411499023,28.2321720123291,-1.430464506149292,-0.0,-0.0,-1.0,0.1150368657340713,1.0,0.0
17.837604522705078,28.796161651611328,-1.343395471572876,-0.0,-0.0,-1.0,0.1407655008928985,1.0,0.0
18.781421661376953,29.938751220703125,-1.7557852268218994,-0.0,-0.0,-1.0,0.1553105496915502,2.0,0.0
20.205810546875,29.19421768188477,-1.7325198650360107,-0.0,-0.0,-1.0,0.1967509436983916,1.0,0.0
17.73716163635254,29.59492874145508,-1.8673865795135496,-0.5710514646845951,0.1387297647066096,-0.8091070862784648,0.0251205481336897,3.0,0.0
18.69094467163086,29.966388702392575,-1.8355815410614016,0.3238625688452657,0.3104962969171339,-0.8937030189619439,0.1364869460395981,3.0,0.0
18.42316436767578,30.1940975189209,-1.8735158443450928,-0.0,-0.0,-1.0,0.0768778066686496,2.0,0.0
17.763729095458984,29.8574275970459,-1.8781869411468504,-0.0,-0.0,-1.0,0.0859123875818401,1.0,0.0
20.17499351501465,29.533039093017575,-1.711475133895874,-0.0,-0.0,-1.0,0.1908769836077302,1.0,0.0
19.694055557250977,29.511987686157227,-1.734774827957153,0.7933836422931188,-0.378173713297268,-0.4769979441388194,0.0807704419804978,3.0,0.0
19.577556610107425,29.58854866027832,-1.7487597465515137,-0.0,-0.0,-1.0,0.1048130826875389,2.0,0.0
19.408119201660156,28.781471252441406,-1.6767640113830566,-0.0,-0.0,-1.0,0.1283272951652999,2.0,0.0
17.719032287597656,29.53815269470215,-1.849148511886597,-0.0,-0.0,-1.0,0.0111609914441501,2.0,0.0
19.062538146972656,28.17999267578125,-1.318176031112671,-0.0,-0.0,-1.0,0.0802633029500898,1.0,0.0
20.185922622680664,29.248437881469727,-1.8445178270339968,-0.0,-0.0,-1.0,0.2000503832847738,1.0,0.0
18.695636749267575,30.454477310180664,-2.1001405715942383,-0.0,-0.0,-1.0,0.0777870606563221,1.0,0.0
19.08991241455078,29.72565269470215,-2.046865940093994,-0.0,-0.0,-1.0,0.1547662437092748,1.0,0.0
18.90245056152344,29.61203384399414,-2.035271167755127,-0.0,-0.0,-1.0,0.0533561072987745,1.0,0.0
18.29887962341309,28.60798454284668,-1.9111472368240356,-0.0,-0.0,-1.0,0.0712159863343772,1.0,0.0
18.191986083984375,28.541606903076172,-1.9047805070877075,-0.0,-0.0,-1.0,0.0597144005543273,2.0,0.0
19.62129592895508,30.395042419433594,-1.636365294456482,-0.0,-0.0,-1.0,0.0572779023077257,1.0,0.0
19.72843360900879,30.28084945678711,-1.765531301498413,-0.0,-0.0,-1.0,0.089192355164882,1.0,0.0
19.58775329589844,29.579734802246097,-1.6740798950195312,-0.0,-0.0,-1.0,0.0830041895481954,2.0,0.0
19.56149673461914,30.288650512695312,-1.7704026699066162,-0.0,-0.0,-1.0,0.076737106896049,1.0,0.0
19.12975692749023,28.210128784179688,-1.5014863014221191,-0.0,-0.0,-1.0,0.0749751466313878,1.0,0.0
19.08561897277832,29.13477325439453,-1.6267001628875732,-0.0,-0.0,-1.0,0.1725662246474246,2.0,0.0
18.383615493774418,28.87805938720703,-1.6117069721221924,-0.0,-0.0,-1.0,0.1768560536112342,1.0,0.0
19.636621475219727,30.287399291992188,-1.6074801683425903,-0.7099093497114534,-0.7042705417803035,-0.0056319776934454,0.0572779023077257,3.0,0.0
19.06494903564453,30.516658782958984,-1.6587916612625122,-0.0,-0.0,-1.0,0.194607133979,1.0,0.0
19.10546875,30.614673614501953,-2.1120336055755615,-0.0,-0.0,-1.0,0.1375647339130239,2.0,0.0
19.518104553222656,29.543067932128903,-1.910261392593384,-0.3985176237148498,-0.8966683458664974,-0.1927941417930249,0.1592786177991146,3.0,0.0
19.608001708984375,30.59097671508789,-2.0550928115844727,-0.0,-0.0,-1.0,0.1530492554960141,1.0,0.0
19.25782012939453,29.705326080322266,-1.9621822834014893,-0.0,-0.0,-1.0,0.2072448196295734,1.0,0.0
19.04198455810547,30.473697662353516,-2.0982954502105713,-0.0,-0.0,-1.0,0.0633483583189732,2.0,0.0
18.69373893737793,29.634918212890625,-2.014193534851074,-0.896617078859935,-0.229314235142921,-0.3788044290362699,0.0702659417586994,4.0,0.0
18.79799461364746,29.93216323852539,-2.045813798904419,-0.0,-0.0,-1.0,0.1907643734378489,1.0,0.0
18.766956329345703,30.327186584472656,-2.106860876083374,-0.0,-0.0,-1.0,0.0529182209577511,1.0,0.0
18.151222229003903,28.63507080078125,-1.9322013854980469,-0.0,-0.0,-1.0,0.0258870594461845,1.0,0.0
18.471424102783203,29.37954330444336,-2.002283811569214,-0.0,-0.0,-1.0,0.0811121675644684,1.0,0.0
18.072757720947266,28.577556610107425,-1.93322491645813,-0.0,-0.0,-1.0,0.0321663041408561,1.0,0.0
18.719167709350582,28.652862548828125,-1.232471942901611,-0.7615477072626513,-0.6406115562719951,-0.0982950839756073,0.0204147428914357,3.0,0.0
19.584318161010746,30.424375534057617,-2.1616597175598145,-0.0,-0.0,-1.0,0.0835572345262386,2.0,0.0
19.278162002563477,29.899742126464844,-2.1178135871887207,-0.0,-0.0,-1.0,0.0853033917790697,2.0,0.0
20.188186645507812,29.401264190673828,-1.9233758449554443,-0.0,-0.0,-1.0,0.1723380947887836,1.0,0.0
19.70713996887207,29.291664123535156,-1.966416358947754,-0.0,-0.0,-1.0,0.1444055720344232,1.0,0.0
19.809894561767575,29.627880096435547,-2.0067100524902344,-0.0,-0.0,-1.0,0.1351020059163633,1.0,0.0
19.717365264892575,28.69518280029297,-1.8708624839782717,-0.0,-0.0,-1.0,0.1422400847289777,1.0,0.0
19.066179275512695,28.474517822265625,-1.9227080345153809,-0.0,-0.0,-1.0,0.163654756773235,1.0,0.0
18.942983627319336,29.257583618164062,-2.061354398727417,-0.0,-0.0,-1.0,0.0912319770258081,1.0,0.0
18.95461082458496,29.446157455444336,-2.0892043113708496,-0.0,-0.0,-1.0,0.048542055173843,1.0,0.0
18.833343505859375,28.92073631286621,-2.023731470108032,-0.0,-0.0,-1.0,0.1284984451039998,1.0,0.0
20.159564971923828,30.032052993774418,-2.0753560066223145,-0.0,-0.0,-1.0,0.0573296891631541,1.0,0.0
19.82728576660156,30.36267852783203,-2.164806842803955,0.5888348381605745,-0.5129729874827484,-0.6246056735904932,0.1179327414346159,3.0,0.0
19.765777587890625,30.13242530822754,-2.12781286239624,-0.0,-0.0,-1.0,0.1827294959318603,1.0,0.0
