x,y,z,nx,ny,nz,curvature,density,label
20.500110626220703,4.837619781494141,-0.6354644298553467,-0.521613796703966,0.4182022401140266,-0.7436571343379176,0.1147529454520211,3.0,0.0
21.122955322265625,5.037801742553711,-0.6734323501586914,0.3556451240367562,-0.1949185515698278,-0.9140696384864778,0.0312984122409241,4.0,0.0
20.301212310791016,3.9211273193359375,-0.6016478538513184,0.4427989554718881,0.7895307008727477,-0.4249357097401828,0.0802601321747803,3.0,0.0
21.05459213256836,4.464878082275391,-0.6135909557342529,-0.0,-0.0,-1.0,0.109328680825954,2.0,0.0
20.425853729248047,4.137521743774414,0.2445313930511474,-0.0,-0.0,-1.0,0.1216389088278304,1.0,1.0
21.56684112548828,5.05681037902832,-0.6467592716217041,-0.0,-0.0,-1.0,0.066848625840528,2.0,0.0
22.051536560058594,5.484428405761719,-0.6461505889892578,-0.7679459770000006,0.3891863529900443,-0.5087169734300426,0.0753641448938875,5.0,0.0
21.432422637939453,4.511144638061523,-0.448991060256958,0.1841470923753176,0.9794002515022427,0.0828552697603483,0.1653652984399161,4.0,0.0
22.09567642211914,4.703435897827148,-0.5005166530609131,0.3933695928028212,-0.0014733172251244,-0.9193792431823208,0.142847283472735,4.0,0.0
22.54705238342285,5.329530715942383,-0.4875214099884033,-0.0179959360803716,-0.9180355985521884,-0.3960893662742235,0.2302710828650807,4.0,0.0
21.931283950805664,4.397615432739258,-0.5063650608062744,-0.0,-0.0,-1.0,0.0966846283874325,2.0,0.0
21.433534622192383,4.361930847167969,-0.4387438297271728,-0.0,-0.0,-1.0,0.1101287436769609,1.0,0.0
21.116291046142575,3.737163543701172,-0.5910739898681641,-0.0,-0.0,-1.0,0.0663287700030665,2.0,0.0
21.71088409423828,4.661808013916016,-0.5545916557312012,-0.633903312075972,0.7362212163737266,0.2369491749306222,0.2463305933972892,3.0,0.0
20.880470275878903,3.547443389892578,-0.6129660606384277,0.1444552003271976,-0.2225653753722801,-0.9641562885672764,0.0865445988421917,5.0,0.0
21.60805892944336,4.574027061462402,-0.5823943614959717,-0.4143993537992112,-0.4673900292660987,-0.780909556935649,0.2505577018586947,5.0,0.0
20.534229278564453,3.9725170135498047,0.6742630004882812,-0.0,-0.0,-1.0,0.0916826997368511,1.0,1.0
20.4762020111084,4.811594009399414,-0.6333303451538086,-0.521613796703966,0.4182022401140266,-0.7436571343379176,0.0840309644593132,3.0,0.0
20.437171936035156,3.844884872436523,-0.2282602787017822,-0.0,-0.0,-1.0,0.1248431721176985,1.0,0.0
22.147624969482425,4.721078872680664,-0.3934700489044189,-0.0961566883483047,-0.988611722213588,0.1157616257132322,0.2563013362813323,11.0,0.0
22.579936981201172,5.335996627807617,-0.3932783603668213,-0.8853016714707317,0.0419353793590848,-0.4631224184264224,0.2070831861104957,4.0,0.0
20.38506507873535,4.07236385345459,0.3540632724761963,-0.0,-0.0,-1.0,0.1081793868045,2.0,1.0
20.499717712402344,4.04985237121582,0.8762798309326172,-0.0,-0.0,-1.0,0.1637016967418357,1.0,1.0
20.40285301208496,3.8589353561401367,-0.6228287220001221,-0.0,-0.0,-1.0,0.0699790826825909,1.0,0.0
20.520923614501953,3.772830009460449,-0.1369326114654541,0.5576411365963658,-0.6137767950132665,-0.5588509717972723,0.1247922229878838,4.0,0.0
22.18437957763672,4.6469573974609375,-0.2372376918792724,-0.0,-0.0,-1.0,0.2731115529343395,2.0,0.0
22.637216567993164,5.127445220947266,-0.2396090030670166,-0.0,-0.0,-1.0,0.1469221740014324,2.0,0.0
20.474075317382812,3.979616165161133,0.9039214849472046,-0.0,-0.0,-1.0,0.1441023408954881,1.0,1.0
22.069541931152344,4.565370559692383,-0.4086346626281738,0.8271816575756326,0.5552960051974919,0.0861211471250586,0.1430225311720238,3.0,0.0
20.339635848999023,4.026483535766602,0.2380657196044922,-0.0,-0.0,-1.0,0.1532669923209235,1.0,1.0
20.512481689453125,4.020468711853027,0.675098180770874,-0.0,-0.0,-1.0,0.1223040640239918,1.0,1.0
20.60506820678711,5.251792907714844,-0.715306282043457,-0.4293334728885966,-0.3019149201402916,-0.851187494065848,0.1265174358317904,3.0,0.0
20.67273330688477,3.6108474731445312,-0.6497220993041992,0.4779066781929753,0.1918707323710871,-0.8571994102879086,0.0925721678552657,3.0,0.0
21.215251922607425,4.207103729248047,-0.6258234977722168,-0.0,-0.0,-1.0,0.0913096118638835,1.0,0.0
21.539670944213867,4.480508804321289,-0.6330151557922363,0.2448463107842559,0.6020679584596613,-0.7599766164110282,0.1692076927765703,3.0,0.0
20.523786544799805,3.763182640075683,-0.1478326320648193,0.5576411365963658,-0.6137767950132665,-0.5588509717972723,0.1150991392325365,4.0,0.0
22.040958404541016,4.747006416320801,-0.2344164848327636,-0.0,-0.0,-1.0,0.1616864542561624,1.0,0.0
22.69368553161621,5.138047218322754,-0.2927939891815185,0.4177372341604163,-0.4276006569432755,-0.8016565856884637,0.2349284638112722,4.0,0.0
20.377531051635746,4.0352067947387695,0.7702747583389282,0.032623687276423,-0.8610570266404417,-0.507460827947943,0.1702963530390882,3.0,1.0
22.552082061767575,4.58115291595459,-0.2146580219268798,-0.0,-0.0,-1.0,0.106135644662787,2.0,0.0
20.410568237304688,3.89798355102539,0.0486354827880859,-0.0,-0.0,-1.0,0.1383744904524926,1.0,1.0
20.224458694458008,4.09462833404541,0.5033304691314697,-0.0,-0.0,-1.0,0.1061560148250592,1.0,1.0
20.21543884277344,4.02622127532959,-0.0015344619750976,-0.0,-0.0,-1.0,0.0939371282546825,1.0,0.0
21.444744110107425,4.445002555847168,-0.1649649143218994,-0.3280918144270246,0.1008968460532225,-0.939242028319908,0.1892685770957465,11.0,0.0
22.16118049621582,4.654327392578125,-0.286172866821289,0.6810716641046038,0.178786196576163,-0.7100541417861144,0.1497640704708636,3.0,0.0
20.435874938964844,4.013080596923828,0.321019172668457,-0.0,-0.0,-1.0,0.1327441109579196,1.0,1.0
20.400531768798828,4.02598762512207,0.6916708946228027,-0.0,-0.0,-1.0,0.1062242131181609,2.0,1.0
20.404905319213867,4.012002468109131,0.8544509410858154,-0.0,-0.0,-1.0,0.1798536673095888,1.0,1.0
20.276060104370117,3.781785488128662,1.4700648784637451,-0.1360154567071657,-0.7081857656837426,-0.692800632808366,0.0475355718025173,4.0,2.0
20.39969825744629,3.8422536849975586,0.9212803840637208,-0.0,-0.0,-1.0,0.1455859812779196,1.0,1.0
22.561290740966797,4.772843837738037,-0.3380017280578613,-0.0,-0.0,-1.0,0.0841160428310471,1.0,0.0
22.108917236328125,4.196844100952148,-0.1867847442626953,-0.0,-0.0,-1.0,0.1672843795074216,1.0,0.0
22.50036239624023,4.815687656402588,-0.3489460945129394,-0.0,-0.0,-1.0,0.1636727475142505,1.0,0.0
21.652956008911133,4.215500831604004,-0.0924329757690429,-0.0,-0.0,-1.0,0.1031300586374859,1.0,0.0
21.579004287719727,4.758280277252197,-0.4542264938354492,-0.0,-0.0,-1.0,0.2397185569317438,1.0,0.0
22.31568145751953,5.105870723724365,-0.2422699928283691,-0.0,-0.0,-1.0,0.1664765860770285,1.0,0.0
21.101186752319336,4.520288467407227,-0.6079835891723633,-0.0,-0.0,-1.0,0.1082646337354654,2.0,0.0
20.47865104675293,4.818967342376709,-0.5694432258605957,-0.0,-0.0,-1.0,0.0713193676842641,1.0,0.0
22.19554901123047,4.724795818328857,-0.1488924026489257,-0.0,-0.0,-1.0,0.1745821006464928,1.0,0.0
22.56895637512207,5.2692551612854,-0.1957912445068359,-0.0,-0.0,-1.0,0.2366844413590342,1.0,0.0
22.557783126831055,5.211061954498291,-0.2957019805908203,-0.3307351234376526,0.5444911635174375,0.7708071425305474,0.1914698591257597,5.0,0.0
20.262113571166992,3.912909507751465,0.9947018623352052,-0.0,-0.0,-1.0,0.1520562442937591,1.0,1.0
20.2131290435791,3.890962600708008,-0.3580741882324219,-0.0,-0.0,-1.0,0.1126791642159552,1.0,0.0
22.452693939208984,5.151462078094482,-0.2347707748413086,-0.9374478973452376,0.3458359521742843,-0.0398614343281741,0.1535867224526683,3.0,0.0
21.09900283813477,4.647596836090088,-0.6394181251525879,-0.0,-0.0,-1.0,0.0458833394625219,1.0,0.0
21.53302574157715,4.740450382232666,-0.5355701446533203,-0.0,-0.0,-1.0,0.1133220122653445,1.0,0.0
21.571035385131836,4.7265191078186035,-0.4046683311462402,-0.0,-0.0,-1.0,0.1510486183267616,1.0,0.0
22.220203399658203,4.561529159545898,-0.6406302452087402,-0.0,-0.0,-1.0,0.1742149085273921,1.0,0.0
21.35230255126953,5.1423234939575195,-0.5437684059143066,-0.0,-0.0,-1.0,0.0686880220873457,1.0,0.0
21.46342086791992,4.98171854019165,-0.2474937438964843,-0.0,-0.0,-1.0,0.174919805578281,1.0,0.0
21.53253746032715,4.502516269683838,-0.2238316535949707,-0.0,-0.0,-1.0,0.2067581005441571,2.0,0.0
20.577892303466797,5.315733432769775,-0.7030282020568848,-0.0227309136478285,-0.898050658533761,0.4393043594955697,0.1585886980985311,6.0,0.0
21.7060604095459,4.714097499847412,-0.1787500381469726,-0.0,-0.0,-1.0,0.2079581757138634,1.0,0.0
20.608692169189453,3.1951074600219727,-0.5665011405944824,-0.0,-0.0,-1.0,0.0572248680468435,2.0,0.0
21.64734268188477,5.186525821685791,-0.7456622123718262,-0.0,-0.0,-1.0,0.0559674136100176,1.0,0.0
22.39650535583496,5.499916076660156,-0.9381898641586304,-0.0,-0.0,-1.0,0.1445745414230711,1.0,0.0
22.59353828430176,5.6310529708862305,-0.9640487432479858,-0.0,-0.0,-1.0,0.1654521303344418,1.0,0.0
22.19886779785156,4.964188098907471,-0.875140905380249,-0.0,-0.0,-1.0,0.1486814379240054,1.0,0.0
21.14927864074707,3.37594223022461,-0.6232357025146484,-0.0,-0.0,-1.0,0.0511989915483132,1.0,0.0
21.25973320007324,3.590193033218384,-0.6412770748138428,-0.0,-0.0,-1.0,0.0462995524168594,1.0,0.0
21.63105010986328,4.653907299041748,-0.7119112014770508,-0.8419218341912326,0.5319925678519855,0.090285839766385,0.0941017272036028,3.0,0.0
21.64838600158691,4.813475608825684,-0.718156099319458,-0.0,-0.0,-1.0,0.0621999859429151,1.0,0.0
21.72839736938477,5.068007469177246,-0.7349495887756348,-0.0,-0.0,-1.0,0.0962303689974082,1.0,0.0
21.86602210998535,5.339027404785156,-0.7596759796142578,-0.0,-0.0,-1.0,0.0659548180646378,1.0,0.0
21.912458419799805,5.591739177703857,-0.7728104591369629,-0.0,-0.0,-1.0,0.0486113587777908,1.0,0.0
22.25786590576172,3.8962018489837646,-0.6344773769378662,-0.0,-0.0,-1.0,0.0181922554095211,1.0,0.0
22.3596248626709,4.119873046875,-0.6600778102874756,-0.0,-0.0,-1.0,0.0289352122685438,1.0,0.0
22.08376693725586,5.088724136352539,-0.6576449871063232,-0.0,-0.0,-1.0,0.1035919328735141,1.0,0.0
22.076913833618164,5.251054286956787,-0.6641309261322021,-0.0,-0.0,-1.0,0.0891889776645113,2.0,0.0
22.072023391723633,3.350264072418213,-0.5832173824310303,-0.0,-0.0,-1.0,0.0459490245711328,1.0,0.0
21.949831008911133,3.63657021522522,-0.5741770267486572,0.944826394412605,-0.2963074078614658,-0.1396603181569316,0.0806206496769803,4.0,0.0
21.973098754882812,4.253175258636475,-0.6028387546539307,0.5928101726280821,0.5108424251627048,0.6225882394348202,0.1298536301090235,3.0,0.0
21.505664825439453,4.601294040679932,-0.5421385765075684,-0.351625981278686,-0.148831614054453,-0.9242339097586432,0.2300538979110976,4.0,0.0
21.899986267089844,4.399824142456055,-0.5972177982330322,-0.0,-0.0,-1.0,0.1388976576575241,1.0,0.0
21.652118682861328,4.7504167556762695,-0.5724825859069824,-0.0,-0.0,-1.0,0.2124946786831306,1.0,0.0
21.991539001464844,4.946648597717285,-0.6362285614013672,-0.0,-0.0,-1.0,0.1164499965547012,2.0,0.0
20.545129776000977,3.210878372192383,-0.6610069274902344,-0.0,-0.0,-1.0,0.0481841827461172,2.0,0.0
20.33295631408691,3.4823646545410156,-0.6268405914306641,0.0165189236441797,-0.8560661362955632,0.5166022603992597,0.0834114707330836,3.0,0.0
20.572343826293945,3.6316707134246826,-0.6868538856506348,-0.0,-0.0,-1.0,0.1285815280035157,2.0,0.0
20.451980590820312,4.514653205871582,-0.7054734230041504,-0.0,-0.0,-1.0,0.0287670103413908,1.0,0.0
20.362804412841797,4.823904514312744,-0.7028164863586426,-0.0,-0.0,-1.0,0.0553582841887996,1.0,0.0
20.439685821533203,4.781192779541016,-0.7173395156860352,-0.0,-0.0,-1.0,0.0509977721196394,1.0,0.0
20.492094039916992,5.219976902008057,-0.7535810470581055,-0.0,-0.0,-1.0,0.0799277858160505,2.0,0.0
21.56312370300293,4.6044816970825195,-0.177553653717041,0.478665741848678,-0.2236970227990347,-0.8490222314941482,0.1918017193229061,6.0,0.0
22.213964462280273,4.583514213562012,-0.2965140342712402,-0.0,-0.0,-1.0,0.1218476801418106,1.0,0.0
22.25899124145508,4.86809778213501,-0.3176555633544922,-0.7480587721551639,-0.3087766615002774,-0.5874223750543139,0.1565026559467561,6.0,0.0
22.46460723876953,5.1149749755859375,-0.3668537139892578,-0.0,-0.0,-1.0,0.105941728980345,2.0,0.0
21.26690101623535,3.173508405685425,-0.5793817043304443,-0.0,-0.0,-1.0,0.0449989763057403,2.0,0.0
21.307701110839844,3.433722972869873,-0.602062463760376,-0.0,-0.0,-1.0,0.0166130839832543,2.0,0.0
21.414045333862305,3.671685218811035,-0.6389167308807373,0.9454185328289532,-0.0302933413424192,0.3244473936616857,0.0347067736296217,3.0,0.0
21.235111236572266,3.812614679336548,-0.6066358089447021,0.7348135155555713,-0.1485910859849657,0.6617928577150635,0.070764760858481,3.0,0.0
21.430694580078125,3.938973426818848,-0.6578371524810791,-0.0,-0.0,-1.0,0.020404666461384,2.0,0.0
21.197229385375977,4.32435941696167,-0.6286251544952393,0.8374733205251532,0.2583568913830932,-0.4815497420655918,0.1039989485059026,7.0,0.0
21.440248489379883,4.1737213134765625,-0.6737720966339111,-0.097448823530286,-0.0375757383978659,-0.9945309400297296,0.0362515528753395,4.0,0.0
21.31588363647461,4.539394378662109,-0.6685922145843506,-0.0,-0.0,-1.0,0.1043228603149034,2.0,0.0
21.431081771850582,4.77899169921875,-0.7098114490509033,-0.0,-0.0,-1.0,0.0526168638819181,1.0,0.0
21.446035385131836,5.110543727874756,-0.7353794574737549,-0.7008144191025552,-0.7129491956081135,-0.023719073752832,0.0393862946032085,4.0,0.0
21.4720401763916,5.447649002075195,-0.7647621631622314,-0.0,-0.0,-1.0,0.0456039306392662,2.0,0.0
21.938817977905273,3.258490085601806,-0.6250543594360352,-0.0,-0.0,-1.0,0.0806249395808174,1.0,0.0
21.86126708984375,3.573205947875977,-0.6283550262451172,-0.0,-0.0,-1.0,0.0714467268749877,1.0,0.0
21.783374786376953,4.450929641723633,-0.6796731948852539,-0.0,-0.0,-1.0,0.1110175864666183,2.0,0.0
21.687746047973633,4.660309314727783,-0.673088550567627,-0.0,-0.0,-1.0,0.2085354104921321,2.0,0.0
21.64988899230957,5.109517574310303,-0.7040438652038574,-0.0,-0.0,-1.0,0.0587400156418083,1.0,0.0
21.70915985107422,5.41648530960083,-0.7483997344970703,-0.0,-0.0,-1.0,0.0593465073441709,2.0,0.0
21.764408111572266,5.604207992553711,-0.7808542251586914,-0.0,-0.0,-1.0,0.0399537939374032,1.0,0.0
21.856733322143555,3.5065348148345947,-0.6220364570617676,-0.0,-0.0,-1.0,0.069319632158322,1.0,0.0
21.50261688232422,4.6150922775268555,-0.6206989288330078,-0.0,-0.0,-1.0,0.2337655649731616,2.0,0.0
20.32429313659668,3.194678783416748,-0.6980462074279785,-0.0,-0.0,-1.0,0.0430023964683369,1.0,0.0
21.99680519104004,3.7107529640197754,-0.6091089248657227,0.6982700533291488,0.2886626160178213,0.6550517740892359,0.0928125467652084,3.0,0.0
22.063182830810547,4.120080947875977,-0.6664113998413086,-0.0,-0.0,-1.0,0.0715908848728652,1.0,0.0
21.614501953125,4.61406946182251,-0.5945448875427246,-0.7572511368276073,-0.6278720774721859,-0.1798537464276412,0.2558768414425663,7.0,0.0
21.919750213623047,4.3810648918151855,-0.6533327102661133,-0.0,-0.0,-1.0,0.1824332704223996,1.0,0.0
21.79656410217285,4.824225425720215,-0.6662955284118652,-0.3337772599999435,0.6827077910233336,-0.6500021636756069,0.1049816482784791,3.0,0.0
20.943187713623047,3.742941856384278,-0.323516845703125,-0.9230141882767788,-0.3295408099720128,0.1986143569904977,0.1479350485983577,7.0,0.0
21.425134658813477,4.468226909637451,-0.527827262878418,0.1632917900307605,0.8169484095467717,-0.553110375465467,0.2156743761644592,4.0,0.0
21.36427116394043,3.5628857612609863,-0.576906681060791,-0.0,-0.0,-1.0,0.027530793231486,1.0,0.0
21.22218894958496,3.8525521755218506,-0.5833206176757812,0.7348135155555713,-0.1485910859849657,0.6617928577150635,0.0652164604782127,3.0,0.0
21.13912582397461,4.164549827575684,-0.6138954162597656,-0.0,-0.0,-1.0,0.0384447775302879,1.0,0.0
21.082143783569336,4.30687952041626,-0.6225910186767578,-0.7366622469572306,0.1971693835571056,-0.6468794076917546,0.13234761954444,6.0,0.0
20.994409561157227,4.689851760864258,-0.6683597564697266,-0.0,-0.0,-1.0,0.0305145280268722,2.0,0.0
20.84501838684082,5.05483341217041,-0.6942839622497559,-0.2741681499817638,0.9467916948560512,0.1685743518070974,0.0325551999438361,3.0,0.0
20.765317916870117,5.2508320808410645,-0.7095165252685547,-0.0,-0.0,-1.0,0.0526678239096984,1.0,0.0
20.636524200439453,5.282127857208252,-0.6767578125,0.1380001017023931,-0.7561359567344238,-0.6396986687991828,0.0970610606790246,3.0,0.0
20.679908752441406,5.556731700897217,-0.7468719482421875,-0.0,-0.0,-1.0,0.0308145414871704,2.0,0.0
22.58873748779297,4.460339069366455,-0.4866976737976074,-0.0,-0.0,-1.0,0.1809922851228535,1.0,0.0
22.06496238708496,4.538908958435059,-0.3562936782836914,-0.0,-0.0,-1.0,0.1188868712334138,2.0,0.0
22.275402069091797,4.992973327636719,-0.4931931495666504,-0.0,-0.0,-1.0,0.1805446470014757,1.0,0.0
21.565731048583984,4.638602256774902,-0.2370586395263672,-0.7202589645232204,0.6402244091720937,0.2670949829633305,0.1391260619992907,6.0,0.0
22.343082427978516,5.168179988861084,-0.5428533554077148,-0.0,-0.0,-1.0,0.1685702834965918,1.0,0.0
22.389028549194336,5.430759429931641,-0.6028861999511719,-0.0,-0.0,-1.0,0.1474098008113204,1.0,0.0
21.34845733642578,4.457020282745361,-0.1459074020385742,0.0686681896277398,0.8770126786219303,-0.4755349001594267,0.1633374066864194,5.0,0.0
22.63406753540039,5.313249111175537,-0.5277681350708008,-0.3150681001853994,-0.7671475943682942,0.5587635105306202,0.2856359784243029,3.0,0.0
22.436710357666016,5.103890419006348,-0.481748104095459,-0.0,-0.0,-1.0,0.1111970570140431,2.0,0.0
22.508453369140625,5.426742076873779,-0.4959330558776855,-0.0,-0.0,-1.0,0.1630028520771938,2.0,0.0
22.20874786376953,4.771758556365967,-0.4314115047454834,0.5259833270053832,-0.8490562651221074,-0.0494469247703633,0.2704095225002276,3.0,0.0
21.718990325927734,4.185635566711426,-0.3266966342926025,-0.6710785477117841,-0.1936145596745578,-0.7156584276615972,0.087315684736667,5.0,0.0
21.658546447753903,4.6476969718933105,-0.298828125,-0.1381440158912316,0.9417708419143592,-0.3065679568926964,0.1872410442864819,3.0,0.0
21.38971710205078,4.487579345703125,-0.2368607521057129,-0.2844597938662065,0.950579739038057,-0.1244218043750157,0.1360124126815988,3.0,0.0
21.395286560058594,4.551949501037598,-0.2365238666534423,0.7291178385701943,0.6829035655320135,-0.0450543856066385,0.1446976031978038,6.0,0.0
22.625308990478516,3.4369919300079346,-0.5935232639312744,-0.0,-0.0,-1.0,0.0374589177937348,2.0,0.0
22.653764724731445,3.8362128734588623,-0.5674295425415039,-0.0,-0.0,-1.0,0.0520518927484578,2.0,0.0
22.477996826171875,5.1871747970581055,-0.4368166923522949,-0.7481590992320263,0.1750390403139162,0.640015075293001,0.2320745735029604,4.0,0.0
22.6031494140625,5.317968845367432,-0.4603650569915771,-0.5238934926556302,0.203414579282393,-0.8271385115495783,0.1944312505504936,3.0,0.0
22.378379821777344,5.080869197845459,-0.4185085296630859,-0.0,-0.0,-1.0,0.1342193698241806,1.0,0.0
22.11862564086914,4.721603870391846,-0.3770642280578613,0.5769464329759152,-0.4290614169792547,-0.695010153836706,0.20246014655567,6.0,0.0
22.24109268188477,4.929471969604492,-0.3939375877380371,-0.0,-0.0,-1.0,0.2129843828007461,2.0,0.0
21.704002380371097,4.225349426269531,-0.3112998008728027,-0.0,-0.0,-1.0,0.0785815327436986,2.0,0.0
21.615650177001953,4.725882530212402,-0.2557985782623291,-0.8627799155750823,0.3874841674615829,0.3247565815297014,0.2570100213714965,4.0,0.0
21.405776977539062,4.597325801849365,-0.2137849330902099,-0.0,-0.0,-1.0,0.1799235703852147,2.0,0.0
22.56298065185547,3.919355154037475,-0.5918753147125244,-0.0,-0.0,-1.0,0.0145675173860261,1.0,0.0
22.64732551574707,4.206029891967773,-0.5825092792510986,-0.0,-0.0,-1.0,0.0541180868438739,2.0,0.0
22.20571517944336,3.4661972522735596,-0.5585169792175293,-0.0,-0.0,-1.0,0.0271119937978138,1.0,0.0
22.273208618164062,3.7294111251831055,-0.544701099395752,0.9544635920679154,0.1205563478758544,-0.2728835253430448,0.0259162866089273,5.0,0.0
22.11962127685547,4.755960941314697,-0.4069211483001709,-0.3849095767269749,-0.5141163534219215,-0.7665043984792305,0.2563527998758451,5.0,0.0
22.25058937072754,4.961995601654053,-0.4196817874908447,-0.0,-0.0,-1.0,0.2512330423434243,2.0,0.0
21.563446044921875,4.744562149047852,-0.2769386768341064,-0.0,-0.0,-1.0,0.201796741549853,1.0,0.0
21.386714935302734,4.66661262512207,-0.2427072525024414,-0.0,-0.0,-1.0,0.2793166997016323,1.0,0.0
20.95602798461914,3.723201990127563,-0.2418875694274902,-0.0,-0.0,-1.0,0.1479350485983577,2.0,0.0
22.417583465576172,5.632801055908203,-0.7309398651123047,-0.2319934999048872,0.9287687323252756,0.2890807116650669,0.1417769429496102,4.0,0.0
22.13193130493164,5.380343437194824,-0.686537504196167,-0.0,-0.0,-1.0,0.0619998064306278,1.0,0.0
22.179931640625,5.466165542602539,-0.6893949508666992,-0.9707036708870642,0.1635825705049047,-0.1759975168955131,0.0912158562149593,5.0,0.0
22.563016891479492,5.179429054260254,-0.2950108051300049,-0.5628189826736002,0.2476193481007455,-0.7886186982239365,0.1489715388646314,7.0,0.0
21.52141571044922,4.0990495681762695,-0.6900310516357422,0.956186830617528,-0.1238064047171076,-0.2652898775012546,0.0324672366245855,4.0,0.0
21.594329833984375,4.412018775939941,-0.6673798561096191,0.4347311382729209,0.8256713417286401,-0.3595492634729733,0.1418656870969413,4.0,0.0
21.12001037597656,3.734228610992432,-0.6454377174377441,-0.0,-0.0,-1.0,0.0695123589843795,2.0,0.0
21.292564392089844,3.928257465362549,-0.6590080261230469,0.8528247142848298,-0.5044747654122743,-0.1348896503340007,0.0481007464453714,3.0,0.0
20.892553329467773,3.2340097427368164,-0.66587233543396,-0.0,-0.0,-1.0,0.0422540970851758,1.0,0.0
20.943771362304688,3.564643383026123,-0.6287810802459717,0.1956793688449155,0.9721448551132572,0.1290114928418385,0.0758923280995317,5.0,0.0
21.340805053710938,4.606602668762207,-0.1028695106506347,-0.0,-0.0,-1.0,0.1450766373872534,1.0,0.0
22.540279388427734,5.579342842102051,-0.6895265579223633,-0.1941233223875429,0.9163082023155972,-0.3502790517207393,0.0991472074672356,5.0,0.0
22.124774932861328,5.131283283233643,-0.6356277465820312,0.0004654856132682,0.756084475783912,-0.6544738717486821,0.0875662237305582,3.0,0.0
22.294235229492188,5.403153419494629,-0.6481084823608398,-0.0,-0.0,-1.0,0.120512739837809,1.0,0.0
21.687009811401367,3.928061008453369,-0.6724047660827637,-0.0,-0.0,-1.0,0.0478196114186552,1.0,0.0
21.95432472229004,4.887892246246338,-0.6213884353637695,-0.0,-0.0,-1.0,0.1140684009788144,2.0,0.0
21.321332931518555,3.6247658729553223,-0.6301782131195068,-0.0,-0.0,-1.0,0.0289758503441946,1.0,0.0
21.534908294677734,3.7601494789123535,-0.6597623825073242,-0.0,-0.0,-1.0,0.0154167555787423,2.0,0.0
21.11782455444336,3.4387359619140625,-0.6108047962188721,-0.0,-0.0,-1.0,0.0546201811623476,2.0,0.0
22.53196144104004,4.773766994476318,-0.2411849498748779,-0.0,-0.0,-1.0,0.085308419805647,2.0,0.0
21.079540252685547,3.458796977996826,-0.5995192527770996,-0.0,-0.0,-1.0,0.0604664322643761,2.0,0.0
21.98520278930664,5.491420745849609,-0.6934149265289307,-0.0,-0.0,-1.0,0.0599774368354427,2.0,0.0
22.18431854248047,5.620899677276611,-0.7209923267364502,-0.1798488660539463,0.2383483535963247,-0.9543817096513488,0.0778948209375017,3.0,0.0
21.603288650512695,4.977015495300293,-0.6815600395202637,-0.0,-0.0,-1.0,0.0509178232982184,2.0,0.0
21.819236755371097,5.273772239685059,-0.6866233348846436,0.902925184594812,-0.3501455874650957,-0.2492472238624689,0.0636122546072591,3.0,0.0
21.368457794189453,4.643382549285889,-0.6806790828704834,-0.0,-0.0,-1.0,0.0588102722250612,2.0,0.0
21.488346099853516,4.795485973358154,-0.6834628582000732,-0.0,-0.0,-1.0,0.0854179486951723,2.0,0.0
22.359664916992188,3.213383197784424,-0.5617878437042236,-0.0,-0.0,-1.0,0.0175958472573513,1.0,0.0
22.3974552154541,5.063201427459717,-0.3115918636322021,-0.4632920164537668,-0.470671348061104,-0.7508854703645192,0.1927284447025893,3.0,0.0
22.488853454589844,5.186616897583008,-0.3134722709655761,-0.8096580675621943,0.2585211175611577,0.5268971867512514,0.2419991380050347,8.0,0.0
22.33850479125977,3.167603015899658,-0.5649251937866211,-0.0,-0.0,-1.0,0.0248669800078227,2.0,0.0
22.13049697875977,4.662837982177734,-0.3134610652923584,-0.7630449200014294,-0.6205524070598581,0.1807682498455619,0.1189927240753029,4.0,0.0
22.232511520385746,4.870256423950195,-0.3052875995635986,-0.7480587721551639,-0.3087766615002774,-0.5874223750543139,0.101306096035568,6.0,0.0
20.41588973999023,3.754919052124023,-0.6263422966003418,0.1394217249220915,0.9530909896125512,-0.2686617727536169,0.1153287096996755,3.0,0.0
20.52761459350586,4.006425380706787,-0.6055243015289307,-0.0016108673042791,-0.1338632324053019,-0.9909985066167012,0.0321420601176112,5.0,0.0
20.249935150146484,3.6963882446289062,-0.6027607917785645,0.2243254820667211,0.9628461519940154,0.150350808730284,0.0839093943885088,3.0,0.0
21.594940185546875,4.66536808013916,-0.2134294509887695,-0.7336409596037696,0.5170223787483197,0.4409748317819164,0.1098443805370713,10.0,0.0
21.62161636352539,4.703590393066406,-0.2131540775299072,-0.8180348403601315,-0.0566224545882114,-0.5723747876989168,0.2416668191342301,7.0,0.0
21.393104553222656,4.547943592071533,-0.1924159526824951,0.7975040381812578,0.5960114373266167,0.0935824538065089,0.1740661233768989,3.0,0.0
22.17967987060547,5.554208755493164,-0.7232306003570557,-0.5713887137401676,-0.2282762429320188,-0.7882923916436075,0.0795340377603146,3.0,0.0
21.675296783447266,4.913696765899658,-0.7045156955718994,-0.0,-0.0,-1.0,0.0578552997602299,1.0,0.0
21.85821533203125,5.209896564483643,-0.7012062072753906,-0.0,-0.0,-1.0,0.0605472262313477,1.0,0.0
21.339317321777344,4.5070366859436035,-0.6957333087921143,-0.0,-0.0,-1.0,0.0560671831192263,2.0,0.0
21.51807403564453,4.689973831176758,-0.7047922611236572,-0.0,-0.0,-1.0,0.0941308836755254,1.0,0.0
21.13315773010254,4.374096393585205,-0.6746578216552734,-0.0,-0.0,-1.0,0.1404836783398779,2.0,0.0
20.516956329345703,3.567241668701172,-0.6865148544311523,-0.0,-0.0,-1.0,0.1395028457780067,1.0,0.0
20.5102596282959,3.825551033020019,-0.6411001682281494,-0.0,-0.0,-1.0,0.088147668965539,2.0,0.0
20.27412796020508,3.5706281661987305,-0.6400308609008789,-0.0,-0.0,-1.0,0.0815034433654009,2.0,0.0
22.501148223876953,5.155056953430176,-0.2962574958801269,-0.355253186770231,0.6655276612721478,0.6564054428257132,0.2370991305419151,10.0,0.0
22.230506896972656,4.843102931976318,-0.2857716083526611,-0.1799280492565965,-0.0583708988006069,-0.9819464014211392,0.0867071254379853,6.0,0.0
22.394039154052734,5.034382343292236,-0.2914197444915771,-0.7797696415380593,-0.4575001193742815,-0.4273791605917682,0.1724027159448639,7.0,0.0
21.736324310302734,4.195815563201904,-0.2832636833190918,-0.484066735805997,-0.8726364943579512,0.0646911431402508,0.0809998612905204,6.0,0.0
21.59706115722656,4.679898262023926,-0.1953756809234619,-0.5850481001228754,0.7567122842659465,0.291728022965959,0.1351036359366198,8.0,0.0
22.50013732910156,5.289180278778076,-0.5815107822418213,-0.0,-0.0,-1.0,0.2126193460134358,2.0,0.0
22.6688232421875,5.4997029304504395,-0.5918114185333252,-0.0,-0.0,-1.0,0.1690855229000594,2.0,0.0
22.153335571289062,4.854180335998535,-0.5644114017486572,0.0889651769574944,-0.9779076531964416,-0.1891608286848773,0.0982808898050363,5.0,0.0
22.30816650390625,5.095461845397949,-0.5658771991729736,-0.0,-0.0,-1.0,0.1137209276108463,1.0,0.0
21.714099884033203,3.7226734161376953,-0.6281092166900635,-0.0,-0.0,-1.0,0.0630444707072642,1.0,0.0
21.889299392700195,3.95851993560791,-0.6281821727752686,-0.0,-0.0,-1.0,0.0990463574580941,2.0,0.0
21.746641159057617,4.307689666748047,-0.555769681930542,-0.0,-0.0,-1.0,0.2287002397291536,2.0,0.0
21.913650512695312,4.6961469650268555,-0.5377976894378662,-0.6523067116100497,-0.0485426761219946,-0.7563990762708522,0.1451576660963846,4.0,0.0
21.524398803710938,3.599555015563965,-0.6110327243804932,-0.0,-0.0,-1.0,0.0209116788785033,1.0,0.0
21.668933868408203,4.663126468658447,-0.495624303817749,-0.9016861207597126,0.1956313523565684,-0.3856040891956949,0.1818483619892916,7.0,0.0
21.562742233276367,4.488224983215332,-0.498084545135498,0.4849167319283167,-0.0785158529318621,-0.8710287159068542,0.1721800075214879,5.0,0.0
21.53323745727539,4.629750728607178,-0.474339485168457,-0.860595213741346,0.2984306018763334,-0.4126924447445296,0.1924532926972377,7.0,0.0
21.6700382232666,5.279273986816406,-0.7246754169464111,0.694953684766387,-0.6129548288325768,-0.3759331773606158,0.0619952627502147,3.0,0.0
21.878360748291016,5.54783821105957,-0.734154224395752,-0.0,-0.0,-1.0,0.0459158971153885,1.0,0.0
21.33271217346191,4.846314430236816,-0.7134404182434082,-0.0,-0.0,-1.0,0.0378296621492762,2.0,0.0
21.527687072753903,5.05950927734375,-0.7239832878112793,-0.0,-0.0,-1.0,0.0572532690919704,1.0,0.0
20.955726623535156,4.483216285705566,-0.6901352405548096,-0.6251718701117224,0.399546500827226,-0.6704645602101063,0.0482893754130487,3.0,0.0
21.114347457885746,4.6520586013793945,-0.6971340179443359,-0.0,-0.0,-1.0,0.0368299700918252,2.0,0.0
22.621845245361328,3.1575212478637695,-0.5621800422668457,-0.0,-0.0,-1.0,0.0333131273912129,1.0,0.0
22.4874267578125,5.225908279418945,-0.3143973350524902,-0.2445153842307346,-0.0316953507149923,-0.9691272525409392,0.2147416840872118,3.0,0.0
22.21759605407715,4.881901741027832,-0.3030853271484375,-0.4445538541142395,-0.4704461165876035,-0.7622678808528001,0.1150852570790591,5.0,0.0
22.329654693603516,5.068303108215332,-0.3029708862304687,-0.4007300749959143,0.6611903064363007,-0.6342261313352198,0.1709114344449454,3.0,0.0
21.750947952270508,4.275454521179199,-0.291311502456665,-0.6549951691702771,0.0134868469421219,-0.7555126956730503,0.1511532207538477,3.0,0.0
20.631237030029297,4.278252601623535,-0.658400297164917,-0.0,-0.0,-1.0,0.0246259242742884,1.0,0.0
20.397029876708984,4.139179229736328,-0.6354050636291504,0.5447062209823894,-0.6466398416507743,-0.5339962996247688,0.0311940822352741,4.0,0.0
21.394611358642575,4.605353355407715,-0.1954524517059326,-0.0,-0.0,-1.0,0.1813290945617519,2.0,0.0
21.437480926513672,5.398492813110352,-0.6739506721496582,-0.0,-0.0,-1.0,0.0409417126689918,2.0,0.0
21.62149429321289,5.498762130737305,-0.6829288005828857,0.4397438628683396,-0.8960356695337501,0.061199787522792,0.0570750840917283,4.0,0.0
21.21650505065918,5.2274980545043945,-0.6731452941894531,-0.0,-0.0,-1.0,0.021902105560437,1.0,0.0
20.75159454345703,4.9514923095703125,-0.6584312915802002,-0.0,-0.0,-1.0,0.0434195388259678,1.0,0.0
20.93818473815918,5.04042911529541,-0.6679377555847168,-0.0,-0.0,-1.0,0.0329292361089449,2.0,0.0
20.42475700378418,4.881343841552734,-0.6266171932220459,-0.0,-0.0,-1.0,0.0700360757606719,2.0,0.0
22.41991424560547,3.668373107910156,-0.4935436248779297,-0.0,-0.0,-1.0,0.0321506909926827,1.0,0.0
22.26535415649414,4.913175582885742,-0.2773740291595459,-0.0,-0.0,-1.0,0.1452105804238934,2.0,0.0
22.447830200195312,5.13485050201416,-0.2645082473754883,-0.1544093596565377,0.979602842943558,-0.1285924560281682,0.1503354490598514,6.0,0.0
21.974056243896484,3.386859893798828,-0.4905793666839599,-0.0,-0.0,-1.0,0.1069003941640657,2.0,0.0
22.076539993286133,3.4978790283203125,-0.4834005832672119,-0.0,-0.0,-1.0,0.0507676986120308,1.0,0.0
22.146289825439453,4.53444766998291,-0.3232243061065674,-0.0,-0.0,-1.0,0.2048692550818986,1.0,0.0
22.140247344970703,4.683358192443848,-0.2989418506622314,0.4767081010447357,-0.370825250988037,-0.7970182053303307,0.1276650333856447,4.0,0.0
21.76083755493164,4.180967330932617,-0.3364906311035156,-0.1822726163682888,-0.9230128819755062,-0.3388567736220257,0.087315684736667,3.0,0.0
21.48230361938477,4.55596923828125,-0.2444503307342529,-0.2707789987430153,0.6168752651968068,-0.7390153185341286,0.1673160383039728,5.0,0.0
21.63705825805664,4.677350997924805,-0.2423517704010009,0.4499734367123004,0.7400708774889073,-0.4998189697741773,0.2493392550225815,7.0,0.0
22.424253463745117,5.621068954467773,-0.724390983581543,-0.2319934999048872,0.9287687323252756,0.2890807116650669,0.1417769429496102,4.0,0.0
22.01215171813965,5.244632720947266,-0.7074863910675049,-0.0,-0.0,-1.0,0.0724266567110168,1.0,0.0
22.225248336791992,5.446987152099609,-0.7148852348327637,-0.0,-0.0,-1.0,0.0887121619054821,1.0,0.0
21.55324935913086,4.467245101928711,-0.7357828617095947,-0.0,-0.0,-1.0,0.1328969067370559,1.0,0.0
21.663799285888672,4.750513076782227,-0.7167611122131348,-0.0,-0.0,-1.0,0.101801408592972,1.0,0.0
21.833263397216797,5.019285202026367,-0.7083480358123779,-0.0,-0.0,-1.0,0.055016266402731,1.0,0.0
22.622722625732425,5.361758232116699,-0.3754284381866455,-0.0,-0.0,-1.0,0.2124428394199597,1.0,0.0
22.32027816772461,5.058635711669922,-0.3780012130737304,-0.5968309839968206,-0.2951226650051727,-0.7461202243215443,0.1600341450188131,3.0,0.0
22.508167266845703,5.299801826477051,-0.3701872825622558,-0.0,-0.0,-1.0,0.1758023716672187,1.0,0.0
22.163280487060547,4.867783546447754,-0.3838026523590088,-0.0,-0.0,-1.0,0.1972549361947616,1.0,0.0
22.636402130126953,5.226036071777344,-0.2327044010162353,-0.978438125668326,0.1894822390157137,0.0821907253663374,0.2025928611689018,6.0,0.0
22.36577033996582,5.059959411621094,-0.2256722450256347,-0.0,-0.0,-1.0,0.1488091968989643,2.0,0.0
22.522804260253903,5.21891975402832,-0.2256965637207031,-0.0,-0.0,-1.0,0.2024018192060064,2.0,0.0
21.44334602355957,4.567365646362305,-0.199819803237915,-0.6047830273162099,0.4042681468882902,-0.686152137125396,0.2485631858500377,4.0,0.0
21.86496925354004,3.190662384033203,-0.5647568702697754,-0.0,-0.0,-1.0,0.1691169421471471,1.0,0.0
21.344005584716797,3.1393299102783203,-0.526623010635376,-0.0,-0.0,-1.0,0.0375841218091796,2.0,0.0
21.43355941772461,3.217205047607422,-0.5284988880157471,-0.0,-0.0,-1.0,0.0516499973378296,2.0,0.0
22.020967483520508,4.662136077880859,-0.479968786239624,0.7198619589347488,0.5516747311603611,-0.4212525977104111,0.1902775792214763,5.0,0.0
22.33379364013672,5.00494384765625,-0.4833483695983886,-0.314661235923333,0.5985786070371403,0.7366762910564428,0.1108592292710535,3.0,0.0
22.563796997070312,5.273643493652344,-0.4850971698760986,-0.0,-0.0,-1.0,0.1945369479844765,2.0,0.0
21.63201141357422,4.62353515625,-0.450690746307373,0.5587318066041094,0.730765116204598,0.3921748503249391,0.2380691129271704,10.0,0.0
20.219438552856445,3.215066909790039,-0.5951030254364014,-0.0,-0.0,-1.0,0.0656247183758205,1.0,0.0
20.688426971435547,3.5289230346679688,-0.5933578014373779,0.2289926074172904,-0.2456716954602631,-0.9419170896623072,0.091191747559331,5.0,0.0
21.15693473815918,3.6712589263916016,-0.606492280960083,-0.0,-0.0,-1.0,0.0764304150445845,2.0,0.0
20.541149139404297,3.560689926147461,-0.583078145980835,-0.0,-0.0,-1.0,0.1756795571250541,2.0,0.0
20.841228485107425,3.754364013671875,-0.5828251838684082,-0.3579904492429813,-0.6617063826718711,-0.6587772775241384,0.2195951540144501,4.0,0.0
21.185047149658203,4.222515106201172,-0.5628280639648438,-0.0,-0.0,-1.0,0.096842178812537,1.0,0.0
21.449445724487305,4.438535690307617,-0.5596520900726318,-0.932120179017113,-0.0445760387577887,-0.3593952540557104,0.1611442140809081,5.0,0.0
21.745676040649418,4.70396614074707,-0.5545213222503662,-0.0,-0.0,-1.0,0.2019120754080923,2.0,0.0
22.012428283691406,4.896949768066406,-0.5539693832397461,-0.0,-0.0,-1.0,0.1344064635600138,1.0,0.0
22.592750549316406,5.012186050415039,-0.5781691074371338,-0.0,-0.0,-1.0,0.196574408774021,1.0,0.0
20.792980194091797,4.194171905517578,-0.5440797805786133,-0.0,-0.0,-1.0,0.0259174072539623,1.0,0.0
22.169769287109375,5.07501220703125,-0.5485947132110596,-0.0,-0.0,-1.0,0.1198160906292643,1.0,0.0
22.256256103515625,5.144248962402344,-0.5480058193206787,-0.0,-0.0,-1.0,0.1279083198458907,1.0,0.0
20.30012321472168,4.791177749633789,-0.7102746963500977,-0.0,-0.0,-1.0,0.0466979592714537,1.0,0.0
20.704769134521484,4.923147201538086,-0.7219328880310059,-0.9152239513257304,-0.3638431888678221,-0.1731567291046219,0.0361196570553825,3.0,0.0
21.034770965576172,5.084218978881836,-0.726933479309082,-0.0,-0.0,-1.0,0.0274717237844861,2.0,0.0
22.704757690429688,5.575040817260742,-0.7873098850250244,-0.0,-0.0,-1.0,0.1814471105469799,1.0,0.0
21.117612838745117,5.17828369140625,-0.7233641147613525,-0.0,-0.0,-1.0,0.0143437826808547,1.0,0.0
21.306529998779297,5.271036148071289,-0.7264413833618164,0.2888812535325472,0.0610256078733506,-0.9554179695511028,0.0397568356719625,4.0,0.0
21.75270652770996,5.409006118774414,-0.7415390014648438,0.17409350651281,0.1167027700051652,-0.9777892996260472,0.056907980433428,3.0,0.0
22.12527847290039,5.59492301940918,-0.7482578754425049,-0.1794827422955264,0.9837583861085922,-0.0023201248017652,0.0830714167092983,4.0,0.0
22.398496627807617,5.630027770996094,-0.7625658512115479,-0.2319934999048872,0.9287687323252756,0.2890807116650669,0.1430165896893616,4.0,0.0
21.286041259765625,3.5016822814941406,-0.6122531890869141,-0.0,-0.0,-1.0,0.029596336934175,1.0,0.0
21.633705139160156,3.5146961212158203,-0.6275732517242432,-0.379712214956421,-0.743258386861795,-0.5508045063109877,0.0656184095965839,3.0,0.0
21.64791488647461,4.650854110717773,-0.5312752723693848,0.295685909507209,0.6048022582895711,-0.7394484913005974,0.1479589852093968,6.0,0.0
21.90784072875977,4.676906585693359,-0.5418431758880615,-0.7009415257624161,0.3431218333017036,-0.6252586544571248,0.1647036517328561,3.0,0.0
22.09817886352539,4.793642044067383,-0.5414009094238281,-0.0,-0.0,-1.0,0.1528534295031914,2.0,0.0
22.300199508666992,4.887653350830078,-0.5436298847198486,-0.0,-0.0,-1.0,0.1270448921720587,1.0,0.0
22.56180953979492,5.225000381469727,-0.5285966396331787,-0.7076292458714963,0.691095058752291,0.1471341909805615,0.1907064641613123,3.0,0.0
20.30834197998047,4.580253601074219,-0.6409523487091064,-0.0,-0.0,-1.0,0.0283891943583173,1.0,0.0
20.51261329650879,4.621301651000977,-0.6502740383148193,-0.0,-0.0,-1.0,0.0266259354609613,2.0,0.0
20.87386131286621,4.650516510009766,-0.6710379123687744,0.3722270188729303,0.8995098011187546,0.2287556865135155,0.0250386151050015,3.0,0.0
21.11820602416992,4.734142303466797,-0.6796870231628418,-0.0,-0.0,-1.0,0.020716887030944,2.0,0.0
21.31603622436523,4.793792724609375,-0.6876399517059326,-0.0,-0.0,-1.0,0.0420556918602486,1.0,0.0
21.574298858642575,4.9716033935546875,-0.6894865036010742,0.1844747999757394,-0.9293930616777046,0.3196835702366535,0.039028071921296,4.0,0.0
21.83635139465332,5.3116302490234375,-0.677807092666626,0.372716474320549,0.0473199299322128,-0.9267379640444596,0.1369748969970939,3.0,0.0
22.11241149902344,5.60075569152832,-0.672046422958374,-0.0,-0.0,-1.0,0.0803577918255975,1.0,0.0
20.355180740356445,4.652681350708008,-0.660449743270874,0.2027121410579152,0.8637041835585451,-0.4614356630898646,0.0244741021100795,3.0,0.0
20.55123519897461,4.703670501708984,-0.6649308204650879,-0.8939974021308027,0.4431423103439408,-0.0662837669901932,0.0550419343350007,5.0,0.0
20.882722854614254,4.650699615478516,-0.6861772537231445,0.0342820142081145,0.9714565773705872,-0.2347272071687876,0.0211099162426898,5.0,0.0
21.21918487548828,4.762384414672852,-0.6924042701721191,0.8380106832061818,-0.2750268353831766,0.4712730998597558,0.0393051477253321,3.0,0.0
21.519874572753903,4.976568222045898,-0.6875607967376709,-0.7540950940763799,-0.5409223464290122,-0.3724830254168204,0.0335397815266857,3.0,0.0
21.745262145996097,5.257017135620117,-0.6729729175567627,-0.0,-0.0,-1.0,0.0782578973722861,1.0,0.0
22.080596923828125,5.512340545654297,-0.6671645641326904,-0.5421475918985416,-0.0732943136902417,-0.8370806007663117,0.0757295460733972,6.0,0.0
22.273584365844727,5.576875686645508,-0.6718173027038574,-0.0,-0.0,-1.0,0.0542855981902947,2.0,0.0
22.140647888183594,4.86920166015625,-0.3354530334472656,-0.0,-0.0,-1.0,0.1177878521572106,1.0,0.0
22.31634521484375,5.122062683105469,-0.325810432434082,-0.0,-0.0,-1.0,0.1565225497251368,1.0,0.0
22.654193878173828,5.217016220092773,-0.3385581970214844,0.2967573142257709,0.911148679951224,-0.285907641514964,0.2475405901993445,5.0,0.0
20.240257263183594,4.231634140014648,-0.6157803535461426,-0.4111139574034169,0.101800508463155,-0.9058818744763274,0.0247406669074403,4.0,0.0
20.622364044189453,4.35377311706543,-0.6356122493743896,-0.0,-0.0,-1.0,0.0112878574479886,2.0,0.0
20.99327278137207,4.494045257568359,-0.6533758640289307,-0.0,-0.0,-1.0,0.066006534294884,2.0,0.0
21.384931564331055,4.743450164794922,-0.6635417938232422,-0.0,-0.0,-1.0,0.1124975588419891,2.0,0.0
21.20975112915039,4.638500213623047,-0.6583094596862793,-0.0,-0.0,-1.0,0.0501437293633234,1.0,0.0
21.646318435668945,5.064052581787109,-0.6568734645843506,-0.2378713990785633,0.035812191302392,-0.9706362266341224,0.1169607686479493,3.0,0.0
22.07291030883789,5.488241195678711,-0.6555943489074707,-0.7679459770000006,0.3891863529900443,-0.5087169734300426,0.0778665767641649,5.0,0.0
21.84697723388672,5.240989685058594,-0.6581628322601318,-0.0,-0.0,-1.0,0.1153868858207691,2.0,0.0
21.58270263671875,4.553218841552734,-0.0685927867889404,0.2253657151744927,0.0284580272846383,-0.9738585293085212,0.2112629105205012,4.0,0.0
21.396665573120117,4.491186141967773,-0.2251908779144287,-0.7468767282412572,0.2136147876522006,-0.6297172979265703,0.1677922233602853,5.0,0.0
21.54992294311523,4.608850479125977,-0.228534460067749,-0.7222649783311473,0.618688458546841,0.3091243962181583,0.1622045507955261,4.0,0.0
22.37445068359375,5.04741096496582,-0.2635591030120849,-0.948043006409728,0.13163001843371,-0.2896342456353282,0.1156318750191083,6.0,0.0
20.558547973632812,5.241655349731445,-0.740509033203125,-0.0,-0.0,-1.0,0.123095065522062,2.0,0.0
21.015316009521484,5.499916076660156,-0.7591507434844971,-0.0,-0.0,-1.0,0.0433115610189993,2.0,0.0
20.8483829498291,5.299678802490234,-0.7633028030395508,-0.0,-0.0,-1.0,0.032352398210088,1.0,0.0
21.317060470581055,5.521709442138672,-0.7872800827026367,-0.0,-0.0,-1.0,0.0345446263730387,1.0,0.0
20.50858497619629,4.084781646728516,-0.5919375419616699,0.3343219486273639,0.8286869776890098,-0.4488950074066953,0.0571082454182873,3.0,0.0
20.86581802368164,4.172756195068359,-0.6175460815429688,-0.0,-0.0,-1.0,0.0354801317163835,1.0,0.0
21.240190505981445,4.485052108764648,-0.622647762298584,-0.0,-0.0,-1.0,0.1451232955201763,2.0,0.0
21.59261703491211,4.706302642822266,-0.6357331275939941,-0.0,-0.0,-1.0,0.2646177191013185,2.0,0.0
21.902114868164062,5.162530899047852,-0.6214635372161865,-0.0,-0.0,-1.0,0.0508020871394301,1.0,0.0
22.374040603637695,5.574058532714844,-0.6298925876617432,-0.0,-0.0,-1.0,0.1460155880841949,1.0,0.0
22.197750091552734,5.462985992431641,-0.6222739219665527,-0.0,-0.0,-1.0,0.0784320025326497,2.0,0.0
20.25909423828125,5.309392929077148,-0.7110073566436768,-0.0,-0.0,-1.0,0.0171829888695338,1.0,0.0
20.64510726928711,5.358009338378906,-0.7393829822540283,-0.5457350259281075,-0.2059865145022071,-0.8122455523537694,0.108892218414647,4.0,0.0
21.002731323242188,5.530551910400391,-0.7509665489196777,-0.0,-0.0,-1.0,0.0477664730201298,2.0,0.0
20.42011260986328,3.3338890075683594,-0.6273272037506104,-0.1461447810340468,-0.1630800353995639,-0.9757287558694718,0.0415862215729497,3.0,0.0
20.846038818359375,3.7838211059570312,-0.6150286197662354,-0.3527716641063028,-0.6635922167841863,-0.6596950225878011,0.1215582907754506,3.0,0.0
21.17227554321289,4.411785125732422,-0.5746338367462158,-0.2052486858728227,-0.0650575112004293,-0.9765451844046366,0.1098651839422097,8.0,0.0
21.063880920410156,3.8766117095947266,-0.6248242855072021,0.404401412728803,0.8937146657095387,0.1942513672503645,0.1361908858289929,3.0,0.0
21.41377639770508,4.298727035522461,-0.6105012893676758,0.6487514807708139,0.6558326609149349,-0.386011705878089,0.0708673540890094,3.0,0.0
21.53665351867676,4.08873176574707,-0.6458981037139893,0.8905083351208022,0.4207352443303901,-0.1731379775168471,0.031720611716279,4.0,0.0
21.861919403076172,4.795869827270508,-0.5985431671142578,-0.0,-0.0,-1.0,0.0879230223763349,2.0,0.0
21.685699462890625,4.576152801513672,-0.6057307720184326,-0.0577351285275866,0.9021060203354532,-0.4276346372879934,0.2612304552714238,3.0,0.0
22.17612648010254,5.18733024597168,-0.5865046977996826,-0.684846123399168,0.6435455886961221,-0.3418111503957902,0.1201579660356553,3.0,0.0
22.004056930541992,4.980554580688477,-0.5921270847320557,-0.0,-0.0,-1.0,0.1742113664079601,1.0,0.0
22.452280044555664,5.31193733215332,-0.6010046005249023,-0.0,-0.0,-1.0,0.2484532857851406,1.0,0.0
20.480876922607425,4.920045852661133,-0.6787526607513428,-0.0,-0.0,-1.0,0.0828780014302397,2.0,0.0
20.828678131103516,4.984256744384766,-0.7024016380310059,-0.0,-0.0,-1.0,0.0322583132491381,1.0,0.0
20.298654556274418,4.932098388671875,-0.6606860160827637,-0.0,-0.0,-1.0,0.0566240943646335,1.0,0.0
20.812387466430664,5.04511833190918,-0.6927902698516846,-0.2741681499817638,0.9467916948560512,0.1685743518070974,0.03470603673639,3.0,0.0
21.17420196533203,5.182079315185547,-0.709230899810791,-0.0775592648980675,-0.7064251126512772,-0.7035254939546267,0.0212826355627556,3.0,0.0
21.631513595581055,5.501914978027344,-0.7124519348144531,0.4397438628683396,-0.8960356695337501,0.061199787522792,0.0529522701684595,4.0,0.0
21.45722770690918,5.353372573852539,-0.7144336700439453,-0.4332503778890501,-0.2645858382589468,-0.8615616311395289,0.061922741958597,3.0,0.0
21.34287452697754,4.530885696411133,-0.0687310695648193,-0.0,-0.0,-1.0,0.1646705593951566,1.0,0.0
20.381208419799805,3.70344352722168,-0.6218202114105225,0.290320412471437,0.7979046133971264,-0.5282634626982985,0.1087789880623675,4.0,0.0
20.921857833862305,3.884084701538086,-0.6510105133056641,-0.0,-0.0,-1.0,0.0864222842595265,1.0,0.0
20.53135108947754,3.867856979370117,-0.6148154735565186,-0.0,-0.0,-1.0,0.0698316299655011,2.0,0.0
20.768327713012695,3.9262943267822266,-0.6304099559783936,-0.0,-0.0,-1.0,0.0661755330353641,1.0,0.0
21.195634841918945,4.369731903076172,-0.6160504817962646,0.9869495642443732,0.1251724286049041,-0.1013036068212357,0.128789070050221,10.0,0.0
21.081281661987305,3.958993911743164,-0.6573169231414795,-0.7137332521153432,-0.2716641523985746,-0.645587664942895,0.0886235441879748,3.0,0.0
21.558189392089844,4.433116912841797,-0.6456334590911865,0.4369486122362394,0.8278873056954417,-0.3516795691153618,0.1832153209583813,5.0,0.0
21.89697265625,4.916013717651367,-0.6203808784484863,-0.0,-0.0,-1.0,0.1903509342948025,1.0,0.0
21.765405654907227,4.635658264160156,-0.6417717933654785,-0.0,-0.0,-1.0,0.2235374225956931,2.0,0.0
22.272876739501953,5.292751312255859,-0.6144144535064697,-0.0,-0.0,-1.0,0.1340370397003159,1.0,0.0
22.104896545410156,5.150373458862305,-0.6135878562927246,-0.0,-0.0,-1.0,0.0776380835184916,2.0,0.0
22.51685333251953,5.4060821533203125,-0.627988338470459,-0.0,-0.0,-1.0,0.1758732933796326,2.0,0.0
20.294782638549805,5.462507247924805,-0.7025578022003174,-0.0,-0.0,-1.0,0.0214575219643127,1.0,0.0
20.48627281188965,5.445003509521484,-0.724947452545166,-0.0,-0.0,-1.0,0.0371393055045603,2.0,0.0
20.677560806274418,5.433591842651367,-0.7467470169067383,-0.625486521807549,-0.7268414103144724,-0.2836691299545353,0.0475757217148284,3.0,0.0
20.943618774414062,5.632408142089844,-0.74395751953125,-0.0,-0.0,-1.0,0.0454852491416767,1.0,0.0
21.43077087402344,4.524457931518555,-0.2980508804321289,-0.7576182889697041,0.636253544936508,-0.1455883057609539,0.1669955518119389,6.0,0.0
21.611629486083984,4.60395622253418,-0.3067381381988525,-0.957858471454332,-0.2801526027931078,0.063416620939767,0.2195324227990151,9.0,0.0
22.156410217285156,4.713861465454102,-0.3504610061645508,0.8359482120372866,0.1551809400534038,-0.5264118754699655,0.2112117374781247,8.0,0.0
22.07186508178711,4.427021026611328,-0.3760333061218261,-0.0,-0.0,-1.0,0.1719733568688946,2.0,0.0
22.48733901977539,5.168790817260742,-0.3319971561431885,-0.6823246684168417,0.5573138699903354,0.4731112947143012,0.1860607101593624,6.0,0.0
22.32294464111328,4.94114875793457,-0.3411769866943359,-0.0,-0.0,-1.0,0.1551497288284945,2.0,0.0
22.609111785888672,5.223968505859375,-0.3389718532562256,0.3973768126022587,0.7924140967688605,-0.4627867414350378,0.1605650669543469,4.0,0.0
20.518125534057617,3.93001937866211,-0.5881223678588867,0.845265377291182,-0.4810206417429936,-0.2326920371863949,0.0638185825706122,4.0,0.0
20.38820457458496,3.766834259033203,-0.5984396934509277,-0.6456503429533267,0.4930642646368516,-0.5831151392155517,0.1869355913506663,5.0,0.0
20.640724182128903,3.966243743896485,-0.5958461761474609,0.6800061921312853,-0.6908519453827328,0.2455914661058139,0.0228772655654442,3.0,0.0
