x,y,z,nx,ny,nz,curvature,density,label
27.61507797241211,5.563083648681641,-0.5797364711761475,-0.0,-0.0,-1.0,0.0981487832376055,1.0,0.0
25.492141723632812,3.856475830078125,-0.8294575214385986,-0.0,-0.0,-1.0,0.0070366455492936,1.0,0.0
25.760108947753903,3.9325008392333984,-0.8487071990966797,-0.0,-0.0,-1.0,0.0117213301662719,2.0,0.0
26.071250915527344,4.462385177612305,-0.8440046310424805,-0.0,-0.0,-1.0,0.1229785005079398,2.0,0.0
26.256885528564453,4.484636306762695,-0.8595681190490723,-0.0,-0.0,-1.0,0.1765624801953383,2.0,0.0
27.095420837402344,5.415546417236328,-0.8810396194458008,0.113801600575633,0.0621870286829971,-0.9915553283453248,0.0367629959071908,4.0,0.0
26.36309051513672,5.206110000610352,-0.8253176212310791,0.4770530902551937,-0.3137834741519318,0.8209508392267553,0.1902796049469987,6.0,0.0
25.46073532104492,5.323854446411133,-0.7354631423950195,0.3084536986968424,-0.9492185796581588,0.061970991536241,0.1792554745921299,14.0,0.0
26.34799575805664,4.490652084350586,-0.8534245491027832,-0.0,-0.0,-1.0,0.0799026055463985,2.0,0.0
26.44817352294922,4.547018051147461,-0.8557693958282471,-0.0,-0.0,-1.0,0.0414883539333586,2.0,0.0
25.59585189819336,4.216999053955078,-0.8253717422485352,-0.0,-0.0,-1.0,0.0158786148286772,1.0,0.0
25.809993743896484,4.3103790283203125,-0.8320088386535645,-0.0,-0.0,-1.0,0.1103697558074405,1.0,0.0
26.526918411254883,4.864555358886719,-0.836890697479248,-0.0,-0.0,-1.0,0.0527962592159327,1.0,0.0
26.770238876342773,5.123302459716797,-0.8337061405181885,-0.0,-0.0,-1.0,0.1035383151909295,2.0,0.0
27.064451217651367,5.395166397094727,-0.8333675861358643,-0.0,-0.0,-1.0,0.0366379000032044,2.0,0.0
27.296390533447266,5.549009323120117,-0.8378398418426514,-0.0,-0.0,-1.0,0.1027174756803641,2.0,0.0
25.220563888549805,4.220737457275391,-0.8010897636413574,-0.0,-0.0,-1.0,0.0237343848815032,2.0,0.0
25.84506607055664,4.835317611694336,-0.7939388751983643,-0.0,-0.0,-1.0,0.0401311846423798,1.0,0.0
26.982948303222656,5.421060562133789,-0.8257997035980225,-0.0,-0.0,-1.0,0.0361102258754039,1.0,0.0
25.340171813964844,3.1961746215820312,-0.5009708404541016,-0.0,-0.0,-1.0,0.1564860403611668,1.0,0.0
26.565319061279297,3.4600296020507812,-0.6130058765411377,-0.3442155492006658,-0.9222028837825016,-0.176231373006402,0.2119662785075001,3.0,0.0
26.70246124267578,3.8254165649414062,-0.6035261154174805,-0.0,-0.0,-1.0,0.2057879098288584,2.0,0.0
27.08270263671875,3.979930877685547,-0.6277434825897217,0.9061389628249472,-0.4027993461511768,0.1290924737957778,0.1271131013474435,3.0,0.0
27.255779266357425,4.270210266113281,-0.6264991760253906,-0.0,-0.0,-1.0,0.1753476247066625,2.0,0.0
27.67465591430664,4.47361946105957,-0.652531623840332,-0.0,-0.0,-1.0,0.1573887612525962,2.0,0.0
27.540802001953125,4.626302719116211,-0.6319971084594727,-0.0,-0.0,-1.0,0.1668980837863505,1.0,0.0
25.500757217407227,3.532506942749023,-0.8290050029754639,-0.0,-0.0,-1.0,0.0423507591779692,1.0,0.0
25.789344787597656,3.5975818634033203,-0.8402676582336426,-0.1942405994588683,-0.7336472612259953,-0.6511776144935076,0.0475397252113826,3.0,0.0
26.16553497314453,3.61689567565918,-0.860551118850708,-0.0,-0.0,-1.0,0.1195155530064399,1.0,0.0
26.260648727416992,3.817794799804687,-0.8498620986938477,-0.0,-0.0,-1.0,0.1869000320892804,2.0,0.0
26.38643455505371,4.202451705932617,-0.826225757598877,-0.0,-0.0,-1.0,0.1290810443138417,2.0,0.0
26.638824462890625,4.328136444091797,-0.8310353755950928,-0.0,-0.0,-1.0,0.0646794872217325,2.0,0.0
26.41728401184082,4.511817932128906,-0.8030421733856201,-0.0,-0.0,-1.0,0.1192869434477166,1.0,0.0
26.726978302001953,4.405292510986328,-0.8300912380218506,-0.0,-0.0,-1.0,0.0700046503126474,1.0,0.0
27.22793197631836,4.792455673217773,-0.8294970989227295,-0.0,-0.0,-1.0,0.0975213774804168,2.0,0.0
27.443031311035156,5.219837188720703,-0.8088634014129639,-0.0,-0.0,-1.0,0.098746499156977,1.0,0.0
25.56179428100586,5.481952667236328,-0.6740190982818604,-0.0,-0.0,-1.0,0.2095785568858067,1.0,0.0
26.3955078125,5.283134460449219,-0.7396402359008789,0.6352167637123262,0.0095772197092852,0.7722745237035071,0.1873991475501938,4.0,0.0
26.534503936767575,5.492008209228516,-0.7312979698181152,-0.0,-0.0,-1.0,0.1368583512519701,2.0,0.0
27.493896484375,5.574363708496094,-0.7840254306793213,0.8676581139706313,-0.0692837502329766,-0.4923100234756363,0.1264940306390373,4.0,0.0
26.41273498535156,3.2006263732910156,-0.0420248508453369,-0.0,-0.0,-1.0,0.150500033323554,1.0,0.0
27.518978118896484,3.1490707397460938,-0.1199550628662109,-0.0,-0.0,-1.0,0.0732658222307343,2.0,0.0
25.25005340576172,5.500389099121094,-0.8612504005432129,-0.0,-0.0,-1.0,0.1013573926779682,1.0,0.0
25.439464569091797,5.477373123168945,-0.8759541511535645,-0.0,-0.0,-1.0,0.1079917521380793,2.0,0.0
25.785043716430664,5.3540191650390625,-0.9102444648742676,-0.0,-0.0,-1.0,0.0615703673064916,2.0,0.0
26.234573364257812,3.140829086303711,0.0065338611602783,-0.0,-0.0,-1.0,0.102241644384013,2.0,1.0
26.03892517089844,3.6027278900146484,-0.6802778244018555,-0.0,-0.0,-1.0,0.2490984651316354,2.0,0.0
26.084423065185547,3.2339935302734375,-0.7114014625549316,-0.0,-0.0,-1.0,0.1912882247995097,1.0,0.0
25.33791160583496,5.392578125,-0.4969820976257324,-0.4863269647659829,-0.5006216131339396,0.7161452951773669,0.1112244806165828,5.0,0.0
26.185531616210938,4.323701858520508,-0.6355767250061035,-0.0,-0.0,-1.0,0.155057443774719,2.0,0.0
26.32217025756836,3.8630409240722656,-0.6797571182250977,-0.862339655700226,0.5010063530748827,0.0732321813509716,0.1440316766789394,3.0,0.0
26.699058532714844,4.007179260253906,-0.6947841644287109,0.4422275038998439,0.8791731853537516,-0.1774523737498365,0.1899830512772511,3.0,0.0
26.280086517333984,5.352413177490234,-0.5647377967834473,-0.0,-0.0,-1.0,0.1757956328297175,1.0,0.0
26.909488677978516,4.457767486572266,-0.67569899559021,-0.0,-0.0,-1.0,0.2000567088572089,1.0,0.0
27.12932586669922,4.385101318359375,-0.6965954303741455,-0.0,-0.0,-1.0,0.2082110209230322,2.0,0.0
27.151371002197266,4.582054138183594,-0.6835041046142578,-0.0,-0.0,-1.0,0.1881634670631086,2.0,0.0
27.631959915161133,4.368059158325195,-0.7336351871490479,0.0796250072979737,0.953004745544427,-0.2923043160519524,0.1359838891551657,3.0,0.0
27.414093017578125,5.357307434082031,-0.6450135707855225,-0.0,-0.0,-1.0,0.2004758038064138,1.0,0.0
27.621299743652344,4.623756408691406,-0.7139921188354492,-0.0,-0.0,-1.0,0.1920529097015042,2.0,0.0
27.559982299804688,5.5363616943359375,-0.6424729824066162,0.2037805662014574,0.301899288471545,-0.9313056965674524,0.1366010284884432,4.0,0.0
26.251628875732425,3.195470809936523,-0.1247730255126953,-0.6700589931516213,-0.6875711375890198,-0.2797621783786664,0.2011546096455943,6.0,0.0
26.350177764892575,3.691530227661133,-0.587399959564209,0.1448289103378551,-0.8787512117701235,0.4547756529794555,0.2497063994254584,3.0,0.0
26.284271240234375,3.207233428955078,-0.6098978519439697,-0.3869929165547804,0.918645097706285,0.079546634099974,0.1594438721645013,3.0,0.0
26.417583465576172,5.30096435546875,-0.4980959892272949,0.0800173703841454,-0.2818733361792738,-0.9561091165698464,0.1807818863308989,17.0,0.0
26.343326568603516,4.318483352661133,-0.5489501953125,-0.5909080978754225,-0.3454577118490031,-0.729031267634867,0.2011764994032891,9.0,0.0
26.76960563659668,3.794097900390625,-0.6247401237487793,-0.970298509812197,-0.0380755568213825,0.2388954872511654,0.2496771779822532,3.0,0.0
27.037988662719727,4.523658752441406,-0.6095781326293945,0.8230721985738586,0.5632267461489102,-0.0729917006056554,0.2020601667655442,8.0,0.0
26.972232818603516,4.201282501220703,-0.6217331886291504,-0.0,-0.0,-1.0,0.2066070307417767,2.0,0.0
26.85299491882324,3.980154037475586,-0.6223454475402832,0.5679073249360461,0.1332624786551923,0.8122329604655669,0.1829457122089917,4.0,0.0
27.35223388671875,4.358148574829102,-0.6526734828948975,-0.0,-0.0,-1.0,0.2239589415637553,1.0,0.0
27.575992584228516,5.45567512512207,-0.6127135753631592,-0.1600151824080055,0.8124766537336694,0.5606039854805458,0.1396109069518887,5.0,0.0
27.551719665527344,5.289548873901367,-0.619697093963623,0.1396736320074867,0.937334229462574,-0.3192112447888385,0.1160888180407784,5.0,0.0
26.11267471313477,3.682655334472656,-0.7045152187347412,-0.0,-0.0,-1.0,0.2181480694761923,2.0,0.0
26.164146423339844,3.323263168334961,-0.7361218929290771,-0.0,-0.0,-1.0,0.1672702441632715,2.0,0.0
26.226215362548828,4.386598587036133,-0.6631209850311279,0.4545273778611385,0.6037161443472739,-0.6549287593541292,0.138195767867024,4.0,0.0
26.312313079833984,3.850637435913086,-0.7109730243682861,-0.9098189120728108,-0.1966725205887714,0.3654442048793583,0.2107375396972482,3.0,0.0
26.26384162902832,3.5949649810791016,-0.7253274917602539,-0.0,-0.0,-1.0,0.1868744127037502,2.0,0.0
26.368310928344727,5.3224945068359375,-0.6080193519592285,-0.0299836613666896,-0.5406322435040123,-0.8407245430786864,0.1887861056901662,8.0,0.0
26.68353271484375,4.006875991821289,-0.734978437423706,-0.0,-0.0,-1.0,0.118907294402749,2.0,0.0
27.08172607421875,4.445943832397461,-0.741469144821167,-0.6156240596438206,0.6786523541614811,0.4005471250411635,0.2376952566152937,6.0,0.0
27.35289764404297,5.000797271728516,-0.7279748916625977,0.855821919636523,0.5005317748544351,-0.1305250329658095,0.236217750125833,3.0,0.0
27.37069320678711,4.6109771728515625,-0.757887601852417,0.131581523102845,0.9468369696541328,0.2935746168763812,0.1136840783840037,3.0,0.0
27.54505157470703,5.470970153808594,-0.7133922576904297,-0.0,-0.0,-1.0,0.1689439126782734,1.0,0.0
26.407148361206055,3.609416961669922,-0.5607526302337646,-0.0,-0.0,-1.0,0.255450592890742,2.0,0.0
26.337665557861328,3.1710891723632812,-0.5822243690490723,0.2872112503078666,0.9525316534292926,0.1009611158409513,0.1364965870972443,5.0,0.0
26.7183895111084,3.9744949340820312,-0.5700855255126953,-0.0,-0.0,-1.0,0.2529193702674375,2.0,0.0
26.72758674621582,3.731042861938477,-0.5869004726409912,-0.661041538080917,-0.738415537994991,-0.1332913282219956,0.2099245417554012,3.0,0.0
27.056697845458984,4.476070404052734,-0.574155330657959,-0.7405033000430942,-0.1176305486026519,-0.661678106529698,0.1989380302370379,7.0,0.0
26.881439208984375,4.071662902832031,-0.5812773704528809,-0.0,-0.0,-1.0,0.2124099974268092,2.0,0.0
27.260196685791016,4.4999237060546875,-0.5947785377502441,-0.6327123430223978,0.36111776603952,0.6850321525576257,0.2274660378258143,3.0,0.0
27.59632873535156,4.166746139526367,-0.6527972221374512,-0.0,-0.0,-1.0,0.1632887291296599,2.0,0.0
26.198070526123047,4.399690628051758,-0.4868462085723877,-0.0,-0.0,-1.0,0.1249978833111228,1.0,0.0
26.41510581970215,5.336496353149414,-0.4492740631103515,0.9091792413400832,-0.1100966097559751,0.4015866576923473,0.2329617592400958,6.0,0.0
27.658287048339844,5.371198654174805,-0.5833971500396729,0.0593511594638304,0.4485148439702778,-0.8918025984536132,0.1464367060012261,8.0,0.0
27.586597442626953,5.217494964599609,-0.5851049423217773,-0.3051914624040992,-0.3240026165351465,-0.8954777918820915,0.1268080022256777,4.0,0.0
27.490772247314453,3.3296947479248047,-0.458909273147583,-0.0,-0.0,-1.0,0.1500558497343976,2.0,0.0
26.497699737548828,3.429649353027344,-0.3469271659851074,-0.0,-0.0,-1.0,0.1836349036453419,1.0,0.0
26.38048553466797,3.2426071166992188,-0.3463461399078369,-0.0,-0.0,-1.0,0.1397210779249363,2.0,0.0
26.843181610107425,3.896270751953125,-0.3545320034027099,0.3951701671236523,0.1703597033780946,-0.9026727593543478,0.2265026905420927,5.0,0.0
26.75453186035156,3.756929397583008,-0.353712797164917,-0.3172470945902649,0.3394737623191762,-0.8855009009994844,0.1677214297673568,9.0,0.0
27.072641372680664,3.8556861877441406,-0.3816053867340088,0.8615168032892957,0.3100324050409885,-0.4020804713918512,0.228196366910997,3.0,0.0
27.689802169799805,4.198799133300781,-0.4275343418121338,-0.0,-0.0,-1.0,0.1842821005965088,2.0,0.0
26.444482803344727,3.869640350341797,-0.6006331443786621,0.2009533925300158,-0.1727222398349564,-0.9642534738838502,0.2353341695064526,3.0,0.0
26.450927734375,3.713449478149414,-0.6139843463897705,0.1291703577724323,0.1786825946569434,-0.975390972400096,0.2029644019407837,4.0,0.0
26.402421951293945,5.2671661376953125,-0.4835419654846191,0.0461917991311671,-0.4312582263227139,-0.9010453151323814,0.2353133680396291,17.0,0.0
26.79581069946289,3.958280563354492,-0.628258228302002,-0.8569345113335051,-0.1701973489035386,0.4865142399887328,0.1774829987943135,3.0,0.0
26.765857696533203,3.8126087188720703,-0.6370124816894531,-0.2337061117406972,-0.56969933615195,-0.7879239301627231,0.2105966622722469,3.0,0.0
27.09535217285156,4.449466705322266,-0.6187918186187744,-0.497094603046323,0.724409567642674,-0.4776271913636957,0.2054874831180627,5.0,0.0
27.27798843383789,4.377470016479492,-0.6430215835571289,-0.0,-0.0,-1.0,0.2120989859569806,1.0,0.0
27.325027465820312,4.479160308837891,-0.6396951675415039,-0.0,-0.0,-1.0,0.1600944754794193,2.0,0.0
27.632143020629883,4.18792724609375,-0.6941392421722412,0.8678642773539882,-0.3829933330301531,-0.3164296176834491,0.1663087170311807,3.0,0.0
27.658939361572266,5.430416107177734,-0.5988931655883789,0.1720836922031523,0.948946430744201,-0.2643631488229248,0.1535224832373787,5.0,0.0
27.702938079833984,5.3529815673828125,-0.6095614433288574,0.9021533993335988,-0.1885712002771976,0.3880208067834113,0.0978614810257903,4.0,0.0
26.579662322998047,3.6213111877441406,-0.3651051521301269,-0.0,-0.0,-1.0,0.1650582571974713,2.0,0.0
26.92325210571289,4.047365188598633,-0.3700997829437256,-0.6455530943550191,-0.0783552295494621,-0.7596852376944749,0.21022375451768,3.0,0.0
26.955839157104492,3.8196792602539062,-0.389780044555664,-0.0,-0.0,-1.0,0.2505398047181225,2.0,0.0
27.59805679321289,3.2151317596435547,-0.5001542568206787,-0.681997108942177,-0.3857631812821645,0.6213426682287129,0.1616848136816211,7.0,0.0
27.662673950195312,4.205743789672852,-0.4369680881500244,0.3467184524018027,0.8664681669975668,-0.3591924697762684,0.1667845377942929,3.0,0.0
26.297359466552734,3.7085952758789062,-0.6361396312713623,-0.0815211958445137,0.105233885047856,-0.99110046113692,0.2421350216959263,3.0,0.0
26.16954803466797,3.5980281829833984,-0.6319682598114014,0.5953943518169182,0.0660507660702771,-0.8007139702328421,0.2522278590765232,3.0,0.0
26.47195816040039,3.790369033813477,-0.6482152938842773,-0.0,-0.0,-1.0,0.1995310587823414,1.0,0.0
26.968597412109375,4.352527618408203,-0.654970645904541,-0.0,-0.0,-1.0,0.2779172292568172,1.0,0.0
26.776546478271484,3.9380931854248047,-0.6692519187927246,-0.9840407841213042,-0.008933403304125,0.1777186807607316,0.2346048646739932,6.0,0.0
27.132404327392575,4.442060470581055,-0.6660478115081787,-0.3346253330587257,0.7293830449253681,0.5966793613413617,0.2687447201443366,5.0,0.0
27.263307571411133,4.308902740478516,-0.692537784576416,0.1493995649467099,-0.978428057964713,0.1426825335531091,0.195750470261038,4.0,0.0
27.345355987548828,4.822755813598633,-0.6581528186798096,-0.0,-0.0,-1.0,0.2844673972300213,2.0,0.0
27.45656967163086,4.572273254394531,-0.6924881935119629,-0.110511271062213,0.9012801274439158,0.4189049902339349,0.1838940021452148,3.0,0.0
27.70924186706543,4.34605598449707,-0.741192102432251,-0.0,-0.0,-1.0,0.128651904472048,2.0,0.0
26.309192657470703,5.260934829711914,-0.5012185573577881,0.7591811378327776,-0.599443212310931,-0.2535977822720089,0.2365245625276499,4.0,0.0
26.24274444580078,4.373762130737305,-0.5713512897491455,-0.0,-0.0,-1.0,0.2067501729773631,1.0,0.0
27.463436126708984,5.407421112060547,-0.6226544380187988,-0.2410658738781962,0.9555105856823382,-0.1699610693668909,0.1087371610695431,4.0,0.0
27.49141311645508,5.204721450805664,-0.6430056095123291,-0.0,-0.0,-1.0,0.1572871565537197,1.0,0.0
27.62120246887207,5.448535919189453,-0.6380054950714111,0.5399687749727344,0.2281898141425617,0.810162410122827,0.1689767541305113,5.0,0.0
25.397722244262695,5.453535079956055,-0.2574048042297363,-0.5989156357213647,0.7981048982487214,0.0657923451464669,0.0828931716221552,5.0,0.0
26.15462303161621,4.437810897827148,-0.4333655834197998,-0.0,-0.0,-1.0,0.1032237954587761,2.0,0.0
26.418407440185547,3.677600860595703,-0.5290834903717041,-0.0,-0.0,-1.0,0.2318439706171412,2.0,0.0
26.31131172180176,3.1661128997802734,-0.560011625289917,0.3192650257302844,0.923851476981321,0.211112036191385,0.0861534376492937,5.0,0.0
26.604347229003903,3.996055603027344,-0.5244941711425781,-0.0,-0.0,-1.0,0.2383093468713235,2.0,0.0
26.776060104370117,3.804134368896485,-0.5612320899963379,-0.0,-0.0,-1.0,0.1700653350668096,2.0,0.0
27.041038513183594,4.450172424316406,-0.5398736000061035,-0.3000258860595119,0.898349347098024,0.3208627716996152,0.2281252894491355,4.0,0.0
26.949657440185547,4.164306640625,-0.5523049831390381,-0.0,-0.0,-1.0,0.2684062114625676,2.0,0.0
27.18903350830078,4.576499938964844,-0.5478298664093018,-0.0,-0.0,-1.0,0.1826413532055042,2.0,0.0
27.32071304321289,4.337577819824219,-0.5837175846099854,-0.6582359969020368,0.3293663839663208,-0.676936597840102,0.2121967331742366,3.0,0.0
27.672740936279297,5.383066177368164,-0.5438370704650879,0.564663206168012,0.6872515727206003,-0.4569909620475249,0.1283365826980161,4.0,0.0
27.609813690185547,5.270917892456055,-0.5447113513946533,0.8233631474713324,0.5458287666060626,0.1553836700924694,0.1585916445786889,9.0,0.0
25.466846466064453,3.9807567596435542,-0.8263235092163086,-0.0,-0.0,-1.0,0.0156047983186994,1.0,0.0
25.79568099975586,4.119560241699219,-0.8533730506896973,-0.0,-0.0,-1.0,0.0423155755017264,1.0,0.0
26.174949645996097,4.555753707885742,-0.8557083606719971,-0.0,-0.0,-1.0,0.0780001311027358,2.0,0.0
26.315658569335938,4.891176223754883,-0.8383481502532959,-0.0,-0.0,-1.0,0.0750924685969364,2.0,0.0
26.36214256286621,4.657115936279297,-0.8699548244476318,-0.8142676436001095,-0.1274986307604194,-0.5663146684840006,0.0397994295777014,3.0,0.0
26.774322509765625,5.146484375,-0.8744156360626221,-0.0,-0.0,-1.0,0.0854766186145033,2.0,0.0
26.752904891967773,4.910419464111328,-0.8964798450469971,-0.0,-0.0,-1.0,0.0771625448030381,2.0,0.0
25.477680206298828,5.30238151550293,-0.6809718608856201,-0.0294586044356326,-0.9993306611929872,0.0216891729738996,0.1917154476787058,15.0,0.0
26.352310180664062,5.265924453735352,-0.8030943870544434,0.7981386909305107,0.3844798097186702,0.4638425443600714,0.2775078556356231,7.0,0.0
26.321048736572266,5.107240676879883,-0.8158247470855713,0.1141495872532434,0.9933670843285416,0.0138458478442663,0.2098659502195579,3.0,0.0
26.89224624633789,5.300180435180664,-0.8747813701629639,-0.0,-0.0,-1.0,0.0332152187372344,1.0,0.0
27.133220672607425,5.57954216003418,-0.8799717426300049,-0.7813640277689845,0.0694844312846404,0.6201952675711737,0.0592726407215526,5.0,0.0
26.342723846435547,3.2016773223876953,-0.2512509822845459,-0.5221842009574726,0.627375431472419,0.5776882621753725,0.2106184998835254,7.0,0.0
26.26744842529297,4.143852233886719,-0.5866231918334961,-0.0,-0.0,-1.0,0.1899154618019065,1.0,0.0
26.34396743774414,3.701507568359375,-0.64072585105896,-0.0355634405070361,0.062349554660895,-0.9974205606126688,0.2004061118457119,4.0,0.0
26.233989715576172,3.5293426513671875,-0.643632173538208,0.4686331693282136,0.618194542416927,-0.6310455295232827,0.187250991973319,3.0,0.0
26.320301055908203,4.335683822631836,-0.5745704174041748,-0.2264303373759247,0.0718870978555076,-0.971370962854942,0.2226157730398948,10.0,0.0
26.585718154907227,3.810575485229492,-0.6617472171783447,-0.0,-0.0,-1.0,0.1995609043069171,1.0,0.0
27.03453826904297,4.480167388916016,-0.6563372611999512,-0.0461437034765944,0.2660156037942224,-0.9628636752767544,0.2096461489381658,4.0,0.0
26.88134765625,4.039579391479492,-0.6785757541656494,-0.8152670757881176,0.5065425326069435,-0.280631890197882,0.2115813541732064,3.0,0.0
27.298595428466797,4.51068115234375,-0.6895689964294434,-0.0,-0.0,-1.0,0.2711644439615039,2.0,0.0
27.30138397216797,4.304656982421875,-0.7097320556640625,0.0036886600118398,-0.9689017951489114,0.2474180776429521,0.1577799719416015,3.0,0.0
27.48244857788086,4.995929718017578,-0.6687872409820557,-0.0,-0.0,-1.0,0.1170592021822091,1.0,0.0
27.636341094970703,4.362565994262695,-0.7503511905670166,-0.0,-0.0,-1.0,0.1464550176109438,2.0,0.0
26.35146141052246,5.175996780395508,-0.4961452484130859,-0.0,-0.0,-1.0,0.1333712872488952,2.0,0.0
26.448060989379883,5.3386688232421875,-0.4933474063873291,-0.0743789256653521,0.2920469505181425,-0.9535073959387635,0.1868524048169549,7.0,0.0
27.534950256347656,5.417976379394531,-0.6362931728363037,0.3848295842522019,0.7814280425453036,0.4911989468719295,0.1762181142629675,3.0,0.0
25.940818786621097,5.20529842376709,-0.8925325870513916,0.657075619235118,-0.6909484992008799,0.3013997379873412,0.0592592392811405,4.0,0.0
26.302021026611328,5.4435882568359375,-0.9140357971191406,-0.0,-0.0,-1.0,0.1770492264959761,2.0,0.0
26.526752471923828,5.550670623779297,-0.933314323425293,-0.0,-0.0,-1.0,0.1864210299997372,1.0,0.0
25.288461685180664,5.069199562072754,-0.8186933994293213,-0.0,-0.0,-1.0,0.0617750286563791,1.0,0.0
25.490158081054688,5.290484428405762,-0.817394495010376,-0.787341852834342,-0.3435151153037495,-0.5119474312204698,0.2168414139360968,7.0,0.0
26.323196411132812,3.1806716918945312,-0.5090205669403076,-0.5331191841454241,0.8395055530915249,0.1049493297959073,0.110879100450016,6.0,0.0
26.232563018798828,5.555690765380859,-0.8892958164215088,-0.3092339918256707,-0.1848422871983931,-0.9328492199508064,0.0540310808170414,4.0,0.0
26.191146850585938,5.505762100219727,-0.8896701335906982,0.6975141260111581,-0.0281134951527347,-0.7160193261394471,0.0311055174892879,3.0,0.0
25.479904174804688,5.343605995178223,-0.1868252754211425,-0.0,-0.0,-1.0,0.1030196337193857,2.0,0.0
26.29624938964844,3.5699729919433594,-0.466153621673584,-0.0,-0.0,-1.0,0.2217045982395794,1.0,0.0
26.402353286743164,5.216058731079102,-0.3148081302642822,0.3492226656822477,0.5802753285356959,-0.7357472887252627,0.2114961658444922,3.0,0.0
26.36276626586914,4.138481140136719,-0.4169669151306152,-0.0,-0.0,-1.0,0.1549919182494263,1.0,0.0
26.527090072631836,3.75558090209961,-0.4757699966430664,-0.3723826219314203,-0.7878802049682823,-0.4904854386244495,0.1921550470971969,4.0,0.0
26.94185447692871,4.508068084716797,-0.4531159400939941,-0.0,-0.0,-1.0,0.1794663648913853,1.0,0.0
26.89051055908203,4.087379455566406,-0.4880609512329101,-0.3104628863241782,-0.8230851154453133,-0.4755456749331612,0.1779260586753081,3.0,0.0
26.77935791015625,3.810140609741211,-0.5016367435455322,-0.0,-0.0,-1.0,0.1879147684005405,2.0,0.0
27.37270736694336,4.197652816772461,-0.5387139320373535,-0.0,-0.0,-1.0,0.1667180877848396,2.0,0.0
27.60004425048828,4.154460906982422,-0.5723021030426025,0.4273398130720292,0.619631968703955,-0.658359254148997,0.1949858052149557,4.0,0.0
25.28638458251953,5.479511260986328,-0.9365544319152832,-0.0,-0.0,-1.0,0.0947916812288593,2.0,0.0
26.014936447143555,3.6337366104125977,-0.6578242778778076,-0.0,-0.0,-1.0,0.2865876339021964,2.0,0.0
25.954166412353516,3.259357452392578,-0.6854522228240967,-0.0,-0.0,-1.0,0.1339283474080455,1.0,0.0
26.577110290527344,4.021690368652344,-0.7148971557617188,-0.0,-0.0,-1.0,0.1393927076916473,1.0,0.0
26.45380401611328,3.826639175415039,-0.7128794193267822,-0.0,-0.0,-1.0,0.1551306416945018,2.0,0.0
26.71847152709961,4.176023483276367,-0.7244949340820312,-0.0,-0.0,-1.0,0.1497950340093535,1.0,0.0
27.088912963867188,4.491289138793945,-0.75933837890625,-0.5734846350151025,0.2396371701300529,0.783383303430482,0.238633849136823,4.0,0.0
27.103843688964844,4.351657867431641,-0.7752699851989746,-0.0,-0.0,-1.0,0.129513521777653,1.0,0.0
27.310638427734375,4.942758560180664,-0.7568325996398926,-0.782605230987857,0.5332640539400344,-0.3211829715378497,0.2093903698055512,4.0,0.0
27.34417724609375,4.673520088195801,-0.7878334522247314,-0.0,-0.0,-1.0,0.099046105914709,2.0,0.0
26.03692626953125,4.323339462280273,-0.59273362159729,-0.0,-0.0,-1.0,0.2749173698825591,1.0,0.0
25.93337631225586,4.259977340698242,-0.5814528465270996,-0.0,-0.0,-1.0,0.1420146516802073,1.0,0.0
26.20730972290039,5.200190544128418,-0.5366020202636719,-0.0,-0.0,-1.0,0.2357686508006944,2.0,0.0
27.382556915283203,5.536283493041992,-0.7158210277557373,0.6700031831269948,-0.7411910900210155,-0.0416113286636388,0.1445671665740059,3.0,0.0
27.239492416381836,5.201545715332031,-0.7201306819915771,-0.0,-0.0,-1.0,0.2106159829567256,1.0,0.0
25.985271453857425,3.5951948165893555,-0.4619815349578857,-0.0,-0.0,-1.0,0.2280162359490004,1.0,0.0
26.043472290039062,3.225405693054199,-0.5073907375335693,-0.0,-0.0,-1.0,0.1592706338012908,1.0,0.0
25.66076278686523,5.045555114746094,-0.8599393367767334,-0.0,-0.0,-1.0,0.0182647295713021,2.0,0.0
26.257644653320312,3.730177879333496,-0.4899649620056152,0.0872371463732383,0.0962386366642176,-0.9915280152903736,0.1667695521413881,3.0,0.0
26.166149139404297,3.5853681564331055,-0.490274429321289,-0.0,-0.0,-1.0,0.1441659540835003,1.0,0.0
26.053131103515625,5.380582809448242,-0.8863818645477295,-0.0,-0.0,-1.0,0.0356038519713098,1.0,0.0
25.889949798583984,5.21047306060791,-0.878854513168335,-0.0,-0.0,-1.0,0.0511637849988199,2.0,0.0
26.580333709716797,3.990020751953125,-0.5146501064300537,-0.0,-0.0,-1.0,0.2541361597863102,2.0,0.0
26.497562408447266,3.748049736022949,-0.5250673294067383,-0.0,-0.0,-1.0,0.2451487003738612,1.0,0.0
26.280319213867188,5.498617172241211,-0.9125988483428956,-0.0,-0.0,-1.0,0.1100914461766352,1.0,0.0
26.72559356689453,4.024068832397461,-0.5340986251831055,-0.0,-0.0,-1.0,0.1838403167602898,1.0,0.0
27.353252410888672,4.128952980041504,-0.6242499351501465,0.006140218096568,0.1326913596491611,-0.991138386299402,0.1882279148974711,5.0,0.0
27.55140495300293,4.224329948425293,-0.6476337909698486,-0.0,-0.0,-1.0,0.1719373038278602,1.0,0.0
26.252605438232425,3.927496910095215,-0.4699759483337402,-0.0,-0.0,-1.0,0.165302051872849,1.0,0.0
26.14655876159668,5.311357498168945,-0.3209373950958252,-0.0,-0.0,-1.0,0.1557669105673219,1.0,0.0
26.50519561767578,4.041033744812012,-0.4980325698852539,-0.0,-0.0,-1.0,0.2094550955561604,1.0,0.0
26.325298309326172,5.446181297302246,-0.3367846012115478,-0.0,-0.0,-1.0,0.1430332942869998,1.0,0.0
26.26370620727539,5.39047908782959,-0.3321321010589599,-0.0,-0.0,-1.0,0.1571797074256113,1.0,0.0
26.710941314697266,4.4024553298950195,-0.4959719181060791,-0.0,-0.0,-1.0,0.168288250652883,1.0,0.0
26.664859771728516,4.246947288513184,-0.5033886432647705,-0.0,-0.0,-1.0,0.1977767393790652,1.0,0.0
27.381996154785156,5.197275161743164,-0.5320549011230469,-0.0,-0.0,-1.0,0.147555382762535,2.0,0.0
25.44771194458008,3.1451616287231445,-0.7324211597442627,-0.0,-0.0,-1.0,0.1546592787412864,1.0,0.0
25.852527618408203,3.288707733154297,-0.7790796756744385,-0.0,-0.0,-1.0,0.080291098825731,1.0,0.0
26.04674530029297,3.6915712356567383,-0.7629292011260986,-0.0,-0.0,-1.0,0.2166693729210001,1.0,0.0
26.123199462890625,4.280707359313965,-0.7071032524108887,-0.0,-0.0,-1.0,0.2041390448561344,2.0,0.0
26.318296432495117,4.022428512573242,-0.7695753574371338,-0.0,-0.0,-1.0,0.1285796721943797,1.0,0.0
26.593978881835938,4.2271528244018555,-0.7928938865661621,-0.983235984850006,-0.1426948823505362,0.1135128567476175,0.0807148957981317,3.0,0.0
26.925106048583984,4.6104936599731445,-0.8076229095458984,-0.0,-0.0,-1.0,0.0773368955441279,1.0,0.0
27.03330993652344,4.634698867797852,-0.823993444442749,-0.0,-0.0,-1.0,0.0695430696185485,1.0,0.0
27.09976577758789,5.007152557373047,-0.7954790592193604,-0.0,-0.0,-1.0,0.0882971767745307,1.0,0.0
26.077028274536133,5.193333625793457,-0.5954201221466064,-0.0,-0.0,-1.0,0.1904483895650783,1.0,0.0
26.176118850708008,5.350700378417969,-0.5948405265808105,-0.0,-0.0,-1.0,0.1316986659801698,1.0,0.0
27.180349349975582,5.197704315185547,-0.789602518081665,-0.0,-0.0,-1.0,0.1917233033993554,2.0,0.0
27.25374412536621,5.490549087524414,-0.7720999717712402,-0.0,-0.0,-1.0,0.0794987036175509,2.0,0.0
26.078449249267575,3.1589603424072266,-0.1968224048614502,-0.0,-0.0,-1.0,0.2123022179427423,1.0,0.0
26.1087646484375,3.4085264205932617,-0.6347336769104004,-0.0,-0.0,-1.0,0.2041675098974222,1.0,0.0
26.09785842895508,3.173124313354492,-0.660022497177124,-0.0,-0.0,-1.0,0.1536176970474737,1.0,0.0
26.33744430541992,3.761503219604492,-0.632213830947876,-0.0,-0.0,-1.0,0.2636442333313059,2.0,0.0
25.286348342895508,5.3307647705078125,-0.8165249824523926,0.837342994635692,-0.5254327994789058,-0.150920782420087,0.120662538529357,5.0,0.0
25.24189186096191,5.084769248962402,-0.8442740440368652,0.0342064850603827,-0.7604378607146575,-0.648509195286797,0.0391390794804287,3.0,0.0
26.65970039367676,3.9010915756225586,-0.6705005168914795,-0.0,-0.0,-1.0,0.1844879875961999,1.0,0.0
25.678863525390625,5.3166351318359375,-0.8910651206970215,-0.0,-0.0,-1.0,0.0693349182895486,1.0,0.0
25.92536163330078,5.342212677001953,-0.9337031841278076,-0.0,-0.0,-1.0,0.0607484870037211,1.0,0.0
27.140390396118164,4.274081230163574,-0.7127857208251953,-0.0,-0.0,-1.0,0.1286307095169537,2.0,0.0
26.0131893157959,5.583808898925781,-0.9167647361755372,-0.0,-0.0,-1.0,0.0413998101536132,1.0,0.0
27.37836265563965,4.365595817565918,-0.7452914714813232,-0.0,-0.0,-1.0,0.1742462240403734,2.0,0.0
27.656917572021484,4.586838722229004,-0.7721600532531738,-0.0,-0.0,-1.0,0.1167585882287941,1.0,0.0
26.239336013793945,3.8891916275024414,-0.6014406681060791,-0.0,-0.0,-1.0,0.218133734860573,1.0,0.0
25.29413604736328,5.408472061157227,-0.2738621234893799,-0.0,-0.0,-1.0,0.068571275092963,1.0,0.0
26.224531173706055,4.264495849609375,-0.5568549633026123,0.4791903736136195,-0.385253160971174,-0.7886422432242383,0.2350593074246366,5.0,0.0
26.132524490356445,5.184279441833496,-0.4395802021026611,-0.0,-0.0,-1.0,0.192255822685589,1.0,0.0
26.890399932861328,4.29673957824707,-0.6668648719787598,-0.0,-0.0,-1.0,0.2296726044504493,2.0,0.0
26.276826858520508,5.304660797119141,-0.4513909816741943,-0.0,-0.0,-1.0,0.1819309782066058,2.0,0.0
27.217418670654297,4.5288286209106445,-0.6993629932403564,-0.5316523199637381,0.8430593136199841,-0.0812207140806891,0.2177368795473755,3.0,0.0
27.36687469482422,4.913544654846191,-0.6860344409942627,-0.0,-0.0,-1.0,0.2492641362010303,2.0,0.0
27.526443481445312,4.626249313354492,-0.74446702003479,-0.0,-0.0,-1.0,0.1422521226633221,2.0,0.0
27.490760803222656,5.400930404663086,-0.6589159965515137,0.5675001781753404,0.8070451828201592,0.1631613332187888,0.194845655521258,7.0,0.0
27.424480438232425,3.2252864837646484,-0.2420756816864013,0.0620352732773643,-0.6562646728406873,-0.7519762656166137,0.1491080919486239,3.0,0.0
25.385499954223633,4.182390213012695,-0.8498315811157227,-0.0,-0.0,-1.0,0.0248359643078668,2.0,0.0
25.64244079589844,4.338356971740723,-0.8654012680053711,-0.0,-0.0,-1.0,0.0149451570202291,2.0,0.0
25.433425903320312,5.256369590759277,-0.6833252906799316,-0.5621069165066118,0.3916949542333647,-0.7284304203172397,0.1904675645411208,14.0,0.0
26.04594612121582,4.668612480163574,-0.8793261051177979,-0.0,-0.0,-1.0,0.0950953646647305,2.0,0.0
26.259172439575195,4.994051933288574,-0.8647711277008057,-0.0,-0.0,-1.0,0.1735487010504219,2.0,0.0
26.3758602142334,5.262687683105469,-0.8436470031738281,-0.1717331638788578,-0.7375658397430508,-0.6530730069971398,0.2044062438057014,6.0,0.0
26.722734451293945,5.2192230224609375,-0.91239333152771,-0.0,-0.0,-1.0,0.0481236872595107,2.0,0.0
26.90729331970215,5.486186981201172,-0.90608549118042,-0.5577064534882425,0.4678361715810423,-0.6856331586919935,0.0303793967971782,5.0,0.0
26.350488662719727,3.348372459411621,-0.5571722984313965,-0.4690175114566891,-0.8676472472783616,0.1649570496743215,0.1927553401538999,6.0,0.0
26.351585388183594,3.708409309387207,-0.5111594200134277,-0.0230105955738271,-0.9858252881898036,0.1661896917887181,0.2422310104875127,4.0,0.0
26.638397216796875,3.7507858276367183,-0.5490143299102783,-0.0,-0.0,-1.0,0.2381763814001364,1.0,0.0
25.42293930053711,5.330166816711426,-0.6697249412536621,-0.555774837644423,-0.4816175875890475,-0.677612595194497,0.2273446927348818,18.0,0.0
26.30203628540039,4.378030776977539,-0.418727159500122,-0.9345915679302716,0.3399751819279953,0.1046684137008998,0.144681859639884,8.0,0.0
26.886497497558594,4.023608207702637,-0.5530610084533691,-0.6855113940423352,0.6821949386341724,-0.2543308757112502,0.1337949250312344,6.0,0.0
27.008777618408203,4.511257171630859,-0.5123777389526367,-0.5048915205150815,0.6651350861449238,0.5501634936007244,0.1718163323976713,3.0,0.0
27.30029296875,4.2928924560546875,-0.5856034755706787,0.0426915363389041,-0.2412806366138526,-0.9695159034901064,0.1445100034009043,4.0,0.0
27.544357299804688,4.156883239746094,-0.6414813995361328,-0.513137335123212,0.0312070677829053,-0.857739001225339,0.1704554089441274,4.0,0.0
27.648040771484375,4.191032409667969,-0.6542952060699463,0.0273804002315685,0.9884577759484264,0.1490018082113406,0.217987955119851,5.0,0.0
27.651533126831055,5.165541648864746,-0.5404219627380371,-0.4513120126397762,0.809943038099989,-0.3745794205243984,0.095119684840467,5.0,0.0
26.24506568908691,5.213273048400879,-0.3055939674377441,-0.0,-0.0,-1.0,0.1873121209915933,2.0,0.0
26.41602325439453,5.310898780822754,-0.3204700946807861,-0.0,-0.0,-1.0,0.2002501296613993,2.0,0.0
25.26805877685547,3.617853164672851,-0.8537025451660156,-0.0,-0.0,-1.0,0.0860176385503624,1.0,0.0
25.474699020385746,3.772574424743652,-0.8623249530792236,-0.0,-0.0,-1.0,0.0093792080657909,1.0,0.0
25.76947593688965,3.9499759674072266,-0.883641242980957,-0.0,-0.0,-1.0,0.0134223392177762,2.0,0.0
26.035797119140625,4.529353141784668,-0.835545539855957,-0.0,-0.0,-1.0,0.1080435758414413,2.0,0.0
26.141847610473633,4.374203681945801,-0.8809247016906738,-0.0,-0.0,-1.0,0.1515002859164013,2.0,0.0
26.3787899017334,4.6207475662231445,-0.8857030868530273,-0.8142676436001095,-0.1274986307604194,-0.5663146684840006,0.0348789698888966,3.0,0.0
26.272443771362305,5.003162384033203,-0.8033924102783203,-0.0,-0.0,-1.0,0.1822454696839341,2.0,0.0
26.754432678222656,4.905646324157715,-0.9139385223388672,-0.0,-0.0,-1.0,0.0411071378251923,2.0,0.0
26.933679580688477,5.209604263305664,-0.9030194282531738,-0.0,-0.0,-1.0,0.0819413081214217,2.0,0.0
27.136873245239254,5.518365859985352,-0.8982124328613281,-0.0,-0.0,-1.0,0.0556546595063107,2.0,0.0
26.303550720214844,3.180363655090332,-0.5503339767456055,0.1510801040913178,0.9884753264228208,-0.0095567358996054,0.1417492532069985,6.0,0.0
26.411529541015625,3.2040300369262695,-0.5649609565734863,0.0502870087026611,0.6478198641763925,-0.7601319887586755,0.230194666530509,4.0,0.0
26.45796775817871,3.699350357055664,-0.506925106048584,-0.936155763112246,-0.2388058188698933,-0.2580390824383173,0.1829238924280098,4.0,0.0
26.73156356811523,3.7209625244140625,-0.5507793426513672,-0.9130342265962254,-0.4076678167366409,-0.0132458393850177,0.209504046897174,3.0,0.0
26.29562759399414,4.314722061157227,-0.3981332778930664,0.3608296877972722,-0.3610714004370584,-0.8599007967146819,0.2030396762160739,3.0,0.0
26.8643741607666,3.94760799407959,-0.5446412563323975,-0.8343328286352881,-0.3076403505828806,0.4574343075838122,0.1646635154725434,5.0,0.0
25.449586868286133,5.256930351257324,-0.6070818901062012,-0.4235909153473698,-0.5102653915899819,-0.7484650737213456,0.1431461146583261,4.0,0.0
26.98048210144043,4.388465881347656,-0.5089871883392334,0.1034885208208053,0.2402330950873359,-0.9651829806223692,0.2018326550590988,5.0,0.0
27.304447174072266,4.22088623046875,-0.5888614654541016,-0.2618890956025833,0.5500141785704536,-0.793031213115808,0.1915980274814648,3.0,0.0
27.573930740356445,4.113338470458984,-0.6519372463226318,-0.4404611563398209,0.8835202843844812,-0.1593294600409898,0.1632961356515563,4.0,0.0
26.369964599609375,5.213974952697754,-0.7887370586395264,0.0730388029623095,-0.7169228599617407,0.6933159064424466,0.1881747967083795,10.0,0.0
25.523902893066406,5.367465972900391,-0.1283755302429199,-0.0,-0.0,-1.0,0.094474487236276,2.0,0.0
26.278738021850582,5.178659439086914,-0.2829906940460205,-0.0,-0.0,-1.0,0.1200400648537028,2.0,0.0
26.166671752929688,3.460087776184082,-0.6473355293273926,-0.0,-0.0,-1.0,0.2319151114416218,2.0,0.0
26.348854064941406,3.770506858825683,-0.622279167175293,-0.0,-0.0,-1.0,0.2595537586340443,2.0,0.0
26.74754524230957,3.772541046142578,-0.6824867725372314,-0.0,-0.0,-1.0,0.2209630770791499,2.0,0.0
26.390567779541016,4.221220016479492,-0.5542457103729248,-0.0,-0.0,-1.0,0.1734755644197752,2.0,0.0
26.89534568786621,4.074089050292969,-0.6569514274597168,-0.0,-0.0,-1.0,0.194559677865021,2.0,0.0
27.05669593811035,4.421258926391602,-0.6277236938476562,0.1404309945909945,0.1187950665157014,-0.9829378759258972,0.2008808457671571,3.0,0.0
27.300613403320312,4.310794830322266,-0.6856844425201416,-0.2206294941644761,-0.9100515077000816,-0.3508972494014963,0.2001793705895112,4.0,0.0
27.64227867126465,4.228851318359375,-0.7564871311187744,-0.0,-0.0,-1.0,0.105139401522289,1.0,0.0
25.327465057373047,5.484724998474121,-0.1873557567596435,-0.5086594064598577,0.8321545701695138,-0.2208718623226982,0.0697260557861548,4.0,0.0
25.52157211303711,5.347476005554199,-0.2383530139923095,0.5432987583589787,0.8373199620241176,0.0610060682352377,0.1401165715491409,5.0,0.0
26.355945587158203,5.275505065917969,-0.377805233001709,-0.0696503261344898,-0.4084423418896568,-0.9101228957789445,0.1854835217838519,4.0,0.0
27.267383575439453,4.980325698852539,-0.5759282112121582,-0.5742509212004883,0.8186242740440584,0.0094961806126913,0.1221990498743874,3.0,0.0
26.452512741088867,5.3284502029418945,-0.3849043846130371,0.7939875829743972,-0.0598276340753957,-0.6049829520601513,0.2790593547516652,3.0,0.0
27.5928955078125,5.247121810913086,-0.5927133560180664,0.9495820450001076,-0.2950933959442266,-0.1058953610103732,0.1332062028121196,6.0,0.0
27.700401306152344,5.380433082580566,-0.5922942161560059,0.6144620057997102,0.4421249077138562,0.6534233003249966,0.126919489649538,5.0,0.0
26.33132553100586,3.3755645751953125,-0.529383659362793,-0.8310476465697051,-0.5554128899195105,-0.0296028857075113,0.1684006723771109,3.0,0.0
26.57289123535156,3.564697265625,-0.5238847732543945,0.1763228594405192,-0.0466118840739473,-0.9832281431599664,0.1999367192694323,3.0,0.0
26.45221710205078,3.759467124938965,-0.4748628139495849,-0.5097617682913046,0.2963530720707583,-0.8076619319138092,0.2022168976070977,4.0,0.0
26.76746368408203,3.782809257507324,-0.5091891288757324,-0.0,-0.0,-1.0,0.2033690356109667,2.0,0.0
26.75160217285156,4.036402702331543,-0.4625082015991211,-0.0,-0.0,-1.0,0.1929748107169605,2.0,0.0
27.293968200683594,4.198395729064941,-0.5056142807006836,-0.0,-0.0,-1.0,0.1735456735642715,1.0,0.0
27.594829559326172,4.099249839782715,-0.5642781257629395,-0.0,-0.0,-1.0,0.2350606097103532,2.0,0.0
26.94301986694336,4.1811418533325195,-0.4617819786071777,-0.1058051295388932,-0.9717791342333344,0.2108330828688144,0.1468340550123063,4.0,0.0
27.089595794677734,4.199301719665527,-0.4779462814331054,0.4689842340745456,0.3247844126923342,-0.821321419093407,0.2058212289309833,3.0,0.0
26.990158081054688,4.436572074890137,-0.4236924648284912,-0.5367589249565257,-0.832968067382922,-0.1343653794690981,0.1795621022884966,7.0,0.0
26.322479248046875,5.26258659362793,-0.1930882930755615,0.8020777155030151,-0.5302597343933634,0.2747652677733192,0.1715362306011648,3.0,0.0
26.204919815063477,3.6054983139038086,-0.6050503253936768,0.5937927432707483,-0.477169501235918,-0.6478575808997409,0.2499196016729885,3.0,0.0
26.55413818359375,3.660372734069824,-0.6305990219116211,0.0787464752064468,0.9650660265333618,-0.2498930912883931,0.2076437995856351,4.0,0.0
27.625844955444336,4.076306343078613,-0.6766359806060791,-0.4344891271095857,0.8755178278337881,0.2113947292832906,0.1697135290465695,4.0,0.0
25.772193908691406,3.626828193664551,-0.5587546825408936,-0.0,-0.0,-1.0,0.1588164721652054,1.0,0.0
26.245176315307617,3.914830207824707,-0.547400712966919,-0.0,-0.0,-1.0,0.192958745207579,1.0,0.0
26.57514762878418,3.8596343994140625,-0.5936968326568604,-0.0,-0.0,-1.0,0.2534098966444728,2.0,0.0
26.85871124267578,4.023043632507324,-0.5930967330932617,-0.1490714923755685,-0.6683607441490244,-0.7287465991971992,0.2169175096111731,5.0,0.0
27.33707046508789,4.048942565917969,-0.6453075408935547,-0.1602736226276039,0.3682963210613207,-0.915789378504971,0.2014456542912382,3.0,0.0
26.951108932495117,4.358389854431152,-0.5384547710418701,-0.0,-0.0,-1.0,0.1766148202396121,2.0,0.0
27.396587371826172,4.121830940246582,-0.6388084888458252,-0.3017283692340949,-0.8108709220084613,-0.5014462474089139,0.2123323342983921,3.0,0.0
27.660669326782227,4.123421669006348,-0.6721580028533936,-0.0,-0.0,-1.0,0.1877657431899121,2.0,0.0
26.24986457824707,5.271613121032715,-0.2787201404571533,-0.0,-0.0,-1.0,0.2816438581734291,2.0,0.0
26.20827865600586,3.1793441772460938,-0.5698840618133545,0.3257367009645318,0.7663943365701881,0.5536563216634346,0.1258051787191118,3.0,0.0
26.345157623291016,3.482694625854492,-0.5212280750274658,-0.0,-0.0,-1.0,0.1513259812801958,2.0,0.0
26.566497802734375,3.662883758544922,-0.5058140754699707,-0.0,-0.0,-1.0,0.2209456780039637,2.0,0.0
26.461509704589844,3.725484848022461,-0.4834332466125488,-0.9686350946671952,-0.2241692530881243,-0.1072110038614798,0.2455562842831291,6.0,0.0
26.760589599609375,3.854696273803711,-0.4868223667144775,-0.0,-0.0,-1.0,0.2012366717213549,2.0,0.0
27.020978927612305,3.742012023925781,-0.5355725288391113,-0.0,-0.0,-1.0,0.2248297489110584,2.0,0.0
27.127685546875,4.193938255310059,-0.4583175182342529,0.4689842340745456,0.3247844126923342,-0.821321419093407,0.1804143626965268,3.0,0.0
27.590309143066406,4.20344352722168,-0.5087649822235107,-0.8568561347754783,-0.4094563756121351,-0.3132778970310582,0.2152765531365956,3.0,0.0
26.305864334106445,3.15285587310791,-0.0823357105255127,-0.7447977036580298,0.0244835983645846,-0.6668410110639924,0.0553719003142881,3.0,0.0
25.602020263671875,5.417981147766113,-0.0684337615966796,-0.0,-0.0,-1.0,0.1010392194859286,1.0,0.0
27.224946975708008,3.270909309387207,-0.4740073680877685,-0.0,-0.0,-1.0,0.2668253140406116,1.0,0.0
27.573749542236328,3.205197334289551,-0.5164666175842285,-0.5144524109609412,-0.1324143089244793,0.8472338329224862,0.1602449678634981,3.0,0.0
26.292015075683594,3.193661689758301,-0.4222321510314941,-0.6628031234018436,0.20201546529913,0.7210282736403174,0.1702435044420591,3.0,0.0
26.5685977935791,3.2195796966552734,-0.4351730346679687,-0.0,-0.0,-1.0,0.2112627548970962,1.0,0.0
26.417346954345703,3.361138343811035,-0.3966434001922607,-0.0,-0.0,-1.0,0.1900722116227431,1.0,0.0
26.55068016052246,3.3887672424316406,-0.4001362323760986,-0.3627163770844497,-0.0022998963852707,-0.9318967433526896,0.2432005939739247,3.0,0.0
27.120927810668945,3.3284835815429688,-0.4542124271392822,-0.0,-0.0,-1.0,0.1836918559711892,1.0,0.0
27.45229148864746,3.342787742614746,-0.478740930557251,0.2379579796997085,-0.4043417128638611,-0.88311028707379,0.1216044701408795,4.0,0.0
26.76385498046875,3.7070350646972656,-0.3514790534973144,0.2665124775059639,0.8752562748785344,0.4036056895280143,0.1800001614521709,5.0,0.0
26.9627742767334,3.7496042251586914,-0.3580482006072998,0.6880699384984746,-0.0194168825293571,-0.7253845493305926,0.2134686165518635,3.0,0.0
26.705894470214844,3.2133617401123047,-0.393608808517456,-0.0,-0.0,-1.0,0.1953219340675953,1.0,0.0
27.331382751464844,3.1644105911254883,-0.4420459270477295,-0.0,-0.0,-1.0,0.2070018911914542,1.0,0.0
26.422840118408203,3.437408447265625,-0.3334126472473144,-0.0,-0.0,-1.0,0.2220156854337782,1.0,0.0
26.916662216186523,3.4858407974243164,-0.3508033752441406,-0.0,-0.0,-1.0,0.2271137329590837,2.0,0.0
27.25625991821289,3.2177019119262695,-0.4262640476226806,0.6426099625290529,0.7080814801996779,0.2926995959283885,0.2369847784523651,3.0,0.0
27.58731460571289,3.203728675842285,-0.4521269798278808,-0.529238722443769,-0.2810547690361638,-0.8005714155952084,0.1724286258591926,4.0,0.0
26.875303268432617,3.7627105712890625,-0.2923071384429931,0.0960270074199408,-0.7155211229691816,-0.6919597794893079,0.231393188625016,6.0,0.0
27.50298309326172,3.199451446533203,-0.2703101634979248,-0.8673333212403308,-0.2583850322638744,-0.4254057885927436,0.1793230492628263,5.0,0.0
26.21169662475586,3.1448545455932617,-0.1651506423950195,-0.718946331086093,0.4608718293233162,0.5203011915746746,0.1716224828909569,4.0,0.0
25.36288833618164,4.716682434082031,-0.8310292959213257,-0.2389720120921182,-0.6652157647459612,-0.7073756878562414,0.0431766418236996,3.0,0.0
25.61845016479492,4.610043525695801,-0.837537407875061,-0.0,-0.0,-1.0,0.0163812247598524,1.0,0.0
25.926477432250977,4.547715187072754,-0.8341289758682251,-0.0,-0.0,-1.0,0.1113550926016329,1.0,0.0
26.40130615234375,4.449396133422852,-0.8338700532913208,-0.0,-0.0,-1.0,0.0829792471357791,1.0,0.0
26.74854278564453,4.474198341369629,-0.8173946142196655,-0.0,-0.0,-1.0,0.0643568576415716,2.0,0.0
26.25911521911621,3.607781410217285,-0.5312663316726685,-0.0,-0.0,-1.0,0.2383168662614186,1.0,0.0
27.181293487548828,3.5301122665405273,-0.5254758596420288,-0.0,-0.0,-1.0,0.1402891435323077,2.0,0.0
26.14669609069824,3.90596866607666,-0.4857345819473266,-0.0,-0.0,-1.0,0.1739698925335596,2.0,0.0
26.40767288208008,3.766209602355957,-0.5012418031692505,-0.0,-0.0,-1.0,0.2108163409894737,2.0,0.0
26.636768341064453,3.887054443359375,-0.4755851030349731,-0.0,-0.0,-1.0,0.1883440668510887,2.0,0.0
27.054943084716797,3.73343276977539,-0.4932235479354858,-0.0,-0.0,-1.0,0.1795663621325791,1.0,0.0
26.29010581970215,4.3386077880859375,-0.4104799032211303,-0.9589306338219152,0.241194062721513,-0.1492563687947379,0.150150212759736,6.0,0.0
26.86795234680176,4.097655296325684,-0.4358826875686645,-0.3866691717894863,-0.8970240625318366,0.2140905949043827,0.2485278379125646,6.0,0.0
27.292022705078125,4.292255401611328,-0.3966530561447143,-0.0,-0.0,-1.0,0.1848958028996287,2.0,0.0
27.548744201660156,4.1359453201293945,-0.4203382730484009,-0.0,-0.0,-1.0,0.1308246765368492,2.0,0.0
27.16289710998535,4.61590576171875,-0.7783089876174927,-0.0,-0.0,-1.0,0.1538747602266575,2.0,0.0
26.108219146728516,4.831263542175293,-0.769861102104187,-0.0,-0.0,-1.0,0.0609060552555421,1.0,0.0
27.267738342285156,4.834691047668457,-0.7317653894424438,-0.0,-0.0,-1.0,0.1981494777555022,1.0,0.0
25.363059997558594,5.317506790161133,-0.7152119874954224,-0.7413726463381826,0.4924763047193445,-0.4558878025912731,0.1952785577309661,8.0,0.0
25.44860458374023,5.314859390258789,-0.7103868722915649,0.0800681109592127,-0.9854526123142426,-0.1499074597558707,0.2427558435956134,23.0,0.0
26.31327438354492,5.262480735778809,-0.6756635904312134,0.8402833527541547,-0.4823319453569755,0.247547533965484,0.1422566157718117,6.0,0.0
26.966045379638672,5.3868255615234375,-0.6275511980056763,-0.0,-0.0,-1.0,0.1317886651544084,1.0,0.0
27.6663761138916,5.434431076049805,-0.6036065816879272,0.1720836922031523,0.948946430744201,-0.2643631488229248,0.1609836723935232,5.0,0.0
27.337017059326172,3.1615638732910156,-0.1062150001525878,-0.0,-0.0,-1.0,0.0688299493091305,2.0,0.0
27.295454025268555,3.2009592056274414,-0.1011997461318969,-0.0,-0.0,-1.0,0.0641566977620941,1.0,0.0
25.377965927124023,5.4330644607543945,-0.2718144655227661,-0.5989156357213647,0.7981048982487214,0.0657923451464669,0.0973975165501979,5.0,0.0
26.25328254699707,5.247795104980469,-0.263236403465271,-0.0,-0.0,-1.0,0.268961092159907,2.0,0.0
25.72060203552246,4.0429487228393555,-0.8713743686676025,-0.0,-0.0,-1.0,0.0107407198382347,2.0,0.0
25.34488868713379,4.304994583129883,-0.84334397315979,-0.4617791405044766,0.7383576216909693,0.4915160708316692,0.0283530374478699,4.0,0.0
25.56662368774414,4.132850646972656,-0.862213134765625,-0.0,-0.0,-1.0,0.0166630668207547,2.0,0.0
26.25046730041504,4.351019859313965,-0.8038122653961182,-0.0149998952323485,0.8243826891305663,-0.5658340613685912,0.1942526111751746,4.0,0.0
26.586048126220703,4.2688398361206055,-0.809185266494751,0.1236775391625605,-0.3406994620348803,-0.932002007978436,0.0902699013659374,3.0,0.0
27.00103187561035,4.499689102172852,-0.7623105049133301,-0.5942055091300266,0.7894858116293633,-0.153726920724548,0.2042133585002549,3.0,0.0
27.308624267578125,3.1488866806030273,-0.5041005611419678,-0.0,-0.0,-1.0,0.1878841246609857,1.0,0.0
27.61089134216309,3.169610023498535,-0.5022029876708984,-0.8039256687761744,-0.250928530457954,0.5392016243345266,0.1704919048142473,3.0,0.0
