x,y,z,nx,ny,nz,curvature,density
37.74348831176758,-28.240646362304688,0.7732435464859009,-0.0,-0.0,-1.0,0.1286407532529299,1.0
39.98704528808594,-27.443206787109375,0.779188871383667,-0.1841038998491992,-0.9825785781686824,-0.0253986571362802,0.1633985483967342,3.0
38.40800094604492,-28.431835174560547,0.76687091588974,-0.6648177919363442,0.5084736063750709,-0.5472402535859487,0.0905725971526282,5.0
37.87008285522461,-27.227968215942383,0.6015644073486328,-0.0,-0.0,-1.0,0.143034654572786,1.0
38.22575759887695,-27.36467933654785,0.5855517387390137,-0.0,-0.0,-1.0,0.1514702770363173,1.0
38.25788116455078,-27.52428436279297,0.5808004140853882,-0.0,-0.0,-1.0,0.203350751158942,2.0
38.86254119873047,-27.650650024414062,0.5561469197273254,-0.2446119694142623,-0.954277247812794,-0.171813616241888,0.0507290793282382,3.0
38.83186340332031,-27.892187118530273,0.5517958402633667,-0.0,-0.0,-1.0,0.0154207224822989,1.0
38.61018371582031,-28.214754104614254,0.5525109171867371,-0.0,-0.0,-1.0,0.1126837032932799,1.0
38.78508758544922,-28.424314498901367,0.541479229927063,-0.0,-0.0,-1.0,0.0339503034489339,1.0
39.885284423828125,-27.634077072143555,1.087309718132019,-0.0,-0.0,-1.0,0.0541733686329685,1.0
39.64935302734375,-27.53990936279297,1.0898958444595337,-0.0,-0.0,-1.0,0.1841248304317913,1.0
39.32748031616211,-27.5103702545166,1.0934677124023438,-0.0,-0.0,-1.0,0.2056936666977724,1.0
39.18062210083008,-27.569486618041992,1.0951318740844729,-0.0,-0.0,-1.0,0.208378554530919,1.0
39.798824310302734,-27.367183685302734,0.6027073860168457,-0.0934135482177456,-0.9562535464345312,0.2772238516808254,0.1273908603053842,4.0
39.63617706298828,-27.592117309570312,0.6350061893463135,-0.0,-0.0,-1.0,0.171648935337941,1.0
40.19621276855469,-27.36363983154297,0.5554769039154053,0.3287809684554793,-0.35277455468975,-0.8760440561666553,0.1254234638746944,4.0
38.37091064453125,-28.53447723388672,0.6706225872039795,-0.0,-0.0,-1.0,0.1652564072151115,1.0
39.19392776489258,-28.59077835083008,0.5805849432945251,-0.1027519622643685,-0.0130860256213733,-0.9946209278837128,0.0613645235440946,3.0
39.049339294433594,-27.684391021728516,0.5510629415512085,-0.0,-0.0,-1.0,0.0437581930851217,1.0
39.382198333740234,-28.571624755859375,0.558343768119812,-0.0,-0.0,-1.0,0.0638492047613078,1.0
39.33208465576172,-27.178955078125,0.493457019329071,-0.0,-0.0,-1.0,0.0373256639430886,1.0
39.19349670410156,-27.597034454345703,0.5303357839584351,-0.0,-0.0,-1.0,0.0678223607416573,1.0
39.532772064208984,-27.02583694458008,0.4629538059234619,-0.0,-0.0,-1.0,0.0335112637152245,1.0
40.01765823364258,-27.008243560791016,0.4070894718170166,-0.0,-0.0,-1.0,0.06337349248765,1.0
39.423316955566406,-27.476318359375,0.6683114171028137,-0.2419193789315533,-0.8062829854276565,-0.5397988157705029,0.1499850176434257,4.0
39.57059860229492,-27.40904998779297,0.656169056892395,0.3213245349544842,-0.8877562489620168,-0.3296048932664289,0.1155674197800275,5.0
39.82073974609375,-27.356929779052734,0.6371878385543823,-0.9262464103551012,-0.1900339647687752,0.3255068041355647,0.1096934627662544,5.0
40.177520751953125,-27.4820556640625,0.6154302358627319,-0.9405893509863712,-0.2906128539552846,0.1756013722241418,0.2210026884774626,5.0
39.47151565551758,-27.436302185058594,0.6735051274299622,0.4257612904147703,-0.6081634807551807,-0.6699735101181931,0.1655231537430294,3.0
39.603755950927734,-27.355388641357425,0.6625444889068604,0.1562679562762799,0.0525830494278291,-0.9863140213715434,0.1294796672509163,5.0
39.86811065673828,-27.38114547729492,0.6444810628890991,0.0836426218411673,-0.9613559119315708,-0.2622951055695731,0.1231923808579382,5.0
40.17887115478515,-27.489757537841797,0.6248466372489929,-0.4835477196839207,-0.0039605405081442,-0.8753090408006556,0.2210026884774626,4.0
37.781471252441406,-28.435863494873047,0.7088285684585571,-0.0,-0.0,-1.0,0.2034325080968572,1.0
39.22759246826172,-28.43402862548828,0.6159701943397522,-0.0,-0.0,-1.0,0.1082549544299601,2.0
39.21302032470703,-27.43130111694336,0.6024856567382812,-0.0,-0.0,-1.0,0.1022098902483755,1.0
39.52063751220703,-27.24917221069336,0.5799601078033447,-0.0,-0.0,-1.0,0.0903802477950856,2.0
39.7363395690918,-27.197772979736328,0.5652417540550232,-0.0,-0.0,-1.0,0.0703833691782568,2.0
39.342247009277344,-28.40857315063477,0.683947741985321,-0.5032562562170831,0.862105946640863,0.0592155160817415,0.163435260712501,5.0
39.34595489501953,-27.59688949584961,0.670717179775238,-0.0141365362407112,-0.943452794463751,-0.3312053486308067,0.0749874157910109,5.0
39.63555145263672,-27.384681701660156,0.6479793190956116,0.1597241088880543,0.516214328284495,-0.8414338811301247,0.0772498970080648,6.0
39.98265838623047,-27.47113037109375,0.6261671781539917,-0.0,-0.0,-1.0,0.1371250832812559,1.0
38.58211135864258,-28.410625457763672,0.7258841395378113,-0.0,-0.0,-1.0,0.1760482092431463,1.0
39.60853576660156,-27.53031539916992,0.730034589767456,-0.0,-0.0,-1.0,0.2627095204209804,1.0
39.617401123046875,-28.452720642089844,0.7191363573074341,-0.0,-0.0,-1.0,0.2288343167433459,1.0
39.8245964050293,-27.37329864501953,0.7304743528366089,-0.6856353894591488,0.3339904876275767,-0.6468032675361929,0.1336288535167119,3.0
39.829986572265625,-27.43548583984375,0.9070016145706176,-0.0,-0.0,-1.0,0.2187833680225856,2.0
37.91962432861328,-27.37096786499023,0.5490102767944336,-0.0,-0.0,-1.0,0.0658620461653602,2.0
38.82413482666016,-27.555423736572266,0.5006672739982605,-0.0,-0.0,-1.0,0.0457098357682593,1.0
38.76456069946289,-28.060903549194336,0.5041266679763794,-0.0,-0.0,-1.0,0.0043444943817852,1.0
38.771934509277344,-28.60838508605957,0.5040701031684875,-0.0,-0.0,-1.0,0.0267588314140813,2.0
39.1222038269043,-27.159164428710938,0.4845932722091675,-0.0,-0.0,-1.0,0.0384269953151265,1.0
39.94278717041016,-27.133665084838867,0.4410834312438965,-0.0,-0.0,-1.0,0.1035541857443206,1.0
38.31034851074219,-29.26722526550293,0.6608289480209351,-0.0,-0.0,-1.0,0.1468178898726473,2.0
38.404571533203125,-28.468894958496097,0.6684994697570801,-0.923361266067535,-0.2985062250164486,-0.2414498000674023,0.1005483527915361,5.0
39.34194564819336,-27.507625579833984,0.634087085723877,0.7515769876413891,-0.6142420129991568,-0.2404969461648926,0.129249741451012,3.0
39.258575439453125,-27.687753677368164,0.635725736618042,-0.7407975029345263,-0.0030951971841577,-0.6717212810387667,0.0949099706186771,3.0
39.30934524536133,-28.466083526611328,0.6210048198699951,-0.1171451118432421,-0.1771770477987666,-0.9771823353420528,0.1307386604854811,5.0
39.51679229736328,-27.392711639404297,0.6265757083892822,-0.1399690076470367,-0.0458921600568778,-0.9890917988455964,0.1169098165093748,4.0
39.938011169433594,-27.3685245513916,0.6045441627502441,-0.6523585491287869,-0.0880573510346574,-0.7527776738900691,0.0739543086511241,3.0
40.16351318359375,-27.443313598632812,0.5913854837417603,0.6638076295065186,-0.2061830268272973,-0.7189214077055089,0.2028694824256819,3.0
39.659645080566406,-27.468746185302734,0.8946545124053955,-0.0,-0.0,-1.0,0.1966606310423106,2.0
39.60284805297851,-27.567211151123047,0.9026625156402588,0.0219917209439773,0.0781472966686278,-0.9966992345905096,0.1107166791459781,6.0
39.99187469482422,-27.44664764404297,0.8602176904678345,-0.8666110086874625,-0.3455884039888029,0.3599361257920223,0.2714935732973506,3.0
38.543006896972656,-28.41161346435547,1.0970513820648191,-0.1333376196789166,0.4310440963362212,-0.8924248238322656,0.091113869375658,3.0
39.70659637451172,-27.740455627441406,1.0253534317016602,-0.174101060889711,-0.9653858684497134,-0.1942136596500609,0.0610940072252755,3.0
39.972747802734375,-27.74615478515625,1.0090906620025637,-0.0,-0.0,-1.0,0.0449944622620412,1.0
39.776268005371094,-27.505887985229492,0.9980787634849548,-0.0,-0.0,-1.0,0.1555541829314654,1.0
40.15389633178711,-27.530717849731445,0.9815938472747804,-0.3282103059406281,-0.1706707897146525,-0.9290583817029672,0.1477692206464528,3.0
39.59710311889648,-27.58321952819824,0.9215630888938904,-0.681036431937187,-0.6089204355390114,0.4067004813831007,0.0762258448784984,7.0
39.85184097290039,-27.572277069091797,0.9095158576965332,-0.0,-0.0,-1.0,0.1541827982384816,1.0
38.73377990722656,-28.258319854736328,1.0225510597229004,-0.0,-0.0,-1.0,0.1373863878899825,1.0
38.77556228637695,-28.815967559814453,1.011855125427246,-0.0,-0.0,-1.0,0.0765065911710008,1.0
40.137699127197266,-27.58159446716309,0.97860848903656,0.5185024840284305,-0.5295620453630586,-0.6713562498161771,0.1247051387552806,3.0
39.12140655517578,-26.96881103515625,0.5107724666595459,-0.0,-0.0,-1.0,0.0340614076942987,1.0
39.36968231201172,-26.901317596435547,0.4984174966812134,-0.0,-0.0,-1.0,0.0346040439744361,2.0
39.9227294921875,-26.90074157714844,0.4662402868270874,-0.0,-0.0,-1.0,0.1191452543830499,2.0
37.907920837402344,-26.892398834228516,0.583030104637146,-0.0,-0.0,-1.0,0.0839479012124232,1.0
37.86023712158203,-27.153461456298828,0.5777204036712646,0.248042772190254,0.2607303777470057,-0.933002922441338,0.1360241053754964,3.0
38.221778869628906,-26.916488647460938,0.5642797946929932,-0.0,-0.0,-1.0,0.0480477481716777,2.0
38.73434066772461,-26.90318298339844,0.5351549386978149,-0.0,-0.0,-1.0,0.0257363719293169,1.0
38.972755432128906,-26.966812133789062,0.5194389820098877,-0.0,-0.0,-1.0,0.0333916183728736,1.0
38.52630233764648,-28.4582462310791,1.115495204925537,-0.0,-0.0,-1.0,0.0897164165222667,2.0
37.900169372558594,-28.396373748779297,1.1346580982208252,-0.0,-0.0,-1.0,0.1100817484252887,1.0
37.84795379638672,-28.503997802734375,0.8137202262878418,-0.0,-0.0,-1.0,0.1840686305763608,1.0
37.89127731323242,-28.2691707611084,0.8066816329956055,-0.0,-0.0,-1.0,0.1839245417385324,1.0
38.49915313720703,-28.32930374145508,0.7341853380203247,-0.0,-0.0,-1.0,0.1740611782860149,1.0
39.43385314941406,-27.159324645996097,0.6113866567611694,-0.0,-0.0,-1.0,0.0592613562241543,1.0
39.38387298583984,-27.38294219970703,0.61946702003479,0.4880743789701616,-0.8445149630000086,0.2204038971116106,0.1042031606946528,3.0
39.32829284667969,-27.730926513671875,0.6292896270751953,-0.0,-0.0,-1.0,0.0645833107580538,1.0
39.74809646606445,-27.099912643432617,0.5728387832641602,-0.0,-0.0,-1.0,0.0461954855228575,1.0
39.62711715698242,-28.242721557617188,0.5977380275726318,-0.0,-0.0,-1.0,0.0332002174322664,2.0
39.58747863769531,-28.762435913085938,0.606931209564209,-0.0,-0.0,-1.0,0.0274926648837345,2.0
40.03602600097656,-27.01681137084961,0.5372085571289062,-0.0,-0.0,-1.0,0.0992286735990245,1.0
39.673885345458984,-27.464670181274418,0.9165843725204468,0.6383162272533157,-0.7398170995024081,-0.2126571261654245,0.1539619328597502,4.0
39.74158477783203,-27.764787673950195,0.9113852977752686,-0.0,-0.0,-1.0,0.1137799405324367,1.0
39.96002197265625,-27.99687385559082,0.8895734548568726,-0.0,-0.0,-1.0,0.0736506224163884,1.0
40.06063461303711,-27.407962799072266,0.8746893405914307,0.4592854783638639,-0.8750027043759844,-0.1530591934474703,0.1821913884769557,4.0
37.88421630859375,-27.037769317626953,0.5380067825317383,-0.0,-0.0,-1.0,0.0933753412290697,1.0
39.7138786315918,-27.5341796875,0.9960471391677856,-0.0,-0.0,-1.0,0.2248533661380101,2.0
40.03971099853515,-27.399883270263672,0.953965187072754,-0.0,-0.0,-1.0,0.2064229658507528,2.0
37.71775817871094,-28.63467788696289,0.6115741729736328,-0.0,-0.0,-1.0,0.1768639966278203,1.0
37.86288833618164,-28.219314575195312,0.5926995277404785,-0.0,-0.0,-1.0,0.1064528059207126,1.0
38.09496307373047,-27.82501220703125,0.560920238494873,-0.0,-0.0,-1.0,0.0650050007898793,1.0
37.91557312011719,-27.02935028076172,0.5824294090270996,-0.0,-0.0,-1.0,0.1036091344715005,2.0
39.757198333740234,-27.618410110473633,1.034666895866394,-0.0,-0.0,-1.0,0.1399441761531038,1.0
39.87437438964844,-27.49278259277344,1.0184513330459597,-0.0,-0.0,-1.0,0.1702309323000437,1.0
40.18788528442383,-27.47374725341797,0.9833743572235109,-0.0,-0.0,-1.0,0.1866180486946366,2.0
39.83121871948242,-28.59099578857422,0.5945301055908203,-0.0,-0.0,-1.0,0.0428602557938909,1.0
39.61060333251953,-28.1043758392334,0.6206276416778564,-0.0,-0.0,-1.0,0.0678684441273517,2.0
39.81614685058594,-28.411518096923828,0.595911979675293,-0.0,-0.0,-1.0,0.045228754521535,2.0
40.017311096191406,-27.19651985168457,0.5627920627593994,-0.0,-0.0,-1.0,0.0588159206170526,2.0
37.77273178100586,-28.58636474609375,0.8472449779510498,-0.0,-0.0,-1.0,0.0914023154945098,1.0
37.85929107666016,-28.40947723388672,0.8373570442199707,-0.0,-0.0,-1.0,0.2044811147581856,1.0
38.38629913330078,-28.483203887939453,0.7730751037597656,-0.7721927713659062,0.5199316648420484,0.3652251192686734,0.0780215460424389,5.0
39.312522888183594,-27.674320220947266,0.6563416719436646,0.7265215616337337,-0.4894968291001725,-0.482243999218401,0.076415027428453,3.0
39.35917663574219,-27.492530822753903,0.6493828296661377,0.7515769876413891,-0.6142420129991568,-0.2404969461648926,0.1194356109761629,3.0
39.49834060668945,-27.432762145996097,0.6312816143035889,-0.1399690076470367,-0.0458921600568778,-0.9890917988455964,0.0990772347451931,4.0
39.66818618774414,-27.29512596130371,0.6085827350616455,0.1481201908063718,-0.9888284052444324,-0.0166971272150748,0.1126082527273286,3.0
39.900169372558594,-28.077938079833984,0.7294458150863647,-0.0,-0.0,-1.0,0.0737876746058796,1.0
40.04541015625,-28.339488983154297,0.7122818231582642,-0.0,-0.0,-1.0,0.03036808696016,1.0
39.51306915283203,-28.46637725830078,0.7735269069671631,-0.0,-0.0,-1.0,0.1752701939280639,1.0
39.563690185546875,-27.53814697265625,0.7688030004501343,0.0175940543682232,-0.1431312435345629,-0.989547318916654,0.2211603355381419,3.0
39.71074295043945,-27.39488983154297,0.7512762546539307,-0.9425836985912306,-0.2401431527997558,-0.2320931651588841,0.1513753774129759,3.0
39.9821662902832,-27.44698715209961,0.7192034721374512,-0.2975267520465335,-0.943788758247299,-0.144016011688499,0.1227828564371423,4.0
38.286376953125,-29.28109359741211,0.6570676565170288,-0.1863541937023078,0.5440031677337314,-0.8181275377257688,0.1468178898726473,3.0
38.24723815917969,-29.19078063964844,0.6639958620071411,-0.0,-0.0,-1.0,0.1269414096100637,2.0
38.81209182739258,-29.14646339416504,0.5958437919616699,-0.0,-0.0,-1.0,0.0624758346175359,2.0
37.733055114746094,-28.47447967529297,0.7433242797851562,-0.0,-0.0,-1.0,0.1047718118831076,1.0
38.42317962646485,-28.557090759277344,0.6564604043960571,-0.0,-0.0,-1.0,0.1356690110373088,1.0
39.02317810058594,-28.714122772216797,0.5785164833068848,-0.0,-0.0,-1.0,0.0190568907158922,1.0
38.39368438720703,-28.41268539428711,0.6630756855010986,-0.0731875008491027,0.3617454995269392,-0.9293996897414308,0.1050847449118876,4.0
39.031982421875,-28.283126831054688,0.5853385925292969,-0.0,-0.0,-1.0,0.0140297177020823,1.0
39.14750671386719,-28.394615173339844,0.5687198638916016,-0.0,-0.0,-1.0,0.0885153093544265,2.0
39.10059356689453,-27.961679458618164,0.5819435119628906,-0.0,-0.0,-1.0,0.0611555466262879,1.0
39.188446044921875,-28.07876968383789,0.5688705444335938,-0.0,-0.0,-1.0,0.0203213035567732,1.0
38.24020767211914,-27.599592208862305,0.6975347995758057,-0.0,-0.0,-1.0,0.1797534599698807,2.0
39.09684753417969,-27.58427619934082,0.5880951881408691,-0.0,-0.0,-1.0,0.0673552787199389,1.0
39.287750244140625,-27.48966407775879,0.5646874904632568,-0.0,-0.0,-1.0,0.0929926039947624,1.0
39.18608474731445,-27.30552101135254,0.5802733898162842,-0.818155530631388,-0.5659603218562617,0.1015403455855288,0.0635860417304977,3.0
39.48504638671875,-27.132137298583984,0.5431456565856934,-0.0,-0.0,-1.0,0.0526877153725219,1.0
39.89826202392578,-27.062301635742188,0.4893827438354492,0.4278994752182112,-0.9037086354877192,-0.0145856522961423,0.1477192289933705,3.0
39.558876037597656,-28.95946502685547,2.5185277462005615,-0.0,-0.0,-1.0,0.0439982166966617,1.0
38.318115234375,-29.261444091796875,0.7869744300842285,0.8775329249903819,0.1471773073829506,-0.4563713463281073,0.0655565025979595,3.0
37.82169723510742,-28.553409576416016,0.8673453330993652,-0.0,-0.0,-1.0,0.126922668453521,1.0
38.37788772583008,-28.504161834716797,0.8066484928131104,-0.6794014123478224,0.6705196373740783,0.2980220407881258,0.0649391610516816,4.0
39.315643310546875,-28.441465377807617,0.7010583877563477,-0.191775391365098,-0.3263792621465576,-0.9255802377468048,0.1239303896996295,3.0
39.914825439453125,-28.677684783935547,0.6243088245391846,-0.0,-0.0,-1.0,0.0170849497114179,1.0
39.368106842041016,-28.404815673828125,0.6960370540618896,-0.1646377454153279,0.9843845223391824,0.0623018857147789,0.1800197218185852,4.0
39.692138671875,-28.191482543945312,0.664076566696167,-0.0,-0.0,-1.0,0.0708902678198711,1.0
39.64078903198242,-27.95871353149414,0.6764175891876221,-0.0,-0.0,-1.0,0.0441183775788559,1.0
39.48415756225586,-27.46514129638672,0.7077174186706543,0.3894685491282674,-0.5754581582408557,-0.7191398732888925,0.1376176512503144,4.0
39.81925201416016,-27.37584686279297,0.6694997549057007,-0.6272053474925585,-0.6592015437585672,-0.4148093258149583,0.1106795581597423,3.0
37.788719177246094,-27.7685546875,0.8976342678070068,-0.0,-0.0,-1.0,0.1127425964626682,1.0
37.7424430847168,-28.838298797607425,0.6492513418197632,-0.0,-0.0,-1.0,0.0911071294270886,1.0
38.18818283081055,-28.72021484375,0.5979263782501221,-0.0,-0.0,-1.0,0.1110405198123227,1.0
37.713172912597656,-28.548095703125,0.6676080226898193,-0.0,-0.0,-1.0,0.1561683984942184,1.0
38.22807312011719,-28.602249145507812,0.5983493328094482,-0.0,-0.0,-1.0,0.0718625084158277,1.0
38.72233581542969,-28.447736740112305,0.5401263236999512,-0.0,-0.0,-1.0,0.0541542233952925,1.0
38.1292724609375,-28.27495002746582,0.6265974044799805,-0.0,-0.0,-1.0,0.0874091549258195,2.0
38.8593635559082,-28.187267303466797,0.532778263092041,-0.0,-0.0,-1.0,0.0195315038423015,1.0
38.041038513183594,-27.70528793334961,0.6636674404144287,-0.0,-0.0,-1.0,0.0929750843568197,1.0
38.89441680908203,-27.73066139221191,0.5466465950012207,-0.0,-0.0,-1.0,0.0488964901112939,1.0
38.99251174926758,-27.494291305541992,0.5421609878540039,-0.0,-0.0,-1.0,0.0740513513841643,1.0
39.1141357421875,-27.308155059814453,0.5319304466247559,-0.0,-0.0,-1.0,0.0537215189961943,1.0
39.35901641845703,-27.045246124267575,0.5060884952545166,-0.5506081409857791,0.5599753605290789,-0.6190785658383853,0.0397581662702951,3.0
39.694766998291016,-27.73814392089844,1.024466872215271,-0.0,-0.0,-1.0,0.0780179126209416,2.0
37.93804931640625,-27.22797393798828,0.69797682762146,-0.0,-0.0,-1.0,0.1170040789478829,1.0
39.70598983764648,-27.56014633178711,1.0255534648895264,-0.0,-0.0,-1.0,0.2181938019784358,2.0
40.03165054321289,-27.489158630371097,0.9891871213912964,-0.0,-0.0,-1.0,0.1467182203421706,2.0
38.2913703918457,-29.323787689208984,0.7302428483963013,0.8030025151902757,-0.5947613811349196,-0.0380244672358989,0.0783200361096764,3.0
38.35508728027344,-28.511512756347656,0.7628146409988403,-0.6795400195581695,0.4576543576653679,0.5733915335342704,0.0758777106755766,4.0
39.497772216796875,-28.609621047973633,0.609605073928833,-0.0,-0.0,-1.0,0.0863011032291684,1.0
39.701377868652344,-28.501455307006836,0.5869913101196289,-0.1134259525307722,0.9842643307480712,-0.1354927323126141,0.0639904893791821,4.0
39.61849594116211,-28.195629119873047,0.6105029582977295,-0.0,-0.0,-1.0,0.0340150338917636,2.0
39.336673736572266,-27.651947021484375,0.6700162887573242,0.7265215616337337,-0.4894968291001725,-0.482243999218401,0.0864788438724279,3.0
39.4518928527832,-27.90099334716797,0.6447018384933472,0.1565978199747563,0.221357920146409,-0.9625371649799348,0.0500286509791929,3.0
39.36001205444336,-27.50055694580078,0.6724927425384521,0.8738482891473442,-0.2697587624955473,-0.4044989216439646,0.1368839579159437,4.0
39.59463882446289,-27.385845184326172,0.6441110372543335,-0.1579136745493352,0.3713384220662376,-0.9149705173871362,0.1282026647285606,5.0
39.93936538696289,-27.322338104248047,0.5979678630828857,0.5149100536667716,-0.1356198394684072,-0.8464484011299483,0.0203091357938538,3.0
37.842384338378906,-28.656574249267575,0.8200210332870483,-0.0,-0.0,-1.0,0.0932727065845988,1.0
38.3941650390625,-28.365386962890625,0.764731764793396,-0.8670051847795566,0.4544159680285292,0.2044703831024475,0.1029166179286128,3.0
39.95640182495117,-28.457948684692383,0.6779940128326416,-0.0,-0.0,-1.0,0.0276496876167292,1.0
39.921348571777344,-28.232206344604492,0.6925920248031616,-0.0,-0.0,-1.0,0.0284114703800389,1.0
38.0030517578125,-27.11467742919922,0.5298764705657959,-0.0,-0.0,-1.0,0.1007432759440461,2.0
38.12531280517578,-28.62874984741211,0.905310869216919,-0.0,-0.0,-1.0,0.0782387934430603,1.0
38.42818832397461,-28.52712059020996,0.8732211589813232,-0.7911878186720911,-0.5862364867928853,0.1742085449615895,0.0603753859541821,3.0
39.823829650878906,-28.02715301513672,0.7146141529083252,-0.0,-0.0,-1.0,0.068934931435829,1.0
39.5340576171875,-27.572669982910156,0.7732696533203125,-0.0,-0.0,-1.0,0.1691715018636776,2.0
39.65162658691406,-27.405078887939453,0.7639100551605225,0.016975891593123,-0.7529111718914397,-0.6579031739896664,0.129555067053846,3.0
39.96712875366211,-27.419971466064453,0.7194586992263794,-0.2975267520465335,-0.943788758247299,-0.144016011688499,0.1209045557801829,4.0
39.50537872314453,-28.985492706298828,2.3517282009124756,-0.0,-0.0,-1.0,0.0306356510096463,1.0
39.62217330932617,-28.87697982788086,2.342000722885132,-0.0,-0.0,-1.0,0.0280353269248919,1.0
38.054500579833984,-28.57155990600586,0.5638813972473145,-0.0,-0.0,-1.0,0.0873617475038794,2.0
37.77909851074219,-28.389907836914062,0.6186809539794922,-0.0,-0.0,-1.0,0.2076155547763763,1.0
38.15471649169922,-28.39314842224121,0.5640969276428223,-0.0,-0.0,-1.0,0.0671152026142919,1.0
38.42043685913086,-28.26093482971191,0.5355484485626221,-0.0,-0.0,-1.0,0.1831789869013249,1.0
37.804412841796875,-27.858957290649418,0.6592726707458496,-0.0,-0.0,-1.0,0.1011380121322576,1.0
38.176902770996094,-27.756080627441406,0.6120967864990234,-0.0,-0.0,-1.0,0.1064079123441615,1.0
38.679534912109375,-27.978431701660156,0.5182867050170898,-0.0,-0.0,-1.0,0.0055228139425199,1.0
38.210601806640625,-27.658889770507812,0.6145825386047363,-0.0,-0.0,-1.0,0.1928370723660039,1.0
38.72223663330078,-27.686647415161133,0.5335776805877686,-0.7002229540518543,0.4498589868598754,-0.5543597266760105,0.0332704104583628,3.0
38.94205093383789,-27.539173126220703,0.5096526145935059,-0.472141129083956,-0.3391557438456554,-0.8136683204130707,0.0840510488899391,3.0
39.05049133300781,-27.31801986694336,0.5078251361846924,-0.0,-0.0,-1.0,0.0519029958368634,1.0
39.12445831298828,-27.03179359436035,0.5152335166931152,-0.0,-0.0,-1.0,0.0360648330942585,1.0
39.441184997558594,-26.94702911376953,0.468125581741333,-0.0,-0.0,-1.0,0.0341555621730765,1.0
38.39008712768555,-29.232467651367188,0.9687637090682985,-0.0,-0.0,-1.0,0.0690029879162949,2.0
37.83863830566406,-28.31122779846191,1.087491750717163,-0.0,-0.0,-1.0,0.0931179897026418,2.0
38.462860107421875,-28.445308685302734,1.0027259588241575,-0.0,-0.0,-1.0,0.049026494702653,1.0
39.60536575317383,-28.451173782348633,0.8539068698883057,-0.0,-0.0,-1.0,0.1318050359328577,1.0
40.15777969360352,-28.310312271118164,0.7851786613464355,-0.0,-0.0,-1.0,0.0241351840812945,1.0
39.619537353515625,-27.53528213500977,0.8922786712646484,-0.0,-0.0,-1.0,0.1262325360965012,2.0
39.83354187011719,-27.454296112060547,0.8655941486358643,0.3592808610586039,-0.92959107420151,-0.0823267735422115,0.2380788997628887,4.0
40.160789489746094,-28.55035400390625,2.3458173274993896,-0.0,-0.0,-1.0,0.0242443133552079,1.0
38.24460220336914,-29.29651641845703,0.6563279628753662,-0.0,-0.0,-1.0,0.1244029841319803,2.0
38.68565368652344,-29.265193939208984,0.5988364219665527,-0.0,-0.0,-1.0,0.0902791146004476,1.0
38.82956314086914,-29.225276947021484,0.5821712017059326,-0.0,-0.0,-1.0,0.0624758346175359,1.0
38.86158752441406,-28.854877471923828,0.6088540554046631,-0.0,-0.0,-1.0,0.0175758083463225,2.0
39.02558135986328,-28.843955993652344,0.5860419273376465,-0.0,-0.0,-1.0,0.0153612075941927,2.0
37.895172119140625,-28.339906692504883,0.7884788513183594,-0.0,-0.0,-1.0,0.2189501900291255,1.0
38.46305847167969,-28.444055557250977,0.7001907825469971,-0.0,-0.0,-1.0,0.1978265801369401,2.0
39.23619079589844,-28.583837509155273,0.5761275291442871,-0.1027519622643685,-0.0130860256213733,-0.9946209278837128,0.0846178703791273,3.0
39.401153564453125,-28.45305061340332,0.5616474151611328,-0.0,-0.0,-1.0,0.1328358526957607,1.0
39.32495880126953,-27.987468719482425,0.608924150466919,-0.0,-0.0,-1.0,0.0485502560347522,1.0
39.47493743896485,-28.32044982910156,0.5606427192687988,-0.0,-0.0,-1.0,0.0905501475482258,2.0
39.32057189941406,-27.64164161682129,0.6352977752685547,0.7265215616337337,-0.4894968291001725,-0.482243999218401,0.0755318915750348,3.0
37.71670913696289,-27.041793823242188,0.5145773887634277,-0.0,-0.0,-1.0,0.0899248781578273,2.0
37.92667770385742,-26.951372146606445,0.4892644882202148,-0.0,-0.0,-1.0,0.0920618347144365,2.0
39.43527603149414,-27.45736312866211,0.6306025981903076,0.9620136878316315,-0.1357516888249585,0.2368567993656845,0.1079569738680657,3.0
39.66796112060547,-27.35274314880371,0.6005754470825195,0.5065965017610559,-0.5976151641034536,-0.621462871004425,0.1231480906266937,3.0
39.94809341430664,-27.24964141845703,0.5618588924407959,-0.0,-0.0,-1.0,0.0410155924533114,2.0
37.88447189331055,-26.89449691772461,0.5025992393493652,-0.0,-0.0,-1.0,0.0818120254196333,2.0
40.149375915527344,-27.201282501220703,0.5316431522369385,-0.0,-0.0,-1.0,0.0346746549745069,2.0
37.75030517578125,-27.554798126220703,0.8763998746871948,-0.0,-0.0,-1.0,0.0974783945239683,1.0
38.30022048950195,-27.547767639160156,0.7976518869400024,-0.0,-0.0,-1.0,0.2165547278341792,2.0
39.80628967285156,-27.669044494628903,1.0263780355453491,-0.0,-0.0,-1.0,0.0802123277524701,2.0
39.97789001464844,-27.620800018310547,1.004919409751892,-0.0,-0.0,-1.0,0.130093382400909,1.0
40.16761016845703,-27.55578994750977,0.9813549518585204,-0.286476113260547,0.0402502788180239,-0.9572415325225924,0.1280335171254707,4.0
40.197059631347656,-28.525859832763672,2.420778274536133,-0.0,-0.0,-1.0,0.0183581409990144,1.0
38.35567855834961,-29.33908462524414,0.8188378810882568,-0.0,-0.0,-1.0,0.0739227838604597,1.0
37.98707962036133,-27.99913787841797,0.5943996906280518,-0.0,-0.0,-1.0,0.0302439458268767,1.0
40.04010009765625,-28.592365264892575,0.7172331809997559,-0.0,-0.0,-1.0,0.029528959313513,1.0
38.10953140258789,-27.763641357421875,0.6125993728637695,-0.0,-0.0,-1.0,0.0799044550350557,1.0
38.520057678222656,-27.73546600341797,0.5644466876983643,-0.1977760237255093,-0.0503484421771049,-0.9789533588530488,0.0521048633459332,3.0
39.92851257324219,-28.255531311035156,0.7643842697143555,-0.0,-0.0,-1.0,0.1022313295623303,2.0
38.20720291137695,-27.40740203857422,0.6497941017150879,-0.0,-0.0,-1.0,0.1315305754803331,1.0
38.69219207763672,-27.608455657958984,0.5592868328094482,-0.0,-0.0,-1.0,0.0300793194519378,1.0
38.914520263671875,-27.56296157836914,0.5355432033538818,-0.0,-0.0,-1.0,0.0588123502017215,2.0
39.09990310668945,-27.16898727416992,0.5615825653076172,-0.0,-0.0,-1.0,0.0433582210296945,1.0
39.43861389160156,-27.12829208374023,0.5185673236846924,-0.0,-0.0,-1.0,0.048077493475218,2.0
39.54904556274414,-26.944225311279297,0.5254812240600586,-0.0,-0.0,-1.0,0.0274946214637392,1.0
39.942832946777344,-26.902488708496097,0.4717552661895752,-0.0,-0.0,-1.0,0.1146593537189266,2.0
37.95674133300781,-28.482635498046875,0.9551578760147096,-0.0,-0.0,-1.0,0.1539636813677292,1.0
38.33706283569336,-28.6336669921875,0.8998390436172485,-0.0,-0.0,-1.0,0.0750706102263103,1.0
39.57444381713867,-27.58161163330078,0.8739035129547119,0.2603394413504441,-0.5859555125128567,0.767384853012577,0.1150631330926069,4.0
39.748443603515625,-27.545852661132812,0.8563694953918457,-0.0,-0.0,-1.0,0.1951689923023748,2.0
40.0032958984375,-27.50861930847168,0.8288911581039429,-0.0,-0.0,-1.0,0.2326554986372855,2.0
38.028568267822266,-28.61810302734375,0.5741078853607178,0.3097777391083582,-0.7981141144197459,-0.5167703674911117,0.0690681213233883,3.0
38.25310134887695,-28.4283504486084,0.5913441181182861,-0.0,-0.0,-1.0,0.1251270787911835,2.0
38.6041145324707,-28.499706268310547,0.5552778244018555,-0.0,-0.0,-1.0,0.0662303141016127,2.0
38.87405776977539,-28.496726989746097,0.536466121673584,-0.0,-0.0,-1.0,0.0147835782602968,1.0
37.71669006347656,-27.766788482666016,0.7380173206329346,-0.0,-0.0,-1.0,0.10762539919668,1.0
39.08041763305664,-28.35533905029297,0.5440385341644287,-0.0,-0.0,-1.0,0.0228706768935516,1.0
38.27656555175781,-27.724674224853516,0.7067058086395264,-0.0,-0.0,-1.0,0.1357150961404887,1.0
39.25391387939453,-27.98459243774414,0.5903210639953613,-0.0,-0.0,-1.0,0.0598287606702932,1.0
37.75042724609375,-26.966968536376953,0.5075416564941406,-0.0,-0.0,-1.0,0.0933753412290697,1.0
38.09058380126953,-26.95665740966797,0.4783699512481689,-0.0,-0.0,-1.0,0.0551218475293796,1.0
39.253116607666016,-27.662425994873047,0.6416292190551758,0.9654139380539012,0.2345912407676602,-0.1137667700444582,0.1161857751860753,3.0
39.35416412353515,-27.57994079589844,0.6461784839630127,-0.0,-0.0,-1.0,0.082554868266773,2.0
39.6579704284668,-27.405838012695312,0.6474306583404541,0.0179831911850425,0.0449597220629065,-0.9988269260621824,0.0973823180321679,3.0
40.046478271484375,-27.44332504272461,0.607182502746582,-0.0,-0.0,-1.0,0.1244383567020865,1.0
38.35196685791016,-29.275588989257812,0.8825531005859375,-0.0,-0.0,-1.0,0.0690029879162949,1.0
37.81242752075195,-28.352800369262695,1.0348868370056152,-0.0,-0.0,-1.0,0.0931179897026418,1.0
39.78650665283203,-27.678226470947266,1.0127583742141724,-0.0,-0.0,-1.0,0.1241247022244663,2.0
40.01109313964844,-27.687103271484375,0.9968379735946656,-0.0,-0.0,-1.0,0.0827666435785941,1.0
37.710540771484375,-28.918304443359375,0.6624622344970703,-0.0,-0.0,-1.0,0.0879602034660296,2.0
37.72413635253906,-28.555683135986328,0.718246579170227,-0.0,-0.0,-1.0,0.1239884435026649,1.0
37.96230697631836,-28.74728775024414,0.6683642864227295,-0.0,-0.0,-1.0,0.2541572403288059,1.0
38.38189697265625,-29.009784698486328,0.591343879699707,-0.0,-0.0,-1.0,0.1129280841306223,1.0
38.51360702514648,-29.04316520690918,0.5745043754577637,-0.0,-0.0,-1.0,0.0745309174479435,1.0
38.38461685180664,-28.472232818603516,0.6729848384857178,-0.8998935841748433,-0.3862314174628756,0.2025261201069431,0.0861312081431403,4.0
38.839622497558594,-28.803022384643555,0.5802011489868164,-0.0,-0.0,-1.0,0.0109829754435635,1.0
37.91829299926758,-27.339710235595703,0.5245249271392822,-0.0,-0.0,-1.0,0.0733832549029252,2.0
38.24592590332031,-27.55164337158203,0.8241428136825562,-0.0,-0.0,-1.0,0.1259310648763289,1.0
39.20345306396485,-28.5638427734375,0.5792465209960938,-0.1027519622643685,-0.0130860256213733,-0.9946209278837128,0.0737307441549225,3.0
37.8365478515625,-27.192768096923828,0.5604381561279297,-0.0,-0.0,-1.0,0.1267279601090251,2.0
38.141319274902344,-27.334644317626953,0.4998149871826172,-0.0,-0.0,-1.0,0.0469574622950285,1.0
38.42948532104492,-27.367799758911133,0.4596426486968994,-0.0,-0.0,-1.0,0.0362681773917596,2.0
39.478729248046875,-28.353302001953125,0.5807867050170898,-0.0,-0.0,-1.0,0.0905501475482258,2.0
38.58573913574219,-26.965442657470703,0.5106072425842285,-0.0,-0.0,-1.0,0.0135639142175789,2.0
38.64466857910156,-27.08806610107422,0.4817762374877929,-0.0,-0.0,-1.0,0.0192525742445994,2.0
39.37832260131836,-27.607192993164062,0.6969460248947144,0.4670442687525442,-0.4581043510701572,-0.7563134631592852,0.0613977434663142,3.0
39.47507095336914,-28.021263122558594,0.6282656192779541,-0.0,-0.0,-1.0,0.0195773014921499,1.0
39.014404296875,-26.934818267822266,0.4594001770019531,-0.0,-0.0,-1.0,0.0296193900017252,2.0
39.29202651977539,-26.88951110839844,0.4290740489959717,-0.0,-0.0,-1.0,0.0265516445665522,2.0
39.61063003540039,-27.40424156188965,0.6983028650283813,-0.0,-0.0,-1.0,0.0715898569942151,2.0
39.89141845703125,-27.392574310302734,0.6667815446853638,-0.119771129037306,-0.8757468778619166,-0.4676775412228326,0.1453657614530404,4.0
40.18552780151367,-27.4736328125,0.6204078197479248,0.566027109320681,-0.3291785625378435,-0.7558139886768388,0.2210026884774626,4.0
38.34261322021485,-29.20206069946289,0.9897301197052002,-0.0,-0.0,-1.0,0.0690029879162949,1.0
37.80520248413086,-28.29907989501953,1.1381701231002808,-0.0,-0.0,-1.0,0.0931179897026418,1.0
38.459442138671875,-28.43213653564453,1.0740063190460205,-0.0,-0.0,-1.0,0.0897164165222667,2.0
39.7457275390625,-27.75078773498535,1.041632890701294,0.2914327419999508,-0.3178392959065422,-0.9022445006028152,0.0732420368681358,3.0
39.92115020751953,-27.754169464111328,1.024632692337036,-0.0,-0.0,-1.0,0.0798044408332469,1.0
37.85722351074219,-29.348766326904297,0.63425612449646,-0.0,-0.0,-1.0,0.0819039284138029,1.0
37.804046630859375,-28.501670837402344,0.7742748260498047,-0.0,-0.0,-1.0,0.1672136042397933,2.0
38.32670974731445,-29.23475456237793,0.6100823879241943,-0.0,-0.0,-1.0,0.1543283679962868,1.0
37.9371452331543,-27.86524200439453,0.5047359466552734,-0.0,-0.0,-1.0,0.0416365697790944,1.0
38.38193893432617,-28.47863006591797,0.72258460521698,-0.0201767156032849,0.9173772378244732,-0.3975071114697242,0.0910661391821632,3.0
38.5345458984375,-29.2308292388916,0.5910007953643799,-0.0,-0.0,-1.0,0.110768841643571,2.0
38.68612289428711,-29.197568893432617,0.5812270641326904,-0.0,-0.0,-1.0,0.0685135327142758,1.0
38.0222053527832,-27.521690368652344,0.5586154460906982,-0.0,-0.0,-1.0,0.0508819288129514,2.0
38.09904479980469,-27.720855712890625,0.5123775005340576,-0.0,-0.0,-1.0,0.0935525628854713,2.0
38.38603210449219,-28.36932373046875,0.7389951944351196,-0.8670051847795566,0.4544159680285292,0.2044703831024475,0.1028989452616823,3.0
39.06412506103515,-29.008472442626953,0.57151198387146,-0.0,-0.0,-1.0,0.0274512547470284,1.0
38.51969528198242,-27.508405685424805,0.4989995956420898,-0.0,-0.0,-1.0,0.0243603413820187,1.0
39.35955047607422,-28.549514770507812,0.607804536819458,-0.0,-0.0,-1.0,0.0710425980512361,1.0
39.294677734375,-28.816551208496097,0.5755710601806641,-0.0,-0.0,-1.0,0.0188558992548509,1.0
38.87649917602539,-27.38154411315918,0.4740941524505615,-0.0,-0.0,-1.0,0.0453826471306231,1.0
39.59943771362305,-28.421337127685547,0.5988731384277344,-0.0,-0.0,-1.0,0.0829307382667223,1.0
39.65974044799805,-28.50988006591797,0.5791833400726318,-0.0,-0.0,-1.0,0.068440938258029,2.0
39.19400787353515,-27.044790267944336,0.4872903823852539,-0.0,-0.0,-1.0,0.0368892523479692,1.0
39.52732849121094,-27.483797073364254,0.7406255006790161,0.5345453454156187,-0.5126581792896936,-0.6718949805601122,0.2423332158405935,7.0
39.47340393066406,-27.70370101928711,0.7164373397827148,0.2048667962918978,-0.1115776538501926,-0.9724093906058192,0.0658325194135936,3.0
39.65757751464844,-28.03105926513672,0.6479017734527588,-0.0,-0.0,-1.0,0.0743356439579351,1.0
39.54078674316406,-26.90994644165039,0.4581725597381592,-0.0,-0.0,-1.0,0.0274946214637392,1.0
39.71344375610352,-27.38580322265625,0.7309058904647827,-0.9425836985912306,-0.2401431527997558,-0.2320931651588841,0.138479281678528,3.0
40.00263214111328,-27.43182373046875,0.687519907951355,-0.3098698252293717,-0.9135252742701612,-0.2635379757870684,0.1192861256458101,5.0
37.779273986816406,-28.43163299560547,0.787568211555481,-0.0,-0.0,-1.0,0.1594697315142318,2.0
38.3768424987793,-29.172508239746097,1.016366720199585,0.4292557078115405,-0.0678152686435759,-0.900633458544603,0.0690029879162948,3.0
37.72770690917969,-27.705326080322266,0.9067175388336182,-0.0,-0.0,-1.0,0.1086122763490463,1.0
37.84897994995117,-28.25884246826172,1.1718441247940063,-0.0,-0.0,-1.0,0.1074756843198547,2.0
38.50012969970703,-28.421306610107425,1.098775863647461,0.3334526959111208,-0.3985404819409168,-0.8543856177651327,0.0897164165222667,4.0
38.94945526123047,-27.438793182373047,0.8165308237075806,-0.0,-0.0,-1.0,0.1812858793748021,1.0
39.51748275756836,-27.452438354492188,0.7462180852890015,0.8517389694989566,0.263557419485005,-0.4528556221040659,0.2008649755619935,5.0
39.88397979736328,-27.823524475097656,1.0374833345413208,-0.1640064890553678,-0.151044376085438,-0.9748268912995232,0.1048764725720042,4.0
39.93935012817383,-27.831499099731445,1.0308719873428345,-0.0,-0.0,-1.0,0.1223008038841925,1.0
40.154781341552734,-27.803142547607425,1.011269450187683,-0.0,-0.0,-1.0,0.1135170589508396,1.0
37.72309875488281,-28.49422264099121,0.6418700218200684,-0.0,-0.0,-1.0,0.1620404730310899,2.0
37.91969299316406,-28.44226455688477,0.6271169185638428,-0.0,-0.0,-1.0,0.1483801296846357,1.0
38.06359100341797,-28.60747337341309,0.5786855220794678,0.3784053048030953,-0.5266779825472507,-0.7611962480181009,0.1135525711122644,4.0
37.95465850830078,-27.45925521850586,0.4966218471527099,-0.0,-0.0,-1.0,0.0469168127582279,1.0
38.17779541015625,-28.272214889526367,0.6256289482116699,0.0166931785144939,-0.5836104982140649,-0.8118621337181666,0.0971117747741559,3.0
38.493499755859375,-28.46485137939453,0.5484459400177002,-0.0,-0.0,-1.0,0.2089270242710986,1.0
38.41508102416992,-27.394914627075195,0.4361355304718017,-0.0,-0.0,-1.0,0.0362681773917596,2.0
38.342960357666016,-27.463245391845703,0.4341259002685547,-0.0,-0.0,-1.0,0.0476173290383899,1.0
38.827335357666016,-28.390411376953125,0.515061616897583,-0.0,-0.0,-1.0,0.0239332029237711,1.0
38.624271392822266,-27.08132553100586,0.4635827541351318,-0.0,-0.0,-1.0,0.0192525742445994,2.0
39.07434844970703,-27.799203872680664,0.5805003643035889,-0.0,-0.0,-1.0,0.0673225907681328,1.0
39.01194381713867,-28.151268005371097,0.5299074649810791,-0.0,-0.0,-1.0,0.0099865044930217,1.0
39.01495742797851,-26.939115524291992,0.4206404685974121,-0.0,-0.0,-1.0,0.0295574059689454,2.0
39.3814697265625,-27.38953018188477,0.599545955657959,-0.0,-0.0,-1.0,0.1078825732541027,2.0
39.25994873046875,-27.56842803955078,0.5899398326873779,-0.0,-0.0,-1.0,0.1032397222938777,1.0
39.5530891418457,-27.329742431640625,0.5805988311767578,-0.1361357042306368,-0.185300940858963,-0.973206366271004,0.1155471524201651,3.0
39.64413833618164,-27.33531188964844,0.5643935203552246,0.8089181724573061,-0.0978118087489203,-0.5797277294882454,0.1013158294819977,3.0
40.02687072753906,-27.20552635192871,0.5184471607208252,-0.1772384338297006,-0.971230984613546,0.1590500301798056,0.063091001737597,3.0
37.71361541748047,-27.83074188232422,0.7666147947311401,-0.0,-0.0,-1.0,0.0945765981272992,1.0
37.7701301574707,-28.351722717285156,0.9896076917648317,-0.0,-0.0,-1.0,0.0983930311281042,2.0
37.95467758178711,-28.673358917236328,0.920394778251648,-0.0,-0.0,-1.0,0.1277022420658466,1.0
38.32234954833984,-29.288585662841797,0.7863633632659912,-0.0,-0.0,-1.0,0.0655565025979595,2.0
38.2359504699707,-27.618385314941406,0.7353329658508301,-0.0,-0.0,-1.0,0.1894751923599973,2.0
38.400264739990234,-28.139263153076172,0.9503329992294312,-0.0,-0.0,-1.0,0.04869381651889,1.0
38.41910552978515,-28.508892059326172,0.8933122158050537,-0.0,-0.0,-1.0,0.0493623542938103,2.0
39.441551208496094,-28.44858169555664,0.7747560739517212,-0.0,-0.0,-1.0,0.1769549346500384,1.0
39.955963134765625,-28.54998016357422,0.6913145780563354,-0.0,-0.0,-1.0,0.0265800207973354,1.0
39.732177734375,-27.51546287536621,0.8605043888092041,-0.0,-0.0,-1.0,0.1924968787831761,2.0
39.93128204345703,-28.21739196777344,0.7395330667495728,-0.0,-0.0,-1.0,0.061667540624272,2.0
40.0291748046875,-28.49858665466309,0.6881017684936523,-0.0,-0.0,-1.0,0.0295915788286098,1.0
40.07001495361328,-27.46314811706543,0.8175313472747803,-0.0,-0.0,-1.0,0.1874045826190185,2.0
40.10780334472656,-28.577407836914062,2.1397151947021484,-0.0,-0.0,-1.0,0.0250402703816533,1.0
39.77363204956055,-28.807552337646484,2.515514373779297,-0.0,-0.0,-1.0,0.0288118100628929,2.0
37.734580993652344,-27.741268157958984,0.850173830986023,-0.0,-0.0,-1.0,0.1113302796853313,1.0
37.786170959472656,-28.539085388183594,0.6688096523284912,-0.0,-0.0,-1.0,0.1957629319528953,1.0
38.1480598449707,-28.67573928833008,0.6033971309661865,-0.0,-0.0,-1.0,0.1315751968898303,1.0
38.31883239746094,-29.220245361328125,0.8016397953033447,-0.0,-0.0,-1.0,0.0718211129610761,2.0
38.30970764160156,-27.525314331054688,0.8318464756011963,-0.0,-0.0,-1.0,0.1986312391330549,2.0
38.404632568359375,-28.45363426208496,0.6246998310089111,-0.0850830172674186,0.9409350572415182,0.3277225934026717,0.1979696205697102,3.0
38.526344299316406,-28.616130828857425,0.576200008392334,-0.0,-0.0,-1.0,0.0771564096644565,2.0
38.5112419128418,-29.17733383178711,0.7934474945068359,-0.0,-0.0,-1.0,0.0835676168539734,2.0
38.93952941894531,-28.56690216064453,0.5387945175170898,-0.0,-0.0,-1.0,0.0164051681645088,2.0
39.35666275024414,-27.770530700683594,0.644871711730957,-0.0,-0.0,-1.0,0.0420980033955906,1.0
39.318721771240234,-28.256731033325195,0.5541062355041504,-0.0,-0.0,-1.0,0.0742842451901802,2.0
39.330833435058594,-28.410385131835938,0.6869515180587769,0.3150812154360904,-0.5772092861661685,-0.7533613128126887,0.1634352607125009,4.0
39.55799102783203,-27.426923751831055,0.6809496879577637,-0.6239150890829146,-0.4478394071048368,-0.6404450226667759,0.1208894740986528,3.0
39.39179229736328,-27.56483459472656,0.6796071529388428,-0.029940613972838,-0.1466486041284783,-0.9887354279796484,0.0801357593246213,4.0
39.90178298950195,-27.37871360778809,0.6371314525604248,0.0910367960549819,-0.9600030882900742,-0.2647760794285683,0.1079773785559363,5.0
40.10646438598633,-27.450532913208008,0.5918433666229248,-0.0,-0.0,-1.0,0.1691699487753425,1.0
40.174072265625,-28.484539031982425,0.7389969825744629,-0.0,-0.0,-1.0,0.0293284750529369,1.0
37.86827087402344,-28.44394874572754,0.9843499660491944,-0.0,-0.0,-1.0,0.1289690713433373,1.0
37.98939514160156,-28.624635696411133,0.9405126571655272,-0.0,-0.0,-1.0,0.1213823336510953,1.0
38.426300048828125,-28.443374633789062,0.9360470771789552,-0.0,-0.0,-1.0,0.0397081721956733,1.0
39.68224334716797,-27.469188690185547,0.9628578424453736,-0.3602266343599096,-0.932502643659692,-0.0259921423783738,0.2201656155837595,3.0
39.627952575683594,-27.564350128173828,0.954715371131897,-0.0,-0.0,-1.0,0.1808498386204811,2.0
39.94805145263672,-27.42803192138672,0.9344559907913208,-0.0,-0.0,-1.0,0.1643263524993432,1.0
39.93999481201172,-27.495452880859375,0.9252594709396362,-0.0,-0.0,-1.0,0.2404578649923393,1.0
39.01335906982422,-29.335752487182617,2.415517091751098,-0.0,-0.0,-1.0,0.0127325714785937,1.0
39.37753677368164,-29.03257179260254,2.420971155166626,-0.0,-0.0,-1.0,0.0573349616872861,1.0
39.748165130615234,-28.762496948242188,2.424323558807373,-0.0,-0.0,-1.0,0.0288118100628929,1.0
40.14847183227539,-28.512065887451172,2.425689220428467,-0.0,-0.0,-1.0,0.0242443133552079,1.0
37.7761116027832,-28.38233184814453,0.8209837675094604,-0.0,-0.0,-1.0,0.1470986438334343,2.0
37.767452239990234,-28.484695434570312,0.8000366687774658,-0.0,-0.0,-1.0,0.1423185730599354,2.0
37.89724349975586,-29.27947235107422,0.6135869026184082,-0.0,-0.0,-1.0,0.0819039284138029,1.0
37.739410400390625,-29.292308807373047,0.6252498626708984,-0.0,-0.0,-1.0,0.041468826966491,1.0
38.04838180541992,-28.75718688964844,0.7121729850769043,-0.0,-0.0,-1.0,0.2298912454526228,1.0
38.06361389160156,-29.20950698852539,0.612555742263794,-0.0,-0.0,-1.0,0.1114684735238604,1.0
38.42741775512695,-28.419952392578125,0.7408983707427979,-0.3001997815446074,0.9538523123050444,0.0067718144459423,0.0968884891556066,4.0
38.61878967285156,-28.85318946838379,0.6283383369445801,-0.0,-0.0,-1.0,0.034262548952858,1.0
38.465240478515625,-29.17639923095703,0.7384524345397949,-0.0,-0.0,-1.0,0.1770811709617015,1.0
39.02039337158203,-28.89032745361328,0.5716569423675537,-0.0,-0.0,-1.0,0.0136116947797069,2.0
38.909393310546875,-28.984210968017575,0.5661880970001221,-0.0,-0.0,-1.0,0.0300289856913689,1.0
39.54058837890625,-27.5046329498291,0.7635446786880493,-0.5451711203980953,-0.6515157876789628,-0.5275562793569482,0.233312959678036,5.0
39.44892120361328,-28.484939575195312,0.5947847366333008,-0.0,-0.0,-1.0,0.1857187081930678,1.0
39.282833099365234,-28.74134826660156,0.5673699378967285,-0.0,-0.0,-1.0,0.0229862887641622,1.0
39.771263122558594,-27.364965438842773,0.7510544061660767,-0.7074826538549555,-0.706616194430103,-0.0127219598910099,0.1270129626989697,4.0
39.80348587036133,-27.398557662963867,0.7398092746734619,-0.4594293054185683,-0.2520890914099136,-0.8516899690114565,0.1324368087339933,4.0
39.71087265014648,-28.059791564941406,0.6365084648132324,-0.0,-0.0,-1.0,0.0615155231372373,2.0
39.666500091552734,-28.394859313964844,0.5806624889373779,-0.0,-0.0,-1.0,0.0663578892495578,1.0
37.85477828979492,-28.252294540405273,1.122715950012207,-0.0,-0.0,-1.0,0.1074756843198547,2.0
38.482078552246094,-28.409095764160156,1.03462553024292,-0.0,-0.0,-1.0,0.0926459061978267,2.0
39.3990364074707,-29.070865631103516,1.1550718545913696,-0.0,-0.0,-1.0,0.1445290411506626,1.0
39.81349182128906,-27.580163955688477,1.0095419883728027,-0.0,-0.0,-1.0,0.1755809168097923,1.0
40.19002532958984,-27.51609230041504,0.9661437273025512,-0.4513564520299384,0.1600316277858539,-0.8778765467417133,0.1809306922277846,4.0
39.2926139831543,-29.105121612548828,1.8106577396392824,-0.0,-0.0,-1.0,0.0192149772466957,1.0
39.798004150390625,-28.76541519165039,2.4541051387786865,-0.0,-0.0,-1.0,0.0288118100628929,1.0
37.840946197509766,-28.43657493591309,0.9185320138931274,-0.0,-0.0,-1.0,0.1671320086040451,1.0
38.40853118896485,-28.20574951171875,0.8973885774612427,-0.0,-0.0,-1.0,0.0391687001191143,2.0
38.41012191772461,-28.475868225097656,0.8442819118499756,-0.0,-0.0,-1.0,0.0578828638350979,2.0
39.71245193481445,-27.44829559326172,0.8394883871078491,-0.0,-0.0,-1.0,0.1306928648146829,2.0
39.588157653808594,-27.534622192382812,0.8459148406982422,-0.0,-0.0,-1.0,0.1274265514918287,1.0
39.41787338256836,-28.448978424072266,0.713563084602356,-0.0,-0.0,-1.0,0.1502996681419292,1.0
40.0007209777832,-27.44607162475586,0.7908895015716553,-0.1841038998491992,-0.9825785781686824,-0.0253986571362802,0.1805513319073959,3.0
39.90834426879883,-28.147531509399418,0.691705584526062,-0.0,-0.0,-1.0,0.0686926178238229,1.0
39.88911819458008,-28.544837951660156,0.6262247562408447,-0.0,-0.0,-1.0,0.0392780257380188,1.0
40.029300689697266,-28.38389587402344,0.6323635578155518,-0.0,-0.0,-1.0,0.0275601621403281,1.0
39.9571647644043,-28.541034698486328,0.6162858009338379,-0.0,-0.0,-1.0,0.0275791492417829,1.0
37.772945404052734,-28.39629364013672,0.9341586828231812,-0.0,-0.0,-1.0,0.123792759330022,1.0
38.43252182006836,-29.076801300048828,1.0275681018829346,-0.0,-0.0,-1.0,0.066173417459786,1.0
39.99729919433594,-27.896053314208984,1.0262457132339478,-0.0,-0.0,-1.0,0.0889124331012199,1.0
40.192832946777344,-27.864912033081055,1.0030055046081543,-0.0,-0.0,-1.0,0.1367588602063031,1.0
39.13687896728515,-29.209836959838867,2.504643201828003,-0.0,-0.0,-1.0,0.0171712400133116,1.0
39.776798248291016,-28.76935577392578,2.505483388900757,-0.0,-0.0,-1.0,0.0288118100628928,2.0
40.02962112426758,-28.58775329589844,2.504855155944824,-0.0,-0.0,-1.0,0.0297476596484768,1.0
38.03518295288086,-28.64086151123047,0.8727853298187256,-0.0,-0.0,-1.0,0.1431055740887738,1.0
38.40171432495117,-28.500244140625,0.8434295654296875,-0.7841636518614877,0.0674169763575233,0.6168811217715005,0.0559500897564577,4.0
38.35845184326172,-29.323566436767575,0.6986629962921143,-0.0,-0.0,-1.0,0.1006062900702388,1.0
39.43082427978515,-28.507633209228516,0.6706216335296631,-0.0,-0.0,-1.0,0.1561831610802817,1.0
37.807125091552734,-28.358726501464844,0.9584333896636964,-0.0,-0.0,-1.0,0.1268898847956803,2.0
37.75663375854492,-28.513010025024418,0.9365235567092896,-0.0,-0.0,-1.0,0.0737291369461257,1.0
38.401611328125,-28.19412422180176,0.8976027965545654,-0.0,-0.0,-1.0,0.0391687001191143,2.0
38.4927864074707,-29.009685516357425,1.035480499267578,-0.0,-0.0,-1.0,0.122999448524423,1.0
38.393775939941406,-29.165910720825195,1.0239406824111938,0.4292557078115405,-0.0678152686435759,-0.900633458544603,0.0690029879162948,3.0
39.05550003051758,-29.30947494506836,2.308926820755005,-0.0,-0.0,-1.0,0.0155535964795647,1.0
39.597801208496094,-26.985671997070312,0.5464470386505127,-0.0,-0.0,-1.0,0.0252564770842158,1.0
40.07569885253906,-28.505672454833984,2.543574810028076,-0.0,-0.0,-1.0,0.0294288190862916,1.0
37.97678756713867,-27.184988021850582,0.7821742296218872,-0.0,-0.0,-1.0,0.1171880840409478,1.0
