x,y,z,nx,ny,nz,curvature,density,label
16.051342010498047,-0.1676979064941406,-0.1508312225341797,0.0353174489510488,0.6133573620192208,-0.7890154778307029,0.0508026043466555,3.0,0.0
16.201908111572266,-0.3012752532958984,-0.1670937538146972,0.3989109209124996,-0.8857500230364411,-0.2373119758201964,0.0640005944664492,3.0,0.0
15.709877967834473,0.0580101013183593,-0.1263542175292968,-0.0,-0.0,-1.0,0.0374137132448561,1.0,0.0
15.873273849487305,-0.0263843536376953,-0.134469985961914,-0.0304414732967637,0.1456578753833522,-0.9888665734275428,0.0397026437226135,6.0,0.0
15.563228607177734,0.1833324432373047,-0.1124753952026367,-0.0,-0.0,-1.0,0.0403438982804993,2.0,0.0
17.487274169921875,0.4245891571044922,-0.0489814281463623,-0.0,-0.0,-1.0,0.0579411677541837,1.0,0.0
16.491634368896484,0.0932254791259765,-0.2772669792175293,-0.0,-0.0,-1.0,0.0321336182038246,1.0,0.0
16.74421501159668,0.0065574645996093,-0.2799525260925293,-0.5115727781005363,0.3832381720881196,-0.7690395283475725,0.0145255455672436,3.0,0.0
17.05844497680664,-0.07867431640625,-0.2810654640197754,-0.0,-0.0,-1.0,0.0213819568315527,2.0,0.0
16.31125831604004,0.2536983489990234,-0.2616777420043945,-0.0,-0.0,-1.0,0.0246058584376966,2.0,0.0
17.394161224365234,0.5860309600830078,-0.1706407070159912,-0.0,-0.0,-1.0,0.1085722271318651,1.0,0.0
17.450801849365234,0.5747241973876953,-0.1705102920532226,-0.0,-0.0,-1.0,0.1382800486734229,1.0,0.0
16.579238891601562,-1.656393051147461,-0.1312074661254882,-0.0,-0.0,-1.0,0.0316314238712294,2.0,0.0
16.756643295288086,-1.6504878997802734,-0.1255507469177246,-0.0,-0.0,-1.0,0.0669676270832794,1.0,0.0
17.050975799560547,-1.7051410675048828,-0.1249163150787353,-0.0,-0.0,-1.0,0.0215097095178111,2.0,0.0
16.103933334350586,-1.302724838256836,-0.10188889503479,-0.0,-0.0,-1.0,0.0496655474603439,1.0,0.0
16.385007858276367,-1.4950637817382812,-0.1167857646942138,-0.0,-0.0,-1.0,0.0154883571615366,2.0,0.0
16.947372436523438,-1.5893287658691406,-0.1127593517303466,-0.7273896568856475,0.3465800711255516,-0.5922723540351917,0.0221543632504142,3.0,0.0
15.824792861938477,-0.8303070068359375,-0.0536620616912841,-0.0,-0.0,-1.0,0.031702151698242,2.0,0.0
15.933122634887695,-1.006816864013672,-0.0713307857513427,-0.0,-0.0,-1.0,0.2160680720234234,1.0,0.0
15.438599586486816,-0.4090080261230469,-0.0181202888488769,-0.0,-0.0,-1.0,0.0389008031176793,2.0,0.0
15.750324249267578,-0.6685810089111328,-0.0367841720581054,-0.0,-0.0,-1.0,0.050658606382646,1.0,0.0
15.514480590820312,-0.3961162567138672,-0.0133278369903564,-0.9078336542205656,0.3028444537372534,0.2900401577456452,0.0332073003934913,4.0,0.0
15.331289291381836,-0.2513866424560547,-0.0039079189300537,-0.0,-0.0,-1.0,0.1092120090221627,2.0,0.0
15.668129920959473,-0.1983165740966797,0.0170376300811767,-0.964461649283576,0.1125450271054439,0.2390551064818299,0.1398212691963563,3.0,1.0
15.915487289428713,-1.7049636840820312,-0.0930747985839843,-0.1605865755109745,-0.0676630898265031,-0.9846997806645378,0.0428182033572501,4.0,0.0
15.72855281829834,-1.3646907806396484,-0.0606861114501953,-0.0,-0.0,-1.0,0.0443399902982939,1.0,0.0
15.45602321624756,-0.9090824127197266,-0.0197644233703613,-0.9707927942506358,-0.0982838703824997,-0.21886441340172,0.0562632562572617,3.0,0.0
15.652694702148438,-1.1245746612548828,-0.0360345840454101,-0.915274558882723,0.179097463286788,0.3608276326811375,0.0409805929727854,3.0,0.0
15.297039985656738,-0.6326923370361328,0.0044522285461425,0.6969287164252561,-0.7140844477194705,-0.0661344520429688,0.0854444832159523,3.0,1.0
16.125734329223633,-1.6733169555664062,-0.0957319736480712,-0.800325409862914,-0.5298681950621713,-0.2805689473005083,0.036164075713162,3.0,0.0
16.330387115478516,-1.731353759765625,-0.0924432277679443,-0.0,-0.0,-1.0,0.0251240732028327,1.0,0.0
15.915592193603516,-1.400897979736328,-0.0760684013366699,-0.0,-0.0,-1.0,0.0551928740417939,1.0,0.0
15.75448513031006,-0.9594440460205078,-0.0364339351654052,-0.3823855362176196,-0.6608737904295291,-0.645776381431584,0.0701895951238882,3.0,0.0
15.402791023254396,-0.4679927825927734,-0.003589391708374,0.3434817091099986,0.924117467054662,0.1674133285952768,0.0382743399988918,3.0,0.0
15.570425987243652,-0.7864704132080078,-0.027864933013916,-0.0,-0.0,-1.0,0.0642829318170217,2.0,0.0
15.257855415344238,-0.2450542449951172,0.0111634731292724,0.4410296712519539,0.8212951693563242,-0.3618937328379151,0.0935710481633882,4.0,1.0
15.691988945007324,-0.2897663116455078,0.0320703983306884,-0.3794762104421001,0.343309114784079,-0.8591487981803124,0.1156837988965236,3.0,1.0
15.969533920288086,-1.5788192749023438,-0.1140601634979248,-0.0,-0.0,-1.0,0.0726698911603634,2.0,0.0
17.153182983398438,-1.8587303161621096,-0.0876402854919433,-0.0,-0.0,-1.0,0.0271925380093708,2.0,0.0
15.886929512023926,-1.3598670959472656,-0.0952849388122558,-0.0,-0.0,-1.0,0.0614052026126523,2.0,0.0
15.63560390472412,-0.8118896484375,-0.0521390438079834,-0.0,-0.0,-1.0,0.0494758249708296,2.0,0.0
15.794605255126951,-0.9610939025878906,-0.0585019588470459,-0.3823855362176196,-0.6608737904295291,-0.645776381431584,0.0776893629096392,3.0,0.0
15.444544792175291,-0.5256843566894531,-0.0342919826507568,-0.0,-0.0,-1.0,0.0365645040711697,1.0,0.0
15.237300872802734,-0.2023086547851562,-0.0145225524902343,-0.0,-0.0,-1.0,0.1014992555607274,2.0,0.0
15.541139602661133,-0.3634853363037109,-0.0117547512054443,-0.0,-0.0,-1.0,0.0314733991905079,2.0,0.0
15.779489517211914,-0.2368831634521484,0.0156176090240478,-0.1512276268680339,0.8792998471816504,-0.451621504822555,0.1655047410584922,9.0,1.0
15.624103546142578,-1.3358211517333984,-0.0226325988769531,-0.6197707955491965,0.2173979190069244,-0.7540704912644275,0.0260517063919942,3.0,0.0
15.67525577545166,-1.3922481536865234,-0.0247979164123535,-0.0,-0.0,-1.0,0.022927461556688,2.0,0.0
15.542424201965332,-0.9963874816894532,0.0039665699005126,-0.0,-0.0,-1.0,0.0624304231083989,2.0,1.0
15.66297721862793,-1.1408729553222656,-0.0018622875213623,-0.0,-0.0,-1.0,0.0394618068716046,2.0,0.0
15.380684852600098,-0.7178764343261719,0.0191137790679931,-0.0,-0.0,-1.0,0.0814208179116464,1.0,1.0
15.254895210266112,-0.4658374786376953,0.0335807800292968,-0.0,-0.0,-1.0,0.021333142215768,2.0,1.0
15.297882080078123,-0.5296802520751953,0.0307304859161376,-0.0,-0.0,-1.0,0.0255947899381085,2.0,1.0
16.82122230529785,-1.4115962982177734,-0.1270654201507568,-0.0,-0.0,-1.0,0.0457542837594939,2.0,0.0
17.075241088867188,-1.4844608306884766,-0.11362886428833,-0.0,-0.0,-1.0,0.0465244973489853,1.0,0.0
17.447450637817383,-1.6395378112792969,-0.0992267131805419,-0.0,-0.0,-1.0,0.0313843394643309,1.0,0.0
16.686954498291016,-1.3461456298828125,-0.1320862770080566,-0.0,-0.0,-1.0,0.044424977933524,1.0,0.0
15.5837984085083,0.1158523559570312,-0.1019482612609863,-0.0,-0.0,-1.0,0.0249690256841372,2.0,0.0
15.786219596862791,-0.0285282135009765,-0.0945963859558105,-0.0,-0.0,-1.0,0.0283172983048368,2.0,0.0
15.695660591125488,0.5994911193847656,-0.0538191795349121,-0.0,-0.0,-1.0,0.0773003149626612,1.0,0.0
17.612165451049805,-0.1914520263671875,-0.3076941967010498,0.8546726023468342,0.2159989033870077,0.4721008541967489,0.0264366069645116,3.0,0.0
17.54610824584961,-0.0413455963134765,-0.3017369508743286,-0.0,-0.0,-1.0,0.0140170710778258,1.0,0.0
17.418153762817383,0.5765008926391602,0.4243983030319214,-0.0,-0.0,-1.0,0.1973240336124549,1.0,1.0
15.275796890258787,-1.653249740600586,-0.0139110088348388,-0.0,-0.0,-1.0,0.0410877758834862,2.0,0.0
16.053686141967773,-1.0708999633789062,0.0401141643524169,-0.0569193511618092,0.4076251031347997,-0.9113736680185918,0.1617740666932933,6.0,1.0
16.646297454833984,-1.4198493957519531,-0.0963627099990844,-0.0,-0.0,-1.0,0.0366142865498974,1.0,0.0
16.359817504882812,-0.9919662475585938,-0.0927784442901611,-0.0,-0.0,-1.0,0.0423704706988342,1.0,0.0
16.494281768798828,-1.2809295654296875,-0.0968053340911865,-0.0,-0.0,-1.0,0.0199666585770008,1.0,0.0
16.218624114990234,-0.463632583618164,-0.0829105377197265,-0.0,-0.0,-1.0,0.0668919756556848,1.0,0.0
15.795188903808594,0.4439001083374023,-0.0731122493743896,-0.0,-0.0,-1.0,0.1059891569828353,1.0,0.0
16.898048400878906,-1.5060100555419922,-0.0916804075241088,-0.0,-0.0,-1.0,0.0303453993074972,2.0,0.0
17.179054260253906,-1.6536235809326172,-0.0880653858184814,-0.0,-0.0,-1.0,0.0291155620010475,1.0,0.0
15.910953521728516,0.6323280334472656,-0.1107935905456543,-0.0,-0.0,-1.0,0.1025810963655355,1.0,0.0
16.04364776611328,-0.2911176681518554,-0.1280494928359985,-0.0,-0.0,-1.0,0.0835738700831328,2.0,0.0
16.21957015991211,-0.6321611404418945,-0.1305890083312988,-0.0,-0.0,-1.0,0.0554706461403595,1.0,0.0
16.247291564941406,-1.045867919921875,-0.1399341821670532,-0.0,-0.0,-1.0,0.0316851908581757,2.0,0.0
16.308292388916016,-1.584062576293945,-0.1516090631484985,-0.0,-0.0,-1.0,0.0222822993157646,1.0,0.0
16.315406799316406,-1.4457130432128906,-0.1478389501571655,-0.0552055948027101,-0.4887250199306627,-0.8706894952830498,0.0146655041091095,3.0,0.0
16.54894256591797,-1.6961030960083008,-0.1468156576156616,-0.0,-0.0,-1.0,0.0215009031050417,1.0,0.0
17.613327026367188,-0.0729293823242187,-0.344709038734436,-0.0,-0.0,-1.0,0.0183823236802651,2.0,0.0
17.655902862548828,-0.0481452941894531,-0.3449354171752929,-0.0,-0.0,-1.0,0.0149259934602482,2.0,0.0
16.498706817626953,-0.0891323089599609,-0.2459361553192138,-0.0,-0.0,-1.0,0.0385189480935456,1.0,0.0
16.557044982910156,-0.3345527648925781,-0.2472243309020996,-0.0,-0.0,-1.0,0.0181323479443699,1.0,0.0
16.67908477783203,-0.6211442947387695,-0.2466106414794922,-0.0,-0.0,-1.0,0.0389642530174005,2.0,0.0
17.016803741455078,-0.7013006210327148,-0.2339379787445068,-0.0,-0.0,-1.0,0.0924022453964611,2.0,0.0
17.527748107910156,-0.8459968566894531,-0.2152448892593383,-0.4512438641037083,0.1561221630379516,-0.8786380627522946,0.0918369494050192,5.0,0.0
17.27041244506836,-0.8106422424316406,-0.225248098373413,-0.0,-0.0,-1.0,0.0178238245010821,2.0,0.0
16.30352020263672,0.3520231246948242,-0.2751517295837402,-0.0,-0.0,-1.0,0.0373444476219301,1.0,0.0
16.523853302001953,-0.0122566223144531,-0.2663158178329468,0.0252165624650947,0.9768993334847844,-0.2122070149981555,0.0173558140025734,3.0,0.0
16.67917251586914,-1.1054182052612305,-0.2649039030075073,-0.0,-0.0,-1.0,0.0298532595256025,2.0,0.0
16.4609375,-0.9369544982910156,-0.2740814685821533,-0.0,-0.0,-1.0,0.0504077288691171,1.0,0.0
16.820281982421875,-1.3131179809570312,-0.2596522569656372,-0.0,-0.0,-1.0,0.0372271394062408,1.0,0.0
17.49742317199707,-1.8130769729614256,-0.231797456741333,-0.0,-0.0,-1.0,0.0645881419825061,1.0,0.0
16.836957931518555,-1.6974763870239258,-0.2614648342132568,-0.0,-0.0,-1.0,0.041062704778837,1.0,0.0
17.69112777709961,0.2653617858886719,0.267797589302063,-0.0,-0.0,-1.0,0.206342748167511,1.0,1.0
15.919563293457031,0.445169448852539,0.0395827293395996,-0.0,-0.0,-1.0,0.2701269552938103,1.0,1.0
16.009517669677734,-0.9706907272338868,-0.0048012733459472,-0.0,-0.0,-1.0,0.1944113754975105,1.0,0.0
15.702251434326172,-0.8351736068725586,-0.008711814880371,-0.0,-0.0,-1.0,0.0467050414633036,1.0,0.0
15.993703842163086,-1.6803455352783203,-0.0290648937225341,-0.0,-0.0,-1.0,0.0356029854458029,1.0,0.0
15.807510375976562,-1.371355056762695,-0.0237574577331542,-0.0,-0.0,-1.0,0.0565340978362239,1.0,0.0
16.524147033691406,-0.1701669692993164,-0.2437872886657714,0.7052414838505049,0.5953608385724715,-0.3849414518477086,0.0395772630372269,3.0,0.0
17.08616065979004,-0.8117866516113281,-0.2211766242980957,-0.7357666834330027,-0.4451928370861582,-0.5103437325540279,0.0503768257518871,6.0,0.0
16.835609436035156,-0.6707582473754883,-0.2321685552597046,0.7691437579197122,0.5649065263368357,-0.2988285397267025,0.0890899895606181,3.0,0.0
16.58768653869629,-0.3951330184936523,-0.2421903610229492,-0.0,-0.0,-1.0,0.011827972851644,1.0,0.0
16.419052124023438,-0.0858888626098632,-0.2482762336730957,-0.0,-0.0,-1.0,0.0620224856569566,2.0,0.0
17.694068908691406,0.3429450988769531,-0.2829087972640991,-0.0,-0.0,-1.0,0.2263820567497415,1.0,0.0
17.533180236816406,0.157379150390625,-0.2944380044937134,-0.0,-0.0,-1.0,0.0775487172828995,1.0,0.0
17.369558334350586,-0.0310220718383789,-0.3061625957489013,0.7548319101178874,0.3254207930541062,-0.5694998638417909,0.0266359598901043,4.0,0.0
17.624975204467773,0.3405704498291015,-0.2293808460235595,-0.0,-0.0,-1.0,0.2112301405317894,2.0,0.0
17.091981887817383,-0.5069742202758789,-0.2748632431030273,-0.0,-0.0,-1.0,0.0593676951795128,2.0,0.0
16.918298721313477,-0.3142509460449219,-0.2792993783950805,-0.0,-0.0,-1.0,0.0258501795509346,2.0,0.0
17.40943717956543,-0.6714630126953125,-0.2626458406448364,0.3238314003828991,0.000809826214695,-0.9461144583545652,0.0318329764383041,3.0,0.0
17.213104248046875,-0.6106443405151367,-0.2711092233657837,-0.0,-0.0,-1.0,0.0620111527862723,1.0,0.0
16.295612335205078,0.5814266204833984,-0.2332618236541748,-0.0,-0.0,-1.0,0.0341256474803145,2.0,0.0
16.568361282348633,-0.4547834396362304,-0.2469643354415893,-0.8830158479163004,-0.0938994580834692,-0.459854220487632,0.0141675784186085,3.0,0.0
17.58683204650879,-1.001906394958496,-0.2129299640655517,-0.0,-0.0,-1.0,0.0271321989295697,1.0,0.0
17.241880416870117,-0.8664455413818359,-0.2257050275802612,-0.330485862363615,0.9128302873188004,0.2398331948068362,0.0475198976286547,3.0,0.0
16.935331344604492,-0.7546510696411133,-0.2373373508453369,-0.0,-0.0,-1.0,0.1051679014464753,2.0,0.0
16.718149185180664,-0.6510286331176758,-0.2449568510055542,0.7437217278011202,0.631672126508609,-0.2187882907941103,0.0474044067027769,5.0,0.0
15.955995559692385,0.3421487808227539,-0.1887928247451782,-0.0,-0.0,-1.0,0.055449469484048,1.0,0.0
17.427465438842773,-0.9468212127685548,-0.2019639015197754,-0.0,-0.0,-1.0,0.0260939124422719,1.0,0.0
17.05687713623047,-0.8077182769775391,-0.2076656818389892,-0.7714188405733171,-0.293422194124146,-0.5646382810294491,0.0660352286411913,8.0,0.0
16.611522674560547,-0.7635078430175781,-0.2207133769989013,-0.0,-0.0,-1.0,0.0273737309783492,2.0,0.0
16.433719635009766,-0.5950736999511719,-0.2184596061706543,-0.0,-0.0,-1.0,0.017914589308262,1.0,0.0
16.229068756103516,0.4412736892700195,-0.2463541030883789,0.0108792491442003,0.8264136257990374,-0.5629584008004037,0.015449308967503,3.0,0.0
16.25811195373535,0.622258186340332,-0.2381513118743896,-0.0,-0.0,-1.0,0.0641592942597218,2.0,0.0
17.29608726501465,-0.7558002471923828,-0.2415965795516967,-0.0,-0.0,-1.0,0.0324313491234285,2.0,0.0
16.92048454284668,-0.6343278884887695,-0.2545846700668335,-0.0,-0.0,-1.0,0.1021690590805555,1.0,0.0
16.650737762451172,-0.4915742874145508,-0.2618240118026733,-0.76372558585344,0.3122949670750755,-0.5649735242048052,0.0198374198944737,4.0,0.0
15.300674438476562,-0.220987319946289,-0.0107357501983642,0.3617639652364497,0.5209537548613397,-0.7731326010150342,0.1098174210834718,4.0,0.0
15.763158798217772,-1.152364730834961,-0.0232515335083007,-0.0,-0.0,-1.0,0.0827453719255698,1.0,0.0
15.743524551391602,-1.6388168334960938,-0.0400192737579345,-0.0,-0.0,-1.0,0.0209835114627067,2.0,0.0
15.22087860107422,-0.2241582870483398,0.0035994052886962,-0.1508434058329591,-0.5614556742373361,-0.8136423002667765,0.0899313279315387,3.0,1.0
15.371191024780272,-0.4567775726318359,-0.00066339969635,0.3434817091099986,0.924117467054662,0.1674133285952768,0.0347265520284372,3.0,0.0
15.726709365844728,-1.2223186492919922,-0.0196824073791503,-0.0,-0.0,-1.0,0.1329973264909729,2.0,0.0
15.714345932006836,-1.578744888305664,-0.0345618724822998,-0.0,-0.0,-1.0,0.022957246727357,2.0,0.0
15.74431037902832,-1.7994384765625,-0.0425570011138916,0.2220778741345399,0.5217105480072838,-0.8237108242082428,0.0187919962296203,3.0,0.0
16.21034812927246,0.3422098159790039,-0.2820898294448852,-0.0,-0.0,-1.0,0.0211003303641034,2.0,0.0
16.32848358154297,-0.042154312133789,-0.2944450378417969,-0.0,-0.0,-1.0,0.0928923053217659,2.0,0.0
16.22711944580078,0.085637092590332,-0.2934553623199463,-0.0,-0.0,-1.0,0.0443469394465772,1.0,0.0
17.47481346130371,-0.8533840179443359,-0.2762088775634765,-0.0,-0.0,-1.0,0.029750098355506,2.0,0.0
17.104450225830078,-0.7588443756103516,-0.2900290489196777,-0.0,-0.0,-1.0,0.0431369519658516,1.0,0.0
16.87744140625,-0.6428260803222656,-0.2957429885864258,-0.0,-0.0,-1.0,0.0600608739392328,1.0,0.0
17.68436050415039,-0.7890338897705078,-0.2626959085464477,-0.0,-0.0,-1.0,0.084576754086395,1.0,0.0
15.99737548828125,-1.0597381591796875,0.1078397035598754,-0.49601580205896,0.839926580609109,0.2202082271262745,0.1137834350918411,3.0,1.0
16.89887809753418,0.4742155075073242,-0.2821204662322998,0.8127984160295446,-0.335260941511832,-0.4764019689258885,0.0410840097779082,3.0,0.0
17.520343780517578,-0.5427074432373047,-0.2898511886596679,-0.0,-0.0,-1.0,0.0344876237485117,2.0,0.0
17.22317886352539,-0.3646202087402344,-0.2994558811187744,-0.0,-0.0,-1.0,0.0387017341914262,2.0,0.0
17.662418365478516,-0.2104015350341797,-0.3150371313095093,-0.0,-0.0,-1.0,0.0309622932039904,2.0,0.0
17.183914184570312,0.472696304321289,-0.2961239814758301,-0.0,-0.0,-1.0,0.0514680844538248,2.0,0.0
17.618724822998047,-0.1712570190429687,-0.3288087844848633,0.8546726023468342,0.2159989033870077,0.4721008541967489,0.0240798800335513,3.0,0.0
16.101093292236328,-1.123067855834961,0.0542550086975097,-0.0457053107289973,-0.1453784882040145,-0.9883198468808978,0.211000868726922,3.0,1.0
15.405068397521973,-1.8568058013916016,0.0038305521011352,-0.0,-0.0,-1.0,0.03365757700049,1.0,1.0
15.340785026550291,-0.5630626678466797,-0.0008070468902587,0.920820252949434,-0.2700961275939241,0.2813150255796997,0.0321194429514503,3.0,0.0
15.240328788757324,-0.3903236389160156,0.0107492208480834,-0.0,-0.0,-1.0,0.0576396737919025,1.0,1.0
15.392131805419922,-0.6210727691650391,-0.0045952796936035,0.7973949768003358,0.5080372607029462,0.3256676107798236,0.0542323936038156,3.0,0.0
15.891656875610352,-1.5447273254394531,-0.0670760869979858,-0.9157221227937716,-0.2868283215742411,-0.2813938659050209,0.0366559649005694,3.0,0.0
16.11051368713379,-1.830400466918945,-0.0862289667129516,-0.0,-0.0,-1.0,0.0368002617677353,1.0,0.0
15.930791854858398,-1.7737541198730469,-0.0830790996551513,-0.6412199003275462,0.7561301676209367,0.1307830609729943,0.0333924560757294,4.0,0.0
15.908599853515623,0.1309490203857422,-0.2161433696746826,-0.0,-0.0,-1.0,0.0697288918288362,2.0,0.0
16.02231216430664,0.0005302429199218,-0.2262195348739624,-0.0,-0.0,-1.0,0.0275646419984389,1.0,0.0
16.598995208740234,-0.6048603057861328,-0.2735652923583984,-0.0,-0.0,-1.0,0.0248360346259809,1.0,0.0
16.714162826538086,-0.6688423156738281,-0.2782666683197021,-0.4771174339185688,0.7974500956477192,-0.3693674311609021,0.0466847055284639,3.0,0.0
15.275280952453612,-0.2737541198730469,-0.0170353651046752,-0.8396056063148467,-0.1367354289500647,-0.5257050963368345,0.1019362929362043,4.0,0.0
15.785818099975586,-0.9063034057617188,-0.0583298206329345,-0.5081233852370481,0.1611212763988372,-0.8460795232523073,0.0393219886984557,3.0,0.0
16.475135803222656,-1.8047752380371096,-0.1197738647460937,-0.0,-0.0,-1.0,0.0427532916054423,1.0,0.0
17.449514389038086,-1.8329086303710935,-0.116212248802185,-0.0,-0.0,-1.0,0.0660357037499677,2.0,0.0
15.315984725952148,0.0173406600952148,-0.0927134752273559,-0.0,-0.0,-1.0,0.0319478226359929,1.0,0.0
15.812707901000977,-0.0340185165405273,-0.1050865650177002,-0.4079581744764591,-0.4015627514856189,-0.8199496841252721,0.0283479453787632,3.0,0.0
15.5677490234375,-0.0407342910766601,-0.102049708366394,0.0360523019438795,-0.3669759613272356,-0.9295315354158238,0.0277418249734525,3.0,0.0
16.21589469909668,-0.8286104202270508,-0.1902382373809814,-0.0,-0.0,-1.0,0.0628607170236913,2.0,0.0
16.26251983642578,-0.8619842529296875,-0.1943674087524414,-0.0,-0.0,-1.0,0.0627254432628351,1.0,0.0
15.831216812133787,0.5915565490722656,-0.1746381521224975,-0.0,-0.0,-1.0,0.0946840330073163,1.0,0.0
16.135889053344727,0.2279901504516601,-0.2229955196380615,-0.0,-0.0,-1.0,0.0339015188746398,1.0,0.0
16.76905059814453,-0.0574684143066406,-0.2713217735290527,-0.0,-0.0,-1.0,0.0119453330016837,1.0,0.0
15.668462753295898,0.3879318237304687,-0.1519060134887695,-0.0,-0.0,-1.0,0.0577589455515192,1.0,0.0
15.849924087524414,0.1971206665039062,-0.1760201454162597,-0.0,-0.0,-1.0,0.0661558447353945,2.0,0.0
16.097410202026367,0.0337438583374023,-0.1981911659240722,0.589969028711369,0.6235793273183189,-0.512918480562552,0.0316326672805775,3.0,0.0
15.432432174682615,-1.7102632522583008,-0.0245614051818847,-0.0,-0.0,-1.0,0.0330916305127381,1.0,0.0
17.118759155273438,0.5087823867797852,-0.3120177984237671,-0.0,-0.0,-1.0,0.0374484017143244,2.0,0.0
15.879898071289062,-1.5390987396240234,-0.0345474481582641,-0.0,-0.0,-1.0,0.0354390329615198,2.0,0.0
15.745938301086426,-1.7266111373901367,-0.0468319654464721,-0.0,-0.0,-1.0,0.0213022661121078,1.0,0.0
15.258373260498049,-0.9074764251708984,-0.0055595636367797,-0.2392682007643737,-0.5102031723741389,-0.826101356373626,0.154827386177691,5.0,0.0
15.253646850585938,-1.0736761093139648,-0.0249350070953369,-0.0,-0.0,-1.0,0.0896828416290123,1.0,0.0
15.602636337280272,-1.144822120666504,-0.0490753650665283,-0.0,-0.0,-1.0,0.03788278002359,2.0,0.0
15.870916366577148,-1.579275131225586,-0.114618182182312,-0.0,-0.0,-1.0,0.0241817182902342,1.0,0.0
17.122940063476562,0.392496109008789,-0.3442816734313965,-0.0,-0.0,-1.0,0.0248230623320104,1.0,0.0
15.594962120056152,0.0616054534912109,-0.0976095199584961,-0.0,-0.0,-1.0,0.0390588835965768,2.0,0.0
15.892108917236328,-0.1157121658325195,-0.1245205402374267,-0.7588646321734096,-0.1220896457240928,-0.6397019528212193,0.1035032825885225,3.0,0.0
16.295068740844727,-0.2052583694458007,-0.1432600021362304,-0.0,-0.0,-1.0,0.0425190816372804,1.0,0.0
16.18490982055664,-0.3121109008789062,-0.1552238464355468,0.3989109209124996,-0.8857500230364411,-0.2373119758201964,0.0791029617871187,3.0,0.0
15.622614860534668,0.197056770324707,-0.1349564790725708,-0.0,-0.0,-1.0,0.0425463670763614,2.0,0.0
15.814555168151855,0.0678787231445312,-0.1536756753921508,0.9781391673104188,0.0816492236526399,-0.1912515977716309,0.0220677133948451,3.0,0.0
16.10686492919922,-0.1032571792602539,-0.1799983978271484,-0.0,-0.0,-1.0,0.044375401868381,2.0,0.0
16.368770599365234,-0.1403236389160156,-0.188821792602539,0.6971038613891618,-0.2975069642245285,-0.652331060638864,0.0884377377940363,4.0,0.0
16.393417358398438,-0.2844982147216797,-0.2089412212371826,-0.0,-0.0,-1.0,0.0433405905557603,1.0,0.0
15.650800704956056,-0.9603748321533204,-0.057323932647705,-0.0,-0.0,-1.0,0.0456063183626285,1.0,0.0
15.838494300842283,-1.326913833618164,-0.0957515239715576,0.6263085165345492,0.1627738095687171,-0.7623925032650697,0.0571337623316655,4.0,0.0
15.920527458190918,-1.5192880630493164,-0.1164159774780273,-0.3557672842634514,-0.5363044914742108,-0.7653803837781552,0.0629535489947369,4.0,0.0
15.767359733581545,-1.032994270324707,-0.0642073154449462,-0.0,-0.0,-1.0,0.0737979403531412,2.0,0.0
15.882476806640623,-1.2846784591674805,-0.0909409523010253,-0.0,-0.0,-1.0,0.0628992962555876,2.0,0.0
16.143470764160156,-1.6800537109375,-0.1336026191711425,-0.7925705452699585,-0.5445932296467322,-0.2743175987672357,0.035370293832793,3.0,0.0
16.21278190612793,-1.7661733627319336,-0.1429930925369262,-0.0,-0.0,-1.0,0.020828113094559,2.0,0.0
16.777843475341797,0.4640407562255859,-0.2905869483947754,-0.0430446683634205,-0.971071632505204,0.2348766507534564,0.0338904485757973,4.0,0.0
17.617401123046875,-1.667558670043945,-0.1425094604492187,0.0014048980970625,-0.447305896634299,-0.8943799310681801,0.0787509528023528,3.0,0.0
16.963830947875977,0.3374900817871094,-0.3073868751525879,-0.0,-0.0,-1.0,0.0410331541532555,1.0,0.0
15.33736801147461,-0.5968074798583984,-0.0220212936401367,-0.0,-0.0,-1.0,0.0337937223727468,2.0,0.0
15.703351974487305,-0.3439350128173828,0.0096721649169921,-0.0,-0.0,-1.0,0.068493958143622,2.0,1.0
15.94556999206543,-1.117229461669922,0.1072902679443359,-0.7090119585336696,-0.1889425708123651,-0.6794135320929844,0.1463639712914235,8.0,1.0
15.718894958496094,0.1957550048828125,-0.1613001823425293,0.3531089601848379,-0.6718782084675499,-0.6510712213142411,0.0300658554708759,3.0,0.0
16.054637908935547,-0.0261974334716796,-0.1973263025283813,0.0243180418385029,0.4168656661659923,-0.9086427511476248,0.0502989434954233,4.0,0.0
16.29438591003418,-0.1028289794921875,-0.2129594087600708,-0.0,-0.0,-1.0,0.112133098385809,2.0,0.0
16.485763549804688,-0.2446556091308593,-0.2378040552139282,-0.7897648761185933,-0.4339496217316658,-0.4335425772035854,0.0388513556198326,3.0,0.0
16.720691680908203,-0.3845167160034179,-0.2643171548843384,-0.0,-0.0,-1.0,0.0202663419916568,2.0,0.0
15.510848999023438,-1.385457992553711,-0.0340876579284668,-0.0,-0.0,-1.0,0.033972468303592,1.0,0.0
15.704306602478027,-1.6237611770629885,-0.0613393783569335,-0.0,-0.0,-1.0,0.0226510188539133,2.0,0.0
15.413225173950195,-1.127389907836914,-0.0056260824203491,-0.0,-0.0,-1.0,0.0437255601905689,1.0,0.0
15.524700164794922,-1.1700162887573242,-0.010649561882019,-0.5667228530681651,0.0650880024547839,-0.821333525278693,0.0298009846119672,3.0,0.0
16.164724349975586,0.2516021728515625,-0.2580845355987549,-0.0,-0.0,-1.0,0.0367574863271792,1.0,0.0
16.284269332885742,0.1323862075805664,-0.2742420434951782,-0.0,-0.0,-1.0,0.0428954968025734,1.0,0.0
16.119041442871094,0.516413688659668,-0.2212394475936889,-0.0,-0.0,-1.0,0.1477385395159799,1.0,0.0
16.354991912841797,0.1217327117919921,-0.2753347158432007,-0.0,-0.0,-1.0,0.049091375786029,2.0,0.0
15.22121238708496,-0.9123744964599608,0.0176881551742553,-0.2243373667336473,-0.4874640109388266,-0.8438314902434281,0.180214672643576,4.0,1.0
17.662214279174805,0.5172119140625,0.1502937078475952,-0.0,-0.0,-1.0,0.2558731713132762,1.0,1.0
15.573976516723633,0.4420433044433594,-0.1617166996002197,-0.0,-0.0,-1.0,0.0541009387349607,1.0,0.0
15.714226722717283,0.2093572616577148,-0.1778689622879028,0.1543132945089446,-0.2784945324494243,-0.9479600215903474,0.0300658554708759,4.0,0.0
17.53371810913086,-0.9146623611450196,-0.2265934944152832,-0.3925835407028373,0.413906459201366,-0.82131577764013,0.0281925696930784,3.0,0.0
17.40943717956543,-0.8436822891235352,-0.224162220954895,-0.0,-0.0,-1.0,0.0287112953310999,2.0,0.0
17.684810638427734,-1.0229597091674805,-0.2259728908538818,-0.0,-0.0,-1.0,0.0203237599897304,2.0,0.0
16.628517150878906,-0.5337657928466797,-0.2505698204040527,-0.5010558685212192,0.0285274551686988,-0.8649446230378249,0.0303945270113239,4.0,0.0
17.449199676513672,-0.82025146484375,-0.218935489654541,-0.3122555680721194,0.6782797928166596,-0.6651563597114198,0.0289828891939324,3.0,0.0
17.555370330810547,-0.8071746826171875,-0.2103762626647949,-0.3971800103718844,0.3869575740795502,-0.8321729839543334,0.1208911286109852,3.0,0.0
16.755529403686523,-1.8303022384643557,-0.1347855329513549,-0.5761174306570019,0.7225978746546274,-0.3820222737456416,0.0677720026444381,3.0,0.0
16.11882781982422,-1.6089744567871094,-0.1545920372009277,-0.0,-0.0,-1.0,0.0560118592560992,2.0,0.0
16.42028045654297,-1.707291603088379,-0.1440938711166381,0.3091977542565217,-0.6943127057994362,-0.6498666134894062,0.0193649766623306,4.0,0.0
16.58844757080078,-1.7930545806884766,-0.1411770582199096,-0.1343984364757721,-0.3002225461107516,-0.9443534735890188,0.0438560536808822,3.0,0.0
16.00172233581543,-1.059865951538086,-0.1194143295288086,0.2946315136764946,0.0390371594592282,-0.9548132651623834,0.2413938786298627,3.0,0.0
15.844846725463867,-0.6094589233398438,-0.0961657762527465,-0.0,-0.0,-1.0,0.0720381730450042,2.0,0.0
15.887126922607422,-0.7816104888916016,-0.1060527563095092,-0.0,-0.0,-1.0,0.0559980108899335,2.0,0.0
15.855788230895996,-0.326171875,-0.0745903253555297,-0.0,-0.0,-1.0,0.064302629190103,2.0,0.0
17.063634872436523,0.4866256713867187,-0.3373852968215942,-0.0,-0.0,-1.0,0.0443908896192108,2.0,0.0
17.263574600219727,0.5202140808105469,-0.3167561292648315,0.6229585181216436,-0.7274965721934592,-0.2875263851309176,0.070352461878298,4.0,0.0
17.555448532104492,0.5213336944580078,0.1039623022079467,0.2435375782502111,0.4157016669881037,-0.876288521003975,0.21877734288152,3.0,1.0
17.29950714111328,-1.086409568786621,-0.1674913167953491,-0.0,-0.0,-1.0,0.0204217704944306,1.0,0.0
17.630178451538086,-1.2978439331054688,-0.1526087522506714,-0.0,-0.0,-1.0,0.0289611913160379,1.0,0.0
16.99533462524414,-0.9196805953979492,-0.1846098899841308,-0.0,-0.0,-1.0,0.0422667578373431,1.0,0.0
17.149532318115234,-0.9003744125366211,-0.1687504053115844,-0.0,-0.0,-1.0,0.0681572836874827,2.0,0.0
16.44146728515625,-0.2253408432006836,-0.1956676244735717,-0.0,-0.0,-1.0,0.057070007042156,1.0,0.0
16.20479965209961,0.0932426452636718,-0.2019522190093994,-0.0,-0.0,-1.0,0.044311435857914,1.0,0.0
16.40642547607422,-0.0547523498535156,-0.1891402006149292,-0.0,-0.0,-1.0,0.1221612593440569,1.0,0.0
16.109760284423828,0.4247980117797851,-0.1936310529708862,-0.0,-0.0,-1.0,0.1170166509805643,1.0,0.0
16.924964904785156,-1.3952484130859375,-0.1728832721710205,-0.4883343268876655,-0.2999634681578585,-0.8194824604308987,0.0406173730001456,5.0,0.0
17.268959045410156,-1.5610151290893557,-0.1506383419036865,0.6489032023618211,0.1919101174932483,-0.7362711054824176,0.0612723603097686,3.0,0.0
17.586212158203125,-1.7111854553222656,-0.1311608552932739,0.1596508221194674,-0.1733612265180691,-0.9718320328826008,0.0968775691031751,4.0,0.0
16.61812400817871,-1.103377342224121,-0.186591625213623,-0.4168325058964778,-0.5728149250264496,-0.7057858908302189,0.0354158834959206,5.0,0.0
16.754438400268555,-1.2126588821411133,-0.179195761680603,-0.0,-0.0,-1.0,0.0336692227673386,1.0,0.0
16.234928131103516,-0.1510858535766601,-0.1794056892395019,-0.0,-0.0,-1.0,0.0545226529220168,2.0,0.0
15.970502853393556,0.2621107101440429,-0.1899359226226806,-0.0,-0.0,-1.0,0.0628782772993662,2.0,0.0
16.06686019897461,0.0714454650878906,-0.1874947547912597,0.589969028711369,0.6235793273183189,-0.512918480562552,0.0199506274154737,3.0,0.0
15.927240371704102,0.6312627792358398,-0.1801729202270507,-0.0,-0.0,-1.0,0.1287340151490218,2.0,0.0
17.266239166259766,-1.6926259994506836,-0.0178402662277221,-0.0,-0.0,-1.0,0.0384010473781803,1.0,0.0
17.201065063476562,-1.4035539627075195,-0.0401872396469116,-0.0,-0.0,-1.0,0.0313047255247984,1.0,0.0
17.157825469970703,-0.9013900756835938,-0.0671557188034057,-0.0,-0.0,-1.0,0.0827605553247024,1.0,0.0
16.94253921508789,-0.5835485458374023,-0.1177386045455932,-0.0,-0.0,-1.0,0.0783173982603381,1.0,0.0
17.074892044067383,-0.6984148025512695,-0.0897420644760131,-0.0,-0.0,-1.0,0.1126965724400699,1.0,0.0
17.676786422729492,-0.6921958923339844,0.0159846544265747,-0.0,-0.0,-1.0,0.1632253939540315,1.0,1.0
15.223859786987305,-1.1190118789672852,0.1696634292602539,-0.0,-0.0,-1.0,0.0896820757561991,1.0,1.0
15.976425170898438,-1.1083488464355469,0.2836629152297973,-0.0,-0.0,-1.0,0.1593133414218915,1.0,1.0
15.360821723937988,-0.7755594253540039,0.1679689884185791,-0.0,-0.0,-1.0,0.1141767344167051,1.0,1.0
15.351816177368164,-0.8944149017333984,0.174420952796936,-0.0,-0.0,-1.0,0.1620115111694998,1.0,1.0
15.390907287597656,-0.2781982421875,0.139722466468811,-0.0,-0.0,-1.0,0.0700028907985926,1.0,1.0
15.723740577697754,-0.2651433944702148,0.1897581815719604,-0.0,-0.0,-1.0,0.1748819622851929,2.0,1.0
17.568912506103516,0.590367317199707,0.4150712490081787,-0.0,-0.0,-1.0,0.1490010698128688,1.0,1.0
17.535911560058594,-0.5174942016601562,-0.2877001762390136,-0.0,-0.0,-1.0,0.0415683955498277,2.0,0.0
17.211585998535156,-0.2400045394897461,-0.3008005619049072,-0.0,-0.0,-1.0,0.0162393369013946,1.0,0.0
17.389179229736328,-0.3766584396362304,-0.2924849987030029,-0.0,-0.0,-1.0,0.0369690281870662,1.0,0.0
17.491085052490234,0.224095344543457,-0.2494832277297973,-0.0,-0.0,-1.0,0.1206469202962923,1.0,0.0
15.733797073364258,-1.8323373794555664,-0.0662285089492797,-0.0,-0.0,-1.0,0.0173215729055351,2.0,0.0
15.761573791503906,-1.537348747253418,-0.0571551322937011,0.6916819105711227,-0.5147345000200676,-0.5065812166649812,0.0283344516002277,4.0,0.0
15.651851654052734,-0.8954343795776367,-0.0465242862701416,-0.0,-0.0,-1.0,0.0334348961866563,2.0,0.0
15.779544830322266,-1.2114944458007812,-0.04792320728302,-0.0,-0.0,-1.0,0.0707746675524434,1.0,0.0
15.611997604370115,-0.6118202209472656,-0.0416367053985595,-0.0,-0.0,-1.0,0.0435962912982738,1.0,0.0
15.821447372436523,-0.4243192672729492,-0.0265066623687744,-0.0185779622695164,0.5356182216652072,-0.844255873499328,0.0437521225314058,3.0,0.0
15.80693817138672,-0.2569961547851562,-0.0232913494110107,-0.0,-0.0,-1.0,0.1484659562774248,2.0,0.0
17.666751861572266,0.4737615585327148,0.0888043642044067,-0.5595437507182736,0.582855206773561,-0.5892288171577119,0.194853606164696,3.0,1.0
15.928525924682615,-1.3466405868530271,-0.0828819274902343,-0.2322435415993185,0.9452779024766892,-0.2291563319541408,0.0622457822261926,3.0,0.0
15.915851593017578,-1.6649188995361328,-0.0916193723678588,0.1251374998190253,0.0348985291125072,-0.991525440321542,0.0460724040671777,3.0,0.0
15.495220184326172,-0.1980133056640625,-0.0780795812606811,-0.0,-0.0,-1.0,0.0818455926700811,2.0,0.0
15.792203903198242,-0.3724603652954101,-0.0665019750595092,-0.0788635888631774,-0.9813769957641172,-0.175156291741447,0.0849821440427726,4.0,0.0
15.82184600830078,-0.7478847503662109,-0.073769211769104,-0.0,-0.0,-1.0,0.0482065630097942,2.0,0.0
15.92402458190918,-1.1219720840454102,-0.0775363445281982,-0.0,-0.0,-1.0,0.1795550419442961,1.0,0.0
15.976585388183594,-0.2744789123535156,-0.0545605421066284,-0.8964750484999474,0.2319637866847416,-0.3775252164874454,0.0904148319266142,4.0,0.0
17.69508171081543,0.4642572402954101,0.0525002479553222,-0.7311513599351802,0.6442699563263791,-0.2243522057839905,0.1665997827610356,4.0,1.0
17.706262588500977,0.4311757087707519,-0.3082513809204101,-0.0,-0.0,-1.0,0.1868971298213201,1.0,0.0
17.590972900390625,0.0155496597290039,-0.3346161842346191,-0.0,-0.0,-1.0,0.0135903743130584,1.0,0.0
16.421310424804688,0.0705571174621582,-0.2607839107513428,-0.6062125380995051,0.1145428006587848,-0.7870109945027435,0.0796548177357625,5.0,0.0
16.60276985168457,-0.1718554496765136,-0.2589106559753418,-0.5446128497460594,-0.7188742406249398,-0.4319915161868251,0.0213001272216341,3.0,0.0
16.808637619018555,-0.4499092102050781,-0.2573919296264648,-0.0,-0.0,-1.0,0.0205694579204306,1.0,0.0
17.0479679107666,-0.5739750862121582,-0.248192548751831,-0.0,-0.0,-1.0,0.0806343939509175,2.0,0.0
17.60941505432129,-0.5844516754150391,-0.2154088020324707,0.1358569122729629,-0.965547529972925,0.2219478919720583,0.1715670089445996,3.0,0.0
17.56493377685547,-0.8368935585021973,-0.2287598848342895,-0.3309169059319476,0.234109498819394,-0.9141590364542476,0.1158972788281201,4.0,0.0
17.622732162475586,0.4261155128479004,-0.1748859882354736,0.7008129489269169,-0.5933939602810598,-0.3959101141904794,0.1355725034789299,4.0,0.0
17.22599983215332,0.2375779151916504,-0.3058218955993652,-0.6014434003519621,-0.6810783028653586,-0.4176100831387006,0.0399865666048091,4.0,0.0
17.569578170776367,0.4357972145080566,-0.2762445211410522,0.0639730012950276,-0.82984139949753,0.5543200400357966,0.2871759991356389,5.0,0.0
17.407224655151367,0.0384497642517089,-0.300006628036499,-0.0840612701033507,0.300873012543877,-0.949952174160038,0.0271805842548897,3.0,0.0
17.483192443847656,-0.2327184677124023,-0.3039795160293579,-0.0,-0.0,-1.0,0.0320077543523714,1.0,0.0
17.661684036254883,0.6077609062194824,-0.2647047042846679,-0.9214345850312674,0.3322398536879314,0.201432333873383,0.1565944587987446,3.0,0.0
17.47580909729004,0.0518720149993896,-0.3063486814498901,-0.0,-0.0,-1.0,0.0328341522531835,1.0,0.0
17.64324378967285,0.4452621936798095,-0.2923247814178467,-0.4582006550791875,-0.7852136208798233,-0.4165233838211246,0.211970398112791,3.0,0.0
17.57834243774414,-0.1187291145324707,-0.2996560335159302,-0.0,-0.0,-1.0,0.0264133930629005,2.0,0.0
17.571664810180664,0.5748775005340576,-0.2780548334121704,-0.4028973272973246,-0.7717626171314756,-0.4919920796669879,0.2511942359678648,4.0,0.0
17.46831512451172,0.2012178301811218,-0.2880101203918457,-0.0,-0.0,-1.0,0.0865697626317387,1.0,0.0
17.245746612548828,0.583642303943634,-0.3086934089660644,-0.0,-0.0,-1.0,0.0616627907249743,1.0,0.0
17.298538208007812,-0.556255578994751,-0.2931733131408691,-0.0,-0.0,-1.0,0.0410074654615969,2.0,0.0
15.47560691833496,0.4095214605331421,-0.102411150932312,-0.1840871587459017,-0.2293602110925746,-0.9557749795597452,0.0482069866942307,7.0,0.0
15.421951293945312,0.205226182937622,-0.1055072546005249,-0.5158203441809859,-0.8241010458723019,-0.2340658854279863,0.0394843376908079,3.0,0.0
15.53559684753418,0.0316551923751831,-0.0987662076950073,-0.0,-0.0,-1.0,0.0367613880185129,1.0,0.0
16.033855438232422,-0.385637879371643,-0.0694998502731323,-0.0,-0.0,-1.0,0.0722382108892887,2.0,0.0
15.901288986206056,-0.6208829879760742,-0.0780283212661743,-0.0,-0.0,-1.0,0.0299718748502331,2.0,0.0
15.888910293579102,-0.862404465675354,-0.079598069190979,-0.0,-0.0,-1.0,0.0335248190882693,1.0,0.0
15.922061920166016,-1.1812764406204224,-0.0790635347366333,-0.0,-0.0,-1.0,0.1654855292493589,1.0,0.0
15.89303207397461,-1.5336713790893557,-0.0828207731246948,-0.6509253912805525,-0.4205162290851706,-0.6320302493253374,0.0359615857378925,4.0,0.0
15.89744758605957,-1.730767011642456,-0.0839091539382934,0.0742286549668802,-0.1629620895057073,-0.983836096189676,0.036376471865544,4.0,0.0
17.706077575683594,0.5014505386352539,0.0305420160293579,-0.0,-0.0,-1.0,0.1919804946952717,2.0,1.0
15.257875442504885,-0.600013017654419,0.0256049633026123,-0.0,-0.0,-1.0,0.0786264599498166,2.0,1.0
16.012052536010742,-1.0401428937911987,0.0661585330963134,-0.9489687925834208,-0.1297252357986194,-0.2874536378266188,0.1421742744545874,4.0,1.0
16.222183227539062,0.458608865737915,-0.2210394144058227,-0.0,-0.0,-1.0,0.0249191570779474,2.0,0.0
16.180124282836914,0.1964702606201172,-0.2202993631362915,-0.0,-0.0,-1.0,0.0383314552218965,2.0,0.0
16.337615966796875,-0.1671311855316162,-0.2049715518951416,0.6533660643354303,-0.3572102823913129,-0.6674680517663364,0.0955760504707368,3.0,0.0
17.573165893554688,0.4301986694335937,-0.128453254699707,0.1739683574948154,-0.8289203750714443,-0.5316258293028769,0.1907967367923898,4.0,0.0
16.35080337524414,-0.43389892578125,-0.2010127305984497,-0.0,-0.0,-1.0,0.0463128950093368,1.0,0.0
16.349824905395508,-0.5507583618164062,-0.1998417377471923,-0.8894046580572282,-0.167787069516553,-0.4252138915053837,0.0470534886391289,3.0,0.0
16.627811431884766,-1.01893413066864,-0.1762804985046386,-0.0,-0.0,-1.0,0.0389143149221652,1.0,0.0
16.837644577026367,-1.2938188314437866,-0.1595975160598755,-0.0,-0.0,-1.0,0.0327413092816432,2.0,0.0
17.491281509399414,-1.0946253538131714,-0.1160696744918823,0.2363560598556908,-0.9678608931403204,-0.0859133546028455,0.0309401440765176,3.0,0.0
17.14406394958496,-1.4974713325500488,-0.1369680166244506,-0.0,-0.0,-1.0,0.0390564338998012,1.0,0.0
17.51433753967285,0.5910356044769287,0.2899293303489685,-0.5424158021391439,-0.7650691751743398,-0.3470652025020722,0.1642327184571954,3.0,1.0
17.524513244628906,0.6192641258239746,0.3520821928977966,-0.0,-0.0,-1.0,0.1585891073501447,2.0,1.0
15.841552734375,0.5157816410064697,-0.1788702011108398,-0.0,-0.0,-1.0,0.1407548173930078,1.0,0.0
15.92251968383789,0.1387112140655517,-0.1683745384216308,-0.0,-0.0,-1.0,0.0265747522085948,2.0,0.0
16.156002044677734,-0.3994841575622558,-0.1464437246322631,0.3004326299765258,-0.3466696237666783,-0.8885721168272487,0.1046386723210544,3.0,0.0
16.105148315429688,-0.2469625473022461,-0.151431918144226,-0.0,-0.0,-1.0,0.0697912305641079,2.0,0.0
16.132871627807617,-0.6228115558624268,-0.1462668180465698,-0.6355462018772418,-0.535998040983008,-0.5556861752300385,0.0663192134301012,3.0,0.0
16.215696334838867,-1.0361618995666504,-0.1378105878829956,0.2859361829804961,0.9529019283776504,-0.1010861719361233,0.0599983413610434,3.0,0.0
16.3743896484375,-1.3710203170776367,-0.1251270771026611,0.0002296734969028,-0.7715904662355096,-0.636119563969348,0.0235797591385156,4.0,0.0
16.474502563476562,-1.685513615608215,-0.1172835826873779,0.2892651591797475,0.292497678688512,-0.911466277843864,0.019509834161373,3.0,0.0
17.511125564575195,0.5818212032318115,-0.0644510984420776,0.1724414279623851,0.9825673025915264,-0.0694654576052397,0.1703686026100004,6.0,0.0
15.76815414428711,0.4345300197601318,-0.223564863204956,-0.0,-0.0,-1.0,0.0466472398278879,1.0,0.0
16.056638717651367,-0.05558443069458,-0.2101612091064453,0.0243180418385029,0.4168656661659923,-0.9086427511476248,0.0569060996623414,4.0,0.0
15.965291976928713,0.1394977569580078,-0.2136158943176269,-0.0,-0.0,-1.0,0.0231779865133969,2.0,0.0
16.121356964111328,-0.3325681686401367,-0.2104382514953613,-0.0,-0.0,-1.0,0.1976441933381571,1.0,0.0
16.28156089782715,-1.0133931636810305,-0.2117664813995361,0.4261687381298336,-0.7981201074921047,-0.4258925928654037,0.0367427237173308,3.0,0.0
16.20195198059082,-0.7914290428161621,-0.2133392095565796,-0.0,-0.0,-1.0,0.0649275810859904,2.0,0.0
17.616357803344727,-1.5134403705596924,-0.1186352968215942,-0.0,-0.0,-1.0,0.029290025703341,1.0,0.0
16.674013137817383,-1.4786677360534668,-0.1912765502929687,-0.0,-0.0,-1.0,0.0370875528765572,1.0,0.0
16.385990142822266,-1.1927077770233154,-0.2074705362319946,-0.0,-0.0,-1.0,0.0222181299380924,1.0,0.0
17.553653717041016,-1.7331622838974,-0.128408670425415,0.0216856131759917,-0.0922969402716457,-0.9954953586017734,0.0942836919396302,5.0,0.0
17.38382339477539,0.0481412410736084,-0.2948663234710693,-0.0840612701033507,0.300873012543877,-0.949952174160038,0.0267394718408306,3.0,0.0
17.236902236938477,0.2441215515136718,-0.3020722866058349,-0.3052260638332313,-0.0663037132618876,-0.9499688771557504,0.0420020340614393,5.0,0.0
17.511655807495117,-0.1775169372558593,-0.2904820442199707,0.2197060722140286,0.9753792833014115,0.0190917662542997,0.0309839758359558,3.0,0.0
15.914548873901367,-1.011074781417847,0.083658218383789,-0.0,-0.0,-1.0,0.1478019135712541,2.0,1.0
15.510887145996094,0.5440506935119629,-0.145772099494934,0.4913253092408941,0.4339096861472005,-0.7551965471100737,0.0426488637573098,3.0,0.0
15.604007720947266,0.2403516769409179,-0.1405867338180542,-0.0,-0.0,-1.0,0.0512428026501939,2.0,0.0
15.840328216552734,-0.0225133895874023,-0.1244633197784423,-0.4217795356563337,0.0009943632767142,-0.9066978739046438,0.0398736576862757,5.0,0.0
16.029748916625977,-0.2364840507507324,-0.1117057800292968,-0.1759938850193665,-0.6800870669957332,-0.7116935673033242,0.0690918559881749,3.0,0.0
16.00217056274414,-0.506188154220581,-0.1163076162338256,-0.0,-0.0,-1.0,0.055307579177627,1.0,0.0
15.969841003417969,-0.8530354499816895,-0.1223946809768676,0.682589381175836,-0.2119960696715018,-0.699377868644573,0.0623164830378425,3.0,0.0
15.992374420166016,-1.0866377353668213,-0.1233934164047241,-0.0,-0.0,-1.0,0.2318947952146692,2.0,0.0
15.974727630615234,-1.3139057159423828,-0.1277035474777221,-0.0,-0.0,-1.0,0.0401122876828818,1.0,0.0
16.02387046813965,-1.7113244533538818,-0.1295208930969238,-0.0,-0.0,-1.0,0.0301814037407579,2.0,0.0
17.47877311706543,0.6139707565307617,0.003050684928894,-0.4772124971472497,0.368546173243068,0.7977731198494823,0.1802182847619703,3.0,1.0
17.59163475036621,-1.829765558242798,-0.0093377828598022,0.0590466535850559,0.8842397983051749,-0.4632855186530549,0.0969220669711545,3.0,0.0
15.391630172729492,0.4888572692871094,-0.1135628223419189,-0.0,-0.0,-1.0,0.0151032481900217,1.0,0.0
15.498279571533203,0.1323661804199218,-0.1069996356964111,-0.0,-0.0,-1.0,0.0177154381308138,2.0,0.0
15.855157852172852,-0.2770800590515136,-0.0819765329360961,-0.0,-0.0,-1.0,0.1193418510651601,2.0,0.0
15.820241928100586,-0.6818408966064453,-0.0883811712265014,-0.0,-0.0,-1.0,0.0460197087205836,1.0,0.0
15.859392166137695,-1.076223611831665,-0.0898189544677734,-0.0,-0.0,-1.0,0.1426918453352222,1.0,0.0
15.818265914916992,-1.3205370903015137,-0.0964035987854003,0.2003192426916764,0.5527362640423613,-0.808922013187876,0.0621526558015592,3.0,0.0
15.815893173217772,-1.5734031200408936,-0.1004761457443237,-0.0,-0.0,-1.0,0.0247223783343306,2.0,0.0
15.492757797241213,0.5753574371337891,-0.0853452682495117,-0.0,-0.0,-1.0,0.0644364365756375,1.0,0.0
15.27750015258789,0.2756037712097168,-0.0523580312728881,-0.0,-0.0,-1.0,0.018820823938619,1.0,0.0
15.302513122558594,-0.0203819274902343,-0.012656807899475,-0.0,-0.0,-1.0,0.0334734442475138,1.0,0.0
15.748502731323242,-0.2669119834899902,0.0344871282577514,-0.140758408196454,0.1632282894393604,-0.9764955688832904,0.154945331717263,6.0,1.0
15.577392578125,0.5418624877929688,-0.1331030130386352,0.3343058489097802,-0.1402508129281872,-0.9319706587965602,0.0883343095276072,4.0,0.0
15.65125846862793,0.2774510383605957,-0.1360272169113159,-0.0,-0.0,-1.0,0.0446413928175284,2.0,0.0
15.975896835327148,-0.1380934715270996,-0.1205518245697021,-0.0,-0.0,-1.0,0.1035597230598624,2.0,0.0
16.08414649963379,-0.4322590827941894,-0.1216371059417724,-0.0,-0.0,-1.0,0.0916187513331092,1.0,0.0
16.13530921936035,-0.8307914733886719,-0.1327388286590576,-0.0,-0.0,-1.0,0.0769234130818679,2.0,0.0
16.238632202148438,-1.2008562088012695,-0.1379145383834839,-0.0,-0.0,-1.0,0.0703194881127185,2.0,0.0
16.423065185546875,-1.558640956878662,-0.1348853111267089,-0.0,-0.0,-1.0,0.0231498827818153,1.0,0.0
17.659748077392578,-1.8499784469604492,-0.0253958702087402,0.2128162496739656,0.8438239514070098,-0.4926158573438014,0.0928787702279544,3.0,0.0
16.337905883789062,0.624422550201416,-0.641433835029602,-0.0,-0.0,-1.0,0.1789031453550169,1.0,0.0
16.276016235351562,0.4950575828552246,-0.6295582056045532,-0.0,-0.0,-1.0,0.2085185266693359,1.0,0.0
15.607003211975098,0.6025123596191406,-0.0978463888168335,0.8697130683471248,0.395936352837045,-0.2946753862275044,0.0799651406454522,4.0,0.0
17.175243377685547,0.1701302528381347,-0.0020364522933959,-0.0,-0.0,-1.0,0.1475796642002163,1.0,0.0
15.553585052490234,0.336397647857666,-0.071449875831604,-0.0,-0.0,-1.0,0.0376655806351235,1.0,0.0
15.417271614074709,0.1955385208129882,-0.0610860586166381,-0.0,-0.0,-1.0,0.0248890206397587,2.0,0.0
15.437776565551758,-0.2943291664123535,-0.009411334991455,-0.0,-0.0,-1.0,0.0793703904349642,1.0,0.0
15.37315273284912,-0.0771007537841796,-0.0340468883514404,0.3408114445212633,0.4250388325750496,-0.8385639809141392,0.0408161791899206,3.0,0.0
15.561795234680176,-0.5522079467773438,0.0211740732192993,-0.0,-0.0,-1.0,0.0432881109689215,1.0,1.0
15.447166442871094,-0.9235572814941406,0.0550217628479003,-0.0,-0.0,-1.0,0.1197023360085351,1.0,1.0
15.35948657989502,-1.3247413635253906,0.092079758644104,-0.0,-0.0,-1.0,0.0616802443226492,1.0,1.0
15.273571014404297,-1.5457587242126465,0.1108622550964355,-0.0,-0.0,-1.0,0.0527407704232352,1.0,1.0
17.514881134033203,0.3702654838562011,-0.2341103553771972,-0.0,-0.0,-1.0,0.2197881222341156,1.0,0.0
15.977006912231444,0.6032066345214844,-0.3614962100982666,-0.0,-0.0,-1.0,0.0678620430723623,1.0,0.0
15.868398666381836,0.240175724029541,-0.3511906862258911,-0.0,-0.0,-1.0,0.0520441610773954,1.0,0.0
16.022987365722656,-0.2902836799621582,-0.3132972717285156,-0.0,-0.0,-1.0,0.1326857762079735,1.0,0.0
16.08025360107422,-0.8393282890319824,-0.2830523252487182,-0.0,-0.0,-1.0,0.0759994663096551,1.0,0.0
16.08919906616211,-0.629180908203125,-0.2920800447463989,-0.0,-0.0,-1.0,0.1036700958256701,1.0,0.0
16.099079132080078,-1.1525802612304688,-0.2674733400344848,-0.0,-0.0,-1.0,0.0447620924034976,1.0,0.0
16.027179718017578,-1.4894399642944336,-0.2584154605865478,-0.0,-0.0,-1.0,0.0495787530351592,1.0,0.0
17.55678939819336,0.4135036468505859,-0.0875149965286254,-0.0,-0.0,-1.0,0.1301496706981564,2.0,0.0
16.299724578857422,-0.0337209701538085,-0.1538183689117431,-0.0,-0.0,-1.0,0.1150886486052745,2.0,0.0
16.02645492553711,0.405130386352539,-0.1936217546463012,-0.0,-0.0,-1.0,0.0476299847984671,1.0,0.0
16.14700698852539,-0.4043550491333008,-0.1475846767425537,0.3004326299765258,-0.3466696237666783,-0.8885721168272487,0.0884327222595548,3.0,0.0
16.109554290771484,-0.1948728561401367,-0.1597974300384521,-0.0,-0.0,-1.0,0.062730049604069,1.0,0.0
15.960198402404783,0.1678638458251953,-0.1870872974395752,-0.0,-0.0,-1.0,0.0228694242994789,2.0,0.0
16.139699935913086,-0.678800106048584,-0.1358039379119873,-0.6254776826267038,0.7775586301037982,0.0646548164256392,0.0971592550553351,4.0,0.0
