x,y,z,nx,ny,nz,curvature,density,label
34.846397399902344,-12.133832931518556,-0.1470429897308349,-0.0,-0.0,-1.0,0.0484021445771206,2.0,0.0
34.712364196777344,-12.407917022705078,-0.1491215229034423,-0.1028943878363787,-0.9801273822985594,-0.1695967553355593,0.0517746586932231,4.0,0.0
34.552764892578125,-12.752626419067385,-0.1549177169799804,-0.4804168341698336,0.3873842098325514,-0.7868501378398838,0.1174019127851329,3.0,0.0
35.06285095214844,-11.950767517089844,-0.1684687137603759,-0.0,-0.0,-1.0,0.1090720488656334,1.0,0.0
32.821781158447266,-13.32209014892578,0.056382417678833,0.7812002967004956,-0.6160294325133153,0.1011624174897988,0.1756593840781038,13.0,1.0
33.898048400878906,-14.298332214355469,0.1871619224548339,-0.0,-0.0,-1.0,0.1176759726229541,1.0,1.0
34.49543380737305,-11.960339546203612,0.292089581489563,0.3423260772125379,0.8855064303839846,0.3141515853992924,0.1558929315501851,5.0,1.0
34.6218147277832,-11.917047500610352,0.2772562503814697,-0.0,-0.0,-1.0,0.1208988203411396,2.0,1.0
34.92594909667969,-14.335599899291992,0.0537717342376709,-0.0,-0.0,-1.0,0.1080395663467616,1.0,1.0
33.046207427978516,-12.731666564941406,-0.0937061309814453,-0.0,-0.0,-1.0,0.0868026612904202,2.0,0.0
32.97457504272461,-12.976284980773926,-0.1109117269515991,-0.0,-0.0,-1.0,0.1006740766226507,2.0,0.0
33.19956970214844,-12.671846389770508,-0.1150263547897338,0.614471596507982,0.0669993037553583,-0.7860888947067178,0.0947476816951126,4.0,0.0
33.08340835571289,-13.069714546203612,-0.1420161724090576,-0.0,-0.0,-1.0,0.0776478690159284,1.0,0.0
33.71647262573242,-12.415372848510742,-0.183782696723938,-0.0,-0.0,-1.0,0.0641956520322534,2.0,0.0
33.58920669555664,-12.60179328918457,-0.1802276372909546,-0.0,-0.0,-1.0,0.0306297300894904,1.0,0.0
33.659515380859375,-14.351909637451172,-0.0328561067581176,-0.0,-0.0,-1.0,0.1695104591518632,2.0,0.0
34.235206604003906,-14.318395614624023,-0.1147958040237426,-0.0,-0.0,-1.0,0.0803297520548716,2.0,0.0
34.85346984863281,-13.327587127685549,-0.1144500970840454,-0.0,-0.0,-1.0,0.0474288649081762,2.0,0.0
34.747657775878906,-13.717782020568848,-0.1339133977890014,-0.0,-0.0,-1.0,0.0383969819671948,2.0,0.0
34.63345718383789,-14.156940460205078,-0.1590436697006225,-0.0,-0.0,-1.0,0.0565836750933108,1.0,0.0
34.45482635498047,-14.306888580322266,-0.1468138694763183,-0.0,-0.0,-1.0,0.0803628720680113,1.0,0.0
32.88590621948242,-13.373649597167969,0.1868859529495239,0.0867846119248569,-0.6911679867963139,-0.7174644556777586,0.1735920594821845,4.0,1.0
34.899658203125,-14.335586547851562,0.187854528427124,-0.0,-0.0,-1.0,0.1189456688307238,1.0,1.0
32.757232666015625,-11.973857879638672,-0.0921865701675415,0.986343420850116,-0.0605093813509226,0.1531837814986273,0.1740915210930002,7.0,0.0
33.19639587402344,-12.029617309570312,-0.1886370182037353,-0.0,-0.0,-1.0,0.0573268731658777,2.0,0.0
33.0431022644043,-12.25881576538086,-0.1615369319915771,-0.0,-0.0,-1.0,0.0772248018377562,1.0,0.0
33.05198669433594,-12.475154876708984,-0.17026948928833,-0.0,-0.0,-1.0,0.109421891258936,1.0,0.0
34.85670471191406,-12.142539978027344,-0.1506361961364746,-0.0,-0.0,-1.0,0.0489692265342364,2.0,0.0
34.656471252441406,-12.420283317565918,-0.1221330165863037,-0.6598134740941247,-0.6583984714106004,-0.3621569166093984,0.0896856281915435,4.0,0.0
34.640071868896484,-12.542113304138184,-0.1228851079940795,-0.0,-0.0,-1.0,0.0636760316504666,1.0,0.0
34.551055908203125,-12.715134620666504,-0.1124544143676757,-0.0,-0.0,-1.0,0.132295346261025,2.0,0.0
34.970054626464844,-12.190202713012695,0.2271525859832763,0.3149798046843526,-0.6493457644512579,-0.6921978046990744,0.1378421004103489,4.0,1.0
34.65445327758789,-11.943385124206545,-0.1939266920089721,-0.0,-0.0,-1.0,0.1432351522538379,1.0,0.0
34.62489318847656,-12.188048362731934,-0.193959355354309,0.3127080632880009,-0.2220735170139776,-0.923524239094844,0.0409541310320432,4.0,0.0
33.036006927490234,-14.246455192565918,0.0204068422317504,-0.0,-0.0,-1.0,0.1317140716057001,2.0,1.0
33.63993453979492,-14.234514236450195,-0.0865465402603149,-0.0,-0.0,-1.0,0.1158009825019759,1.0,0.0
34.51072692871094,-12.013250350952148,0.2406866550445556,-0.6135345911056821,0.0682738218254587,-0.7867108685979423,0.1555302168950814,4.0,1.0
34.79336166381836,-14.351853370666504,0.1258720159530639,-0.0,-0.0,-1.0,0.1149721547823078,1.0,1.0
32.759796142578125,-11.869749069213867,-0.093602180480957,0.8089258144793791,-0.1876178717828014,0.5571701363646165,0.2060484095452881,3.0,0.0
33.23188400268555,-11.909872055053713,-0.1914777755737304,-0.0,-0.0,-1.0,0.052984523118612,1.0,0.0
34.861045837402344,-13.582839965820312,-0.0763053894042968,-0.0,-0.0,-1.0,0.0401944046999595,1.0,0.0
32.75379943847656,-11.899065971374512,-0.0405504703521728,0.9894099613189644,0.0759953548962091,-0.1236633918223352,0.1520053676819984,3.0,0.0
33.21677780151367,-11.896690368652344,-0.1351301670074463,-0.0,-0.0,-1.0,0.0516036541579275,1.0,0.0
33.12861633300781,-12.242779731750488,-0.1098804473876953,0.2975630064652618,0.0699174785357212,-0.952138542113784,0.1024526816860599,3.0,0.0
32.95131301879883,-12.528486251831056,-0.0684094429016113,-0.0,-0.0,-1.0,0.1677070376986068,1.0,0.0
32.992164611816406,-12.71841526031494,-0.0741596221923828,-0.0,-0.0,-1.0,0.1175415387212668,2.0,0.0
35.09819030761719,-12.098529815673828,0.4326977729797363,-0.0,-0.0,-1.0,0.1917926411350052,1.0,1.0
34.621273040771484,-11.864644050598145,-0.2852616310119629,-0.0,-0.0,-1.0,0.1191233051634176,1.0,0.0
34.57789611816406,-12.030096054077148,0.1966569423675537,-0.0,-0.0,-1.0,0.1370348047115386,2.0,1.0
32.80799865722656,-14.314020156860352,0.0191659927368164,-0.0,-0.0,-1.0,0.1056177311535775,1.0,1.0
32.71764373779297,-13.513420104980469,-0.0687494277954101,-0.0,-0.0,-1.0,0.0916071270240511,1.0,0.0
32.772422790527344,-13.799449920654297,-0.0409986972808837,-0.0,-0.0,-1.0,0.0690674768436059,2.0,0.0
32.84229278564453,-14.047767639160156,-0.0228698253631591,-0.0,-0.0,-1.0,0.0544889868340528,1.0,0.0
34.83268737792969,-13.455835342407228,-0.081667423248291,0.7974365285120982,-0.5138747319004269,0.316271628365299,0.0368875269469811,4.0,0.0
35.04208755493164,-13.721637725830078,-0.089449405670166,-0.0,-0.0,-1.0,0.0592806028651394,1.0,0.0
34.734046936035156,-13.123250961303713,-0.1040425300598144,-0.7571867863994085,0.229896026240353,-0.6114049293398209,0.0538412601025826,3.0,0.0
33.70541000366211,-14.257332801818848,0.225494384765625,0.5762659042328797,-0.5193987906884603,0.630985343609522,0.1978254131823581,3.0,1.0
34.071006774902344,-13.584395408630373,0.0768942832946777,-0.0,-0.0,-1.0,0.1640903881212117,1.0,1.0
34.793731689453125,-13.58614444732666,-0.0586237907409668,0.6401394204847406,-0.6426901661779619,-0.4209167051087472,0.0905317230983059,5.0,0.0
33.08185577392578,-14.238383293151855,0.170206069946289,-0.0,-0.0,-1.0,0.2057033624506164,1.0,1.0
33.14653778076172,-13.9752197265625,0.1218647956848144,-0.0,-0.0,-1.0,0.1544704227121892,1.0,1.0
33.2567024230957,-14.263628959655762,0.1366114616394043,-0.0,-0.0,-1.0,0.1201530395997251,1.0,1.0
32.77421188354492,-13.224175453186035,0.0926783084869384,-0.0,-0.0,-1.0,0.2145882535826958,2.0,1.0
32.829559326171875,-13.299989700317385,0.0925788879394531,0.969040211902906,0.0043992802147032,-0.2468637560452394,0.2149635114886026,5.0,1.0
33.945308685302734,-13.392581939697266,-0.124260663986206,-0.0,-0.0,-1.0,0.0460345157623592,2.0,0.0
34.1524658203125,-13.670488357543944,-0.1297178268432617,-0.0,-0.0,-1.0,0.0920492744576037,2.0,0.0
34.30195236206055,-13.917064666748049,-0.1285181045532226,-0.0,-0.0,-1.0,0.023985604010709,1.0,0.0
33.08785629272461,-12.689355850219728,-0.0520722866058349,-0.0,-0.0,-1.0,0.1321184853346354,1.0,0.0
33.362327575683594,-12.745931625366213,-0.0988013744354248,-0.0,-0.0,-1.0,0.0330418891183725,1.0,0.0
33.651161193847656,-12.98934555053711,-0.1214444637298584,0.2759968497334982,0.3195403751352502,-0.9064875551245082,0.0415214715237188,6.0,0.0
33.936588287353516,-13.28482723236084,-0.1376094818115234,-0.0,-0.0,-1.0,0.0313881073178635,1.0,0.0
32.91966247558594,-11.912679672241213,-0.1439228057861328,-0.0,-0.0,-1.0,0.0950976473639373,1.0,0.0
33.204280853271484,-12.231962203979492,-0.1475706100463867,-0.0,-0.0,-1.0,0.0451055886472672,1.0,0.0
33.351444244384766,-12.424267768859863,-0.1463091373443603,-0.0,-0.0,-1.0,0.0270754505363004,2.0,0.0
33.097442626953125,-11.862926483154297,-0.1867527961730957,-0.0,-0.0,-1.0,0.0350193587360275,1.0,0.0
35.147483825683594,-12.727627754211426,0.0046038627624511,-0.0,-0.0,-1.0,0.0769076358894005,1.0,1.0
34.60234069824219,-12.012120246887209,0.0017876625061035,-0.0,-0.0,-1.0,0.0997219060047441,2.0,1.0
34.96608352661133,-12.433452606201172,-0.0028014183044433,0.6606794492143134,-0.2131872434015214,-0.7197595880825292,0.1890244679593216,5.0,0.0
35.08174133300781,-12.65618896484375,0.0066890716552734,-0.0,-0.0,-1.0,0.0595866532550798,2.0,1.0
35.07978439331055,-12.023801803588867,0.3951306343078613,-0.0,-0.0,-1.0,0.1859815065989868,1.0,1.0
32.81614685058594,-13.879801750183104,-0.018904685974121,0.7528602434353537,0.1579874911598875,0.6389377172240378,0.0654169042216667,5.0,0.0
33.138526916503906,-14.119421005249023,-0.0595481395721435,-0.0,-0.0,-1.0,0.0970468707817641,2.0,0.0
32.88698196411133,-13.53311824798584,-0.0879790782928466,-0.0,-0.0,-1.0,0.0775182824128812,2.0,0.0
32.757537841796875,-13.079998970031738,-0.1311662197113037,-0.0,-0.0,-1.0,0.1231657240282478,1.0,0.0
32.89326858520508,-13.320160865783691,-0.1228368282318115,-0.0,-0.0,-1.0,0.2123109498652155,2.0,0.0
34.76847839355469,-13.594444274902344,-0.075202465057373,0.5514176682573788,-0.660892982088146,-0.5090766360384584,0.0952484460067621,3.0,0.0
34.91789245605469,-13.725749969482422,-0.0884046554565429,-0.0,-0.0,-1.0,0.041670939592648,2.0,0.0
34.759056091308594,-13.29010009765625,-0.1134004592895507,-0.0,-0.0,-1.0,0.0364873795920682,2.0,0.0
34.83716583251953,-13.506006240844728,-0.1003804206848144,-0.0,-0.0,-1.0,0.0462353665600562,2.0,0.0
33.73894500732422,-12.47233772277832,-0.0308961868286132,-0.0,-0.0,-1.0,0.0599758716888407,1.0,0.0
34.54154586791992,-12.836474418640137,-0.1328966617584228,-0.0,-0.0,-1.0,0.1415082381184358,1.0,0.0
34.6297607421875,-13.048382759094238,-0.1205792427062988,-0.0,-0.0,-1.0,0.0715048793903206,2.0,0.0
32.77320861816406,-11.92750644683838,0.0638093948364257,-0.0,-0.0,-1.0,0.1520053676819984,1.0,1.0
34.34327697753906,-12.26136875152588,-0.1783525943756103,-0.0,-0.0,-1.0,0.0495906357137108,2.0,0.0
34.49406814575195,-12.447768211364746,-0.1797304153442382,-0.0,-0.0,-1.0,0.0226254267133178,1.0,0.0
33.96399688720703,-11.872617721557615,-0.1664080619812011,-0.0,-0.0,-1.0,0.0384614905085618,2.0,0.0
34.34088897705078,-12.007076263427734,-0.2166016101837158,-0.0,-0.0,-1.0,0.1147760206279892,1.0,0.0
35.063148498535156,-12.202051162719728,0.1376442909240722,-0.0468344956504905,0.9808155679984516,-0.1892283054646918,0.2394867148326381,4.0,1.0
34.38247299194336,-11.91677188873291,0.2070450782775879,-0.0,-0.0,-1.0,0.2174482868152857,2.0,1.0
33.7939567565918,-14.18227195739746,-0.1001608371734619,-0.0,-0.0,-1.0,0.0737102092192129,2.0,0.0
33.156272888183594,-14.01285171508789,0.0354056358337402,-0.0,-0.0,-1.0,0.170681816259653,1.0,1.0
33.686668395996094,-13.898804664611816,-0.111849308013916,-0.5021662318817186,0.6877719046856833,-0.524212631174358,0.0760499404205139,3.0,0.0
33.76862716674805,-14.100651741027832,-0.1046450138092041,-0.0,-0.0,-1.0,0.0936130673636181,1.0,0.0
32.83481216430664,-13.324009895324709,0.0111098289489746,0.390208328010647,-0.9193401123270736,0.0505095893626078,0.2289002400644199,8.0,1.0
33.53517150878906,-13.501876831054688,-0.1314368247985839,-0.0,-0.0,-1.0,0.0241139565028258,1.0,0.0
35.17572021484375,-13.761613845825195,-0.0832457542419433,-0.0,-0.0,-1.0,0.0601284563340657,1.0,0.0
33.03013610839844,-12.89735984802246,-0.1041657924652099,-0.8354708074527569,-0.3928624277764485,0.3842494537872931,0.078268273113494,3.0,0.0
33.26971435546875,-13.11577320098877,-0.1262133121490478,0.3957736292372695,-0.9151585729960828,-0.0764723523381732,0.0329977908681761,3.0,0.0
33.45535659790039,-13.280168533325195,-0.1451644897460937,-0.0,-0.0,-1.0,0.0377359185474242,1.0,0.0
34.88422775268555,-13.318490028381348,-0.0755150318145752,0.3058193836124602,-0.8751416827894776,-0.3749687182303292,0.0645898600105151,4.0,0.0
35.124637603759766,-13.482254028320312,-0.1060466766357421,-0.0,-0.0,-1.0,0.081976719662749,1.0,0.0
32.85211944580078,-12.629429817199709,-0.1074850559234619,-0.0,-0.0,-1.0,0.0583846664931774,2.0,0.0
34.605262756347656,-12.76883316040039,-0.0896356105804443,-0.0,-0.0,-1.0,0.1056116029993578,1.0,0.0
34.86960220336914,-12.951793670654297,-0.1201331615447998,-0.0,-0.0,-1.0,0.0892358402758838,2.0,0.0
34.669517517089844,-12.409341812133787,-0.1531822681427002,-0.3034482118236044,-0.6538348067237629,-0.6931228089289488,0.0548289082346048,5.0,0.0
34.65541076660156,-12.02816677093506,-0.2055559158325195,-0.0,-0.0,-1.0,0.0662318439463458,1.0,0.0
32.752967834472656,-11.967388153076172,0.1635510921478271,-0.0,-0.0,-1.0,0.1804960001865135,1.0,1.0
34.52280044555664,-11.936408996582031,0.2237358093261718,-0.7945088999608155,0.1015817614829485,0.5986958774011026,0.1522236437789357,3.0,1.0
35.03516387939453,-12.155500411987305,0.1644563674926757,-0.0,-0.0,-1.0,0.1883943194034321,2.0,1.0
33.98085021972656,-14.059072494506836,-0.1281044483184814,-0.0,-0.0,-1.0,0.0783867358981809,1.0,0.0
33.920997619628906,-13.84352684020996,-0.1444325447082519,-0.0,-0.0,-1.0,0.0944420249726525,2.0,0.0
33.6492805480957,-13.398554801940918,-0.1432828903198242,-0.0,-0.0,-1.0,0.0296006982671626,1.0,0.0
33.82191848754883,-13.561755180358888,-0.162168264389038,-0.0,-0.0,-1.0,0.0394605122415308,1.0,0.0
33.37248229980469,-12.851319313049316,-0.1676909923553466,-0.0,-0.0,-1.0,0.0444596576458536,2.0,0.0
33.50752639770508,-13.08152961730957,-0.1608476638793945,-0.0,-0.0,-1.0,0.042445768032513,1.0,0.0
33.04766082763672,-12.393993377685549,-0.1737062931060791,-0.0,-0.0,-1.0,0.12477442433981,1.0,0.0
33.101654052734375,-12.488420486450195,-0.1684386730194091,-0.0,-0.0,-1.0,0.083663384259643,1.0,0.0
34.58849334716797,-12.162748336791992,-0.2137660980224609,0.6489037399541985,0.4578356403259792,-0.6077091925590357,0.0369277276845725,3.0,0.0
34.4682502746582,-11.911321640014648,-0.2293906211853027,-0.0,-0.0,-1.0,0.190048173436504,1.0,0.0
33.13348388671875,-14.106879234313965,0.1086916923522949,-0.0,-0.0,-1.0,0.1805946138223203,1.0,1.0
33.634422302246094,-14.304762840270996,0.0024237632751464,-0.527471557683708,0.0627157017414865,-0.8472546822471955,0.2214586076846353,4.0,1.0
33.7530517578125,-14.243671417236328,-0.0389535427093505,-0.0,-0.0,-1.0,0.1321327449255494,2.0,0.0
33.47944641113281,-13.599065780639648,-0.0649411678314209,-0.0,-0.0,-1.0,0.0326696099241825,1.0,0.0
35.120235443115234,-13.83932113647461,-0.0900995731353759,-0.0,-0.0,-1.0,0.0568218214356101,1.0,0.0
32.82756042480469,-13.339539527893066,0.0609581470489501,-0.3331449206412619,-0.0531984016330254,-0.9413736728391222,0.0981065350123531,11.0,1.0
33.4947395324707,-13.310462951660156,-0.1178357601165771,-0.0,-0.0,-1.0,0.0360091181496978,2.0,0.0
34.85963821411133,-13.432859420776367,-0.0827031135559082,0.6463332459600345,-0.7524314520370168,0.1268867414359407,0.0341563260866368,3.0,0.0
35.041954040527344,-13.617572784423828,-0.1006453037261962,-0.0,-0.0,-1.0,0.0338800014200657,1.0,0.0
33.002037048339844,-12.785633087158203,-0.0861272811889648,-0.9539791150257408,0.0680275408777585,-0.2920549636229955,0.1033197504946288,7.0,0.0
33.20150375366211,-12.911806106567385,-0.1130146980285644,-0.0,-0.0,-1.0,0.0497556524414511,1.0,0.0
33.459442138671875,-13.159193992614746,-0.1346552371978759,-0.0,-0.0,-1.0,0.0439290511636982,1.0,0.0
34.83285903930664,-13.112652778625488,-0.1220703125,-0.0,-0.0,-1.0,0.0533873909518486,1.0,0.0
32.904232025146484,-12.40042781829834,-0.1374354362487793,-0.0,-0.0,-1.0,0.0837704666505302,2.0,0.0
33.08562469482422,-12.57253360748291,-0.1480450630187988,-0.9628817870124848,-0.2203369676026333,-0.155917558175209,0.0783241954546815,3.0,0.0
34.59968948364258,-12.703632354736328,-0.1298844814300537,-0.0,-0.0,-1.0,0.101585528914678,2.0,0.0
34.7817497253418,-12.882080078125,-0.1441867351531982,-0.0,-0.0,-1.0,0.0527208493665799,1.0,0.0
32.78224182128906,-12.206632614135742,-0.1469144821166992,-0.0,-0.0,-1.0,0.0196001595064189,2.0,0.0
34.60448455810547,-12.34720230102539,-0.1873180866241455,-0.0,-0.0,-1.0,0.0330074954807767,1.0,0.0
35.050113677978516,-12.261947631835938,0.0956089496612548,-0.5717271358944509,-0.0430362446983721,-0.8193143253502836,0.198870126618825,4.0,1.0
34.49566650390625,-12.045923233032228,-0.0209300518035888,-0.0,-0.0,-1.0,0.1901039726619543,1.0,0.0
34.88545608520508,-13.874770164489746,-0.1280333995819091,-0.0,-0.0,-1.0,0.036919582677515,1.0,0.0
34.72393798828125,-13.44227695465088,-0.1628751754760742,-0.0,-0.0,-1.0,0.0226550994829814,1.0,0.0
34.46760177612305,-13.045997619628906,-0.1727614402770996,-0.3222620376938092,-0.8663248075103601,-0.3816130329975265,0.0542452880462536,3.0,0.0
34.56710433959961,-13.213126182556152,-0.1655547618865966,-0.0,-0.0,-1.0,0.0292606942514055,1.0,0.0
34.04477310180664,-13.681262969970703,0.0576815605163574,-0.0,-0.0,-1.0,0.1989200490399069,1.0,1.0
34.76600646972656,-13.790508270263672,-0.1110529899597168,-0.0,-0.0,-1.0,0.0298066226178091,2.0,0.0
34.900840759277344,-13.952972412109377,-0.1187391281127929,-0.0,-0.0,-1.0,0.0764014941247661,1.0,0.0
34.735313415527344,-13.668139457702637,-0.1246640682220459,-0.0,-0.0,-1.0,0.0389971513546489,2.0,0.0
34.34560775756836,-12.94920253753662,-0.1612930297851562,0.5377610471025018,-0.60803331613736,-0.5840449834441056,0.0631537856896853,5.0,0.0
34.022010803222656,-12.56321144104004,-0.1616907119750976,-0.0,-0.0,-1.0,0.045852790005988,2.0,0.0
34.25478744506836,-12.780481338500977,-0.1730141639709472,-0.0,-0.0,-1.0,0.0381501335861974,1.0,0.0
34.91290283203125,-12.601667404174805,-0.0134341716766357,-0.0,-0.0,-1.0,0.0264219112216246,1.0,0.0
35.099365234375,-12.824222564697266,-0.0147063732147216,-0.0,-0.0,-1.0,0.0683260950964967,1.0,0.0
33.41059494018555,-11.951858520507812,-0.1550772190093994,-0.0872800696185273,0.9748793917689088,-0.2049203771021013,0.060747972995474,5.0,0.0
33.6623420715332,-12.122535705566406,-0.1737210750579834,0.0129448481563777,-0.644681698915907,-0.7643415061274041,0.0449384197614262,3.0,0.0
33.878665924072266,-12.344890594482422,-0.1744682788848877,-0.0,-0.0,-1.0,0.0611261061274847,2.0,0.0
34.902095794677734,-12.322897911071776,-0.0625050067901611,-0.0,-0.0,-1.0,0.1733716384267811,2.0,0.0
34.991390228271484,-11.919549942016602,-0.1582372188568115,-0.0,-0.0,-1.0,0.0968905712897973,1.0,0.0
34.98829650878906,-12.20907211303711,0.2610652446746826,0.4064376124260146,-0.2165607422914343,-0.887642896723465,0.1408460788398592,6.0,1.0
34.517940521240234,-11.992794036865234,0.3090240955352783,-0.8388754324760589,-0.4880513864003882,0.2410266645430835,0.1392794163050947,4.0,1.0
35.10993576049805,-13.140591621398926,-0.0853350162506103,-0.0,-0.0,-1.0,0.0861990364877742,2.0,0.0
34.72126007080078,-12.693853378295898,-0.0865168571472168,-0.0,-0.0,-1.0,0.0795751505129691,1.0,0.0
34.91667938232422,-12.877044677734377,-0.0932526588439941,-0.0,-0.0,-1.0,0.093866108820407,1.0,0.0
34.438323974609375,-12.0267333984375,0.151573896408081,-0.5059413713924241,0.540247029806038,-0.6724258141232438,0.1584100640451902,5.0,1.0
34.71245574951172,-12.252155303955078,-0.1853697299957275,-0.0,-0.0,-1.0,0.0406355573450211,1.0,0.0
35.13195037841797,-12.310569763183594,0.070488691329956,-0.2602968253992962,-0.5535448186134206,-0.791096515270598,0.1599618834766117,4.0,1.0
34.416263580322266,-11.882698059082031,-0.0419888496398925,-0.0,-0.0,-1.0,0.067464974210087,1.0,0.0
34.64462661743164,-11.973645210266112,-0.0673892498016357,-0.0,-0.0,-1.0,0.1666089465326609,1.0,0.0
34.380340576171875,-12.03542137145996,0.1648979187011718,0.1736104438838471,0.0570882067517899,-0.9831583547040216,0.1772175095823526,5.0,1.0
35.03423309326172,-12.155434608459473,0.3938837051391601,-0.6179644207562931,-0.0574593029884533,-0.7841035666156736,0.1821481389447967,3.0,1.0
34.37956619262695,-11.998892784118652,0.1570949554443359,0.0195196535619252,0.1742304854796524,-0.9845114123535323,0.2534961246263637,6.0,1.0
35.11560821533203,-12.539022445678713,0.0073006153106689,-0.0,-0.0,-1.0,0.1062471846212829,1.0,1.0
34.86466598510742,-12.368428230285645,0.0229494571685791,-0.0,-0.0,-1.0,0.2020448319225897,2.0,1.0
34.97018051147461,-12.305110931396484,-0.0166881084442138,-0.0,-0.0,-1.0,0.2892213078255843,2.0,0.0
34.46103286743164,-11.97607421875,0.3103277683258056,-0.5433188540673015,0.2642104515772135,-0.7968672788440736,0.1072532266706795,3.0,1.0
34.907894134521484,-12.070334434509276,0.2474062442779541,-0.0,-0.0,-1.0,0.1495275568720456,2.0,1.0
34.9830436706543,-12.177411079406738,0.25697922706604,0.5316033149826239,0.2173461234769439,-0.8186321384535488,0.1665779145225753,5.0,1.0
35.03164291381836,-12.163326263427734,0.0677857398986816,-0.0,-0.0,-1.0,0.2476939970743616,1.0,1.0
34.33600616455078,-12.002693176269531,0.1629974842071533,-0.1801228114621615,0.3182235683682736,-0.9307467611149284,0.2756827275904133,5.0,1.0
34.43284606933594,-11.971242904663086,0.1350877285003662,-0.4069640600044378,-0.8410381714800976,-0.3564197637310788,0.1824152682794987,4.0,1.0
34.346553802490234,-11.904508590698242,0.1323633193969726,-0.0,-0.0,-1.0,0.2227968115034098,2.0,1.0
34.500755310058594,-11.970248222351074,0.2552051544189453,-0.9384341097505398,-0.3367153197800896,0.0772283308255713,0.1584582084019519,7.0,1.0
34.942596435546875,-12.195951461791992,0.2463576793670654,0.3791796415363008,-0.4073975002211392,-0.8308129008735775,0.1598112783040302,5.0,1.0
35.13434600830078,-12.100643157958984,0.1817903518676757,-0.0,-0.0,-1.0,0.1724246468635791,1.0,1.0
34.575965881347656,-11.89059829711914,0.2175521850585937,-0.0,-0.0,-1.0,0.1352604992184698,1.0,1.0
32.752685546875,-13.303655624389648,0.0038864612579345,-0.0,-0.0,-1.0,0.1876366140137631,1.0,1.0
33.53841781616211,-12.639118194580078,-0.1633005142211914,-0.5443312437036847,0.6248010033373468,-0.5597563785761133,0.0310119484779815,3.0,0.0
33.345558166503906,-12.677160263061523,-0.1471109390258789,-0.0,-0.0,-1.0,0.0362595674174624,2.0,0.0
33.02338790893555,-12.866884231567385,-0.0876796245574951,-0.848001469936838,-0.429137994538834,0.3110210420986811,0.098905101188576,7.0,0.0
34.14164352416992,-12.698725700378418,-0.1716697216033935,-0.0,-0.0,-1.0,0.031324545497314,1.0,0.0
33.820167541503906,-12.72195816040039,-0.1511483192443847,0.7200208463748226,-0.0980185513689751,-0.686995156004183,0.0708024697045861,4.0,0.0
32.8120231628418,-13.34636402130127,0.0468814373016357,0.9888643661421372,-0.0795739962519822,0.1257586756243841,0.1188091849882905,16.0,1.0
34.482994079589844,-12.85269832611084,-0.1481201648712158,-0.0,-0.0,-1.0,0.082862994142214,1.0,0.0
34.74660873413086,-13.079392433166504,-0.1031081676483154,-0.0,-0.0,-1.0,0.0648075336256824,2.0,0.0
34.899261474609375,-13.3253173828125,-0.0473144054412841,0.2679880703086693,-0.9351742971540796,-0.2315846024989749,0.0683169012914423,5.0,0.0
33.546180725097656,-11.985824584960938,-0.2042534351348877,-0.0,-0.0,-1.0,0.0211949316615862,1.0,0.0
33.26949691772461,-12.011847496032717,-0.1916840076446533,-0.0,-0.0,-1.0,0.060716970673877,2.0,0.0
32.88688659667969,-12.116999626159668,-0.1595535278320312,0.2757811140282113,-0.9608339860976616,-0.0272548767202785,0.0550751045188516,3.0,0.0
34.404869079589844,-11.946048736572266,-0.2429049015045166,-0.0,-0.0,-1.0,0.1785081478652397,2.0,0.0
34.07604217529297,-12.014801025390623,-0.2130022048950195,-0.0,-0.0,-1.0,0.0574253238068572,1.0,0.0
33.695186614990234,-12.120938301086426,-0.1745121479034423,0.0129448481563777,-0.644681698915907,-0.7643415061274041,0.0486832212071604,3.0,0.0
33.281803131103516,-12.15360164642334,-0.1564457416534423,-0.0,-0.0,-1.0,0.0284053439543126,1.0,0.0
34.572654724121094,-12.128447532653809,-0.2048368453979492,-0.0,-0.0,-1.0,0.0409380281607688,2.0,0.0
34.644859313964844,-12.638636589050291,-0.0818145275115966,-0.0,-0.0,-1.0,0.1081767135996659,2.0,0.0
34.90504837036133,-12.880101203918455,-0.0359203815460205,0.7710956668525805,-0.5693772517948834,-0.2849930134225741,0.0725420973149705,3.0,0.0
33.45349884033203,-13.621925354003906,-0.152191162109375,-0.0,-0.0,-1.0,0.0371933738816899,1.0,0.0
33.06997299194336,-13.750611305236816,-0.1057369709014892,-0.0,-0.0,-1.0,0.0313337596706229,1.0,0.0
33.17710494995117,-13.99839687347412,-0.036259651184082,-0.0,-0.0,-1.0,0.168311306678489,1.0,0.0
34.842952728271484,-13.8997220993042,-0.1407058238983154,-0.0,-0.0,-1.0,0.0352215595334535,1.0,0.0
34.57061004638672,-13.80934715270996,-0.1485610008239746,-0.0,-0.0,-1.0,0.0167726535635146,2.0,0.0
34.39430236816406,-11.9104642868042,0.1700167655944824,-0.9483030826119182,-0.0556968874473099,-0.312440586731966,0.221904720490297,3.0,1.0
34.95097351074219,-12.151725769042969,0.1984317302703857,-0.0,-0.0,-1.0,0.2244173409722296,1.0,1.0
32.80857467651367,-13.374377250671388,0.1580383777618408,0.3151321031981391,-0.9134579780126048,-0.2574612202624715,0.2158619279140403,9.0,1.0
35.198211669921875,-13.201092720031738,0.0255520343780517,-0.0,-0.0,-1.0,0.1022515035544013,2.0,1.0
34.72397994995117,-11.878534317016602,-0.2143833637237548,-0.0,-0.0,-1.0,0.080443857495827,2.0,0.0
34.73439025878906,-12.148831367492676,-0.1544985771179199,0.8699292669900667,0.4316197424603006,-0.2385947785527368,0.0520707804433038,5.0,0.0
33.135555267333984,-12.315569877624512,-0.019993782043457,-0.0,-0.0,-1.0,0.1805308168444866,2.0,0.0
34.76206970214844,-12.280935287475586,-0.1270534992218017,-0.0,-0.0,-1.0,0.0531197566829229,2.0,0.0
35.035804748535156,-12.82079792022705,-0.0299100875854492,-0.0,-0.0,-1.0,0.0697004392769614,2.0,0.0
34.78793716430664,-12.694397926330566,-0.0367686748504638,0.2096012246911608,0.9664762830366416,-0.1482933610639477,0.1314052419533831,3.0,0.0
34.56342697143555,-11.961629867553713,0.2533013820648193,-0.2063685320140162,0.9312696183243794,0.300248109037085,0.1817042594788003,3.0,1.0
34.400726318359375,-11.96160888671875,0.1174969673156738,-0.8818443130882486,0.4432235318270971,0.1609456688097852,0.1898647645914349,5.0,1.0
33.131553649902344,-12.301584243774414,-0.1665501594543457,-0.0,-0.0,-1.0,0.11851285698693,1.0,0.0
32.80501937866211,-12.356453895568848,-0.1327404975891113,-0.0,-0.0,-1.0,0.0395967448587411,2.0,0.0
35.02528762817383,-12.20582103729248,0.1102983951568603,0.4398444314873204,0.223303879312319,-0.8698691014018519,0.2500618214376879,4.0,1.0
34.469139099121094,-12.031494140625,0.1253886222839355,-0.6295475421608402,0.4949057866620035,-0.5989475390113133,0.1769843413793184,4.0,1.0
33.681358337402344,-12.484216690063477,-0.165006399154663,-0.0,-0.0,-1.0,0.0481544366205329,1.0,0.0
33.38892364501953,-12.46453094482422,-0.146881103515625,-0.2000890389781123,-0.1851587993338602,-0.9621229627807762,0.0217170714345054,3.0,0.0
33.067840576171875,-12.773404121398926,-0.0519592761993408,-0.2708522012450267,0.3124489346703274,-0.9105024702350352,0.0730168254043152,6.0,0.0
35.08858108520508,-12.285039901733398,0.1193430423736572,0.0384782583235895,0.8439014673928513,-0.5351165639078792,0.1795694770060975,4.0,1.0
34.46715545654297,-12.78681182861328,-0.1661884784698486,-0.0,-0.0,-1.0,0.1020923619298287,1.0,0.0
34.18507385253906,-12.662230491638184,-0.167776346206665,-0.0,-0.0,-1.0,0.0314639723266927,2.0,0.0
33.86081314086914,-12.605881690979004,-0.1517205238342285,0.4919269375301779,0.2508876666736339,-0.8337045440941534,0.0618565573627484,5.0,0.0
33.17716598510742,-12.822999954223633,-0.048051118850708,-0.0,-0.0,-1.0,0.0624316521243146,2.0,0.0
33.11471176147461,-12.832164764404297,-0.0415010452270507,-0.1471830133140792,-0.4312934068664457,-0.8901253607134911,0.1164763090986851,3.0,0.0
34.61372375488281,-13.003189086914062,-0.1325528621673584,-0.9434148356896624,-0.331365729609942,0.0128530556957641,0.0631511214823176,3.0,0.0
32.81684875488281,-13.37251091003418,0.1050426959991455,0.94401331896657,-0.026280893610735,0.3288588880427916,0.1632130426127359,7.0,1.0
35.1081428527832,-13.41208553314209,-0.0962879657745361,-0.0,-0.0,-1.0,0.1429446108563319,1.0,0.0
34.838523864746094,-13.348676681518556,-0.0798625946044921,0.499600159719094,-0.8661138128297341,-0.0157017080025148,0.0457530585284623,4.0,0.0
33.245845794677734,-11.979473114013672,-0.1689043045043945,0.4611029326509174,0.8771553517194042,0.1340991217373614,0.0622347434611441,4.0,0.0
33.046730041503906,-11.873724937438965,-0.1760096549987793,-0.0,-0.0,-1.0,0.0344301858944969,1.0,0.0
33.67242431640625,-12.174245834350586,-0.1641812324523925,-0.0,-0.0,-1.0,0.0401137683474765,2.0,0.0
33.44374084472656,-12.07049560546875,-0.1659033298492431,-0.0,-0.0,-1.0,0.0259284018913712,2.0,0.0
34.30281066894531,-12.371362686157228,-0.1861178874969482,-0.0,-0.0,-1.0,0.0240754532370776,2.0,0.0
33.94573211669922,-12.387643814086914,-0.1432099342346191,0.8242088718736315,0.4150705239253709,0.3852222679092084,0.0534544063075637,3.0,0.0
34.673179626464844,-12.860321998596191,-0.1198568344116211,-0.0,-0.0,-1.0,0.0762974153621587,1.0,0.0
34.5134162902832,-12.74382781982422,-0.1265614032745361,-0.3730002114369464,0.6568853444091254,-0.6552652032333918,0.142460354266425,4.0,0.0
34.85794448852539,-13.06572151184082,-0.0977132320404052,-0.0,-0.0,-1.0,0.0888068171926939,1.0,0.0
35.05881881713867,-13.372124671936035,-0.0569767951965332,-0.0,-0.0,-1.0,0.1427923591227676,2.0,0.0
34.496009826660156,-11.957598686218262,0.1917781829833984,-0.6766563973070133,0.3892273671822058,0.6250105412070278,0.1710422841277507,4.0,1.0
34.35987854003906,-12.016218185424805,0.2165226936340332,-0.0,-0.0,-1.0,0.2326640456670609,1.0,1.0
35.065643310546875,-12.111051559448242,0.1616384983062744,-0.0,-0.0,-1.0,0.1292654559053866,1.0,1.0
32.7891845703125,-13.38339614868164,0.2011065483093261,0.6557390528461842,-0.646542518601115,-0.3898577512546288,0.1902936811357061,12.0,1.0
34.362606048583984,-11.913110733032228,0.0626380443572998,-0.0,-0.0,-1.0,0.1559623032501477,2.0,1.0
34.52704620361328,-12.022271156311035,0.0659534931182861,-0.4284039377355336,0.4382503991742199,-0.7901940608207113,0.2179470348744909,3.0,1.0
34.461883544921875,-12.052472114562988,0.0786130428314209,-0.5204648019715813,0.7990177800685387,-0.301142785141911,0.1553226586437083,4.0,1.0
32.75749206542969,-12.604448318481444,-0.1285595893859863,-0.0,-0.0,-1.0,0.040312815281302,1.0,0.0
33.565731048583984,-12.877837181091309,-0.1505055427551269,-0.0,-0.0,-1.0,0.0335868487721881,2.0,0.0
33.354679107666016,-12.830133438110352,-0.1379880905151367,-0.0,-0.0,-1.0,0.041847751709242,2.0,0.0
32.980506896972656,-12.966221809387209,-0.067070722579956,-0.8622074037132196,-0.4556800205632385,0.2212557611489373,0.1126147107783472,3.0,0.0
34.056312561035156,-13.07318115234375,-0.1645176410675048,-0.0,-0.0,-1.0,0.0121145451875165,1.0,0.0
33.793846130371094,-13.078584671020508,-0.131690502166748,-0.0,-0.0,-1.0,0.0249893678858587,1.0,0.0
32.77965545654297,-13.3921537399292,0.0517048835754394,-0.1751332402908358,-0.2717031994592433,-0.9463116397618933,0.2292570844065416,9.0,1.0
34.8909912109375,-13.823540687561035,-0.1127266883850097,-0.0,-0.0,-1.0,0.0276319266874283,1.0,0.0
34.9567756652832,-13.87938117980957,-0.1103837490081787,-0.0,-0.0,-1.0,0.061147973637682,1.0,0.0
33.20619583129883,-13.717135429382324,-0.1339712142944336,-0.0,-0.0,-1.0,0.023781803516473,2.0,0.0
33.030067443847656,-13.780571937561035,-0.0980265140533447,-0.0,-0.0,-1.0,0.0397648296090111,2.0,0.0
33.63679885864258,-14.006608963012695,-0.1273181438446045,-0.0,-0.0,-1.0,0.0662018065771971,2.0,0.0
33.396514892578125,-13.893532752990724,-0.1200077533721923,-0.0,-0.0,-1.0,0.0462604216256032,1.0,0.0
32.988285064697266,-13.87095546722412,-0.0729410648345947,-0.0,-0.0,-1.0,0.0563869695989386,1.0,0.0
33.689048767089844,-14.048270225524902,-0.1254825592041015,-0.0,-0.0,-1.0,0.0517564603112821,2.0,0.0
32.9855842590332,-14.043204307556152,-0.1002306938171386,-0.0,-0.0,-1.0,0.0434879760720712,1.0,0.0
34.251792907714844,-11.98747444152832,-0.2397272586822509,-0.0,-0.0,-1.0,0.0853600131534443,1.0,0.0
33.669551849365234,-11.993825912475586,-0.1584417819976806,0.9110608309026248,-0.2802034276076488,0.3024139572704009,0.0257117746318248,3.0,0.0
34.32483673095703,-12.35581111907959,-0.195108413696289,-0.0,-0.0,-1.0,0.0154188125644538,2.0,0.0
33.84988784790039,-12.192913055419922,-0.1527767181396484,-0.0,-0.0,-1.0,0.0693979607944938,2.0,0.0
33.72206115722656,-12.236701965332031,-0.1285488605499267,-0.9333054853133608,-0.3419651434802114,-0.1095477600343821,0.0505849318296574,4.0,0.0
32.969337463378906,-12.359323501586914,-0.0087189674377441,-0.0,-0.0,-1.0,0.1607993175093455,1.0,0.0
34.38064193725586,-12.773526191711426,-0.1415719985961914,0.5779146426790871,-0.5781971945891453,-0.5759363419218704,0.087817501044814,3.0,0.0
32.71223449707031,-13.340060234069824,0.1771540641784668,-0.0,-0.0,-1.0,0.1382346065814377,2.0,1.0
33.75774002075195,-12.39886474609375,-0.175689697265625,-0.0,-0.0,-1.0,0.0737855332405096,2.0,0.0
33.43968963623047,-12.203620910644531,-0.1748867034912109,0.7640334949818831,-0.0269635998770589,-0.64461289378001,0.0184054529143467,3.0,0.0
33.094642639160156,-12.094839096069336,-0.1577565670013427,-0.0,-0.0,-1.0,0.0328026882912894,1.0,0.0
34.4002571105957,-12.887776374816896,-0.1679146289825439,-0.0,-0.0,-1.0,0.0668692796895095,1.0,0.0
34.21078109741211,-12.71445655822754,-0.1742153167724609,-0.0,-0.0,-1.0,0.0244831893613318,1.0,0.0
33.8818473815918,-12.644837379455566,-0.1477391719818115,0.5603604106497626,0.074922089965454,-0.8248532539862093,0.0608895369434354,8.0,0.0
34.479408264160156,-13.060791969299316,-0.1491460800170898,0.6748437753074618,-0.3182781654756023,-0.6657964315842022,0.053212232220022,4.0,0.0
35.20238494873047,-13.837594032287598,-0.1186549663543701,-0.0,-0.0,-1.0,0.0467405467614799,1.0,0.0
34.35270690917969,-12.059759140014648,0.3118078708648681,-0.0,-0.0,-1.0,0.1321063932835263,1.0,1.0
33.93335723876953,-13.707212448120115,0.0232579708099365,-0.0,-0.0,-1.0,0.1613940575051604,1.0,1.0
32.80424499511719,-13.346640586853027,0.0920345783233642,0.9607871969962212,0.1261646782520818,0.2469219229831427,0.1525466170029838,11.0,1.0
33.585514068603516,-14.34260368347168,0.1696176528930664,-0.9368804395842404,-0.2873391012709208,0.1992267120776218,0.1648120268717763,4.0,1.0
34.99668884277344,-12.315625190734863,0.0612835884094238,-0.0,-0.0,-1.0,0.1361159149777079,2.0,1.0
34.40081787109375,-12.013121604919434,0.0853865146636962,-0.0,-0.0,-1.0,0.1177731613575407,2.0,1.0
33.721435546875,-13.891852378845217,-0.1360328197479248,-0.5021662318817186,0.6877719046856833,-0.524212631174358,0.0739962051224621,3.0,0.0
33.55663299560547,-14.344690322875977,-0.0394754409790039,-0.0,-0.0,-1.0,0.222948171217146,1.0,0.0
34.84205627441406,-11.963774681091309,-0.1572580337524414,-0.0,-0.0,-1.0,0.0868536648314677,2.0,0.0
35.18767547607422,-12.967819213867188,-0.0490567684173584,-0.0,-0.0,-1.0,0.0718142523360138,1.0,0.0
34.761619567871094,-12.7417573928833,-0.0323426723480224,-0.0,-0.0,-1.0,0.1209959458399872,2.0,0.0
34.6625862121582,-12.523751258850098,-0.0534114837646484,-0.0,-0.0,-1.0,0.099232463387205,2.0,0.0
35.00212097167969,-12.999338150024414,-0.0226087570190429,-0.0,-0.0,-1.0,0.0585192020525433,2.0,0.0
34.89787292480469,-12.894979476928713,-0.0256099700927734,0.9015561171213712,0.0818762178788442,0.4248445040563572,0.0897904663451603,4.0,0.0
34.48503875732422,-12.03569221496582,0.0949177742004394,-0.623477122196193,0.7010966039030924,-0.3460344348377825,0.1666272666093919,6.0,1.0
33.87395477294922,-13.881121635437012,-0.1403675079345703,-0.0,-0.0,-1.0,0.1032473879658209,1.0,0.0
32.805946350097656,-13.24024486541748,-0.1129777431488037,-0.0,-0.0,-1.0,0.1290512165656144,1.0,0.0
34.990970611572266,-12.095824241638184,-0.1467852592468261,-0.0,-0.0,-1.0,0.0850800832132587,2.0,0.0
35.07137680053711,-12.92771339416504,-0.013110876083374,-0.0,-0.0,-1.0,0.0588000811078405,2.0,0.0
34.85340881347656,-12.719650268554688,-0.0266144275665283,-0.0,-0.0,-1.0,0.0519716272123821,1.0,0.0
34.846920013427734,-12.413115501403809,-0.0783207416534423,-0.0,-0.0,-1.0,0.1040376075290634,2.0,0.0
32.855003356933594,-11.994251251220703,0.0232820510864257,-0.0,-0.0,-1.0,0.1717704678300484,1.0,1.0
35.05903244018555,-14.23373794555664,-0.0695033073425293,-0.0,-0.0,-1.0,0.0896277558209215,1.0,0.0
34.48219680786133,-13.300130844116213,-0.1483585834503173,-0.2263551972170915,-0.142949369467842,-0.9634982109280524,0.0262346734748038,3.0,0.0
34.31370544433594,-13.19140911102295,-0.1460461616516113,0.7255285181555946,-0.0027023345731389,-0.6881867963938297,0.0399038383266019,4.0,0.0
34.115020751953125,-13.074467658996582,-0.1418929100036621,-0.0,-0.0,-1.0,0.011550400855637,1.0,0.0
33.65437316894531,-12.650270462036133,-0.1631193161010742,-0.0,-0.0,-1.0,0.0376438543434332,2.0,0.0
34.430477142333984,-11.945191383361816,0.2236883640289306,0.4520750132424263,0.3208138354491135,-0.832290012787784,0.1725202084766301,3.0,1.0
34.25876235961914,-13.594572067260742,-0.0694320201873779,-0.9427568518914796,0.0301113776172488,-0.3321186883474905,0.0467466727308676,3.0,0.0
33.92010498046875,-13.139710426330566,-0.106480598449707,-0.0,-0.0,-1.0,0.0142476951054117,2.0,0.0
33.681915283203125,-12.92306900024414,-0.1166656017303466,0.4404331843186563,-0.6669682350393868,-0.6009758594148135,0.0447538615486133,5.0,0.0
33.60773468017578,-12.77035903930664,-0.1356854438781738,0.1676038359131711,0.9093801280782866,-0.3807055776364597,0.0399739218591803,4.0,0.0
33.66819381713867,-13.061100959777832,-0.0902044773101806,0.9086625815088448,-0.416669029096653,0.0268185226538309,0.0237927232959759,3.0,0.0
33.12163162231445,-12.385505676269531,-0.1520071029663086,-0.0,-0.0,-1.0,0.2219462219135298,2.0,0.0
33.051570892333984,-12.866625785827637,-0.0537779331207275,0.131884930747055,0.650468177923859,-0.7479956647937603,0.0552189847609279,7.0,0.0
32.8698616027832,-12.375901222229004,-0.1261854171752929,-0.0,-0.0,-1.0,0.0979260264980825,2.0,0.0
32.81540298461914,-13.318696975708008,0.0571308135986328,0.8012842341839485,-0.5943457594302857,-0.0685324324351645,0.1756593840781038,12.0,1.0
35.13916778564453,-12.216004371643066,0.1376786231994629,-0.0,-0.0,-1.0,0.1832550582322399,2.0,1.0
34.411067962646484,-13.7442045211792,-0.1226301193237304,-0.1513111730048502,0.8105954667487074,-0.5657207068954974,0.0144738312525326,3.0,0.0
34.28669357299805,-13.609258651733398,-0.1237046718597412,-0.6083395232654374,0.3599573133287789,-0.7073568809408073,0.0417237572362267,4.0,0.0
34.11899948120117,-13.375346183776855,-0.133847951889038,-0.0,-0.0,-1.0,0.0348965259905571,1.0,0.0
33.812469482421875,-13.210476875305176,-0.1138367652893066,-0.0,-0.0,-1.0,0.0310440890181678,1.0,0.0
33.67628860473633,-12.883380889892578,-0.1463353633880615,-0.438584164534655,-0.7555157460909944,-0.4866619853943874,0.0549252096680862,5.0,0.0
33.5487174987793,-13.1591796875,-0.0830848217010498,-0.0,-0.0,-1.0,0.0289428628539131,2.0,0.0
33.29206466674805,-12.95170783996582,-0.0799667835235595,-0.0,-0.0,-1.0,0.0483815121795027,2.0,0.0
33.09722137451172,-12.795252799987791,-0.0781736373901367,-0.6428197235577257,0.0534988562747781,-0.7641470247160946,0.1073036042372096,4.0,0.0
33.004817962646484,-12.43164348602295,-0.1270828247070312,-0.0,-0.0,-1.0,0.2114766522151123,1.0,0.0
33.25395584106445,-13.988497734069824,0.0919435024261474,-0.0,-0.0,-1.0,0.1536563881403758,1.0,1.0
32.9251708984375,-13.344414710998535,0.0375170707702636,-0.0,-0.0,-1.0,0.2358779969635416,1.0,1.0
32.913761138916016,-13.2921781539917,0.03056001663208,-0.0,-0.0,-1.0,0.2110557227257211,1.0,1.0
33.012210845947266,-12.63322925567627,-0.0936830043792724,-0.0,-0.0,-1.0,0.1418630053812029,2.0,0.0
32.796546936035156,-12.302946090698242,-0.1211435794830322,0.955128963216598,-0.2940949794924877,0.0351682621421663,0.0338621830172662,3.0,0.0
34.68001174926758,-13.485662460327148,-0.1240551471710205,0.532105273764394,-0.8009764897351936,0.2744096217766548,0.0294627631171333,3.0,0.0
34.42601776123047,-13.391157150268556,-0.0969672203063964,-0.0,-0.0,-1.0,0.0641261578203635,1.0,0.0
34.330352783203125,-12.990535736083984,-0.1423840522766113,0.8719289788700394,-0.4294215626564073,-0.2352381289935363,0.0490804752412037,3.0,0.0
34.18882369995117,-12.803010940551758,-0.1492576599121093,-0.0,-0.0,-1.0,0.0259093122650488,1.0,0.0
34.230979919433594,-13.552350997924805,-0.0415413379669189,-0.0,-0.0,-1.0,0.1641775751206338,1.0,0.0
33.87527847290039,-12.799375534057615,-0.1013650894165039,-0.0,-0.0,-1.0,0.113419647183261,2.0,0.0
33.73927307128906,-12.340004920959473,-0.1551089286804199,-0.0,-0.0,-1.0,0.0819523932843096,2.0,0.0
33.679325103759766,-14.25383758544922,0.1507503986358642,-0.0384287737973331,-0.9574322531698508,0.2860886399956074,0.1909938896555364,7.0,1.0
33.469932556152344,-12.193419456481934,-0.139467716217041,0.3419404503726011,-0.9394783954359204,-0.0213792635076863,0.017434682779136,3.0,0.0
33.31991195678711,-11.953083992004396,-0.1584727764129638,0.9083176924174444,0.3248655836245103,0.2634792633543572,0.0655389081603961,3.0,0.0
32.85401153564453,-13.333242416381836,0.1404867172241211,0.7217152667134913,-0.575751768047628,0.3842355727710596,0.1796343406093301,3.0,1.0
34.649383544921875,-13.682077407836914,-0.1552107334136963,-0.0,-0.0,-1.0,0.0316883463607854,1.0,0.0
34.59220886230469,-13.430227279663086,-0.1753911972045898,-0.0,-0.0,-1.0,0.0164919792493456,1.0,0.0
34.434722900390625,-13.022549629211426,-0.1982269287109375,-0.0,-0.0,-1.0,0.0412491893336717,2.0,0.0
34.316341400146484,-12.796722412109377,-0.2065193653106689,-0.0,-0.0,-1.0,0.0433820018128432,1.0,0.0
34.03565216064453,-13.76019287109375,-0.029783010482788,-0.0,-0.0,-1.0,0.2365937662527122,1.0,0.0
34.052730560302734,-12.624078750610352,-0.1830132007598877,-0.0,-0.0,-1.0,0.035548974828254,2.0,0.0
33.896392822265625,-12.366568565368652,-0.1915698051452636,-0.0,-0.0,-1.0,0.0630349944625284,2.0,0.0
33.84746551513672,-12.666799545288086,-0.1401574611663818,0.5112376803918476,-0.8481905237613245,-0.1385960661384485,0.0622433647739387,3.0,0.0
33.774932861328125,-12.235851287841797,-0.1893880367279052,-0.0,-0.0,-1.0,0.0652013504463289,1.0,0.0
33.60151290893555,-11.89569091796875,-0.2106215953826904,-0.0,-0.0,-1.0,0.0178889759728464,1.0,0.0
32.86796951293945,-13.456430435180664,0.1450598239898681,0.4064604930343877,0.5946589632843101,-0.6936646055464212,0.1918905559523177,4.0,1.0
34.40151596069336,-13.802282333374023,-0.1269068717956543,-0.0,-0.0,-1.0,0.0200469539633608,1.0,0.0
34.374961853027344,-13.491820335388184,-0.1557703018188476,-0.0,-0.0,-1.0,0.0342152239947193,2.0,0.0
34.28489303588867,-13.18101692199707,-0.173490285873413,0.4699901252802583,0.7332652077077482,-0.491356710857153,0.0356433720033417,4.0,0.0
34.00790786743164,-13.01834487915039,-0.1379063129425048,-0.0,-0.0,-1.0,0.0117085992170827,1.0,0.0
33.89555358886719,-12.664346694946287,-0.1604006290435791,0.3362397415926659,0.6674375427462783,-0.6644320602638824,0.0534421579352639,3.0,0.0
33.78186798095703,-12.334538459777832,-0.1819303035736084,-0.0,-0.0,-1.0,0.0668468984016034,2.0,0.0
33.685909271240234,-12.075803756713867,-0.1989452838897705,-0.0,-0.0,-1.0,0.0444468637532969,2.0,0.0
33.50838851928711,-11.93050479888916,-0.1861510276794433,-0.0,-0.0,-1.0,0.0230445005499842,2.0,0.0
32.850555419921875,-13.459423065185549,0.1452665328979492,0.4064604930343877,0.5946589632843101,-0.6936646055464212,0.1694062236970257,4.0,1.0
34.633094787597656,-13.788928031921388,-0.1328096389770507,-0.0,-0.0,-1.0,0.0230004723184667,1.0,0.0
34.52474594116211,-13.284637451171877,-0.1606533527374267,-0.0115318054384509,-0.4853055801187336,-0.8742685579208191,0.0582035517673656,4.0,0.0
34.436553955078125,-13.645488739013672,-0.1050291061401367,-0.0,-0.0,-1.0,0.0206591193841053,1.0,0.0
34.48774719238281,-13.260704040527344,-0.1555120944976806,-0.2263551972170915,-0.142949369467842,-0.9634982109280524,0.0337338300346273,3.0,0.0
34.372230529785156,-12.93263053894043,-0.167142629623413,0.4885999983581166,-0.8306655148395131,-0.2669547603262676,0.0865635683283309,4.0,0.0
34.192779541015625,-12.59890365600586,-0.1684880256652832,-0.0,-0.0,-1.0,0.0268993624073882,1.0,0.0
33.89289474487305,-12.496858596801758,-0.1195876598358154,-0.0,-0.0,-1.0,0.0673861856532042,1.0,0.0
33.85763168334961,-12.227834701538086,-0.1460168361663818,-0.0,-0.0,-1.0,0.066910726325337,2.0,0.0
35.070648193359375,-12.193225860595703,0.1583268642425537,-0.1424638536807803,0.9279828259467308,-0.3443137016476993,0.1895886642878859,3.0,1.0
33.65159225463867,-14.348296165466309,0.1305000782012939,-0.0,-0.0,-1.0,0.1494092342806585,2.0,1.0
33.10303497314453,-12.386918067932127,0.0255677700042724,0.2515157206464558,-0.9603062078689666,-0.1206309636702748,0.217145126934335,3.0,1.0
32.85870361328125,-13.39625358581543,0.1991195678710937,0.0832623530316005,-0.4496461901785883,-0.8893175384672912,0.193051812783504,6.0,1.0
35.191768646240234,-12.650751113891602,-0.0019178390502929,-0.0,-0.0,-1.0,0.0581404560841647,1.0,0.0
35.09490966796875,-12.38521957397461,-0.0019106864929199,0.0216184219974571,-0.2111928964488452,-0.9772053030555488,0.1905996661720999,5.0,0.0
35.08131790161133,-12.417251586914062,0.0031914710998535,-0.91976969366312,0.3689761126447027,-0.1337173844960118,0.2092882609610039,3.0,1.0
34.556617736816406,-11.983896255493164,0.0712044239044189,-0.7682221730372811,0.6158906846908297,-0.1746807298042318,0.1852300047007884,3.0,1.0
34.478065490722656,-11.9708251953125,0.0851962566375732,-0.5173057922979963,-0.8315057498137174,-0.2024670473970269,0.2357634982201227,4.0,1.0
34.822574615478516,-11.898706436157228,-0.2024817466735839,-0.0,-0.0,-1.0,0.0815487264462649,1.0,0.0
34.776100158691406,-12.040482521057127,-0.1843831539154052,-0.0,-0.0,-1.0,0.0559989819321592,1.0,0.0
34.734432220458984,-12.417661666870115,-0.1555690765380859,-0.0,-0.0,-1.0,0.0497541430431517,2.0,0.0
34.74082946777344,-12.156641960144045,-0.1704318523406982,-0.0180280872205316,0.8948723558677923,-0.4459579069540037,0.0520707804433038,3.0,0.0
34.781532287597656,-13.61889934539795,-0.1180856227874755,-0.0,-0.0,-1.0,0.0424206020642295,1.0,0.0
34.74650573730469,-13.289307594299316,-0.121086835861206,-0.0,-0.0,-1.0,0.0367510164296974,2.0,0.0
34.6389274597168,-12.910612106323242,-0.1122193336486816,-0.0,-0.0,-1.0,0.0732684037981587,2.0,0.0
34.61666488647461,-12.668460845947266,-0.1179523468017578,0.76817752529889,-0.1604889472232114,-0.619795601343587,0.0959666162251159,3.0,0.0
34.78966522216797,-13.99939250946045,-0.1100325584411621,-0.0,-0.0,-1.0,0.0761319027894188,1.0,0.0
34.73501968383789,-13.86387538909912,-0.1011924743652343,-0.0,-0.0,-1.0,0.0350038066473672,1.0,0.0
34.02943420410156,-13.76049518585205,0.0516905784606933,-0.0,-0.0,-1.0,0.2126728364670664,1.0,1.0
33.6491584777832,-14.302102088928224,0.1491308212280273,-0.8442403261769886,-0.1500170862779697,0.5145416848820317,0.1701072020395223,4.0,1.0
35.13030242919922,-12.205437660217283,0.0618946552276611,-0.0,-0.0,-1.0,0.1851961182904423,2.0,1.0
33.689002990722656,-12.353927612304688,-0.1801965236663818,-0.0,-0.0,-1.0,0.0534398211317947,1.0,0.0
33.6627082824707,-12.107291221618652,-0.186572790145874,0.0740554644106919,-0.4853481264093147,-0.8711790771029139,0.0417894886220941,4.0,0.0
33.76557159423828,-13.367094039916992,-0.159360647201538,-0.0,-0.0,-1.0,0.0151754594740546,1.0,0.0
33.665061950683594,-12.908434867858888,-0.1513948440551757,0.267803400521089,-0.0783723427213206,-0.9602807477845804,0.0533099182002478,6.0,0.0
33.69523620605469,-12.578312873840332,-0.1716091632843017,-0.0,-0.0,-1.0,0.0483487287150137,2.0,0.0
33.693965911865234,-13.819405555725098,-0.1318700313568115,-0.0,-0.0,-1.0,0.0148161606200738,1.0,0.0
33.676456451416016,-13.546558380126951,-0.1340227127075195,-0.0,-0.0,-1.0,0.0114843017169367,1.0,0.0
33.58875274658203,-13.118507385253906,-0.1264436244964599,-0.0,-0.0,-1.0,0.0336807501502916,1.0,0.0
32.79267883300781,-11.983997344970703,0.0025887489318847,-0.0,-0.0,-1.0,0.1520053676819984,2.0,1.0
33.53923797607422,-14.100281715393066,-0.0909976959228515,-0.0,-0.0,-1.0,0.0663633518373303,2.0,0.0
