x,y,z,nx,ny,nz,curvature,density
32.73787307739258,-20.963607788085938,0.5536092519760132,0.2525990925131156,-0.7153671768384444,-0.6514932852790921,0.0756824518579773,3.0
32.59666442871094,-21.272554397583008,0.5446075201034546,0.1840662425848855,-0.96751273800616,-0.173316820119992,0.0734122330648193,4.0
33.18184280395508,-20.68788146972656,0.5377802848815918,-0.0,-0.0,-1.0,0.0343575019623133,1.0
32.906707763671875,-21.039289474487305,0.5365526676177979,-0.0,-0.0,-1.0,0.0633627761330191,1.0
32.08332443237305,-21.643218994140625,1.0759458541870115,0.4189610345741826,-0.3378045058539984,-0.8428284329169649,0.218880460170201,8.0
32.272430419921875,-21.68439483642578,1.0641783475875854,0.2312510674106443,-0.9627881672311556,0.1398638225600544,0.1304441238474433,4.0
32.025474548339844,-21.34506607055664,0.4701683521270752,-0.0,-0.0,-1.0,0.1839861028686846,2.0
32.43459701538086,-21.09431266784668,0.4646012783050537,-0.0,-0.0,-1.0,0.0670887600598195,2.0
31.939987182617188,-20.58931541442871,0.5361496210098267,-0.3106891440878594,-0.5431325505115352,-0.7800508241908267,0.1446175908096184,3.0
32.03077697753906,-20.777687072753903,0.5154134035110474,-0.0,-0.0,-1.0,0.1990316244331403,2.0
31.722145080566406,-21.18372917175293,0.5016685724258423,-0.0,-0.0,-1.0,0.1605112302463073,1.0
32.39363479614258,-20.963294982910156,0.4775903224945068,-0.0,-0.0,-1.0,0.0366136022654203,2.0
32.05826187133789,-21.27052116394043,0.4741439819335937,-0.0,-0.0,-1.0,0.1984100409491145,1.0
32.96124267578125,-20.49350357055664,0.4765968322753906,-0.0,-0.0,-1.0,0.1859660541894833,2.0
32.70942687988281,-20.828536987304688,0.4675818681716919,-0.4869519085837295,-0.7623582887452185,-0.4262483763114243,0.1183274932592876,4.0
31.97667121887207,-21.70844268798828,0.9368308782577516,-0.5778563086999184,-0.7775697566022481,-0.24792611825547,0.1613643025944425,4.0
32.15360641479492,-21.727394104003903,0.9281220436096193,0.4857340569420092,0.0201222009139541,-0.8738750041951282,0.086222972354253,5.0
31.798744201660156,-21.616455078125,1.4344028234481812,-0.0,-0.0,-1.0,0.1725377779491096,1.0
32.012474060058594,-20.68542861938477,0.6865235567092896,-0.0,-0.0,-1.0,0.169831697132979,2.0
32.15272903442383,-20.69427490234375,0.6764113903045654,-0.371466342534556,0.0501143681071879,-0.9270929330294868,0.2149877948295337,4.0
32.359622955322266,-21.393043518066406,0.6152223348617554,0.125306783318159,-0.408929102386897,-0.9039221201384016,0.2323741308607446,5.0
32.21083068847656,-21.615184783935547,0.610042929649353,-0.0,-0.0,-1.0,0.155345977334865,2.0
31.97454833984375,-22.059600830078125,0.5950301885604858,-0.0,-0.0,-1.0,0.1045476267578073,1.0
32.88487243652344,-21.32290267944336,0.5842019319534302,-0.0,-0.0,-1.0,0.06124001677039,2.0
32.810813903808594,-21.38241958618164,0.5853043794631958,-0.0,-0.0,-1.0,0.0975879294433591,2.0
31.993574142456055,-21.668685913085938,1.088912844657898,0.7547671297405153,-0.0355827269958395,-0.6550270600538607,0.1781539660967393,4.0
31.72916603088379,-21.690391540527344,1.100461483001709,-0.0,-0.0,-1.0,0.1823243016482784,2.0
32.142799377441406,-21.6854248046875,1.0812301635742188,-0.1257931033273174,-0.9656304331092656,0.2274510096888881,0.1121482356791649,8.0
31.79943084716797,-20.591590881347656,0.3254392147064209,-0.0,-0.0,-1.0,0.1528669741350261,2.0
31.736961364746097,-20.836355209350582,0.3312406539916992,-0.0,-0.0,-1.0,0.101295954718401,1.0
31.870777130126953,-20.58998680114746,0.3097825050354004,-0.0,-0.0,-1.0,0.1476607846249275,1.0
31.761445999145508,-21.080358505249023,0.7099287509918213,-0.0,-0.0,-1.0,0.1696667599709639,1.0
31.79017448425293,-21.86496925354004,0.6866705417633057,-0.0,-0.0,-1.0,0.2386210205533537,1.0
31.724016189575195,-22.212249755859375,0.6895267963409424,-0.0,-0.0,-1.0,0.2047041439540017,2.0
32.212223052978516,-21.46445655822754,0.618208646774292,-0.0,-0.0,-1.0,0.2215719305214013,2.0
32.14176940917969,-21.74612808227539,0.6249215602874756,-0.5912723160389286,-0.8003159103308475,-0.0994559799975249,0.2193533149141696,5.0
32.65525436401367,-21.13910865783691,0.5421373844146729,-0.0,-0.0,-1.0,0.0679131664067336,2.0
32.5853157043457,-21.27861976623535,0.5525805950164795,0.1840662425848855,-0.96751273800616,-0.173316820119992,0.0734194156532689,4.0
32.31828308105469,-21.749588012695312,0.5922718048095703,-0.0,-0.0,-1.0,0.0927083581788253,1.0
32.76121139526367,-21.05174446105957,0.5238316059112549,-0.0,-0.0,-1.0,0.0726901963852267,1.0
32.7031135559082,-21.252574920654297,0.5311062335968018,-0.0,-0.0,-1.0,0.066503095838303,1.0
32.200687408447266,-21.4780216217041,1.028270244598389,-0.0,-0.0,-1.0,0.1492010156666069,1.0
32.13450622558594,-21.579349517822266,1.037819743156433,0.7544830178201449,-0.5683295412610647,-0.3282634739824011,0.2351740081922909,3.0
31.72555923461914,-21.123809814453125,0.5838372707366943,-0.0,-0.0,-1.0,0.1390004137927568,2.0
31.836681365966797,-21.665264129638672,0.5414528846740723,-0.0,-0.0,-1.0,0.1797077129992246,1.0
31.98614501953125,-20.54989242553711,0.5459010601043701,0.6187451823840492,-0.7843170264912419,0.0447347877212557,0.2548308001110274,5.0
32.007930755615234,-21.070213317871097,0.5269057750701904,-0.0,-0.0,-1.0,0.2204253548461189,1.0
31.97116470336914,-21.42603302001953,0.5226786136627197,-0.0,-0.0,-1.0,0.1327013492042166,1.0
32.1897087097168,-20.512046813964844,0.5037827491760254,-0.0,-0.0,-1.0,0.2034326748370463,1.0
32.30648422241211,-20.86767578125,0.4702770709991455,-0.0,-0.0,-1.0,0.0456595964546167,2.0
32.63959884643555,-20.409692764282227,0.4103317260742187,-0.0,-0.0,-1.0,0.0875044368365306,1.0
31.74839782714844,-21.3699951171875,0.9578306674957277,-0.0,-0.0,-1.0,0.1162628791100978,1.0
31.736204147338867,-22.226985931396484,0.9393534660339355,-0.0,-0.0,-1.0,0.09304920877513,1.0
32.00678634643555,-21.558218002319336,0.9092973470687866,0.2343057433440839,-0.1975181513122542,-0.9518862319301424,0.2131662505163618,6.0
32.19387435913086,-20.59528350830078,0.8918211460113525,-0.0,-0.0,-1.0,0.1121167167400304,1.0
32.54938507080078,-21.366044998168945,0.8184906244277954,-0.0,-0.0,-1.0,0.14191074261617,1.0
32.72056579589844,-21.625076293945312,0.7840793132781982,-0.0,-0.0,-1.0,0.1247337397469031,1.0
32.90412902832031,-20.559600830078125,0.7657053470611572,0.8857085412031547,0.450887124208677,-0.1105494516612751,0.1448439251490077,3.0
32.831687927246094,-20.64125061035156,0.7779397964477539,-0.400743339323119,-0.2139580943936738,-0.8908572892621934,0.1329020972085499,8.0
32.7945671081543,-21.572521209716797,0.7721061706542969,-0.0,-0.0,-1.0,0.1343812594643683,2.0
32.940677642822266,-20.489572525024418,0.7596943378448486,-0.0,-0.0,-1.0,0.1683616899057461,2.0
33.50067901611328,-21.619857788085938,0.6476650238037109,-0.0,-0.0,-1.0,0.0526460877263482,2.0
33.555030822753906,-21.7639102935791,0.6358828544616699,-0.0,-0.0,-1.0,0.0456421516819722,2.0
33.46139907836914,-20.815013885498047,0.6641135215759277,-0.0,-0.0,-1.0,0.1039166409415251,1.0
33.664459228515625,-21.50053024291992,0.6205325126647949,-0.0,-0.0,-1.0,0.02773294892724,2.0
31.77301788330078,-21.56403350830078,1.3362805843353271,0.1410870457772886,0.4374353547910879,-0.8881130310341314,0.2092877583331303,3.0
31.72542953491211,-22.3602237701416,0.5912728309631348,-0.0,-0.0,-1.0,0.1777085886875188,1.0
31.760047912597656,-21.17247772216797,0.5959696769714355,-0.0,-0.0,-1.0,0.2257601764658029,2.0
31.93798065185547,-21.693248748779297,0.5549125671386719,-0.0,-0.0,-1.0,0.1495994834530841,1.0
31.99300765991211,-20.53480339050293,0.5438737869262695,0.9116620577623088,-0.4072149527299611,0.055211182832174,0.2314345037410824,3.0
31.826921463012695,-21.023426055908203,0.5818774700164795,-0.0,-0.0,-1.0,0.2105043395520294,1.0
32.18765640258789,-21.555980682373047,0.5021758079528809,0.0065160970786403,0.0520011592486415,-0.9986257656978712,0.1935620636405317,3.0
32.08832931518555,-20.51348114013672,0.5226192474365234,-0.0,-0.0,-1.0,0.263581490540221,2.0
32.38890075683594,-20.866872787475582,0.4585192203521728,-0.0,-0.0,-1.0,0.0599452870302457,2.0
32.34021759033203,-21.16748046875,0.470043420791626,-0.0,-0.0,-1.0,0.0708035062027793,1.0
32.67064666748047,-20.366493225097656,0.3918771743774414,-0.0,-0.0,-1.0,0.1003353542365917,1.0
32.61833190917969,-20.571056365966797,0.4058513641357422,-0.0,-0.0,-1.0,0.1206910863914065,2.0
31.81070899963379,-21.350540161132812,0.9572765827178956,-0.0,-0.0,-1.0,0.1236077212262232,1.0
31.859752655029297,-21.454078674316406,0.9492931365966796,0.8788179778569716,0.371992317711135,-0.2988321892957336,0.0931043783837309,3.0
32.134910583496094,-21.738740921020508,0.9016475677490234,0.3015031401490896,-0.928646018661898,-0.2161305820647421,0.1458902631519576,5.0
32.22881317138672,-20.633094787597656,0.8698861598968506,-0.5279090529401448,-0.7955376189206359,0.2973750640284506,0.1166466188211542,3.0
32.82008743286133,-21.59711456298828,0.77518630027771,-0.0,-0.0,-1.0,0.1212606915047066,2.0
32.84793472290039,-20.616724014282227,0.753854513168335,-0.7302983410394952,0.5466665028583174,-0.4096584769385569,0.1608888142828539,4.0
33.505706787109375,-21.859033584594727,0.6524378061294556,-0.0,-0.0,-1.0,0.0293778065600047,1.0
32.959999084472656,-20.519330978393555,0.7306996583938599,-0.0,-0.0,-1.0,0.1400777118315128,2.0
33.494815826416016,-20.87462043762207,0.6381726264953613,-0.0,-0.0,-1.0,0.1076481589995592,1.0
33.684654235839844,-21.59200668334961,0.61572265625,-0.0,-0.0,-1.0,0.0391860766023161,2.0
31.802993774414062,-21.581371307373047,1.3325029611587524,-0.0,-0.0,-1.0,0.1978093269177029,2.0
31.880760192871097,-22.13010025024414,0.643928050994873,0.0995493002952609,0.8010855477831281,-0.5902134206740212,0.1702912296499127,3.0
32.169898986816406,-21.840972900390625,0.5882525444030762,-0.0,-0.0,-1.0,0.124455934879338,1.0
31.714584350585938,-20.78982162475586,0.3392715454101562,-0.0,-0.0,-1.0,0.1042730656718622,2.0
32.26778030395508,-21.474443435668945,0.5713710784912109,-0.0,-0.0,-1.0,0.2257745897835487,1.0
32.27577209472656,-21.60043716430664,0.5686802864074707,-0.0,-0.0,-1.0,0.1568308891258983,1.0
31.81305694580078,-20.502286911010746,0.3169991970062256,-0.0,-0.0,-1.0,0.1512880551488867,2.0
32.59894561767578,-21.02126693725586,0.5010466575622559,-0.2029377075184611,0.7637262796819092,-0.6128119259531275,0.1009210022789841,3.0
32.67008590698242,-20.930130004882812,0.4852433204650879,-0.0,-0.0,-1.0,0.1122252593516425,2.0
32.9249382019043,-20.532028198242188,0.4258809089660644,-0.0,-0.0,-1.0,0.088095434823749,1.0
32.048431396484375,-21.50167465209961,0.9869035482406616,-0.0,-0.0,-1.0,0.1851069336723484,1.0
31.98189926147461,-21.110515594482425,0.634364128112793,-0.0,-0.0,-1.0,0.1974330130449021,1.0
32.173606872558594,-21.194934844970703,0.592932939529419,-0.0,-0.0,-1.0,0.1342728709033254,1.0
32.01516342163086,-20.454811096191406,0.6254966259002686,-0.2848181058112287,-0.8758449666513767,-0.3895821363891733,0.2040095199857872,3.0
32.1554069519043,-20.653818130493164,0.5962018966674805,0.1009044207935434,-0.9216675563348472,-0.3746294348607307,0.2133747447058957,3.0
32.93025207519531,-20.560659408569336,0.8121993541717529,-0.0,-0.0,-1.0,0.1448439251490078,2.0
33.571327209472656,-21.017108917236328,0.7028727531433105,-0.0,-0.0,-1.0,0.1201013587296923,1.0
31.8321533203125,-21.610231399536133,0.5127477645874023,-0.0,-0.0,-1.0,0.174359140640026,2.0
31.781103134155273,-21.087825775146484,0.5377626419067383,-0.0,-0.0,-1.0,0.1853738348887916,2.0
31.96700668334961,-21.46699333190918,0.4855484962463379,-0.0,-0.0,-1.0,0.1561567859321548,1.0
32.18697738647461,-20.824155807495117,0.4455823898315429,-0.0,-0.0,-1.0,0.090792678906387,1.0
32.27362823486328,-20.95488166809082,0.4231851100921631,-0.0,-0.0,-1.0,0.0279527432303648,1.0
32.76923751831055,-21.42166519165039,0.6823633909225464,-0.0,-0.0,-1.0,0.1277619027098319,1.0
32.94302749633789,-21.451526641845703,0.6469335556030273,-0.0,-0.0,-1.0,0.0742363644073852,2.0
32.14255905151367,-20.56270217895508,0.4584600925445556,-0.0,-0.0,-1.0,0.223946737750158,1.0
32.407596588134766,-20.671348571777344,0.3937079906463623,-0.0,-0.0,-1.0,0.0661564995892316,2.0
33.281856536865234,-21.33359718322754,0.57826828956604,-0.0,-0.0,-1.0,0.0531722103047689,1.0
32.56452178955078,-20.454381942749023,0.3566517829895019,-0.0,-0.0,-1.0,0.0698868203590992,2.0
33.13373565673828,-20.620819091796875,0.6049535274505615,-0.0,-0.0,-1.0,0.1016776301953352,2.0
33.39216613769531,-20.909536361694336,0.5539491176605225,-0.0,-0.0,-1.0,0.1112306715060452,2.0
33.42936706542969,-20.482742309570312,0.541468620300293,-0.1437072136710687,-0.9471595629225212,-0.2867699410735301,0.0517177297373208,4.0
32.061973571777344,-21.67910385131836,0.8216845989227295,0.6592943816061635,-0.7381612293598195,0.1429997127708529,0.1866324222560075,5.0
32.2012939453125,-21.68329429626465,1.157954454421997,0.2456948725308128,-0.442795782243214,-0.8623026874825847,0.1844055255894346,4.0
32.25106430053711,-21.629255294799805,1.1495293378829956,-0.0,-0.0,-1.0,0.1679260598913695,2.0
32.14588928222656,-20.728824615478516,0.8101329803466797,-0.1608821790419135,-0.5543550968558838,0.8165827276257008,0.2660528081800784,7.0
32.20825958251953,-20.643051147460938,0.7969741821289062,0.8858898508533019,-0.3716676103756939,0.2776010798839526,0.2856923633072604,5.0
32.836612701416016,-20.595195770263672,0.6665799617767334,0.7512879993844658,0.4330703596385802,-0.4980124552492617,0.1118341408533425,4.0
31.749168395996097,-22.034547805786133,1.231633186340332,0.7045183193571075,-0.1084621568798666,-0.7013486281552165,0.1662586881128626,3.0
32.16299819946289,-21.70352554321289,1.1643455028533936,0.2041846934326555,-0.7220677097725865,-0.6610044125961523,0.2191335248944957,4.0
32.17022705078125,-21.62897491455078,1.1629698276519775,0.039448963869116,0.1505006087700069,-0.9878225275875776,0.2352678058720562,5.0
31.862024307250977,-20.749473571777344,0.3339815139770508,-0.0,-0.0,-1.0,0.1084631310583108,1.0
31.956207275390625,-20.419353485107425,0.3181760311126709,-0.0,-0.0,-1.0,0.1689449207033277,2.0
31.798419952392575,-22.062400817871097,0.6408829689025879,-0.0,-0.0,-1.0,0.15440631182621,1.0
31.710399627685547,-21.66464614868164,0.6772063970565796,-0.0,-0.0,-1.0,0.178839495863047,1.0
32.173274993896484,-21.73411750793457,0.5728740692138672,-0.6471490024452813,-0.2703718610899265,-0.7128093892232668,0.2038318177002442,3.0
33.540321350097656,-22.15556907653809,0.6633210182189941,-0.0,-0.0,-1.0,0.0413331667425144,1.0
32.080482482910156,-21.338905334472656,0.6065011024475098,-0.0,-0.0,-1.0,0.1222023540277366,1.0
32.91160202026367,-21.710060119628903,0.7897679805755615,-0.0,-0.0,-1.0,0.0583633048390809,2.0
33.66230010986328,-21.839719772338867,0.6443800926208496,-0.0,-0.0,-1.0,0.0249428036959487,1.0
31.920637130737305,-20.634511947631836,0.659186840057373,-0.0,-0.0,-1.0,0.2114572366430635,2.0
32.12156677246094,-21.020179748535156,0.6057636737823486,-0.0,-0.0,-1.0,0.2034552783594926,1.0
32.576961517333984,-21.02634620666504,0.5019967555999756,-0.2029377075184611,0.7637262796819092,-0.6128119259531275,0.0831442012181525,3.0
31.983299255371097,-20.52251434326172,0.6463806629180908,0.0833779311292851,-0.780355982044598,-0.6197520971225601,0.1620455544382029,3.0
32.83892059326172,-20.62832260131836,0.4471640586853027,-0.0,-0.0,-1.0,0.1326002109304549,2.0
32.91808319091797,-20.618804931640625,0.4288995265960693,-0.0,-0.0,-1.0,0.0846479120908567,1.0
33.401611328125,-21.08230209350586,0.7000267505645752,0.1538589444138109,-0.9809973789354296,-0.1182013863949376,0.1281737057554046,4.0
33.69523239135742,-21.07550811767578,0.6423327922821045,-0.0,-0.0,-1.0,0.1124127714282846,2.0
31.84449005126953,-21.517120361328125,0.9950219392776488,-0.0,-0.0,-1.0,0.1261482247080178,2.0
31.991256713867188,-21.45616149902344,0.968541979789734,-0.0,-0.0,-1.0,0.0976350152367164,1.0
32.84491729736328,-20.643827438354492,0.8093971014022827,0.6388893800763752,0.2577732094925132,-0.7248264154220331,0.1366675409913997,5.0
32.91642761230469,-20.57656478881836,0.795050859451294,0.7988736875408222,0.4030405399181337,-0.4464965336230819,0.1515372075356831,4.0
31.74319076538086,-22.021488189697266,0.6770110130310059,-0.0,-0.0,-1.0,0.1150039877580505,2.0
32.13859558105469,-21.737810134887695,0.6057596206665039,-0.2212977604667872,-0.946861502549351,-0.2334107885303717,0.2193533149141696,7.0
32.52693176269531,-21.35302734375,0.5360586643218994,-0.0,-0.0,-1.0,0.0722345557373694,1.0
31.968095779418945,-20.956144332885746,0.3760261535644531,-0.0,-0.0,-1.0,0.1608582751506022,1.0
32.09833526611328,-20.846622467041016,0.3470003604888916,-0.0,-0.0,-1.0,0.0904980698876387,1.0
32.659339904785156,-21.096282958984375,0.515861988067627,-0.0,-0.0,-1.0,0.0724870602422057,2.0
31.936439514160156,-20.59444236755371,0.4048478603363037,-0.0,-0.0,-1.0,0.1306065445531402,1.0
32.229312896728516,-20.528995513916016,0.3270213603973388,-0.0,-0.0,-1.0,0.1492541075410627,1.0
32.88665008544922,-20.521726608276367,0.4799339771270752,-0.0,-0.0,-1.0,0.1212634783564625,2.0
32.971195220947266,-20.64109992980957,0.4560861587524414,-0.8988899979681594,-0.2552366396817625,-0.3561615213870873,0.0957714921817966,3.0
33.45262908935547,-22.15545082092285,0.6529083251953125,-0.0,-0.0,-1.0,0.0393665509949768,1.0
32.04380416870117,-21.600318908691406,0.954018235206604,0.6672336603620371,-0.5042748068751783,-0.5481844230100666,0.1995365060222006,4.0
32.737571716308594,-21.8343505859375,0.8073331117630005,-0.0,-0.0,-1.0,0.1339090427664953,1.0
32.95524597167969,-21.73111915588379,0.7674020528793335,-0.0,-0.0,-1.0,0.056446795053952,1.0
33.50700759887695,-21.953468322753903,0.6488262414932251,-0.0,-0.0,-1.0,0.0256538577463392,1.0
33.591583251953125,-21.813045501708984,0.6361411809921265,-0.0,-0.0,-1.0,0.0348405855154097,2.0
31.788814544677734,-21.340572357177734,0.8639203310012817,-0.0,-0.0,-1.0,0.1273180432588922,2.0
33.527244567871094,-21.721269607543945,0.6519143581390381,0.9407723931319012,0.0434402153639261,-0.3362443337961415,0.0483949825383334,4.0
33.3874626159668,-21.08503532409668,0.6960991621017456,-0.0137577885309865,-0.9989116640616224,0.0445669233443015,0.1359282063237631,5.0
31.98897171020508,-20.497310638427734,0.6992247104644775,-0.0,-0.0,-1.0,0.183300390313618,1.0
32.09868621826172,-20.666751861572266,0.6668156385421753,-0.8124124266333683,-0.4025497732023562,0.4218290283354306,0.2770171951601487,3.0
32.85215377807617,-20.59814453125,0.8163264989852905,0.1870009876663675,0.0715050097403,-0.9797538793971896,0.0912918471972676,7.0
31.74800491333008,-21.594621658325195,1.3172409534454346,-0.0,-0.0,-1.0,0.1954089485567642,2.0
32.02069091796875,-21.879003524780273,0.5999102592468262,-0.0,-0.0,-1.0,0.1586413457705094,2.0
31.86587905883789,-21.701480865478516,0.6558448076248169,-0.0,-0.0,-1.0,0.2263942641184106,1.0
32.07801055908203,-21.65415954589844,0.6089551448822021,-0.0,-0.0,-1.0,0.2454523420631935,1.0
32.485862731933594,-21.49288749694824,0.5237553119659424,-0.0,-0.0,-1.0,0.1438765532812702,1.0
33.07493591308594,-21.804786682128903,0.6708947420120239,-0.0,-0.0,-1.0,0.0448032908198159,1.0
33.433692932128906,-21.785900115966797,0.5929782390594482,-0.0,-0.0,-1.0,0.0400662366078149,1.0
32.12306213378906,-21.36349868774414,0.6261864900588989,-0.0,-0.0,-1.0,0.1172765330467362,2.0
32.57270431518555,-21.274595260620117,0.520535945892334,0.1840662425848855,-0.96751273800616,-0.173316820119992,0.0649699264912004,4.0
33.44137191772461,-21.593101501464844,0.603712797164917,-0.0,-0.0,-1.0,0.0530434067232547,1.0
33.59532928466797,-21.4312686920166,0.578498363494873,-0.0,-0.0,-1.0,0.0712920677049722,1.0
32.51884460449219,-20.821060180664062,0.5699594020843506,-0.0,-0.0,-1.0,0.1131053968167085,1.0
32.888580322265625,-20.82424545288086,0.4728701114654541,-0.0,-0.0,-1.0,0.1240427698347508,2.0
33.44599533081055,-21.08309555053711,0.6316590309143066,-0.0,-0.0,-1.0,0.138591404627666,1.0
33.671695709228516,-21.081993103027344,0.5795252323150635,-0.0,-0.0,-1.0,0.1482230180182163,2.0
32.96367263793945,-20.522994995117188,0.4716920852661133,-0.0,-0.0,-1.0,0.1876499009944467,2.0
33.579925537109375,-20.810876846313477,0.6137123107910156,-0.0,-0.0,-1.0,0.0920726308212335,2.0
31.999683380126953,-21.591716766357425,0.9192967414855956,0.2343057433440839,-0.1975181513122542,-0.9518862319301424,0.1543360243096639,6.0
32.680057525634766,-21.69984436035156,0.7646268606185913,-0.0,-0.0,-1.0,0.1047303740246215,1.0
32.75252151489258,-21.725404739379883,0.7469013929367065,-0.9452730244744796,-0.154693646532956,-0.2872782360764679,0.1223441902506572,3.0
32.006072998046875,-20.63979721069336,0.7165682315826416,-0.688485543851661,-0.6070068615252124,0.3969009019498368,0.2266197874325029,7.0
32.112674713134766,-20.67460250854492,0.6862646341323853,-0.4548078934954218,-0.7854228224849055,0.4198342172025782,0.1491363595890906,4.0
32.81564712524414,-20.611740112304688,0.8002591133117676,0.5036694726020183,0.3543674221310889,-0.787871050680866,0.1142617289185549,8.0
32.85416030883789,-20.57825088500977,0.7929168939590454,0.2452276499513524,0.398174145037763,-0.8839234977772584,0.1022145077626787,5.0
32.1990966796875,-21.664409637451172,1.1589094400405884,-0.5777154335881949,-0.2467830745496168,-0.7780379116147503,0.178256603265527,5.0
32.755958557128906,-21.907470703125,0.7950984239578247,-0.0,-0.0,-1.0,0.09401784195845,2.0
33.30278396606445,-22.07513427734375,0.6516283750534058,-0.0,-0.0,-1.0,0.0466844797900384,2.0
33.41046905517578,-22.15443992614746,0.6189231872558594,-0.0,-0.0,-1.0,0.0354782815226246,1.0
32.76217269897461,-21.8792724609375,0.7963443994522095,0.1031958682720988,0.0211987698579881,-0.994435128567005,0.1025668961575197,3.0
33.57856750488281,-21.782625198364254,0.6101861000061035,0.7680387917151896,0.5728607686748557,0.2862637841815225,0.0392465561640148,3.0
32.115699768066406,-21.848716735839844,0.9469482898712158,-0.0,-0.0,-1.0,0.2059095548521601,1.0
32.23451232910156,-21.89974021911621,0.9149339199066162,-0.0,-0.0,-1.0,0.1172677320531064,1.0
32.10447692871094,-21.670503616333008,0.9679573774337769,0.2042986276925953,-0.8938975594272847,-0.3990103055973196,0.0821747995804032,5.0
32.21569061279297,-21.649547576904297,0.9447500705718994,-0.0,-0.0,-1.0,0.2052594560371942,1.0
33.1988410949707,-20.801074981689453,0.5077981948852539,-0.0,-0.0,-1.0,0.0783754961922749,1.0
32.81864929199219,-20.531097412109375,0.56052565574646,-0.0,-0.0,-1.0,0.1684730937735669,1.0
32.012943267822266,-20.63866424560547,0.7495317459106445,-0.8045113030006005,-0.5636747912174959,-0.1871691563537861,0.2152040488078003,7.0
31.935256958007812,-20.57385635375977,0.757638692855835,-0.0,-0.0,-1.0,0.2251180512419812,2.0
33.423614501953125,-21.72447395324707,0.5510890483856201,-0.0,-0.0,-1.0,0.0522162390366194,1.0
33.2470703125,-21.951744079589844,0.6135077476501465,-0.0,-0.0,-1.0,0.0397546555405879,1.0
32.14263916015625,-21.77867126464844,0.8555538654327393,-0.7489408141031809,-0.317611836910816,-0.5815585766065201,0.177898439235243,4.0
32.322288513183594,-22.07458877563477,0.8433694839477539,0.7329623053415834,0.4115613135317372,0.541648912259946,0.146597830574219,3.0
32.02524185180664,-21.9190673828125,0.897078275680542,-0.0,-0.0,-1.0,0.2016278996096026,1.0
32.18198013305664,-22.355121612548828,0.9025635719299316,-0.0,-0.0,-1.0,0.1535417613918805,1.0
32.905208587646484,-21.085954666137695,0.5013668537139893,-0.0,-0.0,-1.0,0.0443739021920986,1.0
32.10481262207031,-20.714553833007812,0.6334483623504639,0.8362377043066271,-0.4427853634232656,0.3234928497418584,0.2560707093515275,3.0
31.999231338500977,-20.642396926879883,0.6466269493103027,-0.8742686015014537,-0.230546108491401,-0.4272035864645377,0.2074990924986453,3.0
33.112548828125,-22.115623474121097,0.5617408752441406,-0.0,-0.0,-1.0,0.0420214396628459,1.0
32.222618103027344,-22.04842758178711,0.7658140659332275,-0.0,-0.0,-1.0,0.2147948677597194,2.0
32.01555633544922,-22.007747650146484,0.8101274967193604,-0.0,-0.0,-1.0,0.1732126409113032,1.0
32.79444122314453,-20.54553985595703,0.8414003849029541,-0.0,-0.0,-1.0,0.1439861736957697,2.0
32.09040832519531,-21.59330368041992,1.088151216506958,0.6182879591964741,0.51547288596099,-0.5933023709304622,0.2074299659855307,4.0
32.035831451416016,-21.834936141967773,0.9566972255706788,-0.0,-0.0,-1.0,0.1736930097718356,1.0
31.773765563964844,-22.046852111816406,1.0314147472381592,-0.0,-0.0,-1.0,0.1562765868606192,1.0
33.45628356933594,-22.186222076416016,0.5536775588989258,-0.0,-0.0,-1.0,0.0354782815226246,1.0
33.3862419128418,-22.32810401916504,0.5798854827880859,-0.0,-0.0,-1.0,0.0312228614280902,1.0
33.24433898925781,-22.08930206298828,0.5959432125091553,-0.0,-0.0,-1.0,0.0492881693592659,1.0
32.05771255493164,-20.68409538269043,0.7270686626434326,-0.1018317761101007,-0.7386140208921173,-0.6663929902961473,0.1743323170427085,6.0
31.94189453125,-20.63287925720215,0.7457976341247559,-0.0,-0.0,-1.0,0.2543261651614521,2.0
32.3177604675293,-22.11976623535156,0.8130922317504883,-0.0,-0.0,-1.0,0.1847939710694812,2.0
32.039649963378906,-21.95988655090332,0.8632316589355469,-0.0,-0.0,-1.0,0.1808768474853956,1.0
31.971389770507812,-22.1061954498291,0.8916280269622803,-0.0,-0.0,-1.0,0.1768983991330334,1.0
32.1259880065918,-21.636587142944336,1.160372972488403,0.070813952070509,-0.3092081859263484,-0.9483541964626364,0.1952585902899836,4.0
32.09660720825195,-21.683841705322266,1.169838309288025,-0.0,-0.0,-1.0,0.1502465106869202,2.0
32.97321319580078,-20.510501861572266,0.523613691329956,-0.3581879959809435,0.7519240683827413,-0.5534542030935371,0.1655438249559592,4.0
32.91326141357422,-20.47367477416992,0.5311698913574219,-0.0,-0.0,-1.0,0.2284249514709884,1.0
33.553077697753906,-22.26200485229492,0.59177565574646,-0.0,-0.0,-1.0,0.0354782815226246,1.0
33.2805290222168,-22.0008544921875,0.6277718544006348,-0.0,-0.0,-1.0,0.0341271671964749,1.0
32.084266662597656,-20.673316955566406,0.7293281555175781,-0.2064869720805736,-0.6425736771399737,-0.7378768188578696,0.2128833927968399,6.0
32.23077392578125,-22.04051971435547,0.860832929611206,-0.0,-0.0,-1.0,0.2447886820267831,1.0
32.0226936340332,-21.619091033935547,0.8605456352233887,-0.0,-0.0,-1.0,0.1516880603469131,2.0
32.04716110229492,-22.165565490722656,0.9130828380584716,-0.0,-0.0,-1.0,0.2408846992632061,1.0
31.74059295654297,-22.0048770904541,0.9635388851165771,-0.0,-0.0,-1.0,0.1021155827363681,1.0
33.51555633544922,-20.72284698486328,0.5625190734863281,-0.0,-0.0,-1.0,0.0498658759208577,1.0
33.4605827331543,-20.490703582763672,0.55283522605896,-0.0,-0.0,-1.0,0.0466848092281709,2.0
32.115020751953125,-20.636638641357425,0.845989465713501,0.1160356614488886,-0.7913898459865174,-0.6001981647269133,0.2613567014141862,3.0
32.12043762207031,-22.104053497314453,0.9640398025512696,-0.0,-0.0,-1.0,0.1847722649961264,2.0
31.969587326049805,-21.70824432373047,0.969491481781006,-0.5261567266139315,-0.8259310140242053,0.202477305177298,0.1667242612026792,5.0
32.1683349609375,-22.336389541625977,0.967409372329712,-0.0,-0.0,-1.0,0.1477091966322841,1.0
32.904380798339844,-20.836265563964844,0.4995028972625732,-0.0,-0.0,-1.0,0.1199371682673515,2.0
32.91999053955078,-20.698776245117188,0.4877393245697021,-0.0,-0.0,-1.0,0.1207331218048597,1.0
32.15804672241211,-20.703548431396484,0.6639890670776367,0.7368205491705859,-0.3512898011958887,0.5776598946574957,0.2487983693457971,3.0
32.07609176635742,-22.31805419921875,0.7524950504302979,-0.0,-0.0,-1.0,0.1058693207131058,1.0
32.059261322021484,-22.128915786743164,0.7518439292907715,-0.0,-0.0,-1.0,0.1876141728170508,1.0
32.029998779296875,-21.77103042602539,0.7473468780517578,-0.0,-0.0,-1.0,0.1170356205222676,1.0
31.821311950683594,-22.240678787231445,0.8105454444885254,-0.0,-0.0,-1.0,0.2580332029624028,1.0
32.22827911376953,-21.692766189575195,1.072636365890503,-0.2063572969235159,-0.0592041034293998,-0.976683951001316,0.1440656124236395,7.0
32.15074920654297,-21.628570556640625,1.085662841796875,-0.329389556093863,-0.2104518905138764,-0.9204414821787552,0.1471867301068948,6.0
33.153587341308594,-20.750267028808594,0.4688124656677246,-0.0,-0.0,-1.0,0.0531817914858114,1.0
33.06846237182617,-20.364646911621097,0.470073938369751,-0.0,-0.0,-1.0,0.0957577374729925,2.0
33.042537689208984,-22.269590377807617,0.5335452556610107,-0.0,-0.0,-1.0,0.0496434018677747,1.0
33.01968002319336,-20.86493873596191,0.504812479019165,-0.0,-0.0,-1.0,0.0685256530484055,1.0
32.994544982910156,-20.432165145874023,0.490739107131958,-0.0,-0.0,-1.0,0.1274844876362365,1.0
32.821956634521484,-22.33219337463379,0.5853440761566162,-0.0,-0.0,-1.0,0.0481567819030814,1.0
32.15914535522461,-21.853551864624023,0.734600305557251,-0.0,-0.0,-1.0,0.2379633165982124,1.0
32.1131591796875,-20.654367446899418,0.7065079212188721,0.7403427360109137,-0.6022825630243223,0.2985772052798538,0.1884827154917928,7.0
31.758962631225582,-21.91270637512207,0.8289320468902588,-0.0,-0.0,-1.0,0.1261942736042666,2.0
31.88041305541992,-21.75735664367676,0.7979323863983154,-0.0,-0.0,-1.0,0.1517939221546709,1.0
32.178165435791016,-21.67110061645508,1.1061561107635498,-0.1786226275173141,0.7096248281759908,-0.681561853521019,0.1415209821569956,6.0
31.717185974121097,-22.06077766418457,1.203562617301941,0.3166099604587234,0.4858238674510436,-0.8146982894011966,0.1332884450536971,3.0
31.749717712402344,-21.59872055053711,1.1889662742614746,-0.0,-0.0,-1.0,0.1329465381324062,1.0
33.54370880126953,-21.36620330810547,0.5050721168518066,-0.0,-0.0,-1.0,0.0554354196526297,1.0
33.63197326660156,-21.2147216796875,0.4887125492095947,-0.0,-0.0,-1.0,0.0937696207360594,1.0
33.38522720336914,-21.0084228515625,0.5461900234222412,-0.0,-0.0,-1.0,0.1338386569447349,1.0
33.39240264892578,-20.90482711791992,0.5459647178649902,-0.0,-0.0,-1.0,0.0981648948054577,2.0
32.82928466796875,-20.54405212402344,0.6724240779876709,-0.0,-0.0,-1.0,0.1406938139973955,2.0
32.365211486816406,-20.653465270996097,0.77390456199646,-0.0,-0.0,-1.0,0.1727780674796486,1.0
32.185264587402344,-20.75861358642578,0.812659740447998,-0.3819026860193085,-0.3781171432387021,0.8433135623243825,0.1888492728168246,4.0
31.956748962402344,-21.357072830200195,0.8528532981872559,-0.0,-0.0,-1.0,0.1039640320227198,1.0
32.1740608215332,-20.73335838317871,0.8153131008148193,-0.4258190022788605,-0.5282405120517234,0.7346020274444998,0.2015557994812026,6.0
32.14695739746094,-20.613840103149418,0.8221027851104736,0.0848678910944285,-0.8175777727733115,-0.569529653774249,0.2398661912723264,5.0
33.100975036621094,-20.417688369750977,0.478337287902832,-0.0,-0.0,-1.0,0.0928886401868877,2.0
32.66295623779297,-21.145816802978516,0.5552794933319092,-0.0,-0.0,-1.0,0.0522094216510971,2.0
32.78253173828125,-20.990825653076172,0.5341641902923584,-0.0,-0.0,-1.0,0.089357717098923,1.0
32.85552978515625,-20.620304107666016,0.5291779041290283,0.7503654548890797,-0.5567847690232334,-0.3562897768570536,0.2045653669060192,3.0
32.364803314208984,-21.51459503173828,0.6057569980621338,-0.0,-0.0,-1.0,0.192485767524216,2.0
32.1142692565918,-22.080150604248047,0.629230260848999,-0.0,-0.0,-1.0,0.1092327183343428,1.0
32.09846496582031,-20.788005828857425,0.6951663494110107,0.8060163559750443,-0.2659889494048139,0.5287603546931575,0.1779034385388714,3.0
32.03645324707031,-20.642799377441406,0.7136125564575195,-0.5914284881348812,-0.5583936637448506,-0.581729197919523,0.1629503923543395,7.0
31.776782989501953,-22.24940490722656,0.6917283535003662,-0.0,-0.0,-1.0,0.2183664887011465,1.0
32.311729431152344,-22.056921005249023,0.9950315952301024,-0.5274693572659138,0.7669347526006629,-0.3654957761710025,0.2559491145334615,3.0
32.033226013183594,-21.56907844543457,1.0707321166992188,-0.0,-0.0,-1.0,0.2078448817146339,1.0
32.954715728759766,-20.596378326416016,0.4656286239624023,-0.8988899979681594,-0.2552366396817625,-0.3561615213870873,0.1051999445827745,3.0
32.612525939941406,-20.99935531616211,0.5238571166992188,-0.2029377075184611,0.7637262796819092,-0.6128119259531275,0.1030832809960877,3.0
32.75408172607422,-20.77281188964844,0.5029220581054688,-0.0,-0.0,-1.0,0.1632971491420108,2.0
32.152156829833984,-21.421533584594727,0.6018288135528564,-0.0,-0.0,-1.0,0.1276867434922544,2.0
32.46577453613281,-21.139196395874023,0.5491385459899902,-0.0,-0.0,-1.0,0.0893004063374658,2.0
32.08909225463867,-20.72956657409668,0.6535370349884033,0.4154048596432817,-0.5628470405512217,-0.714592199458878,0.2450362495115099,4.0
31.93347930908203,-21.924531936645508,0.6149318218231201,-0.0,-0.0,-1.0,0.1201753949649806,2.0
31.967674255371097,-21.58130645751953,0.6318240165710449,-0.0,-0.0,-1.0,0.1993768018127205,1.0
31.740612030029297,-21.550060272216797,1.0818283557891846,-0.0,-0.0,-1.0,0.2098526576322943,2.0
32.972511291503906,-20.622976303100582,0.4397766590118408,-0.8988899979681594,-0.2552366396817625,-0.3561615213870873,0.0994409007944548,3.0
32.97170639038086,-20.401611328125,0.4579925537109375,-0.0,-0.0,-1.0,0.1006931314645031,1.0
32.5853271484375,-20.972288131713867,0.4863066673278808,-0.0,-0.0,-1.0,0.0937921045901554,1.0
32.213497161865234,-21.528743743896484,0.5037627220153809,0.6169289766446725,-0.5028960780377408,-0.6053876216693032,0.2007765182982348,4.0
32.137054443359375,-21.718639373779297,0.4978692531585693,-0.0,-0.0,-1.0,0.1301402948067765,1.0
32.20294189453125,-21.567176818847656,0.501692533493042,0.0065160970786403,0.0520011592486415,-0.9986257656978712,0.2021185794976337,3.0
31.991344451904297,-20.59819793701172,0.6389148235321045,-0.7311530837043602,-0.6234513434938077,-0.2769902353610518,0.2094604172093097,8.0
31.93723487854004,-20.416542053222656,0.6656816005706787,-0.0,-0.0,-1.0,0.2176509602363499,2.0
32.065181732177734,-21.57918930053711,0.5270576477050781,-0.0,-0.0,-1.0,0.1772181672234153,1.0
31.957563400268555,-21.141096115112305,0.5939202308654785,-0.0,-0.0,-1.0,0.1974299684202487,1.0
31.891197204589844,-20.65126609802246,0.6541409492492676,-0.0,-0.0,-1.0,0.1924638981161873,2.0
31.841602325439453,-20.430389404296875,0.6836996078491211,0.0518925831639238,-0.1292405839983575,-0.9902545285230152,0.19162974159781,3.0
31.876163482666016,-21.50345993041992,1.000112771987915,-0.0945745578684457,0.5326997491105303,-0.8410033473783355,0.1114925074347722,3.0
31.77901840209961,-21.56914520263672,1.429724931716919,-0.0,-0.0,-1.0,0.176773825821461,1.0
32.507080078125,-20.91342544555664,0.4201977252960205,-0.0,-0.0,-1.0,0.0827776269002538,1.0
32.04859161376953,-20.87807846069336,0.443011999130249,-0.0,-0.0,-1.0,0.24499878702159,1.0
32.065547943115234,-20.854022979736328,0.3843708038330078,-0.2593741047014615,-0.113169487941226,-0.9591234231366867,0.1125725760788275,3.0
32.365379333496094,-20.49313735961914,0.3729422092437744,-0.0,-0.0,-1.0,0.1087716037550224,1.0
32.28635025024414,-21.48708724975586,0.9430158138275146,-0.0,-0.0,-1.0,0.1696543795694328,1.0
32.67173767089844,-21.570819854736328,0.8870720863342285,-0.0,-0.0,-1.0,0.1233879016332569,1.0
32.205780029296875,-21.584152221679688,0.9375414848327636,-0.0,-0.0,-1.0,0.2466118045418164,1.0
32.1671142578125,-21.655256271362305,1.013402223587036,0.3327697351168157,-0.9428392513083392,-0.0178451557184153,0.1377473194561803,6.0
31.98148727416992,-21.73655128479004,0.7279484272003174,-0.0,-0.0,-1.0,0.1940420166822908,2.0
31.931529998779297,-20.707216262817383,0.7491397857666016,-0.0,-0.0,-1.0,0.2492072114310578,1.0
32.30145263671875,-22.0355167388916,0.7065029144287109,-0.0,-0.0,-1.0,0.2120097861463251,1.0
31.725364685058594,-21.104782104492188,0.6770076751708984,-0.0,-0.0,-1.0,0.156619214906105,1.0
32.16419219970703,-21.75118637084961,0.6336219310760498,0.2754601653186168,-0.9007295005224828,-0.3358691176800253,0.2302189952331835,5.0
32.77479934692383,-21.477127075195312,0.579129695892334,-0.0,-0.0,-1.0,0.1165133593043062,1.0
33.033512115478516,-21.227588653564453,0.5565183162689209,-0.0,-0.0,-1.0,0.0403903003921914,1.0
33.37987518310547,-20.386821746826172,0.528374433517456,-0.0,-0.0,-1.0,0.0448221246337628,2.0
31.7581844329834,-21.8083438873291,1.1156164407730105,-0.0,-0.0,-1.0,0.135099345300775,2.0
32.215240478515625,-21.659753799438477,1.080982685089111,-0.60676040590253,-0.7826458886761738,-0.1389504327711107,0.1487530021895552,7.0
31.91167259216309,-22.07659912109375,0.5348713397979736,-0.0,-0.0,-1.0,0.0613444425102675,1.0
31.898517608642575,-20.44711685180664,0.5543043613433838,-0.0,-0.0,-1.0,0.1557595695397038,1.0
32.12469482421875,-21.545818328857425,0.5220587253570557,-0.0,-0.0,-1.0,0.2200438536699191,1.0
32.63732147216797,-21.152210235595703,0.4808802604675293,-0.0,-0.0,-1.0,0.0685392333579014,1.0
32.489402770996094,-21.38540267944336,0.4915058612823486,-0.0,-0.0,-1.0,0.0765555759828414,1.0
32.872188568115234,-20.757259368896484,0.4641382694244385,-0.0,-0.0,-1.0,0.1540274395139365,2.0
33.063682556152344,-20.453163146972656,0.4501874446868896,-0.0,-0.0,-1.0,0.1207401633487601,2.0
32.0302734375,-20.667634963989254,0.724902868270874,-0.5730260882345367,-0.610411426237297,0.5468445783964341,0.2009772333375573,6.0
32.18913269042969,-21.74595069885254,0.704841136932373,-0.0,-0.0,-1.0,0.1148006116769966,1.0
32.2177734375,-20.7217960357666,0.7065621614456177,-0.0,-0.0,-1.0,0.1844697324374742,2.0
32.76600646972656,-21.55072975158691,0.6500082015991211,-0.0,-0.0,-1.0,0.111360218809194,1.0
32.499671936035156,-22.065778732299805,0.6734821796417236,-0.0,-0.0,-1.0,0.1765581542233086,1.0
32.83927917480469,-20.630971908569336,0.6468527317047119,0.9446162267417316,-0.1118537958718911,0.3085270045316334,0.1253099169172879,4.0
32.95730209350586,-21.42276954650879,0.632061243057251,-0.3232206010882738,-0.3031729782760765,-0.8964455300102447,0.0438569887411425,3.0
33.295753479003906,-20.906648635864254,0.6014764308929443,-0.0,-0.0,-1.0,0.1138025309467812,2.0
33.443031311035156,-21.541757583618164,0.5845410823822021,-0.0,-0.0,-1.0,0.0378261370295864,2.0
33.65155029296875,-20.609331130981445,0.5681946277618408,-0.0,-0.0,-1.0,0.0461104769107123,1.0
31.95024681091309,-20.565940856933594,0.5157880783081055,0.6038469630821909,-0.7957724347927123,-0.0459899684767629,0.2167722289122187,4.0
31.78559303283691,-21.072242736816406,0.5145084857940674,0.7523524321463414,-0.6051659455046471,-0.2602690843049772,0.2132017723492828,3.0
31.82961082458496,-21.705379486083984,0.4959759712219238,-0.0,-0.0,-1.0,0.1349891207138528,1.0
32.132347106933594,-20.617652893066406,0.5021936893463135,-0.0,-0.0,-1.0,0.2367317949995623,1.0
32.22039794921875,-21.501724243164062,0.4746966361999511,0.8829028393540613,0.2204810172108884,0.4145729095227867,0.1772951428035871,3.0
32.670310974121094,-20.895267486572266,0.4588701725006103,0.9778217554725934,-0.1303344604198426,-0.163943718853648,0.108698123213139,3.0
33.018287658691406,-20.465965270996097,0.4453051090240478,-0.0,-0.0,-1.0,0.1157212932879657,2.0
32.902854919433594,-20.725086212158203,0.4470458030700683,-0.0,-0.0,-1.0,0.1261756811415426,2.0
32.1678466796875,-21.683948516845703,0.9172443151474,-0.8854451720699635,0.1931168393937629,-0.4227206330433334,0.1866366338053661,4.0
32.159820556640625,-20.71317672729492,0.8462283611297607,-0.1133894965886972,-0.7583370583549236,0.6419250174194517,0.1582730115244299,5.0
32.183372497558594,-21.716522216796875,0.8293025493621826,0.6497992079105507,-0.1260338018062491,-0.7495841982066346,0.2363683066553596,3.0
32.270782470703125,-20.62946319580078,0.8400652408599854,-0.0,-0.0,-1.0,0.1228168755582623,2.0
32.34819030761719,-21.73709487915039,0.8179647922515869,-0.1893333936530312,-0.9585813154176964,-0.2127785886312461,0.1947530699433266,3.0
33.51875305175781,-20.95440673828125,0.7512086629867554,-0.0,-0.0,-1.0,0.0721329116499571,2.0
31.74483108520508,-21.535144805908203,1.046389102935791,-0.0,-0.0,-1.0,0.1657274311575438,2.0
32.229896545410156,-21.607009887695312,1.0154340267181396,-0.0,-0.0,-1.0,0.1954980427272247,1.0
32.55365753173828,-21.95082092285156,0.9865636825561525,-0.0,-0.0,-1.0,0.1447043793568377,1.0
32.14832305908203,-21.623077392578125,0.675938606262207,-0.0,-0.0,-1.0,0.2239538898128267,2.0
32.11896896362305,-21.846878051757812,0.6603469848632812,-0.0,-0.0,-1.0,0.1535629574726845,1.0
32.7391357421875,-21.36584091186523,0.694021463394165,-0.0,-0.0,-1.0,0.1057894015415182,1.0
32.54527282714844,-21.548267364501953,0.6814160346984863,-0.7533778100523504,-0.1539247638303316,-0.6393192022773146,0.1527628174434678,3.0
32.968807220458984,-21.504928588867188,0.6844120025634766,-0.0,-0.0,-1.0,0.0615163388806191,1.0
33.364707946777344,-21.69192123413086,0.6713309288024902,-0.0,-0.0,-1.0,0.0615758956083565,1.0
32.10073471069336,-20.71318626403809,0.7388739585876465,-0.6478428828312608,-0.5236198081180441,-0.5532828351858604,0.1973353749786197,4.0
32.77779006958008,-20.63996124267578,0.7437155246734619,0.1959108786434927,0.9177988795575536,-0.3453464120445345,0.0986408331175178,4.0
32.11519241333008,-21.667022705078125,0.9971725940704346,0.2377800258677191,-0.9384713280022506,-0.2504640210010992,0.1194212278787895,6.0
31.988269805908203,-21.694847106933594,0.9991557598114014,0.7620668797118036,-0.6151390687481353,-0.2021336116186315,0.1900806335211019,3.0
31.87194061279297,-21.70197296142578,0.9517860412597656,-0.0,-0.0,-1.0,0.1586831816618169,1.0
32.206825256347656,-20.430131912231445,0.3597478866577148,-0.0,-0.0,-1.0,0.159588086382544,2.0
31.728431701660156,-21.23699951171875,0.4267454147338867,-0.0,-0.0,-1.0,0.1697603286580289,2.0
32.295169830322266,-21.47912216186523,0.4949917793273926,-0.0,-0.0,-1.0,0.1806851142282579,1.0
33.006465911865234,-20.56716537475586,0.4654440879821777,-0.0,-0.0,-1.0,0.1238979330197069,1.0
32.33629608154297,-21.075267791748047,0.517265796661377,-0.0,-0.0,-1.0,0.0545073152340485,1.0
32.45140838623047,-20.953807830810547,0.510714054107666,-0.6873120672492103,-0.603535864760348,-0.4041615792744229,0.0585630002173952,3.0
32.7719841003418,-20.686687469482425,0.4875698089599609,-0.0,-0.0,-1.0,0.2096241179254094,1.0
33.04703140258789,-20.376243591308594,0.4731879234313965,0.2769491014779902,-0.6910794871110189,-0.6676139136393917,0.0957577374729925,3.0
31.870773315429688,-20.84587860107422,0.592902660369873,-0.0,-0.0,-1.0,0.2036385955626286,1.0
32.60422134399414,-20.91234588623047,0.5514078140258789,-0.0,-0.0,-1.0,0.1948921878954939,2.0
32.91045379638672,-20.76047134399414,0.5346918106079102,-0.7696509828916062,0.1579750623234378,-0.6186123537546679,0.1253392349100382,4.0
33.29961013793945,-20.574283599853516,0.5126419067382812,-0.0,-0.0,-1.0,0.0546177768710058,1.0
32.18030548095703,-21.577342987060547,1.2231497764587402,-0.0,-0.0,-1.0,0.239921027804441,2.0
31.846391677856445,-20.682945251464844,0.3460960388183594,-0.0,-0.0,-1.0,0.1029255167570752,1.0
32.247196197509766,-20.45938491821289,0.3608403205871582,0.4103275211000001,0.5388011223094006,-0.7357476986209734,0.1555126728008658,3.0
31.972679138183594,-21.011966705322266,0.4484624862670898,-0.0,-0.0,-1.0,0.2285034676598942,1.0
32.512874603271484,-20.709880828857425,0.4786643981933594,-0.0,-0.0,-1.0,0.1609697760557619,1.0
32.81876754760742,-20.611576080322266,0.4829525947570801,-0.8281899929173855,-0.535346838000899,-0.1658466118856248,0.1923158593734084,4.0
32.04093551635742,-20.638118743896484,0.5102124214172363,-0.0,-0.0,-1.0,0.2631834338330199,1.0
32.21223449707031,-20.595767974853516,0.5105552673339844,-0.0,-0.0,-1.0,0.2582213775365103,1.0
33.044158935546875,-20.410945892333984,0.5079183578491211,-0.9981707948168465,0.039250748210198,0.0459830744909977,0.1206710049973906,4.0
31.89016342163086,-20.54022216796875,0.3906359672546386,-0.0,-0.0,-1.0,0.1571184355545919,1.0
32.26824188232422,-20.43094253540039,0.3934063911437988,-0.0,-0.0,-1.0,0.1506465808587863,2.0
31.864843368530273,-21.74232482910156,0.5918788909912109,-0.0,-0.0,-1.0,0.1540745917405261,1.0
32.049922943115234,-21.531314849853516,0.6201386451721191,-0.0,-0.0,-1.0,0.1313755264299431,2.0
32.36908721923828,-21.46838760375977,0.6169004440307617,-0.0,-0.0,-1.0,0.2719262464821089,2.0
32.79032897949219,-21.301342010498047,0.6263875961303711,-0.0,-0.0,-1.0,0.0710220837057637,1.0
33.07023239135742,-21.121055603027344,0.6439313888549805,-0.0,-0.0,-1.0,0.0676755956466739,1.0
33.38779067993164,-20.91752243041992,0.6632790565490723,-0.0,-0.0,-1.0,0.1425805543674752,1.0
33.59174346923828,-20.82214736938477,0.6694679260253906,-0.0,-0.0,-1.0,0.092176900011238,2.0
32.067543029785156,-20.69115447998047,0.7626886367797852,-0.445872962595476,-0.8170193468770044,-0.3656182271919802,0.150000367382629,5.0
31.97563743591309,-21.833473205566406,1.0196905136108398,-0.0,-0.0,-1.0,0.2491516801829781,1.0
31.85484313964844,-21.692962646484375,1.026608943939209,-0.0,-0.0,-1.0,0.1602235574584859,1.0
31.78627586364746,-20.979454040527344,0.3950910568237304,-0.0,-0.0,-1.0,0.1808393958861973,2.0
31.86916160583496,-20.59802627563477,0.4544482231140136,-0.0,-0.0,-1.0,0.1343340333534787,1.0
32.227638244628906,-20.71113967895508,0.405982494354248,-0.0,-0.0,-1.0,0.1246200160273427,2.0
32.42622375488281,-20.556812286376953,0.4159579277038574,-0.0,-0.0,-1.0,0.0566172087070815,1.0
32.6239128112793,-20.479236602783203,0.4126224517822265,-0.0,-0.0,-1.0,0.0973570306542633,1.0
31.918283462524418,-21.784395217895508,1.0129027366638184,-0.0,-0.0,-1.0,0.1945607761978067,2.0
33.229454040527344,-21.625259399414062,0.612088680267334,-0.0,-0.0,-1.0,0.0358512521093454,2.0
33.320343017578125,-21.537841796875,0.6063857078552246,-0.0,-0.0,-1.0,0.041687660631414,1.0
33.65689468383789,-20.898008346557617,0.6127219200134277,-0.0,-0.0,-1.0,0.1489192958675624,1.0
31.95724105834961,-20.794418334960938,0.8839578628540039,-0.0,-0.0,-1.0,0.1760604092649096,1.0
32.21921157836914,-21.533811569213867,0.7733817100524902,-0.0,-0.0,-1.0,0.2128914112953402,1.0
32.55629348754883,-22.02787399291992,0.674858570098877,-0.0,-0.0,-1.0,0.1405447792225333,1.0
32.57699203491211,-21.69771957397461,0.7039022445678711,-0.0,-0.0,-1.0,0.1084297221345524,1.0
32.607112884521484,-20.726768493652344,0.7912087440490723,-0.0,-0.0,-1.0,0.0898979608238957,1.0
33.3581428527832,-21.052400588989254,0.6453328132629395,-0.0,-0.0,-1.0,0.1464748226351268,1.0
33.53424835205078,-20.38395118713379,0.6775498390197754,-0.0,-0.0,-1.0,0.0388363338124346,1.0
32.007022857666016,-21.649394989013672,1.0355582237243652,0.6063575967938134,-0.7277402417955503,-0.320506794439346,0.1871914469271349,5.0
31.935434341430664,-21.749467849731445,1.0397672653198242,0.6755472496713493,0.211543874842518,-0.7063179896322116,0.2562294531660083,3.0
32.14984130859375,-22.10608291625977,0.9794268608093262,-0.0,-0.0,-1.0,0.1645807299681114,2.0
31.8524169921875,-20.636079788208008,0.5629940032958984,-0.0,-0.0,-1.0,0.2309423215271062,2.0
31.87886428833008,-21.122915267944336,0.5314750671386719,-0.0,-0.0,-1.0,0.1458264751737013,1.0
31.803279876708984,-21.370471954345703,0.5320720672607422,-0.0,-0.0,-1.0,0.1810514406331784,1.0
31.736095428466797,-21.70934295654297,0.5253934860229492,-0.0,-0.0,-1.0,0.1712152635163184,1.0
32.22169876098633,-20.473587036132812,0.4994440078735351,-0.0,-0.0,-1.0,0.1795042821549782,1.0
32.254539489746094,-20.800355911254883,0.4761276245117187,-0.0,-0.0,-1.0,0.145177899701865,1.0
32.2233772277832,-21.244823455810547,0.4583816528320312,-0.0,-0.0,-1.0,0.1069216536095697,1.0
32.369712829589844,-20.74361228942871,0.4566249847412109,-0.0,-0.0,-1.0,0.0626756916173299,2.0
31.86281394958496,-20.82409286499023,0.9131956100463868,-0.0,-0.0,-1.0,0.102447400664091,1.0
31.79817008972168,-21.0384521484375,0.9176464080810548,-0.0,-0.0,-1.0,0.1302787970437786,1.0
31.988527297973633,-20.63968086242676,0.8989276885986328,-0.0,-0.0,-1.0,0.1304615461697613,1.0
32.38999557495117,-21.743900299072266,0.811424732208252,-0.0,-0.0,-1.0,0.1790605509989403,2.0
32.24354553222656,-22.09962272644043,0.8252325057983398,-0.0,-0.0,-1.0,0.2002621456980716,1.0
33.12421417236328,-20.937171936035156,0.7209048271179199,-0.0,-0.0,-1.0,0.0910840180232911,2.0
31.76434326171875,-21.04667854309082,0.9809689521789552,-0.0,-0.0,-1.0,0.1028686589829906,1.0
31.765033721923828,-21.60600471496582,1.0033612251281738,-0.0,-0.0,-1.0,0.1564129550688592,1.0
31.992267608642575,-20.591930389404297,0.9222464561462402,-0.0,-0.0,-1.0,0.1093879423282867,1.0
32.111968994140625,-20.808698654174805,0.9092531204223632,-0.0,-0.0,-1.0,0.1125845045452635,1.0
32.327247619628906,-21.072263717651367,0.8810133934020996,-0.0,-0.0,-1.0,0.1566335231383306,1.0
