x,y,z,nx,ny,nz,curvature,density
19.99922561645508,-25.23406982421875,1.4746228456497192,-0.0,-0.0,-1.0,0.1437155378629951,2.0
18.74945068359375,-26.30578994750977,1.8628989458084104,-0.4207492449985343,-0.4311591367117237,-0.7981678217412453,0.0556757565674118,3.0
19.805269241333008,-24.601898193359375,1.7084630727767944,0.4515417508092308,-0.3458195468180473,-0.8225076828301937,0.0701915879998609,3.0
18.05358123779297,-26.83022117614746,1.3976554870605469,-0.0,-0.0,-1.0,0.1494583139285784,1.0
17.913131713867188,-25.952449798583984,1.1178405284881592,-0.0,-0.0,-1.0,0.1008177228672367,1.0
18.01081085205078,-25.989276885986328,1.120469093322754,-0.0,-0.0,-1.0,0.1460732981111805,1.0
18.60640335083008,-26.41344833374023,1.1040425300598145,-0.0,-0.0,-1.0,0.1255098238076953,1.0
18.69736671447754,-26.605140686035156,1.083017110824585,-0.0,-0.0,-1.0,0.0818757596741146,2.0
18.639633178710938,-26.179162979125977,1.137765884399414,-0.0,-0.0,-1.0,0.1523239902622235,1.0
18.945281982421875,-26.638526916503903,1.091710090637207,-0.0,-0.0,-1.0,0.0957482338953917,1.0
19.208290100097656,-26.764625549316406,1.0864274501800537,-0.0,-0.0,-1.0,0.0426930756531235,2.0
18.580596923828125,-25.233566284179688,1.2594153881072998,-0.0,-0.0,-1.0,0.1248452941934247,2.0
18.754547119140625,-25.405780792236328,1.24863862991333,-0.0,-0.0,-1.0,0.0802140116418146,2.0
19.602523803710938,-26.821868896484375,1.0944223403930664,-0.4960065587325957,0.2336724810402746,-0.8362862340722408,0.0642981782167654,4.0
18.46702003479004,-24.83074951171875,1.3027459383010864,-0.0,-0.0,-1.0,0.1970358798775529,1.0
19.464479446411133,-25.7315731048584,1.2443184852600098,-0.0,-0.0,-1.0,0.0876582784336062,1.0
20.186813354492188,-26.86156463623047,1.1063292026519775,-0.0,-0.0,-1.0,0.034385895151738,1.0
19.388172149658203,-24.86773681640625,1.0560083389282229,0.3110703811790946,0.8108606996646672,-0.495721841048404,0.2247673688376708,4.0
19.889883041381836,-25.47709274291992,0.9813454151153564,-0.0,-0.0,-1.0,0.0614217182010391,1.0
20.205612182617188,-25.781871795654297,0.941353440284729,-0.0,-0.0,-1.0,0.0191439707118808,2.0
19.315704345703125,-24.473533630371097,1.116746425628662,-0.0,-0.0,-1.0,0.1091444625001301,2.0
19.448631286621097,-24.83555030822754,1.0658596754074097,0.9843230402208012,0.0577090100753063,0.1666668012730994,0.2607343576231581,3.0
20.09119987487793,-25.39059829711914,1.006622314453125,-0.0,-0.0,-1.0,0.1679542537369469,1.0
18.584810256958008,-26.334468841552734,1.4735703468322754,-0.2480950991844302,0.9155490188297148,-0.316573555245245,0.2724880652938948,3.0
18.894775390625,-26.577295303344727,1.4612758159637451,-0.0,-0.0,-1.0,0.1313159119022653,1.0
18.488380432128903,-24.786537170410156,1.6227295398712158,-0.0,-0.0,-1.0,0.1763243834726579,1.0
19.0434627532959,-24.70683860778809,1.360209345817566,-0.0,-0.0,-1.0,0.2303498441003952,1.0
20.036489486694336,-25.192821502685547,1.4977612495422363,-0.0,-0.0,-1.0,0.156045039085635,1.0
18.771821975708008,-26.28521156311035,1.8399899005889893,-0.4207492449985343,-0.4311591367117237,-0.7981678217412453,0.0556757565674119,3.0
19.83141326904297,-24.571508407592773,1.710038423538208,-0.0,-0.0,-1.0,0.0695169507518508,2.0
17.86548614501953,-26.68111801147461,1.357957363128662,0.804607582569903,0.5917579060721407,0.0492871045216956,0.1594029390579575,3.0
18.10914421081543,-26.84776496887207,1.3582990169525146,-0.0,-0.0,-1.0,0.1268385842792053,1.0
18.901031494140625,-26.806903839111328,1.4105395078659058,-0.0,-0.0,-1.0,0.1664762794281489,1.0
18.690156936645508,-26.16001892089844,1.109684705734253,-0.0,-0.0,-1.0,0.1546617041608693,2.0
18.915287017822266,-26.48287582397461,1.0830217599868774,-0.0,-0.0,-1.0,0.0529126886310242,1.0
19.26794052124023,-26.66050720214844,1.082202672958374,-0.0,-0.0,-1.0,0.0499861325682398,2.0
18.366371154785156,-25.29776382446289,1.19370698928833,-0.0,-0.0,-1.0,0.1195851047830492,1.0
18.470050811767575,-25.21432876586914,1.2138385772705078,-0.0,-0.0,-1.0,0.191259757661056,1.0
18.72101593017578,-25.334341049194336,1.2208197116851809,-0.0,-0.0,-1.0,0.0609581543046679,2.0
19.416786193847656,-25.80450439453125,1.2114378213882446,-0.0,-0.0,-1.0,0.136900779749674,2.0
20.172210693359375,-25.49669075012207,0.9845976829528807,-0.0,-0.0,-1.0,0.1339917859951219,1.0
19.350112915039062,-24.86952018737793,1.026848077774048,-0.0,-0.0,-1.0,0.2486239768197014,2.0
19.96139335632324,-25.21813201904297,1.0190043449401855,-0.0,-0.0,-1.0,0.2626016580946896,1.0
20.077241897583008,-25.242233276367188,1.0231571197509766,0.388265670523961,0.2891024683857126,-0.8750254464104836,0.2099433186738704,3.0
19.351661682128903,-24.380935668945312,1.1070663928985596,-0.0,-0.0,-1.0,0.1120884206525436,1.0
18.521469116210938,-26.400550842285156,1.4300191402435305,0.0387297740409524,0.8863856168692794,-0.4613247693436846,0.2202645758955049,3.0
18.358564376831055,-26.14725112915039,1.4446794986724854,-0.0,-0.0,-1.0,0.0824995603967973,2.0
18.85933303833008,-25.986265182495117,1.4933092594146729,-0.0,-0.0,-1.0,0.1885524929775007,1.0
19.514856338500977,-25.888145446777344,1.5405468940734863,-0.0,-0.0,-1.0,0.1141681382895737,1.0
19.05954360961914,-24.80978775024414,1.469533920288086,-0.0,-0.0,-1.0,0.2061214042212157,1.0
19.273283004760746,-24.946306228637695,1.3175990581512451,-0.0,-0.0,-1.0,0.2195700162601341,1.0
19.95330238342285,-25.226713180541992,1.326811909675598,-0.3665324280388787,-0.8908252822531832,-0.2684851871043554,0.1694393401564264,3.0
20.12178421020508,-25.2928466796875,1.4805994033813477,-0.0,-0.0,-1.0,0.1902594227212668,1.0
18.678211212158203,-26.342140197753903,1.8040802478790283,-0.0,-0.0,-1.0,0.0551215737283975,1.0
18.05293655395508,-26.7248477935791,1.2565622329711914,-0.0,-0.0,-1.0,0.0841881040853319,1.0
18.287199020385746,-26.78913116455078,1.268816590309143,-0.0,-0.0,-1.0,0.1616731172260495,1.0
17.76512336730957,-26.093116760253903,1.2939605712890625,-0.0,-0.0,-1.0,0.1481005539303288,1.0
18.032825469970703,-26.42245101928711,1.285228967666626,-0.0,-0.0,-1.0,0.0953649572926898,1.0
17.776264190673828,-26.01282501220703,1.3026323318481443,-0.0,-0.0,-1.0,0.1105364296809651,2.0
19.62206268310547,-26.307662963867188,1.0629689693450928,-0.0,-0.0,-1.0,0.0165296857394223,1.0
19.724267959594727,-26.320581436157227,1.0686702728271484,-0.0,-0.0,-1.0,0.0102529176802252,2.0
20.148578643798828,-26.570837020874023,1.0603338479995728,-0.0,-0.0,-1.0,0.0275527041369235,1.0
18.92417907714844,-25.73480796813965,1.0839314460754397,-0.0,-0.0,-1.0,0.0508823536370026,1.0
19.253114700317383,-25.802410125732425,1.1044191122055054,-0.0,-0.0,-1.0,0.0670170251105731,2.0
19.48833656311035,-25.969480514526367,1.100731611251831,-0.6473755184370558,0.0686495722934432,-0.7590732338531512,0.0967831499680316,5.0
19.925065994262695,-26.266386032104492,1.0907588005065918,-0.0,-0.0,-1.0,0.0210529802017778,2.0
18.70138359069824,-25.18633079528809,1.1343964338302612,-0.0,-0.0,-1.0,0.0573902210304803,2.0
18.821208953857425,-25.29623031616211,1.1322262287139893,-0.0,-0.0,-1.0,0.1011533898361123,2.0
19.07051658630371,-25.563499450683594,1.120779514312744,-0.0,-0.0,-1.0,0.0314325609717655,1.0
19.50271987915039,-25.69609642028809,1.1405316591262815,-0.0,-0.0,-1.0,0.1815961867862083,1.0
18.814266204833984,-25.0584774017334,1.162651777267456,-0.0,-0.0,-1.0,0.1100482081011664,1.0
19.247535705566406,-24.9726619720459,1.2171062231063845,-0.0,-0.0,-1.0,0.2001936029575272,1.0
20.101566314697266,-24.799304962158203,1.0178258419036863,-0.0,-0.0,-1.0,0.0915490756374764,2.0
20.13402557373047,-24.96743392944336,0.9912381172180176,-0.0,-0.0,-1.0,0.1213250861447789,2.0
18.628238677978516,-26.37222671508789,1.5212277173995972,-0.0,-0.0,-1.0,0.0921736467434754,1.0
18.19470977783203,-25.97464942932129,1.343331813812256,-0.0,-0.0,-1.0,0.1340482529755239,1.0
18.643020629882812,-25.72228240966797,1.40612530708313,-0.6587216349209029,0.1683898617909229,-0.733301208326542,0.0923088528695818,3.0
19.459293365478516,-25.927169799804688,1.4451651573181152,-0.0,-0.0,-1.0,0.114849564726883,2.0
19.52786445617676,-25.62633514404297,1.4824044704437256,-0.0,-0.0,-1.0,0.1442350825637147,2.0
18.40980529785156,-24.864927291870117,1.469632625579834,-0.0,-0.0,-1.0,0.1585146212410925,2.0
19.159643173217773,-24.87859344482422,1.3777296543121338,-0.0,-0.0,-1.0,0.2006585222140415,2.0
19.309398651123047,-24.96569442749023,1.5364320278167725,-0.0,-0.0,-1.0,0.1222623997109619,1.0
19.951980590820312,-25.19828224182129,1.4020923376083374,-0.0,-0.0,-1.0,0.2191728660566299,1.0
20.07405662536621,-25.268245697021484,1.4019815921783447,-0.0,-0.0,-1.0,0.2733122963995217,1.0
19.132783889770508,-24.59763526916504,1.2549834251403809,-0.0,-0.0,-1.0,0.2026799702076602,1.0
19.51866912841797,-24.676273345947266,1.4310320615768433,-0.0,-0.0,-1.0,0.0742207503657911,1.0
19.84038734436035,-24.742660522460938,1.302324295043945,-0.4096328476636793,0.8469676917476114,-0.3388903351390652,0.0908650571018449,3.0
19.82949447631836,-24.652894973754883,1.6079424619674685,0.3100731970331385,0.102710057816393,-0.9451482722329878,0.1078722743639268,3.0
19.80237197875977,-24.503265380859375,1.909079909324646,-0.0,-0.0,-1.0,0.067199323316266,2.0
18.618736267089844,-26.827178955078125,1.1517562866210938,-0.0,-0.0,-1.0,0.1324122504560093,1.0
17.834213256835938,-26.13266372680664,1.1607407331466677,-0.0,-0.0,-1.0,0.1917645654426981,1.0
18.38736343383789,-26.43976402282715,1.1755129098892212,-0.0,-0.0,-1.0,0.136927395552808,1.0
18.532447814941406,-26.426456451416016,1.1881271600723269,-0.0,-0.0,-1.0,0.2283046003959618,1.0
17.85565185546875,-25.77027702331543,1.197684645652771,-0.0,-0.0,-1.0,0.0942455178648845,2.0
19.72393226623535,-25.60662078857422,1.0175211429595947,-0.0,-0.0,-1.0,0.0726665011648481,1.0
19.804182052612305,-25.599899291992188,1.025226593017578,-0.0,-0.0,-1.0,0.073795880107674,1.0
19.691158294677734,-25.530048370361328,1.02555513381958,-0.0,-0.0,-1.0,0.0515597776029095,2.0
20.050039291381836,-25.43197250366211,1.0693902969360352,-0.0,-0.0,-1.0,0.1986627470039206,1.0
20.17508316040039,-25.562538146972656,1.060348391532898,-0.0,-0.0,-1.0,0.0916360975218411,1.0
19.377904891967773,-24.755033493041992,1.102493405342102,-0.0,-0.0,-1.0,0.2436615206959183,2.0
19.29229736328125,-24.40464782714844,1.1392172574996948,-0.0,-0.0,-1.0,0.1032053065606266,1.0
18.977100372314453,-26.517728805541992,1.594092845916748,-0.0,-0.0,-1.0,0.1234397352984552,1.0
18.79037857055664,-25.51726531982422,1.3028171062469482,-0.0,-0.0,-1.0,0.0685591304371519,1.0
19.522974014282227,-25.74288558959961,1.3338881731033323,-0.0,-0.0,-1.0,0.0491282665706804,1.0
18.485837936401367,-25.31986618041992,1.297099471092224,-0.0,-0.0,-1.0,0.1509379580829937,1.0
18.654041290283203,-25.32287216186523,1.311164379119873,-0.0,-0.0,-1.0,0.0921803002132134,1.0
20.110795974731445,-25.33976173400879,1.417738676071167,-0.0,-0.0,-1.0,0.2001899583251585,1.0
18.44356918334961,-24.869537353515625,1.336759090423584,-0.0,-0.0,-1.0,0.1998717822287112,2.0
19.321041107177734,-24.812238693237305,1.4179158210754397,-0.0,-0.0,-1.0,0.2431623685388309,1.0
18.89570999145508,-26.320388793945312,1.981353998184204,-0.0,-0.0,-1.0,0.0679843383606432,2.0
20.001935958862305,-25.332866668701172,1.7402684688568115,-0.0,-0.0,-1.0,0.185194743911105,1.0
18.47222137451172,-24.874263763427734,1.6842641830444336,-0.0,-0.0,-1.0,0.2200674564495273,2.0
19.8397274017334,-24.589590072631836,1.7905817031860352,-0.0,-0.0,-1.0,0.0903611599500637,1.0
19.836811065673828,-26.736629486083984,1.049454689025879,-0.0,-0.0,-1.0,0.0260261030563293,2.0
20.115388870239254,-26.832843780517575,1.059727907180786,-0.0,-0.0,-1.0,0.0339186696955857,1.0
19.4963436126709,-26.5067138671875,1.047677755355835,-0.0,-0.0,-1.0,0.0286720613853566,1.0
19.65508270263672,-26.594463348388672,1.0511231422424316,-0.0,-0.0,-1.0,0.0468725568544229,1.0
20.112998962402344,-26.436302185058594,1.1064199209213257,-0.0,-0.0,-1.0,0.0253204823771997,1.0
18.80247688293457,-25.84619140625,1.0547336339950562,-0.0,-0.0,-1.0,0.0520151960126352,1.0
19.20615005493164,-26.030364990234375,1.0743032693862915,-0.0,-0.0,-1.0,0.0687969223440518,1.0
19.459774017333984,-25.964967727661133,1.1048685312271118,-0.1056140279387355,0.0418699929316346,-0.9935253297196106,0.126050945674418,5.0
19.18056869506836,-25.670154571533203,1.1102840900421145,-0.0,-0.0,-1.0,0.029650220055454,2.0
19.347610473632812,-25.775182723999023,1.1150531768798828,-0.0,-0.0,-1.0,0.09081122595667,2.0
18.746116638183594,-25.19031524658203,1.1149766445159912,-0.0,-0.0,-1.0,0.1034656281880449,2.0
20.139957427978516,-24.791996002197266,0.9618866443634032,-0.0,-0.0,-1.0,0.0933799764772359,2.0
20.125001907348633,-24.67699432373047,0.975881814956665,-0.0,-0.0,-1.0,0.1799489711975329,1.0
17.84322166442871,-26.600177764892575,1.3115332126617432,-0.0,-0.0,-1.0,0.1844367913419558,1.0
18.180572509765625,-26.67935562133789,1.3322536945343018,-0.0,-0.0,-1.0,0.1318053973534919,1.0
18.88692855834961,-26.72370719909668,1.3811612129211426,-0.0,-0.0,-1.0,0.1664762794281489,1.0
18.68509292602539,-26.42677879333496,1.3900322914123535,-0.0,-0.0,-1.0,0.2604224439231843,2.0
18.353036880493164,-25.926815032958984,1.40198016166687,-0.0,-0.0,-1.0,0.135583691506876,1.0
18.6268310546875,-25.900480270385746,1.425771713256836,-0.0,-0.0,-1.0,0.2254494939978192,1.0
18.529300689697266,-25.311939239501953,1.460620403289795,-0.0,-0.0,-1.0,0.1402076931603239,2.0
18.51481819152832,-25.27780532836914,1.4618053436279297,-0.0,-0.0,-1.0,0.1415036333363744,2.0
20.045251846313477,-25.285465240478516,1.2327768802642822,-0.2930441150323143,-0.9390601099044328,0.1796976812070825,0.1426702357173279,3.0
20.162277221679688,-25.26251792907715,1.245763063430786,-0.3314241234629662,-0.9319895257110792,0.1468113563442644,0.2507563128069773,3.0
18.156339645385746,-24.54634475708008,1.4786584377288818,-0.0,-0.0,-1.0,0.0712912248096913,2.0
19.29962158203125,-24.8134765625,1.2103676795959473,-0.0,-0.0,-1.0,0.2878367707777722,1.0
19.507488250732425,-24.720382690429688,1.2411367893218994,-0.0,-0.0,-1.0,0.2471239944937538,2.0
19.867469787597656,-24.7404842376709,1.2750275135040283,-0.8028985001086221,0.4602367524816175,-0.378861624064116,0.0927601122148567,4.0
19.082229614257812,-24.41765022277832,1.2257205247879028,-0.0,-0.0,-1.0,0.0836565261407703,2.0
19.55456161499023,-24.598712921142575,1.5960383415222168,-0.0,-0.0,-1.0,0.0647898739978369,1.0
17.983802795410156,-26.84932518005371,1.3412717580795288,-0.0,-0.0,-1.0,0.1317732500749856,2.0
17.911287307739258,-26.637279510498047,1.3457860946655271,-0.0,-0.0,-1.0,0.138297138994222,2.0
19.396764755249023,-26.59305191040039,1.0590888261795044,-0.0,-0.0,-1.0,0.0451515576321803,1.0
19.596759796142575,-26.76523208618164,1.0637954473495483,-0.0,-0.0,-1.0,0.0658676105348587,1.0
19.3826904296875,-26.415760040283203,1.07318377494812,-0.0,-0.0,-1.0,0.0207476430271528,1.0
19.4691104888916,-26.56690216064453,1.068855047225952,-0.0,-0.0,-1.0,0.0395449268173883,1.0
19.255847930908203,-25.831024169921875,1.109081745147705,-0.0,-0.0,-1.0,0.067017025110573,2.0
18.86565399169922,-25.373878479003903,1.1002967357635498,-0.0,-0.0,-1.0,0.1104367854224683,1.0
19.24571418762207,-25.665979385375977,1.1212753057479858,-0.0,-0.0,-1.0,0.0455377843858862,2.0
18.807178497314453,-24.974891662597656,1.122438669204712,-0.0,-0.0,-1.0,0.1105528377547299,1.0
18.938976287841797,-24.965717315673828,1.1391468048095703,-0.0,-0.0,-1.0,0.1359122169547917,2.0
20.056116104125977,-25.35065269470215,1.236517310142517,-0.0,-0.0,-1.0,0.1539827860455934,1.0
19.204919815063477,-24.78986167907715,1.1840972900390625,-0.0,-0.0,-1.0,0.2132744415812514,1.0
19.38155937194824,-24.742769241333008,1.2087702751159668,-0.0,-0.0,-1.0,0.2411718427977296,2.0
18.166248321533203,-26.714900970458984,1.364912033081055,-0.0,-0.0,-1.0,0.1820391097836458,2.0
18.770206451416016,-26.54772186279297,1.427053451538086,-0.0,-0.0,-1.0,0.142867365006964,1.0
18.975082397460938,-26.82842063903809,1.4282796382904053,-0.0,-0.0,-1.0,0.1481074469943032,1.0
18.45772171020508,-25.90948486328125,1.4335232973098757,-0.0,-0.0,-1.0,0.1702444523158234,2.0
18.43871307373047,-24.880950927734375,1.480263590812683,-0.0,-0.0,-1.0,0.1615993404374935,2.0
20.194976806640625,-25.316957473754883,1.436291217803955,-0.0,-0.0,-1.0,0.1467418299685713,2.0
19.87189483642578,-24.709320068359375,1.2687761783599854,-0.0,-0.0,-1.0,0.1860497078694233,2.0
18.775775909423828,-26.329845428466797,1.862016201019287,0.2484232793043352,-0.6162824964572426,-0.747316371331519,0.0556757565674118,6.0
17.920974731445312,-26.66659164428711,1.2828468084335327,-0.0,-0.0,-1.0,0.1546972911894412,1.0
18.141357421875,-26.777008056640625,1.2996342182159424,-0.0,-0.0,-1.0,0.156687808695728,2.0
17.808183670043945,-26.032978057861328,1.2960642576217651,-0.0,-0.0,-1.0,0.1342141458976253,2.0
17.942663192749023,-26.176345825195312,1.3042702674865725,-0.0,-0.0,-1.0,0.170100997786801,2.0
19.747852325439453,-26.220046997070312,1.0527054071426392,-0.0,-0.0,-1.0,0.0222554929994652,1.0
20.022384643554688,-26.42510414123535,1.0674622058868408,-0.0,-0.0,-1.0,0.0245927119593712,2.0
19.618000030517575,-26.059879302978516,1.049651861190796,-0.0,-0.0,-1.0,0.0392830950634353,1.0
19.99909782409668,-26.184505462646484,1.0837057828903198,-0.0,-0.0,-1.0,0.0149816358382414,1.0
19.44223403930664,-25.411821365356445,1.073949694633484,-0.0,-0.0,-1.0,0.0178008085381422,1.0
19.545543670654297,-25.540809631347656,1.0778193473815918,-0.0,-0.0,-1.0,0.0960060978746865,1.0
19.453014373779297,-25.213199615478516,1.0882859230041504,-0.0,-0.0,-1.0,0.0378326666349883,2.0
20.069169998168945,-25.258230209350582,1.1602774858474731,-0.0,-0.0,-1.0,0.1616598465826741,2.0
20.112150192260746,-24.825942993164062,1.1950607299804688,-0.0,-0.0,-1.0,0.0865517816886961,2.0
19.438865661621097,-24.413185119628903,1.1350605487823486,-0.0,-0.0,-1.0,0.1070144400265162,1.0
18.706655502319336,-26.293941497802734,1.3747856616973877,-0.0,-0.0,-1.0,0.1992736919426439,1.0
18.66349220275879,-25.688186645507812,1.3955652713775637,-0.0,-0.0,-1.0,0.045146739587595,2.0
18.77471160888672,-25.5317440032959,1.4127728939056396,-0.0,-0.0,-1.0,0.0501846082296342,1.0
19.860614776611328,-24.66248321533203,1.5551931858062744,-0.0,-0.0,-1.0,0.0903572823140867,1.0
18.739727020263672,-26.35992431640625,1.8226064443588257,-0.0,-0.0,-1.0,0.0567680101007345,1.0
20.009483337402344,-26.03668212890625,1.0027108192443848,-0.0,-0.0,-1.0,0.0153765287119165,2.0
19.745376586914062,-25.51385498046875,1.0028525590896606,-0.0,-0.0,-1.0,0.0482445314119069,2.0
20.08826065063477,-25.555160522460938,1.0428860187530518,-0.0,-0.0,-1.0,0.1542534119540388,1.0
20.016033172607425,-25.322311401367188,1.0480844974517822,-0.6736843213850506,-0.0854268601091249,-0.734065178776285,0.2607706860653747,3.0
20.00467300415039,-26.001964569091797,0.9903244972229004,-0.0,-0.0,-1.0,0.0234647524511278,2.0
20.086463928222656,-26.050724029541016,0.9976310729980468,-0.0,-0.0,-1.0,0.0211506162718657,2.0
19.883941650390625,-25.81869125366211,1.029708743095398,-0.0,-0.0,-1.0,0.0202185020603182,1.0
20.154130935668945,-26.048830032348633,1.0355913639068604,-0.0,-0.0,-1.0,0.0216412352060492,1.0
19.637340545654297,-25.30510711669922,1.0449392795562744,-0.0,-0.0,-1.0,0.0311790212503149,1.0
19.882057189941406,-25.525501251220703,1.050467014312744,-0.0,-0.0,-1.0,0.1036769344623237,2.0
19.43518829345703,-24.892574310302734,1.0553532838821411,-0.0,-0.0,-1.0,0.1880095913804773,2.0
19.919708251953125,-25.012571334838867,1.0893044471740725,-0.0,-0.0,-1.0,0.1005690770734279,1.0
19.98330307006836,-25.296754837036133,1.0751482248306274,-0.0,-0.0,-1.0,0.2261738239832637,2.0
19.59846305847168,-24.503887176513672,1.095262050628662,-0.0,-0.0,-1.0,0.0613746212745456,2.0
17.953048706054688,-26.862070083618164,1.3930048942565918,-0.0,-0.0,-1.0,0.093666309111617,1.0
17.877098083496094,-26.3846378326416,1.414348006248474,-0.0,-0.0,-1.0,0.1553994288976304,1.0
18.68130111694336,-26.328582763671875,1.4610769748687744,-0.0,-0.0,-1.0,0.2307960638127674,1.0
18.160709381103516,-25.590740203857425,1.471166729927063,-0.0,-0.0,-1.0,0.1277481046289645,1.0
18.492900848388672,-25.4877986907959,1.4948538541793823,-0.0,-0.0,-1.0,0.0797456252144946,1.0
19.37445068359375,-25.63494110107422,1.5356841087341309,-0.0,-0.0,-1.0,0.1237750629071673,1.0
19.83573532104492,-24.924747467041016,1.5980916023254397,-0.0,-0.0,-1.0,0.0500781610428597,1.0
20.036914825439453,-25.0987548828125,1.6001285314559937,-0.0,-0.0,-1.0,0.0994444880455168,1.0
19.66416358947754,-24.396202087402344,1.6153199672698977,-0.0,-0.0,-1.0,0.1101637209719199,1.0
20.199275970458984,-25.794103622436523,0.9995995759963988,-0.0,-0.0,-1.0,0.0192423925555791,1.0
20.16756248474121,-25.57473945617676,1.0049641132354736,-0.0,-0.0,-1.0,0.116890380933416,1.0
19.892528533935547,-24.545448303222656,1.0109511613845823,-0.0,-0.0,-1.0,0.1135472253715016,1.0
17.79617691040039,-26.40465545654297,1.3218075037002563,-0.0,-0.0,-1.0,0.1588676064807111,1.0
17.942102432250977,-26.629932403564453,1.328258037567139,-0.0,-0.0,-1.0,0.1390734760123566,2.0
17.830127716064453,-26.089515686035156,1.33070170879364,-0.0,-0.0,-1.0,0.1531022968760684,1.0
18.221799850463867,-25.38888931274414,1.3741376399993896,-0.0,-0.0,-1.0,0.1034187968980151,1.0
18.44033432006836,-25.224023818969727,1.3941890001296997,-0.0,-0.0,-1.0,0.1826503767607976,1.0
19.253990173339844,-25.50519561767578,1.4528257846832275,-0.0,-0.0,-1.0,0.1172099781823682,1.0
18.74855613708496,-24.383346557617188,1.4314861297607422,-0.0,-0.0,-1.0,0.1403300379647888,2.0
19.822389602661133,-24.82645034790039,1.5100027322769165,-0.0,-0.0,-1.0,0.1201775538613897,1.0
19.967182159423828,-24.926490783691406,1.519517421722412,-0.0,-0.0,-1.0,0.0262046712173407,1.0
18.622737884521484,-25.870691299438477,1.963348627090454,-0.0,-0.0,-1.0,0.0857183259106087,1.0
19.591045379638672,-25.236515045166016,1.02674400806427,-0.0,-0.0,-1.0,0.0503532734278565,1.0
19.72295379638672,-25.497541427612305,1.0316922664642334,-0.456157134831111,0.5744831827019012,-0.6796247060954784,0.0905141243091812,3.0
19.832176208496097,-25.998504638671875,1.0249463319778442,-0.0,-0.0,-1.0,0.0213964852038626,1.0
20.10136985778809,-26.31040954589844,1.0398186445236206,-0.0,-0.0,-1.0,0.0285190720075477,1.0
19.681987762451172,-24.8282413482666,1.0486788749694824,-0.0,-0.0,-1.0,0.0925616254428949,1.0
19.640342712402344,-25.084793090820312,1.036560297012329,-0.0,-0.0,-1.0,0.0557534522015539,1.0
19.92339324951172,-25.431907653808594,1.0545668601989746,-0.0,-0.0,-1.0,0.0970515765602808,1.0
20.166831970214844,-25.68917465209961,1.07034170627594,-0.0,-0.0,-1.0,0.1055100203105418,1.0
19.92549514770508,-24.8388671875,1.07383930683136,-0.0,-0.0,-1.0,0.1719947300566687,1.0
17.788997650146484,-26.183853149414062,1.4139243364334106,-0.0,-0.0,-1.0,0.1640159742632508,1.0
18.538890838623047,-26.547576904296875,1.4595634937286377,-0.0,-0.0,-1.0,0.1766754024753595,2.0
18.472427368164062,-26.32027816772461,1.45963454246521,-0.0,-0.0,-1.0,0.1578717597178515,1.0
18.993579864501953,-26.701801300048828,1.4876713752746582,-0.0,-0.0,-1.0,0.1477791036728056,1.0
19.633140563964844,-25.644155502319336,1.5548381805419922,-0.0,-0.0,-1.0,0.0495306734325019,1.0
19.611034393310547,-24.67790985107422,1.5700067281723022,-0.0,-0.0,-1.0,0.1083922617899119,1.0
20.043312072753903,-25.339019775390625,1.5897397994995115,-0.0,-0.0,-1.0,0.2421503690012147,1.0
18.755056381225582,-26.595285415649418,1.1246848106384275,-0.4573951836946553,0.588361552638677,-0.6667985672671602,0.1003315857689305,3.0
18.616374969482425,-25.983856201171875,1.126630783081055,-0.0,-0.0,-1.0,0.1042211341206808,2.0
18.75842666625977,-26.37861442565918,1.1304317712783811,-0.0,-0.0,-1.0,0.0247832066701035,1.0
18.797378540039062,-26.515613555908203,1.130509376525879,-0.0,-0.0,-1.0,0.0829101114826114,1.0
18.734920501708984,-25.90793228149414,1.1390303373336792,-0.0,-0.0,-1.0,0.0823564487067225,1.0
18.7938289642334,-26.09345245361328,1.140331506729126,-0.0,-0.0,-1.0,0.0961105291625342,2.0
19.055423736572266,-26.651350021362305,1.1499853134155271,-0.0,-0.0,-1.0,0.0574106244630412,1.0
19.240257263183594,-26.783246994018555,1.1627116203308103,-0.0,-0.0,-1.0,0.0842164437155072,2.0
18.844411849975582,-25.29954719543457,1.160838961601257,-0.0,-0.0,-1.0,0.1056800326046087,2.0
18.9180908203125,-25.632583618164062,1.1614692211151123,-0.0,-0.0,-1.0,0.1009238693765857,1.0
19.1138916015625,-24.936843872070312,1.1918830871582031,-0.0,-0.0,-1.0,0.1722437782216045,1.0
19.474966049194336,-25.941822052001953,1.205475091934204,-0.0,-0.0,-1.0,0.1763978524926915,1.0
19.403667449951172,-24.736072540283203,1.221948504447937,-0.0,-0.0,-1.0,0.2411554732158948,2.0
19.847949981689453,-24.754701614379883,1.2630894184112549,-0.3828385231144508,0.8382710411217019,-0.3882477647537508,0.1717638061282287,4.0
20.04827880859375,-25.278888702392575,1.272080659866333,-0.0,-0.0,-1.0,0.1274259359058049,2.0
19.90447235107422,-25.487117767333984,1.7818915843963623,-0.1195872952810783,-0.7312529297806805,-0.671541533707728,0.1738072505170678,3.0
20.033523559570312,-25.218421936035156,1.791731834411621,-0.0,-0.0,-1.0,0.1992328724422195,2.0
19.196929931640625,-25.946369171142575,1.0738377571105957,-0.0,-0.0,-1.0,0.0646057120207283,1.0
19.312686920166016,-26.521326065063477,1.0797076225280762,-0.0,-0.0,-1.0,0.0372218544995613,1.0
19.388591766357425,-26.814722061157227,1.0837182998657229,-0.0,-0.0,-1.0,0.0555990226801832,1.0
19.419723510742188,-24.905590057373047,1.1037182807922363,-0.0,-0.0,-1.0,0.1780309354619338,1.0
19.40777015686035,-25.25597381591797,1.10076642036438,-0.0,-0.0,-1.0,0.025710455587773,2.0
19.444610595703125,-25.679180145263672,1.1016807556152344,-0.0,-0.0,-1.0,0.1184087668305667,1.0
19.476778030395508,-26.01013565063477,1.1020970344543457,-0.6473755184370558,0.0686495722934432,-0.7590732338531512,0.0941198048681038,5.0
19.446990966796875,-26.4372501373291,1.094381332397461,-0.0,-0.0,-1.0,0.0222835246173193,1.0
19.58336639404297,-26.825828552246097,1.1032742261886597,-0.4960065587325957,0.2336724810402746,-0.8362862340722408,0.0642981782167654,4.0
20.1397705078125,-25.313983917236328,1.1766026020050049,-0.6756883359384668,-0.6641448369226007,-0.3199326620802543,0.1917168702485493,3.0
20.163291931152344,-25.41183090209961,1.1783119440078735,-0.0,-0.0,-1.0,0.2167310174837302,1.0
17.82339859008789,-26.117385864257812,1.5346686840057373,-0.0,-0.0,-1.0,0.1849278204272524,1.0
17.781034469604492,-26.635770797729492,1.5326985120773315,-0.0,-0.0,-1.0,0.1789530697735412,1.0
18.76285171508789,-26.483667373657227,1.6008223295211792,-0.0,-0.0,-1.0,0.1317019799929684,2.0
19.92080307006836,-24.71768569946289,1.6770793199539185,-0.0,-0.0,-1.0,0.0851184433588431,1.0
20.130516052246097,-25.30164337158203,1.6941916942596436,-0.0,-0.0,-1.0,0.1912946997241056,2.0
20.01611328125,-25.49392890930176,1.6866880655288696,-0.0,-0.0,-1.0,0.1839164519881563,1.0
18.768768310546875,-25.905742645263672,1.088358998298645,-0.0,-0.0,-1.0,0.0700555900087556,1.0
18.79478454589844,-26.148069381713867,1.090113639831543,-0.0,-0.0,-1.0,0.0829887961274065,2.0
18.986408233642575,-25.04994201660156,1.1113462448120115,0.5163886907947318,-0.0525925151628373,-0.8547378237612685,0.0496065762936352,3.0
18.94757652282715,-25.39710235595703,1.1075098514556885,-0.0,-0.0,-1.0,0.0842427855942788,1.0
18.85304069519043,-25.823406219482425,1.0971910953521729,-0.0,-0.0,-1.0,0.0446965990252083,2.0
18.897937774658203,-26.186750411987305,1.1004914045333862,-0.0,-0.0,-1.0,0.0994551381139537,2.0
18.928693771362305,-26.579668045043945,1.101436972618103,-0.0,-0.0,-1.0,0.0820880134427068,2.0
19.336231231689453,-25.132020950317383,1.1475250720977783,-0.0,-0.0,-1.0,0.0890162296359231,1.0
19.43515396118164,-25.76752281188965,1.156806707382202,-0.0,-0.0,-1.0,0.1379906027225991,2.0
19.251708984375,-26.76590156555176,1.1327091455459597,-0.2074655985118834,-0.8105005296557868,-0.5477653848700142,0.0465562768826373,3.0
19.936382293701172,-24.77291679382324,1.209070324897766,0.3762925411138932,0.3001992682398316,-0.8765182957875545,0.2110695314162433,3.0
19.85299491882324,-24.8452205657959,1.200564980506897,-0.0,-0.0,-1.0,0.1858379774014445,1.0
20.1700439453125,-25.341455459594727,1.2330026626586914,0.1638715913297743,-0.2211563287316385,-0.961371925852316,0.2359307549526152,3.0
17.717851638793945,-26.061004638671875,1.5833749771118164,-0.0,-0.0,-1.0,0.1598511442293313,1.0
17.731639862060547,-26.618080139160156,1.5878658294677734,-0.0,-0.0,-1.0,0.1352627922879625,1.0
19.952800750732425,-24.648569107055664,1.7251639366149902,-0.0,-0.0,-1.0,0.0828763606619528,1.0
20.14414978027344,-25.224210739135746,1.743377685546875,-0.0,-0.0,-1.0,0.1053477413083149,1.0
19.297412872314453,-24.734397888183594,1.103770732879639,-0.0,-0.0,-1.0,0.1930345608295187,2.0
19.084007263183594,-25.349180221557617,1.0856610536575315,-0.0,-0.0,-1.0,0.0725021835440848,1.0
18.914228439331055,-25.47211456298828,1.0682411193847656,-0.0,-0.0,-1.0,0.0799505405569487,1.0
18.96078109741211,-26.02507781982422,1.0756001472473145,-0.0,-0.0,-1.0,0.0269162922276333,1.0
19.52790069580078,-24.74300765991211,1.128669023513794,-0.0,-0.0,-1.0,0.2183805028477499,2.0
19.525352478027344,-25.041194915771484,1.1308320760726929,-0.0,-0.0,-1.0,0.0934032470774662,2.0
19.320825576782227,-25.733409881591797,1.1128885746002195,-0.0,-0.0,-1.0,0.0993042390341039,2.0
19.05215835571289,-26.27860641479492,1.0858265161514282,-0.0,-0.0,-1.0,0.0067527492366304,1.0
19.084566116333008,-26.505590438842773,1.0893908739089966,-0.0,-0.0,-1.0,0.023540553317371,1.0
19.894935607910156,-24.774505615234375,1.1684356927871704,-0.0,-0.0,-1.0,0.1785053353659461,1.0
19.553768157958984,-25.968076705932617,1.1383706331253052,-0.0,-0.0,-1.0,0.1005906177700583,1.0
19.334339141845703,-26.73124885559082,1.115571141242981,-0.2345180605525592,0.2119613995841867,-0.9487221112427912,0.0609824342817037,4.0
20.18182373046875,-25.276264190673828,1.202624797821045,-0.866397928985693,-0.4287736258264415,-0.2559449285392239,0.2362462916664997,3.0
20.19645881652832,-25.375776290893555,1.204682469367981,-0.3266450761389129,-0.8644013112053591,-0.3822477827544062,0.2318059311373765,4.0
17.87806510925293,-26.72017288208008,1.558156132698059,-0.0,-0.0,-1.0,0.180697869267167,2.0
19.00252914428711,-24.87906837463379,1.6155385971069336,-0.0,-0.0,-1.0,0.1555716815436524,1.0
18.749588012695312,-26.459644317626953,1.6180098056793213,-0.0,-0.0,-1.0,0.1283401751020816,2.0
20.08655166625977,-24.58588600158691,1.008941411972046,-0.0,-0.0,-1.0,0.2499602284145006,1.0
20.159574508666992,-25.369335174560547,1.0280073881149292,-0.0,-0.0,-1.0,0.1324154377334369,1.0
20.168712615966797,-25.86298561096191,1.0329031944274902,-0.0,-0.0,-1.0,0.0185011780011875,1.0
20.142534255981445,-26.10871696472168,1.0309412479400637,-0.0,-0.0,-1.0,0.0156585576644131,1.0
17.950885772705078,-26.134828567504883,1.3473026752471924,-0.0,-0.0,-1.0,0.1501816872331205,1.0
17.714153289794922,-26.432052612304688,1.3315120935440063,-0.0,-0.0,-1.0,0.1404465165059379,1.0
18.836292266845703,-24.50400733947754,1.3921267986297607,-0.0,-0.0,-1.0,0.1484235875260385,1.0
17.96137237548828,-26.515504837036133,1.3538672924041748,-0.0,-0.0,-1.0,0.1261164931302035,1.0
17.856678009033203,-26.810218811035156,1.3488366603851318,-0.0,-0.0,-1.0,0.1731850648394487,1.0
18.57693862915039,-26.551015853881836,1.406925082206726,-0.0,-0.0,-1.0,0.1822429121350265,1.0
19.023231506347656,-26.761070251464844,1.4473978281021118,-0.0,-0.0,-1.0,0.1440979015886671,1.0
18.33173370361328,-24.553237915039062,1.9013235569000244,-0.0,-0.0,-1.0,0.0622941499269749,1.0
18.9968318939209,-26.352378845214844,1.9821155071258545,-0.0,-0.0,-1.0,0.1583317269141437,1.0
19.15267562866211,-24.80360412597656,1.1356515884399414,-0.0,-0.0,-1.0,0.1455004747805672,1.0
19.001129150390625,-25.03876495361328,1.1195521354675293,0.5163886907947318,-0.0525925151628373,-0.8547378237612685,0.0518528203083636,3.0
19.419620513916016,-24.665992736816406,1.1639628410339355,-0.0,-0.0,-1.0,0.1661439012871441,1.0
19.265480041503903,-25.06105613708496,1.147641897201538,-0.0,-0.0,-1.0,0.0901139764944787,2.0
19.00426483154297,-25.261089324951172,1.119504690170288,-0.0,-0.0,-1.0,0.0934600365432936,1.0
20.20765686035156,-24.501127243041992,1.2478774785995483,-0.0,-0.0,-1.0,0.1452242782368435,1.0
19.947059631347656,-24.75324058532715,1.2203930616378784,0.3762925411138932,0.3001992682398316,-0.8765182957875545,0.1977099643612244,3.0
19.21433448791504,-25.652751922607425,1.1401808261871338,0.0356459712148594,0.8456689326181259,-0.5325161228926966,0.0403988606213805,3.0
18.893543243408203,-25.802356719970703,1.1054441928863523,-0.0,-0.0,-1.0,0.0566062460934631,2.0
18.89181900024414,-26.195817947387695,1.1020164489746094,-0.0,-0.0,-1.0,0.0978504327476308,2.0
19.372739791870117,-26.00499153137207,1.1542391777038574,-0.0,-0.0,-1.0,0.1191730936403249,1.0
19.03788185119629,-26.518394470214844,1.1137775182724,-0.0,-0.0,-1.0,0.0497173699578474,1.0
18.955232620239254,-26.540613174438477,1.1049814224243164,-0.0,-0.0,-1.0,0.0534569669052223,2.0
19.29878044128418,-26.734224319458008,1.1379945278167725,-0.3803179189753643,-0.6208583447886138,-0.6854875609466531,0.0552228946866673,3.0
18.25531768798828,-24.548450469970703,1.583902359008789,-0.0,-0.0,-1.0,0.0867904443249306,1.0
17.74099349975586,-26.21301651000977,1.5542199611663818,-0.0,-0.0,-1.0,0.1136117218189644,1.0
17.962839126586914,-26.682533264160156,1.5693597793579102,-0.0,-0.0,-1.0,0.1024252736277394,1.0
17.77460479736328,-26.819177627563477,1.5557570457458496,-0.0,-0.0,-1.0,0.1470297681020765,1.0
18.77513885498047,-26.413089752197266,1.6269900798797607,-0.0,-0.0,-1.0,0.0854759008776651,1.0
19.12518310546875,-24.444774627685547,1.231456995010376,-0.2909742832851713,0.0095121880938535,-0.9566835865344132,0.0691983669984845,3.0
18.769275665283203,-24.660547256469727,1.1933560371398926,-0.0,-0.0,-1.0,0.1471899354284332,1.0
18.523027420043945,-24.8935546875,1.1658793687820437,-0.0,-0.0,-1.0,0.1115968504228799,1.0
19.305625915527344,-24.76504898071289,1.2467423677444458,-0.0,-0.0,-1.0,0.2216310449794997,1.0
19.034717559814453,-24.70102882385254,1.2199259996414185,-0.0,-0.0,-1.0,0.1550242283825786,1.0
18.710826873779297,-25.30121612548828,1.1795451641082764,-0.0,-0.0,-1.0,0.0607608340283521,1.0
18.30575180053711,-25.183982849121097,1.1402904987335205,-0.0,-0.0,-1.0,0.1062813057851729,1.0
19.933134078979492,-24.729394912719727,1.310798406600952,-0.0,-0.0,-1.0,0.0986871349904235,2.0
19.390892028808594,-24.92530059814453,1.253479242324829,-0.0,-0.0,-1.0,0.1447854542316025,1.0
19.276723861694336,-25.11031150817871,1.239461898803711,-0.0,-0.0,-1.0,0.1231887742865224,1.0
18.881406784057617,-25.549116134643555,1.1926711797714231,-0.0,-0.0,-1.0,0.0758232466279981,1.0
18.76794815063477,-25.80748176574707,1.1766738891601562,-0.0,-0.0,-1.0,0.0743496670029493,1.0
18.4338436126709,-26.030929565429688,1.138843297958374,-0.0,-0.0,-1.0,0.1252077334561124,1.0
20.129911422729492,-25.25584602355957,1.3232669830322266,-0.0,-0.0,-1.0,0.1923538031386357,1.0
18.757848739624023,-26.101947784423828,1.1696680784225464,-0.0,-0.0,-1.0,0.1291853784744819,2.0
18.51055908203125,-26.313201904296875,1.140360951423645,-0.0,-0.0,-1.0,0.2233473611688874,2.0
20.03535842895508,-25.413663864135746,1.3110430240631104,-0.0,-0.0,-1.0,0.1268138559256491,1.0
19.592470169067383,-25.7388916015625,1.2605183124542236,-0.0,-0.0,-1.0,0.1818248237025123,1.0
18.665828704833984,-26.60462951660156,1.1487356424331665,-0.0,-0.0,-1.0,0.1013624643620686,2.0
18.394487380981445,-26.84800910949707,1.1157405376434326,-0.0,-0.0,-1.0,0.099399596790554,1.0
18.19851303100586,-24.53786277770996,1.6632307767868042,-0.0,-0.0,-1.0,0.0879738710253364,2.0
18.48193359375,-25.025066375732425,1.6792330741882324,-0.0,-0.0,-1.0,0.1103556917151126,1.0
18.6466007232666,-26.406604766845703,1.674162745475769,-0.508240057684129,0.8488862748031976,-0.145203774799363,0.1174407239485587,3.0
17.84402847290039,-26.84019470214844,1.6151283979415894,-0.0,-0.0,-1.0,0.1123196293346349,1.0
20.10287094116211,-25.211050033569336,1.7850438356399536,-0.0,-0.0,-1.0,0.1426921527714288,1.0
19.47361946105957,-24.74630546569824,1.10986328125,-0.0,-0.0,-1.0,0.2508429006315757,2.0
19.270984649658203,-24.783218383789062,1.0863871574401855,-0.0,-0.0,-1.0,0.1619730383622583,2.0
19.51447296142578,-25.016206741333008,1.1158580780029297,-0.0,-0.0,-1.0,0.0979504424704736,2.0
19.421205520629883,-25.212175369262695,1.105493426322937,-0.4569214270158886,0.2328171874178354,-0.8584980878118554,0.0385799376793712,3.0
19.48105239868164,-25.623929977416992,1.1123251914978027,-0.0,-0.0,-1.0,0.1296711552590458,1.0
19.481231689453125,-25.979351043701172,1.1109559535980225,-0.6473755184370558,0.0686495722934432,-0.7590732338531512,0.108960261633627,5.0
19.277647018432617,-25.90178680419922,1.087918043136597,-0.0,-0.0,-1.0,0.0873293018750605,2.0
19.33871078491211,-26.43429374694824,1.0913465023040771,-0.0,-0.0,-1.0,0.0224596941876409,1.0
19.568811416625977,-26.82621383666992,1.113312840461731,-0.4960065587325957,0.2336724810402746,-0.8362862340722408,0.0631398465046207,4.0
18.467493057250977,-24.470211029052734,1.4897737503051758,-0.0,-0.0,-1.0,0.0897873536511832,1.0
18.27374267578125,-24.563032150268555,1.4749445915222168,-0.0,-0.0,-1.0,0.0817596977559736,1.0
19.779640197753903,-24.77066993713379,1.1458349227905271,-0.0591729197980082,0.9964585426310344,0.0597405923992488,0.1527849769991079,3.0
20.118484497070312,-25.29717063903809,1.1866555213928225,-0.6756883359384668,-0.6641448369226007,-0.3199326620802543,0.2067986644666773,3.0
18.586170196533203,-26.410799026489254,1.5115649700164795,-0.0,-0.0,-1.0,0.2152055235763289,1.0
17.839191436767578,-26.66448211669922,1.4515690803527832,-0.0,-0.0,-1.0,0.2165248730234138,1.0
18.98339080810547,-26.623281478881836,1.543354630470276,-0.0,-0.0,-1.0,0.1465213285327621,1.0
20.10287857055664,-25.251632690429688,1.6308661699295044,-0.0,-0.0,-1.0,0.1064665344727655,1.0
19.30832290649414,-24.622840881347656,1.1653904914855957,-0.0,-0.0,-1.0,0.1233924168216071,1.0
19.025711059570312,-24.759944915771484,1.1265333890914917,-0.0,-0.0,-1.0,0.1040206618094371,1.0
17.78622055053711,-25.23290252685547,1.452386498451233,-0.0,-0.0,-1.0,0.2176542808305887,2.0
19.79483985900879,-24.726871490478516,1.2173532247543335,-0.0,-0.0,-1.0,0.1246764565366294,1.0
19.29976463317871,-25.052961349487305,1.144795060157776,-0.0,-0.0,-1.0,0.0985285944042595,2.0
18.980253219604492,-25.052474975585938,1.107783555984497,0.5163886907947318,-0.0525925151628373,-0.8547378237612685,0.1067389432242058,3.0
20.138660430908203,-25.340900421142575,1.2275254726409912,-0.0,-0.0,-1.0,0.2410482064475471,2.0
19.998695373535156,-25.25417709350586,1.215786099433899,-0.0,-0.0,-1.0,0.1357692767490194,1.0
19.392139434814453,-25.499719619750977,1.1332650184631348,-0.0,-0.0,-1.0,0.049677956837517,1.0
18.98750877380371,-25.49774169921875,1.0866190195083618,-0.0,-0.0,-1.0,0.0630948534120342,1.0
18.75893783569336,-25.42251205444336,1.0641906261444092,-0.0,-0.0,-1.0,0.0489816525094803,1.0
19.42143440246582,-25.935802459716797,1.11299467086792,-0.0,-0.0,-1.0,0.1630418118201046,2.0
19.20409393310547,-25.82416343688965,1.0942890644073486,-0.0,-0.0,-1.0,0.0670170251105731,1.0
17.825462341308594,-26.06704330444336,1.417527437210083,-0.0,-0.0,-1.0,0.1709962099162837,2.0
19.47665786743164,-26.05929183959961,1.1122758388519287,-0.0,-0.0,-1.0,0.0881311871765151,1.0
19.382373809814453,-26.301050186157227,1.087325930595398,-0.0,-0.0,-1.0,0.0108436621247339,1.0
18.020694732666016,-26.77134704589844,1.3975844383239746,-0.0,-0.0,-1.0,0.1907895353097951,2.0
17.862865447998047,-26.63269424438477,1.3922570943832395,-0.1736327876101957,0.8423290968966464,-0.5102287208576097,0.230137658382821,3.0
19.444673538208008,-26.640199661254883,1.0735801458358765,-0.0,-0.0,-1.0,0.0460881760277068,1.0
20.031034469604492,-26.798303604125977,1.129446506500244,-0.0,-0.0,-1.0,0.0298274533948657,1.0
20.005298614501953,-25.251319885253903,1.6306623220443726,-0.7288215283731756,0.6423870171781819,-0.2369770029785733,0.1605899911261103,4.0
18.387439727783203,-26.150291442871097,1.4583951234817505,-0.0,-0.0,-1.0,0.0844346493656688,2.0
18.526931762695312,-26.38640785217285,1.457651972770691,-0.0,-0.0,-1.0,0.2618932524303582,2.0
18.856334686279297,-26.71513938903809,1.4665734767913818,-0.0,-0.0,-1.0,0.124130190355607,1.0
19.556236267089844,-24.572490692138672,1.090196132659912,-0.0,-0.0,-1.0,0.1039387420066914,1.0
19.32659339904785,-24.643178939819336,1.053530216217041,-0.0,-0.0,-1.0,0.1256055558530982,1.0
20.15800094604492,-24.45191764831543,1.183892011642456,-0.0,-0.0,-1.0,0.2198018674397843,1.0
19.78223419189453,-24.76876449584961,1.116621971130371,-0.0591729197980082,0.9964585426310344,0.0597405923992488,0.188289107559719,3.0
19.41800117492676,-24.87626075744629,1.0582571029663086,0.3596209181959339,0.7505180716014215,-0.5544325201461375,0.2247673688376708,4.0
19.744407653808594,-25.263858795166016,1.090397596359253,-0.0,-0.0,-1.0,0.0766413455757034,1.0
19.546798706054688,-25.18648910522461,1.0645103454589844,-0.0,-0.0,-1.0,0.0581339650223794,1.0
20.132476806640625,-25.292057037353516,1.146488904953003,-0.7834204690357527,-0.2623168178518802,-0.5634201414289912,0.1672336527026977,5.0
19.60292053222656,-25.60004425048828,1.0534428358078003,-0.0,-0.0,-1.0,0.0889544660401358,2.0
19.685546875,-26.02329444885254,1.0432519912719729,-0.0,-0.0,-1.0,0.0292656179168737,1.0
20.079559326171875,-26.33989906311035,1.0821490287780762,-0.0,-0.0,-1.0,0.0283157373112895,1.0
19.90953254699707,-26.27340316772461,1.0614091157913208,-0.0,-0.0,-1.0,0.0210529802017778,2.0
20.17403793334961,-26.77191734313965,1.0679364204406738,-0.0,-0.0,-1.0,0.038231636661666,2.0
20.01516342163086,-26.65880584716797,1.0526432991027832,-0.0,-0.0,-1.0,0.0386154389083369,1.0
18.691104888916016,-24.46114730834961,1.3864800930023191,-0.0,-0.0,-1.0,0.1330129702873677,1.0
18.374242782592773,-24.557395935058594,1.3475033044815063,-0.0,-0.0,-1.0,0.1500635056849742,2.0
19.30072975158691,-24.71194839477539,1.4473237991333008,-0.0,-0.0,-1.0,0.2286654193813393,1.0
18.52972984313965,-25.286252975463867,1.3389410972595217,-0.0,-0.0,-1.0,0.1886621828477607,2.0
18.178401947021484,-25.1932373046875,1.3029191493988037,-0.0,-0.0,-1.0,0.0881837518560646,1.0
20.008140563964844,-25.23955535888672,1.5074578523635864,-0.0,-0.0,-1.0,0.1449865390199321,2.0
18.69013214111328,-25.450096130371097,1.3503236770629885,0.0411974104262417,-0.0308149361528727,-0.9986757296961144,0.0592476340552572,3.0
19.993423461914062,-25.390642166137695,1.4994938373565674,-0.0,-0.0,-1.0,0.2192974511720502,1.0
18.682058334350582,-25.75356101989746,1.3364003896713257,-0.0,-0.0,-1.0,0.0396782131074498,1.0
18.604557037353516,-25.95639991760254,1.3185170888900757,-0.0,-0.0,-1.0,0.1830362254952752,1.0
17.858291625976562,-26.033302307128903,1.2314592599868774,-0.0,-0.0,-1.0,0.1312916295852796,1.0
17.777118682861328,-26.2066707611084,1.2142590284347534,-0.0,-0.0,-1.0,0.1605709243215183,1.0
19.30357551574707,-26.04360580444336,1.3924496173858645,-0.0,-0.0,-1.0,0.1208267400538113,1.0
18.36821937561035,-26.435821533203125,1.2688908576965332,-0.0,-0.0,-1.0,0.1860462103208278,1.0
18.191200256347656,-26.54692840576172,1.243536114692688,-0.0,-0.0,-1.0,0.0680565271520529,1.0
17.89117431640625,-26.391597747802734,1.2180395126342771,-0.0,-0.0,-1.0,0.1023376785197606,1.0
18.181011199951172,-26.850929260253903,1.2263468503952026,-0.0,-0.0,-1.0,0.1319637819961816,1.0
18.099411010742188,-24.5152587890625,1.7565255165100098,-0.0,-0.0,-1.0,0.0413951671094147,2.0
19.778139114379883,-24.5191707611084,1.8875995874404907,-0.0,-0.0,-1.0,0.067199323316266,2.0
18.658859252929688,-26.38533592224121,1.7311948537826538,-0.0,-0.0,-1.0,0.0585907904465968,1.0
20.032047271728516,-24.57723617553711,1.0048208236694336,-0.0,-0.0,-1.0,0.2381024976025197,2.0
19.245121002197266,-24.486841201782227,1.214344501495361,-0.0,-0.0,-1.0,0.123122195011506,1.0
19.058277130126953,-24.708419799804688,1.1750704050064087,-0.0,-0.0,-1.0,0.1722275454776053,1.0
18.923620223999023,-24.933921813964844,1.144435167312622,-0.0,-0.0,-1.0,0.1364679700825158,2.0
20.069427490234375,-24.825504302978516,1.0054261684417725,-0.0,-0.0,-1.0,0.097401759703382,2.0
19.17312240600586,-25.087432861328125,1.1839333772659302,-0.0,-0.0,-1.0,0.1042237711326903,1.0
18.87824058532715,-25.11760902404785,1.1300790309906006,-0.0,-0.0,-1.0,0.0551148687089624,1.0
20.133270263671875,-25.236167907714844,1.0038259029388428,0.4726191399122063,-0.7824515601916863,-0.4054635674659838,0.277397900314455,3.0
19.154335021972656,-25.50994300842285,1.1642673015594482,-0.0,-0.0,-1.0,0.0727233733672917,1.0
18.983795166015625,-25.619125366210938,1.129100680351257,-0.0,-0.0,-1.0,0.0614987354362988,1.0
20.178909301757812,-25.624969482421875,0.9952385425567628,-0.0,-0.0,-1.0,0.0929591445883937,1.0
19.307178497314453,-25.909273147583008,1.1727900505065918,-0.0,-0.0,-1.0,0.1211416458712758,1.0
19.016490936279297,-25.83675193786621,1.1249281167984009,-0.0,-0.0,-1.0,0.0156166373284758,1.0
19.366565704345703,-26.06793975830078,1.1752256155014038,-0.0,-0.0,-1.0,0.1949105532902588,1.0
19.110671997070312,-26.33488655090332,1.1152347326278689,-0.0,-0.0,-1.0,0.0099560644526963,1.0
19.297176361083984,-26.718446731567383,1.1245944499969482,-0.3803179189753643,-0.6208583447886138,-0.6854875609466531,0.0552228946866673,3.0
18.1627140045166,-24.55685806274414,1.4296584129333496,-0.0,-0.0,-1.0,0.0659777335657988,2.0
19.82227325439453,-24.416072845458984,1.3192882537841797,-0.0,-0.0,-1.0,0.2165395884904961,1.0
19.456083297729492,-24.646793365478516,1.4303194284439087,-0.0,-0.0,-1.0,0.0964201009012334,1.0
18.68010139465332,-24.6468563079834,1.5015195608139038,-0.0,-0.0,-1.0,0.079327526680433,1.0
17.91656494140625,-25.06790542602539,1.3803417682647705,-0.0,-0.0,-1.0,0.1636368316860165,1.0
19.15565490722656,-24.964569091796875,1.5607202053070068,-0.0,-0.0,-1.0,0.2197285428257715,1.0
20.009748458862305,-25.31254196166992,1.3247897624969482,-0.0,-0.0,-1.0,0.1395460308385874,1.0
19.81621551513672,-25.166770935058594,1.2959327697753906,-0.0,-0.0,-1.0,0.1475236382222988,1.0
18.54305076599121,-25.786724090576172,1.4436365365982056,-0.0,-0.0,-1.0,0.1652537676176551,1.0
18.605667114257812,-26.097261428833008,1.438770413398743,-0.0,-0.0,-1.0,0.128446245744085,1.0
17.818410873413086,-26.181970596313477,1.3236969709396362,-0.0,-0.0,-1.0,0.1482732647308334,1.0
18.61661148071289,-26.390602111816406,1.4263907670974731,-0.0,-0.0,-1.0,0.2708350663523944,2.0
18.384180068969727,-26.41312599182129,1.392580509185791,-0.0,-0.0,-1.0,0.1592769664764125,1.0
17.975358963012695,-26.689897537231445,1.320896029472351,-0.0,-0.0,-1.0,0.1142127960764217,1.0
17.749706268310547,-26.7171630859375,1.2878515720367432,-0.0,-0.0,-1.0,0.149126515535167,2.0
19.98419952392578,-25.26030921936035,1.6692956686019895,-0.0,-0.0,-1.0,0.1456286341050894,2.0
18.6577091217041,-26.390588760375977,1.8278565406799316,-0.0,-0.0,-1.0,0.054633724318071,1.0
19.449886322021484,-24.49810791015625,1.114641189575195,-0.0,-0.0,-1.0,0.0828798040661619,2.0
18.24719619750977,-24.86617851257324,1.2208940982818604,-0.0,-0.0,-1.0,0.1205507743738855,1.0
20.133094787597656,-24.612619400024418,0.950080633163452,-0.0,-0.0,-1.0,0.1990139537274086,1.0
19.502288818359375,-24.715900421142575,1.1228950023651123,0.3201286783028745,0.1018413130034431,-0.9418842690552752,0.2652038707223019,3.0
19.359027862548828,-24.783403396606445,1.0901548862457275,-0.0,-0.0,-1.0,0.2245098142473264,2.0
18.082061767578125,-25.094247817993164,1.185294270515442,-0.0,-0.0,-1.0,0.0730162139765453,1.0
20.13822364807129,-24.974750518798828,0.9445796012878418,-0.0,-0.0,-1.0,0.0984827454254197,2.0
19.883441925048828,-24.971437454223633,1.2018094062805176,-0.0,-0.0,-1.0,0.1805072166309302,1.0
19.404293060302734,-25.093915939331055,1.0932393074035645,-0.0,-0.0,-1.0,0.0617904881509373,1.0
19.677703857421875,-25.347326278686523,1.1458914279937744,-0.0,-0.0,-1.0,0.0886119449080699,1.0
19.399873733520508,-25.65692710876465,1.0733447074890137,-0.0,-0.0,-1.0,0.0689005765860331,1.0
18.187707901000977,-25.937713623046875,1.1772470474243164,-0.0,-0.0,-1.0,0.0874874578267711,1.0
17.989425659179688,-26.033958435058594,1.1369266510009766,-0.0,-0.0,-1.0,0.1702922335681109,1.0
