x,y,z,nx,ny,nz,curvature,density,label
27.399513244628903,31.55537986755371,-2.5386524200439453,-0.0,-0.0,-1.0,0.1128189171764476,1.0,0.0
27.401966094970703,31.71004867553711,-2.5389089584350586,-0.0,-0.0,-1.0,0.0815012781256013,1.0,0.0
25.55043029785156,31.20895767211914,-2.624256134033203,-0.0,-0.0,-1.0,0.0270664655057948,1.0,0.0
25.656904220581055,31.326494216918945,-2.6563940048217773,-0.0,-0.0,-1.0,0.0210939114563161,1.0,0.0
25.403186798095703,31.49601936340332,-2.5737709999084473,-0.0,-0.0,-1.0,0.0123140469201297,1.0,0.0
25.56871032714844,31.72982406616211,-2.6245126724243164,-0.0,-0.0,-1.0,0.0337433340448984,1.0,0.0
25.34036445617676,31.99765396118164,-2.550605297088623,-0.8574547435628344,-0.5007965627021659,-0.1182123746791769,0.0358951250728399,4.0,0.0
25.53142547607422,32.31529998779297,-2.611933708190918,-0.0,-0.0,-1.0,0.0439178353987252,1.0,0.0
25.65448760986328,32.57595443725586,-2.6527628898620605,-0.0,-0.0,-1.0,0.0323013868106367,2.0,0.0
25.752195358276367,32.83638000488281,-2.686429023742676,-0.0,-0.0,-1.0,0.0119471025133464,1.0,0.0
25.74798011779785,33.08937072753906,-2.688926696777344,-0.0,-0.0,-1.0,0.0485573835019016,1.0,0.0
26.281002044677734,30.68221092224121,-2.234776020050049,-0.0,-0.0,-1.0,0.1866786714404898,1.0,0.0
26.364784240722656,30.726743698120117,-2.25740385055542,-0.0,-0.0,-1.0,0.1690220781190994,2.0,0.0
26.836963653564453,31.934288024902344,-2.3801422119140625,-0.0,-0.0,-1.0,0.1811150622358373,1.0,0.0
25.462074279785156,32.186058044433594,-1.9944148063659668,-0.0,-0.0,-1.0,0.026276445727112,1.0,0.0
25.51291847229004,32.19455337524414,-0.8481013774871826,-0.0,-0.0,-1.0,0.113635718978189,1.0,0.0
27.140201568603516,30.658105850219727,-2.581395387649536,-0.0,-0.0,-1.0,0.0501727015363531,1.0,0.0
27.124576568603516,30.95706558227539,-2.5655763149261475,-0.0,-0.0,-1.0,0.0133324134723169,1.0,0.0
27.10051155090332,31.333175659179688,-2.5461881160736084,-0.0,-0.0,-1.0,0.0555125093727605,2.0,0.0
27.51282501220703,31.65589141845703,-2.657722234725952,-0.0,-0.0,-1.0,0.0791419924802361,1.0,0.0
27.682025909423828,31.93204116821289,-2.7010767459869385,-0.0,-0.0,-1.0,0.0199410055229116,1.0,0.0
27.623804092407227,32.32813262939453,-2.6773364543914795,-0.7778202470247049,0.5009049934340777,-0.3795916896762021,0.0222468956882313,4.0,0.0
25.520763397216797,31.87383079528809,-1.4979407787322998,-0.0,-0.0,-1.0,0.0366498323682195,1.0,0.0
25.47757339477539,31.876205444335938,-0.9259066581726074,-0.0,-0.0,-1.0,0.0824368015194068,1.0,0.0
27.103336334228516,31.090784072875977,-2.50199031829834,-0.0,-0.0,-1.0,0.0246064188400807,1.0,0.0
27.180164337158203,31.405303955078125,-2.5109896659851074,-0.0,-0.0,-1.0,0.0733320659006833,1.0,0.0
27.109283447265625,31.75890731811523,-2.4760098457336426,-0.0,-0.0,-1.0,0.0935021557195588,2.0,0.0
27.153656005859375,31.87692642211914,-2.4851198196411133,-0.0,-0.0,-1.0,0.1381787769398587,2.0,0.0
27.51477813720703,32.054779052734375,-2.587582588195801,-0.0,-0.0,-1.0,0.0297512348823646,1.0,0.0
27.638492584228516,32.37635803222656,-2.615723133087158,-0.0,-0.0,-1.0,0.0229724488136338,2.0,0.0
26.77410125732422,30.817161560058594,-2.417487144470215,-0.0,-0.0,-1.0,0.0763141133219707,1.0,0.0
25.43783950805664,32.314117431640625,-1.956613063812256,-0.0,-0.0,-1.0,0.0171309300961628,1.0,0.0
25.503211975097656,32.30055236816406,-1.4208147525787354,-0.0,-0.0,-1.0,0.076777335806468,1.0,0.0
25.43423843383789,32.350868225097656,-0.8584098815917969,-0.0,-0.0,-1.0,0.1093801327729461,1.0,0.0
27.045825958251953,31.480941772460938,-2.249551296234131,-0.0,-0.0,-1.0,0.157498610575666,1.0,0.0
27.054784774780273,32.04356384277344,-2.269124984741211,-0.0,-0.0,-1.0,0.0891864619891045,1.0,0.0
27.31906509399414,31.879844665527344,-2.343177318572998,-0.0,-0.0,-1.0,0.1870800823742986,1.0,0.0
26.9645938873291,32.1063117980957,-2.2441964149475098,-0.0,-0.0,-1.0,0.1418813698783785,1.0,0.0
25.40100860595703,32.32630920410156,-1.7815780639648438,-0.0,-0.0,-1.0,0.018463923495397,2.0,0.0
25.42777633666992,32.37388229370117,-0.7307748794555664,-0.0,-0.0,-1.0,0.0963583296808115,1.0,0.0
25.267908096313477,32.361568450927734,-1.5307042598724363,-0.0,-0.0,-1.0,0.0349037391483096,2.0,0.0
25.32230758666992,32.352333068847656,-1.0361745357513428,0.6452534362836249,0.6271948962766092,-0.4362047283658765,0.0997263867082338,5.0,0.0
25.277528762817383,32.37081527709961,-1.4771881103515625,-0.0,-0.0,-1.0,0.0579824971123268,1.0,0.0
25.318784713745117,32.3786735534668,-0.9962143898010254,0.7339474127285778,0.5950242556622267,-0.327516916391566,0.115923412683969,3.0,0.0
25.26834487915039,32.30231475830078,-1.1728947162628174,-0.0,-0.0,-1.0,0.0770783229091071,2.0,0.0
25.297962188720703,32.30759048461914,-0.7093663215637207,-0.0,-0.0,-1.0,0.1050418847132712,1.0,0.0
25.31229782104492,32.27455520629883,-1.3338050842285156,-0.0,-0.0,-1.0,0.0764209345927714,2.0,0.0
25.33189392089844,32.317474365234375,-0.8742761611938477,-0.309781737912097,-0.5542865713939241,-0.7725293985529155,0.1232039446264795,3.0,0.0
27.61367416381836,32.425323486328125,-2.678489923477173,-0.0,-0.0,-1.0,0.0144708654216196,2.0,0.0
26.245250701904297,32.392757415771484,-2.5758416652679443,-0.0,-0.0,-1.0,0.0263858600215939,1.0,0.0
26.321533203125,32.03572082519531,-2.5115511417388916,-0.0,-0.0,-1.0,0.0446229437733101,1.0,0.0
26.463634490966797,31.858074188232425,-2.503919839859009,-0.0,-0.0,-1.0,0.0749372295914064,1.0,0.0
26.459762573242188,31.533687591552734,-2.4301440715789795,-0.0,-0.0,-1.0,0.1193100834533463,1.0,0.0
25.335268020629883,32.00959014892578,-2.5727789402008057,-0.8574547435628344,-0.5007965627021659,-0.1182123746791769,0.0563115448148638,4.0,0.0
25.472736358642575,32.18345642089844,-2.5950231552124023,-0.0,-0.0,-1.0,0.0265504108442601,1.0,0.0
25.4687442779541,31.8974609375,-2.603949069976806,-0.0,-0.0,-1.0,0.0412376792123483,1.0,0.0
25.737415313720703,32.10316467285156,-2.624023199081421,-0.0,-0.0,-1.0,0.1003364832564577,1.0,0.0
26.287567138671875,31.862342834472656,-2.542188882827759,-0.0,-0.0,-1.0,0.0858033200606682,1.0,0.0
25.689456939697266,32.156761169433594,-2.6372663974761963,-0.0,-0.0,-1.0,0.1256048795458554,2.0,0.0
25.97427749633789,32.48694610595703,-2.6196846961975098,-0.0,-0.0,-1.0,0.0105377737153363,1.0,0.0
26.65589141845703,32.88207244873047,-2.648201704025269,-0.0,-0.0,-1.0,0.0105448254695449,1.0,0.0
27.02165985107422,32.812965393066406,-2.613076686859131,-0.0,-0.0,-1.0,0.037562588919209,1.0,0.0
27.070133209228516,32.873199462890625,-2.621328830718994,-0.0,-0.0,-1.0,0.068625299417801,1.0,0.0
25.368024826049805,32.212711334228516,-1.195102572441101,-0.0,-0.0,-1.0,0.0900540261093206,1.0,0.0
27.238542556762695,32.89143371582031,-2.6840834617614746,-0.3109168914793533,-0.4949870291968217,-0.8113683057155489,0.0686055053191014,3.0,0.0
26.858840942382812,32.48574447631836,-1.0490481853485107,-0.0,-0.0,-1.0,0.0123860925214976,1.0,0.0
25.293540954589844,32.56684875488281,-1.139230489730835,-0.0,-0.0,-1.0,0.0827737634876091,1.0,0.0
25.21055793762207,32.79022979736328,-1.1571133136749268,-0.0,-0.0,-1.0,0.0560270466016876,1.0,0.0
25.219886779785156,32.490631103515625,-1.1389577388763428,-0.0,-0.0,-1.0,0.0978737384318267,1.0,0.0
26.174516677856445,31.059307098388672,-1.0014259815216064,-0.0,-0.0,-1.0,0.0800596454445734,1.0,0.0
25.892562866210938,30.84014892578125,-1.0061142444610596,-0.0,-0.0,-1.0,0.0917465276004506,1.0,0.0
25.456069946289062,32.516197204589844,-2.607558250427246,-0.0,-0.0,-1.0,0.0451373393407936,1.0,0.0
25.25788688659668,32.492225646972656,-2.6295807361602783,-0.0,-0.0,-1.0,0.1104869144102977,1.0,0.0
25.3836612701416,32.16355895996094,-2.5920283794403076,-0.0,-0.0,-1.0,0.0484398887903756,1.0,0.0
25.222097396850582,31.760738372802734,-2.5843310356140137,-0.0,-0.0,-1.0,0.0555814621590029,1.0,0.0
25.285842895507812,31.97718811035156,-2.5911786556243896,-0.0,-0.0,-1.0,0.0563115448148638,1.0,0.0
26.056615829467773,30.740623474121097,-2.4150145053863525,-0.0,-0.0,-1.0,0.1442400513435045,1.0,0.0
25.329145431518555,32.418006896972656,-1.3927642107009888,-0.0,-0.0,-1.0,0.0709330755589175,2.0,0.0
25.293115615844727,32.40288543701172,-1.25824236869812,-0.0,-0.0,-1.0,0.1014369193902571,2.0,0.0
27.1622257232666,32.939483642578125,-2.696333408355713,-0.0,-0.0,-1.0,0.0671961181642096,2.0,0.0
25.275014877319336,32.32890701293945,-1.967457890510559,-0.0,-0.0,-1.0,0.0184742408546843,2.0,0.0
25.295927047729492,32.38840103149414,-1.0297645330429075,0.6683762827385866,0.5854724685791433,-0.4587974860528258,0.1020363224116356,4.0,0.0
25.279102325439453,32.35972595214844,-1.2714582681655884,-0.0,-0.0,-1.0,0.0778801041370034,2.0,0.0
26.650554656982425,31.771472930908203,-2.575589656829834,-0.0,-0.0,-1.0,0.0584843196448994,2.0,0.0
26.409414291381836,31.681838989257812,-2.5986738204956055,-0.0,-0.0,-1.0,0.1130513394878785,2.0,0.0
26.429521560668945,31.46737289428711,-2.5736570358276367,-0.0,-0.0,-1.0,0.0922466687979906,2.0,0.0
26.40849876403809,30.99527359008789,-2.5279407501220703,-0.0,-0.0,-1.0,0.1191078218053111,1.0,0.0
26.27235412597656,30.72649383544922,-2.5194811820983887,-0.0,-0.0,-1.0,0.131543776018654,1.0,0.0
25.280332565307617,32.42409896850586,-1.0698415040969849,-0.0,-0.0,-1.0,0.1235372746442396,1.0,0.0
27.34172821044922,32.93024826049805,-2.6828784942626953,-0.0,-0.0,-1.0,0.0458304797338632,1.0,0.0
26.559627532958984,30.86122703552246,-2.519726276397705,-0.0,-0.0,-1.0,0.1183389629231509,1.0,0.0
25.931560516357425,32.87799072265625,-2.6688852310180664,-0.8527166156041416,0.0719366642256287,-0.5173968397784314,0.0126503793830317,3.0,0.0
26.968746185302734,31.891338348388672,-2.4150004386901855,-0.0,-0.0,-1.0,0.1915327271998458,2.0,0.0
26.690185546875,32.023799896240234,-2.467522144317627,-0.0,-0.0,-1.0,0.0786414566025293,1.0,0.0
25.70507049560547,32.253929138183594,-2.6276464462280273,-0.0,-0.0,-1.0,0.0967641005833257,2.0,0.0
25.543067932128903,32.016075134277344,-2.6231298446655273,-0.0,-0.0,-1.0,0.0409449502784751,1.0,0.0
26.75197982788086,31.54648208618164,-2.4034862518310547,-0.0,-0.0,-1.0,0.1976342281620874,2.0,0.0
25.436737060546875,31.71036148071289,-2.603884220123291,-0.0,-0.0,-1.0,0.0288386694986282,1.0,0.0
26.39666748046875,31.033138275146484,-2.39331579208374,-0.0,-0.0,-1.0,0.1432803548318847,1.0,0.0
25.31808090209961,32.34088897705078,-1.0598701238632202,0.4845070698643273,0.7507598606834618,-0.4490128403932706,0.1015190627456814,3.0,0.0
26.590463638305664,31.59453773498535,-2.583089828491211,-0.0,-0.0,-1.0,0.1462605440730734,2.0,0.0
27.170883178710938,31.632753372192383,-2.505655288696289,-0.0,-0.0,-1.0,0.0730643504327786,2.0,0.0
26.930837631225582,31.608888626098633,-2.5363659858703613,-0.0726992354658609,0.9276647365875776,-0.3662689690030804,0.1210560677521703,3.0,0.0
26.69092559814453,31.260513305664062,-2.524873733520508,-0.0,-0.0,-1.0,0.109027351903217,1.0,0.0
26.424633026123047,31.332483291625977,-2.573026180267334,-0.0,-0.0,-1.0,0.089476522749461,1.0,0.0
25.332996368408203,32.39125061035156,-1.292812466621399,-0.0,-0.0,-1.0,0.0775435993411149,2.0,0.0
26.154556274414062,32.86195373535156,-2.6566877365112305,-0.0,-0.0,-1.0,0.0148389587376031,1.0,0.0
25.86835670471191,32.4918212890625,-2.6411876678466797,-0.3531233601333058,-0.2318296164002852,-0.9063988754890754,0.0219823903498737,3.0,0.0
25.798442840576172,32.33415603637695,-2.628279447555542,-0.0,-0.0,-1.0,0.0757940745252714,1.0,0.0
25.638389587402344,32.20198059082031,-2.631114959716797,-0.0,-0.0,-1.0,0.1227145875177714,1.0,0.0
25.48936462402344,32.010833740234375,-2.6246955394744873,-0.0,-0.0,-1.0,0.0403348487160635,2.0,0.0
26.96318817138672,31.87152099609375,-2.4130287170410156,-0.0,-0.0,-1.0,0.1781409156966328,2.0,0.0
26.46320343017578,31.764978408813477,-2.4616611003875732,-0.0,-0.0,-1.0,0.0872115388104544,1.0,0.0
26.341442108154297,31.066801071166992,-2.3802154064178467,-0.0,-0.0,-1.0,0.1385154686347277,1.0,0.0
26.248029708862305,30.662918090820312,-2.3373098373413086,-0.0,-0.0,-1.0,0.1693588128127345,1.0,0.0
25.30238342285156,32.450469970703125,-1.9443910121917725,-0.14994943655907,-0.2237619531419096,-0.9630398510974172,0.0184742408546843,3.0,0.0
25.340600967407227,32.363311767578125,-1.176161766052246,-0.0,-0.0,-1.0,0.0966903727134059,2.0,0.0
26.260910034179688,30.780773162841797,-2.014954090118408,-0.0,-0.0,-1.0,0.2028511702658391,1.0,0.0
25.276744842529297,32.42652130126953,-1.621903419494629,-0.0,-0.0,-1.0,0.0207804419862052,1.0,0.0
25.308324813842773,32.34619140625,-0.8854293823242188,-0.010130761196904,-0.7714433647814366,-0.6362173391320505,0.1065316509357912,4.0,0.0
27.137319564819336,32.32897186279297,-2.671316146850586,-0.0,-0.0,-1.0,0.0163371794375903,2.0,0.0
27.179367065429688,32.01679229736328,-2.609895944595337,-0.0,-0.0,-1.0,0.0559796022441323,1.0,0.0
27.028949737548828,31.665189743041992,-2.562382221221924,-0.330445871351077,0.856627436322807,-0.3962258969906466,0.1077735318463984,4.0,0.0
26.5885009765625,31.6984920501709,-2.617368221282959,-0.0,-0.0,-1.0,0.1116020740829353,1.0,0.0
26.449466705322266,31.491979598999023,-2.5965421199798584,0.7436283809384786,-0.6652118155982351,-0.0671570655353306,0.0965835598207025,3.0,0.0
26.647750854492188,30.68572235107422,-2.430946111679077,-0.0,-0.0,-1.0,0.11875296432752,2.0,0.0
26.55375289916992,31.10382843017578,-2.515709400177002,-0.0,-0.0,-1.0,0.0953938752720222,1.0,0.0
25.945480346679688,31.043502807617188,-2.578234910964966,-0.0,-0.0,-1.0,0.0789682985332603,1.0,0.0
25.308460235595703,32.375160217285156,-2.1755809783935547,-0.0,-0.0,-1.0,0.0741073403496233,2.0,0.0
26.44806671142578,33.13752746582031,-2.7146215438842773,-0.0,-0.0,-1.0,0.0120742067644434,1.0,0.0
26.550296783447266,32.905120849609375,-2.6612401008605957,-0.0,-0.0,-1.0,0.0100042258671753,1.0,0.0
26.10464859008789,32.61954879760742,-2.657787799835205,-0.090071844318054,-0.8369179961718632,-0.5398660301823197,0.0206088402579501,3.0,0.0
25.907976150512695,32.49614334106445,-2.657728433609009,-0.0,-0.0,-1.0,0.0189139068362684,2.0,0.0
27.257360458374023,31.818368911743164,-2.3870296478271484,-0.0,-0.0,-1.0,0.1066762313030258,1.0,0.0
27.00988388061523,31.85371208190918,-2.419489860534668,-0.0,-0.0,-1.0,0.1868946549237859,1.0,0.0
25.722972869873047,32.28459548950195,-2.64139461517334,-0.2145107782769776,-0.7976845041279802,-0.5636351283207105,0.1034065160995488,4.0,0.0
26.819318771362305,31.624624252319336,-2.3981494903564453,-0.0,-0.0,-1.0,0.2596346815528096,1.0,0.0
25.482765197753903,32.047325134277344,-2.6279029846191406,0.0016101274792385,-0.0872692851111021,-0.9961834566813972,0.0420592255442452,3.0,0.0
25.346914291381836,31.890146255493164,-2.6168127059936523,-0.0,-0.0,-1.0,0.0376111484976137,1.0,0.0
25.311012268066406,32.39634323120117,-1.3424575328826904,-0.3840134999900371,-0.6648260125372598,-0.6407339579569739,0.0750391852639788,3.0,0.0
25.265628814697266,32.46221923828125,-0.6779897212982178,-0.0,-0.0,-1.0,0.0986665455741625,1.0,0.0
25.52709197998047,32.87493896484375,-2.642218589782715,-0.0,-0.0,-1.0,0.0364738724082557,1.0,0.0
25.428234100341797,32.63026809692383,-2.613372564315796,0.0644245915661011,-0.626207142501751,-0.7769904032105753,0.0269388551186156,3.0,0.0
25.258155822753903,32.62133026123047,-2.6352577209472656,-0.0,-0.0,-1.0,0.0838901532107999,1.0,0.0
25.292789459228516,32.13811111450195,-2.5478785037994385,-0.0,-0.0,-1.0,0.0719578007254923,2.0,0.0
26.794246673583984,31.63214683532715,-2.259099245071411,-0.0,-0.0,-1.0,0.2274517608687299,1.0,0.0
25.281265258789062,32.4298210144043,-1.936305046081543,0.0251028594728033,-0.5851683714824067,-0.8105231788560496,0.0181465664495634,4.0,0.0
26.915685653686523,31.21316909790039,-2.60831069946289,-0.0,-0.0,-1.0,0.0468279197727644,1.0,0.0
26.645837783813477,31.091793060302734,-2.6108412742614746,-0.0,-0.0,-1.0,0.0886272978807509,1.0,0.0
26.93589782714844,30.886295318603516,-2.53300142288208,-0.0,-0.0,-1.0,0.0454218895306464,1.0,0.0
26.48889923095703,30.775394439697266,-2.5590262413024902,-0.0,-0.0,-1.0,0.1447456474396505,2.0,0.0
25.286537170410156,32.38336181640625,-1.1455577611923218,0.8973668034462483,0.2593932866305085,-0.3569985194978898,0.1033349405995603,3.0,0.0
27.174169540405273,32.87353515625,-2.680335760116577,0.930208245808436,-0.1891508361107499,-0.3145386790660193,0.0686055053191014,5.0,0.0
26.921070098876953,33.04210662841797,-2.738009452819824,-0.0,-0.0,-1.0,0.0350634027970462,1.0,0.0
26.589990615844727,32.303466796875,-2.6046881675720215,-0.0,-0.0,-1.0,0.0314785380020485,1.0,0.0
26.029035568237305,32.3192138671875,-2.660125970840454,-0.0,-0.0,-1.0,0.049071611035434,2.0,0.0
25.903379440307617,32.33911895751953,-2.6766042709350586,-0.0,-0.0,-1.0,0.0594844406513633,1.0,0.0
27.192535400390625,31.82279586791992,-2.447474479675293,-0.0,-0.0,-1.0,0.1155424756453061,2.0,0.0
26.916973114013672,31.854454040527344,-2.4778358936309814,-0.0,-0.0,-1.0,0.1502688795845858,1.0,0.0
26.388893127441406,32.02011489868164,-2.561272621154785,-0.0,-0.0,-1.0,0.0487435338465808,2.0,0.0
26.219703674316406,32.094635009765625,-2.5932891368865967,-0.0,-0.0,-1.0,0.0267357569155962,2.0,0.0
25.721546173095703,32.23957443237305,-2.6732921600341797,-0.0,-0.0,-1.0,0.1258610504358606,2.0,0.0
26.88875961303711,31.579174041748047,-2.4199674129486084,-0.0,-0.0,-1.0,0.167741933707711,1.0,0.0
25.3019962310791,32.40592575073242,-1.514845848083496,-0.0,-0.0,-1.0,0.0498403779302867,1.0,0.0
25.29092788696289,32.40771484375,-0.9085352420806884,-0.0,-0.0,-1.0,0.102296017455307,2.0,0.0
27.38157844543457,32.919498443603516,-2.803278923034668,-0.0,-0.0,-1.0,0.0345819168286945,1.0,0.0
27.484031677246097,32.33708190917969,-2.657919406890869,-0.0,-0.0,-1.0,0.0144300756888551,1.0,0.0
27.152572631835938,32.56541442871094,-2.7343626022338867,-0.0,-0.0,-1.0,0.0186835642810145,2.0,0.0
27.457683563232425,32.279014587402344,-2.6457724571228027,-0.0,-0.0,-1.0,0.017487029699888,1.0,0.0
26.98104476928711,31.741790771484375,-2.5517845153808594,-0.0,-0.0,-1.0,0.0900240024860005,1.0,0.0
26.607501983642575,31.778858184814453,-2.5895371437072754,-0.0,-0.0,-1.0,0.0480474714638023,2.0,0.0
26.276063919067383,31.7742862701416,-2.6159658432006836,-0.0,-0.0,-1.0,0.1566276223771226,2.0,0.0
25.9285945892334,31.923259735107425,-2.6814403533935547,-0.0,-0.0,-1.0,0.0528883981592391,1.0,0.0
26.294044494628903,31.697494506835938,-2.5965347290039062,-0.0,-0.0,-1.0,0.1391993196601715,1.0,0.0
26.24436378479004,31.01416778564453,-2.441455364227295,-0.0,-0.0,-1.0,0.149605718113207,1.0,0.0
25.21325302124023,32.353111267089844,-1.045425295829773,-0.0,-0.0,-1.0,0.1098474504140719,1.0,0.0
27.407255172729492,32.96940612792969,-2.726698398590088,-0.0,-0.0,-1.0,0.0279867424409575,1.0,0.0
26.83987617492676,32.51648712158203,-2.64168643951416,-0.0,-0.0,-1.0,0.0097411650213509,1.0,0.0
26.37562561035156,32.430633544921875,-2.644857883453369,-0.0,-0.0,-1.0,0.02525784426277,2.0,0.0
26.16453742980957,32.52271270751953,-2.67864990234375,-0.809449094833322,-0.528926902444906,0.2550068523462704,0.0266603507216752,4.0,0.0
27.419723510742188,31.939895629882812,-2.4777331352233887,-0.0,-0.0,-1.0,0.0754840612420928,1.0,0.0
27.161176681518555,31.877656936645508,-2.4733877182006836,-0.0,-0.0,-1.0,0.1381787769398587,2.0,0.0
26.74776268005371,32.1766357421875,-2.564535140991211,-0.0,-0.0,-1.0,0.0555494808170476,1.0,0.0
26.433685302734375,32.24803924560547,-2.5978407859802246,-0.0,-0.0,-1.0,0.0306625460122564,1.0,0.0
25.67599105834961,32.28746032714844,-2.65323257446289,-0.0,-0.0,-1.0,0.0585067130176084,2.0,0.0
27.304662704467773,31.752208709716797,-2.437070369720459,-0.0,-0.0,-1.0,0.115907917675845,1.0,0.0
27.17746353149414,31.745746612548828,-2.440863609313965,-0.0,-0.0,-1.0,0.1164040347540659,1.0,0.0
26.749114990234375,31.581768035888672,-2.4215521812438965,-0.0,-0.0,-1.0,0.1626117163158398,2.0,0.0
26.898900985717773,31.452892303466797,-2.3831753730773926,-0.0,-0.0,-1.0,0.1877815608351513,1.0,0.0
26.39541244506836,30.871063232421875,-2.2709312438964844,-0.0,-0.0,-1.0,0.1986844148090452,1.0,0.0
26.351072311401367,30.8472900390625,-2.267899990081787,-0.0,-0.0,-1.0,0.2225281708526133,1.0,0.0
26.57900619506836,30.68400764465332,-2.215663433074951,-0.0,-0.0,-1.0,0.1792327219450124,1.0,0.0
26.32381820678711,30.729721069335938,-2.2415237426757812,-0.0,-0.0,-1.0,0.1866786714404898,2.0,0.0
25.385353088378903,32.37287139892578,-0.9361759424209596,0.8564485232484335,-0.4864835176925722,-0.1727128079762427,0.1349598842905182,5.0,0.0
26.00085830688477,33.12749481201172,-2.6627037525177,-0.7824206137004324,0.113300566182116,-0.6123568934530343,0.0494446661968278,3.0,0.0
25.452003479003903,33.13749313354492,-2.6869757175445557,-0.0,-0.0,-1.0,0.0297212453552809,1.0,0.0
25.22031593322754,32.94792938232422,-2.653441905975342,-0.0,-0.0,-1.0,0.0368916238482508,1.0,0.0
26.950441360473633,31.901535034179688,-2.3466715812683105,-0.0,-0.0,-1.0,0.1536464467318723,1.0,0.0
25.324073791503903,32.44627380371094,-1.9467933177948,-0.14994943655907,-0.2237619531419096,-0.9630398510974172,0.0184742408546843,3.0,0.0
25.326171875,32.40856170654297,-1.3642210960388184,0.3500457720805962,-0.8995757994158862,-0.2612112910150859,0.0671137659078429,3.0,0.0
25.32946395874023,32.381874084472656,-0.7922999858856201,-0.0,-0.0,-1.0,0.0986665455741625,2.0,0.0
26.15062141418457,32.225555419921875,-1.9890105724334717,-0.0,-0.0,-1.0,0.1736076583310711,1.0,0.0
25.360368728637695,32.39405059814453,-1.4513239860534668,-0.0,-0.0,-1.0,0.0653357508512596,1.0,0.0
25.36576271057129,32.30321502685547,-0.8776264190673828,-0.3960115722966834,-0.9071104186025472,-0.1425676087679801,0.1189259297805548,3.0,0.0
25.308359146118164,32.29154968261719,-2.3383984565734863,-0.0,-0.0,-1.0,0.0902512157570776,2.0,0.0
25.336410522460938,32.31144714355469,-1.1910200119018557,-0.0,-0.0,-1.0,0.0943994077675838,2.0,0.0
25.705915451049805,32.152137756347656,-2.663271427154541,-0.0,-0.0,-1.0,0.12706159661108,2.0,0.0
25.45828628540039,32.05618667602539,-2.628718852996826,-0.0,-0.0,-1.0,0.0583834139135003,2.0,0.0
27.34948348999023,31.482593536376953,-2.6107609272003174,-0.0,-0.0,-1.0,0.0899161801888637,1.0,0.0
27.083663940429688,31.5130615234375,-2.597597360610962,-0.0,-0.0,-1.0,0.0745559112548551,1.0,0.0
27.61846923828125,31.39644241333008,-2.612311363220215,-0.0,-0.0,-1.0,0.0545091386793907,2.0,0.0
27.59819602966309,31.32232666015625,-2.5935659408569336,-0.0,-0.0,-1.0,0.0282536206912943,1.0,0.0
25.323890686035156,32.305789947509766,-1.4904541969299316,0.0200196719894614,-0.5383938086786495,-0.842455529692774,0.0586398681190573,4.0,0.0
25.344032287597656,32.35456848144531,-0.9127826690673828,-0.5293870961854374,0.5310136630850304,-0.6616447627007775,0.1065316509357911,5.0,0.0
25.373477935791016,32.320953369140625,-1.6802932024002075,-0.0,-0.0,-1.0,0.0233799712808135,1.0,0.0
27.314706802368164,31.871248245239254,-2.4717979431152344,-0.0,-0.0,-1.0,0.130543232855924,1.0,0.0
26.390655517578125,31.675148010253903,-2.5313193798065186,-0.0,-0.0,-1.0,0.1097139736065186,1.0,0.0
27.234275817871097,31.84476089477539,-2.445518493652344,-0.0,-0.0,-1.0,0.1186003352155231,2.0,0.0
26.63268661499023,30.68421173095703,-2.3744821548461914,-0.5375571102869406,-0.1225453369636361,-0.8342751306184446,0.1208964313004768,3.0,0.0
25.56316566467285,30.742612838745117,-1.8635059595108032,-0.0,-0.0,-1.0,0.0621933022039787,1.0,0.0
25.45140266418457,30.656999588012695,-1.8507453203201296,-0.0,-0.0,-1.0,0.067752907760438,1.0,0.0
26.49034118652344,32.832706451416016,-0.7136625051498413,-0.0,-0.0,-1.0,0.0363007187720471,1.0,0.0
27.10247039794922,30.72454071044922,-1.4034044742584229,-0.0,-0.0,-1.0,0.1047635971849732,1.0,0.0
26.54621696472168,30.786388397216797,-2.4053893089294434,-0.0,-0.0,-1.0,0.1636295970546233,1.0,0.0
25.38013458251953,32.43518829345703,-1.069846510887146,-0.0,-0.0,-1.0,0.0803996949432567,1.0,0.0
26.872039794921875,30.94609260559082,-2.552285432815552,-0.0,-0.0,-1.0,0.0510078759495464,1.0,0.0
27.212432861328125,31.500259399414062,-2.575674533843994,-0.0,-0.0,-1.0,0.0757969932336411,1.0,0.0
26.898792266845703,31.50391960144043,-2.5923948287963867,-0.0,-0.0,-1.0,0.1493710024766354,1.0,0.0
27.068212509155273,31.267412185668945,-2.5476369857788086,-0.0,-0.0,-1.0,0.0704238748337868,1.0,0.0
26.9882869720459,31.47471046447754,-2.583291530609131,-0.0,-0.0,-1.0,0.0970344287696547,1.0,0.0
25.33926773071289,32.3909797668457,-0.9117294549942015,0.4309357445462763,0.0823824533757099,-0.8986142194780501,0.1058224065443196,3.0,0.0
27.64381217956543,31.629688262939453,-2.525571823120117,-0.0,-0.0,-1.0,0.0640723805855361,1.0,0.0
27.627120971679688,32.36009216308594,-2.6404967308044434,0.3879680328596205,0.6786249339219808,-0.6236577623492101,0.0225766128450557,3.0,0.0
27.26104736328125,31.69496154785156,-2.5371718406677246,-0.0,-0.0,-1.0,0.1311997341516425,1.0,0.0
27.42308807373047,32.10530471801758,-2.601107120513916,-0.0,-0.0,-1.0,0.029651290386708,1.0,0.0
27.53079605102539,32.31964874267578,-2.6344475746154785,-0.0,-0.0,-1.0,0.0140999382398774,1.0,0.0
27.04627990722656,31.69830322265625,-2.5386805534362793,-0.8272005516488562,0.5411717166809179,-0.1512363065419704,0.0737245328053029,3.0,0.0
26.64244270324707,30.64495086669922,-2.3750014305114746,-0.5375571102869406,-0.1225453369636361,-0.8342751306184446,0.1109368269863149,3.0,0.0
26.643138885498047,30.68634796142578,-2.38153076171875,-0.9707787331096578,-0.1297794789253106,-0.2018562314913322,0.1180863408504359,4.0,0.0
25.3537654876709,32.32334518432617,-1.770146727561951,-0.2554013821986975,-0.2312832800350142,-0.938764176109868,0.0185875755315447,4.0,0.0
25.2987117767334,32.32014465332031,-1.9810054302215576,-0.0,-0.0,-1.0,0.0184742408546843,2.0,0.0
25.30091857910156,32.32382583618164,-1.1441900730133057,0.1813791577407391,0.6325479166393637,-0.7529838871399973,0.1086836501935451,4.0,0.0
25.44697380065918,32.60358810424805,-2.5903162956237793,0.0644245915661011,-0.626207142501751,-0.7769904032105753,0.0364282660728397,3.0,0.0
27.140230178833008,31.838871002197266,-2.4485936164855957,-0.0,-0.0,-1.0,0.1249824962665614,1.0,0.0
25.364315032958984,32.439186096191406,-2.56337833404541,-0.0,-0.0,-1.0,0.1080468954715152,1.0,0.0
25.281160354614254,32.142398834228516,-2.513988494873047,-0.3323859110036996,-0.9431287599575486,0.0052676661983561,0.1100523635464393,3.0,0.0
25.35141372680664,32.34147644042969,-0.9457541704177856,-0.5191857148467062,0.6909641095970198,-0.5030057581657612,0.1199263081178598,4.0,0.0
25.32954216003418,32.37566375732422,-1.5832059383392334,-0.0,-0.0,-1.0,0.0415270307879461,2.0,0.0
25.337549209594727,32.3914794921875,-0.8258624076843262,-0.3898426162740596,-0.8562284884215315,-0.3389624022690063,0.0986665455741625,3.0,0.0
25.989505767822266,33.09744644165039,-2.6537580490112305,-0.7824206137004324,0.113300566182116,-0.6123568934530343,0.0552628643668284,3.0,0.0
25.46578598022461,32.66461181640625,-2.6065192222595215,-0.0,-0.0,-1.0,0.0293748236002184,1.0,0.0
26.893217086791992,31.7225341796875,-2.340548276901245,-0.0,-0.0,-1.0,0.1649142072243696,1.0,0.0
25.30048179626465,32.38467025756836,-1.1095552444458008,0.8973668034462483,0.2593932866305085,-0.3569985194978898,0.1064586878768073,3.0,0.0
25.56833267211914,32.929595947265625,-2.695283889770508,-0.0,-0.0,-1.0,0.0333357622491744,1.0,0.0
25.242712020874023,32.1192626953125,-2.556011199951172,-0.0,-0.0,-1.0,0.1045297416808272,2.0,0.0
25.38579559326172,32.539955139160156,-2.63014554977417,-0.0,-0.0,-1.0,0.0740539943645171,1.0,0.0
25.30175018310547,32.39863586425781,-1.9098868370056152,-0.0,-0.0,-1.0,0.017346940773164,2.0,0.0
25.322248458862305,32.37648010253906,-1.215402603149414,-0.0,-0.0,-1.0,0.09469659254783,2.0,0.0
27.26348876953125,31.084135055541992,-2.6036858558654785,-0.0,-0.0,-1.0,0.0274316998883983,1.0,0.0
26.7482967376709,31.10749626159668,-2.6094274520874023,-0.0,-0.0,-1.0,0.0751619274599331,1.0,0.0
26.972414016723633,30.7779483795166,-2.534552574157715,-0.0,-0.0,-1.0,0.0274408056751604,1.0,0.0
26.81791305541992,30.947025299072266,-2.572932243347168,-0.0,-0.0,-1.0,0.0573183426363352,1.0,0.0
27.34429359436035,32.09135818481445,-2.1585469245910645,-0.0,-0.0,-1.0,0.1685321633817973,1.0,0.0
25.293949127197266,32.35960006713867,-1.5734254121780396,0.410693695866744,-0.9117687073378044,-0.0029176180119333,0.0415270307879461,3.0,0.0
25.27830696105957,32.351173400878906,-0.913840651512146,0.5584254080737046,0.6834571134040613,-0.4701568225125569,0.0959424614952391,3.0,0.0
26.801513671875,30.814807891845703,-2.577040672302246,-0.0,-0.0,-1.0,0.0587521551592219,1.0,0.0
25.313987731933594,32.37626647949219,-1.683217167854309,-0.0,-0.0,-1.0,0.0223908349371674,1.0,0.0
25.293899536132812,32.36143112182617,-1.051616072654724,0.5335199594718957,0.6051639942172377,-0.5908747692600744,0.1025084861896114,4.0,0.0
27.55068588256836,31.768619537353516,-2.6415891647338867,-0.0,-0.0,-1.0,0.069791250691907,1.0,0.0
27.54354476928711,31.630674362182617,-2.608190536499023,-0.0,-0.0,-1.0,0.0692324469726033,1.0,0.0
27.1887149810791,31.613059997558594,-2.599881172180176,-0.0,-0.0,-1.0,0.0832591126037359,1.0,0.0
27.048982620239254,31.638399124145508,-2.6048989295959473,-0.0,-0.0,-1.0,0.0730185810408095,2.0,0.0
26.66336250305176,30.81187629699707,-2.402878761291504,-0.0,-0.0,-1.0,0.0955172207955814,1.0,0.0
25.397472381591797,31.695850372314453,-2.6325273513793945,-0.0,-0.0,-1.0,0.0259717753920681,1.0,0.0
25.44679832458496,32.2750244140625,-0.9608854055404664,-0.0,-0.0,-1.0,0.1195808355915577,1.0,0.0
27.68207550048828,32.269859313964844,-2.647631883621216,-0.0,-0.0,-1.0,0.0222468956882312,1.0,0.0
27.324947357177734,31.79230499267578,-2.5225589275360107,-0.0,-0.0,-1.0,0.1498649701096797,2.0,0.0
27.190858840942383,31.637531280517575,-2.4815866947174072,-0.0,-0.0,-1.0,0.0816551441634478,2.0,0.0
26.86562728881836,31.880308151245117,-2.5315020084381104,-0.4090430535897255,-0.1410715610280593,-0.9015445607284754,0.1424801282087561,3.0,0.0
26.513090133666992,32.39832305908203,-2.650277853012085,-0.0,-0.0,-1.0,0.0183662579197911,1.0,0.0
26.165679931640625,32.53058624267578,-2.678419589996338,-0.809449094833322,-0.528926902444906,0.2550068523462704,0.0266603507216753,4.0,0.0
25.879392623901367,32.39474105834961,-2.6431493759155273,-0.0,-0.0,-1.0,0.0577352196700757,1.0,0.0
25.678131103515625,32.524234771728516,-2.6743600368499756,-0.0,-0.0,-1.0,0.0336174581797418,1.0,0.0
25.243764877319336,32.08977127075195,-2.567945718765259,-0.0,-0.0,-1.0,0.0644293152218654,2.0,0.0
25.41102409362793,32.289024353027344,-2.030094861984253,-0.0,-0.0,-1.0,0.0255062220127388,1.0,0.0
25.41514587402344,32.27384948730469,-1.4493486881256104,-0.0,-0.0,-1.0,0.0762180117607923,1.0,0.0
25.42530632019043,32.274662017822266,-0.8785440921783447,-0.0,-0.0,-1.0,0.0942181802860298,1.0,0.0
25.354530334472656,32.31139373779297,-1.2254812717437744,-0.0,-0.0,-1.0,0.090019983580364,2.0,0.0
27.147075653076172,32.91767120361328,-2.677485227584839,-0.0,-0.0,-1.0,0.0671961181642096,2.0,0.0
27.366130828857425,31.638946533203125,-2.4009013175964355,-0.0,-0.0,-1.0,0.1016627907606224,2.0,0.0
25.88997459411621,32.230133056640625,-2.4298553466796875,-0.0,-0.0,-1.0,0.0664962221244935,1.0,0.0
25.341306686401367,32.36616897583008,-1.3293051719665527,0.1468292226468763,-0.9802402065903356,-0.1325530714870465,0.0699011989994727,4.0,0.0
25.384672164916992,32.34380340576172,-0.7865076065063477,-0.0,-0.0,-1.0,0.0963583296808116,1.0,0.0
25.374269485473633,32.35639572143555,-0.9000678062438965,0.2039675497198596,-0.91277922713732,-0.3538803769183491,0.1063961098069256,3.0,0.0
25.39685440063477,32.328636169433594,-1.508687138557434,-0.0,-0.0,-1.0,0.0490924030509987,2.0,0.0
25.377466201782227,32.34980010986328,-0.9502922296524048,0.4413050629981809,-0.2776668342913311,-0.85331762580343,0.1199263081178597,4.0,0.0
26.82999610900879,33.0748291015625,-2.6127333641052246,-0.0,-0.0,-1.0,0.0202575627562121,1.0,0.0
25.35030174255371,32.340553283691406,-1.5118305683135986,-0.2098244792932895,-0.2845113689525422,-0.9354287620262968,0.0531218137528547,4.0,0.0
25.281211853027344,32.36299133300781,-2.120877265930176,-0.7801075218774814,-0.5049065551488351,-0.3694612630275478,0.0581612602950039,3.0,0.0
25.369050979614254,32.296722412109375,-0.8454499244689941,-0.0,-0.0,-1.0,0.1093801327729462,2.0,0.0
25.459850311279297,32.32677459716797,-1.312364101409912,-0.0,-0.0,-1.0,0.0782779972836951,1.0,0.0
25.315364837646484,32.310630798339844,-1.3275387287139893,-0.0,-0.0,-1.0,0.0764209345927714,2.0,0.0
25.316539764404297,32.41008758544922,-2.2264323234558105,-0.0,-0.0,-1.0,0.0810553612196817,1.0,0.0
25.35565185546875,32.29651641845703,-1.0445940494537354,-0.0,-0.0,-1.0,0.1017987106242985,2.0,0.0
27.4527587890625,31.505889892578125,-2.6206438541412354,-0.0,-0.0,-1.0,0.0820448566381919,1.0,0.0
25.360271453857425,32.31147003173828,-1.006540298461914,-0.0,-0.0,-1.0,0.1041801549959925,2.0,0.0
25.98148727416992,32.00607681274414,-2.651967287063598,-0.0,-0.0,-1.0,0.0899792541552058,1.0,0.0
25.876876831054688,32.15644073486328,-2.661036252975464,-0.0,-0.0,-1.0,0.0798380831867463,1.0,0.0
25.800806045532227,32.213287353515625,-2.6598799228668213,-0.0,-0.0,-1.0,0.0907953625395047,1.0,0.0
26.31877899169922,32.296897888183594,-2.6513640880584717,-0.0,-0.0,-1.0,0.023048156222738,1.0,0.0
26.13985061645508,32.63147735595703,-2.6821529865264893,-0.090071844318054,-0.8369179961718632,-0.5398660301823197,0.0220030295225815,3.0,0.0
25.95079803466797,32.88427734375,-2.699716329574585,-0.8527166156041416,0.0719366642256287,-0.5173968397784314,0.0121332896274631,3.0,0.0
25.81041145324707,32.57933807373047,-2.6335508823394775,-0.2104108124094854,0.8069313890051943,-0.551895844756352,0.0337740400256852,3.0,0.0
25.67342758178711,33.07130432128906,-2.6968390941619873,-0.0,-0.0,-1.0,0.0459561948462665,1.0,0.0
25.377553939819336,32.68489456176758,-2.598411798477173,-0.0,-0.0,-1.0,0.0265658973036718,1.0,0.0
25.41763687133789,32.59928512573242,-2.589280843734741,0.0644245915661011,-0.626207142501751,-0.7769904032105753,0.0457424794659172,3.0,0.0
26.325849533081055,32.350799560546875,-2.6608529090881348,-0.0,-0.0,-1.0,0.0269622841055869,1.0,0.0
26.18354034423828,32.591400146484375,-2.6759982109069824,-0.0,-0.0,-1.0,0.0254834770048715,2.0,0.0
25.960996627807617,32.9400634765625,-2.6968626976013184,-0.0,-0.0,-1.0,0.011379176867402,2.0,0.0
26.301681518554688,31.9425048828125,-2.598881244659424,-0.0,-0.0,-1.0,0.048410784303899,1.0,0.0
26.23092460632324,32.0620002746582,-2.6059093475341797,-0.0,-0.0,-1.0,0.0259076683333127,2.0,0.0
25.871353149414062,32.579830169677734,-2.631042003631592,-0.0,-0.0,-1.0,0.021489526749101,2.0,0.0
25.326602935791016,32.4088249206543,-2.1357030868530273,-0.0,-0.0,-1.0,0.0581612602950039,1.0,0.0
27.567975997924805,32.45075225830078,-2.6217620372772217,-0.0,-0.0,-1.0,0.0144708654216196,1.0,0.0
27.12552070617676,31.753929138183594,-2.4622209072113037,-0.0,-0.0,-1.0,0.1081785650705567,2.0,0.0
27.17629623413086,31.965917587280273,-2.496464967727661,-0.0,-0.0,-1.0,0.1258722143913289,2.0,0.0
27.043611526489254,31.62962532043457,-2.4334542751312256,-0.0,-0.0,-1.0,0.1993546493323589,1.0,0.0
27.093225479125977,32.924617767333984,-2.6026089191436768,-0.0,-0.0,-1.0,0.0597003315099009,1.0,0.0
26.6722354888916,31.330263137817383,-2.6046488285064697,-0.0,-0.0,-1.0,0.0682579702583331,2.0,0.0
26.66869354248047,31.55448341369629,-2.6312410831451416,-0.0,-0.0,-1.0,0.1177661693740942,2.0,0.0
26.36201286315918,31.752826690673828,-2.598809003829956,-0.0,-0.0,-1.0,0.140589775824942,1.0,0.0
26.164148330688477,31.949872970581055,-2.586930513381958,-0.0,-0.0,-1.0,0.057384298334145,2.0,0.0
26.22352600097656,32.32841873168945,-2.646254301071167,-0.0,-0.0,-1.0,0.0243920718312062,2.0,0.0
26.146493911743164,32.561824798583984,-2.66245436668396,-0.8704396900383488,0.1832493203483914,-0.4568965228558827,0.0257601728815925,5.0,0.0
25.71260452270508,32.60993957519531,-2.589585065841675,-0.0,-0.0,-1.0,0.0290373977163582,1.0,0.0
25.99659538269043,32.85955047607422,-2.674477815628052,-0.0,-0.0,-1.0,0.0135455847741591,1.0,0.0
25.906904220581055,33.048301696777344,-2.6835453510284424,-0.0,-0.0,-1.0,0.0548270221701921,1.0,0.0
25.315853118896484,32.36296463012695,-2.4845921993255615,-0.0,-0.0,-1.0,0.1240878626183473,1.0,0.0
26.69993019104004,31.11503791809082,-2.594017505645752,-0.0,-0.0,-1.0,0.0776931207705297,1.0,0.0
26.699289321899418,31.310283660888672,-2.616880416870117,-0.0,-0.0,-1.0,0.0662420978606969,2.0,0.0
26.4268798828125,31.64019775390625,-2.603127956390381,-0.0,-0.0,-1.0,0.1376013337112951,2.0,0.0
26.28862571716309,31.87563705444336,-2.604977607727051,-0.0,-0.0,-1.0,0.0436095582389085,1.0,0.0
26.215272903442383,32.17258834838867,-2.627862453460694,-0.0,-0.0,-1.0,0.0324234502666181,2.0,0.0
26.171138763427734,32.39176559448242,-2.6470866203308105,-0.0,-0.0,-1.0,0.0250755360600653,2.0,0.0
26.10598945617676,32.62373352050781,-2.664498805999756,-0.090071844318054,-0.8369179961718632,-0.5398660301823197,0.0206088402579502,3.0,0.0
25.790058135986328,32.59687805175781,-2.6001458168029785,-0.0,-0.0,-1.0,0.0320499461849981,2.0,0.0
25.951419830322266,32.95891189575195,-2.678717613220215,-0.0,-0.0,-1.0,0.011379176867402,2.0,0.0
25.253028869628903,32.370975494384766,-1.913440465927124,-0.0,-0.0,-1.0,0.017346940773164,1.0,0.0
26.561717987060547,30.94565773010254,-2.5751330852508545,-0.0,-0.0,-1.0,0.0868594225962284,1.0,0.0
25.59825134277344,30.810840606689453,-2.333521604537964,-0.0,-0.0,-1.0,0.0640350743428254,1.0,0.0
26.54108428955078,31.250001907348633,-2.609783887863159,-0.0,-0.0,-1.0,0.0837643024244171,1.0,0.0
26.35824966430664,31.59296607971191,-2.613121271133423,-0.0,-0.0,-1.0,0.1253098093332876,1.0,0.0
26.165573120117188,31.943946838378903,-2.6169044971466064,-0.0,-0.0,-1.0,0.0699235868579894,2.0,0.0
26.185806274414062,32.170692443847656,-2.653424024581909,-0.0,-0.0,-1.0,0.0286337777717771,2.0,0.0
26.15163803100586,32.3819465637207,-2.6759021282196045,-0.0,-0.0,-1.0,0.0228739270726327,2.0,0.0
25.852970123291016,32.58760070800781,-2.637695550918579,0.0378152337112227,-0.5968150998877022,-0.8014872080360347,0.0214895267491009,3.0,0.0
25.944805145263672,32.839630126953125,-2.696047067642212,-0.8527166156041416,0.0719366642256287,-0.5173968397784314,0.0137377528599174,3.0,0.0
25.808563232421875,33.060054779052734,-2.698517084121704,0.3431511000912786,-0.526819477794788,-0.7776300922174836,0.0527052812976865,3.0,0.0
25.352783203125,32.340965270996094,-1.7666685581207275,0.5606513553897692,0.1903343112105545,-0.8058802067774209,0.0185875755315447,3.0,0.0
27.250600814819336,31.5533504486084,-2.4865260124206543,-0.0,-0.0,-1.0,0.0977000062411292,1.0,0.0
27.354639053344727,31.830493927001953,-2.5463624000549316,-0.0,-0.0,-1.0,0.0908841208994576,1.0,0.0
27.600311279296875,31.82837677001953,-2.602663040161133,-0.0,-0.0,-1.0,0.069792710736446,1.0,0.0
27.1931095123291,31.97229766845703,-2.527951717376709,-0.0,-0.0,-1.0,0.1327285678866357,2.0,0.0
27.597396850585938,32.29694747924805,-2.6641507148742676,-0.6108836800915542,0.1925886409060245,-0.7679392845738322,0.0222468956882312,3.0,0.0
27.185089111328125,32.78196334838867,-2.6372103691101074,-0.0,-0.0,-1.0,0.0543518930570047,2.0,0.0
25.36113929748535,32.29608154296875,-1.4743728637695312,-0.0,-0.0,-1.0,0.0609029714427501,2.0,0.0
27.298471450805664,31.751821517944336,-2.5196330547332764,-0.0,-0.0,-1.0,0.1417117130860409,2.0,0.0
27.647764205932617,31.89285469055176,-2.622964143753052,-0.0,-0.0,-1.0,0.0279977948198344,1.0,0.0
27.538373947143555,32.115760803222656,-2.6273200511932373,-0.0,-0.0,-1.0,0.0318943389248609,1.0,0.0
27.612133026123047,32.31098556518555,-2.6723525524139404,-0.6108836800915542,0.1925886409060245,-0.7679392845738322,0.0222468956882313,3.0,0.0
27.575082778930664,32.443519592285156,-2.682267904281616,-0.0,-0.0,-1.0,0.0144708654216196,2.0,0.0
27.69960021972656,32.65927505493164,-2.743030309677124,-0.0,-0.0,-1.0,0.0130756454936417,1.0,0.0
27.23531150817871,32.94152069091797,-2.673891305923462,-0.0,-0.0,-1.0,0.0686055053191014,2.0,0.0
25.43475341796875,32.3983154296875,-0.8759186267852783,-0.0,-0.0,-1.0,0.1238624059303751,1.0,0.0
26.45712661743164,30.770641326904297,-2.540478229522705,-0.0,-0.0,-1.0,0.1482566133390293,2.0,0.0
26.52599334716797,31.095849990844727,-2.605581283569336,-0.0,-0.0,-1.0,0.0876454417241576,1.0,0.0
26.679595947265625,31.13579559326172,-2.6536808013916016,-0.0,-0.0,-1.0,0.0676630359030779,1.0,0.0
26.43215560913086,31.476552963256836,-2.6354217529296875,-0.0,-0.0,-1.0,0.0788027058922392,2.0,0.0
26.207447052001953,31.949892044067383,-2.6462392807006836,-0.0,-0.0,-1.0,0.1150108915078667,2.0,0.0
26.29692840576172,31.755630493164062,-2.640450954437256,-0.0,-0.0,-1.0,0.1349385494487749,2.0,0.0
25.84346389770508,32.531333923339844,-2.6415958404541016,-0.0,-0.0,-1.0,0.0359219229109727,2.0,0.0
26.158157348632812,32.315834045410156,-2.6913695335388184,-0.0,-0.0,-1.0,0.0234254100163837,1.0,0.0
25.889083862304688,32.83346939086914,-2.7050633430480957,-0.0,-0.0,-1.0,0.0167012431347787,1.0,0.0
25.763763427734375,33.04481887817383,-2.7079644203186035,-0.0,-0.0,-1.0,0.0485573835019016,2.0,0.0
26.757003784179688,30.942447662353516,-2.5877175331115723,-0.0,-0.0,-1.0,0.0632274605323276,1.0,0.0
26.747814178466797,31.341480255126953,-2.6274094581604004,-0.0,-0.0,-1.0,0.0913131946715135,1.0,0.0
26.371984481811523,32.068817138671875,-2.6030125617980957,-0.0,-0.0,-1.0,0.044800274265612,1.0,0.0
26.465763092041016,31.81161117553711,-2.599377155303955,-0.0,-0.0,-1.0,0.0665297853723494,2.0,0.0
26.665512084960938,31.56800651550293,-2.628671646118164,-0.0,-0.0,-1.0,0.1137177617294513,2.0,0.0
26.409374237060547,32.36066436767578,-2.6496987342834473,-0.0,-0.0,-1.0,0.0250020805361721,2.0,0.0
26.429466247558594,32.14997863769531,-2.6292858123779297,-0.0,-0.0,-1.0,0.0214826194727967,1.0,0.0
26.24360084533691,32.926761627197266,-2.6762523651123047,-0.0,-0.0,-1.0,0.0135908516800177,1.0,0.0
26.328659057617188,32.714271545410156,-2.6720705032348633,-0.0,-0.0,-1.0,0.019769818462238,1.0,0.0
25.63423538208008,30.751644134521484,-2.2417683601379395,-0.0,-0.0,-1.0,0.0629893070761166,1.0,0.0
25.39620590209961,32.3055534362793,-1.1594946384429932,-0.0,-0.0,-1.0,0.0994959015765805,1.0,0.0
27.03952407836914,31.542320251464844,-2.566166639328003,0.2546449027830282,-0.6557125447688282,-0.7107721379734925,0.0879606388245595,4.0,0.0
27.391101837158203,31.191810607910156,-2.626805543899536,-0.0,-0.0,-1.0,0.0333987612089317,1.0,0.0
27.396541595458984,30.949230194091797,-2.600950002670288,-0.0,-0.0,-1.0,0.0647737427472141,2.0,0.0
26.946273803710938,31.926956176757812,-2.587311029434204,-0.0,-0.0,-1.0,0.164080750999454,1.0,0.0
27.042421340942383,31.679737091064453,-2.5840113162994385,-0.8383276341131817,0.3838161482605843,-0.3871588074893876,0.0692900168759325,4.0,0.0
27.31108856201172,31.41015625,-2.6290338039398193,-0.0,-0.0,-1.0,0.0556069289528693,1.0,0.0
27.12885284423828,32.31678771972656,-2.690417528152466,-0.0,-0.0,-1.0,0.0146925011619802,2.0,0.0
27.063209533691406,32.79997634887695,-2.7374789714813232,-0.0,-0.0,-1.0,0.0707088531802965,1.0,0.0
27.151172637939453,32.57939529418945,-2.731964349746704,-0.0,-0.0,-1.0,0.0186835642810145,2.0,0.0
27.15728759765625,33.1281623840332,-2.8103911876678467,-0.0,-0.0,-1.0,0.0597003315099009,1.0,0.0
26.154720306396484,30.887664794921875,-2.231477975845337,-0.0,-0.0,-1.0,0.2410718209723691,1.0,0.0
25.29031753540039,32.30330276489258,-1.03490948677063,-0.0,-0.0,-1.0,0.0996407978135193,1.0,0.0
25.777572631835938,30.834041595458984,-2.496676206588745,-0.0,-0.0,-1.0,0.0580662932397096,1.0,0.0
25.958465576171875,31.40500831604004,-2.6454970836639404,-0.0,-0.0,-1.0,0.0360230961458003,1.0,0.0
25.351959228515625,31.98699951171875,-2.589625358581543,-0.8574547435628344,-0.5007965627021659,-0.1182123746791769,0.0510274705589467,4.0,0.0
26.986692428588867,31.40586853027344,-2.5577611923217773,-0.0,-0.0,-1.0,0.1412087096391809,1.0,0.0
26.85588836669922,31.775165557861328,-2.546802520751953,-0.0,-0.0,-1.0,0.1617468476323886,1.0,0.0
27.296600341796875,32.65696716308594,-2.7184906005859375,-0.0,-0.0,-1.0,0.0313328406034028,1.0,0.0
27.186626434326172,32.83525848388672,-2.7014894485473633,0.9425943821258288,0.3310380272322064,-0.0439278420940044,0.0543518930570048,3.0,0.0
26.16634750366211,32.54117965698242,-2.6441197395324707,-0.809449094833322,-0.528926902444906,0.2550068523462704,0.0298515881898208,4.0,0.0
26.023040771484375,32.92662048339844,-2.6289591789245605,-0.0,-0.0,-1.0,0.010339265347177,1.0,0.0
26.161605834960938,31.104537963867188,-2.5550551414489746,-0.0,-0.0,-1.0,0.0867212887502491,1.0,0.0
26.25567054748535,31.406253814697266,-2.599393367767334,-0.0,-0.0,-1.0,0.0695356011883256,1.0,0.0
26.17789077758789,31.676010131835938,-2.593782901763916,-0.0,-0.0,-1.0,0.116733952889235,1.0,0.0
26.11291885375977,31.948375701904297,-2.5922513008117676,-0.0,-0.0,-1.0,0.0625534216296201,1.0,0.0
26.180952072143555,32.30892562866211,-2.6335949897766113,-0.0,-0.0,-1.0,0.0255959020997565,2.0,0.0
25.81787109375,31.881486892700195,-2.646407127380371,-0.0,-0.0,-1.0,0.0711715464569615,2.0,0.0
25.559953689575195,32.15589904785156,-2.5846738815307617,-0.0,-0.0,-1.0,0.053140934847727,1.0,0.0
25.681373596191406,32.631935119628906,-2.6482934951782227,-0.0,-0.0,-1.0,0.0285191412284885,1.0,0.0
25.52071189880371,32.74736022949219,-2.607386589050293,-0.0,-0.0,-1.0,0.0229191690315243,1.0,0.0
25.634607315063477,33.060882568359375,-2.6598358154296875,-0.0,-0.0,-1.0,0.0403205612756424,1.0,0.0
27.6148624420166,30.93021011352539,-2.5497732162475586,-0.0,-0.0,-1.0,0.0811823323031675,1.0,0.0
27.66488265991211,31.383560180664062,-2.6054468154907227,-0.0,-0.0,-1.0,0.046078826714429,2.0,0.0
27.47195816040039,31.719371795654297,-2.5809402465820312,-0.0,-0.0,-1.0,0.0932909150934609,1.0,0.0
27.56953811645508,31.886520385742188,-2.624805450439453,-0.0,-0.0,-1.0,0.0637227451023043,1.0,0.0
27.559232711791992,32.24262237548828,-2.6559953689575195,-0.0,-0.0,-1.0,0.0277116088531217,1.0,0.0
27.355817794799805,30.931678771972656,-2.203457832336426,-0.0,-0.0,-1.0,0.0766388962280706,1.0,0.0
27.667320251464844,30.705949783325195,-2.1693716049194336,-0.0,-0.0,-1.0,0.0748173882308862,1.0,0.0
27.28965950012207,31.343910217285156,-2.4760470390319824,-0.0,-0.0,-1.0,0.0531915962836693,1.0,0.0
26.704683303833008,31.271839141845703,-2.447391986846924,-0.0,-0.0,-1.0,0.146328249769096,1.0,0.0
26.20508575439453,31.30712890625,-2.45019006729126,-0.0,-0.0,-1.0,0.0690880114642786,1.0,0.0
25.864931106567383,31.460010528564453,-2.4880404472351074,-0.0,-0.0,-1.0,0.0258188457124366,1.0,0.0
25.350236892700195,31.20013427734375,-2.411379337310791,-0.0,-0.0,-1.0,0.0561989127498536,1.0,0.0
25.368995666503903,30.724271774291992,-2.3793506622314453,-0.0,-0.0,-1.0,0.082186494505959,1.0,0.0
26.088537216186523,31.82330322265625,-2.474123001098633,-0.0,-0.0,-1.0,0.0598036899267354,1.0,0.0
26.15397071838379,31.672992706298828,-2.461644172668457,-0.0,-0.0,-1.0,0.0702446275408214,1.0,0.0
25.601329803466797,32.50584030151367,-2.5049142837524414,-0.0,-0.0,-1.0,0.0437466336537302,1.0,0.0
26.441747665405273,31.514814376831055,-2.777165412902832,-0.0,-0.0,-1.0,0.1086930339246444,1.0,0.0
25.605369567871097,32.05122756958008,-2.8707189559936523,-0.0,-0.0,-1.0,0.0564668599004986,1.0,0.0
26.28183937072754,31.800865173339844,-2.844032287597656,-0.0,-0.0,-1.0,0.095265845356556,1.0,0.0
0.0,0.0,0.0,0.0,0.0,0.0,0.0,0.0,0.0
0.0,0.0,0.0,0.0,0.0,0.0,0.0,0.0,0.0
0.0,0.0,0.0,0.0,0.0,0.0,0.0,0.0,0.0
0.0,0.0,0.0,0.0,0.0,0.0,0.0,0.0,0.0
0.0,0.0,0.0,0.0,0.0,0.0,0.0,0.0,0.0
0.0,0.0,0.0,0.0,0.0,0.0,0.0,0.0,0.0
0.0,0.0,0.0,0.0,0.0,0.0,0.0,0.0,0.0
0.0,0.0,0.0,0.0,0.0,0.0,0.0,0.0,0.0
0.0,0.0,0.0,0.0,0.0,0.0,0.0,0.0,0.0
0.0,0.0,0.0,0.0,0.0,0.0,0.0,0.0,0.0
0.0,0.0,0.0,0.0,0.0,0.0,0.0,0.0,0.0
0.0,0.0,0.0,0.0,0.0,0.0,0.0,0.0,0.0
0.0,0.0,0.0,0.0,0.0,0.0,0.0,0.0,0.0
0.0,0.0,0.0,0.0,0.0,0.0,0.0,0.0,0.0
0.0,0.0,0.0,0.0,0.0,0.0,0.0,0.0,0.0
0.0,0.0,0.0,0.0,0.0,0.0,0.0,0.0,0.0
0.0,0.0,0.0,0.0,0.0,0.0,0.0,0.0,0.0
0.0,0.0,0.0,0.0,0.0,0.0,0.0,0.0,0.0
0.0,0.0,0.0,0.0,0.0,0.0,0.0,0.0,0.0
0.0,0.0,0.0,0.0,0.0,0.0,0.0,0.0,0.0
0.0,0.0,0.0,0.0,0.0,0.0,0.0,0.0,0.0
0.0,0.0,0.0,0.0,0.0,0.0,0.0,0.0,0.0
0.0,0.0,0.0,0.0,0.0,0.0,0.0,0.0,0.0
0.0,0.0,0.0,0.0,0.0,0.0,0.0,0.0,0.0
0.0,0.0,0.0,0.0,0.0,0.0,0.0,0.0,0.0
0.0,0.0,0.0,0.0,0.0,0.0,0.0,0.0,0.0
0.0,0.0,0.0,0.0,0.0,0.0,0.0,0.0,0.0
0.0,0.0,0.0,0.0,0.0,0.0,0.0,0.0,0.0
0.0,0.0,0.0,0.0,0.0,0.0,0.0,0.0,0.0
