x,y,z,nx,ny,nz,curvature,density,label
26.571208953857425,21.711444854736328,-1.795031189918518,-0.0,-0.0,-1.0,0.1579028011689442,2.0,0.0
26.7360782623291,21.2139892578125,-1.7446378469467163,-0.0,-0.0,-1.0,0.067430122252507,1.0,0.0
26.687408447265625,20.824413299560547,-1.7253388166427612,-0.0,-0.0,-1.0,0.0326204515485954,2.0,0.0
27.12975311279297,23.134965896606445,-0.6126213073730469,-0.0,-0.0,-1.0,0.0869812766685118,1.0,0.0
27.408184051513672,22.52216148376465,-0.5767955780029297,-0.0,-0.0,-1.0,0.0444636476414187,1.0,0.0
27.10049057006836,22.73417854309082,-0.6071333885192871,-0.0,-0.0,-1.0,0.0971836218381036,1.0,0.0
27.253007888793945,22.244768142700195,-0.5855081081390381,-0.0,-0.0,-1.0,0.0487357057770202,1.0,0.0
27.575923919677734,20.86988639831543,-0.5405056476593018,-0.0,-0.0,-1.0,0.1628658003018917,1.0,0.0
26.886550903320312,22.960357666015625,-1.546173334121704,-0.0,-0.0,-1.0,0.1285738987608164,1.0,0.0
26.7983455657959,22.913881301879883,-1.555060625076294,-0.0,-0.0,-1.0,0.1779725330850814,1.0,0.0
26.75038719177246,21.55483055114746,-1.5218899250030518,-0.0,-0.0,-1.0,0.2123290151961282,1.0,0.0
25.995073318481445,22.010459899902344,-1.625852108001709,-0.0,-0.0,-1.0,0.2290118051207635,1.0,0.0
25.34627914428711,22.46011734008789,-1.7167119979858398,-0.0,-0.0,-1.0,0.0308575852327289,1.0,0.0
26.121192932128903,21.35666275024414,-1.5943801403045654,-0.0,-0.0,-1.0,0.0787708365968044,1.0,0.0
25.327472686767575,21.94378662109375,-1.7059996128082275,-0.0,-0.0,-1.0,0.0435744936471046,1.0,0.0
25.320161819458008,22.138187408447266,-1.7116553783416748,-0.0,-0.0,-1.0,0.0398406502605968,1.0,0.0
26.34804916381836,20.94303321838379,-1.5570175647735596,-0.0,-0.0,-1.0,0.0975753938977415,1.0,0.0
26.077377319335938,21.24093246459961,-1.5971345901489258,-0.0,-0.0,-1.0,0.1128474716759149,1.0,0.0
25.251800537109375,21.00621795654297,-1.694632053375244,-0.0,-0.0,-1.0,0.0297987886795586,1.0,0.0
27.324480056762695,23.13011932373047,-1.82177209854126,-0.0,-0.0,-1.0,0.2314655870253522,1.0,0.0
27.233095169067383,22.73851776123047,-1.817363977432251,-0.0,-0.0,-1.0,0.1722565861386927,1.0,0.0
27.14889907836914,22.781658172607425,-1.830915689468384,-0.6431444438142232,0.3911080362202095,-0.6583310173422371,0.1582118944916717,5.0,0.0
26.92112922668457,22.295936584472656,-1.842578649520874,-0.0,-0.0,-1.0,0.0824600041651915,1.0,0.0
26.888383865356445,22.524227142333984,-1.856351613998413,-0.0,-0.0,-1.0,0.0330541072354635,1.0,0.0
27.060075759887695,21.840593338012695,-1.8053803443908691,-0.0,-0.0,-1.0,0.154698802202697,1.0,0.0
27.015737533569336,21.936155319213867,-1.815260648727417,-0.0,-0.0,-1.0,0.2343086797550823,2.0,0.0
27.052669525146484,21.49509048461914,-1.7935292720794678,-0.0,-0.0,-1.0,0.0304118194475255,1.0,0.0
27.16886329650879,20.84274673461914,-1.754143476486206,-0.0,-0.0,-1.0,0.029298904197617,1.0,0.0
25.39430809020996,23.0553035736084,-1.771776795387268,-0.0,-0.0,-1.0,0.1372496662429548,1.0,0.0
27.052133560180664,21.961315155029297,-1.5107961893081665,0.1812302899087395,-0.0972023551174778,-0.9786252010750645,0.1621227717460151,8.0,0.0
26.23025703430176,22.458738327026367,-1.6383596658706665,0.3383418062122159,0.7876964838484225,-0.5148388791669556,0.1897731126088532,3.0,0.0
25.36177635192871,22.714216232299805,-1.762755036354065,-0.0,-0.0,-1.0,0.0388642028626322,1.0,0.0
26.32800674438477,21.831716537475582,-1.6022356748580933,-0.8945359810588017,-0.012634506060119,-0.446817354013678,0.1950358454228133,4.0,0.0
25.375713348388672,22.36343002319336,-1.7480684518814087,-0.0,-0.0,-1.0,0.0293613453605706,1.0,0.0
25.3087215423584,22.565174102783203,-1.7642637491226196,-0.0,-0.0,-1.0,0.0295945912571422,1.0,0.0
26.30449485778809,21.717575073242188,-1.60146963596344,-0.5501984953843387,-0.1103613121421137,-0.8277088838831446,0.28630485176068,10.0,0.0
25.295042037963867,21.552661895751953,-1.7327483892440796,-0.0,-0.0,-1.0,0.0259399383454537,1.0,0.0
26.153099060058594,20.93754196166992,-1.5980511903762815,-0.0,-0.0,-1.0,0.0962831741167078,1.0,0.0
25.41657829284668,21.039222717285156,-1.7019206285476685,-0.0,-0.0,-1.0,0.0439365052349036,2.0,0.0
25.42796516418457,20.746807098388672,-1.6930865049362185,-0.0,-0.0,-1.0,0.020963308240352,1.0,0.0
26.234886169433594,22.507713317871097,-1.6488549709320068,0.5938242539132914,0.7766822514032524,0.2100891139956994,0.2177971817991609,3.0,0.0
25.408544540405273,22.849985122680664,-1.7777366638183594,-0.0,-0.0,-1.0,0.0590948993912992,2.0,0.0
27.01526641845703,21.980316162109375,-1.5212984085083008,-0.4135932358577164,0.3577800463481749,-0.8372180562361522,0.1465788726922124,8.0,0.0
25.555660247802734,22.434497833251953,-1.7447798252105713,-0.7038892465762385,0.6023913751432256,-0.3763835274123832,0.0214619435994468,3.0,0.0
25.46092414855957,22.483884811401367,-1.7598552703857422,-0.0,-0.0,-1.0,0.0244074621782644,1.0,0.0
26.330032348632812,21.853214263916016,-1.6169321537017822,-0.6937720623040547,-0.3607545818183905,-0.6233269264707059,0.1666237341373798,3.0,0.0
25.32978248596191,21.96561050415039,-1.7655012607574463,-0.0,-0.0,-1.0,0.0429815496180547,1.0,0.0
25.427913665771484,21.508678436279297,-1.7403221130371094,-0.0,-0.0,-1.0,0.0235964242591971,1.0,0.0
25.32931900024414,21.714515686035156,-1.7595164775848389,-0.0,-0.0,-1.0,0.0287244951844993,2.0,0.0
26.071998596191406,21.06748390197754,-1.6357474327087402,-0.0,-0.0,-1.0,0.1032765915577019,2.0,0.0
25.60254669189453,20.997493743896484,-1.703561782836914,-0.0,-0.0,-1.0,0.0265574213178854,1.0,0.0
25.546133041381836,21.18218994140625,-1.7157468795776367,-0.0,-0.0,-1.0,0.0334850432799446,1.0,0.0
25.6466064453125,20.66344833374023,-1.6905064582824707,-0.0,-0.0,-1.0,0.0254156004233438,1.0,0.0
27.641590118408203,22.805265426635746,-1.907490372657776,-0.0,-0.0,-1.0,0.0223022091945217,1.0,0.0
27.61663055419922,22.18891143798828,-1.883792281150818,0.9964511283231332,-0.0113987575783804,0.0833979447541951,0.0645897511940974,4.0,0.0
27.534008026123047,22.46070098876953,-1.910192608833313,-0.0,-0.0,-1.0,0.030107089625245,1.0,0.0
27.63774871826172,21.958805084228516,-1.870324730873108,-0.0,-0.0,-1.0,0.0492765426209581,2.0,0.0
27.68323135375977,21.54171562194824,-1.8454126119613647,-0.0,-0.0,-1.0,0.0142674120364811,1.0,0.0
27.63736343383789,21.31739616394043,-1.8448845148086548,-0.0,-0.0,-1.0,0.009357000986839,2.0,0.0
27.597442626953125,22.88570213317871,-1.887043833732605,0.225617008101666,0.152141596153147,-0.9622629060580196,0.0280184250887361,3.0,0.0
27.449031829833984,22.57922744750977,-1.891067624092102,-0.0,-0.0,-1.0,0.0477379180331749,2.0,0.0
27.51785659790039,22.68175888061523,-1.8863176107406616,-0.0,-0.0,-1.0,0.0257788854310145,1.0,0.0
27.478221893310547,22.46618270874023,-1.878467679023743,-0.0,-0.0,-1.0,0.0458628571747501,1.0,0.0
27.498960494995117,22.053924560546875,-1.847714066505432,-0.0,-0.0,-1.0,0.0773304295507051,1.0,0.0
27.41949462890625,21.650089263916016,-1.83607017993927,-0.0,-0.0,-1.0,0.0196263648486768,2.0,0.0
27.45760154724121,21.29079818725586,-1.807703137397766,-0.0,-0.0,-1.0,0.0131362616524594,2.0,0.0
27.46055603027344,20.8301944732666,-1.7808119058609009,-0.0,-0.0,-1.0,0.0102313286906122,1.0,0.0
26.997718811035156,22.896263122558594,-1.7308984994888306,-0.0,-0.0,-1.0,0.1443548760202188,1.0,0.0
26.527935028076172,22.951168060302734,-1.813459038734436,-0.0,-0.0,-1.0,0.0630900352611207,1.0,0.0
26.493581771850582,22.624332427978516,-1.7980297803878784,-0.0,-0.0,-1.0,0.0384319397356544,1.0,0.0
26.793533325195312,22.1840763092041,-1.7192107439041138,-0.0,-0.0,-1.0,0.1359812011879203,1.0,0.0
26.331947326660156,22.186180114746097,-1.7984379529953003,-0.0,-0.0,-1.0,0.0524762277735614,2.0,0.0
26.21491813659668,21.85765838623047,-1.7992936372756958,-0.0,-0.0,-1.0,0.1608511752683994,2.0,0.0
26.39642333984375,21.32537269592285,-1.7378932237625122,-0.0,-0.0,-1.0,0.0947822316418365,2.0,0.0
26.232891082763672,21.610294342041016,-1.7821098566055298,-0.0,-0.0,-1.0,0.0865205562976602,2.0,0.0
26.371906280517575,20.93230438232422,-1.7214983701705933,-0.0,-0.0,-1.0,0.0819645410986239,1.0,0.0
26.45692253112793,22.98716735839844,-1.738531231880188,-0.0,-0.0,-1.0,0.0613530642059536,1.0,0.0
26.365989685058594,22.70565414428711,-1.733187556266785,-0.0,-0.0,-1.0,0.0506133375356082,1.0,0.0
25.39879035949707,21.553787231445312,-1.8192058801651,-0.0,-0.0,-1.0,0.0518244919816351,1.0,0.0
25.35641098022461,21.31258773803711,-1.813675045967102,-0.0,-0.0,-1.0,0.0226874091292717,1.0,0.0
25.36499786376953,20.95649528503418,-1.7934948205947876,-0.0,-0.0,-1.0,0.0391650113775935,1.0,0.0
25.36199188232422,21.05522346496582,-1.7990809679031372,-0.0,-0.0,-1.0,0.0361124716056688,1.0,0.0
27.087717056274418,22.842866897583008,-1.6206544637680054,-0.0,-0.0,-1.0,0.1552638987083698,1.0,0.0
26.29433822631836,22.518112182617188,-1.7320064306259155,-0.0,-0.0,-1.0,0.216289968246662,2.0,0.0
27.01744270324707,22.01450538635254,-1.5712076425552368,-0.0,-0.0,-1.0,0.145952991367102,1.0,0.0
26.20043182373047,22.273826599121097,-1.7313560247421265,-0.0,-0.0,-1.0,0.1310133801446898,1.0,0.0
26.117164611816406,22.156742095947266,-1.7379974126815796,-0.0,-0.0,-1.0,0.0701624419509511,1.0,0.0
26.199493408203125,21.914234161376953,-1.7075616121292114,-0.0,-0.0,-1.0,0.1325999570973719,1.0,0.0
25.92984390258789,21.805572509765625,-1.7483397722244265,-0.0,-0.0,-1.0,0.0488093697213536,1.0,0.0
26.132564544677734,21.47411346435547,-1.6918116807937622,-0.0,-0.0,-1.0,0.05456419081943,1.0,0.0
25.368892669677734,20.825759887695312,-1.7862838506698608,-0.0,-0.0,-1.0,0.0325657834419083,1.0,0.0
27.69639587402344,22.70539665222168,-1.9101353883743288,-0.0,-0.0,-1.0,0.0153704294926408,2.0,0.0
27.61942672729492,22.21554374694824,-1.8816171884536743,0.9964511283231332,-0.0113987575783804,0.0833979447541951,0.0587522573157278,4.0,0.0
27.58877182006836,22.44760513305664,-1.9087995290756223,0.9792870978783677,-0.0470453966347032,0.1969352954258022,0.0144144994499424,3.0,0.0
27.571067810058594,21.90630531311035,-1.8653608560562136,-0.0,-0.0,-1.0,0.0780923872278974,1.0,0.0
27.49127960205078,21.600446701049805,-1.8573867082595823,-0.0,-0.0,-1.0,0.0150576880580958,1.0,0.0
27.194658279418945,22.790327072143555,-1.48131000995636,-0.0,-0.0,-1.0,0.1578597105879684,2.0,0.0
25.552967071533203,23.040115356445312,-1.7968209981918335,-0.0,-0.0,-1.0,0.0615250616314701,2.0,0.0
26.953786849975582,21.96792984008789,-1.4707587957382202,-0.0,-0.0,-1.0,0.2066634265731444,1.0,0.0
26.148277282714844,22.373050689697266,-1.6451486349105835,0.9159318837842854,0.3245469339804228,-0.2360891185787206,0.1532994017850737,5.0,0.0
25.466402053833008,22.55864715576172,-1.783511757850647,-0.0,-0.0,-1.0,0.0270420824205709,1.0,0.0
27.535369873046875,21.400493621826172,-1.8320127725601196,-0.0,-0.0,-1.0,0.0135356532214412,1.0,0.0
26.310829162597656,21.692581176757812,-1.5751734972000122,0.2770710383795803,-0.5090419555716087,-0.8149281730061205,0.2636705222297232,5.0,0.0
25.368518829345703,22.175743103027344,-1.7803651094436646,-0.0,-0.0,-1.0,0.0296034214756925,1.0,0.0
27.491201400756836,21.06949806213379,-1.8168569803237915,-0.0,-0.0,-1.0,0.0087933997410108,2.0,0.0
25.284446716308594,21.797313690185547,-1.7765318155288696,-0.0,-0.0,-1.0,0.0309705667773646,2.0,0.0
27.49527359008789,20.769269943237305,-1.7945226430892944,-0.0,-0.0,-1.0,0.0099133940913697,1.0,0.0
26.093015670776367,20.9843692779541,-1.5810641050338743,-0.0,-0.0,-1.0,0.0743362678497596,1.0,0.0
25.339839935302734,21.365537643432617,-1.7449694871902466,-0.0,-0.0,-1.0,0.0210838686921725,1.0,0.0
25.355642318725582,20.933916091918945,-1.7227386236190796,-0.0,-0.0,-1.0,0.0394107404414435,2.0,0.0
25.374921798706055,20.68650245666504,-1.7087396383285522,-0.0,-0.0,-1.0,0.0207947395152551,2.0,0.0
27.58068084716797,22.665246963500977,-1.8954681158065796,-0.0,-0.0,-1.0,0.0214699126244463,1.0,0.0
27.515766143798828,22.207368850708008,-1.8608678579330444,-0.4301171751573995,0.3858300269171876,-0.8161705740613914,0.0533177185712512,3.0,0.0
26.177730560302734,22.4710750579834,-1.6582947969436646,0.4389243946566287,0.7632414576586767,-0.4741390651342393,0.1444355844924854,6.0,0.0
25.829410552978516,22.82684326171875,-1.7544010877609253,-0.0,-0.0,-1.0,0.0778145682156879,1.0,0.0
25.64539909362793,22.665603637695312,-1.7782758474349976,-0.0,-0.0,-1.0,0.0208183395316159,1.0,0.0
27.38968086242676,21.858654022216797,-1.8538323640823364,-0.0,-0.0,-1.0,0.0992456367946056,1.0,0.0
25.60367202758789,22.41367530822754,-1.7678436040878296,0.4170015230509935,0.0031545337717797,-0.9089003128450522,0.0196420120131112,4.0,0.0
27.355010986328125,21.43990707397461,-1.8215223550796509,-0.0,-0.0,-1.0,0.0215732565655049,2.0,0.0
25.394824981689453,22.023805618286133,-1.782354712486267,-0.0,-0.0,-1.0,0.0427575851685403,1.0,0.0
27.30539894104004,20.857948303222656,-1.7810019254684448,-0.0,-0.0,-1.0,0.01659719238918,1.0,0.0
27.29471015930176,21.07044792175293,-1.801977515220642,-0.0,-0.0,-1.0,0.0070715596590614,1.0,0.0
25.382713317871097,21.4676570892334,-1.7484253644943235,-0.0,-0.0,-1.0,0.021090471756551,1.0,0.0
25.341888427734375,21.696439743041992,-1.7713392972946167,-0.0,-0.0,-1.0,0.0260468686545796,2.0,0.0
25.366912841796875,21.189634323120117,-1.7347973585128784,-0.0,-0.0,-1.0,0.0300930675915409,1.0,0.0
25.354053497314453,20.883371353149418,-1.7197338342666626,-0.0,-0.0,-1.0,0.0380041842789679,2.0,0.0
27.095489501953125,22.79852867126465,-1.5069822072982788,-0.0,-0.0,-1.0,0.1497766502424783,2.0,0.0
26.997900009155273,21.993942260742188,-1.4599817991256714,-0.932825798700969,-0.0993449392590872,-0.3463619671983446,0.2101738921481283,7.0,0.0
26.313785552978516,21.80083656311035,-1.5814887285232544,-0.5245231597529867,-0.1384454774413344,-0.8400644645851796,0.1834389517661031,7.0,0.0
25.40880584716797,20.662508010864254,-1.6961065530776978,-0.0,-0.0,-1.0,0.0187823484958226,2.0,0.0
26.998275756835938,23.11313819885254,-1.7893571853637695,-0.0,-0.0,-1.0,0.1788568115446474,2.0,0.0
26.707508087158203,22.990249633789062,-1.8346164226531985,-0.0,-0.0,-1.0,0.0864372943980445,2.0,0.0
26.636396408081055,22.754058837890625,-1.8221073150634768,-0.0,-0.0,-1.0,0.0186255953854368,2.0,0.0
26.597301483154297,22.357404708862305,-1.7857437133789062,-0.0,-0.0,-1.0,0.0264198781891054,1.0,0.0
26.534725189208984,22.37439346313477,-1.8011369705200195,-0.0,-0.0,-1.0,0.0391973851138029,2.0,0.0
26.35566139221191,22.028060913085938,-1.802886962890625,-0.0,-0.0,-1.0,0.0456873765485706,2.0,0.0
26.344575881958008,21.49631118774414,-1.7517452239990234,-0.1195056780556479,0.8471919887763115,-0.5176718333710051,0.0698394031899756,3.0,0.0
26.253334045410156,21.713897705078125,-1.7933812141418457,-0.0,-0.0,-1.0,0.1713376743169933,2.0,0.0
26.370277404785156,21.146697998046875,-1.7129244804382324,-0.0,-0.0,-1.0,0.0396651398478297,2.0,0.0
26.197093963623047,20.84151840209961,-1.7248077392578125,-0.0,-0.0,-1.0,0.0460065380540127,1.0,0.0
26.087142944335938,20.672353744506836,-1.735485315322876,-0.0,-0.0,-1.0,0.0119611838458386,2.0,0.0
27.26056671142578,23.09346580505371,-1.8386967182159424,-0.2708438034575043,0.8172354898808889,-0.508694199109658,0.2153840519710285,4.0,0.0
26.920242309570312,22.727554321289062,-1.8631572723388672,-0.0,-0.0,-1.0,0.0868451177054045,2.0,0.0
26.82392120361328,22.658302307128903,-1.875759840011597,-0.0,-0.0,-1.0,0.0137400503969175,2.0,0.0
26.80282211303711,22.47699737548828,-1.8562068939208984,-0.0,-0.0,-1.0,0.0374833152686841,2.0,0.0
27.214508056640625,22.886011123657227,-1.818807363510132,-0.0,-0.0,-1.0,0.0962246875615699,2.0,0.0
27.15351676940918,22.774261474609375,-1.8166768550872805,-0.387775281501318,0.92042317263651,-0.0495127693662487,0.2380006345906733,6.0,0.0
27.586681365966797,22.20974349975586,-1.6394438743591309,-0.0,-0.0,-1.0,0.26000315697234,1.0,0.0
26.876333236694336,22.23822784423828,-1.8075532913208008,-0.0,-0.0,-1.0,0.0966136217818948,1.0,0.0
26.126392364501953,22.464664459228516,-1.5491867065429688,-0.0468373105666346,0.545412403334632,-0.8368581580098416,0.2164473530201868,4.0,0.0
25.376663208007812,22.753198623657227,-1.7351863384246826,-0.0,-0.0,-1.0,0.0410466622914968,1.0,0.0
26.73896026611328,22.004684448242188,-1.8102498054504397,-0.0,-0.0,-1.0,0.0277109050081093,2.0,0.0
26.59644317626953,21.858736038208008,-1.8260605335235596,-0.0,-0.0,-1.0,0.0781254418599061,1.0,0.0
26.034482955932617,22.34386444091797,-1.5557937622070312,-0.0,-0.0,-1.0,0.2091879193159894,2.0,0.0
26.567359924316406,21.57816505432129,-1.7996339797973633,0.8386589241558468,0.490514880650558,0.2367411261148484,0.1208036754626003,4.0,0.0
26.55478286743164,21.717906951904297,-1.81913161277771,-0.659625430665584,0.4800651627420736,0.5783007269065715,0.1799684415971881,3.0,0.0
26.57975196838379,21.195526123046875,-1.7529377937316897,-0.0,-0.0,-1.0,0.0745016523242979,1.0,0.0
26.511981964111328,20.76941680908203,-1.7242183685302734,-0.7481574387569057,-0.2409893208071833,-0.6182108006898611,0.0227597034806311,3.0,0.0
25.65416717529297,22.765607833862305,-1.823237657546997,-0.0,-0.0,-1.0,0.0253187806431196,1.0,0.0
25.531482696533203,22.48741912841797,-1.812516212463379,-0.0,-0.0,-1.0,0.0235115017527875,2.0,0.0
27.13473892211914,22.837860107421875,-1.5218327045440674,-0.0,-0.0,-1.0,0.1587438838433128,1.0,0.0
26.147167205810547,22.47954368591309,-1.6762855052947998,0.4824673522789665,0.6790480337654816,-0.5532802380567712,0.1611246594180525,5.0,0.0
26.984386444091797,22.03322982788086,-1.4329450130462646,-0.2321465858139333,0.4830438916099211,-0.8442609557910854,0.2101738921481283,5.0,0.0
25.50371360778809,22.370664596557617,-1.8033485412597656,-0.4992484841886991,0.0927327890290894,-0.8614821999752359,0.0223828881385213,3.0,0.0
25.30016326904297,22.09183120727539,-1.813786268234253,-0.0,-0.0,-1.0,0.0413297393333107,1.0,0.0
27.14174461364746,21.693016052246097,-1.827622652053833,-0.8065560786521188,0.1454784420632817,-0.5729775867205957,0.0409900522266269,4.0,0.0
27.32692527770996,21.41303253173828,-1.8118658065795896,-0.0,-0.0,-1.0,0.022556368160927,2.0,0.0
27.473064422607425,21.27456283569336,-1.814558029174805,-0.0,-0.0,-1.0,0.0131362616524595,2.0,0.0
27.63218688964844,21.008466720581055,-1.7989521026611328,-0.0,-0.0,-1.0,0.0114623776498622,2.0,0.0
25.58159065246582,20.79257583618164,-1.7426486015319824,-0.0,-0.0,-1.0,0.022279756918175,1.0,0.0
25.309539794921875,20.981651306152344,-1.7542630434036257,-0.0,-0.0,-1.0,0.0398235710031501,1.0,0.0
25.505847930908203,21.18584442138672,-1.7708121538162231,-0.0,-0.0,-1.0,0.0352898755379517,2.0,0.0
25.68247985839844,21.376293182373047,-1.7879513502120972,-0.0,-0.0,-1.0,0.0706919196303924,1.0,0.0
25.922672271728516,21.70194625854492,-1.8249763250350952,-0.0,-0.0,-1.0,0.0190611414458347,1.0,0.0
26.160449981689453,21.81627655029297,-1.8242257833480835,-0.8186429830563183,0.4576312186332694,0.3469831898304029,0.1419481769415632,3.0,0.0
26.148624420166016,21.879573822021484,-1.8372102975845337,-0.0,-0.0,-1.0,0.071379018183603,2.0,0.0
26.17124366760254,21.057262420654297,-1.6813260316848757,-0.0,-0.0,-1.0,0.0700840573538315,1.0,0.0
27.20668029785156,20.655170440673828,-1.7421255111694336,-0.0,-0.0,-1.0,0.0192835940343296,1.0,0.0
27.35959243774414,20.904027938842773,-1.7750561237335205,-0.0,-0.0,-1.0,0.0061915877242018,1.0,0.0
27.527278900146484,21.04819107055664,-1.7869904041290283,-0.0,-0.0,-1.0,0.0086365363296513,2.0,0.0
27.01752471923828,21.90352439880371,-1.4561522006988523,-0.0,-0.0,-1.0,0.1475724258669613,2.0,0.0
25.432781219482425,22.70113754272461,-1.714500904083252,-0.0,-0.0,-1.0,0.0345221875043589,2.0,0.0
26.17337226867676,22.342737197875977,-1.5953435897827148,-0.0662163556569811,0.559143948447666,0.8264220708317646,0.2029853669329477,4.0,0.0
25.982460021972656,22.30854034423828,-1.5168999433517456,-0.0,-0.0,-1.0,0.2372998045360357,2.0,0.0
26.611230850219727,22.591533660888672,-1.5312215089797974,-0.0,-0.0,-1.0,0.1509837840648288,1.0,0.0
27.45870590209961,22.11343002319336,-1.4585782289505005,-0.0,-0.0,-1.0,0.1277575167442895,1.0,0.0
26.100975036621097,22.345413208007812,-1.5336904525756836,-0.4577175703131914,0.0174954493630266,-0.8889254946721767,0.1861237607988503,4.0,0.0
27.12954330444336,22.809247970581055,-1.5631444454193115,-0.0,-0.0,-1.0,0.1504517209620925,2.0,0.0
26.948482513427734,21.858905792236328,-1.4660444259643557,-0.0,-0.0,-1.0,0.1706063142624129,1.0,0.0
27.508373260498047,22.379894256591797,-1.8856538534164429,-0.0,-0.0,-1.0,0.0160926180060875,2.0,0.0
27.140216827392575,22.172006607055664,-1.872428297996521,-0.0,-0.0,-1.0,0.1762337368817051,1.0,0.0
26.95863342285156,21.758522033691406,-1.830898642539978,-0.0,-0.0,-1.0,0.0686777525184292,1.0,0.0
26.692296981811523,21.543689727783203,-1.8149977922439575,-0.0,-0.0,-1.0,0.0883201612470225,2.0,0.0
27.46081161499023,22.009918212890625,-1.844596028327942,-0.0,-0.0,-1.0,0.0366632845913355,1.0,0.0
26.202789306640625,20.639909744262695,-1.730396389961243,-0.0,-0.0,-1.0,0.0169869692790036,1.0,0.0
27.175857543945312,22.871835708618164,-1.64109206199646,-0.0,-0.0,-1.0,0.172872284664977,1.0,0.0
27.00465202331543,23.073938369750977,-1.6701555252075195,-0.0,-0.0,-1.0,0.1387319532854937,2.0,0.0
26.328372955322266,22.528703689575195,-1.6678307056427002,-0.0,-0.0,-1.0,0.1628368953578844,1.0,0.0
25.52187728881836,22.857574462890625,-1.753011703491211,-0.0,-0.0,-1.0,0.0707531304277725,1.0,0.0
25.269392013549805,22.808059692382812,-1.7669646739959717,-0.0,-0.0,-1.0,0.1068226385274495,2.0,0.0
27.072294235229492,21.997575759887695,-1.570817470550537,-0.7226432395025689,-0.3745244430642348,-0.5809631571353369,0.0857485903738104,4.0,0.0
26.19985580444336,22.451128005981445,-1.6699824333190918,0.4883701359296686,0.5285299980313666,-0.694370687394709,0.2436019799118413,8.0,0.0
26.354475021362305,21.777494430541992,-1.6007046699523926,-0.2908674519154534,-0.9496582023964258,0.1163848101661057,0.1562903206521027,8.0,0.0
27.641761779785156,22.221820831298828,-1.8115572929382324,-0.0,-0.0,-1.0,0.1378087068818579,2.0,0.0
27.397239685058594,21.8719539642334,-1.7889397144317627,-0.0,-0.0,-1.0,0.150238815736544,1.0,0.0
27.34732437133789,21.539220809936523,-1.7578911781311035,-0.0,-0.0,-1.0,0.0232484950547565,1.0,0.0
27.05218505859375,23.065088272094727,-1.8251432180404663,0.8572724451329543,-0.3773257563406612,-0.3502987702200987,0.1890466052996859,3.0,0.0
26.68567657470703,22.78339195251465,-1.8145076036453247,-0.0,-0.0,-1.0,0.0147764722469687,1.0,0.0
27.286575317382812,22.791481018066406,-1.7867447137832642,-0.0277427429837448,0.2064731092393135,-0.9780588915667544,0.1672229913747269,3.0,0.0
26.509605407714844,22.521249771118164,-1.7970844507217407,-0.0,-0.0,-1.0,0.0345559783829452,1.0,0.0
26.0457763671875,22.245973587036133,-1.7934085130691528,-0.0,-0.0,-1.0,0.0549667666978164,2.0,0.0
25.784019470214844,22.258888244628903,-1.8084365129470823,-0.6782998225055369,0.5001299609221618,-0.5383115946893158,0.0292732229441749,3.0,0.0
27.26361846923828,22.024076461791992,-1.7108131647109983,-0.0,-0.0,-1.0,0.2354041020660902,1.0,0.0
27.133203506469727,22.12554931640625,-1.7271767854690552,-0.0,-0.0,-1.0,0.1770251220823128,1.0,0.0
26.236103057861328,22.139238357543945,-1.7730218172073364,-0.0,-0.0,-1.0,0.0521540539783769,2.0,0.0
25.62576675415039,21.84193229675293,-1.7759863138198853,-0.0,-0.0,-1.0,0.0418955537279913,1.0,0.0
27.096946716308594,21.951990127563477,-1.7115586996078491,0.8370847177336651,-0.5398254863932935,-0.088755955163552,0.1627197026627087,5.0,0.0
26.506328582763672,21.76484107971191,-1.7221571207046509,-0.742556421015587,-0.369432733933611,-0.5586854362759602,0.1390233633079243,3.0,0.0
25.6969051361084,21.85566139221191,-1.7807279825210571,-0.0,-0.0,-1.0,0.0168000540494129,1.0,0.0
27.432178497314453,22.680768966674805,-1.877362370491028,-0.0,-0.0,-1.0,0.0491187255552314,1.0,0.0
26.760705947875977,22.166259765625,-1.8154536485671997,-0.0,-0.0,-1.0,0.03876046842819,1.0,0.0
27.693357467651367,22.14984703063965,-1.818402409553528,-0.0,-0.0,-1.0,0.1461458956785408,1.0,0.0
26.66174697875977,21.57156753540039,-1.747771382331848,-0.0,-0.0,-1.0,0.1196634950827448,2.0,0.0
26.50364112854004,21.061222076416016,-1.6900044679641724,-0.0,-0.0,-1.0,0.0464670706813919,1.0,0.0
26.320865631103516,21.03035545349121,-1.6866437196731567,-0.0,-0.0,-1.0,0.0878535850561613,2.0,0.0
26.095502853393555,22.34515380859375,-1.6405762434005735,-0.0,-0.0,-1.0,0.1626963506214239,2.0,0.0
27.209951400756836,22.868894577026367,-1.8263734579086304,-0.0,-0.0,-1.0,0.1028331144676784,2.0,0.0
26.353452682495117,22.454204559326172,-1.965884566307068,-0.0,-0.0,-1.0,0.0684184419812508,1.0,0.0
26.698026657104492,22.49336624145508,-2.016357898712158,-0.0,-0.0,-1.0,0.0396184666453638,1.0,0.0
27.19198226928711,21.913883209228516,-2.0010581016540527,-0.0,-0.0,-1.0,0.1394739130986991,1.0,0.0
27.07880592346191,21.99640655517578,-1.997500777244568,-0.0,-0.0,-1.0,0.1760326870233675,1.0,0.0
26.44015884399414,21.713714599609375,-1.8743282556533811,-0.0,-0.0,-1.0,0.1341438334764254,2.0,0.0
26.576629638671875,20.9200439453125,-1.6981890201568604,-0.6227972693406418,-0.7817931360799939,0.0303817984992382,0.0309806845105016,3.0,0.0
27.185529708862305,22.810508728027344,-1.8290733098983765,0.5448838378247141,-0.6586864301403762,-0.5188774325660517,0.1287334777087037,3.0,0.0
26.746904373168945,23.041763305664062,-1.883630871772766,-0.0,-0.0,-1.0,0.0578993340214773,1.0,0.0
27.19256019592285,21.918968200683594,-1.7405411005020142,-0.0741844726423764,0.0868942587212983,-0.9934515850407856,0.1380336887677265,4.0,0.0
27.078269958496097,22.05009651184082,-1.7617415189743042,0.3732672643940486,-0.6536202939968053,-0.6583707622664549,0.1991265019537273,5.0,0.0
26.480249404907227,21.806049346923828,-1.7812882661819458,-0.0,-0.0,-1.0,0.1742141897297212,1.0,0.0
26.172752380371097,22.212120056152344,-1.8439587354660032,-0.0,-0.0,-1.0,0.0379462177127574,1.0,0.0
26.185373306274418,20.959596633911133,-1.719735026359558,-0.0,-0.0,-1.0,0.0666865772759828,1.0,0.0
27.267547607421875,22.861482620239254,-1.466934323310852,-0.0,-0.0,-1.0,0.0918094203242177,2.0,0.0
27.240406036376953,23.073896408081055,-1.469475507736206,-0.0,-0.0,-1.0,0.100920181301332,1.0,0.0
27.21365547180176,22.96160125732422,-1.751211166381836,0.2228961378138775,-0.1922468264841266,-0.9556978965418096,0.2234994951608252,4.0,0.0
27.109479904174805,21.78404235839844,-1.6045353412628174,-0.0,-0.0,-1.0,0.1528072240360427,1.0,0.0
26.189109802246097,22.235288619995117,-1.5874385833740234,-0.0,-0.0,-1.0,0.2209750567372404,1.0,0.0
27.24885368347168,22.73995018005371,-1.7667862176895142,-0.3746080107096096,0.908058231649656,-0.187347501305699,0.1867914527244493,3.0,0.0
27.09259033203125,22.002063751220703,-1.679235577583313,-0.6515996800561872,-0.6780328253889027,-0.3401313638078915,0.2659196846238509,3.0,0.0
26.72248077392578,22.96367645263672,-1.813404202461243,0.8551545867920192,0.0720607003217471,-0.5133399343103067,0.088715518267878,3.0,0.0
26.47593116760254,21.747426986694336,-1.6692970991134644,-0.0,-0.0,-1.0,0.1453203042631558,1.0,0.0
26.55644989013672,22.76454734802246,-1.7943466901779177,-0.0,-0.0,-1.0,0.023417780578784,1.0,0.0
26.20989418029785,22.05470085144043,-1.7179545164108276,-0.0,-0.0,-1.0,0.0530087207283068,1.0,0.0
26.238128662109375,22.345975875854492,-1.753501534461975,0.2011113108937917,0.9062947147344323,-0.3717312613636555,0.1014967538592798,7.0,0.0
25.99127960205078,22.635671615600582,-1.799385905265808,-0.0,-0.0,-1.0,0.0231573434537734,2.0,0.0
25.790237426757812,22.571176528930664,-1.7990866899490356,-0.0,-0.0,-1.0,0.0128895353834181,2.0,0.0
25.240869522094727,22.01325225830078,-1.7511836290359497,-0.0,-0.0,-1.0,0.0363800381965627,2.0,0.0
26.435571670532227,22.928667068481445,-1.77409029006958,-0.0,-0.0,-1.0,0.0525909171006824,2.0,0.0
26.17603302001953,22.436677932739254,-1.7240092754364014,0.6537603509626665,0.7209822397837384,0.2297433642689054,0.1571827701149309,8.0,0.0
25.99113655090332,22.85876083374023,-1.7854883670806885,-0.0,-0.0,-1.0,0.0256302673240168,1.0,0.0
25.744869232177734,22.839111328125,-1.7946598529815674,0.5748103059095565,0.7987993339857868,0.1775182701696512,0.0707318878631233,3.0,0.0
27.113975524902344,22.0761661529541,-1.638190984725952,-0.0,-0.0,-1.0,0.1779122255839874,2.0,0.0
26.331010818481445,21.719945907592773,-1.6270289421081543,-0.7069887461005911,-0.5718602032191843,-0.4161043389118016,0.2832573225345061,7.0,0.0
26.995622634887695,21.979827880859375,-1.6990691423416138,-0.902659994845266,-0.4102563032972377,-0.1299796111350898,0.1852158016951446,3.0,0.0
27.069568634033203,22.161699295043945,-1.7220185995101929,0.152254821062764,0.6379607194957856,-0.7548672663744042,0.1855376713478265,3.0,0.0
26.892799377441406,23.025148391723633,-1.852688193321228,-0.0,-0.0,-1.0,0.0961488245746893,2.0,0.0
26.668975830078125,22.664939880371097,-1.8107415437698364,-0.0,-0.0,-1.0,0.0161466955493467,1.0,0.0
26.57187843322754,21.41204833984375,-1.6359683275222778,-0.0,-0.0,-1.0,0.2395904565131622,2.0,0.0
26.42460823059082,21.786226272583008,-1.6959480047225952,-0.9313577808632072,0.0043555153393065,0.3640792681706701,0.136583109024707,7.0,0.0
26.161922454833984,22.21314811706543,-1.7688692808151243,-0.0,-0.0,-1.0,0.0584075485963563,2.0,0.0
25.833526611328125,22.221153259277344,-1.785509467124939,-0.0,-0.0,-1.0,0.0543748977920142,2.0,0.0
25.61668586730957,22.190357208251953,-1.7916587591171265,-0.0,-0.0,-1.0,0.0372631136323357,1.0,0.0
26.19527816772461,22.46978759765625,-1.644441843032837,-0.0171853255917311,0.8832432788793019,0.4686000158971885,0.1790809320208498,6.0,0.0
27.05433654785156,21.934585571289062,-1.524350881576538,0.2499536075065512,0.4693454136939664,-0.8468990947798329,0.1403613775068881,4.0,0.0
27.57731819152832,21.287403106689453,-1.8273646831512451,-0.0,-0.0,-1.0,0.0125312146536665,2.0,0.0
27.22564125061035,20.973649978637695,-1.7805745601654053,-0.0,-0.0,-1.0,0.0111058358192382,2.0,0.0
26.744300842285156,20.76874732971191,-1.7574858665466309,-0.0,-0.0,-1.0,0.0291337092581492,2.0,0.0
26.40024185180664,20.65473747253418,-1.747901439666748,-0.0,-0.0,-1.0,0.0146604340712709,1.0,0.0
27.248817443847656,22.988868713378903,-1.4360005855560305,-0.0,-0.0,-1.0,0.1067721364980247,2.0,0.0
27.28099822998047,22.97001838684082,-1.6700022220611572,-0.0,-0.0,-1.0,0.1407814421801623,2.0,0.0
26.14231300354004,22.404991149902344,-1.6165554523468018,-0.681727488574543,0.4330435525062455,-0.5896786522798809,0.1456156879860838,6.0,0.0
27.094085693359375,21.94495010375977,-1.5103373527526855,0.1875880976241982,0.4565008776850473,-0.869722745650886,0.1218600510580883,3.0,0.0
27.486711502075195,22.88338279724121,-1.87924063205719,-0.0,-0.0,-1.0,0.0396954340619187,1.0,0.0
27.59634017944336,22.969738006591797,-1.8908478021621704,-0.0,-0.0,-1.0,0.0342071277645391,2.0,0.0
27.124494552612305,21.98919105529785,-1.7273374795913696,0.8260330301230046,-0.5624114141675811,-0.0369165865137712,0.2345248102638076,6.0,0.0
27.00589370727539,22.75858497619629,-1.877188801765442,-0.4480932287793965,-0.1717321038567783,-0.8773371887860335,0.1092169912748086,5.0,0.0
27.00435447692871,21.97017288208008,-1.7292343378067017,-0.963959919708676,-0.0929059522542025,-0.2492985303426048,0.2271733426458427,3.0,0.0
27.076486587524418,22.109085083007812,-1.7520071268081665,-0.0,-0.0,-1.0,0.1894568166488591,2.0,0.0
26.814870834350582,22.57109260559082,-1.8510671854019165,-0.0,-0.0,-1.0,0.0411153843205995,2.0,0.0
26.516536712646484,21.3387508392334,-1.6341344118118286,-0.0,-0.0,-1.0,0.1571279042709361,1.0,0.0
26.426172256469727,21.799161911010746,-1.7253316640853882,-0.2602299045384678,0.9174003386197506,0.3010930345993856,0.2033940573417986,6.0,0.0
26.40492820739746,22.235267639160156,-1.8085561990737915,-0.0,-0.0,-1.0,0.0532838584503924,2.0,0.0
26.05971908569336,22.061243057250977,-1.7942439317703247,-0.0165298148290874,0.1543787078993184,-0.9878734634400566,0.0374546361835429,7.0,0.0
25.77114486694336,22.015857696533203,-1.802010416984558,-0.0,-0.0,-1.0,0.0290132955326491,2.0,0.0
25.370908737182617,21.79715156555176,-1.7848676443099976,-0.0,-0.0,-1.0,0.03421274979368,1.0,0.0
27.64822006225586,20.7247314453125,-1.7613781690597534,-0.0,-0.0,-1.0,0.0113182083673706,1.0,0.0
27.245935440063477,20.71744155883789,-1.7500988245010376,-0.0,-0.0,-1.0,0.0214652302273878,1.0,0.0
26.861387252807617,20.69006729125977,-1.736638426780701,-0.0,-0.0,-1.0,0.0354775783931927,1.0,0.0
26.43878936767578,20.67962646484375,-1.7278674840927124,-0.0,-0.0,-1.0,0.019360566424258,1.0,0.0
26.07959747314453,20.662296295166016,-1.72014319896698,-0.0,-0.0,-1.0,0.0119611838458386,2.0,0.0
27.024961471557617,21.94027328491211,-1.4427083730697632,0.3170714162677776,0.2685849197207913,-0.9095756471479002,0.2022998224119254,3.0,0.0
26.118152618408203,22.411651611328125,-1.5166305303573608,0.3153510402220333,0.3897710337060008,-0.8652353799485069,0.2264934349608672,4.0,0.0
27.345643997192383,20.729660034179688,-1.7796419858932495,-0.0,-0.0,-1.0,0.0184712412124409,1.0,0.0
27.030162811279297,20.65839385986328,-1.7594698667526243,0.3517858823577813,-0.5649626395500496,-0.7463671408136866,0.0313900913854468,3.0,0.0
26.914775848388672,20.698776245117188,-1.7675989866256714,-0.0,-0.0,-1.0,0.0375294305415799,2.0,0.0
26.490951538085938,20.67595863342285,-1.759595274925232,-0.0,-0.0,-1.0,0.0195469769464181,1.0,0.0
27.228368759155273,22.864681243896484,-1.7037190198898315,-0.0,-0.0,-1.0,0.2025641550598424,1.0,0.0
27.00316047668457,21.968774795532227,-1.530168890953064,-0.9978545066640993,-0.0582129453530639,0.0299605828292573,0.1465788726922124,4.0,0.0
26.164043426513672,22.43899726867676,-1.6208947896957395,0.7246991389485175,-0.6014984709797868,-0.3361707117169126,0.1840312229156221,6.0,0.0
27.48889923095703,21.029769897460938,-1.811863660812378,0.5835650424816833,-0.1344736312666573,-0.8008549704455296,0.0077096746457567,3.0,0.0
27.070947647094727,20.81494903564453,-1.745517015457153,-0.0,-0.0,-1.0,0.0319389653730446,1.0,0.0
27.285572052001953,21.018516540527344,-1.8019213676452637,-0.0,-0.0,-1.0,0.0067942912169624,1.0,0.0
26.74186134338379,20.82185935974121,-1.7379720211029053,-0.0,-0.0,-1.0,0.0344345934645334,1.0,0.0
26.35454368591309,20.850887298583984,-1.7363193035125732,-0.0,-0.0,-1.0,0.0249053982636065,2.0,0.0
25.9244384765625,20.87434959411621,-1.7352728843688965,-0.278539744032703,-0.7248138964691522,-0.63012730973939,0.043469477154848,4.0,0.0
27.051441192626953,21.984413146972656,-1.5360004901885986,-0.5205814267282942,-0.6136079014780622,-0.5937005317407269,0.1509551962618384,7.0,0.0
27.120271682739254,22.76199722290039,-1.6991546154022217,-0.3441182257227175,-0.3319289503698329,-0.8782971129588378,0.1462588765751677,3.0,0.0
26.139007568359375,20.84026527404785,-1.7297625541687012,-0.0,-0.0,-1.0,0.0332679953311552,1.0,0.0
26.166189193725582,22.436927795410156,-1.6154749393463137,-0.8195616675712211,0.5204867150855365,-0.2396085400551223,0.1840312229156221,4.0,0.0
25.98647117614746,20.844913482666016,-1.7286391258239746,-0.0,-0.0,-1.0,0.0418994346237257,1.0,0.0
26.087955474853516,22.388256072998047,-1.6044261455535889,0.0396016177587138,0.2268270753068236,-0.9731295852961436,0.1981433232817398,5.0,0.0
25.48912239074707,20.80843734741211,-1.7148120403289795,-0.0,-0.0,-1.0,0.0285579953136321,2.0,0.0
27.599613189697266,22.17711639404297,-1.7387486696243286,-0.0,-0.0,-1.0,0.151891933509542,1.0,0.0
27.1752986907959,22.081214904785156,-1.706328272819519,-0.0,-0.0,-1.0,0.2148195177658561,1.0,0.0
27.491838455200195,22.79532241821289,-1.8838964700698853,-0.0,-0.0,-1.0,0.0290885761212402,1.0,0.0
27.045629501342773,22.110227584838867,-1.710865139961243,-0.0,-0.0,-1.0,0.210196146398135,1.0,0.0
26.937667846679688,22.74509048461914,-1.8618422746658323,-0.7013204912791379,0.6811285652369335,0.2102699363443698,0.089582910236986,3.0,0.0
26.96987533569336,22.781036376953125,-1.8708592653274536,-0.1913367539493344,-0.3195881245643503,-0.9280375408492768,0.1398138142536813,4.0,0.0
26.34633445739746,22.40697479248047,-1.774175763130188,-0.0,-0.0,-1.0,0.1333437811258545,1.0,0.0
26.61513900756836,22.57535171508789,-1.816998839378357,0.4771620903263858,-0.0505986241050496,-0.8773574635198754,0.053926374196322,3.0,0.0
26.21025276184082,22.383941650390625,-1.76793110370636,0.7085302954535664,0.6977420485908737,0.1055502442095383,0.136314309804732,5.0,0.0
26.022966384887695,22.5684814453125,-1.812128663063049,-0.5008324447102018,0.6036413001278784,-0.620309634864337,0.0382791592988327,3.0,0.0
25.60883903503418,22.424266815185547,-1.7780507802963257,0.4170015230509935,0.0031545337717797,-0.9089003128450522,0.019336076433411,4.0,0.0
25.817609786987305,22.547679901123047,-1.80719530582428,-0.0,-0.0,-1.0,0.016608806507678,2.0,0.0
25.320831298828125,22.468585968017575,-1.7909938097000122,-0.0,-0.0,-1.0,0.0304598910439803,1.0,0.0
27.231040954589844,22.974205017089844,-1.4330579042434692,-0.0,-0.0,-1.0,0.1157635794014156,2.0,0.0
26.34041976928711,21.743885040283203,-1.6139506101608276,-0.5157249356596035,0.2999168988963921,-0.8025444813188047,0.3066346041017642,13.0,0.0
27.35869789123535,20.664520263671875,-1.786675214767456,-0.0,-0.0,-1.0,0.020556595562824,1.0,0.0
27.455284118652344,20.73740005493164,-1.8101892471313477,-0.0,-0.0,-1.0,0.0091955690216305,1.0,0.0
27.556564331054688,22.20378875732422,-1.829360008239746,-0.0,-0.0,-1.0,0.1475483544491669,2.0,0.0
27.484554290771484,22.54940414428711,-1.9238994121551511,-0.0,-0.0,-1.0,0.0424361344735894,2.0,0.0
26.99343490600586,20.67156410217285,-1.786750078201294,-0.0,-0.0,-1.0,0.0337893172052638,2.0,0.0
27.15189552307129,22.11426544189453,-1.806471586227417,-0.0,-0.0,-1.0,0.2429955510677953,2.0,0.0
27.050750732421875,22.415576934814453,-1.8901562690734863,-0.0,-0.0,-1.0,0.0320774987940934,1.0,0.0
26.614028930664062,21.448532104492188,-1.629650592803955,0.1385337478295122,0.3487565467949385,-0.9269181580808412,0.2170347685970359,3.0,0.0
26.48401641845703,21.909412384033203,-1.7592976093292236,-0.0,-0.0,-1.0,0.1195415913968486,2.0,0.0
26.703874588012695,22.22811508178711,-1.8432960510253904,-0.0,-0.0,-1.0,0.0321376659272573,1.0,0.0
26.907976150512695,22.351398468017575,-1.8741116523742676,-0.0,-0.0,-1.0,0.0612355952511751,1.0,0.0
26.70501708984375,23.125267028808594,-1.6341967582702637,-0.0,-0.0,-1.0,0.1071720045600833,1.0,0.0
26.40072250366211,21.864990234375,-1.7488036155700684,-0.0,-0.0,-1.0,0.212313950054233,2.0,0.0
26.22764587402344,22.081462860107425,-1.812939405441284,-0.0,-0.0,-1.0,0.037378022500963,1.0,0.0
25.73088264465332,22.01224136352539,-1.8091778755187988,-0.1919395312457923,0.6042885507663013,0.7733010822169519,0.0145754602161603,3.0,0.0
25.93001937866211,22.047847747802734,-1.812325954437256,-0.0,-0.0,-1.0,0.0440148723986157,2.0,0.0
25.476505279541016,21.978166580200195,-1.8097684383392336,-0.0442158832734949,0.986988582056646,0.1545913793073718,0.0720682071869274,3.0,0.0
27.22124671936035,22.851240158081055,-1.559112310409546,-0.0,-0.0,-1.0,0.1290476403858812,2.0,0.0
26.166484832763672,22.455299377441406,-1.4880967140197754,-0.358134631497315,0.7735761986112182,-0.5227996276438032,0.2243297517539337,3.0,0.0
27.673675537109375,22.987010955810547,-1.912238597869873,-0.0,-0.0,-1.0,0.0372772389927042,1.0,0.0
27.18045425415039,22.761098861694336,-1.854133129119873,0.6293794588279923,0.7541066439039908,0.187629066045864,0.1198100238589876,3.0,0.0
27.23580741882324,22.88727569580078,-1.890341520309448,-0.0,-0.0,-1.0,0.066460098476886,1.0,0.0
26.74621200561523,22.741260528564453,-1.8600068092346191,-0.0,-0.0,-1.0,0.0176766369870781,2.0,0.0
26.937437057495117,22.85155487060547,-1.8869445323944092,-0.0,-0.0,-1.0,0.0943196439041648,1.0,0.0
26.28636932373047,22.392414093017575,-1.773451328277588,0.7436436547161519,0.2106785075956069,0.6345145240557479,0.1382423194378008,4.0,0.0
26.5127010345459,22.583393096923828,-1.8213880062103271,-0.0,-0.0,-1.0,0.0218046825311321,2.0,0.0
26.081697463989254,22.501554489135746,-1.8155431747436523,0.0973171777113187,0.972068177482122,-0.2135715927947571,0.0730402215698825,3.0,0.0
25.820180892944336,22.48491477966309,-1.823892831802368,-0.0,-0.0,-1.0,0.0190682012093706,1.0,0.0
27.277999877929688,22.017229080200195,-1.633204698562622,-0.0,-0.0,-1.0,0.1922989903546656,2.0,0.0
27.109357833862305,22.072174072265625,-1.6524372100830078,-0.0,-0.0,-1.0,0.1487163932656552,2.0,0.0
27.24462890625,22.869415283203125,-1.4715642929077148,0.3671265698205818,0.7098299873444603,-0.6011318248091152,0.1169271423028847,3.0,0.0
26.31764793395996,21.775550842285156,-1.5882806777954102,-0.4186078557598624,0.1194216832419522,-0.9002810253847343,0.2273321475853469,12.0,0.0
25.594240188598633,22.348939895629883,-1.79626727104187,-0.0,-0.0,-1.0,0.0175504597991603,2.0,0.0
25.7418212890625,22.407371520996097,-1.8050405979156496,-0.0,-0.0,-1.0,0.0263708899680792,1.0,0.0
25.267345428466797,22.246763229370117,-1.7869279384613037,-0.8288600119759487,-0.5262695990455849,0.1898193606238039,0.0320658941395965,3.0,0.0
25.34200096130371,22.020246505737305,-1.8494399785995483,-0.0,-0.0,-1.0,0.0423682795238773,1.0,0.0
25.39296531677246,21.73717880249023,-1.8359993696212769,-0.0,-0.0,-1.0,0.0198548619582665,2.0,0.0
25.34793472290039,21.44879150390625,-1.801089882850647,-0.0,-0.0,-1.0,0.0214943189546574,1.0,0.0
25.404483795166016,21.281370162963867,-1.8004590272903442,-0.0,-0.0,-1.0,0.0249120058339774,2.0,0.0
25.444358825683594,21.059776306152344,-1.7921446561813354,-0.0,-0.0,-1.0,0.0447215075300641,1.0,0.0
27.18819046020508,21.94727897644043,-1.7387868165969849,0.2532461818524011,0.098720601895926,-0.962351606294958,0.1623615382271026,3.0,0.0
25.585405349731445,21.457733154296875,-1.794791340827942,-0.0,-0.0,-1.0,0.0543656096775506,2.0,0.0
25.560863494873047,21.067028045654297,-1.761502385139465,-0.0,-0.0,-1.0,0.0360675978197612,2.0,0.0
25.558704376220703,20.680702209472656,-1.7350014448165894,-0.0,-0.0,-1.0,0.016691547320302,2.0,0.0
27.016178131103516,22.151052474975582,-1.637050986289978,-0.0,-0.0,-1.0,0.1333237263042736,1.0,0.0
27.060449600219727,22.960552215576172,-1.7119132280349731,-0.0,-0.0,-1.0,0.1921918536998544,2.0,0.0
26.015544891357425,22.591144561767575,-1.505626559257507,-0.0,-0.0,-1.0,0.2538400881726043,1.0,0.0
26.9480037689209,21.778173446655273,-1.481434345245361,-0.0,-0.0,-1.0,0.1168297119302675,1.0,0.0
27.083091735839844,22.596208572387695,-1.6270875930786133,-0.0,-0.0,-1.0,0.0975872198631841,1.0,0.0
27.22943115234375,22.013608932495117,-1.633894443511963,-0.0,-0.0,-1.0,0.2397805359430319,2.0,0.0
27.49979782104492,22.974952697753903,-1.8279249668121336,-0.0,-0.0,-1.0,0.0643800849921068,1.0,0.0
27.22904586791992,22.092144012451172,-1.7314703464508057,-0.0,-0.0,-1.0,0.1990899233688469,1.0,0.0
27.149490356445312,22.64684677124023,-1.7994859218597412,-0.0,-0.0,-1.0,0.198557862491304,2.0,0.0
27.028167724609375,22.89782333374023,-1.8328711986541748,-0.0,-0.0,-1.0,0.1967094175012797,2.0,0.0
25.86595344543457,21.994121551513672,-1.7628648281097412,-0.0,-0.0,-1.0,0.089982711478249,1.0,0.0
25.539438247680664,21.69833755493164,-1.7387707233428955,-0.0,-0.0,-1.0,0.0354571116097781,1.0,0.0
27.484405517578125,22.9476261138916,-1.91089391708374,-0.0,-0.0,-1.0,0.0423060378926319,1.0,0.0
27.027318954467773,22.908132553100582,-1.9161114692687988,-0.0,-0.0,-1.0,0.1425179204508707,1.0,0.0
27.18756103515625,21.897611618041992,-1.7889375686645508,-0.0,-0.0,-1.0,0.1679404815020778,2.0,0.0
26.031005859375,22.03281593322754,-1.832643985748291,-0.0,-0.0,-1.0,0.049005980980806,2.0,0.0
25.888362884521484,22.06767845153809,-1.8405442237854004,-0.0,-0.0,-1.0,0.0324220994148386,2.0,0.0
25.58080291748047,21.84675407409668,-1.8214192390441897,-0.0,-0.0,-1.0,0.0193901547674192,1.0,0.0
25.455795288085938,21.98219108581543,-1.841386318206787,0.5468299206453092,0.7969063637076892,-0.2567436179717673,0.0416510003274548,3.0,0.0
27.41512107849121,22.013689041137695,-1.9270107746124268,-0.0,-0.0,-1.0,0.0646144526191605,1.0,0.0
27.241456985473633,22.926881790161133,-1.5488264560699463,-0.0,-0.0,-1.0,0.0924437293719333,2.0,0.0
27.251853942871097,20.664905548095703,-1.7860209941864014,-0.0,-0.0,-1.0,0.0204077197707807,1.0,0.0
26.82176971435547,20.786624908447266,-1.787694215774536,-0.0,-0.0,-1.0,0.0190562548971048,1.0,0.0
25.877307891845703,20.785961151123047,-1.749741792678833,-0.0,-0.0,-1.0,0.0323063211707162,1.0,0.0
25.51833724975586,20.78548812866211,-1.7365343570709229,-0.0,-0.0,-1.0,0.0233984524389411,2.0,0.0
25.36667251586914,20.916515350341797,-1.7540490627288818,-0.9414642002947732,0.0095612819468362,-0.3369773604425922,0.0394107404414435,3.0,0.0
27.613754272460938,21.99279403686523,-1.8842129707336424,0.4255967520035287,-0.0682542105421674,-0.9023351746592352,0.0618263290136526,3.0,0.0
27.49657440185547,22.108327865600582,-1.8980779647827148,-0.0,-0.0,-1.0,0.079805869098849,1.0,0.0
27.24744415283203,22.071849822998047,-1.8802790641784668,-0.0,-0.0,-1.0,0.1447251185014592,1.0,0.0
26.51416015625,21.32181739807129,-1.7195167541503906,-0.1928875402518351,0.1396201265708051,-0.9712366431884398,0.1367125138817174,3.0,0.0
26.451305389404297,21.959291458129883,-1.8258295059204104,-0.0,-0.0,-1.0,0.0450391047244321,1.0,0.0
26.171489715576172,21.965755462646484,-1.815262794494629,-0.0,-0.0,-1.0,0.0551075216742728,1.0,0.0
26.238466262817383,21.007253646850582,-1.6536798477172852,-0.0,-0.0,-1.0,0.0944381655645614,1.0,0.0
25.889638900756836,22.059120178222656,-1.820199966430664,0.181693627143767,0.9104395238930496,0.3716009946013851,0.0324220994148386,3.0,0.0
25.527568817138672,22.098295211791992,-1.8131976127624512,-0.0,-0.0,-1.0,0.0504938616433564,2.0,0.0
25.371143341064453,22.11528968811035,-1.810448169708252,-0.0,-0.0,-1.0,0.0406890413788151,1.0,0.0
25.210628509521484,22.004486083984375,-1.785351276397705,-0.0,-0.0,-1.0,0.0363800381965627,2.0,0.0
27.227792739868164,22.693286895751953,-1.879908800125122,-0.0,-0.0,-1.0,0.1205716751345757,1.0,0.0
26.761428833007812,22.695350646972656,-1.8605105876922607,-0.0,-0.0,-1.0,0.0181576402959808,2.0,0.0
27.142982482910156,21.94229507446289,-1.751194715499878,0.4248683117731079,-0.4001836069983744,-0.8119975359204238,0.2134000638896837,4.0,0.0
26.392433166503903,22.422435760498047,-1.799572229385376,-0.0,-0.0,-1.0,0.1334668342417577,1.0,0.0
26.586101531982425,22.57207489013672,-1.832602262496948,0.0564285455433908,0.992340490207276,-0.1098916318153495,0.0589974499281103,4.0,0.0
26.43252182006836,21.77783966064453,-1.6927549839019775,-0.9888775641872743,-0.0350074173636399,0.1445532558490851,0.1322267778263508,5.0,0.0
26.24352645874023,22.35360336303711,-1.7820403575897217,0.2011113108937917,0.9062947147344323,-0.3717312613636555,0.1080434729092011,7.0,0.0
26.14556121826172,22.592376708984375,-1.818732976913452,-0.0,-0.0,-1.0,0.0639270080019328,2.0,0.0
25.828271865844727,22.733978271484375,-1.831073522567749,-0.0,-0.0,-1.0,0.0738061866834917,1.0,0.0
25.5289249420166,22.79432678222656,-1.830932378768921,-0.0,-0.0,-1.0,0.0404262136896866,1.0,0.0
25.288055419921875,22.869815826416016,-1.8358261585235596,-0.0,-0.0,-1.0,0.0580200096637012,1.0,0.0
27.576587677001953,22.140535354614254,-1.8818907737731936,-0.0,-0.0,-1.0,0.0593096024427056,1.0,0.0
27.59190368652344,22.428295135498047,-1.9289860725402832,0.9792870978783677,-0.0470453966347032,0.1969352954258022,0.0148646102935512,3.0,0.0
27.17670440673828,21.94696807861328,-1.828977108001709,0.6654735297055416,-0.6273117530081512,-0.4045058044071653,0.2123440629796571,4.0,0.0
27.10657119750977,22.026689529418945,-1.838113784790039,-0.0,-0.0,-1.0,0.2451251704310631,2.0,0.0
27.107845306396484,22.49663543701172,-1.9144186973571775,-0.0,-0.0,-1.0,0.0463694217675295,1.0,0.0
26.535213470458984,22.191143035888672,-1.835536003112793,-0.0,-0.0,-1.0,0.0317800331632679,1.0,0.0
26.56799697875977,21.33091163635254,-1.6970009803771973,0.5071812739407898,0.6985225697490722,-0.5048102365393848,0.1360436344055756,3.0,0.0
26.448333740234375,21.92192649841309,-1.7871770858764648,-0.0,-0.0,-1.0,0.0838863153627439,2.0,0.0
26.221920013427734,22.13870620727539,-1.8116097450256348,-0.0,-0.0,-1.0,0.0527058684834532,2.0,0.0
25.903121948242188,22.20035171508789,-1.806809902191162,-0.0,-0.0,-1.0,0.0562299423451739,2.0,0.0
25.592750549316406,22.263246536254883,-1.8031349182128904,-0.0,-0.0,-1.0,0.0115610114430603,2.0,0.0
25.30717658996582,22.34885597229004,-1.8051133155822752,-0.0,-0.0,-1.0,0.0324978862200059,1.0,0.0
