x,y,z,nx,ny,nz,curvature,density,label
43.13478088378906,7.703335762023926,-1.6495676040649414,-0.0,-0.0,-1.0,0.0270201555713491,2.0,0.0
45.16225814819336,5.757699012756348,-1.545844554901123,-0.0,-0.0,-1.0,0.1574658529006121,2.0,0.0
45.043922424316406,6.667220115661621,-1.6980199813842771,-0.0,-0.0,-1.0,0.0121149930592465,1.0,0.0
44.72075271606445,6.398805618286133,-1.685084342956543,-0.0,-0.0,-1.0,0.018796203164189,1.0,0.0
43.89905548095703,5.983503818511963,-1.6067981719970703,0.0973160446094031,0.67053602781018,-0.735466534160547,0.0509266452983368,4.0,0.0
43.62669372558594,5.672845840454102,-1.6119470596313477,-0.0,-0.0,-1.0,0.0814638315301992,1.0,0.0
43.75959396362305,5.79787540435791,-1.6140727996826172,-0.0,-0.0,-1.0,0.0765592082440424,1.0,0.0
45.02737045288086,5.8433918952941895,-1.583369255065918,-0.0,-0.0,-1.0,0.1792366190866853,1.0,0.0
45.11437225341797,6.155077934265137,-1.6022491455078125,0.0324436096490983,0.641710925464394,-0.7662600735602552,0.05451099262606,3.0,0.0
43.97938537597656,5.785206317901611,-1.5451128482818604,-0.0,-0.0,-1.0,0.0596910957212385,2.0,0.0
44.06305694580078,6.094546318054199,-1.5570390224456787,-0.5490489651486989,0.6105084291942191,0.5708105567979184,0.0506865929963972,3.0,0.0
44.499263763427734,7.280506134033203,-1.7683219909667969,-0.0,-0.0,-1.0,0.0232454985045353,1.0,0.0
44.3551139831543,7.0991010665893555,-1.7562289237976074,-0.0,-0.0,-1.0,0.0247369438964807,1.0,0.0
44.021610260009766,6.793146133422852,-1.724226951599121,-0.0,-0.0,-1.0,0.0414187909461293,1.0,0.0
43.96028518676758,7.462867259979248,-1.6904244422912598,-0.0,-0.0,-1.0,0.0323029516937777,1.0,0.0
43.95887756347656,7.766884803771973,-1.6792254447937012,-0.0,-0.0,-1.0,0.0900101144747024,2.0,0.0
43.70979309082031,6.377993583679199,-1.7000808715820312,-0.0,-0.0,-1.0,0.0461136144698058,1.0,0.0
43.908782958984375,6.92222785949707,-1.704228401184082,-0.0,-0.0,-1.0,0.0591005401583148,1.0,0.0
43.21596908569336,5.855243682861328,-1.6575050354003906,-0.0,-0.0,-1.0,0.021847282038685,1.0,0.0
42.74362564086914,6.094278335571289,-1.5847554206848145,-0.0,-0.0,-1.0,0.0162326103718569,2.0,0.0
43.82112503051758,7.614112377166748,-1.6237871646881104,-0.0,-0.0,-1.0,0.0531968712800065,2.0,0.0
43.84829330444336,7.861812591552734,-1.6056134700775146,-0.0,-0.0,-1.0,0.1256197503258153,1.0,0.0
43.62824249267578,7.268225193023682,-1.6325809955596924,-0.0,-0.0,-1.0,0.019539853693839,2.0,0.0
43.71796417236328,7.445511817932129,-1.6270177364349363,-0.0,-0.0,-1.0,0.0256247834047498,1.0,0.0
43.78432846069336,7.748076915740967,-1.608283758163452,-0.0,-0.0,-1.0,0.0882005442753235,2.0,0.0
43.13184356689453,6.880471229553223,-1.6124975681304932,-0.0,-0.0,-1.0,0.0205251964119995,1.0,0.0
42.71805953979492,6.789047718048096,-1.5755908489227295,-0.0,-0.0,-1.0,0.044493602586337,1.0,0.0
43.568214416503906,7.432513236999512,-1.6015567779541016,-0.0,-0.0,-1.0,0.0178107404909727,1.0,0.0
43.56840515136719,7.877459049224853,-1.5924999713897705,-0.0,-0.0,-1.0,0.0594449001175708,1.0,0.0
43.696102142333984,7.976078510284424,-1.604407548904419,-0.0,-0.0,-1.0,0.0684444476999864,1.0,0.0
43.26639938354492,7.180791854858398,-1.574477195739746,-0.0,-0.0,-1.0,0.0180724579312295,1.0,0.0
42.97157287597656,6.824079513549805,-1.5509662628173828,0.1564291789161549,-0.9434194617138832,-0.2923860996065037,0.0630183766935086,4.0,0.0
43.885765075683594,7.524582862854004,-1.669921636581421,-0.0,-0.0,-1.0,0.0236683483612593,1.0,0.0
43.87942123413086,7.78974723815918,-1.658055543899536,-0.0,-0.0,-1.0,0.0664742491146969,2.0,0.0
43.77213668823242,7.108125686645508,-1.6761000156402588,-0.0,-0.0,-1.0,0.0363251142823637,2.0,0.0
44.93543243408203,7.362871170043945,-1.6636457443237305,-0.0,-0.0,-1.0,0.0147260225206049,2.0,0.0
44.62322235107422,6.994101524353027,-1.6492018699645996,-0.0,-0.0,-1.0,0.0198483782408809,1.0,0.0
44.74494934082031,7.219615936279297,-1.651219367980957,-0.0,-0.0,-1.0,0.0159235531968207,1.0,0.0
44.25498962402344,6.64200496673584,-1.6292500495910645,-0.0,-0.0,-1.0,0.0361140961033614,2.0,0.0
44.33221435546875,6.823385238647461,-1.6285638809204102,-0.0,-0.0,-1.0,0.0247870226181796,1.0,0.0
44.00569152832031,7.896523475646973,-1.550551414489746,-0.0,-0.0,-1.0,0.1374010506904715,2.0,0.0
43.920867919921875,6.55979061126709,-1.600816249847412,-0.0,-0.0,-1.0,0.1197030716896374,1.0,0.0
43.10765075683594,6.193727493286133,-1.5400428771972656,-0.0,-0.0,-1.0,0.0175763075815999,1.0,0.0
42.94519805908203,6.664457321166992,-1.502336025238037,-0.0,-0.0,-1.0,0.0692094655914151,2.0,0.0
44.84991455078125,6.474634170532227,-1.6272425651550293,-0.0,-0.0,-1.0,0.0227629733465711,1.0,0.0
43.96099090576172,6.333809852600098,-1.5643434524536133,-0.0,-0.0,-1.0,0.099191134342071,2.0,0.0
43.47687530517578,5.769801139831543,-1.567375659942627,-0.0,-0.0,-1.0,0.0536762031166935,1.0,0.0
43.56088638305664,5.868880271911621,-1.5666379928588867,-0.0,-0.0,-1.0,0.062273592148517,1.0,0.0
43.74709701538086,6.210517883300781,-1.55601167678833,-0.0,-0.0,-1.0,0.0899268177446721,1.0,0.0
44.32294464111328,7.086352348327637,-1.6202664375305176,-0.0,-0.0,-1.0,0.0253684546097509,1.0,0.0
44.368377685546875,7.212105751037598,-1.6165072917938232,-0.0,-0.0,-1.0,0.0249244253751372,1.0,0.0
44.09355163574219,7.047553062438965,-1.60272479057312,-0.0,-0.0,-1.0,0.0323329063020668,1.0,0.0
43.984413146972656,7.518745422363281,-1.5643105506896973,-0.0,-0.0,-1.0,0.0387709144731334,1.0,0.0
44.042625427246094,7.708436965942383,-1.5579359531402588,-0.0,-0.0,-1.0,0.103721139057983,2.0,0.0
43.832489013671875,7.016819000244141,-1.5819861888885498,-0.0,-0.0,-1.0,0.046040874992875,1.0,0.0
43.010589599609375,6.674589157104492,-1.5327656269073486,0.135943634907951,0.0207225769746016,-0.9904998248013708,0.0648447038032559,5.0,0.0
43.003211975097656,6.820629119873047,-1.5227763652801514,0.6262975970465557,-0.3301366745314481,-0.7062302004750479,0.0498716253975591,4.0,0.0
45.1502685546875,7.181425094604492,-1.6305010318756104,-0.0,-0.0,-1.0,0.0176608155914291,2.0,0.0
44.774658203125,6.978727340698242,-1.6108806133270264,-0.0,-0.0,-1.0,0.0201116444176441,1.0,0.0
44.618919372558594,6.752748489379883,-1.611664056777954,-0.0,-0.0,-1.0,0.0122680351191314,1.0,0.0
44.78409957885742,7.124151229858398,-1.6027891635894775,-0.0,-0.0,-1.0,0.0286917004572288,1.0,0.0
44.26381301879883,6.552986145019531,-1.594231367111206,-0.0,-0.0,-1.0,0.0243524477258776,1.0,0.0
44.00226593017578,6.449337005615234,-1.578846454620361,-0.3202583288139795,-0.943633171429386,-0.083612442874229,0.0821233855814928,4.0,0.0
43.37604522705078,6.15887451171875,-1.545337438583374,-0.0,-0.0,-1.0,0.0352848632003296,1.0,0.0
43.52470016479492,6.234127044677734,-1.552799940109253,-0.0,-0.0,-1.0,0.068306130712676,1.0,0.0
43.99148178100586,6.755546569824219,-1.6890218257904053,-0.0,-0.0,-1.0,0.0524362517386747,1.0,0.0
43.99488830566406,7.749528884887695,-1.66017746925354,-0.0,-0.0,-1.0,0.1290371524058484,2.0,0.0
43.05717086791992,6.732398986816406,-1.5939581394195557,-0.0,-0.0,-1.0,0.0545662484580968,1.0,0.0
42.78165054321289,5.741411209106445,-1.5989940166473389,-0.0,-0.0,-1.0,0.0151745201516438,1.0,0.0
42.82892227172851,6.705171585083008,-1.5715367794036863,-0.6313447608146474,-0.7114845646935157,-0.3085344505801169,0.0549934562576357,4.0,0.0
43.01318359375,6.9095001220703125,-1.5838472843170166,-0.0,-0.0,-1.0,0.0322828254130514,2.0,0.0
45.17557907104492,6.074468612670898,-1.5118229389190674,-0.0,-0.0,-1.0,0.1581141158527411,1.0,0.0
44.9023551940918,5.899019241333008,-1.4915523529052734,-0.0,-0.0,-1.0,0.0686839947741666,1.0,0.0
44.05583572387695,5.992303848266602,-1.4111769199371338,-0.0,-0.0,-1.0,0.133582234402588,1.0,0.0
45.04833984375,5.663106918334961,-1.5094728469848633,-0.0,-0.0,-1.0,0.1531390185264423,1.0,0.0
45.08172607421875,6.021999359130859,-1.502915382385254,-0.0,-0.0,-1.0,0.1805976152764435,1.0,0.0
43.69490814208984,5.677753448486328,-1.5841069221496582,-0.0,-0.0,-1.0,0.092161306550877,2.0,0.0
43.84905624389648,5.928213119506836,-1.589247226715088,-0.0,-0.0,-1.0,0.0527063115211098,2.0,0.0
44.13560485839844,6.2357025146484375,-1.6052961349487305,-0.9579496346475512,0.2607436817655636,0.1197715738310277,0.1166120807055859,3.0,0.0
44.57561492919922,6.240262985229492,-1.6486320495605469,-0.0,-0.0,-1.0,0.0173913383337197,1.0,0.0
44.97538757324219,6.471946716308594,-1.679255485534668,-0.0,-0.0,-1.0,0.0213642150832347,1.0,0.0
43.07730865478515,6.951152801513672,-1.6018917560577393,-0.0,-0.0,-1.0,0.0286129443560811,1.0,0.0
42.87725830078125,6.756280899047852,-1.5812840461730957,-0.1914425941859313,-0.9097413256610932,-0.3684025699092736,0.0525712093486786,3.0,0.0
43.29353332519531,7.625314712524414,-1.6127362251281738,-0.9759663294511076,0.2100359309356677,-0.0580915785094452,0.0594532748470423,3.0,0.0
43.25618743896485,7.237068176269531,-1.617626428604126,-0.0,-0.0,-1.0,0.0190644462034726,2.0,0.0
42.83869171142578,7.643592834472656,-1.624474287033081,0.4859863972307958,-0.2062117976039691,-0.8492902426353259,0.0256290639428275,3.0,0.0
44.05524444580078,6.059171676635742,-1.5267188549041748,-0.0,-0.0,-1.0,0.0904240430597763,2.0,0.0
43.948577880859375,5.797845840454102,-1.5162365436553955,-0.6121283928888858,-0.5062290427187166,-0.6074792069917796,0.0547429925500717,4.0,0.0
44.28042221069336,6.251434326171875,-1.5543372631072998,-0.0,-0.0,-1.0,0.051634563474281,1.0,0.0
44.68117141723633,6.337400436401367,-1.6073172092437744,-0.0,-0.0,-1.0,0.0213225650597577,2.0,0.0
45.03899765014648,6.8502044677734375,-1.649535894393921,-0.0,-0.0,-1.0,0.0109038699953647,1.0,0.0
44.91223907470703,6.597494125366211,-1.63531231880188,-0.0,-0.0,-1.0,0.0127276864238009,2.0,0.0
45.16264343261719,7.037557601928711,-1.66424822807312,-0.0,-0.0,-1.0,0.0128218129722482,1.0,0.0
43.735939025878906,5.988945960998535,-1.6250534057617188,-0.0,-0.0,-1.0,0.0478715656799251,1.0,0.0
43.70467376708984,5.72761344909668,-1.620047092437744,-0.0,-0.0,-1.0,0.0592525149138,1.0,0.0
43.78253555297851,7.532258987426758,-1.6370537281036377,-0.0,-0.0,-1.0,0.0272984815421181,1.0,0.0
44.0913200378418,6.2125244140625,-1.6796646118164062,-0.0,-0.0,-1.0,0.0583140301718332,1.0,0.0
43.78424072265625,7.641380310058594,-1.6378910541534424,-0.0,-0.0,-1.0,0.0494114112334892,2.0,0.0
43.9123649597168,7.363885879516602,-1.6562232971191406,-0.0,-0.0,-1.0,0.0273946406512487,1.0,0.0
44.13554382324219,7.101409912109375,-1.6893701553344729,-0.0,-0.0,-1.0,0.0263670029863006,1.0,0.0
44.283714294433594,6.693230628967285,-1.7105188369750977,-0.0,-0.0,-1.0,0.0276587584923693,1.0,0.0
44.2451286315918,6.425533294677734,-1.7037158012390137,-0.0,-0.0,-1.0,0.0311723995076051,1.0,0.0
45.00666809082031,5.847851753234863,-1.4801771640777588,-0.0,-0.0,-1.0,0.1708964608440698,1.0,0.0
44.94876480102539,5.63859748840332,-1.468470335006714,-0.0,-0.0,-1.0,0.13011219011129,1.0,0.0
45.08552551269531,5.906599044799805,-1.4239394664764404,-0.0,-0.0,-1.0,0.1395146039335406,1.0,0.0
43.44341278076172,5.651127815246582,-1.5666213035583496,-0.0,-0.0,-1.0,0.0245879279674003,2.0,0.0
43.468448638916016,5.9965105056762695,-1.578376054763794,-0.0,-0.0,-1.0,0.0473174730788403,2.0,0.0
43.414024353027344,6.222943305969238,-1.5737583637237549,-0.0,-0.0,-1.0,0.0491431250658026,1.0,0.0
43.134178161621094,6.743509292602539,-1.5360679626464844,-0.0,-0.0,-1.0,0.0270031471602345,2.0,0.0
43.459999084472656,7.0346574783325195,-1.6018023490905762,-0.0,-0.0,-1.0,0.040389259264202,1.0,0.0
43.35083770751953,7.707385063171387,-1.6005380153656006,-0.0,-0.0,-1.0,0.0561445277453165,1.0,0.0
43.566532135009766,7.386022567749023,-1.6304359436035156,-0.0,-0.0,-1.0,0.0177967008006718,1.0,0.0
43.54683303833008,7.819580078125,-1.6392791271209717,-0.0,-0.0,-1.0,0.0216610162826241,2.0,0.0
45.1912727355957,5.939975738525391,-1.5820167064666748,-0.0,-0.0,-1.0,0.11016443506869,2.0,0.0
43.928321838378906,5.689864158630371,-1.4769151210784912,0.6390003753578809,0.6687167358713579,-0.3801268833666515,0.1474698840274214,3.0,0.0
44.03526306152344,5.787802696228027,-1.4940497875213623,-0.0,-0.0,-1.0,0.1148010478524703,2.0,0.0
44.08380889892578,5.99671745300293,-1.499502420425415,-0.3317603184239248,0.2278935337488075,-0.9154231963385772,0.0865642352270019,3.0,0.0
44.59976577758789,6.156205177307129,-1.5882761478424072,-0.0,-0.0,-1.0,0.0164740615948511,2.0,0.0
44.78224182128906,6.440446853637695,-1.617506980895996,-0.0,-0.0,-1.0,0.0236053873622129,1.0,0.0
44.87335586547851,6.631305694580078,-1.6319658756256104,-0.0,-0.0,-1.0,0.0139985214205953,2.0,0.0
44.96833419799805,6.910384178161621,-1.6468493938446045,-0.0,-0.0,-1.0,0.015754341038402,1.0,0.0
45.09775924682617,7.312916755676269,-1.6679108142852783,-0.0,-0.0,-1.0,0.0263479649264137,1.0,0.0
44.17173767089844,5.673153877258301,-1.4426817893981934,-0.0,-0.0,-1.0,0.1099526590883719,1.0,0.0
44.22267150878906,5.831906318664551,-1.4496302604675293,-0.0,-0.0,-1.0,0.0754905373859109,2.0,0.0
44.8848991394043,5.79534912109375,-1.5695557594299316,-0.0,-0.0,-1.0,0.1066465526205347,1.0,0.0
44.202293395996094,5.933956146240234,-1.4446308612823486,0.0705792284393368,0.6592484698729751,-0.7486053883609505,0.0625467974738789,5.0,0.0
44.98949432373047,6.024775505065918,-1.586042881011963,-0.0,-0.0,-1.0,0.1205632447651726,1.0,0.0
45.0159912109375,6.329498291015625,-1.588021993637085,-0.0,-0.0,-1.0,0.0246401377813855,1.0,0.0
45.19108581542969,6.518198013305664,-1.618638515472412,-0.0,-0.0,-1.0,0.015887520948285,1.0,0.0
42.746036529541016,6.886805534362793,-1.5922081470489502,-0.0,-0.0,-1.0,0.0374682985975331,1.0,0.0
42.83574295043945,7.27702522277832,-1.600006341934204,-0.6672164229724784,0.0693106518903851,-0.7416321719358868,0.0223971310513928,4.0,0.0
42.78858184814453,7.654874801635742,-1.5807487964630127,-0.0,-0.0,-1.0,0.0236445990926133,1.0,0.0
43.03203582763672,7.623857498168945,-1.6327426433563232,-0.8269863000893186,-0.5125631133031749,-0.2310253543348356,0.0163697563633596,3.0,0.0
42.762115478515625,8.076798439025879,-1.5659701824188232,-0.1631757043903571,-0.2028064904766524,-0.9655274293966248,0.0318893497531905,6.0,0.0
42.9793586730957,5.648027420043945,-1.5671038627624512,-0.0,-0.0,-1.0,0.0137057980434581,1.0,0.0
43.057281494140625,6.014047622680664,-1.5683588981628418,-0.0,-0.0,-1.0,0.0200542931538872,1.0,0.0
43.1423225402832,6.166996002197266,-1.5801172256469729,-0.0,-0.0,-1.0,0.016795862623753,1.0,0.0
43.02427673339844,6.4817094802856445,-1.544065237045288,-0.0,-0.0,-1.0,0.0313378634338698,2.0,0.0
43.147727966308594,6.245512962341309,-1.5783262252807615,-0.0,-0.0,-1.0,0.0157608229685607,1.0,0.0
43.050025939941406,6.7068634033203125,-1.541614294052124,-0.250926643572563,0.1699420725153177,-0.9529719363835468,0.0697271986723667,5.0,0.0
43.365867614746094,6.8863525390625,-1.6023247241973877,-0.0,-0.0,-1.0,0.022829163960215,2.0,0.0
43.535648345947266,7.1498918533325195,-1.630403757095337,-0.0,-0.0,-1.0,0.0408023753893667,2.0,0.0
43.61195755004883,7.306010246276856,-1.642329454421997,-0.0,-0.0,-1.0,0.0154017556575216,2.0,0.0
43.61490631103515,7.57676887512207,-1.635972261428833,-0.0,-0.0,-1.0,0.0139859007993797,1.0,0.0
43.61676788330078,7.80476188659668,-1.6308550834655762,-0.0,-0.0,-1.0,0.0507401475258062,1.0,0.0
43.956024169921875,5.655063629150391,-1.491567850112915,0.1324799131741119,0.7528077363754927,-0.6447709551915213,0.1174428205877669,5.0,0.0
44.08254623413086,5.963905334472656,-1.5072133541107178,0.1138128275681329,0.3914828840934651,-0.9131198123701016,0.0977793883647406,6.0,0.0
44.39582443237305,6.070581436157227,-1.569366693496704,-0.0,-0.0,-1.0,0.0194589562412777,2.0,0.0
44.536865234375,6.195798873901367,-1.5952715873718262,-0.0,-0.0,-1.0,0.0113482911029385,2.0,0.0
44.705772399902344,6.377877235412598,-1.625817060470581,-0.0,-0.0,-1.0,0.0182095471032602,1.0,0.0
44.80091094970703,6.731473922729492,-1.6368520259857178,-0.0,-0.0,-1.0,0.0203786406155324,1.0,0.0
44.93431854248047,7.13211727142334,-1.6563208103179932,-0.0,-0.0,-1.0,0.0246648555715574,2.0,0.0
45.05744934082031,7.418523788452148,-1.6772592067718506,-0.0,-0.0,-1.0,0.0239735550079906,2.0,0.0
43.82514190673828,5.858489036560059,-1.572951316833496,0.2500963277324744,0.8795170667805717,-0.4048475714345218,0.0980265616407638,3.0,0.0
43.926849365234375,6.065377235412598,-1.5841238498687744,-0.0,-0.0,-1.0,0.0298239012510664,1.0,0.0
44.14291000366211,6.2699995040893555,-1.6215333938598633,-0.0,-0.0,-1.0,0.0652598806387598,2.0,0.0
44.41724395751953,6.665402412414551,-1.6643052101135254,-0.0,-0.0,-1.0,0.011826389352486,1.0,0.0
44.53111267089844,7.089480400085449,-1.6723580360412598,-0.0,-0.0,-1.0,0.0303370029221821,1.0,0.0
44.65440368652344,7.388957977294922,-1.6891889572143557,-0.0,-0.0,-1.0,0.0214759623453153,1.0,0.0
44.84466552734375,7.547584533691406,-1.7273941040039062,-0.0,-0.0,-1.0,0.0096989590599869,1.0,0.0
44.946067810058594,7.853559494018555,-1.741281509399414,-0.0,-0.0,-1.0,0.0155042627971499,1.0,0.0
43.893035888671875,5.693472862243652,-1.559482216835022,-0.0,-0.0,-1.0,0.058285678174699,1.0,0.0
43.967132568359375,5.994444847106934,-1.5570698976516724,-0.0,-0.0,-1.0,0.0715748751963777,2.0,0.0
44.13676834106445,6.226597785949707,-1.5761693716049194,-0.8040647108817089,0.4374068913234534,0.402684929116383,0.1148592988191602,5.0,0.0
44.52661895751953,6.307746887207031,-1.6437004804611206,-0.0,-0.0,-1.0,0.0136435476565727,2.0,0.0
44.67664337158203,6.589059829711914,-1.6587404012680054,-0.0,-0.0,-1.0,0.0125194506439492,1.0,0.0
44.790916442871094,6.783258438110352,-1.6718569993972778,-0.0,-0.0,-1.0,0.0202543794671828,2.0,0.0
44.94791412353515,7.133465766906738,-1.6875745058059692,-0.0,-0.0,-1.0,0.0246648555715574,2.0,0.0
45.01512908935547,7.390091896057129,-1.6908551454544067,-0.3931231515379028,-0.2537683515601234,-0.8837736200359031,0.028920978886709,3.0,0.0
44.08553695678711,5.641558647155762,-1.4880967140197754,-0.0,-0.0,-1.0,0.1270394737092597,1.0,0.0
44.711402893066406,5.780645370483398,-1.5871272087097168,-0.0,-0.0,-1.0,0.0324696590224591,1.0,0.0
44.937957763671875,6.007401466369629,-1.616812229156494,-0.0,-0.0,-1.0,0.0971109307179137,1.0,0.0
45.13816833496094,6.3656816482543945,-1.6381032466888428,-0.0,-0.0,-1.0,0.0215972107288753,1.0,0.0
44.02799224853515,5.745253562927246,-1.4739837646484375,-0.9596718074334,0.2360160377653948,0.1527299968409446,0.141990301071518,3.0,0.0
44.12760925292969,5.940885543823242,-1.482334852218628,-0.3347238903031063,0.6792852708260174,0.6530937437299326,0.1008799004976649,3.0,0.0
42.82829284667969,5.775151252746582,-1.5468320846557615,-0.0,-0.0,-1.0,0.0151745201516438,1.0,0.0
42.97443389892578,6.060137748718262,-1.5574438571929932,-0.0,-0.0,-1.0,0.0231275217178578,2.0,0.0
43.05221176147461,6.489611625671387,-1.547644853591919,-0.0,-0.0,-1.0,0.0304336539074216,2.0,0.0
43.076908111572266,6.729143142700195,-1.53932523727417,0.0801012447024003,0.1254394518487116,-0.988862343563057,0.0655068016121853,4.0,0.0
43.395599365234375,6.884181022644043,-1.5943527221679688,-0.0,-0.0,-1.0,0.026250684562647,2.0,0.0
43.61039733886719,7.160037994384766,-1.6238107681274414,-0.0,-0.0,-1.0,0.03523930718823,2.0,0.0
43.70262908935547,7.325288772583008,-1.6348447799682615,-0.0,-0.0,-1.0,0.0207726301043222,1.0,0.0
43.73473358154297,7.562601089477539,-1.6309618949890137,-0.0,-0.0,-1.0,0.0223087302722553,2.0,0.0
43.99822998046875,5.709010124206543,-1.4986119270324707,-0.9532960896377186,0.2955728773417239,0.0621549648971732,0.1035080275636612,7.0,0.0
44.54084014892578,5.821996688842773,-1.5914554595947266,-0.0,-0.0,-1.0,0.0220150147374093,1.0,0.0
44.10169219970703,5.947728157043457,-1.502734899520874,0.6589999773487685,0.4528324980932151,-0.6005512122417043,0.1049418741321978,6.0,0.0
44.65955352783203,5.905282020568848,-1.6087150573730469,-0.0,-0.0,-1.0,0.0186569531761164,1.0,0.0
44.79108047485352,6.088351249694824,-1.6230554580688477,-0.0,-0.0,-1.0,0.0208412712474076,1.0,0.0
44.994327545166016,6.429292678833008,-1.6433959007263184,-0.0,-0.0,-1.0,0.0203161856391945,2.0,0.0
45.159767150878906,6.584917068481445,-1.667238712310791,-0.0,-0.0,-1.0,0.0123276469886907,2.0,0.0
44.02305603027344,5.844715118408203,-1.4492182731628418,-0.0,-0.0,-1.0,0.0886404491835619,1.0,0.0
44.171382904052734,5.918851852416992,-1.4719345569610596,-0.5049890568487502,0.8519443635526576,-0.1384805180300356,0.0521778915327865,4.0,0.0
44.67059326171875,5.959999084472656,-1.5647215843200684,-0.0,-0.0,-1.0,0.0168820659106023,1.0,0.0
44.811885833740234,6.263270378112793,-1.5718116760253906,-0.0,-0.0,-1.0,0.0217735781395091,1.0,0.0
45.01984786987305,6.438671112060547,-1.6016077995300293,-0.0,-0.0,-1.0,0.0181188099712776,2.0,0.0
42.75743865966797,7.266349792480469,-1.5847539901733398,-0.0,-0.0,-1.0,0.0194669192934745,2.0,0.0
42.89955139160156,7.416189193725586,-1.6013891696929932,-0.0,-0.0,-1.0,0.0200453041060111,1.0,0.0
43.05323028564453,7.583893775939941,-1.619945764541626,-0.8269863000893186,-0.5125631133031749,-0.2310253543348356,0.0211898906590688,3.0,0.0
43.10174179077149,7.846851348876953,-1.6071834564208984,-0.0,-0.0,-1.0,0.0453336825926782,1.0,0.0
43.65461730957031,5.723773956298828,-1.576233148574829,-0.0,-0.0,-1.0,0.0944872248004485,1.0,0.0
43.86245346069336,5.994572639465332,-1.587324142456055,0.6543984546437172,0.4982537363936884,0.5687757701675097,0.0367669264130587,4.0,0.0
44.0182991027832,6.18575382232666,-1.5978953838348389,-0.0167632258001245,-0.0861850781115548,-0.9961381061738775,0.0712723972333562,3.0,0.0
44.24036407470703,6.303186416625977,-1.6301743984222412,-0.0,-0.0,-1.0,0.0495720912432083,1.0,0.0
44.446746826171875,6.470854759216309,-1.6553359031677246,-0.0,-0.0,-1.0,0.0117428902865982,1.0,0.0
44.66754150390625,6.766666412353516,-1.6729426383972168,-0.0,-0.0,-1.0,0.0146445543038122,1.0,0.0
44.791473388671875,7.078031539916992,-1.6707165241241455,0.0237142473797808,0.928280693459784,-0.3711234142721695,0.0292849856346064,3.0,0.0
44.902137756347656,7.176024436950684,-1.6856427192687988,-0.0,-0.0,-1.0,0.0225680505826663,2.0,0.0
45.1281852722168,7.457468032836914,-1.7104692459106443,-0.0,-0.0,-1.0,0.0179647221462951,2.0,0.0
43.76731491088867,6.063817977905273,-1.561506271362305,0.8306284514738688,0.5439750437219881,-0.118943379007762,0.0352920054425971,5.0,0.0
44.0298957824707,6.2805986404418945,-1.5905535221099854,-0.0,-0.0,-1.0,0.0728782807515021,1.0,0.0
44.72346115112305,7.074263572692871,-1.656747341156006,-0.2761815009728188,0.917064333087966,0.2876052633355744,0.0213308794142534,3.0,0.0
44.93196105957031,7.301179885864258,-1.6813266277313232,-0.0,-0.0,-1.0,0.0152915207020054,2.0,0.0
45.02677154541016,7.384943008422852,-1.6945555210113523,-0.6087673470271756,0.7725795003605369,-0.1803419885000646,0.0289209788867089,4.0,0.0
42.82170486450195,7.915905952453613,-1.6258103847503662,-0.0,-0.0,-1.0,0.0302175196920939,2.0,0.0
42.711387634277344,6.665639877319336,-1.6115328073501587,-0.5070520252636487,0.2680568723655972,-0.8191726050434098,0.0421493885529076,4.0,0.0
42.747859954833984,6.6862688064575195,-1.6161259412765503,-0.5070520252636487,0.2680568723655972,-0.8191726050434098,0.0452430969249571,4.0,0.0
43.98961639404297,5.712822914123535,-1.5215777158737185,0.0093563142210855,0.983934295836758,0.1782856159661221,0.0977194584949115,5.0,0.0
44.10667419433594,5.963090896606445,-1.5161603689193726,0.6790673603476828,0.3879947251533701,-0.6231593803864235,0.1046681030247232,7.0,0.0
44.55311965942383,6.016458511352539,-1.5988377332687378,-0.0,-0.0,-1.0,0.0279894842355744,1.0,0.0
44.68207550048828,6.262235641479492,-1.598889946937561,-0.0,-0.0,-1.0,0.0248967985197797,1.0,0.0
44.9200439453125,6.3870744705200195,-1.63516366481781,-0.0,-0.0,-1.0,0.0239855874909661,1.0,0.0
45.13133239746094,6.575628280639648,-1.6604477167129517,-0.0,-0.0,-1.0,0.0123276469886907,2.0,0.0
42.9093017578125,6.923479080200195,-1.6162127256393433,-0.0,-0.0,-1.0,0.0415941895663593,1.0,0.0
43.10430908203125,7.137909889221191,-1.628057599067688,-0.0,-0.0,-1.0,0.0184609987718266,1.0,0.0
43.255714416503906,7.309500694274902,-1.6381479501724243,-0.0,-0.0,-1.0,0.0112184129887123,1.0,0.0
43.43156814575195,7.574910163879395,-1.6424423456192017,-0.0,-0.0,-1.0,0.0390339373761274,1.0,0.0
44.85377502441406,5.757424354553223,-1.586254358291626,-0.0,-0.0,-1.0,0.0755240040542637,1.0,0.0
45.06897735595703,5.891411781311035,-1.606938362121582,-0.0,-0.0,-1.0,0.1867889712023787,1.0,0.0
44.12959289550781,5.7399702072143555,-1.4761159420013428,-0.0,-0.0,-1.0,0.114216218186482,1.0,0.0
45.174842834472656,6.023846626281738,-1.5674445629119873,-0.0,-0.0,-1.0,0.1501467152639257,1.0,0.0
45.13184356689453,5.75959587097168,-1.5765001773834229,-0.0,-0.0,-1.0,0.165102284012294,2.0,0.0
42.821815490722656,6.335479736328125,-1.5233430862426758,-0.0,-0.0,-1.0,0.017564042901097,1.0,0.0
43.04461669921875,5.647295951843262,-1.5361571311950684,-0.0,-0.0,-1.0,0.0128886830322101,1.0,0.0
43.003910064697266,6.884154319763184,-1.5600743293762207,-0.0,-0.0,-1.0,0.03935386483594,2.0,0.0
43.16097259521485,6.390027046203613,-1.567800998687744,-0.0,-0.0,-1.0,0.0082144295497653,1.0,0.0
43.1383171081543,6.054973602294922,-1.5570735931396484,-0.0,-0.0,-1.0,0.0198374904742013,2.0,0.0
43.16895294189453,5.79043436050415,-1.5550196170806885,-0.0,-0.0,-1.0,0.0140183710379845,2.0,0.0
43.11231994628906,7.7413740158081055,-1.597334623336792,-0.0,-0.0,-1.0,0.0287777652188391,1.0,0.0
43.26911163330078,7.258875370025635,-1.603870868682861,-0.0,-0.0,-1.0,0.0186513740395093,2.0,0.0
43.24454498291016,7.094207286834717,-1.596306085586548,-0.0,-0.0,-1.0,0.0196962857499635,1.0,0.0
43.21917724609375,7.890902519226074,-1.6153943538665771,-0.0,-0.0,-1.0,0.0385931811050829,1.0,0.0
43.28595733642578,7.589424133300781,-1.6152219772338867,-0.9759663294511076,0.2100359309356677,-0.0580915785094452,0.0570361225385911,3.0,0.0
44.011112213134766,5.807981967926025,-1.3620246648788452,-0.0,-0.0,-1.0,0.1065130607706795,1.0,0.0
45.1019287109375,5.941645622253418,-1.4929295778274536,-0.0,-0.0,-1.0,0.1395146039335407,1.0,0.0
45.08676528930664,5.7659173011779785,-1.486383080482483,-0.0,-0.0,-1.0,0.165102284012294,2.0,0.0
45.11969757080078,6.072103023529053,-1.4985986948013306,-0.8831952358671135,0.2192017111611348,-0.4146284905378117,0.1593277873870515,3.0,0.0
45.11249542236328,5.775847434997559,-1.4629666805267334,-0.0,-0.0,-1.0,0.1589807921820685,2.0,0.0
45.15885925292969,6.192404747009277,-1.486926555633545,-0.0,-0.0,-1.0,0.0859548567564622,1.0,0.0
42.830421447753906,6.253100872039795,-1.450092077255249,-0.0,-0.0,-1.0,0.0163425065492161,1.0,0.0
43.227394104003906,6.104860782623291,-1.497429132461548,-0.0,-0.0,-1.0,0.017083633682068,1.0,0.0
43.49018859863281,5.862918853759766,-1.517751932144165,-0.0,-0.0,-1.0,0.0482832704330346,2.0,0.0
42.84312057495117,6.542750835418701,-1.4748530387878418,-0.0,-0.0,-1.0,0.0401097076832294,1.0,0.0
43.15782928466797,6.3794660568237305,-1.5086028575897217,-0.0,-0.0,-1.0,0.0081051116334553,1.0,0.0
42.88617706298828,6.853850364685059,-1.5062921047210691,-0.0,-0.0,-1.0,0.0517087283176274,1.0,0.0
42.77303695678711,7.422595977783203,-1.5366876125335691,-0.0,-0.0,-1.0,0.022285068980581,1.0,0.0
42.9378662109375,7.148209571838379,-1.5382273197174072,-0.0,-0.0,-1.0,0.0147354411162695,1.0,0.0
43.98412322998047,5.874800205230713,-1.5623663663864136,-0.0,-0.0,-1.0,0.0331532133124188,1.0,0.0
44.61101150512695,6.170505523681641,-1.6614805459976196,-0.0,-0.0,-1.0,0.0174536693641088,1.0,0.0
44.77735137939453,6.334630966186523,-1.690895676612854,-0.0,-0.0,-1.0,0.0230603120086379,1.0,0.0
44.81571960449219,6.59223747253418,-1.705640196800232,-0.0,-0.0,-1.0,0.0132120952088912,1.0,0.0
44.79859924316406,6.938071250915527,-1.7160736322402954,-0.0,-0.0,-1.0,0.0193868700189704,2.0,0.0
44.86637878417969,6.930079460144043,-1.7255138158798218,-0.0,-0.0,-1.0,0.0187331996221167,1.0,0.0
44.09681701660156,7.626245498657227,-1.6426693201065063,-0.0,-0.0,-1.0,0.0808402045317018,1.0,0.0
44.827632904052734,7.3099470138549805,-1.7349010705947876,-0.0,-0.0,-1.0,0.0165713276228567,2.0,0.0
44.88548278808594,7.458240509033203,-1.749270796775818,-0.0,-0.0,-1.0,0.0122697577395394,1.0,0.0
43.99720764160156,7.851446151733398,-1.6379045248031616,0.7733307463831262,-0.5666301454571384,-0.2844113833125163,0.1428122748660459,3.0,0.0
44.99854278564453,7.861322402954102,-1.7826720476150513,-0.0,-0.0,-1.0,0.0158672008800408,1.0,0.0
44.65176010131836,6.409195423126221,-1.6471353769302368,-0.0,-0.0,-1.0,0.0178826982697541,2.0,0.0
44.707908630371094,6.824862003326416,-1.6711705923080444,-0.0,-0.0,-1.0,0.0174125439050254,1.0,0.0
43.91900634765625,5.821651935577393,-1.51651132106781,-0.4418077637489059,-0.5569240120582356,-0.7033075747382145,0.0972179063637331,3.0,0.0
44.02884292602539,5.914936065673828,-1.5360175371170044,-0.0,-0.0,-1.0,0.0796573259105694,2.0,0.0
44.133575439453125,6.187351226806641,-1.5606006383895874,-0.581508678296308,0.5651840801396844,0.5851620396289731,0.1280097244755512,4.0,0.0
44.526458740234375,6.289140701293945,-1.6238282918930054,-0.0,-0.0,-1.0,0.0132084405462725,2.0,0.0
44.63297271728515,6.623220443725586,-1.65208637714386,-0.0,-0.0,-1.0,0.0106935878394788,1.0,0.0
44.613548278808594,6.946018218994141,-1.661472201347351,-0.0,-0.0,-1.0,0.0186317133982166,1.0,0.0
44.08440780639648,7.542140960693359,-1.605061173439026,-0.0,-0.0,-1.0,0.0597697575702775,1.0,0.0
44.414581298828125,7.454481601715088,-1.652049899101257,-0.0,-0.0,-1.0,0.0279359770051992,1.0,0.0
44.58959197998047,7.271064758300781,-1.6710759401321411,-0.0,-0.0,-1.0,0.0199632440424646,1.0,0.0
44.01287078857422,7.857966423034668,-1.608305811882019,0.8073988542052672,-0.5156453439206248,-0.2867350162100925,0.142812274866046,4.0,0.0
44.765869140625,8.021971702575684,-1.7321077585220337,-0.0,-0.0,-1.0,0.0032470946082213,1.0,0.0
44.097694396972656,5.87395715713501,-1.4909238815307615,0.5238821346902146,-0.1772841873132171,-0.833137339147104,0.0542836390035184,3.0,0.0
44.79058074951172,6.173200607299805,-1.6137347221374512,-0.0,-0.0,-1.0,0.0215240749771909,1.0,0.0
44.87298583984375,6.116803169250488,-1.6247658729553225,-0.0,-0.0,-1.0,0.0259811690965434,1.0,0.0
44.8906135559082,6.5929789543151855,-1.6470980644226074,-0.1081366578704632,0.138360158232874,-0.984460730470434,0.0128327506118089,4.0,0.0
44.90165328979492,6.5220160484313965,-1.6458725929260254,-0.0,-0.0,-1.0,0.0225291986872988,1.0,0.0
44.824684143066406,7.038768768310547,-1.656184434890747,-0.0,-0.0,-1.0,0.0221233605128819,1.0,0.0
44.93256378173828,6.851806640625,-1.6651921272277832,-0.0,-0.0,-1.0,0.0148174660107209,1.0,0.0
44.91973876953125,7.396282196044922,-1.6887750625610352,-0.0,-0.0,-1.0,0.0143245627678453,2.0,0.0
44.08355712890625,7.889127254486084,-1.577413558959961,0.2203352849327412,-0.6159772953630915,-0.7563229031377924,0.1336367029259758,3.0,0.0
44.97626495361328,7.788206100463867,-1.7180140018463137,-0.0,-0.0,-1.0,0.0164751981295322,2.0,0.0
45.06334686279297,7.779900550842285,-1.7317237854003906,-0.0,-0.0,-1.0,0.0164493379620175,1.0,0.0
43.94337844848633,5.824885845184326,-1.5343823432922363,-0.4418077637489059,-0.5569240120582356,-0.7033075747382145,0.0577291563036882,3.0,0.0
44.06365966796875,6.1504621505737305,-1.5608816146850586,0.0989374525151089,-0.1087725599734869,-0.9891308865295004,0.1381623414377041,3.0,0.0
44.201812744140625,6.324455261230469,-1.5888168811798096,-0.0,-0.0,-1.0,0.0768626756306577,1.0,0.0
44.488792419433594,6.592678070068359,-1.6461174488067627,-0.0,-0.0,-1.0,0.0113927595695691,1.0,0.0
44.51586151123047,6.986691474914551,-1.660285472869873,-0.0,-0.0,-1.0,0.018710401632557,1.0,0.0
44.145484924316406,7.454015731811523,-1.6056761741638184,-0.0,-0.0,-1.0,0.0358490555684998,1.0,0.0
44.53227996826172,7.295445442199707,-1.6715295314788818,-0.0,-0.0,-1.0,0.026565975378009,1.0,0.0
44.030052185058594,7.7753705978393555,-1.594480037689209,-0.0,-0.0,-1.0,0.1478893826057823,1.0,0.0
44.50354766845703,7.816575527191162,-1.6823670864105225,-0.0,-0.0,-1.0,0.0142997261292417,1.0,0.0
44.226341247558594,8.033651351928711,-1.639005422592163,-0.0,-0.0,-1.0,0.0883111472236106,1.0,0.0
44.08805084228515,5.940934181213379,-1.5216208696365356,-0.026528106314361,0.5351663477408145,-0.8443300538421756,0.0934463900238682,5.0,0.0
44.43516540527344,6.079005241394043,-1.5857309103012085,-0.0,-0.0,-1.0,0.0169196736119026,2.0,0.0
44.60264587402344,6.210161209106445,-1.6170707941055298,-0.0,-0.0,-1.0,0.0181275759412443,1.0,0.0
44.77815628051758,6.370758056640625,-1.650326132774353,-0.0,-0.0,-1.0,0.0208642518012493,1.0,0.0
44.84381866455078,6.684115886688232,-1.6647249460220337,-0.0,-0.0,-1.0,0.0157200330373464,1.0,0.0
44.76380157470703,7.085494041442871,-1.653818964958191,-0.16704145621281,0.7271590757746853,-0.6658354379460514,0.0293376332165692,4.0,0.0
44.89107894897461,7.097418308258057,-1.6778260469436646,-0.0,-0.0,-1.0,0.026042790359774,1.0,0.0
45.0036735534668,7.443479537963867,-1.703837275505066,-0.0,-0.0,-1.0,0.0287262481913638,1.0,0.0
45.16509246826172,7.820270538330078,-1.740900635719299,-0.0,-0.0,-1.0,0.0160529490413892,1.0,0.0
43.71706771850586,5.660219669342041,-1.5446878671646118,0.8143471360530014,0.5376137957731459,-0.2186553191593218,0.1076728301417159,3.0,0.0
43.84720230102539,5.853318691253662,-1.5705558061599731,-0.2985857529176819,0.662346580067056,-0.6871270304885815,0.1025218774918359,4.0,0.0
43.812747955322266,6.143947601318359,-1.5629116296768188,0.1904789829337866,-0.229029027786045,-0.9546012054737252,0.0325763170378366,3.0,0.0
43.85662841796875,6.064098358154297,-1.5722006559371948,-0.0,-0.0,-1.0,0.040148922803719,1.0,0.0
44.08430862426758,6.458067417144775,-1.6204630136489868,-0.0,-0.0,-1.0,0.0793744875578457,1.0,0.0
44.16412734985352,6.847898006439209,-1.6401697397232056,-0.0,-0.0,-1.0,0.0352842377912811,1.0,0.0
43.984222412109375,7.432624340057373,-1.6102737188339231,-0.0,-0.0,-1.0,0.0384985840889068,1.0,0.0
44.23609924316406,7.164369583129883,-1.6592930555343628,-0.0,-0.0,-1.0,0.0230079739548628,2.0,0.0
43.95672607421875,7.737160682678223,-1.6104885339736938,-0.0,-0.0,-1.0,0.1308473942020387,1.0,0.0
44.02842712402344,7.526728630065918,-1.6213778257369995,-0.0,-0.0,-1.0,0.0423988612993847,1.0,0.0
44.01922225952149,7.949273586273193,-1.6286965608596802,-0.0,-0.0,-1.0,0.1140801347080186,2.0,0.0
44.32139205932617,8.081522941589355,-1.696567416191101,-0.0,-0.0,-1.0,0.0623409709575362,1.0,0.0
44.112205505371094,5.8527021408081055,-1.47727632522583,0.3830251475924367,0.6698873342369644,0.6360367094285406,0.0478495010376146,3.0,0.0
44.6081657409668,5.977519512176514,-1.5820674896240234,-0.0,-0.0,-1.0,0.0243572632354915,1.0,0.0
44.606666564941406,6.11021089553833,-1.5812640190124512,0.7562998741008059,0.0137531790354192,-0.6540805382378574,0.0156662843118376,3.0,0.0
44.75396728515625,6.263290882110596,-1.6125984191894531,-0.0,-0.0,-1.0,0.0240709799911335,1.0,0.0
42.71953201293945,6.83847713470459,-1.6039369106292725,-0.0,-0.0,-1.0,0.0432776464262346,1.0,0.0
44.848663330078125,6.580668926239014,-1.633558988571167,-0.0,-0.0,-1.0,0.0169069471093312,2.0,0.0
42.731956481933594,7.259720802307129,-1.6054120063781738,-0.0,-0.0,-1.0,0.017416434678577,2.0,0.0
42.762840270996094,7.19001579284668,-1.6133430004119873,-0.0,-0.0,-1.0,0.0159727276539024,2.0,0.0
44.88580322265625,6.963015556335449,-1.6441490650177002,-0.0,-0.0,-1.0,0.020430503712164,1.0,0.0
42.723731994628906,7.746681213378906,-1.6056385040283203,-0.0,-0.0,-1.0,0.0241298599341313,2.0,0.0
42.82743453979492,7.536581039428711,-1.6304161548614502,-0.0,-0.0,-1.0,0.0247030571344055,2.0,0.0
44.98787689208984,7.364040374755859,-1.6712522506713867,0.2241806323873253,-0.8571253893052169,-0.4637662245903632,0.0299982082724842,4.0,0.0
45.12725067138672,7.758432865142822,-1.7087604999542236,-0.0,-0.0,-1.0,0.0160529490413892,1.0,0.0
42.72514724731445,6.700945854187012,-1.602975845336914,-0.5070520252636487,0.2680568723655972,-0.8191726050434098,0.0441647480265725,4.0,0.0
44.4605712890625,6.408969879150391,-1.630035161972046,-0.0,-0.0,-1.0,0.0141620053859048,1.0,0.0
42.77965545654297,6.928339004516602,-1.611675500869751,-0.0,-0.0,-1.0,0.027385354431545,1.0,0.0
44.593467712402344,6.714385509490967,-1.657501220703125,-0.0,-0.0,-1.0,0.0075841645935692,1.0,0.0
42.85258483886719,7.351163864135742,-1.6234097480773926,-0.0,-0.0,-1.0,0.0224649714336876,2.0,0.0
44.63212585449219,7.129878044128418,-1.6635828018188477,-0.0,-0.0,-1.0,0.0272894839527285,1.0,0.0
42.95146942138672,7.688059806823731,-1.6475017070770264,-0.0,-0.0,-1.0,0.0207404415040286,2.0,0.0
44.71529006958008,7.498220443725586,-1.6835784912109375,-0.0,-0.0,-1.0,0.0174208923422781,2.0,0.0
44.844993591308594,7.696356296539307,-1.7161059379577637,-0.0,-0.0,-1.0,0.005373113930771,1.0,0.0
44.890357971191406,7.888382911682129,-1.7289769649505615,-0.0,-0.0,-1.0,0.0044478824008833,1.0,0.0
43.96537399291992,5.638571739196777,-1.532522678375244,0.1787039748008261,0.9261443284290096,-0.3321469137432471,0.0968838225391627,3.0,0.0
44.04603576660156,5.979709625244141,-1.5411334037780762,-0.0,-0.0,-1.0,0.0833060453263429,1.0,0.0
44.16315841674805,6.244477272033691,-1.5622906684875488,0.2410387858643603,0.3475996040164412,-0.906131788978098,0.1286974632473918,3.0,0.0
43.46312713623047,5.777771949768066,-1.6252663135528564,-0.0,-0.0,-1.0,0.0259005102374257,1.0,0.0
45.07477188110352,5.711860656738281,-1.61725115776062,-0.0,-0.0,-1.0,0.1697237101704381,1.0,0.0
43.56267929077149,6.134600639343262,-1.6355476379394531,-0.0,-0.0,-1.0,0.0600372041951082,1.0,0.0
43.642520904541016,6.30340576171875,-1.6506478786468506,-0.0,-0.0,-1.0,0.0541880636507234,1.0,0.0
45.147178649902344,5.933114528656006,-1.6286861896514893,-0.0,-0.0,-1.0,0.1225880983110876,1.0,0.0
43.63691711425781,6.5247602462768555,-1.641247034072876,-0.0,-0.0,-1.0,0.0430334064415593,1.0,0.0
43.69081115722656,6.644096851348877,-1.652538537979126,-0.0,-0.0,-1.0,0.0278082171822099,1.0,0.0
43.755218505859375,6.9606828689575195,-1.6622812747955322,-0.0,-0.0,-1.0,0.050741187552276,1.0,0.0
43.78886413574219,7.367907524108887,-1.664744853973389,-0.0,-0.0,-1.0,0.0265171123998797,1.0,0.0
43.86968994140625,7.839366912841797,-1.684706687927246,-0.0,-0.0,-1.0,0.0821793252394633,1.0,0.0
43.96862030029297,8.083601951599121,-1.7137672901153564,-0.0,-0.0,-1.0,0.0969118972815785,2.0,0.0
45.10711288452149,6.027043342590332,-1.6168968677520752,-0.0,-0.0,-1.0,0.1499852424422827,2.0,0.0
43.775909423828125,7.761614799499512,-1.6581475734710691,-0.5089334692978543,-0.8515434028294199,-0.1259387030508978,0.0522552921660896,3.0,0.0
43.8069953918457,7.744348049163818,-1.6670193672180176,-0.5231541731425969,-0.8422552721357128,-0.1300606307961099,0.0571900773235558,4.0,0.0
44.51853561401367,6.2201690673828125,-1.634372353553772,-0.0,-0.0,-1.0,0.0116843300349774,2.0,0.0
44.63723373413086,6.415257453918457,-1.6565145254135132,-0.0,-0.0,-1.0,0.017882698269754,2.0,0.0
44.688140869140625,6.49367618560791,-1.6664749383926392,-0.0,-0.0,-1.0,0.01370710471278,1.0,0.0
44.68949890136719,6.6458420753479,-1.6595560312271118,-0.0,-0.0,-1.0,0.0115579594940171,1.0,0.0
44.790794372558594,6.828141212463379,-1.6799317598342896,-0.0,-0.0,-1.0,0.0186138334555322,2.0,0.0
44.75187301635742,7.083614826202393,-1.659281611442566,-0.16704145621281,0.7271590757746853,-0.6658354379460514,0.0285903556503947,4.0,0.0
44.878875732421875,7.219889163970947,-1.6905604600906372,-0.0,-0.0,-1.0,0.0159206708557443,2.0,0.0
45.03511047363281,7.586911201477051,-1.7250818014144895,-0.0,-0.0,-1.0,0.0194725910746563,1.0,0.0
45.18854141235352,7.975871086120605,-1.7624024152755735,-0.0,-0.0,-1.0,0.0164493379620176,1.0,0.0
43.98573303222656,5.717395305633545,-1.5231338739395142,0.0093563142210855,0.983934295836758,0.1782856159661221,0.0977194584949115,5.0,0.0
44.12372589111328,6.036805152893066,-1.5381890535354614,-0.5842156995489963,0.6165346613345141,0.5278039671825261,0.0604860639540978,3.0,0.0
44.392696380615234,6.148649215698242,-1.6042252779006958,-0.0,-0.0,-1.0,0.0173004289074402,1.0,0.0
45.08504104614258,5.852418899536133,-1.3968197107315063,-0.0,-0.0,-1.0,0.1229081519702973,1.0,0.0
42.74300003051758,7.328237533569336,-1.6046249866485596,-0.0,-0.0,-1.0,0.0201382148002077,1.0,0.0
43.39739608764648,7.970136642456055,-1.63780415058136,-0.0,-0.0,-1.0,0.0443068469565762,1.0,0.0
43.067649841308594,7.972600936889648,-1.5872761011123655,-0.0,-0.0,-1.0,0.0447502255524243,1.0,0.0
42.725311279296875,8.095972061157227,-1.5546759366989136,-0.1223652695009874,0.3187670779106411,-0.9399012133518404,0.0314253554270774,3.0,0.0
43.73037338256836,7.52481746673584,-1.6233898401260376,-0.0,-0.0,-1.0,0.0220043865079093,2.0,0.0
43.5723876953125,7.694311141967773,-1.6233333349227903,-0.0,-0.0,-1.0,0.0152998448550684,1.0,0.0
44.190643310546875,7.1502685546875,-1.6448498964309692,-0.0,-0.0,-1.0,0.0178135044989051,2.0,0.0
43.95029067993164,7.297079086303711,-1.6258195638656616,-0.0,-0.0,-1.0,0.028033419657246,1.0,0.0
44.33514404296875,6.961310386657715,-1.6424401998519895,-0.0,-0.0,-1.0,0.0224896691883581,1.0,0.0
43.33484649658203,6.761874198913574,-1.6039903163909912,-0.0,-0.0,-1.0,0.0181764647876971,1.0,0.0
42.81855010986328,6.9477386474609375,-1.5763816833496094,-0.0,-0.0,-1.0,0.0326725986284081,1.0,0.0
43.88297653198242,6.356034278869629,-1.6018033027648926,-0.0,-0.0,-1.0,0.0423882227807773,1.0,0.0
43.6842041015625,6.562168121337891,-1.6124134063720703,-0.0,-0.0,-1.0,0.0459542186156968,1.0,0.0
43.42253875732422,6.68245792388916,-1.600217580795288,-0.0,-0.0,-1.0,0.0162765201323078,1.0,0.0
42.968963623046875,6.673619270324707,-1.5412530899047852,-0.0459082731646846,-0.9534597685751178,-0.2980048660067811,0.0668792301782461,5.0,0.0
43.85538101196289,5.988072395324707,-1.5320491790771484,0.2881276127741261,0.9238398667092104,0.2519967845743114,0.1049818788949069,3.0,0.0
43.986793518066406,5.668305397033691,-1.4948406219482422,-0.714499714963372,0.4433453118991397,-0.5412347842981966,0.0962108096839347,6.0,0.0
42.88227462768555,7.917544364929199,-1.7148408889770508,-0.0,-0.0,-1.0,0.0313273319003668,1.0,0.0
43.32014846801758,7.500785827636719,-1.7016420364379885,-0.0,-0.0,-1.0,0.0243999591601362,1.0,0.0
43.0905876159668,7.650777816772461,-1.6957509517669678,-0.0,-0.0,-1.0,0.0258511798005613,1.0,0.0
43.79944610595703,7.082674980163574,-1.7016232013702393,-0.7893270528572292,-0.5206591397353151,-0.3253872521132355,0.0357465831162275,3.0,0.0
43.50081634521485,7.243636131286621,-1.683929681777954,-0.0,-0.0,-1.0,0.0176132882303308,2.0,0.0
44.17888641357422,6.720027923583984,-1.7023236751556396,-0.0,-0.0,-1.0,0.0350706716061741,1.0,0.0
43.98208999633789,6.908998489379883,-1.7015857696533203,-0.0,-0.0,-1.0,0.0415778563962839,1.0,0.0
43.66712188720703,7.012661933898926,-1.6698265075683594,-0.0,-0.0,-1.0,0.0460166323204214,1.0,0.0
44.164100646972656,6.591742515563965,-1.679537057876587,-0.0,-0.0,-1.0,0.0378436100552935,1.0,0.0
43.822879791259766,5.997668266296387,-1.5300672054290771,-0.0,-0.0,-1.0,0.1056700173399414,2.0,0.0
43.796024322509766,5.86167049407959,-1.5043368339538574,-0.0,-0.0,-1.0,0.1510059871154862,1.0,0.0
43.97747802734375,5.647233009338379,-1.5018596649169922,-0.3326422619921814,0.8352751157679317,-0.4377951650208039,0.0973615450200252,4.0,0.0
43.77682876586914,5.768425941467285,-1.4866225719451904,-0.0,-0.0,-1.0,0.1489141154732932,2.0,0.0
44.06191635131836,7.791898250579834,-1.4989396333694458,-0.0,-0.0,-1.0,0.1316343551722744,1.0,0.0
43.785438537597656,7.898463726043701,-1.4456398487091064,-0.0,-0.0,-1.0,0.1253272675403582,1.0,0.0
43.522701263427734,8.093942642211914,-1.4450404644012451,-0.0,-0.0,-1.0,0.0694672252993925,1.0,0.0
42.90681457519531,6.674173831939697,-1.6277927160263062,-0.0,-0.0,-1.0,0.0494339500211786,1.0,0.0
43.701290130615234,5.75423002243042,-1.5663257837295532,-0.0,-0.0,-1.0,0.1160434146699072,1.0,0.0
43.27338409423828,5.993922710418701,-1.5614959001541138,-0.0,-0.0,-1.0,0.0210124677575114,1.0,0.0
43.02427673339844,6.246561527252197,-1.5759016275405884,-0.0,-0.0,-1.0,0.0177318221704764,1.0,0.0
43.19711685180664,5.789281368255615,-1.5259305238723757,-0.0,-0.0,-1.0,0.0217636683328349,2.0,0.0
42.89102935791016,6.1015191078186035,-1.543603777885437,-0.0,-0.0,-1.0,0.0189592730527787,1.0,0.0
44.23469543457031,7.686233043670654,-1.5085569620132446,-0.0,-0.0,-1.0,0.0737490047116384,1.0,0.0
44.00688171386719,7.926895618438721,-1.5361450910568235,-0.0,-0.0,-1.0,0.1145537214330037,2.0,0.0
44.10051727294922,7.647294521331787,-1.4960426092147827,-0.0,-0.0,-1.0,0.0882717799807414,1.0,0.0
43.916168212890625,7.778038501739502,-1.5082911252975464,-0.0,-0.0,-1.0,0.1653485287289246,1.0,0.0
43.59442138671875,8.063739776611328,-1.5398882627487185,-0.0,-0.0,-1.0,0.0610870310772071,1.0,0.0
43.310813903808594,8.090961456298828,-1.5321837663650513,-0.0,-0.0,-1.0,0.0509352741709641,1.0,0.0
43.33803939819336,7.702377796173096,-1.470171570777893,-0.0,-0.0,-1.0,0.0561445277453165,1.0,0.0
42.99886703491211,8.031843185424805,-1.50961172580719,-0.0,-0.0,-1.0,0.0269756720765578,1.0,0.0
43.55451965332031,5.9240312576293945,-1.6410466432571411,-0.0,-0.0,-1.0,0.0206899299230542,1.0,0.0
43.49199676513672,5.668457984924316,-1.6014777421951294,-0.0,-0.0,-1.0,0.032305027341735,1.0,0.0
43.180328369140625,6.008048057556152,-1.6099504232406616,-0.0,-0.0,-1.0,0.0198156418794518,1.0,0.0
42.95581817626953,6.129325866699219,-1.6010433435440063,-0.0,-0.0,-1.0,0.0235009819202328,2.0,0.0
44.087703704833984,8.077142715454102,-1.5025904178619385,-0.0,-0.0,-1.0,0.1279343589755127,1.0,0.0
43.99595642089844,7.791869163513184,-1.4598684310913086,-0.0,-0.0,-1.0,0.206714654005016,2.0,0.0
45.10569381713867,6.923239231109619,-1.6536953449249268,-0.0,-0.0,-1.0,0.0108267119900792,1.0,0.0
44.78181457519531,7.158276081085205,-1.6478264331817627,-0.0,-0.0,-1.0,0.0282183923081271,1.0,0.0
44.5832405090332,7.527235507965088,-1.6703310012817385,-0.0,-0.0,-1.0,0.0231256520233388,1.0,0.0
45.157989501953125,6.093075275421143,-1.565293550491333,-0.0,-0.0,-1.0,0.1242701564122597,1.0,0.0
43.89906311035156,7.605677127838135,-1.6111221313476562,-0.0,-0.0,-1.0,0.0429385510962655,1.0,0.0
43.78242111206055,7.889743328094482,-1.632739782333374,-0.0,-0.0,-1.0,0.0936471003813217,2.0,0.0
43.23591232299805,7.701379299163818,-1.5565612316131592,-0.0,-0.0,-1.0,0.0591754026626279,1.0,0.0
44.175445556640625,5.931485652923584,-1.4468994140625,-0.5049890568487502,0.8519443635526576,-0.1384805180300356,0.0887550760009677,4.0,0.0
44.125282287597656,5.685702800750732,-1.4141218662261963,-0.0,-0.0,-1.0,0.1306979147710298,1.0,0.0
44.02825927734375,6.666550636291504,-1.6534979343414309,-0.0,-0.0,-1.0,0.046093486458275,2.0,0.0
43.91118621826172,6.006009101867676,-1.5791172981262207,0.0276439101680658,0.8885750426247525,-0.4578975953802764,0.0795970091100958,4.0,0.0
43.940338134765625,6.341241836547852,-1.613013505935669,-0.0,-0.0,-1.0,0.0582072811308386,2.0,0.0
43.79396438598633,6.761499404907227,-1.6330883502960205,-0.0,-0.0,-1.0,0.060509964370983,1.0,0.0
43.49022674560547,7.149425506591797,-1.6312952041625977,-0.0,-0.0,-1.0,0.0279769294415341,2.0,0.0
43.37132263183594,7.416200637817383,-1.641528606414795,-0.0,-0.0,-1.0,0.0162667017691649,2.0,0.0
43.16509246826172,7.797141075134277,-1.6520538330078125,-0.0,-0.0,-1.0,0.0340764709820278,2.0,0.0
43.1158561706543,7.961962699890137,-1.6616520881652832,-0.0,-0.0,-1.0,0.0428253934935866,2.0,0.0
43.869285583496094,5.804747581481934,-1.5558323860168457,-0.0,-0.0,-1.0,0.0950831562898094,2.0,0.0
43.044944763183594,7.521115303039551,-1.6113107204437256,-0.4660570167724127,0.0630694636415143,-0.8825038809394382,0.0145753054690545,3.0,0.0
42.77107238769531,8.000761032104492,-1.6233832836151123,-0.0,-0.0,-1.0,0.0308569024251022,1.0,0.0
42.994503021240234,6.658656120300293,-1.5246398448944092,0.0565863820855946,-0.6642864049649073,-0.7453331829063176,0.0616011576588227,4.0,0.0
45.02320861816406,5.926844596862793,-1.4033135175704956,-0.0,-0.0,-1.0,0.1773178236021433,1.0,0.0
43.82371139526367,5.942641735076904,-1.5762841701507568,-0.0,-0.0,-1.0,0.0525293609283741,2.0,0.0
43.80595397949219,6.303003311157227,-1.6016943454742432,-0.0,-0.0,-1.0,0.068100840254446,1.0,0.0
43.740135192871094,5.975358486175537,-1.567131757736206,0.1216760148995797,0.3145112510000262,-0.941423188790544,0.0478715656799251,3.0,0.0
43.61376190185547,6.620460510253906,-1.600830078125,-0.0,-0.0,-1.0,0.0261263115994842,1.0,0.0
43.38047790527344,7.091200828552246,-1.6092679500579834,-0.0,-0.0,-1.0,0.0273566482542072,2.0,0.0
