x,y,z,nx,ny,nz,curvature,density,label
52.77227020263672,11.191398620605469,-2.045804262161255,0.264854916242645,-0.6951032264217604,-0.6683437573286372,0.0232093289167518,3.0,0.0
53.00530242919922,11.332698822021484,-2.0933408737182617,-0.5514737711785408,-0.744917047112315,-0.3754667397035156,0.0256564822515035,3.0,0.0
52.87488555908203,11.540412902832031,-2.0735392570495605,-0.0,-0.0,-1.0,0.0276610986175785,1.0,0.0
53.173831939697266,11.708662033081056,-2.135065793991089,-0.0,-0.0,-1.0,0.037078282264868,2.0,0.0
53.45579528808594,12.052926063537598,-2.198934316635132,-0.0,-0.0,-1.0,0.1344701072138039,1.0,0.0
52.73779296875,12.55532932281494,-2.076627731323242,-0.0,-0.0,-1.0,0.0605339904001363,1.0,0.0
53.51702117919922,12.464672088623049,-2.22385835647583,-0.0,-0.0,-1.0,0.0476195323764037,2.0,0.0
53.74396514892578,12.84856414794922,-2.2811059951782227,-0.0,-0.0,-1.0,0.0860037671877345,2.0,0.0
53.79558563232422,12.79738426208496,-2.289142608642578,-0.0,-0.0,-1.0,0.0830619535749176,1.0,0.0
52.84126281738281,11.169557571411133,-2.0377297401428223,-0.0,-0.0,-1.0,0.0220208854643104,2.0,0.0
52.98025131225586,11.339149475097656,-2.0693445205688477,-0.506711711479574,-0.7590721048144237,-0.4087209086186337,0.0293085206970627,4.0,0.0
53.08119201660156,11.624500274658203,-2.0965323448181152,-0.0,-0.0,-1.0,0.0244096808544103,1.0,0.0
53.432804107666016,11.793157577514648,-2.171847343444824,-0.0,-0.0,-1.0,0.1016694003452999,1.0,0.0
53.465614318847656,12.148361206054688,-2.188873291015625,-0.0,-0.0,-1.0,0.1470088139182769,1.0,0.0
53.20884323120117,12.403531074523926,-2.144866943359375,-0.0,-0.0,-1.0,0.0812198163593747,2.0,0.0
53.617401123046875,12.640045166015623,-2.23582124710083,-0.0,-0.0,-1.0,0.034590364834674,1.0,0.0
53.7010498046875,12.918113708496094,-2.262988567352295,-0.0,-0.0,-1.0,0.0848291595198766,1.0,0.0
53.20054626464844,10.943851470947266,-1.9109954833984375,-0.0,-0.0,-1.0,0.1633114609265087,2.0,0.0
53.24016571044922,11.11872100830078,-1.927039384841919,-0.0,-0.0,-1.0,0.1507597307272587,1.0,0.0
53.50237274169922,11.322704315185549,-1.978771448135376,-0.0,-0.0,-1.0,0.1629512392009356,2.0,0.0
53.57976913452149,11.673351287841797,-2.0048532485961914,-0.0,-0.0,-1.0,0.0748418636075363,1.0,0.0
53.86146926879883,11.87895679473877,-2.06783676147461,-0.0,-0.0,-1.0,0.0428838195935237,1.0,0.0
53.909305572509766,12.088619232177734,-2.0829622745513916,0.3226030367097242,-0.5733584957664358,-0.7531183944361699,0.0686053135621845,3.0,0.0
53.98174285888672,12.355958938598633,-2.1052098274230957,-0.0,-0.0,-1.0,0.0687244985487488,1.0,0.0
54.37310028076172,12.489031791687012,-2.189929723739624,-0.0,-0.0,-1.0,0.1093958507327487,1.0,0.0
54.51224136352539,12.863003730773926,-2.231316566467285,-0.0,-0.0,-1.0,0.0903768675261179,2.0,0.0
54.54750061035156,13.09217929840088,-2.247073173522949,-0.0,-0.0,-1.0,0.0980546498396721,1.0,0.0
52.71531677246094,11.656279563903809,-2.1002931594848633,-0.0,-0.0,-1.0,0.0241809552605727,1.0,0.0
53.05256271362305,11.723613739013672,-2.177980661392212,-0.0,-0.0,-1.0,0.0329761701362377,1.0,0.0
53.259742736816406,11.893444061279297,-2.226309299468994,-0.0,-0.0,-1.0,0.0675162549638399,1.0,0.0
53.093360900878906,12.282742500305176,-2.1903393268585205,-0.0,-0.0,-1.0,0.0716148424157505,1.0,0.0
53.25819778442383,12.066506385803224,-2.2269351482391357,-0.0,-0.0,-1.0,0.1405604268780848,1.0,0.0
53.100547790527344,12.449834823608398,-2.193732976913452,-0.0,-0.0,-1.0,0.0784042202025283,2.0,0.0
53.386260986328125,12.691025733947754,-2.2638392448425293,-0.0,-0.0,-1.0,0.0306858042649082,1.0,0.0
53.50179290771485,12.97852897644043,-2.2961814403533936,-0.0,-0.0,-1.0,0.0331386865075389,1.0,0.0
53.68658447265625,11.053808212280272,-1.7147576808929443,-0.0,-0.0,-1.0,0.0670956278073877,1.0,0.0
53.66792297363281,11.21067237854004,-1.712160348892212,-0.0,-0.0,-1.0,0.1181904083214364,2.0,0.0
55.08803176879883,11.82719612121582,-1.9984052181243896,-0.0,-0.0,-1.0,0.0305091905622648,2.0,0.0
54.38461685180664,12.314184188842772,-1.8689110279083252,0.5375974865498325,0.3074145537910257,-0.785165737008924,0.2087348386587561,3.0,0.0
53.9952392578125,13.027324676513672,-1.809183120727539,-0.0,-0.0,-1.0,0.1052122835325762,1.0,0.0
54.98649597167969,11.677234649658203,-2.1372718811035156,-0.0,-0.0,-1.0,0.0359762400439283,1.0,0.0
52.709564208984375,12.184139251708984,-2.1775925159454346,-0.0,-0.0,-1.0,0.0686821238449453,1.0,0.0
52.781272888183594,12.586502075195312,-2.1972599029541016,-0.0,-0.0,-1.0,0.0634793367624789,2.0,0.0
52.97151184082031,12.968901634216309,-2.2497870922088623,-0.0,-0.0,-1.0,0.0230839225482633,1.0,0.0
53.33668899536133,11.087562561035156,-1.777329444885254,-0.0,-0.0,-1.0,0.1947173241467182,2.0,0.0
53.431034088134766,10.85218620300293,-1.797896385192871,-0.0585038024976315,0.216213422915505,-0.9745917405993544,0.1158252538487908,3.0,0.0
53.581809997558594,11.287452697753906,-1.8301432132720947,-0.0,-0.0,-1.0,0.0607153474460373,2.0,0.0
54.13460159301758,11.36677360534668,-1.9496307373046875,-0.0,-0.0,-1.0,0.0238299195341991,1.0,0.0
54.362117767333984,11.503835678100586,-1.9997804164886477,-0.0,-0.0,-1.0,0.0073613866037292,1.0,0.0
53.793087005615234,11.593313217163086,-1.8771140575408936,-0.0,-0.0,-1.0,0.1445820537544924,2.0,0.0
54.43961334228515,11.686928749084473,-2.0182993412017822,-0.4171189913210608,-0.1794971954350038,-0.8909503375106095,0.0122224749494331,3.0,0.0
53.92794418334961,12.119588851928713,-1.9117169380187988,-0.0,-0.0,-1.0,0.2053785299861336,1.0,0.0
54.408504486083984,12.28054904937744,-2.0193305015563965,-0.0,-0.0,-1.0,0.229153214982111,1.0,0.0
54.65060806274414,12.394171714782717,-2.0744996070861816,-0.0,-0.0,-1.0,0.0870836499674311,1.0,0.0
54.71577072143555,12.539339065551758,-2.091717004776001,-0.0,-0.0,-1.0,0.0806282748528704,2.0,0.0
52.87876892089844,11.307077407836914,-2.0627329349517822,-0.0,-0.0,-1.0,0.0303128555696961,2.0,0.0
52.948020935058594,11.401281356811523,-2.0795092582702637,-0.0,-0.0,-1.0,0.0201309482932182,2.0,0.0
53.18788146972656,11.737037658691406,-2.1391003131866455,0.3254548873856848,0.2002091700027431,-0.9241187177649762,0.03821764576757,4.0,0.0
53.37692642211914,11.854701042175291,-2.187894344329834,-0.0,-0.0,-1.0,0.1125046145735073,2.0,0.0
53.28086853027344,12.136995315551758,-2.163083553314209,-0.0,-0.0,-1.0,0.1221499155234287,1.0,0.0
53.38750457763672,12.094104766845703,-2.190946578979492,0.8374857695153439,0.4839108932472781,-0.2538657780322381,0.1905594201523596,4.0,0.0
53.49109649658203,12.508148193359377,-2.2205874919891357,-0.0,-0.0,-1.0,0.0486895283571509,1.0,0.0
53.61628341674805,12.905681610107422,-2.258748769760132,0.2516461628226628,0.4528392542766807,-0.8553425153251588,0.0742726524302238,3.0,0.0
53.53201675415039,10.98881721496582,-1.6988489627838137,-0.0,-0.0,-1.0,0.0783963325730371,2.0,0.0
55.12812805175781,10.929181098937988,-2.0534842014312744,-0.0,-0.0,-1.0,0.0196429911686377,1.0,0.0
52.80890274047851,11.20570468902588,-2.046166181564331,-0.129780304675483,-0.5882101087451322,-0.7982267475400575,0.0232093289167518,4.0,0.0
53.56965637207031,11.27259635925293,-1.707528829574585,0.7457058178046619,-0.3200656242576528,-0.5843636106576444,0.1477739565660477,3.0,0.0
53.79634094238281,11.431581497192385,-1.7587549686431885,-0.0,-0.0,-1.0,0.1559326511135456,1.0,0.0
55.13321685791016,11.204819679260254,-2.056519031524658,-0.0,-0.0,-1.0,0.020615688643239,1.0,0.0
52.96623229980469,11.608209609985352,-2.082456350326538,-0.0,-0.0,-1.0,0.0266705176981857,2.0,0.0
54.85845184326172,11.606330871582031,-1.998807668685913,-0.0,-0.0,-1.0,0.0310957720382712,1.0,0.0
54.99712371826172,11.70671272277832,-2.0314087867736816,-0.0,-0.0,-1.0,0.0359762400439283,1.0,0.0
54.0103759765625,12.138330459594728,-1.814378023147583,-0.0,-0.0,-1.0,0.1571712344981745,1.0,0.0
54.39776611328125,12.270089149475098,-1.904491901397705,-0.0,-0.0,-1.0,0.272843832728119,1.0,0.0
53.13090515136719,12.333976745605469,-2.1246304512023926,-0.0,-0.0,-1.0,0.0712211246621975,1.0,0.0
54.39265441894531,12.352765083312988,-1.9048821926116943,-0.0,-0.0,-1.0,0.1999032417690551,2.0,0.0
54.71593475341797,12.538190841674805,-1.9824962615966797,-0.0,-0.0,-1.0,0.1508782409658289,1.0,0.0
54.351661682128906,12.545191764831545,-2.222595691680908,-0.0,-0.0,-1.0,0.095734009924551,1.0,0.0
54.43928146362305,12.644289016723633,-2.2463507652282715,-0.5196350543191401,-0.6262065007671826,0.5812442074719234,0.1508174249992574,3.0,0.0
52.760929107666016,13.004302978515623,-2.257904291152954,-0.0,-0.0,-1.0,0.0285811566151611,2.0,0.0
54.39886474609375,12.805130004882812,-2.2366766929626465,-0.0,-0.0,-1.0,0.0710197449150769,2.0,0.0
54.59781265258789,13.004595756530762,-2.2921342849731445,-0.0,-0.0,-1.0,0.1351789404610991,2.0,0.0
53.06005859375,10.778190612792969,-1.9085805416107176,-0.0,-0.0,-1.0,0.0620363582313862,2.0,0.0
53.124961853027344,10.87520694732666,-1.922252178192139,-0.0,-0.0,-1.0,0.1583221114466143,1.0,0.0
53.23835372924805,11.050739288330078,-1.946641206741333,-0.0,-0.0,-1.0,0.141203946637252,2.0,0.0
53.45882415771485,11.36313247680664,-1.9967339038848877,-0.0,-0.0,-1.0,0.1280331296873081,2.0,0.0
53.5963020324707,11.457474708557127,-2.0305447578430176,-0.5061357091605763,-0.0051508909814966,-0.8624384686658039,0.0632507575151961,3.0,0.0
53.792449951171875,11.818324089050291,-2.0770103931427,-0.0,-0.0,-1.0,0.0699150961038518,1.0,0.0
53.96673202514648,12.16344165802002,-2.1203832626342773,-0.0,-0.0,-1.0,0.1025621968900141,2.0,0.0
54.19257736206055,12.335569381713867,-2.179771900177002,-0.0,-0.0,-1.0,0.0438647411046797,1.0,0.0
54.26097869873047,12.390499114990234,-2.1979551315307617,-0.0,-0.0,-1.0,0.09099216100438,1.0,0.0
53.953269958496094,12.96572208404541,-2.118798017501831,-0.0,-0.0,-1.0,0.1493470155567517,1.0,0.0
53.35470962524414,10.86822509765625,-1.8804913759231567,-0.2769780730318064,-0.9006178338674835,-0.3349188922402396,0.1344511629119136,3.0,0.0
53.321624755859375,11.073878288269045,-1.864920735359192,-0.0,-0.0,-1.0,0.2362689833070189,2.0,0.0
53.46521759033203,11.244247436523438,-1.898011326789856,0.4459156769890408,-0.3361753819471239,-0.8295452498737551,0.1678591134391238,3.0,0.0
53.65692138671875,11.374095916748049,-1.9459973573684692,-0.0,-0.0,-1.0,0.1371907235027612,2.0,0.0
53.88345718383789,11.565908432006836,-2.0027575492858887,-0.0,-0.0,-1.0,0.0604625731432217,1.0,0.0
52.88225173950195,11.822351455688477,-2.166508197784424,-0.0,-0.0,-1.0,0.0268089652160466,1.0,0.0
54.08753967285156,11.82525634765625,-2.0538291931152344,-0.0,-0.0,-1.0,0.020573877145093,1.0,0.0
54.35135269165039,11.816492080688477,-2.125755786895752,-0.0,-0.0,-1.0,0.0125886038493346,1.0,0.0
52.966331481933594,12.228349685668944,-2.1795806884765625,-0.0,-0.0,-1.0,0.075742236324703,1.0,0.0
53.018707275390625,12.353034973144531,-2.192594051361084,-0.0,-0.0,-1.0,0.0820394824196268,1.0,0.0
54.397918701171875,12.27288818359375,-2.134099006652832,-0.0,-0.0,-1.0,0.2093426927768474,2.0,0.0
52.7939338684082,12.579126358032228,-2.117705821990967,-0.0,-0.0,-1.0,0.0694141586391899,1.0,0.0
53.18408966064453,12.683903694152832,-2.237520694732666,-0.0,-0.0,-1.0,0.0280281379852209,1.0,0.0
54.57539367675781,12.628141403198242,-2.1823267936706543,-0.0,-0.0,-1.0,0.0689513892146951,1.0,0.0
54.63872146606445,12.69139289855957,-2.199958324432373,-0.0,-0.0,-1.0,0.05096482458556,1.0,0.0
53.219913482666016,13.08929443359375,-2.244144916534424,-0.0,-0.0,-1.0,0.0130901565095357,1.0,0.0
54.76679229736328,13.048404693603516,-2.237605094909668,-0.0,-0.0,-1.0,0.0799282694390241,1.0,0.0
52.74229431152344,10.733450889587402,-1.9479148387908936,-0.0,-0.0,-1.0,0.0406079775160656,1.0,0.0
52.86578369140625,10.722536087036133,-1.9855077266693115,-0.0,-0.0,-1.0,0.057200052423581,1.0,0.0
53.039066314697266,11.09333038330078,-2.014148235321045,-0.0,-0.0,-1.0,0.0560847019422808,1.0,0.0
53.20165252685547,11.26342487335205,-2.0538148880004883,-0.0,-0.0,-1.0,0.0495780832410683,2.0,0.0
54.351104736328125,11.18392562866211,-1.944727897644043,-0.0,-0.0,-1.0,0.0140071671990662,1.0,0.0
54.4999885559082,11.211427688598633,-1.98468279838562,-0.0,-0.0,-1.0,0.0109199765856502,1.0,0.0
53.15770721435547,11.392152786254885,-2.033698320388794,-0.0,-0.0,-1.0,0.0505845994514714,1.0,0.0
53.35609436035156,11.511329650878906,-2.0888407230377197,-0.0,-0.0,-1.0,0.0291307112419805,1.0,0.0
54.45872497558594,11.385162353515623,-1.968569040298462,-0.0,-0.0,-1.0,0.0079559388012148,1.0,0.0
54.987937927246094,11.459263801574709,-2.1130001544952393,-0.0,-0.0,-1.0,0.0247957107314153,1.0,0.0
53.49749374389648,11.896048545837402,-2.116236925125122,-0.0667849351198563,-0.9686263124197864,-0.2393801147319529,0.2100255290336551,3.0,0.0
53.63092803955078,11.883447647094728,-2.1582939624786377,-0.0,-0.0,-1.0,0.1331101270819757,1.0,0.0
54.954708099365234,11.82831573486328,-2.0966851711273193,-0.0,-0.0,-1.0,0.0345967930926066,1.0,0.0
53.78602981567383,12.27001953125,-2.194392204284668,-0.0,-0.0,-1.0,0.0540974478171958,1.0,0.0
54.76746368408203,12.380197525024414,-2.0374667644500732,-0.0,-0.0,-1.0,0.0718364617196453,1.0,0.0
53.965606689453125,12.62440013885498,-2.2430052757263184,-0.0,-0.0,-1.0,0.0773095764682599,1.0,0.0
54.04095077514648,12.709836959838867,-2.265341281890869,-0.0,-0.0,-1.0,0.1360307518164242,1.0,0.0
54.76140975952149,12.612208366394045,-2.0343873500823975,-0.0,-0.0,-1.0,0.2112114768706346,1.0,0.0
54.909305572509766,12.557758331298828,-2.076613664627075,-0.0,-0.0,-1.0,0.0926382268339157,1.0,0.0
53.93870544433594,13.0339937210083,-2.228283643722534,-0.0,-0.0,-1.0,0.1237195985208015,1.0,0.0
55.12356185913086,13.124957084655762,-2.1383683681488037,-0.0,-0.0,-1.0,0.0636119550863242,1.0,0.0
53.47517776489258,11.11601448059082,-1.7092437744140625,-0.0,-0.0,-1.0,0.0547456356801184,2.0,0.0
53.620887756347656,11.29167938232422,-1.7422256469726562,-0.1975130262504106,-0.8765426077575805,-0.4389324107957222,0.1195410759299087,3.0,0.0
53.730560302734375,11.330438613891602,-1.7707836627960205,-0.0,-0.0,-1.0,0.1492772845227699,1.0,0.0
53.94040298461914,12.078911781311035,-1.8094990253448489,-0.0,-0.0,-1.0,0.1468383685139113,2.0,0.0
53.940921783447266,12.12008285522461,-1.8089039325714111,-0.2703018938191271,0.0173199361193784,-0.9626198138468866,0.1620717181955924,3.0,0.0
54.43027114868164,12.33908462524414,-1.9428465366363523,-0.0,-0.0,-1.0,0.2298136057206061,1.0,0.0
54.55781555175781,12.646696090698242,-1.9765164852142336,-0.0,-0.0,-1.0,0.2219955069864259,1.0,0.0
54.15778732299805,13.025473594665527,-1.8620593547821045,-0.0,-0.0,-1.0,0.0927664760661937,1.0,0.0
53.46250915527344,11.163386344909668,-1.76507830619812,-0.0,-0.0,-1.0,0.1358250076203033,1.0,0.0
53.66387939453125,11.325916290283203,-1.814802646636963,-0.0,-0.0,-1.0,0.1501900477376739,1.0,0.0
54.26010513305664,11.272626876831056,-1.9975030422210691,-0.0,-0.0,-1.0,0.0138173557386332,1.0,0.0
53.74937438964844,11.38567352294922,-1.8369431495666504,-0.0,-0.0,-1.0,0.1299689439784114,1.0,0.0
54.2598762512207,11.44646167755127,-1.9881436824798584,-0.0,-0.0,-1.0,0.0102424927760788,1.0,0.0
54.48497772216797,11.618850708007812,-2.048527240753174,-0.0,-0.0,-1.0,0.0111200206904621,1.0,0.0
54.94601821899414,11.628711700439451,-2.1899359226226807,-0.0,-0.0,-1.0,0.0355087899864846,1.0,0.0
55.010215759277344,11.93742561340332,-2.1980700492858887,-0.0,-0.0,-1.0,0.0335729155616874,1.0,0.0
53.95204162597656,12.186578750610352,-1.859697341918945,-0.0,-0.0,-1.0,0.1523468066908316,2.0,0.0
54.45216751098633,12.36208724975586,-2.0093894004821777,-0.0,-0.0,-1.0,0.1943580460922687,1.0,0.0
55.05837631225586,12.28880500793457,-2.201970100402832,-0.0,-0.0,-1.0,0.0352632081972294,1.0,0.0
54.81185531616211,12.577157020568848,-2.116729497909546,-0.0,-0.0,-1.0,0.1039358888750512,1.0,0.0
54.98849105834961,12.619857788085938,-2.171687364578247,-0.0,-0.0,-1.0,0.0707316793281136,1.0,0.0
54.17049789428711,13.059080123901367,-1.903348445892334,-0.0,-0.0,-1.0,0.0883922035924442,1.0,0.0
55.1934928894043,13.117757797241213,-2.229483842849731,-0.0,-0.0,-1.0,0.0573111207096024,1.0,0.0
54.05198669433594,13.01841926574707,-1.86643648147583,-0.0,-0.0,-1.0,0.0985272517501821,2.0,0.0
53.63491439819336,11.274466514587402,-1.7141635417938232,-0.3449575870730187,-0.9026137296928588,-0.2574737231072467,0.1428388614598127,5.0,0.0
53.44319152832031,11.127799987792969,-1.705582857131958,-0.0,-0.0,-1.0,0.1338849529280258,2.0,0.0
52.740013122558594,12.960565567016602,-2.317963123321533,-0.0,-0.0,-1.0,0.0260950267327046,1.0,0.0
53.493438720703125,11.80667781829834,-1.797663331031799,-0.0,-0.0,-1.0,0.1810824506321401,1.0,0.0
53.284969329833984,11.445055961608888,-1.755829930305481,-0.0,-0.0,-1.0,0.1690238330021808,1.0,0.0
53.68283462524414,11.26881217956543,-1.7798024415969849,-0.0,-0.0,-1.0,0.0999388054179835,1.0,0.0
54.58967208862305,13.100207328796388,-1.9779242277145384,-0.0,-0.0,-1.0,0.1052743787547796,1.0,0.0
54.389949798583984,12.846545219421388,-1.9439934492111208,-0.0,-0.0,-1.0,0.2056218226724383,1.0,0.0
54.86098098754883,12.135146141052246,-1.9403079748153689,-0.0,-0.0,-1.0,0.0297658771187982,1.0,0.0
54.45582962036133,10.673076629638672,-1.8098942041397097,-0.0,-0.0,-1.0,0.0249493689791636,1.0,0.0
54.91641616821289,11.022002220153809,-1.8734530210494995,-0.0,-0.0,-1.0,0.0156397338205799,1.0,0.0
55.12160873413086,11.14428997039795,-1.899603247642517,-0.0,-0.0,-1.0,0.0197720598793022,1.0,0.0
55.09489059448242,10.841401100158691,-1.8776077032089231,-0.0,-0.0,-1.0,0.0197479990832165,1.0,0.0
52.74029922485352,11.31661319732666,-1.9906986951828003,-0.0,-0.0,-1.0,0.0201306000320699,2.0,0.0
52.7230110168457,11.086570739746094,-1.9788435697555544,-0.0,-0.0,-1.0,0.0367460713288705,2.0,0.0
53.03364944458008,12.595563888549805,-2.0766868591308594,-0.0,-0.0,-1.0,0.0686731218799223,1.0,0.0
53.52097702026367,12.440895080566406,-2.118051052093506,-0.0,-0.0,-1.0,0.0384728810803279,1.0,0.0
54.39868927001953,12.78506088256836,-2.220451831817627,-0.3171310892056607,-0.594562667480312,-0.7388660952418425,0.0795094844198526,3.0,0.0
54.4373779296875,13.025447845458984,-2.2350964546203613,-0.0,-0.0,-1.0,0.1264259188520323,1.0,0.0
52.988037109375,11.23464012145996,-2.067244052886963,-0.0,-0.0,-1.0,0.0229459905891307,1.0,0.0
53.01546478271485,12.328889846801758,-2.1360979080200195,-0.0,-0.0,-1.0,0.0835021946699348,2.0,0.0
52.8977165222168,12.423251152038574,-2.1290998458862305,-0.0,-0.0,-1.0,0.0992699488703581,1.0,0.0
53.684295654296875,12.269262313842772,-2.2053756713867188,-0.0,-0.0,-1.0,0.0482950990757389,1.0,0.0
53.755149841308594,12.967565536499023,-2.256688117980957,-0.0,-0.0,-1.0,0.081183234195302,2.0,0.0
54.03913879394531,12.782147407531738,-2.2759294509887695,-0.0,-0.0,-1.0,0.1445746250502621,1.0,0.0
52.81780242919922,12.31439971923828,-2.19679594039917,-0.0,-0.0,-1.0,0.0887565011237122,1.0,0.0
52.810420989990234,12.603363037109377,-2.227248191833496,-0.0,-0.0,-1.0,0.0749640619273089,2.0,0.0
52.799537658691406,12.985719680786133,-2.268587112426758,-0.0,-0.0,-1.0,0.0285811566151611,2.0,0.0
53.80525207519531,11.043709754943848,-1.7046561241149902,-0.0,-0.0,-1.0,0.0504135870602753,1.0,0.0
55.17443084716797,10.724004745483398,-1.840845823287964,-0.0,-0.0,-1.0,0.0197479990832165,1.0,0.0
53.65771484375,11.25655746459961,-1.7000210285186768,-0.7152297349756229,-0.1784976530382613,-0.6757107473368562,0.1432637350197569,5.0,0.0
53.68061828613281,10.952540397644045,-1.7013150453567505,-0.0,-0.0,-1.0,0.0549684105485734,1.0,0.0
53.58932113647461,11.162924766540527,-1.699642777442932,-0.0,-0.0,-1.0,0.0995419130651384,2.0,0.0
52.904144287109375,11.303082466125488,-2.0494256019592285,-0.0,-0.0,-1.0,0.0303128555696961,2.0,0.0
53.10542678833008,11.47651195526123,-2.088075637817383,-0.0,-0.0,-1.0,0.0184595322011678,2.0,0.0
53.68790435791016,12.536087036132812,-2.2352142333984375,-0.0,-0.0,-1.0,0.0370141181570612,1.0,0.0
53.778907775878906,12.937179565429688,-2.273937702178955,-0.0,-0.0,-1.0,0.0953201813492268,2.0,0.0
52.903541564941406,10.666555404663086,-2.0139570236206055,-0.0,-0.0,-1.0,0.0585501271067314,1.0,0.0
52.73014068603515,11.27480411529541,-1.995039701461792,-0.0,-0.0,-1.0,0.0205521726579269,2.0,0.0
52.972068786621094,11.406695365905762,-2.03834867477417,-0.0,-0.0,-1.0,0.0284853216207397,2.0,0.0
52.81939697265625,11.58319091796875,-2.0258219242095947,-0.0,-0.0,-1.0,0.0271984553047707,2.0,0.0
53.124229431152344,11.763413429260254,-2.081449270248413,-0.0,-0.0,-1.0,0.0543032585081477,1.0,0.0
53.454734802246094,11.872817993164062,-2.136822462081909,-0.0,-0.0,-1.0,0.1879463936479581,2.0,0.0
53.186466217041016,12.386392593383787,-2.128239631652832,-0.0,-0.0,-1.0,0.0650241001545616,2.0,0.0
53.6187744140625,12.83598518371582,-2.220407247543335,-0.0,-0.0,-1.0,0.0894129190681624,1.0,0.0
53.58962631225586,13.10963535308838,-2.2338852882385254,-0.0,-0.0,-1.0,0.0328920139416585,1.0,0.0
53.54618453979492,10.977145195007324,-1.6984491348266602,-0.0,-0.0,-1.0,0.0771291039470649,2.0,0.0
53.51880645751953,11.233250617980955,-1.7075834274291992,-0.0,-0.0,-1.0,0.1569270324321343,2.0,0.0
53.84746551513672,12.171496391296388,-1.8023736476898191,-0.0,-0.0,-1.0,0.1386280553719591,1.0,0.0
54.59735107421875,12.68983554840088,-1.935256004333496,-0.0,-0.0,-1.0,0.2120892153102777,2.0,0.0
53.731666564941406,11.12363624572754,-1.7051167488098145,-0.0,-0.0,-1.0,0.0701747636725328,1.0,0.0
54.371429443359375,12.34701156616211,-1.8650875091552737,-0.4517286165574471,-0.6113248420092405,-0.6497870378250648,0.1810507855398059,4.0,0.0
54.0379638671875,13.031625747680664,-1.859846353530884,-0.0,-0.0,-1.0,0.1002320325932511,2.0,0.0
52.78248596191406,11.381434440612791,-2.020028591156006,-0.0,-0.0,-1.0,0.0205600323674992,1.0,0.0
53.06360626220703,11.472712516784668,-2.0735507011413574,-0.0,-0.0,-1.0,0.017429464210411,2.0,0.0
52.923973083496094,11.652992248535156,-2.057100772857666,-0.0,-0.0,-1.0,0.0264728174919984,1.0,0.0
53.42668914794922,11.879868507385254,-2.1561989784240723,-0.0,-0.0,-1.0,0.1799111348413618,2.0,0.0
53.37899398803711,12.121175765991213,-2.1595726013183594,0.8374857695153439,0.4839108932472781,-0.2538657780322381,0.1813943876708108,4.0,0.0
53.54216766357422,12.26454257965088,-2.1953415870666504,-0.0,-0.0,-1.0,0.0517467492893547,1.0,0.0
53.36165618896485,12.507261276245115,-2.1762185096740723,-0.0,-0.0,-1.0,0.0379490239812937,1.0,0.0
53.54091262817383,12.48995876312256,-2.2067465782165527,-0.0,-0.0,-1.0,0.0462628655752096,2.0,0.0
53.63037872314453,12.922321319580078,-2.2457923889160156,0.2516461628226628,0.4528392542766807,-0.8553425153251588,0.0789360714258809,3.0,0.0
53.90089416503906,10.69944190979004,-1.9126131534576416,-0.0,-0.0,-1.0,0.1172322014878203,1.0,0.0
53.36626052856445,11.004737854003906,-1.8358774185180664,-0.0,-0.0,-1.0,0.2007065736536884,2.0,0.0
53.74234771728515,10.78406047821045,-1.889436960220337,-0.0,-0.0,-1.0,0.1747119335434087,1.0,0.0
53.43505096435547,11.22556495666504,-1.8593015670776367,0.5129711781822315,0.8515362836246126,-0.1083814007342441,0.193450882814519,3.0,0.0
53.71159362792969,11.38483715057373,-1.9155352115631104,-0.0,-0.0,-1.0,0.1112301799161206,1.0,0.0
54.143409729003906,11.625649452209473,-2.003168821334839,0.0306153282902986,-0.3369684816266169,-0.941018035992897,0.0163535074719766,3.0,0.0
54.05433654785156,12.207801818847656,-2.0222277641296387,0.2232655032368503,-0.3371647520832107,-0.9145886753164308,0.1812246809305948,3.0,0.0
54.460391998291016,11.97057819366455,-2.0775210857391357,-0.0,-0.0,-1.0,0.044097062656302,2.0,0.0
54.494590759277344,11.930359840393066,-2.0809903144836426,-0.0,-0.0,-1.0,0.03175069234357,1.0,0.0
54.660888671875,12.460945129394531,-2.141723871231079,-0.0,-0.0,-1.0,0.0824529804211462,2.0,0.0
53.94922637939453,12.976056098937988,-2.0540401935577393,-0.0,-0.0,-1.0,0.0757203232310197,1.0,0.0
54.657493591308594,12.631006240844728,-2.1519174575805664,-0.0,-0.0,-1.0,0.0728666668066031,1.0,0.0
54.84013366699219,13.076703071594238,-2.2123823165893555,-0.0,-0.0,-1.0,0.0670312015436376,1.0,0.0
53.186431884765625,10.953890800476074,-1.8021981716156008,-0.0,-0.0,-1.0,0.1702744428287149,2.0,0.0
53.09572982788086,11.30533504486084,-2.0475621223449707,-0.0,-0.0,-1.0,0.0883229473045546,2.0,0.0
53.196495056152344,11.494205474853516,-2.0717649459838867,-0.0,-0.0,-1.0,0.0237544612192863,1.0,0.0
53.44377136230469,11.647236824035645,-2.124606132507324,-0.0,-0.0,-1.0,0.0772167550171274,1.0,0.0
53.04350280761719,12.236583709716797,-2.061825752258301,-0.0,-0.0,-1.0,0.0825926461297457,1.0,0.0
53.45374298095703,12.030412673950195,-2.1367950439453125,-0.0,-0.0,-1.0,0.1261736366380627,2.0,0.0
53.5325813293457,11.901693344116213,-2.148867130279541,0.4792816982228494,-0.6966221806803422,0.5338600857273249,0.2152081564675191,4.0,0.0
53.46842956542969,12.254963874816896,-2.146399974822998,-0.0,-0.0,-1.0,0.075669541754889,1.0,0.0
53.63713455200195,12.223257064819336,-2.178788185119629,-0.0,-0.0,-1.0,0.0478786474592365,2.0,0.0
53.79923248291016,12.902477264404297,-2.2338719367980957,-0.0,-0.0,-1.0,0.0953201813492268,2.0,0.0
53.85045623779297,12.662364959716797,-2.235323905944824,-0.0,-0.0,-1.0,0.0798374107767125,2.0,0.0
52.76463317871094,10.949719429016112,-1.9746602773666384,-0.0,-0.0,-1.0,0.0402273801862155,1.0,0.0
53.58602142333984,10.783419609069824,-1.8836612701416016,-0.0,-0.0,-1.0,0.1735664296276807,2.0,0.0
53.50269317626953,11.244145393371582,-1.8778252601623535,0.4079154369701848,0.5138404760877893,-0.7547005773254032,0.1509956670005919,3.0,0.0
53.97789001464844,11.51530647277832,-1.9744620323181152,-0.0,-0.0,-1.0,0.03999699114659,1.0,0.0
54.12262725830078,11.628397941589355,-2.004829168319702,-0.0,-0.0,-1.0,0.0165988769291959,2.0,0.0
54.450218200683594,11.983787536621094,-2.0769267082214355,-0.0,-0.0,-1.0,0.044097062656302,2.0,0.0
54.498008728027344,11.814013481140137,-2.0808091163635254,-0.0,-0.0,-1.0,0.0106763802356237,2.0,0.0
53.982704162597656,12.925044059753418,-2.0237581729888916,-0.0,-0.0,-1.0,0.1196668823549451,2.0,0.0
54.710594177246094,12.464670181274414,-2.141752004623413,-0.0,-0.0,-1.0,0.0807487268931506,2.0,0.0
55.15122985839844,12.146961212158203,-2.213721752166748,-0.0,-0.0,-1.0,0.0291559615285899,1.0,0.0
55.059120178222656,13.109905242919922,-2.2314724922180176,-0.0,-0.0,-1.0,0.0630350553241014,1.0,0.0
53.26203918457031,11.008668899536133,-1.8268654346466064,-0.6095786339046371,-0.7669820868661997,-0.2003805567247621,0.2156636380751969,4.0,0.0
53.37212371826172,10.84943962097168,-1.844377517700195,-0.3531716322403694,-0.8680851938709887,-0.3488522529132371,0.1439139932048713,4.0,0.0
53.331398010253906,11.13243579864502,-1.8427762985229492,-0.8434551022045433,0.0662149019034854,-0.5331032520356961,0.2301811312808888,4.0,0.0
53.65718078613281,11.431599617004396,-2.022888660430908,-0.0,-0.0,-1.0,0.084470201232839,2.0,0.0
53.68603515625,11.72729778289795,-2.037372350692749,-0.0,-0.0,-1.0,0.1042046139726432,2.0,0.0
53.959686279296875,12.29083251953125,-2.1104018688201904,0.1023585263962187,0.8726626005790327,-0.4774753581334166,0.0416729539402265,5.0,0.0
53.92132568359375,12.11317253112793,-2.096506118774414,-0.0,-0.0,-1.0,0.0755105779639565,2.0,0.0
54.478572845458984,12.78593635559082,-2.2311553955078125,-0.0,-0.0,-1.0,0.1080359366187734,1.0,0.0
54.48341369628906,12.567355155944824,-2.223428726196289,-0.0,-0.0,-1.0,0.0447151711932667,2.0,0.0
54.615570068359375,13.044058799743652,-2.268763303756714,-0.9214805289480954,0.3852377617524837,0.0496538184782884,0.1171920864155232,3.0,0.0
53.16627883911133,10.783223152160645,-1.9095001220703125,-0.0,-0.0,-1.0,0.0760979651124939,1.0,0.0
53.31460189819336,11.170793533325195,-1.9480454921722412,-0.0,-0.0,-1.0,0.2067831150829167,1.0,0.0
53.25235366821289,10.929747581481934,-1.9299430847167969,-0.0,-0.0,-1.0,0.1620618073072894,1.0,0.0
53.55152130126953,11.498546600341797,-2.0039024353027344,-0.0,-0.0,-1.0,0.0867588720716873,2.0,0.0
53.55405044555664,11.818840026855469,-2.0142621994018555,-0.0,-0.0,-1.0,0.21681643573966,2.0,0.0
54.411834716796875,12.222145080566406,-1.6973613500595093,-0.0,-0.0,-1.0,0.1273735319119868,1.0,0.0
53.99597930908203,12.039382934570312,-1.6617242097854614,-0.0,-0.0,-1.0,0.1582940892343107,1.0,0.0
53.80783462524414,11.839091300964355,-1.6934702396392822,-0.0,-0.0,-1.0,0.1874062436063586,1.0,0.0
53.616661071777344,10.892714500427246,-1.5955760478973389,-0.0,-0.0,-1.0,0.0641197164416807,1.0,0.0
53.32423400878906,11.058517456054688,-1.5939524173736572,-0.0,-0.0,-1.0,0.1168107800564619,1.0,0.0
53.43518829345703,12.36598014831543,-2.060007333755493,-0.0,-0.0,-1.0,0.051088511667523,1.0,0.0
53.07862091064453,12.324993133544922,-2.030921697616577,-0.0,-0.0,-1.0,0.0876460558444049,1.0,0.0
52.85223388671875,12.487491607666016,-2.0305709838867188,-0.0,-0.0,-1.0,0.0772122075384864,1.0,0.0
53.75360870361328,10.727245330810549,-1.926114559173584,-0.0,-0.0,-1.0,0.1747119335434087,1.0,0.0
53.498191833496094,10.821531295776367,-1.9169437885284424,-0.0,-0.0,-1.0,0.1633029401550759,1.0,0.0
53.187782287597656,10.876558303833008,-1.900160551071167,-0.0,-0.0,-1.0,0.0934965658743274,2.0,0.0
52.85820770263672,10.977712631225586,-1.8864500522613523,-0.0,-0.0,-1.0,0.0650295216942126,1.0,0.0
55.191864013671875,10.841100692749023,-1.9690970182418823,-0.0,-0.0,-1.0,0.0196429911686376,1.0,0.0
54.64542388916016,12.628889083862305,-2.09402847290039,0.2406679786510051,-0.3938727856344445,-0.8870981641219888,0.1948239550866897,4.0,0.0
53.722782135009766,11.733989715576172,-1.9381271600723269,-0.0,-0.0,-1.0,0.1141237071399334,1.0,0.0
53.373783111572266,10.93017578125,-1.835527777671814,-0.0,-0.0,-1.0,0.1831845076410458,2.0,0.0
53.28019714355469,11.216842651367188,-1.8552123308181765,-0.0,-0.0,-1.0,0.1487053134945887,2.0,0.0
53.8918342590332,12.849695205688477,-2.217710018157959,-0.0,-0.0,-1.0,0.1087414078270951,1.0,0.0
53.796165466308594,12.975870132446287,-2.2181661128997803,-0.0,-0.0,-1.0,0.0930435702282585,2.0,0.0
53.669708251953125,11.922967910766602,-2.126356363296509,-0.0,-0.0,-1.0,0.1246126958805207,2.0,0.0
53.70051956176758,12.253232955932615,-2.1537554264068604,-0.0,-0.0,-1.0,0.0416005690828568,1.0,0.0
53.42445373535156,11.631046295166016,-2.0808465480804443,-0.0,-0.0,-1.0,0.0621479715903269,1.0,0.0
53.20116424560547,12.272462844848633,-2.106069326400757,-0.0,-0.0,-1.0,0.0797576273024117,1.0,0.0
53.010276794433594,12.306695938110352,-2.0899417400360107,-0.2664264820637723,-0.64698695354566,-0.7144402085527017,0.1006073480413884,5.0,0.0
52.95710754394531,12.391281127929688,-2.0911898612976074,-0.0,-0.0,-1.0,0.1038757865969361,1.0,0.0
52.88682556152344,11.042787551879885,-1.9854989051818848,-0.0,-0.0,-1.0,0.0728612404680546,2.0,0.0
52.74481201171875,10.87175750732422,-1.9594318866729736,-0.0,-0.0,-1.0,0.0408319442604998,1.0,0.0
53.66017150878906,10.779306411743164,-1.7055861949920654,-0.0,-0.0,-1.0,0.1488554890536181,1.0,0.0
53.58675384521485,11.264659881591797,-1.681363821029663,0.5007115280310763,-0.3047247315370974,-0.8102041740736892,0.1314545628935385,4.0,0.0
53.410850524902344,10.917268753051758,-1.6724231243133545,-0.0,-0.0,-1.0,0.1135663721750007,1.0,0.0
53.358642578125,11.104543685913086,-1.660374641418457,-0.0,-0.0,-1.0,0.1361472974826843,1.0,0.0
53.70149993896485,10.872747421264648,-1.7601674795150757,-0.0,-0.0,-1.0,0.1467436381332298,2.0,0.0
53.560089111328125,11.093660354614258,-1.7595051527023315,-0.0,-0.0,-1.0,0.0750341346495708,1.0,0.0
54.84815979003906,11.8364896774292,-2.077392578125,-0.0,-0.0,-1.0,0.0358033906008305,1.0,0.0
54.68893814086914,12.496707916259766,-2.0973753929138184,-0.0,-0.0,-1.0,0.074471390473276,2.0,0.0
54.673789978027344,12.651662826538086,-2.104735851287842,0.1638217012464924,-0.6147701521193158,-0.7715050941269916,0.1448007289381969,5.0,0.0
53.82329559326172,10.716025352478027,-1.906781315803528,-0.0,-0.0,-1.0,0.1946367046887012,2.0,0.0
54.15622329711914,11.585996627807615,-1.9885526895523071,0.8566902746183782,0.0895870684678279,-0.5079920575536874,0.0179788946448316,3.0,0.0
53.978797912597656,11.67656421661377,-1.9742051362991333,-0.0,-0.0,-1.0,0.0344680740588802,2.0,0.0
53.39337921142578,10.851271629333496,-1.8668822050094604,-0.3531716322403694,-0.8680851938709887,-0.3488522529132371,0.1365733607461602,4.0,0.0
53.400367736816406,11.242802619934082,-1.8880242109298704,0.6604979808776943,0.6176739583820903,-0.426873867076784,0.1887715867980103,3.0,0.0
53.623653411865234,11.408994674682615,-1.9211488962173464,-0.0,-0.0,-1.0,0.1554485671787558,2.0,0.0
53.22875213623047,11.07913875579834,-1.8607670068740845,-0.0,-0.0,-1.0,0.0695716674526771,2.0,0.0
54.938987731933594,13.100834846496582,-2.1888298988342285,0.1138379916309465,-0.675735948970826,-0.7283006514688349,0.0635324539119541,3.0,0.0
54.55621719360352,11.844903945922852,-2.0796058177948,-0.0,-0.0,-1.0,0.019134524644222,1.0,0.0
54.59158706665039,12.460220336914062,-2.11519455909729,-0.0,-0.0,-1.0,0.0881865024015357,1.0,0.0
54.62135314941406,12.564334869384766,-2.12405776977539,-0.3893196289443641,-0.907503702086751,0.1576935547746453,0.0663888779950895,3.0,0.0
54.04710388183594,12.13581371307373,-2.0377235412597656,-0.0,-0.0,-1.0,0.2204010867727041,2.0,0.0
53.65556335449219,11.327547073364258,-1.9543368816375732,-0.0,-0.0,-1.0,0.1190351211169096,2.0,0.0
53.7728271484375,11.428470611572266,-1.9721643924713137,-0.0,-0.0,-1.0,0.1191225037455379,1.0,0.0
53.25870895385742,10.839333534240724,-1.8878519535064695,-0.0,-0.0,-1.0,0.1132686823575989,1.0,0.0
53.38014602661133,11.132821083068848,-1.9146244525909424,-0.0,-0.0,-1.0,0.2161250673782465,1.0,0.0
52.70994567871094,12.670344352722168,-2.1957638263702393,-0.0,-0.0,-1.0,0.0349875870733262,2.0,0.0
54.590187072753906,12.676162719726562,-2.1695711612701416,-0.0,-0.0,-1.0,0.0502746836365705,2.0,0.0
54.68097305297851,12.911343574523926,-2.1812734603881836,-0.0,-0.0,-1.0,0.0357688415547739,1.0,0.0
54.46858215332031,12.470550537109377,-2.1548333168029785,-0.0,-0.0,-1.0,0.0662567147031372,1.0,0.0
53.983978271484375,12.288546562194824,-2.0984580516815186,0.034479589938526,0.9922023170079376,0.1197736198073311,0.082232693338486,3.0,0.0
53.707366943359375,11.748985290527344,-2.066725730895996,-0.0,-0.0,-1.0,0.1010139725302422,2.0,0.0
53.7625846862793,12.195148468017578,-2.072788715362549,-0.0,-0.0,-1.0,0.040369066463771,1.0,0.0
53.51101303100586,11.562915802001951,-2.044616460800171,0.5130763646486578,0.6088425527573162,-0.6050317264333103,0.0725323254057761,3.0,0.0
53.01500701904297,12.968911170959473,-2.215282440185547,-0.0,-0.0,-1.0,0.0238379385471065,1.0,0.0
52.73931121826172,12.68437671661377,-2.183067798614502,-0.0,-0.0,-1.0,0.0339911001247022,2.0,0.0
54.64596939086914,12.703590393066406,-2.133131504058838,-0.0,-0.0,-1.0,0.1921441599653668,2.0,0.0
54.44384765625,12.562236785888672,-2.1166281700134277,-0.0,-0.0,-1.0,0.1023210040753803,1.0,0.0
53.88735580444336,12.406732559204102,-2.0634098052978516,-0.0,-0.0,-1.0,0.0532343318070433,1.0,0.0
53.78595733642578,12.150238990783691,-2.062021255493164,-0.0,-0.0,-1.0,0.0702918651357163,1.0,0.0
53.97429656982422,11.923280715942385,-2.0402591228485107,-0.0,-0.0,-1.0,0.0984756694950665,1.0,0.0
54.07044219970703,12.06567668914795,-2.0580272674560547,-0.0,-0.0,-1.0,0.2024329061902767,1.0,0.0
54.7481803894043,10.888978958129885,-2.0380871295928955,-0.0,-0.0,-1.0,0.021884123036331,1.0,0.0
54.74831008911133,10.752896308898926,-2.0289859771728516,-0.0,-0.0,-1.0,0.0192652487354995,1.0,0.0
54.755409240722656,12.952472686767578,-2.175912380218506,-0.0,-0.0,-1.0,0.0284377954647142,1.0,0.0
54.81827545166016,12.315177917480469,-2.1391637325286865,-0.0,-0.0,-1.0,0.0766280320990198,1.0,0.0
53.62841796875,11.27218246459961,-1.672207951545715,-0.0967322507339662,-0.9907711306564264,-0.0949496620622094,0.1865558589468743,4.0,0.0
53.08812713623047,10.902974128723145,-1.8439866304397583,-0.0,-0.0,-1.0,0.0864831147726084,1.0,0.0
53.254547119140625,11.030876159667969,-1.8623892068862915,0.430024010712894,-0.224580178109601,-0.8744387307356968,0.2011082770660774,4.0,0.0
53.82564926147461,10.754112243652344,-1.9036527872085571,-0.0,-0.0,-1.0,0.1946367046887012,2.0,0.0
54.484920501708984,12.436360359191896,-2.0130434036254883,-0.0,-0.0,-1.0,0.1412911315948559,1.0,0.0
54.70286178588867,12.695480346679688,-2.0401453971862793,-0.0,-0.0,-1.0,0.2853146187973047,1.0,0.0
53.60804748535156,11.123247146606444,-1.695220112800598,-0.0,-0.0,-1.0,0.0726859138237452,2.0,0.0
53.34309387207031,11.249469757080078,-1.7653237581253052,-0.0,-0.0,-1.0,0.1512140487075492,1.0,0.0
53.4876708984375,10.949377059936523,-1.768997311592102,-0.0,-0.0,-1.0,0.1170623044914048,2.0,0.0
53.66096496582031,11.436912536621094,-1.798643946647644,-0.0,-0.0,-1.0,0.1731226166578885,1.0,0.0
55.12690734863281,10.707889556884766,-1.9047752618789673,-0.0,-0.0,-1.0,0.0197479990832165,1.0,0.0
53.951316833496094,12.23369598388672,-1.847969889640808,-0.5856658928916274,0.1872780545132908,-0.788620562882537,0.1383309694005446,3.0,0.0
54.40478515625,12.502187728881836,-1.8956619501113892,-0.0,-0.0,-1.0,0.1457322058092554,1.0,0.0
53.098995208740234,11.204151153564451,-1.965436339378357,-0.0,-0.0,-1.0,0.1012853138677818,1.0,0.0
53.56064224243164,10.982409477233888,-2.0121679306030273,-0.0,-0.0,-1.0,0.1464209819462029,1.0,0.0
53.83319854736328,10.682144165039062,-2.038724899291992,-0.0,-0.0,-1.0,0.1811072098681335,1.0,0.0
53.365081787109375,11.559807777404783,-1.9964438676834104,-0.0,-0.0,-1.0,0.0522711918289223,1.0,0.0
53.70655059814453,11.820775985717772,-2.0346832275390625,-0.0,-0.0,-1.0,0.1159229747911153,2.0,0.0
54.371315002441406,12.120197296142578,-2.107316493988037,-0.0,-0.0,-1.0,0.132265610860874,1.0,0.0
53.03411865234375,11.268571853637695,-1.8131794929504397,-0.0,-0.0,-1.0,0.0964376159304337,1.0,0.0
53.3123779296875,11.14065170288086,-1.8144354820251465,-0.2564123311123792,0.8686535298077499,-0.4239030096685475,0.1558416725627625,3.0,0.0
53.36104965209961,10.922008514404297,-1.9158697128295896,-0.0,-0.0,-1.0,0.1856610230857606,1.0,0.0
53.28773498535156,12.067060470581056,-2.0183639526367188,-0.0,-0.0,-1.0,0.1585680357152753,1.0,0.0
53.45587158203125,11.935022354125977,-2.0169601440429688,-0.0,-0.0,-1.0,0.1810506674002188,2.0,0.0
53.26753234863281,11.021066665649414,-1.7080116271972656,-0.0,-0.0,-1.0,0.2028826294930314,2.0,0.0
53.4720573425293,10.947904586791992,-1.7111196517944336,-0.0,-0.0,-1.0,0.090111743591872,2.0,0.0
53.69742202758789,11.810564041137695,-1.8138747215270996,-0.0,-0.0,-1.0,0.1704197948377985,1.0,0.0
53.41779708862305,11.896524429321287,-1.8712189197540283,-0.0,-0.0,-1.0,0.1427151674866471,1.0,0.0
53.1119270324707,11.003952026367188,-1.758704423904419,-0.0,-0.0,-1.0,0.1591699080926125,1.0,0.0
53.26097869873047,10.966712951660156,-1.7630016803741455,-0.0,-0.0,-1.0,0.167971409630381,1.0,0.0
53.59367370605469,10.97047233581543,-1.781949758529663,-0.0,-0.0,-1.0,0.1021957343221264,1.0,0.0
53.00370788574219,11.07891082763672,-1.7607309818267822,-0.0,-0.0,-1.0,0.0939128158195864,1.0,0.0
53.75975799560547,10.822635650634766,-1.717590570449829,-0.0,-0.0,-1.0,0.1158016295857435,1.0,0.0
53.34401321411133,10.885623931884766,-1.7891972064971924,-0.7857531013410964,0.3440682735069391,-0.5140127302886605,0.1419903970213596,3.0,0.0
53.41933822631836,10.80483055114746,-1.8077001571655271,-0.9152729245204098,0.1485329560456908,0.3744508440479007,0.0890276015256305,3.0,0.0
53.632530212402344,10.73226547241211,-1.7393403053283691,-0.0,-0.0,-1.0,0.1413422138166977,1.0,0.0
53.49098205566406,10.905298233032228,-1.7417821884155271,-0.9123525041270508,0.265567450194652,-0.3115876082423857,0.1087623909958962,3.0,0.0
53.29029846191406,12.890933990478516,-2.2410054206848145,-0.0,-0.0,-1.0,0.0213102063533842,1.0,0.0
53.40774917602539,10.832592010498049,-1.8470394611358645,-0.4078361807454507,-0.7968405528693313,-0.4457743633026271,0.1371553652125424,4.0,0.0
53.63624572753906,10.723732948303224,-1.81195330619812,-0.0,-0.0,-1.0,0.1534543238835435,2.0,0.0
53.39104080200195,10.858068466186523,-1.7941906452178955,-0.0,-0.0,-1.0,0.1336279350225007,2.0,0.0
53.61369705200195,10.76157569885254,-1.7859725952148438,-0.0,-0.0,-1.0,0.1867972168432627,2.0,0.0
53.473751068115234,11.09824275970459,-1.7892255783081057,-0.0,-0.0,-1.0,0.1524813904726091,1.0,0.0
53.33218002319336,10.89632511138916,-1.7639451026916504,-0.7857531013410964,0.3440682735069391,-0.5140127302886605,0.1279224028813878,3.0,0.0
53.62437057495117,10.739314079284668,-1.6844251155853271,-0.0,-0.0,-1.0,0.138620754211766,1.0,0.0
53.65380096435547,11.565508842468262,-2.036411762237549,-0.0,-0.0,-1.0,0.0665462711611963,2.0,0.0
53.46826171875,11.81241226196289,-2.0286149978637695,-0.0,-0.0,-1.0,0.2459371388381416,1.0,0.0
53.2713737487793,11.13033390045166,-1.9778623580932615,-0.0,-0.0,-1.0,0.1820489761333478,1.0,0.0
52.88489532470703,10.7011079788208,-1.919482707977295,-0.0,-0.0,-1.0,0.0465707407091447,2.0,0.0
53.497528076171875,11.623006820678713,-2.092841625213623,0.8081126212564375,0.4104617682453389,-0.4224631678323676,0.0796021802848368,3.0,0.0
53.55076599121094,12.106536865234377,-2.0897111892700195,-0.0,-0.0,-1.0,0.0756052353976879,1.0,0.0
53.550086975097656,11.243199348449709,-1.755549669265747,-0.0,-0.0,-1.0,0.1399703189047201,1.0,0.0
53.4952507019043,10.932912826538086,-1.7307450771331787,-0.9383623242632508,-0.2675185478504201,-0.218883473472239,0.096019076066959,4.0,0.0
53.40217208862305,11.074581146240234,-1.7315843105316162,-0.0,-0.0,-1.0,0.1928653566303309,1.0,0.0
53.46180725097656,11.499069213867188,-2.083361864089966,-0.2119780320385872,0.5682697280428692,-0.7950690725484995,0.0498891384648433,3.0,0.0
54.50400161743164,12.877758979797363,-2.158747434616089,-0.0,-0.0,-1.0,0.0403545414387412,1.0,0.0
54.42089080810547,12.713300704956056,-2.1513760089874268,-0.0,-0.0,-1.0,0.054632398246588,1.0,0.0
53.60525894165039,12.075202941894531,-2.0742881298065186,-0.0,-0.0,-1.0,0.0611024451622353,1.0,0.0
53.52294158935547,11.610380172729492,-2.056497097015381,0.8081126212564375,0.4104617682453389,-0.4224631678323676,0.0765225805970539,3.0,0.0
53.562721252441406,11.77622127532959,-2.0590972900390625,0.5749330019700245,-0.5530968183128449,0.6029394271549535,0.1586967393552304,3.0,0.0
53.69675827026367,12.657705307006836,-2.2184031009674072,-0.0,-0.0,-1.0,0.0461267699114364,2.0,0.0
54.4022331237793,12.236042976379396,-2.1279897689819336,-0.0,-0.0,-1.0,0.2384110053853252,2.0,0.0
53.41962814331055,11.352680206298828,-2.0123767852783203,-0.0,-0.0,-1.0,0.0924975561822227,2.0,0.0
53.548065185546875,11.9235200881958,-2.1042356491088867,0.4802681226433269,-0.6945895903706228,0.5356191103026711,0.1864539565206155,3.0,0.0
53.721866607666016,12.20142936706543,-2.1256613731384277,-0.0,-0.0,-1.0,0.0420221102384667,1.0,0.0
53.78009033203125,12.012542724609377,-2.1306915283203125,-0.0,-0.0,-1.0,0.0334106201564376,1.0,0.0
53.8863525390625,12.580293655395508,-2.147106170654297,-0.0,-0.0,-1.0,0.0716677807540202,1.0,0.0
54.32315826416016,12.864992141723633,-2.198456287384033,-0.0,-0.0,-1.0,0.1249671502523382,1.0,0.0
52.76937103271485,11.040120124816896,-2.0124478340148926,-0.0,-0.0,-1.0,0.0364592636085479,2.0,0.0
52.76277923583984,10.87371826171875,-2.010870933532715,-0.0,-0.0,-1.0,0.0408319442604997,1.0,0.0
52.80509948730469,11.857065200805664,-2.021270275115967,-0.0,-0.0,-1.0,0.0208626622216293,1.0,0.0
53.14324569702149,11.896571159362791,-2.0590715408325195,-0.0,-0.0,-1.0,0.0746414690241613,1.0,0.0
53.27676010131836,12.52750015258789,-2.0786781311035156,-0.0,-0.0,-1.0,0.0444535390012722,1.0,0.0
53.14851760864258,11.711499214172363,-2.0869457721710205,-0.0,-0.0,-1.0,0.0447715003131073,1.0,0.0
53.05335235595703,12.307772636413574,-2.08101487159729,0.2512854415120627,0.1862002816899771,-0.9498342392136964,0.1006073480413884,4.0,0.0
53.41640853881836,11.941627502441406,-2.1194794178009033,-0.0,-0.0,-1.0,0.1936158129265502,1.0,0.0
53.62584686279297,12.358942985534668,-2.1471965312957764,-0.0,-0.0,-1.0,0.049095849992749,2.0,0.0
53.810646057128906,12.96133041381836,-2.1744015216827393,0.952625457154748,0.146543546107914,-0.2665140286642055,0.0821328043512323,3.0,0.0
53.94784164428711,12.589282035827637,-2.1864168643951416,-0.0,-0.0,-1.0,0.0702723546843208,2.0,0.0
52.713993072509766,11.272326469421388,-2.0438807010650635,-0.0,-0.0,-1.0,0.0142794459042112,1.0,0.0
52.785011291503906,11.569087982177734,-2.0549471378326416,-0.0,-0.0,-1.0,0.0271614848110869,2.0,0.0
52.97358703613281,11.663581848144531,-2.077870607376098,-0.0,-0.0,-1.0,0.0279379049867715,1.0,0.0
53.03987884521485,12.283103942871094,-2.0921719074249268,0.2512854415120627,0.1862002816899771,-0.9498342392136964,0.1006073480413884,4.0,0.0
53.443115234375,11.742945671081545,-2.133505582809448,-0.0,-0.0,-1.0,0.1032811389539035,1.0,0.0
53.585426330566406,12.262104034423828,-2.1558291912078857,-0.0,-0.0,-1.0,0.0579030120347054,1.0,0.0
53.447906494140625,11.984618186950684,-2.1366331577301025,-0.0,-0.0,-1.0,0.1551971137398242,2.0,0.0
53.82063293457031,12.427799224853516,-2.1853444576263428,-0.0,-0.0,-1.0,0.0542903316765165,2.0,0.0
53.77116012573242,13.008028984069824,-2.186720132827759,-0.0,-0.0,-1.0,0.0851791653990361,1.0,0.0
54.05367660522461,12.676854133605955,-2.215738534927368,-0.0,-0.0,-1.0,0.1203743803433048,2.0,0.0
54.50709915161133,13.02309226989746,-2.2735488414764404,-0.0,-0.0,-1.0,0.1195743146600074,1.0,0.0
52.82585525512695,11.096288681030272,-1.9730050563812256,-0.0,-0.0,-1.0,0.0704753619393382,1.0,0.0
53.008155822753906,11.427370071411133,-1.9939682483673096,-0.0,-0.0,-1.0,0.0863776568355411,1.0,0.0
53.31647109985352,11.96071720123291,-2.029996156692505,-0.0,-0.0,-1.0,0.2116348952248305,1.0,0.0
53.480133056640625,11.58604335784912,-2.047529935836792,0.5130763646486578,0.6088425527573162,-0.6050317264333103,0.0682138758164848,3.0,0.0
53.712501525878906,12.070477485656738,-2.0751497745513916,-0.0,-0.0,-1.0,0.0434096271105282,1.0,0.0
53.951393127441406,12.234225273132324,-2.1027848720550537,-0.2875125482769592,0.3494490731299247,-0.8917521403797837,0.0612852254470021,3.0,0.0
54.35808563232422,12.430814743041992,-2.14973521232605,-0.0,-0.0,-1.0,0.0966952755160076,1.0,0.0
54.58833312988281,13.019376754760742,-2.178828477859497,-0.0,-0.0,-1.0,0.1016412684031206,1.0,0.0
53.31192779541016,11.240283012390137,-1.8767421245574951,-0.0,-0.0,-1.0,0.1308387127182838,2.0,0.0
53.590126037597656,11.470633506774902,-1.9114387035369873,-0.0,-0.0,-1.0,0.1662714742163174,2.0,0.0
54.035438537597656,11.55807113647461,-1.9635465145111084,-0.0,-0.0,-1.0,0.0306998609477182,1.0,0.0
54.41808319091797,11.691463470458984,-2.0091331005096436,-0.4171189913210608,-0.1794971954350038,-0.8909503375106095,0.0128404596926092,3.0,0.0
54.77240753173828,12.771418571472168,-2.0647122859954834,-0.0,-0.0,-1.0,0.1307788484934654,1.0,0.0
53.03852462768555,10.966572761535645,-1.9024670124053955,-0.0,-0.0,-1.0,0.1471095072283459,1.0,0.0
53.27303314208984,11.202411651611328,-1.9377014636993408,-0.0,-0.0,-1.0,0.1242318881536354,1.0,0.0
53.628631591796875,11.635333061218262,-1.993544340133667,-0.0,-0.0,-1.0,0.0646014156424939,1.0,0.0
53.56017303466797,11.426085472106934,-1.9790542125701904,-0.0,-0.0,-1.0,0.1346577888055578,1.0,0.0
54.02052688598633,12.368940353393556,-2.0632898807525635,-0.0,-0.0,-1.0,0.1033182603176338,1.0,0.0
54.21877670288086,12.090871810913086,-2.0789244174957275,-0.0,-0.0,-1.0,0.0498215372356649,1.0,0.0
54.55390167236328,12.613059997558594,-2.135747194290161,-0.0,-0.0,-1.0,0.12406213917448,1.0,0.0
54.41008377075195,12.425695419311523,-2.1124374866485596,-0.0,-0.0,-1.0,0.1737162777091938,1.0,0.0
53.00021743774414,12.637513160705566,-2.1608362197875977,-0.0,-0.0,-1.0,0.0524325743348296,1.0,0.0
52.94282913208008,12.505019187927246,-2.150855541229248,-0.0,-0.0,-1.0,0.093870251211954,1.0,0.0
53.13074493408203,11.950117111206056,-2.1626410484313965,-0.0,-0.0,-1.0,0.074463931350937,1.0,0.0
53.2900276184082,12.719402313232422,-2.1987338066101074,-0.0,-0.0,-1.0,0.0315177375348741,1.0,0.0
53.36616134643555,12.12248420715332,-2.1955313682556152,0.8374857695153439,0.4839108932472781,-0.2538657780322381,0.1813943876708109,4.0,0.0
53.59969711303711,12.94595432281494,-2.242307186126709,0.2516461628226628,0.4528392542766807,-0.8553425153251588,0.074721445876946,3.0,0.0
53.28412628173828,11.071030616760254,-1.8499202728271484,-0.1486820440451738,-0.8347664178142715,-0.530149674590184,0.1994368500241219,3.0,0.0
