x,y,z,nx,ny,nz,curvature,density,label
29.011192321777344,1.987851619720459,-0.5230294466018677,-0.0,-0.0,-1.0,0.2113625896989237,1.0,0
28.925134658813477,1.798309326171875,-0.5124714374542236,-0.0,-0.0,-1.0,0.1521390554119127,1.0,0
30.079896926879883,1.8625874519348145,-0.4809130430221557,0.0431744140821533,-0.6362738054523813,-0.7702542531293209,0.2218114002105431,5.0,0
29.557662963867188,1.726600170135498,-0.547397255897522,-0.0,-0.0,-1.0,0.2415168249164368,2.0,0
29.10706901550293,1.6061487197875977,-0.3073207139968872,0.6475227245111147,-0.0451723227370658,-0.7607061078368188,0.2148645975100349,3.0,0
28.933835983276367,1.4656896591186523,-0.469527006149292,-0.0,-0.0,-1.0,0.2560851341318292,2.0,0
28.51725196838379,1.2741742134094238,-0.364657998085022,0.7874773269633362,-0.5197743617328581,-0.3312311464881873,0.2036654132435234,5.0,0
28.12542152404785,1.2082200050354004,-0.4226610660552978,-0.0,-0.0,-1.0,0.1986260481769279,1.0,0
27.737091064453125,1.1700992584228516,-0.4847586154937744,-0.1855379101964425,0.1821731997721629,-0.965602718080634,0.0992219721297669,4.0,0
28.924659729003903,1.1852612495422363,-0.586302638053894,0.5440263231778489,0.1175413846419156,-0.8307944285959391,0.2101827909324772,4.0,0
28.559900283813477,1.0266218185424805,-0.4838980436325073,0.2377284425454256,-0.825668875193059,-0.5116210473996892,0.1997947824480714,3.0,0
28.29774284362793,0.9439311027526855,-0.5203107595443726,-0.0,-0.0,-1.0,0.2113550912143418,1.0,0
29.57568359375,0.8568248748779297,-0.6964806318283081,-0.0,-0.0,-1.0,0.1384194823773946,2.0,0
28.90636825561523,0.8522109985351562,-0.5470436811447144,-0.4410545172967859,-0.5366593078743781,-0.7193522781251848,0.1884037735580927,3.0,0
28.0853328704834,2.892138957977295,-0.2566301822662353,-0.0,-0.0,-1.0,0.144425125249135,1.0,0
29.19715118408203,2.721468448638916,-0.1057372093200683,-0.0,-0.0,-1.0,0.1826458333551416,2.0,0
29.11486053466797,2.6345157623291016,-0.1066243648529052,0.5642906694959496,0.0790526513462978,-0.8217826468324417,0.2426579696358777,11.0,0
27.89854431152344,2.5281195640563965,-0.2470573186874389,0.866058753533947,-0.4652498884087453,-0.1829884607369434,0.1588534681481704,4.0,0
29.021724700927734,2.3002758026123047,-0.0848588943481445,-0.0,-0.0,-1.0,0.2317755022829911,1.0,0
28.254161834716797,2.3153252601623535,-0.1822383403778076,-0.0,-0.0,-1.0,0.1560864268334723,1.0,0
30.13969612121582,2.2471094131469727,-0.2392265796661377,-0.4842409211651151,0.8736211630450237,0.0479248760981282,0.2054683002260766,9.0,0
30.10730361938477,2.222355842590332,-0.2402201890945434,-0.7755188556370567,0.6280031439652978,0.064672681412563,0.1840269453827652,8.0,0
27.80297088623047,1.5065770149230957,-0.1741451025009155,-0.0,-0.0,-1.0,0.088566919748104,2.0,0
29.06409454345703,1.3366289138793943,-0.2834322452545166,-0.8744633739512803,-0.1866982875386579,-0.4477248675781549,0.2055531320742566,5.0,0
28.89937973022461,1.0313324928283691,-0.2767204046249389,0.368817969420246,-0.2060395601292224,-0.9063779592942908,0.2777201992261496,4.0,0
28.75621795654297,1.0374531745910645,-0.3007457256317138,-0.0,-0.0,-1.0,0.2104497386965721,1.0,0
29.31132698059082,3.096137046813965,-0.7397527694702148,-0.0,-0.0,-1.0,0.1808209387995188,1.0,0
28.983243942260746,2.9962472915649414,-0.7633498907089233,-0.0,-0.0,-1.0,0.1246289440189612,1.0,0
28.54991340637207,2.877027988433838,-0.63653564453125,0.0215340653676196,-0.8809007209636972,-0.4728109599347095,0.1563497158200248,3.0,0
28.420833587646484,2.6911230087280273,-0.6256729364395142,0.9960161103659688,-0.0377678522708406,-0.0807805498018806,0.1785039996186276,3.0,0
29.402498245239254,2.869047164916992,-0.6884640455245972,-0.0,-0.0,-1.0,0.1226987947556183,1.0,0
29.141021728515625,2.6620163917541504,-0.6876227855682373,-0.2371836652300124,0.8857969223938651,-0.3988830921781645,0.1994568848207798,3.0,0
30.10630989074707,2.609450340270996,-0.7057486772537231,-0.5229238035126902,0.8501292604630883,-0.0618945573076009,0.2382084424997788,4.0,0
29.815753936767575,2.458890438079834,-0.7140069007873535,-0.0,-0.0,-1.0,0.1284068487528441,2.0,0
29.23766326904297,2.1962099075317383,-0.7477989196777344,-0.0,-0.0,-1.0,0.184233054317748,2.0,0
29.084671020507812,1.9929695129394531,-0.7346898317337036,-0.0,-0.0,-1.0,0.1150978714997362,2.0,0
27.826658248901367,1.396723747253418,-0.5358003377914429,-0.2206335761123802,0.963459351941482,-0.1518779188966001,0.1611001072439921,4.0,0
30.148548126220703,2.255077838897705,-0.629392147064209,-0.0,-0.0,-1.0,0.2306666758140543,1.0,0
29.683732986450195,1.9446611404418943,-0.6340874433517456,-0.0,-0.0,-1.0,0.0872384729369276,1.0,0
29.003711700439453,1.7141671180725098,-0.69856858253479,-0.0,-0.0,-1.0,0.1774066552342935,1.0,0
28.98564910888672,1.5429258346557615,-0.6719542741775513,-0.0,-0.0,-1.0,0.2229531603095202,2.0,0
30.07219696044922,1.815598487854004,-0.5538629293441772,-0.4815115192061757,0.8137357250832185,-0.3255469652677619,0.244609740519775,5.0,0
28.953615188598633,1.2342562675476074,-0.6255983114242554,-0.0,-0.0,-1.0,0.1767948378677939,2.0,0
28.581886291503903,1.0684504508972168,-0.6651690006256104,-0.0,-0.0,-1.0,0.2700146800141941,1.0,0
28.313396453857425,0.7313780784606934,-0.6647154092788696,-0.0,-0.0,-1.0,0.155281898065413,1.0,0
28.0454158782959,2.856027603149414,-0.354367733001709,-0.0,-0.0,-1.0,0.1666929428069947,2.0,0
27.744489669799805,2.824244976043701,-0.386508584022522,-0.0,-0.0,-1.0,0.1705583756082867,2.0,0
29.281614303588867,3.0866432189941406,-0.2500818967819214,-0.0,-0.0,-1.0,0.2100042310237583,1.0,0
29.002517700195312,2.890909194946289,-0.2526671886444092,-0.0,-0.0,-1.0,0.1237887033601302,1.0,0
28.536033630371097,2.6699743270874023,-0.2754518985748291,-0.8059315713120213,-0.5657865522251849,0.1742408668587095,0.1775085907873875,6.0,0
28.219127655029297,2.778304100036621,-0.324837327003479,-0.8167564838322914,-0.4857301336574101,-0.3114082262482261,0.1795362740768023,5.0,0
27.866914749145508,2.606560707092285,-0.3464654684066772,-0.0,-0.0,-1.0,0.1942408149981755,1.0,0
29.98638916015625,2.8783445358276367,-0.4629201889038086,-0.0,-0.0,-1.0,0.1734319631701051,2.0,0
29.144773483276367,2.700671672821045,-0.2132337093353271,-0.5431109279687963,0.6627982571982424,-0.5154890786193688,0.1180221450936924,6.0,0
28.98248863220215,2.331310272216797,-0.4954769611358642,-0.0,-0.0,-1.0,0.2154534207910476,1.0,0
30.016685485839844,2.7687487602233887,-0.4410539865493774,-0.0,-0.0,-1.0,0.179852103426201,2.0,0
29.095075607299805,2.331653118133545,-0.1714332103729248,-0.0,-0.0,-1.0,0.220265698344983,1.0,0
28.83563232421875,2.019972801208496,-0.468740701675415,-0.0,-0.0,-1.0,0.2048750815610845,1.0,0
27.86861038208008,1.399604320526123,-0.5293307304382324,-0.0382523837761387,0.981259573773994,-0.1888555109397728,0.2123362221650332,3.0,0
30.14536476135254,2.2876744270324707,-0.3458503484725952,-0.0,-0.0,-1.0,0.0670768559813434,2.0,0
29.0355224609375,1.7691006660461426,-0.403922438621521,-0.0,-0.0,-1.0,0.2418879891148786,1.0,0
28.845523834228516,1.5442051887512207,-0.3987361192703247,0.3799788144374845,0.2977846850603888,-0.8757513242480249,0.1814975947638146,3.0,0
28.4875431060791,1.233846664428711,-0.4100102186203003,-0.7230464867854327,-0.6901660593361815,0.029573442268516,0.205305613860506,4.0,0
28.04375457763672,1.1849775314331057,-0.4740080833435058,-0.0,-0.0,-1.0,0.1418507355821482,1.0,0
28.923023223876953,1.1423993110656738,-0.3310656547546386,0.4622300184037005,0.7999158832492719,-0.3827244306443625,0.2200852004197462,5.0,0
28.565898895263672,1.0658435821533203,-0.3755712509155273,-0.0,-0.0,-1.0,0.2694886611414884,1.0,0
28.387264251708984,2.7767558097839355,-0.7027938365936279,-0.0,-0.0,-1.0,0.1569692010344061,1.0,0
28.871265411376953,2.9676332473754883,-0.6916221380233765,-0.0,-0.0,-1.0,0.1417192725358648,2.0,0
28.547163009643555,2.778872013092041,-0.6869741678237915,-0.0,-0.0,-1.0,0.2046868427336578,1.0,0
27.74816513061523,2.9645681381225586,-0.4490809440612793,-0.0,-0.0,-1.0,0.189644377378096,2.0,0
28.615079879760746,3.124178886413574,-0.4000974893569946,-0.4173565229416212,-0.7105369225845122,-0.5665252107384198,0.1552812352294357,4.0,0
28.33268165588379,2.752723693847656,-0.36544930934906,-0.9536892648763092,0.0832888252576138,-0.2890324508543835,0.1760929057130126,3.0,0
27.958810806274418,2.8276472091674805,-0.40973961353302,-0.0,-0.0,-1.0,0.1358720391630987,1.0,0
27.855070114135746,2.6435346603393555,-0.3921571969985962,0.7732215347671779,-0.5663785720327347,0.2852082946101857,0.1728644539543551,3.0,0
29.205907821655273,2.993572235107422,-0.5008503198623657,-0.0,-0.0,-1.0,0.1291671455445965,1.0,0
28.556869506835938,2.5749101638793945,-0.4826658964157104,0.2316496139072973,-0.6825425740110755,0.6931623843219821,0.1861908422421642,4.0,0
28.305316925048828,2.379607677459717,-0.3118348121643066,-0.0,-0.0,-1.0,0.2078678826796867,1.0,0
30.005022048950195,3.0712852478027344,-0.6243022680282593,-0.0,-0.0,-1.0,0.1755337424091606,2.0,0
29.36610984802246,2.8474345207214355,-0.4640387296676636,-0.0,-0.0,-1.0,0.2291400569055976,2.0,0
29.119827270507812,2.703731060028076,-0.4571578502655029,-0.0,-0.0,-1.0,0.2109647097191374,2.0,0
28.85152816772461,2.377957820892334,-0.4225521087646484,-0.0,-0.0,-1.0,0.1760497646101142,1.0,0
27.881200790405273,1.5915565490722656,-0.5560802221298218,0.8377230322144893,-0.4422461786387024,0.3203723439637484,0.2379221859428552,4.0,0
30.068851470947266,2.604541301727295,-0.5250450372695923,-0.3803986951103046,0.7522328711109464,-0.5379986434727875,0.1819362050689092,5.0,0
28.8803653717041,1.746218204498291,-0.4635230302810669,-0.0,-0.0,-1.0,0.1143379493546337,1.0,0
28.026918411254883,1.3706483840942385,-0.5009112358093262,-0.0,-0.0,-1.0,0.2344326105866707,1.0,0
30.111820220947266,2.324237823486328,-0.4652730226516723,-0.0638178202955116,-0.9958616445886368,-0.0647060325622427,0.194222606614324,4.0,0
30.08019638061523,2.1646413803100586,-0.435332179069519,-0.7190942653688205,0.4178120117803233,-0.555280614037403,0.2634049782410678,3.0,0
29.11045837402344,1.7346034049987793,-0.437224268913269,-0.0,-0.0,-1.0,0.1379478525714043,2.0,0
28.91178321838379,1.415109634399414,-0.4008510112762451,0.3144158171511017,-0.5302646795642307,-0.7873766973513047,0.2204829319788265,3.0,0
28.63890838623047,1.2158937454223633,-0.3981503248214721,-0.0,-0.0,-1.0,0.2089030045165054,2.0,0
28.40677070617676,1.0341882705688477,-0.3965860605239868,0.5560487441505856,-0.7528083828260717,-0.3522631585552929,0.1878185834986882,3.0,0
30.14226722717285,1.78501558303833,-0.3548499345779419,-0.0,-0.0,-1.0,0.1347736311473159,2.0,0
28.0552978515625,2.5133657455444336,-0.0213501453399658,0.2497376837686681,-0.8662279146104717,-0.4327589274127731,0.1874080465939636,4.0,0
28.99384498596191,2.3683152198791504,-0.2522803544998169,-0.0389439863976258,-0.0077437328912884,-0.9992113893087738,0.275829529732028,5.0,0
27.771162033081055,1.5425357818603516,-0.2467375993728637,-0.0,-0.0,-1.0,0.0746339086296309,2.0,0
30.137678146362305,2.255002975463867,-0.158016562461853,0.006205853185812,0.485360383314414,-0.874292162663672,0.1035576254798123,4.0,0
28.960796356201172,0.9845685958862304,-0.3196595907211303,0.9600492813788696,-0.2471055894623144,-0.1313171922499048,0.1597647808586344,3.0,0
27.76103782653809,2.910064220428467,-0.3872946500778198,0.5710661857522954,-0.5489888692299544,-0.6103233839137587,0.1968100311477016,4.0,0
29.44480323791504,2.9833855628967285,-0.8377078771591187,-0.0,-0.0,-1.0,0.1146109224268599,2.0,0
29.229080200195312,2.850585460662842,-0.7920302152633667,-0.0,-0.0,-1.0,0.1982488057930676,1.0,0
28.831605911254883,2.750030040740967,-0.7484625577926636,0.3183996016130181,-0.5931209220832603,-0.7394790500614433,0.1305980320166267,3.0,0
28.627338409423828,2.4834303855895996,-0.6718302965164185,-0.0,-0.0,-1.0,0.1659394226964733,1.0,0
29.4910945892334,2.768616199493408,-0.7830616235733032,-0.0,-0.0,-1.0,0.2194644205318454,1.0,0
29.18988037109375,2.3978114128112793,-0.6710482835769653,-0.0,-0.0,-1.0,0.1789988088851052,1.0,0
28.005958557128903,1.3695058822631836,-0.3768373727798462,-0.0,-0.0,-1.0,0.1686575087989528,2.0,0
30.07366943359375,2.400969982147217,-0.7175172567367554,-0.0,-0.0,-1.0,0.2009144278322387,1.0,0
29.73107528686523,2.437366008758545,-0.7076061964035034,-0.935762143905198,-0.2656429717177079,-0.2319116676903798,0.1697296187291521,3.0,0
29.106037139892575,1.5813355445861816,-0.609199047088623,-0.0,-0.0,-1.0,0.2098281434694065,1.0,0
28.90764808654785,1.5304069519042969,-0.43608558177948,-0.0,-0.0,-1.0,0.2303772050500257,1.0,0
28.46737289428711,1.1164751052856443,-0.4712516069412231,-0.1451528898714345,0.2903358436004128,-0.9458518575775002,0.2861292926139847,4.0,0
28.237754821777344,0.8599867820739746,-0.5539084672927856,-0.0,-0.0,-1.0,0.132777809663572,1.0,0
27.756811141967773,0.7707424163818359,-0.5360766649246216,-0.0,-0.0,-1.0,0.1978573000575639,1.0,0
30.185775756835938,2.192012310028076,-0.6681874990463257,0.7515612082069434,-0.4193776739455916,-0.5091935947304368,0.122169843577873,5.0,0
30.045154571533203,1.8064188957214355,-0.7079881429672241,0.7375550401297624,0.5940774498116966,0.3210678221255064,0.15901609738521,7.0,0
29.69066619873047,1.7264790534973145,-0.6692095994949341,-0.0,-0.0,-1.0,0.1867549640784845,1.0,0
29.28412628173828,1.571420669555664,-0.6116006374359131,-0.0,-0.0,-1.0,0.2118392130375227,2.0,0
29.004491806030273,1.174123764038086,-0.6442619562149048,-0.0,-0.0,-1.0,0.2026101272238033,2.0,0
28.644428253173828,1.0659165382385254,-0.6104758977890015,-0.0,-0.0,-1.0,0.249890569095183,1.0,0
28.346691131591797,0.8280768394470215,-0.5443053245544434,-0.0,-0.0,-1.0,0.1795221207589601,2.0,0
30.16255569458008,1.6179752349853516,-0.809855580329895,-0.0,-0.0,-1.0,0.1185044171596924,1.0,0
29.90603828430176,1.6377053260803225,-0.8045402765274048,-0.0,-0.0,-1.0,0.1216189213435254,1.0,0
29.386566162109375,1.0095248222351074,-0.6024222373962402,-0.0,-0.0,-1.0,0.1826202604865162,2.0,0
29.015464782714844,0.7035632133483887,-0.5090922117233276,-0.0,-0.0,-1.0,0.2741223972103238,2.0,0
27.97429084777832,2.8755955696105957,-0.3884366750717163,-0.0,-0.0,-1.0,0.1778170185710868,2.0,0
27.800537109375,2.792036533355713,-0.3630224466323852,0.5324296099195218,0.4148465746224332,-0.7378489208537071,0.2118362578826018,5.0,0
28.62788963317871,3.012507915496826,-0.4495983123779297,0.733544200258193,0.678243646315079,0.0435713495406576,0.169330041816281,5.0,0
27.946022033691406,2.521627902984619,-0.309373140335083,0.8323778292656765,-0.305564915407781,-0.4623604998470305,0.1942408478783002,3.0,0
29.30209732055664,2.7953925132751465,-0.4378260374069214,0.9701076100694096,-0.1322174298537419,0.2034939216003498,0.2476686728442036,5.0,0
29.140758514404297,2.6171374320983887,-0.3876231908798218,0.0715992731873409,-0.2147641659816493,-0.97403793411204,0.1958436470561939,3.0,0
28.645872116088867,2.3758883476257324,-0.30743408203125,0.6433946342154742,-0.7502398105104494,0.1522615230055882,0.1919697455805092,3.0,0
30.105134963989254,3.127933979034424,-0.5687977075576782,-0.0,-0.0,-1.0,0.1333272988556307,2.0,0
28.956125259399418,2.383139133453369,-0.3245046138763428,-0.0,-0.0,-1.0,0.1969954295736226,2.0,0
28.69553565979004,2.0398707389831543,-0.2346972227096557,-0.0,-0.0,-1.0,0.1435347987407396,1.0,0
28.704822540283203,1.925032615661621,-0.209545612335205,-0.0,-0.0,-1.0,0.1361528295387939,2.0,0
30.04348373413086,2.558720111846924,-0.4312726259231567,0.6737151932054206,-0.1077626835041289,-0.7310916785794869,0.1610199453255316,3.0,0
28.94339179992676,1.405992031097412,-0.1048375368118286,-0.0,-0.0,-1.0,0.1739926473622924,2.0,0
28.555252075195312,1.1366419792175293,-0.3279032707214355,-0.0,-0.0,-1.0,0.182393627857815,2.0,0
28.383052825927734,0.937397003173828,-0.2755353450775146,-0.0,-0.0,-1.0,0.1501499529427861,1.0,0
30.09575653076172,1.8652753829956057,-0.4240225553512573,-0.5367158937599144,-0.8042474756044132,-0.2551902180128086,0.2082110601390312,5.0,0
29.603744506835938,1.6813936233520508,-0.501187801361084,-0.0,-0.0,-1.0,0.171108247116739,2.0,0
28.98001289367676,1.2721457481384275,-0.3722805976867676,-0.2231994132609435,-0.8508078638808476,-0.4757184048136875,0.1514368644384833,3.0,0
28.800519943237305,1.078258991241455,-0.3183833360671997,0.1857272675401431,0.969675339208697,-0.1588556534170878,0.2681603917556451,3.0,0
28.3134765625,0.7801403999328613,-0.2360658645629882,-0.0,-0.0,-1.0,0.1025949686695413,1.0,0
30.140993118286133,1.7359166145324707,-0.3952283859252929,0.436431110585574,0.0986018537771007,-0.8943184892110652,0.1224114688563919,5.0,0
29.19239044189453,2.6183829307556152,-0.0571469068527221,-0.0920765764681566,0.647605775109391,-0.7563918720550011,0.1604785953430105,6.0,0
30.198347091674805,2.6513900756835938,-0.7625916004180908,-0.0,-0.0,-1.0,0.1514502319739301,1.0,0
28.923641204833984,3.1319570541381836,-0.6661804914474487,-0.0,-0.0,-1.0,0.2030667571726196,2.0,0
28.69658851623535,2.943809509277344,-0.6684677600860596,-0.0,-0.0,-1.0,0.2128415160268922,2.0,0
29.29652214050293,2.8025407791137695,-0.5652251243591309,0.8002488583989273,-0.5992628918938571,0.02203976021251,0.2495651336684456,5.0,0
28.846153259277344,2.5901613235473633,-0.593254804611206,-0.0,-0.0,-1.0,0.2229957834000441,1.0,0
30.15589714050293,3.0378942489624023,-0.5006871223449707,-0.0,-0.0,-1.0,0.2177487608802163,1.0,0
29.18958854675293,2.511384963989258,-0.5334746837615967,-0.0,-0.0,-1.0,0.173519697517491,1.0,0
28.995384216308594,2.2435216903686523,-0.5187126398086548,-0.0,-0.0,-1.0,0.2365723174131767,2.0,0
27.95447158813477,1.5052528381347656,-0.5724971294403076,-0.1612097406035059,0.6745808161420045,0.7203833299207707,0.1595331667760685,3.0,0
30.132051467895508,2.514240264892578,-0.5804835557937622,0.5295667300242752,0.1636834109743915,-0.8323261496692177,0.1809280064443804,3.0,0
29.895545959472656,2.2993249893188477,-0.7314935922622681,-0.27027926544956,0.5309016720862844,-0.8031765268258494,0.128623739693405,5.0,0
29.586212158203125,2.0588111877441406,-0.7272500991821289,-0.0,-0.0,-1.0,0.0783874064918306,2.0,0
29.228452682495117,1.855576515197754,-0.741790771484375,-0.0,-0.0,-1.0,0.0706700271076609,2.0,0
27.99435234069824,1.3604955673217771,-0.5457181930541992,-0.0,-0.0,-1.0,0.1847969027453253,1.0,0
27.889577865600582,1.290574073791504,-0.554171085357666,-0.0,-0.0,-1.0,0.0948448999174727,2.0,0
30.089378356933594,1.959507942199707,-0.6394013166427612,-0.0,-0.0,-1.0,0.1469334158774653,1.0,0
29.101741790771484,1.3377938270568848,-0.6659553050994873,-0.7085784248354753,-0.697716056242719,-0.1053988648837525,0.2218056082821528,3.0,0
28.715486526489254,1.0617775917053225,-0.6823501586914062,-0.0,-0.0,-1.0,0.1775934428824156,1.0,0
28.528440475463867,0.9412612915039062,-0.6951074600219727,-0.0,-0.0,-1.0,0.1377132136726747,1.0,0
29.114444732666016,1.0979456901550293,-0.6202070713043213,0.8967633875204557,-0.4389665798034041,-0.0558906845416928,0.2359009583793737,3.0,0
28.919292449951172,1.0159049034118652,-0.6383501291275024,-0.0,-0.0,-1.0,0.2135718994323941,2.0,0
27.749431610107425,2.8924789428710938,-0.2507400512695312,-0.0,-0.0,-1.0,0.1133217285951841,1.0,0
29.15926170349121,3.132558822631836,-0.2806515693664551,-0.0,-0.0,-1.0,0.2485128078780557,1.0,0
28.503662109375,3.0807619094848633,-0.3545582294464111,-0.6346546024960055,-0.152960457734472,-0.7575068540285943,0.2071179030114969,4.0,0
28.26903533935547,2.7724199295043945,-0.3488359451293945,-0.0,-0.0,-1.0,0.1701125020695443,2.0,0
27.832855224609375,2.6138172149658203,-0.3909450769424438,-0.0,-0.0,-1.0,0.1878022913695392,2.0,0
29.204784393310547,2.727545738220215,-0.2251952886581421,-0.6824357573386537,-0.4903646496807015,-0.5420552992538132,0.2412709513456775,7.0,0
29.02877616882324,2.6032228469848633,-0.2310166358947754,-0.7600810972552988,0.1016964316271588,-0.6418212846186107,0.1570958146299448,3.0,0
28.478445053100582,2.420125961303711,-0.2797210216522217,-0.0,-0.0,-1.0,0.1336446520842865,2.0,0
28.173828125,2.4353504180908203,-0.3227672576904297,-0.7734776350212431,-0.3883690393291375,-0.5009010255654376,0.1988624197964776,3.0,0
29.00735855102539,2.282588005065918,-0.194745659828186,0.4276504953127681,0.5918175382869443,-0.6832767047358818,0.2076419589736046,3.0,0
30.11479949951172,2.2709436416625977,-0.3796956539154053,-0.0,-0.0,-1.0,0.1670372615191521,2.0,0
29.15189743041992,1.7332282066345217,-0.4183694124221802,0.2245284313168244,-0.8030213056847713,-0.5520360188852997,0.129204776266728,3.0,0
28.948427200317383,1.6774563789367676,-0.4393877983093261,-0.0,-0.0,-1.0,0.2656380253508628,2.0,0
28.511245727539062,1.365339279174805,-0.1538046598434448,-0.0,-0.0,-1.0,0.2239029702705705,1.0,0
27.82688331604004,1.239281177520752,-0.3982785940170288,-0.0,-0.0,-1.0,0.2117159858089311,1.0,0
30.14677047729492,1.809596061706543,-0.3010300397872925,0.2307894467806156,-0.8899514966946602,-0.393347892819615,0.1113358385080121,6.0,0
28.99869155883789,1.3551664352416992,-0.3836877346038818,-0.9925779546846948,0.1081958906742613,-0.0555216454650896,0.2440312901337165,7.0,0
28.671106338500977,1.1848258972167969,-0.258570909500122,0.2562636401456654,0.3469874875320335,-0.9021799322948276,0.2374288266998162,5.0,0
28.40740203857422,1.1382246017456057,-0.2927464246749878,-0.0,-0.0,-1.0,0.2347868799140768,1.0,0
27.96037483215332,2.442178726196289,-0.0067875385284423,-0.0,-0.0,-1.0,0.1677632143037264,1.0,0
28.912574768066406,1.0582170486450195,-0.0624867677688598,-0.0,-0.0,-1.0,0.2116982871727756,1.0,0
28.833663940429688,3.049403190612793,-0.669397234916687,-0.0,-0.0,-1.0,0.1972411280680324,1.0,0
28.48377227783203,2.929391860961914,-0.6099058389663696,-0.2358988131117199,-0.1335881914518142,-0.9625517882571906,0.1586988415841536,4.0,0
30.15704345703125,2.902013778686523,-0.77485191822052,-0.0,-0.0,-1.0,0.1525860809819617,1.0,0
29.24891662597656,2.8139076232910156,-0.6522248983383179,-0.0,-0.0,-1.0,0.200573164542189,2.0,0
29.041112899780273,2.623297691345215,-0.5857182741165161,-0.4158906546722886,0.8987121866689383,-0.1391091977152874,0.1651321968482799,4.0,0
30.08321762084961,2.5629920959472656,-0.6818510293960571,-0.6532175005157136,-0.431906855933388,-0.621903018820249,0.2367495153863551,9.0,0
29.934877395629883,2.37477970123291,-0.6179777383804321,-0.1928837326095095,0.4709017566695272,-0.8608411010518586,0.1542857249484847,3.0,0
28.895179748535156,2.228391647338867,-0.4772624969482422,-0.3904312682425616,-0.5029075419562784,-0.7711338593409054,0.2078837075154967,3.0,0
30.140586853027344,1.955610275268555,-0.8556638956069946,-0.0877530205064154,-0.1347921200317067,-0.9869804920915908,0.2143980459039424,3.0,0
29.86674118041992,2.108891487121582,-0.7043286561965942,-0.0,-0.0,-1.0,0.1466600552029254,2.0,0
29.47560691833496,1.924494743347168,-0.7779501676559448,-0.0,-0.0,-1.0,0.1349273592068605,1.0,0
29.107763290405273,1.8937177658081057,-0.7369853258132935,-0.0,-0.0,-1.0,0.1019128116200927,1.0,0
28.64950180053711,1.8597068786621096,-0.3688242435455322,-0.0,-0.0,-1.0,0.2050448332967437,1.0,0
28.149200439453125,1.543139934539795,-0.577476978302002,-0.0,-0.0,-1.0,0.12706251742959,2.0,0
27.903345108032227,1.44343900680542,-0.5394634008407593,-0.2280763063418962,0.9736103664606838,-0.0080032996776676,0.2485785107187122,3.0,0
27.719261169433594,1.3820371627807615,-0.5157989263534546,0.8051816634037762,0.3906443654122208,-0.4461832232278694,0.1831123251578548,3.0,0
29.92643928527832,1.77508544921875,-0.7808405160903931,-0.0,-0.0,-1.0,0.1740274997601353,2.0,0
29.027372360229492,1.4149465560913086,-0.5983031988143921,-0.0,-0.0,-1.0,0.2237541939813385,2.0,0
28.856971740722656,1.2670345306396484,-0.5458283424377441,-0.0,-0.0,-1.0,0.200174319277612,1.0,0
28.19379425048828,1.4400959014892578,-0.5523806810379028,-0.0,-0.0,-1.0,0.1134161825179711,1.0,0
27.93842506408691,1.2624764442443848,-0.4936010837554931,-0.3728850630879902,0.253064446118536,-0.8927010226478879,0.1401806951829039,3.0,0
28.838363647460938,1.089632511138916,-0.4960229396820068,-0.0,-0.0,-1.0,0.2489665359102769,1.0,0
28.49233055114746,0.9932126998901368,-0.4493602514266968,-0.0,-0.0,-1.0,0.2072402820436525,2.0,0
28.20981216430664,0.6654810905456543,-0.3486572504043579,-0.0,-0.0,-1.0,0.1312031663211391,1.0,0
28.61534881591797,0.7322468757629395,-0.3860188722610473,-0.0,-0.0,-1.0,0.1788211399054665,1.0,0
29.320140838623047,3.1326894760131836,-0.3777166604995727,-0.0,-0.0,-1.0,0.2026259830119779,2.0,0
30.168867111206055,3.0020084381103516,-0.4504832029342651,-0.0,-0.0,-1.0,0.1781026638727499,1.0,0
29.26436996459961,2.713812828063965,-0.2846497297286987,0.3583901302857131,0.9277035377198892,-0.104511533410392,0.1785448376861333,6.0,0
29.04665184020996,2.639105796813965,-0.2465003728866577,-0.4103162821046648,-0.0097056604022747,-0.911891632155905,0.1643422793824028,6.0,0
29.85859489440918,2.642733573913574,-0.3366585969924927,-0.0,-0.0,-1.0,0.1390329476619076,1.0,0
28.916275024414062,2.278388023376465,-0.1593331098556518,-0.0,-0.0,-1.0,0.1863457872396246,2.0,0
30.04095458984375,2.107468605041504,-0.4047427177429199,0.0045558714616857,0.7897396203812372,-0.6134252815423602,0.1387930927083361,3.0,0
29.001934051513672,1.7434930801391602,-0.3702260255813598,-0.0,-0.0,-1.0,0.2471979511123863,1.0,0
28.70585823059082,1.7015409469604492,-0.3357893228530884,-0.0,-0.0,-1.0,0.185641293233815,2.0,0
30.13174057006836,1.8734121322631836,-0.5169163942337036,-0.1665567236318472,-0.3727473729219009,-0.9128626697334302,0.2649756241654929,3.0,0
30.00846290588379,1.7550163269042969,-0.4734947681427002,-0.0,-0.0,-1.0,0.1864919630416609,2.0,0
29.035661697387695,1.4962706565856934,-0.3139075040817261,0.061172590371873,0.5009422023017965,-0.8633161785465513,0.1884735291436584,3.0,0
28.87451171875,1.5053954124450684,-0.3027898073196411,-0.8891631336831115,-0.31402530247213,-0.3328318360765939,0.2483638711937177,3.0,0
28.455005645751953,1.252471923828125,-0.2117438316345214,0.2828184024070938,-0.293293919513434,-0.913231858859702,0.1581110846131552,4.0,0
28.220518112182617,1.3515539169311523,-0.2192111015319824,-0.0,-0.0,-1.0,0.1016409115784349,1.0,0
29.94713973999023,2.5498881340026855,-0.8406287431716919,-0.0,-0.0,-1.0,0.1376160660204272,2.0,0
29.60518455505371,2.453564167022705,-0.8105803728103638,-0.0,-0.0,-1.0,0.1488108913037363,2.0,0
29.371686935424805,2.5987277030944824,-0.8392800092697144,-0.0,-0.0,-1.0,0.1477201102317673,1.0,0
30.205902099609375,2.3284106254577637,-0.7969592809677124,-0.0,-0.0,-1.0,0.1358669432863449,1.0,0
30.141714096069336,2.1423373222351074,-0.7521620988845825,0.1393273701968906,-0.6122162655772222,0.7783181406575966,0.1808602950827709,3.0,0
29.645727157592773,2.3829216957092285,-0.7951503992080688,0.4625361476663195,0.7466758361604033,-0.478053875411719,0.1032763904174488,4.0,0
29.24518585205078,2.2944741249084473,-0.7681869268417358,-0.0,-0.0,-1.0,0.1517054003369354,1.0,0
30.06413459777832,1.5694513320922852,-0.9059604406356812,-0.0,-0.0,-1.0,0.0631527649615887,1.0,0
29.140275955200195,1.821225643157959,-0.6595801115036011,-0.0,-0.0,-1.0,0.1114478599471479,2.0,0
28.153242111206055,1.9197707176208496,-0.6805800199508667,-0.0,-0.0,-1.0,0.0507295142328588,1.0,0
27.977781295776367,1.8714485168457031,-0.6714348793029785,-0.0,-0.0,-1.0,0.0689327285553773,1.0,0
29.847469329833984,1.4693613052368164,-0.8755685091018677,-0.0,-0.0,-1.0,0.0464897922020139,1.0,0
29.489572525024418,1.2973413467407229,-0.6859571933746338,-0.0,-0.0,-1.0,0.0920185691723986,1.0,0
29.046159744262695,1.495988368988037,-0.7307647466659546,-0.0,-0.0,-1.0,0.1613701030501322,1.0,0
28.7059268951416,1.4429774284362793,-0.7187970876693726,-0.0,-0.0,-1.0,0.1906694093031344,1.0,0
28.306808471679688,1.5633702278137207,-0.6008579730987549,-0.0,-0.0,-1.0,0.0412372396758907,2.0,0
27.844404220581055,1.681171417236328,-0.6314151287078857,-0.0,-0.0,-1.0,0.1531871164845724,2.0,0
29.59663772583008,1.1848092079162598,-0.797214150428772,-0.061367887528151,-0.9078769060499032,-0.4147209975894491,0.0444686901850664,3.0,0
29.046972274780273,1.1833548545837402,-0.796413779258728,-0.0,-0.0,-1.0,0.2258016501348813,2.0,0
28.617937088012695,1.144176006317139,-0.6485378742218018,-0.0,-0.0,-1.0,0.191192843149301,1.0,0
28.30575942993164,0.9713172912597656,-0.7530761957168579,-0.0,-0.0,-1.0,0.1725392141685048,1.0,0
28.55903434753418,0.7551560401916504,-0.6924525499343872,-0.0,-0.0,-1.0,0.1597210281629861,2.0,0
28.141895294189453,0.9234886169433594,-0.7453991174697876,-0.0,-0.0,-1.0,0.1133241426944631,1.0,0
27.817832946777344,0.9318342208862304,-0.7575492858886719,-0.0,-0.0,-1.0,0.1327038895035305,1.0,0
30.119525909423828,2.8388991355895996,-0.583093523979187,-0.0,-0.0,-1.0,0.1315259943202249,2.0,0
29.29191017150879,3.0947422981262207,-0.4389091730117798,-0.0,-0.0,-1.0,0.1834289472286195,1.0,0
30.174524307250977,2.6142144203186035,-0.5412969589233398,-0.0801133488811451,0.9348603909463228,-0.3458582090550064,0.1836730718885879,3.0,0
29.096778869628903,2.77489709854126,-0.3768246173858642,-0.1520847456166275,0.9410088197068512,-0.3022790621009739,0.221103832870892,3.0,0
28.272518157958984,2.8699545860290527,-0.5474692583084106,-0.0,-0.0,-1.0,0.2304201232769866,1.0,0
28.087692260742188,2.8934664726257324,-0.550040602684021,-0.0,-0.0,-1.0,0.2234108178057218,1.0,0
30.14687728881836,2.147528171539306,-0.4496864080429077,-0.0,-0.0,-1.0,0.1720936801784572,1.0,0
28.801830291748047,2.2428946495056152,-0.4355534315109253,-0.0,-0.0,-1.0,0.2348969309935464,1.0,0
29.104930877685547,1.945960521697998,-0.3840528726577759,-0.0,-0.0,-1.0,0.1476889747849521,1.0,0
28.85183334350586,2.0801501274108887,-0.4053927659988403,-0.0,-0.0,-1.0,0.1419390009045538,1.0,0
28.711410522460938,1.6097216606140137,-0.3144556283950805,-0.0,-0.0,-1.0,0.2175569089400633,1.0,0
28.435123443603516,1.7174062728881836,-0.3319408893585205,-0.0,-0.0,-1.0,0.1489762998930918,1.0,0
28.975269317626953,1.2923564910888672,-0.2575143575668335,-0.0,-0.0,-1.0,0.2239678734219732,1.0,0
28.621129989624023,0.8697457313537598,-0.445401668548584,-0.4596962881554103,-0.7769231974467742,-0.4301972430469755,0.2470712854392807,4.0,0
30.185348510742188,2.5649685859680176,-0.2174810171127319,-0.0,-0.0,-1.0,0.0665693024153701,1.0,0
29.12335968017578,2.682882785797119,-0.2001768350601196,-0.614351357871618,0.6604576337329056,-0.431703744627297,0.2529527580942253,9.0,0
29.861473083496097,2.9407505989074707,-0.8058798313140869,-0.0,-0.0,-1.0,0.095489766347786,2.0,0
29.57567596435547,3.036302089691162,-0.8348965644836426,-0.2379043039247112,0.9708602540993594,0.0288428359255151,0.1821002866531748,3.0,0
29.98172950744629,1.9159674644470217,-0.7395272254943848,-0.0,-0.0,-1.0,0.2239807588431054,2.0,0
29.864351272583008,1.81803560256958,-0.7210179567337036,0.7726182870568077,0.4038336853863785,0.4898768590703792,0.1705912441896514,3.0,0
29.47573471069336,1.7119688987731934,-0.5643017292022705,-0.0,-0.0,-1.0,0.1701527753266009,1.0,0
29.942371368408203,1.2666850090026855,-0.7356389760971069,-0.3500183463074627,-0.9199446350026006,-0.1766041499459213,0.0618761979537381,3.0,0
29.668556213378903,1.4340248107910156,-0.7889552116394043,-0.8722694367742944,0.4827327113171009,0.0781994826958326,0.0595881059476731,3.0,0
29.279802322387695,1.35260009765625,-0.7904688119888306,-0.0,-0.0,-1.0,0.0463905043206094,1.0,0
28.765260696411133,1.6706037521362305,-0.5920664072036743,-0.0,-0.0,-1.0,0.2379426933418033,1.0,0
28.522550582885746,1.6801304817199707,-0.6088964939117432,-0.0,-0.0,-1.0,0.1049408412959374,1.0,0
29.584896087646484,1.163449764251709,-0.7275608777999878,-0.0,-0.0,-1.0,0.0653283566542797,2.0,0
29.060976028442383,1.1376399993896484,-0.7530467510223389,-0.0,-0.0,-1.0,0.2315726766433388,1.0,0
28.34136009216309,1.549973964691162,-0.5948766469955444,-0.0,-0.0,-1.0,0.0456959662620669,2.0,0
28.101396560668945,1.4384174346923828,-0.5900689363479614,-0.0,-0.0,-1.0,0.1331647669532537,1.0,0
28.98090171813965,0.8886260986328125,-0.6997653245925903,-0.0,-0.0,-1.0,0.2043157729194735,1.0,0
28.730628967285156,0.8557591438293457,-0.7110767364501953,-0.0,-0.0,-1.0,0.2149469267089841,1.0,0
28.451250076293945,0.7057309150695801,-0.6995735168457031,-0.5838212739395996,0.4636448352325528,-0.6664729453306577,0.2253396299579941,3.0,0
30.1245059967041,2.973252773284912,-0.468286395072937,-0.0,-0.0,-1.0,0.1631037192023749,1.0,0
29.93687438964844,2.9986138343811035,-0.4765372276306152,-0.0,-0.0,-1.0,0.1326793934907075,1.0,0
28.91489028930664,3.116483211517334,-0.5269150733947754,-0.0,-0.0,-1.0,0.1786687708745866,1.0,0
29.642410278320312,2.5922560691833496,-0.4133059978485107,-0.0,-0.0,-1.0,0.1444591576551606,1.0,0
29.12706756591797,2.710571765899658,-0.4499763250350952,0.7311632793236965,-0.0605039686175982,-0.6795141858343641,0.2730241709162757,3.0,0
28.84438705444336,2.754032611846924,-0.4680719375610351,-0.0,-0.0,-1.0,0.242461473895522,1.0,0
28.530200958251953,3.0925793647766113,-0.538331151008606,-0.0,-0.0,-1.0,0.1630520482115513,1.0,0
29.32149124145508,2.216587543487549,-0.3587610721588135,-0.0,-0.0,-1.0,0.1772244885600155,1.0,0
29.686777114868164,1.6539559364318848,-0.5437589883804321,-0.0,-0.0,-1.0,0.1622521233945973,1.0,0
29.40458106994629,1.7391600608825684,-0.4218922853469848,-0.0,-0.0,-1.0,0.12891521801584,1.0,0
27.95639419555664,2.2566542625427246,-0.4277729988098144,-0.0,-0.0,-1.0,0.0985553765379014,1.0,0
29.525033950805664,1.3438315391540527,-0.4863400459289551,-0.0,-0.0,-1.0,0.159464049372474,1.0,0
29.230907440185547,1.519517421722412,-0.3887604475021362,-0.0,-0.0,-1.0,0.1315852729675543,1.0,0
28.956127166748047,1.5341367721557615,-0.4037661552429199,-0.0,-0.0,-1.0,0.2335089217073545,2.0,0
29.492237091064453,1.021775722503662,-0.4216060638427734,-0.0,-0.0,-1.0,0.1177484873762498,1.0,0
29.0842227935791,1.300248622894287,-0.4991425275802612,-0.0,-0.0,-1.0,0.1983526216357158,2.0,0
28.836132049560547,1.415480136871338,-0.5367031097412109,0.5185146429955875,0.7284432166262327,-0.4477868300323115,0.2149242938760494,3.0,0
28.131935119628903,1.5309062004089355,-0.2991979122161865,-0.0,-0.0,-1.0,0.0781593353701644,1.0,0
29.1095027923584,0.7601971626281738,-0.3884611129760742,-0.0,-0.0,-1.0,0.192937537484471,2.0,0
28.624839782714844,2.8190436363220215,-0.1481629610061645,-0.0,-0.0,-1.0,0.069486545857766,1.0,0
27.817825317382812,2.28596830368042,-0.1082587242126464,-0.0,-0.0,-1.0,0.1409232531641666,1.0,0
28.416330337524418,1.7909340858459473,-0.018520712852478,-0.0,-0.0,-1.0,0.0893063750582094,1.0,0
29.947673797607425,3.1222128868103027,-0.9312030076980592,-0.0,-0.0,-1.0,0.1244942738178418,1.0,0
29.73895835876465,3.072404384613037,-0.9319928884506226,-0.0,-0.0,-1.0,0.1270002785631566,2.0,0
30.07412338256836,2.1562705039978027,-0.7122055292129517,-0.0,-0.0,-1.0,0.2041531825236798,2.0,0
29.65799903869629,2.6325621604919434,-0.84064781665802,-0.4611071350235199,-0.8841203952587608,0.0755733863069115,0.1642980511264456,3.0,0
29.579975128173828,2.934906482696533,-0.9114850759506226,-0.0,-0.0,-1.0,0.0890848379403362,1.0,0
30.159605026245117,1.844912052154541,-0.9411975145339966,-0.0,-0.0,-1.0,0.1519666376706125,1.0,0
29.742748260498047,1.995577335357666,-0.6964164972305298,-0.0,-0.0,-1.0,0.117900143741547,2.0,0
29.517410278320312,2.185473918914795,-0.7523143291473389,-0.0,-0.0,-1.0,0.055268597456697,1.0,0
29.209474563598633,2.655529499053955,-0.8786119222640991,-0.0,-0.0,-1.0,0.1338016670040815,1.0,0
29.875551223754883,1.51686429977417,-0.8756426572799683,-0.0,-0.0,-1.0,0.0552271779814392,1.0,0
29.5341796875,1.9072461128234863,-0.6925678253173828,-0.0,-0.0,-1.0,0.1601651468355912,2.0,0
29.221294403076172,2.0089364051818848,-0.7382583618164062,-0.0,-0.0,-1.0,0.1304713413314772,1.0,0
29.619701385498047,1.1910147666931152,-0.8142117261886597,-0.061367887528151,-0.9078769060499032,-0.4147209975894491,0.0497690087926966,3.0,0
29.386539459228516,1.2939848899841309,-0.8599458932876587,-0.0,-0.0,-1.0,0.0508975386668259,2.0,0
29.068056106567383,1.7153606414794922,-0.6869784593582153,-0.0,-0.0,-1.0,0.1998639203448168,1.0,0
29.36304473876953,1.0067448616027832,-0.7901532649993896,-0.0,-0.0,-1.0,0.0677009259930923,1.0,0
29.099605560302734,1.027357578277588,-0.8195403814315796,-0.0,-0.0,-1.0,0.1309381871314023,1.0,0
28.99018287658691,0.7538185119628906,-0.7625999450683594,-0.0,-0.0,-1.0,0.1277603893283169,1.0,0
28.85428237915039,0.8418149948120117,-0.798277735710144,-0.0,-0.0,-1.0,0.1137183333892114,1.0,0
29.908784866333008,2.990316867828369,-0.5646506547927856,-0.0,-0.0,-1.0,0.2280965261295132,1.0,0
29.68058204650879,2.7948832511901855,-0.5404572486877441,-0.0,-0.0,-1.0,0.2257795365102286,1.0,0
29.292022705078125,2.861807346343994,-0.5776599645614624,0.6228036327190847,0.7475792330523371,-0.2307399518522759,0.2049537250282344,3.0,0
30.09040069580078,1.7967734336853027,-0.6324057579040527,0.6588862415054282,0.2424858281545084,0.7120881573927996,0.2426635325083136,5.0,0
29.492746353149418,2.4152541160583496,-0.4816049337387085,-0.0,-0.0,-1.0,0.2091256977797347,1.0,0
29.15101623535156,2.6853604316711426,-0.5544558763504028,-0.0,-0.0,-1.0,0.297415235926373,2.0,0
29.732044219970703,1.7737088203430176,-0.6487405300140381,-0.0,-0.0,-1.0,0.1879441603819146,2.0,0
28.941455841064453,2.2888522148132324,-0.4967521429061889,-0.0,-0.0,-1.0,0.2653767529533029,2.0,0
27.863027572631836,2.979982852935791,-0.3449195623397827,0.548833388885408,0.6669413839813896,-0.5039554559458085,0.147271342075882,9.0,0
29.875198364257812,0.9902586936950684,-0.4689854383468628,-0.0,-0.0,-1.0,0.1310851451615267,1.0,0
29.110750198364254,1.506971836090088,-0.4920799732208252,-0.0848166062808154,-0.9948051933549608,-0.0562918339815278,0.2279850669547281,3.0,0
28.955001831054688,1.5691380500793457,-0.5145872831344604,0.0610203648460286,0.3167807686241428,-0.9465339189400216,0.2191076880021158,3.0,0
29.457609176635746,0.8264951705932617,-0.4657527208328247,0.5847509381477133,0.7555316206409307,-0.2953613220228042,0.2350141260242998,3.0,0
28.971920013427734,1.2150282859802246,-0.4458910226821899,-0.0,-0.0,-1.0,0.1942450501012698,1.0,0
28.7163028717041,1.403550624847412,-0.3554661273956299,-0.0,-0.0,-1.0,0.2379590944382766,2.0,0
28.771709442138672,1.0134620666503906,-0.563328742980957,-0.0,-0.0,-1.0,0.2271621244515092,2.0,0
28.46971893310547,1.1387243270874023,-0.4724959135055542,-0.2852146730668892,-0.2860495847933297,-0.9147831575334732,0.2485800058175495,4.0,0
28.194929122924805,1.1872406005859375,-0.3602031469345093,-0.0,-0.0,-1.0,0.2157539289217232,1.0,0
27.838525772094727,1.7085275650024414,-0.4812644720077514,-0.0,-0.0,-1.0,0.1526816276333549,1.0,0
28.185218811035156,0.9157023429870604,-0.6005221605300903,-0.0,-0.0,-1.0,0.168322040209398,1.0,0
27.921165466308594,1.0325746536254885,-0.6522269248962402,-0.0,-0.0,-1.0,0.1420912386983656,1.0,0
28.013580322265625,0.6532392501831055,-0.5652300119400024,-0.0,-0.0,-1.0,0.1852110422355014,1.0,0
27.723709106445312,0.7146549224853516,-0.6103341579437256,-0.0,-0.0,-1.0,0.1612407840305872,1.0,0
29.655351638793945,2.7856192588806152,-0.2103615999221801,-0.0,-0.0,-1.0,0.1030093785674325,1.0,0
29.535993576049805,2.8095974922180176,-0.2195066213607788,-0.0,-0.0,-1.0,0.1770410841070329,2.0,0
29.130043029785156,2.7019219398498535,-0.2275525331497192,0.0492802077039177,0.9669873139188784,-0.2500139913057083,0.1086493731071495,6.0,0
28.982986450195312,2.366293430328369,-0.1868692636489868,0.4701886390598583,-0.8816950190431889,-0.0391986873947159,0.1441785335364349,3.0,0
28.483020782470703,2.6743359565734863,-0.2611591815948486,0.2524384062502,0.1574506993809949,-0.954716779110064,0.2210276514828703,6.0,0
27.90342903137207,2.4712061882019043,-0.270214319229126,-0.3812003074310394,-0.918887328214307,0.1016484316733579,0.1349550704772892,4.0,0
28.642000198364254,1.462688446044922,-0.0775507688522338,-0.0,-0.0,-1.0,0.1720593948248721,1.0,0
27.762798309326172,1.494776725769043,-0.1439296007156372,0.8428534668570188,0.5286390154285342,-0.1006917314075687,0.0829800380900313,3.0,0
29.721885681152344,3.090623378753662,-0.9384561777114868,-0.0,-0.0,-1.0,0.1216495306453748,2.0,0
29.5739803314209,2.808661937713623,-0.8837260007858276,0.5273366304014907,0.8474476311183934,-0.0612257359990446,0.0586903101402709,3.0,0
29.969057083129883,1.7562294006347656,-0.8640948534011841,-0.0,-0.0,-1.0,0.1684706734472892,1.0,0
29.749347686767575,1.7490439414978027,-0.8828867673873901,-0.0,-0.0,-1.0,0.1250047593340416,1.0,0
29.28530502319336,2.5904431343078613,-0.8591264486312866,-0.0,-0.0,-1.0,0.1520088436116474,1.0,0
30.101701736450195,0.8405613899230957,-0.8368159532546997,-0.0,-0.0,-1.0,0.0358885726882038,2.0,0
29.916257858276367,0.7849159240722656,-0.8371208906173706,-0.0,-0.0,-1.0,0.0456033163003581,1.0,0
29.487247467041016,1.3784189224243164,-0.8066667318344116,-0.0,-0.0,-1.0,0.0687884829369065,2.0,0
29.56841468811035,1.637831687927246,-0.8701218366622925,-0.0,-0.0,-1.0,0.0715051092305391,2.0,0
29.812612533569336,0.6507596969604492,-0.8054629564285278,-0.0,-0.0,-1.0,0.0645532655152494,1.0,0
29.73273468017578,0.6381301879882812,-0.8103982210159302,-0.0,-0.0,-1.0,0.0642922660910111,1.0,0
30.138944625854492,2.487570285797119,-0.7566651105880737,-0.0,-0.0,-1.0,0.2123912576923118,2.0,0
29.99811553955078,2.699065685272217,-0.5191460847854614,-0.0,-0.0,-1.0,0.1902377150575984,1.0,0
29.952857971191406,3.0165181159973145,-0.5881897211074829,-0.0,-0.0,-1.0,0.1930083305699649,1.0,0
30.145917892456055,1.9007959365844729,-0.613540530204773,0.7683368570367783,0.4777403993034497,0.4259373017149658,0.2061356779109459,3.0,0
29.96306037902832,2.312004566192627,-0.5836840867996216,-0.0,-0.0,-1.0,0.1999354536889752,1.0,0
29.75827980041504,2.415755271911621,-0.7719402313232422,-0.8265753490315402,-0.2237439448053987,-0.5164415160851287,0.1446125736892003,4.0,0
29.354686737060547,2.684436321258545,-0.7209688425064087,-0.0,-0.0,-1.0,0.1623863559918278,1.0,0
29.243690490722656,2.929349422454834,-0.6319680213928223,-0.0,-0.0,-1.0,0.1369512794076505,2.0,0
29.631994247436523,1.88116455078125,-0.6541237831115723,-0.0,-0.0,-1.0,0.118053972323455,1.0,0
29.413585662841797,2.155122756958008,-0.7415236234664917,-0.6228752656334855,-0.3216388250438737,-0.7131443540310833,0.1244427141612501,3.0,0
29.183170318603516,2.578856945037842,-0.7160071134567261,0.564047923688333,0.7839407283317159,-0.2593971361553915,0.2428414369320573,4.0,0
28.74489402770996,3.109384059906006,-0.71741783618927,-0.0,-0.0,-1.0,0.1682765246964433,2.0,0
29.2033748626709,1.6901569366455078,-0.6514619588851929,-0.0,-0.0,-1.0,0.1889017528684552,1.0,0
29.156475067138672,1.9500236511230469,-0.7188423871994019,-0.1879442782029702,-0.2387123107090244,-0.9527294374620334,0.1275246815961337,3.0,0
29.498306274414062,0.8564872741699219,-0.4204579591751098,-0.0,-0.0,-1.0,0.214124473247054,2.0,0
29.336753845214844,1.1474738121032717,-0.7595391273498535,-0.2650404765352827,-0.7477345694150982,-0.6088074896874776,0.1126140318896776,5.0,0
29.077486038208008,1.2577061653137207,-0.6900246143341064,-0.0,-0.0,-1.0,0.2680984172041696,2.0,0
28.997705459594727,0.8538861274719238,-0.5984413623809814,-0.0,-0.0,-1.0,0.2033701120344055,1.0,0
28.790884017944336,1.073343276977539,-0.6785529851913452,-0.0,-0.0,-1.0,0.1627393115916076,1.0,0
28.48415756225586,1.207169532775879,-0.621734619140625,0.7352966259287271,-0.4707544510895192,0.4875747313768781,0.1514581594080082,3.0,0
28.59547996520996,0.8221697807312012,-0.6396907567977905,-0.0,-0.0,-1.0,0.2291000876842369,1.0,0
28.19158172607422,1.0752778053283691,-0.6302492618560791,-0.0,-0.0,-1.0,0.1080108958291335,1.0,0
27.871875762939453,1.559791088104248,-0.5070561170578003,-0.2681506304563158,0.7947733332187366,0.5444543949590818,0.2421764291967611,3.0,0
27.732336044311523,1.690504550933838,-0.5503937005996704,-0.5555220348313686,0.4246289681486347,0.71490244664978,0.1561381956241579,3.0,0
28.082670211791992,0.7929649353027344,-0.5803450345993042,-0.0,-0.0,-1.0,0.0942971516530444,1.0,0
30.089025497436523,2.3684606552124023,-0.1599956750869751,0.1278785852393477,0.9532925441252608,0.2736428196616353,0.0939823514691468,3.0,0
30.183454513549805,1.914350986480713,-0.3427543640136719,-0.0,-0.0,-1.0,0.2054763429051288,2.0,0
29.31344223022461,2.8457913398742676,-0.3036864995956421,0.2916063208608737,0.925958475425084,-0.2399305220734519,0.1444366387166967,5.0,0
29.20435905456543,2.8983778953552246,-0.3219813108444214,-0.0,-0.0,-1.0,0.232181697399907,2.0,0
29.118736267089844,2.707131862640381,-0.2973417043685913,0.5139779737869719,0.805792747568123,0.2941507953898037,0.1934313201190813,5.0,0
29.035690307617188,2.747249126434326,-0.3115463256835937,-0.0,-0.0,-1.0,0.1315207570897518,1.0,0
28.57625389099121,3.131295680999756,-0.4186574220657348,-0.0,-0.0,-1.0,0.1613931321325974,2.0,0
29.133037567138672,1.7114653587341309,-0.3943828344345093,-0.0,-0.0,-1.0,0.1472919948204716,2.0,0
28.954927444458008,2.351339340209961,-0.2524837255477905,0.3502123829599535,-0.7969732148686894,-0.4921229334255586,0.2429847252627678,3.0,0
28.52798843383789,2.6373953819274902,-0.3409698009490967,0.1225726437980275,-0.5811072738004168,0.8045435248192663,0.1863868764554041,5.0,0
28.277278900146484,2.737246036529541,-0.3824909925460815,-0.0,-0.0,-1.0,0.1401425622745148,2.0,0
27.943660736083984,3.1100611686706543,-0.4781814813613891,-0.0,-0.0,-1.0,0.1425906573086426,2.0,0
29.07441520690918,1.4140090942382812,-0.3400510549545288,-0.0,-0.0,-1.0,0.122405041872061,1.0,0
28.86731719970703,1.6714181900024414,-0.4137119054794311,-0.0,-0.0,-1.0,0.2055030553898958,2.0,0
28.030746459960938,2.620509624481201,-0.3886324167251587,-0.0,-0.0,-1.0,0.1906562823984262,1.0,0
27.742481231689453,2.837713718414306,-0.4547644853591919,-0.0,-0.0,-1.0,0.1231088874104773,2.0,0
28.74311256408691,1.136826992034912,-0.319718599319458,-0.0,-0.0,-1.0,0.2411223970945369,2.0,0
28.569957733154297,1.3050990104675293,-0.3729987144470215,0.9949908106959456,0.0015929092062146,0.0999537356524761,0.1946828975714913,5.0,0
28.363590240478516,0.9684047698974608,-0.3302259445190429,-0.0,-0.0,-1.0,0.2113518444969672,1.0,0
28.293821334838867,1.1442203521728516,-0.3733975887298584,-0.0,-0.0,-1.0,0.2404866601188109,2.0,0
27.985107421875,2.4864296913146973,-0.0708252191543579,0.8194291968149336,0.1256611205305607,-0.5592361524385178,0.223405307366211,3.0,0
29.917062759399418,3.0941123962402344,-0.8606783151626587,-0.0,-0.0,-1.0,0.1570011986916124,2.0,0
29.836864471435547,2.926339626312256,-0.8172322511672974,-0.0,-0.0,-1.0,0.0904504334556979,2.0,0
29.533275604248047,3.026616096496582,-0.8585933446884155,-0.2379043039247112,0.9708602540993594,0.0288428359255151,0.0847806099441903,3.0,0
29.264005661010746,2.97737455368042,-0.8594342470169067,-0.0,-0.0,-1.0,0.1689141596783198,1.0,0
30.1953067779541,2.6018033027648926,-0.5796583890914917,-0.0,-0.0,-1.0,0.1406890814424435,2.0,0
30.20630645751953,2.2581167221069336,-0.4911892414093017,-0.0,-0.0,-1.0,0.0915837243895055,1.0,0
30.051815032958984,2.5586605072021484,-0.5731943845748901,0.2202084086874626,0.2069626094360533,-0.95324432074823,0.2359057061799309,12.0,0
29.775861740112305,2.699275016784668,-0.7568763494491577,-0.0,-0.0,-1.0,0.1807952165327902,2.0,0
29.45414352416992,2.995767593383789,-0.5697952508926392,-0.0,-0.0,-1.0,0.2063809616680603,1.0,0
29.963817596435547,1.728769302368164,-0.4810807704925537,0.2198220334384001,-0.1553907012691585,-0.9630846294973696,0.1488321654143783,4.0,0
29.23235321044922,2.606782913208008,-0.4886693954467773,-0.0,-0.0,-1.0,0.1774521184430374,2.0,0
29.36772918701172,2.8291187286376953,-0.5343629121780396,-0.0,-0.0,-1.0,0.2172033654172689,2.0,0
29.41377067565918,1.666643142700195,-0.4886194467544555,-0.0,-0.0,-1.0,0.1220370771724719,1.0,0
29.009748458862305,2.432992935180664,-0.4608752727508545,-0.0,-0.0,-1.0,0.1269326986986533,1.0,0
28.686847686767575,3.1041879653930664,-0.6426874399185181,-0.0,-0.0,-1.0,0.162201205162068,1.0,0
29.08765411376953,1.417701244354248,-0.4408901929855346,-0.0,-0.0,-1.0,0.1700705178382791,1.0,0
29.251577377319336,1.692093849182129,-0.5054835081100464,-0.0,-0.0,-1.0,0.2471914807988127,2.0,0
28.995868682861328,1.343456745147705,-0.4273425340652466,-0.9814855873607696,-0.1663354155601982,0.0949661588856833,0.161368043887198,5.0,0
28.753448486328125,1.303943157196045,-0.4363045692443847,-0.0,-0.0,-1.0,0.2178502886879248,2.0,0
28.04562187194824,2.5219664573669434,-0.5591708421707153,-0.0,-0.0,-1.0,0.2047395998186884,2.0,0
