x,y,z,nx,ny,nz,curvature,density,label
36.51644134521485,-13.278444290161133,0.9624052047729492,0.5268689629667263,0.8401853405085961,0.128443331694646,0.1870376234592976,5.0,1.0
36.32784652709961,-13.733983993530272,0.2576205730438232,-0.8025533168413433,0.5893460779263643,-0.0926249105790128,0.1944333946887078,3.0,1.0
36.43061065673828,-12.393491744995115,0.3249686956405639,0.4059669059011354,0.882352508644678,0.238001936549899,0.1680439735255403,3.0,1.0
36.574188232421875,-12.193281173706056,0.3282281160354614,-0.0,-0.0,-1.0,0.1394782669360059,2.0,1.0
36.95869064331055,-12.440401077270508,0.2941010594367981,-0.4686728457665734,-0.3641562878750224,-0.8048204530466068,0.1614883290656915,4.0,1.0
37.02750778198242,-12.369352340698242,0.2942173480987549,0.5549617684961575,0.8258374086862884,-0.1000500370911149,0.1788772733293231,5.0,1.0
36.46109390258789,-13.309555053710938,0.9645068049430848,-0.6352500879970087,0.3400923227437525,-0.6933934941363037,0.1856777642534613,3.0,1.0
36.98342514038086,-12.105106353759766,-0.2455496788024902,-0.0878812583405903,0.913641046006486,-0.3969092131516334,0.1807220014552517,3.0,0.0
36.58428955078125,-12.418405532836914,0.3720740079879761,-0.0,-0.0,-1.0,0.1843490539593221,2.0,1.0
36.9783935546875,-12.617364883422852,0.3426448106765747,-0.0,-0.0,-1.0,0.1249639925217679,2.0,1.0
36.44009780883789,-13.30190086364746,0.9874964952468872,-0.0,-0.0,-1.0,0.1856777642534612,2.0,1.0
36.935646057128906,-12.112333297729492,-0.2516063451766968,-0.0,-0.0,-1.0,0.1564842450746531,2.0,0.0
37.364505767822266,-12.739364624023438,-0.3263745307922363,-0.0,-0.0,-1.0,0.0784253229688108,1.0,0.0
36.302127838134766,-13.793886184692385,0.2551556825637817,-0.0,-0.0,-1.0,0.2316155112246427,2.0,1.0
36.180419921875,-14.294788360595703,0.2298942804336547,-0.0925683398834017,-0.9953574182924656,-0.0263573955729371,0.1672676055308311,3.0,1.0
36.517581939697266,-12.386960983276367,0.3306725025177002,-0.0,-0.0,-1.0,0.1998968269394623,1.0,1.0
36.51527786254883,-13.591056823730469,0.2593848705291748,-0.0,-0.0,-1.0,0.211332809197944,1.0,1.0
36.59647750854492,-12.198369979858398,0.3389654755592346,-0.0,-0.0,-1.0,0.1449248007783467,2.0,1.0
36.83816146850586,-12.451980590820312,0.3149322271347046,-0.0,-0.0,-1.0,0.1876095983961876,1.0,1.0
37.44258117675781,-12.768381118774414,0.2729348540306091,-0.7735995554641825,0.6240167759258849,-0.1102124818189073,0.1091036928559036,4.0,1.0
36.436038970947266,-13.335649490356444,0.9024533033370972,-0.0,-0.0,-1.0,0.162400640292923,1.0,1.0
35.851707458496094,-12.994731903076172,0.1829266548156738,-0.0,-0.0,-1.0,0.0560160448907258,2.0,1.0
36.1611442565918,-14.110034942626951,0.0908958911895752,-0.3109567980995967,-0.939203484843171,-0.1456114136120183,0.2244260285138312,3.0,1.0
36.161865234375,-13.050128936767578,0.1686394214630127,-0.0,-0.0,-1.0,0.1294010958457824,2.0,1.0
36.27758026123047,-14.159873962402344,0.0831649303436279,-0.0,-0.0,-1.0,0.2088223976674656,1.0,1.0
36.60601806640625,-12.532699584960938,0.1911370754241943,-0.0,-0.0,-1.0,0.1411090060048603,1.0,1.0
37.073455810546875,-12.399328231811523,0.1835691928863525,0.0261642665618535,-0.2195846325653032,-0.9752425443429144,0.1361736543040266,5.0,1.0
37.46574401855469,-12.16008758544922,0.1858386993408203,0.8830968352138034,-0.4204830103209254,-0.2081682436559831,0.2443754508879592,4.0,1.0
37.33826446533203,-12.40203857421875,0.1730453968048095,-0.0,-0.0,-1.0,0.2125225500020777,1.0,1.0
36.340484619140625,-13.39708137512207,0.725470781326294,-0.0,-0.0,-1.0,0.1630794975466692,2.0,1.0
37.106441497802734,-12.743267059326172,0.7197121381759644,-0.9229151883940092,0.2237927088717562,-0.3132800320599644,0.108903197638473,3.0,1.0
36.72099685668945,-12.384279251098633,-0.1789240837097168,-0.0,-0.0,-1.0,0.093982932495648,1.0,0.0
36.952144622802734,-12.392955780029297,-0.1842094659805297,-0.0,-0.0,-1.0,0.1908311864765306,2.0,0.0
37.418025970458984,-12.063323974609377,-0.159653902053833,0.0185072906723597,0.1835960958744476,-0.9828275300232644,0.2834769500521157,3.0,0.0
37.27079772949219,-12.273237228393556,-0.1783126592636108,-0.0,-0.0,-1.0,0.2006274614651838,2.0,0.0
37.40278625488281,-12.733438491821287,-0.2295464277267456,-0.0,-0.0,-1.0,0.1345819407126571,1.0,0.0
37.54343032836914,-12.917659759521484,-0.2522934675216675,-0.0,-0.0,-1.0,0.154554363230559,1.0,0.0
35.99228286743164,-14.2008056640625,0.2273077964782714,-0.0,-0.0,-1.0,0.1414833530757874,2.0,1.0
36.35497283935547,-12.501424789428713,0.3370946049690246,-0.0,-0.0,-1.0,0.1614259527596222,1.0,1.0
36.47891998291016,-13.367963790893556,0.2745602130889892,-0.0,-0.0,-1.0,0.1641344615570029,2.0,1.0
36.30397415161133,-13.805452346801758,0.248110294342041,-0.0,-0.0,-1.0,0.2296643403154759,2.0,1.0
36.17547225952149,-14.243741989135742,0.2205662727355957,-0.0,-0.0,-1.0,0.1296674850087084,2.0,1.0
36.63416290283203,-12.363954544067385,0.3406237363815307,0.509960279137473,0.7977791250153872,-0.3216970335450942,0.2062790287170872,5.0,1.0
36.89764404296875,-12.517805099487305,0.3238998055458069,-0.0,-0.0,-1.0,0.1994711077602371,1.0,1.0
37.34262466430664,-12.423006057739258,0.3193749785423279,-0.0,-0.0,-1.0,0.1420202667076772,1.0,1.0
37.40155792236328,-12.901939392089844,0.2843776941299438,-0.0,-0.0,-1.0,0.1176972602642386,1.0,1.0
36.43744659423828,-13.37586784362793,0.8245667219161987,-0.0,-0.0,-1.0,0.1558375304491797,1.0,1.0
36.87590408325195,-12.090872764587402,-0.2587264776229858,-0.0,-0.0,-1.0,0.072600208465477,1.0,0.0
36.7435188293457,-12.175704002380373,-0.2653893232345581,-0.0,-0.0,-1.0,0.0681059075310767,1.0,0.0
36.98973846435547,-12.112887382507324,-0.264858603477478,-0.0,-0.0,-1.0,0.1690226906894946,2.0,0.0
37.20475006103515,-12.246686935424805,-0.2883440256118774,-0.0,-0.0,-1.0,0.1950323434748082,1.0,0.0
37.67660140991211,-12.577557563781738,-0.3460595607757568,-0.0,-0.0,-1.0,0.1128618679532275,1.0,0.0
35.68217468261719,-12.782952308654783,0.1868234872817993,0.7325851006087586,0.6490394103721462,-0.2051022041564447,0.2019858539663561,3.0,1.0
36.06515121459961,-12.97084617614746,0.1589120626449585,-0.0,-0.0,-1.0,0.0604003931314287,1.0,1.0
36.11449432373047,-14.03116226196289,0.0635786056518554,-0.6944719646341696,0.4544143314637766,-0.5578676417372542,0.1714058668426064,4.0,1.0
36.374267578125,-12.461060523986816,0.1942620277404785,-0.0,-0.0,-1.0,0.1576108016054026,1.0,1.0
36.53694152832031,-13.192519187927246,0.1239577531814575,0.3449439762551824,0.9225616859518868,0.1728976253708425,0.1861332931559788,3.0,1.0
36.81958770751953,-12.704306602478027,0.1576311588287353,-0.0,-0.0,-1.0,0.2380489941230656,2.0,1.0
35.583717346191406,-14.313702583312988,0.6066694855690002,-0.0,-0.0,-1.0,0.0730257947969416,1.0,1.0
36.5379753112793,-12.377204895019531,0.1963419914245605,0.2193504153216146,0.9263092507486628,-0.3063275489989203,0.222803507690572,3.0,1.0
36.89032745361328,-12.33036994934082,0.1884152889251709,-0.0,-0.0,-1.0,0.2034258353627698,2.0,1.0
37.20408248901367,-12.384292602539062,0.1722139120101928,0.4492634728584973,0.8788281267072646,0.1606967817453806,0.2068461009289847,3.0,1.0
37.18318176269531,-12.534262657165527,0.1596121788024902,-0.0,-0.0,-1.0,0.1917497601312935,2.0,1.0
37.4680290222168,-12.156458854675291,0.1825984716415405,0.8830968352138034,-0.4204830103209254,-0.2081682436559831,0.1907965310008122,4.0,1.0
36.437400817871094,-13.290732383728027,0.6290137767791748,-0.5470399946250921,-0.232766356382238,-0.8040939420348325,0.1676509378902452,3.0,1.0
36.97689437866211,-12.76264762878418,0.6359051465988159,-0.0,-0.0,-1.0,0.0758950807004809,2.0,1.0
37.4496955871582,-13.403644561767578,-0.2250785827636718,-0.0,-0.0,-1.0,0.0720205084785704,2.0,0.0
35.380977630615234,-12.101590156555176,-0.1026778221130371,-0.0,-0.0,-1.0,0.1975465978428818,2.0,0.0
35.68452072143555,-11.915657043457031,-0.0763611793518066,-0.0,-0.0,-1.0,0.1820141580567134,2.0,0.0
35.786678314208984,-12.277867317199709,-0.1140608787536621,-0.0,-0.0,-1.0,0.1297451114972599,1.0,0.0
35.94993209838867,-14.07628059387207,0.1975430250167846,-0.0,-0.0,-1.0,0.1946980012211745,1.0,1.0
35.89765548706055,-14.311956405639648,0.1793661117553711,-0.0,-0.0,-1.0,0.1461529658352184,1.0,1.0
36.122093200683594,-12.47726821899414,-0.1308162212371826,-0.0,-0.0,-1.0,0.108864023332074,1.0,0.0
36.19374465942383,-12.592412948608398,-0.142482042312622,-0.0,-0.0,-1.0,0.2622014674492219,2.0,0.0
36.1114501953125,-14.044671058654783,0.2005567550659179,-0.0,-0.0,-1.0,0.2105059339236532,1.0,1.0
36.56734085083008,-12.401312828063965,-0.1171633005142211,-0.0,-0.0,-1.0,0.1524094702441906,2.0,0.0
36.75033950805664,-12.553091049194336,-0.132403016090393,-0.0,-0.0,-1.0,0.0819512842153929,1.0,0.0
36.47972106933594,-13.727349281311035,0.225748062133789,-0.0,-0.0,-1.0,0.1666587341727216,2.0,1.0
37.0595817565918,-12.33498764038086,-0.10606050491333,-0.0,-0.0,-1.0,0.2161572847007909,1.0,0.0
36.81169128417969,-12.58783721923828,-0.1358257532119751,-0.0,-0.0,-1.0,0.1083907105182516,1.0,0.0
37.43115234375,-12.037105560302734,-0.0713404417037963,-0.0,-0.0,-1.0,0.206773460021584,1.0,0.0
37.33193588256836,-12.159096717834473,-0.085261583328247,-0.0,-0.0,-1.0,0.1940866462768834,2.0,0.0
37.48046875,-12.810148239135742,-0.1582479476928711,-0.0,-0.0,-1.0,0.2441743817025073,1.0,0.0
37.5655517578125,-12.15608024597168,-0.0845000743865966,-0.5868040005417028,0.6895937940720016,0.4244071914160209,0.2116355617778632,5.0,0.0
36.58956527709961,-12.353032112121582,0.3313801288604736,0.0916166571899722,0.834241908384909,0.5437341504997092,0.2620381550920934,3.0,1.0
36.48406219482422,-13.322681427001951,0.2568168640136719,0.673613104453243,-0.1800248140784411,-0.7168238638779314,0.1919667032220878,4.0,1.0
36.929237365722656,-12.462875366210938,0.3233718872070312,0.6691987298416223,-0.7430458028763564,-0.0074829677395016,0.1641153374522262,5.0,1.0
36.98491287231445,-12.799565315246582,0.2974035143852234,0.2458850343510346,0.5958020723369841,-0.7645655239946055,0.1756546136517235,3.0,1.0
37.44573974609375,-12.758145332336426,0.2996150851249695,-0.8264849743140896,-0.3354948842555443,-0.4520683243398033,0.1217897558661414,5.0,1.0
36.35807037353515,-13.366798400878906,0.7301532030105591,-0.0,-0.0,-1.0,0.1754544084200358,2.0,1.0
37.0635871887207,-12.748283386230469,0.7524880170822144,-0.8319618655254504,-0.0811499260210393,-0.5488662349044549,0.0970035909566417,3.0,1.0
35.38068389892578,-12.087543487548828,-0.0406328439712524,-0.0,-0.0,-1.0,0.1358402743600948,2.0,0.0
35.22373580932617,-12.321731567382812,-0.0699125528335571,-0.0,-0.0,-1.0,0.0936529853577264,1.0,0.0
35.69854736328125,-12.303558349609377,-0.0578374862670898,-0.0,-0.0,-1.0,0.1301861590858412,1.0,0.0
36.05987930297851,-12.49433422088623,-0.0728468894958496,-0.0,-0.0,-1.0,0.0936596427701229,1.0,0.0
36.573944091796875,-12.429901123046877,-0.0590771436691284,-0.0351058757914903,-0.3360765972956127,-0.9411801624742816,0.1628101858143392,3.0,0.0
36.33188247680664,-12.529783248901367,-0.0730279684066772,-0.0,-0.0,-1.0,0.2041357841966516,1.0,0.0
35.99530792236328,-14.129400253295898,0.2281732559204101,-0.3938323943270102,-0.7362606498798089,-0.5502874708888217,0.2532957203031644,3.0,1.0
37.04224395751953,-12.261771202087402,-0.0362651348114013,-0.0,-0.0,-1.0,0.2340452314294138,2.0,0.0
36.744041442871094,-12.664494514465332,-0.0839887857437133,-0.0,-0.0,-1.0,0.1957795990462977,1.0,0.0
36.6864128112793,-13.16010284423828,-0.1404812335968017,-0.0,-0.0,-1.0,0.1600375574367283,1.0,0.0
37.40079879760742,-12.12650203704834,-0.0194300413131713,-0.0,-0.0,-1.0,0.1580781401296977,2.0,0.0
37.250999450683594,-12.252155303955078,-0.0341460704803466,0.8693710988334623,-0.0305571657379574,-0.4932141037472075,0.2137053191648777,4.0,0.0
37.65419006347656,-12.13138484954834,-0.019652247428894,-0.0,-0.0,-1.0,0.1594731188838318,1.0,0.0
37.40747833251953,-13.583786964416504,-0.1857380867004394,-0.0,-0.0,-1.0,0.0845649458728153,1.0,0.0
36.58364486694336,-12.375736236572266,0.3672122359275818,0.982077168736431,0.0359199247937239,0.1850248460327668,0.1902837377191703,3.0,1.0
36.4384880065918,-13.398423194885254,0.2868191003799438,-0.0,-0.0,-1.0,0.1205562315367926,2.0,1.0
36.11213684082031,-13.933712005615234,0.2439136505126953,-0.0,-0.0,-1.0,0.165834516077181,1.0,1.0
36.95204544067383,-12.549823760986328,0.3541886806488037,-0.0,-0.0,-1.0,0.1979624231387491,1.0,1.0
36.93220138549805,-12.786030769348145,0.3355775475502014,-0.0,-0.0,-1.0,0.1561578463229933,1.0,1.0
36.513763427734375,-13.252887725830078,0.2984012961387634,-0.2643733209010991,0.6413480647386788,-0.7202634289283859,0.1726977619169005,3.0,1.0
36.46583557128906,-13.727184295654297,0.2611401081085205,-0.0,-0.0,-1.0,0.1513708796696981,2.0,1.0
37.40473937988281,-12.340174674987791,0.3701953887939453,-0.0,-0.0,-1.0,0.1351084249335134,1.0,1.0
37.4293212890625,-12.778096199035645,0.3354312777519226,-0.9068252276467929,-0.0102085982787354,-0.4213831878759829,0.1055385442148929,3.0,1.0
37.05278396606445,-12.734336853027344,0.7668013572692871,-0.8766191776488858,-0.2709047546032397,-0.3976800614961104,0.0970035909566417,3.0,1.0
35.45152282714844,-12.117512702941896,-0.0701130628585815,-0.0,-0.0,-1.0,0.0980397411916268,1.0,0.0
35.84086227416992,-12.27061939239502,-0.0867727994918823,-0.0,-0.0,-1.0,0.0960876167485884,1.0,0.0
36.21141815185547,-12.504575729370115,-0.1153875589370727,-0.0,-0.0,-1.0,0.157175611367092,2.0,0.0
36.68768310546875,-12.386907577514648,-0.1019529104232788,-0.0,-0.0,-1.0,0.197999908765452,1.0,0.0
36.57731628417969,-12.475568771362305,-0.1127033233642578,-0.0,-0.0,-1.0,0.162299927105238,1.0,0.0
37.54069900512695,-11.968256950378418,-0.0568389892578125,-0.0,-0.0,-1.0,0.1922800388585132,1.0,0.0
37.35149002075195,-12.113064765930176,-0.0728989839553833,-0.573797673007743,0.415386230832148,-0.7058402862446722,0.1950724075648454,5.0,0.0
37.113643646240234,-12.28347110748291,-0.0919721126556396,-0.0627088535877409,0.849476748107803,-0.5238862988339205,0.2545305736766443,3.0,0.0
36.900657653808594,-12.627626419067385,-0.1337839365005493,-0.0,-0.0,-1.0,0.1790354470475358,1.0,0.0
37.59798049926758,-12.12009620666504,-0.0770443677902221,-0.7487323404419544,0.6578035842647724,0.0818188664351457,0.1747549147058774,3.0,0.0
37.56184005737305,-13.053854942321776,-0.1957895755767822,-0.0,-0.0,-1.0,0.199064801033155,1.0,0.0
36.99970626831055,-12.078123092651367,0.3211742043495178,-0.0,-0.0,-1.0,0.2225764230643369,1.0,1.0
36.751861572265625,-12.385247230529783,0.2961134910583496,-0.0,-0.0,-1.0,0.2184432905493758,1.0,1.0
35.97432327270508,-14.006691932678224,0.1561098098754882,-0.0,-0.0,-1.0,0.1892472514105265,2.0,1.0
37.04610824584961,-12.397819519042969,0.2911153435707092,0.6112095307503537,0.7855726528994841,-0.0964288159027094,0.091155758966468,6.0,1.0
36.55211639404297,-13.25253677368164,0.219048261642456,-0.0,-0.0,-1.0,0.1774812804431664,2.0,1.0
36.488624572753906,-13.360379219055176,0.2099078893661499,-0.0,-0.0,-1.0,0.1546812521622685,1.0,1.0
36.22648239135742,-13.790689468383787,0.1734015941619873,-0.0,-0.0,-1.0,0.1457952498581731,1.0,1.0
36.16013717651367,-14.112974166870115,0.1446322202682495,-0.332579812469494,-0.9430738320244566,0.0015542485203936,0.2082495500718672,6.0,1.0
37.43998718261719,-12.58786678314209,0.2673256397247314,-0.0,-0.0,-1.0,0.1150647610986597,1.0,1.0
35.65699768066406,-14.294791221618652,0.6016750335693359,-0.0,-0.0,-1.0,0.0701458317065887,1.0,1.0
36.56474304199219,-13.226400375366213,0.6472679376602173,-0.0,-0.0,-1.0,0.2034338277471099,2.0,1.0
36.4544677734375,-13.352150917053224,0.6420608162879944,-0.0,-0.0,-1.0,0.2296605326866944,2.0,1.0
35.523860931396484,-12.41238021850586,-0.0035114288330078,-0.9537972789258916,-0.0561196705666021,-0.2951632316008577,0.1504715159766083,5.0,0.0
35.2349853515625,-12.517601013183594,-0.0164312124252319,-0.0,-0.0,-1.0,0.1155740255434046,1.0,0.0
35.81168746948242,-12.41741180419922,-0.0053751468658447,-0.0,-0.0,-1.0,0.1577679243902523,1.0,0.0
36.203372955322266,-12.58742332458496,-0.0299692153930664,0.1718156297376894,0.7073652303217018,-0.685648467007523,0.180850042092433,3.0,0.0
37.14247512817383,-11.889068603515623,-0.3025681972503662,-0.0,-0.0,-1.0,0.0942719855407418,1.0,0.0
36.999786376953125,-12.29213523864746,-0.0038347244262695,-0.0,-0.0,-1.0,0.1474914708847959,1.0,0.0
36.58726501464844,-12.519769668579102,-0.0260801315307617,-0.0,-0.0,-1.0,0.1237529335907972,1.0,0.0
36.42414474487305,-12.61186981201172,-0.035559058189392,-0.0,-0.0,-1.0,0.1606816477042438,1.0,0.0
37.448272705078125,-12.086126327514648,-0.1633439064025879,0.0185072906723597,0.1835960958744476,-0.9828275300232644,0.1529513304737481,3.0,0.0
37.2606201171875,-12.285537719726562,-0.0083904266357421,0.8693710988334623,-0.0305571657379574,-0.4932141037472075,0.1758149214866123,4.0,0.0
36.67905807495117,-13.337617874145508,-0.13210129737854,-0.0,-0.0,-1.0,0.1999737392446672,1.0,0.0
37.66921615600586,-12.757972717285156,-0.0793373584747314,-0.0,-0.0,-1.0,0.1731579581840153,2.0,0.0
37.48224639892578,-13.69599151611328,-0.1953572034835815,-0.0,-0.0,-1.0,0.0846357890369387,1.0,0.0
37.23948669433594,-11.865291595458984,0.0461812019348144,-0.0,-0.0,-1.0,0.1474861721279149,1.0,1.0
36.756534576416016,-12.43852424621582,0.3470367193222046,-0.0,-0.0,-1.0,0.2018898355248026,2.0,1.0
37.20899963378906,-12.434633255004885,0.3369872570037842,-0.0,-0.0,-1.0,0.1982080476356475,1.0,1.0
37.00665664672851,-12.79449462890625,0.3083477616310119,0.6717546536151551,-0.5259169625887287,-0.5216867199841576,0.1200043521433976,6.0,1.0
36.49788284301758,-13.287282943725586,0.2736035585403442,0.9286699438815283,-0.3680183142678856,-0.0462023342971178,0.1462934984670232,4.0,1.0
36.3272590637207,-13.738332748413086,0.2350407838821411,-0.8025533168413433,0.5893460779263643,-0.0926249105790128,0.2049294273233253,3.0,1.0
36.08558654785156,-14.171974182128906,0.1994153261184692,-0.0,-0.0,-1.0,0.1614287134051751,1.0,1.0
37.45867156982422,-12.745006561279297,0.3016488552093506,-0.0695121282074656,0.7024789318901118,-0.7083017819281526,0.1326893349517346,5.0,1.0
37.4147834777832,-12.839847564697266,0.2939550876617431,-0.0,-0.0,-1.0,0.0941591930006217,2.0,1.0
36.553035736083984,-13.126890182495115,0.675464391708374,-0.0,-0.0,-1.0,0.155669471051089,1.0,1.0
37.057350158691406,-12.759668350219728,0.6835876107215881,-0.0,-0.0,-1.0,0.108903197638473,2.0,1.0
36.48697280883789,-13.290674209594728,0.667609691619873,-0.4308451588187234,-0.8419240975669697,-0.324863452943714,0.202993802261618,3.0,1.0
35.40223693847656,-11.990976333618164,-0.1450573205947876,-0.0,-0.0,-1.0,0.1959173737109077,1.0,0.0
35.928306579589844,-12.034822463989258,-0.1431366205215454,-0.0,-0.0,-1.0,0.1118044149796599,2.0,0.0
35.6716194152832,-12.060230255126951,-0.1507812738418579,-0.356522472067165,-0.2470666376284405,-0.9010270825464096,0.1895325925969581,4.0,0.0
35.47148132324219,-12.493711471557615,0.1310126781463623,-0.0,-0.0,-1.0,0.1836842883235462,1.0,1.0
36.28609085083008,-12.18648910522461,-0.1634837388992309,-0.0,-0.0,-1.0,0.0964525838016513,1.0,0.0
35.97804641723633,-12.399658203125,-0.0236905813217163,-0.0,-0.0,-1.0,0.1756067954322597,2.0,0.0
35.70365524291992,-12.563417434692385,0.1246856451034545,0.6434163117614061,-0.0691637172296945,-0.762385617636062,0.1414457344199714,4.0,1.0
35.26863479614258,-13.275154113769531,0.0364241600036621,-0.4447455052332886,-0.3248143423178187,-0.8346838195385302,0.109419202755093,5.0,1.0
37.35984420776367,-11.88327980041504,-0.1190872192382812,-0.0,-0.0,-1.0,0.2686283988008876,1.0,0.0
36.777774810791016,-12.346685409545898,-0.1876987218856811,-0.0,-0.0,-1.0,0.0728294053332216,1.0,0.0
36.44741439819336,-12.320974349975586,-0.1837060451507568,-0.0,-0.0,-1.0,0.1022660897680364,1.0,0.0
36.20491027832031,-12.706058502197266,0.1094477176666259,0.4545523413860298,0.8774234400063696,0.1533306096898677,0.1364781853382106,3.0,1.0
35.23514175415039,-13.416301727294922,0.019363522529602,-0.0,-0.0,-1.0,0.0405202432594699,1.0,1.0
37.56203079223633,-11.980718612670898,-0.1372034549713134,-0.0,-0.0,-1.0,0.2167910845064961,2.0,0.0
37.33027267456055,-12.13690185546875,-0.158720850944519,-0.4116094549960123,0.8882842728246403,0.203785934770498,0.22360540427434,3.0,0.0
37.00907516479492,-12.336784362792969,-0.1872345209121704,-0.1244697796950356,-0.0338478407762381,-0.9916459033432528,0.1580714761721252,5.0,0.0
37.49576568603515,-12.795637130737305,-0.0875720977783203,-0.0,-0.0,-1.0,0.1480106645311968,1.0,0.0
36.57188034057617,-13.32742691040039,0.033634066581726,-0.0,-0.0,-1.0,0.2159428649961178,2.0,1.0
36.34687423706055,-13.636823654174805,-0.0029687881469726,-0.0,-0.0,-1.0,0.222456005543934,1.0,0.0
36.21341323852539,-14.06296157836914,-0.0541613101959228,-0.0,-0.0,-1.0,0.1548004999136694,1.0,0.0
37.64817810058594,-12.931522369384766,-0.107871413230896,-0.0,-0.0,-1.0,0.2410343637561662,1.0,0.0
36.707000732421875,-13.833898544311523,-0.0285563468933105,-0.0,-0.0,-1.0,0.1578694932870719,1.0,0.0
37.20096206665039,-13.921607971191406,-0.0439871549606323,-0.0,-0.0,-1.0,0.2564528129738851,1.0,0.0
36.620487213134766,-14.326404571533203,-0.0877279043197631,-0.0,-0.0,-1.0,0.1906246785641633,2.0,0.0
37.62345504760742,-14.357891082763672,-0.1033922433853149,-0.0,-0.0,-1.0,0.1337567971773355,1.0,0.0
36.846771240234375,-12.27383804321289,0.3274242281913757,-0.0,-0.0,-1.0,0.1170925644627378,1.0,1.0
36.58882141113281,-12.408246994018556,0.1447833776473999,-0.0,-0.0,-1.0,0.2752222904722809,2.0,1.0
37.42473983764648,-12.288946151733398,0.3191245198249817,-0.0,-0.0,-1.0,0.1362442110940305,1.0,1.0
37.10578918457031,-12.425006866455078,0.1391302347183227,0.3379419398738809,0.6425214608723931,-0.6877219042554078,0.1746700090956032,5.0,1.0
36.949424743652344,-12.773887634277344,0.4489625692367553,-0.7674412269373739,-0.6229249699899526,-0.1516523819789019,0.0788700676479936,3.0,1.0
36.46706771850586,-13.301107406616213,0.40813148021698,-0.0,-0.0,-1.0,0.13104463431108,1.0,1.0
37.269290924072266,-12.969366073608398,0.4280180335044861,-0.0,-0.0,-1.0,0.0803923338741034,1.0,1.0
36.54265594482422,-13.285833358764648,0.4088429808616638,-0.0,-0.0,-1.0,0.1825478338111925,2.0,1.0
36.375762939453125,-13.735687255859377,0.3714780807495117,-0.0,-0.0,-1.0,0.1312752103748924,1.0,1.0
36.619140625,-13.134084701538086,0.783525288105011,-0.0,-0.0,-1.0,0.1081531775205952,1.0,1.0
36.452144622802734,-13.303773880004885,0.7768594622612,0.5938779931236444,-0.7931510153704225,-0.1349829474426316,0.20957500854416,3.0,1.0
35.96917724609375,-11.960328102111816,-0.1579748392105102,-0.5928433702966174,0.6225735736546657,-0.510821772913221,0.1062757172390308,3.0,0.0
35.672142028808594,-11.964945793151855,-0.1662547588348388,-0.0,-0.0,-1.0,0.1816491478639882,2.0,0.0
36.230712890625,-12.13449001312256,-0.1804711818695068,-0.0,-0.0,-1.0,0.0405148031395693,2.0,0.0
37.43361282348633,-12.104832649230955,-0.1671143770217895,0.0185072906723597,0.1835960958744476,-0.9828275300232644,0.1736067491530361,3.0,0.0
37.15665817260742,-12.225465774536133,-0.1862550973892212,0.1231148567734082,0.5695924033066594,-0.8126544321770524,0.2019899350929952,4.0,0.0
36.882022857666016,-12.342540740966797,-0.206094741821289,-0.0,-0.0,-1.0,0.1192194798575412,2.0,0.0
35.280494689941406,-13.21719741821289,-0.0078762769699096,-0.0,-0.0,-1.0,0.1103698762938344,2.0,0.0
37.61174011230469,-12.75224781036377,-0.2721327543258667,-0.0,-0.0,-1.0,0.1281368421626111,1.0,0.0
36.68353271484375,-13.96678638458252,-0.0818400382995605,-0.0,-0.0,-1.0,0.1783102888911118,2.0,0.0
36.66472625732422,-14.238091468811035,-0.1158428192138671,-0.0,-0.0,-1.0,0.1972837609392083,2.0,0.0
35.89781188964844,-12.4489164352417,0.098683476448059,-0.3229755263496187,0.4094441516395266,-0.8532539458258455,0.100722986150668,4.0,1.0
35.49968719482422,-12.476407051086426,0.08766770362854,-0.3461586093551225,0.7008070501650945,0.6237336736205816,0.1565627309894004,4.0,1.0
37.47129440307617,-12.131211280822754,0.1486659049987793,0.8830968352138034,-0.4204830103209254,-0.2081682436559831,0.1808106377693405,4.0,1.0
37.022674560546875,-12.252009391784668,0.1338905096054077,0.3422204074249226,-0.1651046103627713,-0.9250003569614866,0.2177114977925761,4.0,1.0
36.6510009765625,-12.381447792053224,0.1160361766815185,-0.0,-0.0,-1.0,0.2717306078530155,2.0,1.0
36.34560012817383,-12.58881664276123,0.0874418020248413,-0.0,-0.0,-1.0,0.1559611426681809,2.0,1.0
37.43947982788086,-12.316500663757324,0.449435293674469,-0.0,-0.0,-1.0,0.1140481960560109,1.0,1.0
37.291297912597656,-12.431529998779297,0.1114541292190551,-0.0,-0.0,-1.0,0.1637527626516287,1.0,1.0
36.92438888549805,-12.674766540527344,0.2504557371139526,-0.0,-0.0,-1.0,0.2050840536743658,1.0,1.0
37.30449295043945,-12.945103645324709,0.3932498097419739,-0.0,-0.0,-1.0,0.0542863868819167,2.0,1.0
37.20029830932617,-12.93719482421875,0.3941478133201599,-0.8693654413107481,0.3517835787063056,-0.3470620163704931,0.064726801676649,3.0,1.0
36.48665618896485,-13.33752155303955,0.3569476008415222,-0.0,-0.0,-1.0,0.2116775837013186,2.0,1.0
36.24695587158203,-13.75167751312256,0.3185028433799743,-0.0,-0.0,-1.0,0.1895202222600017,1.0,1.0
35.569435119628906,-14.29802417755127,0.2639369964599609,-0.0,-0.0,-1.0,0.0847354179003136,1.0,1.0
37.103153228759766,-12.71401596069336,0.7502949237823486,-0.8751950854205077,0.4130042116080579,-0.2519148341201785,0.0970035909566417,4.0,1.0
36.56024932861328,-13.150262832641602,0.7264989614486694,-0.2932433706831113,-0.955520408712827,-0.0314495482269535,0.135167157545462,3.0,1.0
36.40005874633789,-13.321662902832031,0.7168847322463989,-0.0,-0.0,-1.0,0.192741390494632,1.0,1.0
35.29121398925781,-11.960230827331545,-0.1176323890686035,-0.0,-0.0,-1.0,0.2531125105126197,1.0,0.0
35.644039154052734,-12.09421443939209,-0.1310944557189941,-0.5305574104160133,-0.0592562270587634,-0.8455752679728837,0.1866489743488922,3.0,0.0
35.249908447265625,-12.087939262390137,-0.1383569240570068,-0.0,-0.0,-1.0,0.1518905357968791,1.0,0.0
35.83500671386719,-12.283917427062988,-0.1574172973632812,-0.0,-0.0,-1.0,0.1025924716855395,2.0,0.0
35.241729736328125,-13.24400234222412,0.0419884920120239,-0.4487936926124227,-0.3592301776765485,-0.8182529565591449,0.1151263346589851,4.0,1.0
35.7122688293457,-12.620830535888672,0.1221494674682617,0.954198486010119,0.2681448759977285,-0.132678463859662,0.1642249071991979,4.0,1.0
35.46422576904297,-12.587076187133787,0.1232447624206543,-0.0,-0.0,-1.0,0.2120704254147103,2.0,1.0
37.58258438110352,-12.159835815429688,0.6144552826881409,-0.0,-0.0,-1.0,0.0801578937514669,1.0,1.0
37.14983749389648,-12.161569595336914,0.0469547510147094,-0.0,-0.0,-1.0,0.1827982068594973,2.0,1.0
35.59965133666992,-12.438580513000488,0.2094568014144897,-0.0,-0.0,-1.0,0.1153368011692577,1.0,1.0
36.581424713134766,-13.291671752929688,0.2687691450119018,-0.0,-0.0,-1.0,0.1814159274439852,1.0,1.0
36.17839431762695,-13.348902702331545,0.3402591943740845,-0.0,-0.0,-1.0,0.1190079295990594,1.0,1.0
36.88052749633789,-13.729474067687988,0.2027826309204101,-0.0,-0.0,-1.0,0.2028838576596983,1.0,1.0
36.37936782836914,-13.670246124267578,0.2950862646102905,-0.0,-0.0,-1.0,0.1934757295383854,1.0,1.0
36.87430953979492,-13.88618278503418,0.1997554302215576,-0.0,-0.0,-1.0,0.1651778229976927,1.0,1.0
36.22054290771485,-14.01721477508545,0.1546865701675415,-0.0,-0.0,-1.0,0.2110240822936362,2.0,1.0
36.13184356689453,-14.059913635253906,0.3284449577331543,-0.0,-0.0,-1.0,0.1043932797900283,1.0,1.0
37.47450256347656,-12.264863014221191,0.4242919683456421,-0.0,-0.0,-1.0,0.1229788070776213,1.0,1.0
37.22139358520508,-12.07183837890625,0.4647343158721924,-0.0,-0.0,-1.0,0.1058185250086887,1.0,1.0
36.51226043701172,-13.309714317321776,0.5830578804016113,-0.2462880044483716,-0.3560836880122837,-0.9014136819443168,0.1870435918154896,4.0,1.0
36.584415435791016,-13.621026992797852,0.5721038579940796,-0.0,-0.0,-1.0,0.0879706463710037,1.0,1.0
36.47282409667969,-13.616621017456056,0.5899820327758789,-0.0,-0.0,-1.0,0.0920574149100225,1.0,1.0
37.501930236816406,-12.201982498168944,0.7132682204246521,-0.0,-0.0,-1.0,0.1808625405506838,1.0,1.0
36.62288665771485,-13.19573974609375,0.8643569946289062,-0.0,-0.0,-1.0,0.1021186705422218,1.0,1.0
36.45231246948242,-13.23244285583496,0.8892911076545715,-0.0,-0.0,-1.0,0.1514620481856753,1.0,1.0
36.50028991699219,-13.140056610107422,1.1737085580825806,-0.0,-0.0,-1.0,0.1084954202064434,2.0,2.0
37.5560302734375,-14.273935317993164,-0.2463859319686889,-0.0,-0.0,-1.0,0.095550672726141,1.0,0.0
36.30175018310547,-12.200067520141602,-0.2334452867507934,-0.0,-0.0,-1.0,0.0468648875604613,1.0,0.0
35.95685577392578,-12.23915672302246,-0.1773037910461425,-0.0,-0.0,-1.0,0.0764477668628852,1.0,0.0
35.58054733276367,-12.152202606201172,-0.1075218915939331,-0.0,-0.0,-1.0,0.057296868084727,1.0,0.0
35.375553131103516,-12.52556610107422,-0.1078715324401855,-0.0,-0.0,-1.0,0.1069644440705232,1.0,0.0
35.29054260253906,-12.452011108398438,-0.087906002998352,-0.0,-0.0,-1.0,0.0970013435034864,1.0,0.0
36.239471435546875,-13.062397003173828,0.0116736888885498,-0.0,-0.0,-1.0,0.1631870630048879,1.0,1.0
36.89424514770508,-13.566858291625977,-0.1110004186630249,-0.0,-0.0,-1.0,0.125314502758801,1.0,0.0
36.27777862548828,-13.498519897460938,-0.0192537307739257,-0.0,-0.0,-1.0,0.241270002281839,1.0,0.0
37.44215774536133,-14.036773681640623,-0.2168692350387573,-0.0,-0.0,-1.0,0.0861710738111456,1.0,0.0
36.50918960571289,-13.68813133239746,-0.0628008842468261,-0.0,-0.0,-1.0,0.2254061597519993,1.0,0.0
36.80925369262695,-14.338253021240234,-0.1432768106460571,-0.0,-0.0,-1.0,0.1991593645064822,1.0,0.0
36.57753372192383,-14.325605392456056,-0.110686182975769,-0.0,-0.0,-1.0,0.1846909531669386,2.0,0.0
36.274757385253906,-13.000341415405272,0.3116653561592102,-0.0,-0.0,-1.0,0.1353326972636846,1.0,1.0
36.21413040161133,-13.462852478027344,0.3052829504013061,-0.0,-0.0,-1.0,0.1895387819939571,1.0,1.0
36.79396057128906,-14.05970573425293,0.2180782556533813,-0.0,-0.0,-1.0,0.1923359042384036,1.0,1.0
36.54574203491211,-13.788518905639648,0.255922257900238,-0.0,-0.0,-1.0,0.2833396347953414,1.0,1.0
36.56478500366211,-14.291946411132812,0.2379817366600036,-0.0,-0.0,-1.0,0.1145014764589627,2.0,1.0
36.29035568237305,-13.032807350158691,0.6096960306167603,-0.0,-0.0,-1.0,0.2119969559603221,1.0,1.0
35.38101577758789,-14.230713844299316,-0.1227614879608154,-0.0,-0.0,-1.0,0.1175454377386215,1.0,0.0
35.366886138916016,-14.299568176269531,0.8139772415161133,-0.0,-0.0,-1.0,0.0730257947969416,1.0,1.0
37.24189758300781,-12.266310691833496,0.0588488578796386,-0.0,-0.0,-1.0,0.1405457100268305,2.0,1.0
37.14672088623047,-12.722002983093262,0.0934994220733642,-0.0,-0.0,-1.0,0.1659738068180277,1.0,1.0
37.61227798461914,-11.95240879058838,0.0012495517730712,-0.0,-0.0,-1.0,0.2007971086880343,2.0,1.0
37.52228546142578,-12.214617729187012,0.0249160528182983,-0.0,-0.0,-1.0,0.1773627675347505,2.0,1.0
36.631011962890625,-13.243152618408203,0.5878733992576599,-0.0,-0.0,-1.0,0.1595266289764244,1.0,1.0
37.61321640014648,-12.288963317871094,0.4135612249374389,-0.0,-0.0,-1.0,0.0756843024330842,1.0,1.0
35.63930130004883,-14.356793403625488,0.2579402923583984,-0.0,-0.0,-1.0,0.0758194107115985,1.0,1.0
36.20491409301758,-14.296006202697754,0.1898601055145263,-0.0925683398834017,-0.9953574182924656,-0.0263573955729371,0.1914090660265716,3.0,1.0
35.77181625366211,-12.675436973571776,0.1554176807403564,0.6373843027104521,-0.6898192571657515,-0.3433520687306275,0.0935333224772056,3.0,1.0
36.24064636230469,-14.140028953552246,0.1776572465896606,-0.0,-0.0,-1.0,0.1382672873277892,2.0,1.0
36.177589416503906,-12.69191837310791,0.1095252037048339,0.4405002008855316,0.8526524892970724,-0.2809685133877312,0.1385889591608236,3.0,1.0
37.25570297241211,-12.201958656311035,-0.0406683683395385,-0.0,-0.0,-1.0,0.1446805670360458,2.0,0.0
37.10902404785156,-12.31131649017334,-0.0179523229598999,-0.0,-0.0,-1.0,0.1675674558379447,2.0,0.0
37.39788055419922,-12.087437629699709,-0.063150405883789,-0.0,-0.0,-1.0,0.2169199842730837,2.0,0.0
36.01513671875,-14.11709213256836,-0.0158681869506835,-0.0,-0.0,-1.0,0.2078804156628567,2.0,0.0
35.471168518066406,-12.739723205566406,0.0221848487854003,-0.0,-0.0,-1.0,0.2004279544831619,1.0,1.0
36.25202941894531,-14.026559829711914,-0.0271985530853271,-0.0,-0.0,-1.0,0.1538819058293451,1.0,0.0
35.49558639526367,-12.486499786376951,0.0228360891342163,-0.9703697033260172,0.1085215475121501,0.2158835625807235,0.1934655669705337,5.0,1.0
35.940670013427734,-12.455181121826172,0.0003645420074462,-0.0,-0.0,-1.0,0.145207821968491,1.0,1.0
36.185829162597656,-12.566694259643556,-0.0129798650741577,-0.6306322659485054,-0.2641060314629184,-0.7297608850093031,0.1929858752980396,4.0,0.0
37.09564971923828,-12.263534545898438,-0.0574913024902343,-0.0334098387288772,0.2071841823661442,-0.9777313011525112,0.1819999123228945,5.0,0.0
37.33110809326172,-12.079500198364258,-0.068347692489624,0.1304091470786269,0.248282975963556,-0.9598692714140324,0.1736301436377023,4.0,0.0
36.029747009277344,-14.26015853881836,-0.0224499702453613,-0.0,-0.0,-1.0,0.181496683062418,1.0,0.0
36.11708068847656,-14.07928466796875,-0.0329916477203369,0.4127477450979074,-0.0353698204580673,-0.9101583789194916,0.225273826135113,4.0,0.0
35.625282287597656,-12.865156173706056,-0.0144243240356445,0.2335553667689985,-0.918284742097736,0.3196952034108315,0.1992265106965293,4.0,0.0
35.65448760986328,-12.440086364746094,-0.0248489379882812,-0.0,-0.0,-1.0,0.1702945237422045,1.0,0.0
37.29362487792969,-12.263187408447266,-0.1672236919403076,-0.0,-0.0,-1.0,0.2121704377032497,2.0,0.0
37.490272521972656,-12.396441459655762,0.3920447826385498,-0.0,-0.0,-1.0,0.1467037923244555,1.0,1.0
36.18135070800781,-14.234981536865234,0.175269603729248,-0.0,-0.0,-1.0,0.196924643484464,2.0,1.0
36.47878646850586,-13.245569229125977,0.1346670389175415,0.5652694439283978,0.3372277635833466,-0.7528266010373533,0.136557860818646,3.0,1.0
37.09242248535156,-12.341365814208984,0.0696715116500854,0.5215846112627698,-0.7251751939200584,0.4495224481790326,0.2322669138765561,3.0,1.0
37.342567443847656,-12.050863265991213,0.0443817377090454,0.3965276460880059,0.9107804169895768,-0.1150863063800258,0.1983902088989188,3.0,1.0
37.50748443603515,-11.910751342773438,0.0285755395889282,-0.0,-0.0,-1.0,0.1193251705175996,1.0,1.0
35.39754104614258,-11.88101863861084,-0.0327593088150024,-0.9425676996021544,0.2951526951704142,-0.1563682135228997,0.2845980611488966,4.0,0.0
35.34803771972656,-12.064648628234863,-0.0287848711013793,-0.662613027698454,-0.7283499667403899,-0.1745001474886499,0.1429726483754766,4.0,0.0
36.43665313720703,-13.258294105529783,0.9609564542770386,-0.0,-0.0,-1.0,0.1856777642534613,2.0,1.0
36.401885986328125,-13.709637641906738,0.2297135591506958,-0.0,-0.0,-1.0,0.192785942622064,1.0,1.0
36.61893081665039,-12.451647758483888,0.1928941011428833,0.9695850697250218,-0.05581735384917,0.238304879462426,0.2488276914802973,4.0,1.0
36.978546142578125,-12.495478630065918,0.1646864414215088,-0.0,-0.0,-1.0,0.2434635934101177,1.0,1.0
37.190948486328125,-12.2671480178833,0.143996000289917,0.1572767168005777,0.244647326583955,-0.956771508745821,0.229623849661347,3.0,1.0
37.5260009765625,-12.129096031188965,0.1147881746292114,-0.0,-0.0,-1.0,0.1456227381936134,2.0,1.0
37.46445083618164,-12.333144187927246,0.4948269724845886,-0.0,-0.0,-1.0,0.109249521671979,1.0,1.0
36.5175666809082,-13.270453453063965,0.5674817562103271,-0.0,-0.0,-1.0,0.1804442827952838,2.0,1.0
36.51221466064453,-13.264137268066406,0.6253476142883301,0.3414829251091911,-0.7730641253035324,-0.5345664318188668,0.2082415832076332,3.0,1.0
36.91040802001953,-12.725969314575195,0.5885288119316101,-0.0,-0.0,-1.0,0.0765206633297811,1.0,1.0
36.366065979003906,-14.072115898132324,0.5255441665649414,-0.0,-0.0,-1.0,0.0898826837270364,1.0,1.0
36.89158630371094,-13.116690635681152,0.4780558347702026,-0.0,-0.0,-1.0,0.0536323088768919,1.0,1.0
36.99175262451172,-12.252358436584473,0.5048917531967163,-0.0,-0.0,-1.0,0.10694942339487,1.0,1.0
37.23331451416016,-12.586033821105955,0.4919037818908691,-0.0,-0.0,-1.0,0.1843500016765708,1.0,1.0
36.096736907958984,-14.17485809326172,0.0809347629547119,-0.0,-0.0,-1.0,0.1841716352890786,1.0,1.0
36.21990203857422,-14.061132431030272,0.0822395086288452,0.2970014814250825,-0.8686758361599786,-0.3964749824428625,0.1959399450183594,3.0,1.0
37.334449768066406,-13.928594589233398,0.0565464496612548,-0.0,-0.0,-1.0,0.1521208805576471,1.0,1.0
37.13700485229492,-12.610626220703123,0.113290786743164,-0.0,-0.0,-1.0,0.1845863949899328,2.0,1.0
35.718997955322266,-12.61761474609375,0.1536757946014404,0.996928602669203,-0.0193277911569592,-0.075893330859986,0.1256398197533848,4.0,1.0
35.72150421142578,-12.89937973022461,0.1423579454421997,0.8785720199221618,-0.1220461246226686,0.4617531258957327,0.1221515762444994,3.0,1.0
36.622928619384766,-12.431886672973633,0.1353263854980468,0.6477467902021345,0.7464491958305094,-0.152439147947032,0.2827080432088116,5.0,1.0
37.14516830444336,-12.445608139038086,0.1193342208862304,0.7187812935188909,0.6080952775050193,-0.3370068034378585,0.1923268472632197,6.0,1.0
37.480751037597656,-12.225994110107422,0.1174713373184204,-0.0,-0.0,-1.0,0.2257741283247989,1.0,1.0
37.23207092285156,-13.846257209777832,0.0926370620727539,-0.0,-0.0,-1.0,0.2131255242834305,1.0,1.0
35.28640365600586,-12.38698673248291,0.2299134731292724,-0.0,-0.0,-1.0,0.1573019561874849,1.0,1.0
35.68897247314453,-12.588162422180176,0.2037614583969116,-0.3841376716169666,-0.3689915683938052,-0.8463353187117829,0.1273330840364523,4.0,1.0
35.67015075683594,-12.6909818649292,0.2025198936462402,-0.0,-0.0,-1.0,0.1404590511512845,1.0,1.0
36.16242218017578,-14.107558250427246,0.1447380781173706,-0.332579812469494,-0.9430738320244566,0.0015542485203936,0.1984140919285457,6.0,1.0
36.65851593017578,-12.343337059020996,0.1563793420791626,-0.0,-0.0,-1.0,0.2188091700751332,1.0,1.0
37.09734725952149,-12.356860160827637,0.132053256034851,0.562767631901091,-0.5033769846355439,-0.6556708044618624,0.2462610263676844,3.0,1.0
37.103084564208984,-12.619210243225098,0.1261332035064697,-0.0,-0.0,-1.0,0.1892165052270495,2.0,1.0
37.35052490234375,-12.066052436828612,0.1243067979812622,-0.2368230594881044,0.8975650725624907,-0.3718760263993696,0.191506602877072,3.0,1.0
37.33049011230469,-12.191781044006348,0.122744083404541,0.8485797637420934,0.1531216893073511,-0.5064248540811129,0.1083152728677031,5.0,1.0
37.6024169921875,-12.014100074768066,0.1115005016326904,-0.0,-0.0,-1.0,0.1173801472221576,1.0,1.0
36.52592468261719,-13.2872896194458,0.917494773864746,0.5325506929391938,0.8436874313633619,-0.0676851358089568,0.2031285231792319,5.0,1.0
36.35215377807617,-13.70356559753418,0.2405527830123901,-0.8025533168413433,0.5893460779263643,-0.0926249105790128,0.1770481455192823,3.0,1.0
36.27522659301758,-13.923957824707031,0.2470011711120605,-0.0,-0.0,-1.0,0.1368727962871841,1.0,1.0
36.61248016357422,-12.42707061767578,0.2180428504943847,-0.0765843311038875,0.8565642029198847,-0.5103259806296289,0.1896204182194389,4.0,1.0
36.501365661621094,-13.53447151184082,0.2280846834182739,-0.0,-0.0,-1.0,0.1651067759864112,1.0,1.0
37.02991485595703,-12.399364471435549,0.1830894947052002,-0.0026030786170518,0.9868328092035992,0.1617226968024168,0.2817452295852944,3.0,1.0
36.99202728271485,-12.726377487182615,0.1866050958633422,-0.0,-0.0,-1.0,0.1893876780430994,1.0,1.0
37.35289001464844,-12.272661209106444,0.1558485031127929,0.9022210924227984,-0.1871411469250669,-0.3885553905365143,0.1073931399546804,6.0,1.0
37.530887603759766,-12.116291046142578,0.1406809091567993,-0.0,-0.0,-1.0,0.1580861628705452,2.0,1.0
36.53355407714844,-13.299320220947266,0.964975655078888,0.775215955516184,0.6230664861526491,0.1040594836933181,0.1870376234592976,4.0,1.0
36.02613830566406,-14.14869499206543,0.2319239377975464,-0.6429849037155684,-0.7340760290436912,-0.2184097002821236,0.1847261635940925,4.0,1.0
36.17930221557617,-13.995597839355469,0.2214330434799194,-0.0,-0.0,-1.0,0.195117896286242,1.0,1.0
36.63035583496094,-12.43716049194336,0.1978367567062378,0.9695850697250218,-0.05581735384917,0.238304879462426,0.2606652785003925,4.0,1.0
36.505802154541016,-13.262117385864258,0.2017939090728759,-0.5583306511135715,0.3534973690885049,-0.7505374701336375,0.1780343277238945,4.0,1.0
36.43730163574219,-13.746315002441406,0.2036108970642089,-0.0,-0.0,-1.0,0.1142715761863211,1.0,1.0
36.53266525268555,-13.753068923950195,0.1962956190109253,-0.0,-0.0,-1.0,0.1843724795004649,1.0,1.0
36.99285888671875,-12.336997985839844,0.1705802679061889,-0.1069826290555999,-0.5300663585378218,-0.8411803448885412,0.2307370933765159,3.0,1.0
37.06122589111328,-12.658254623413086,0.1632485389709472,-0.0,-0.0,-1.0,0.191796747921136,1.0,1.0
37.35715866088867,-12.225967407226562,0.1431597471237182,-0.2236691752238724,-0.4201059039830812,-0.8794788965593382,0.0944092749979826,6.0,1.0
37.655818939208984,-12.142391204833984,0.1205606460571289,-0.0,-0.0,-1.0,0.1804579787737698,2.0,1.0
36.54950714111328,-13.305254936218262,0.9023958444595336,-0.1049713685454673,0.3091663980126046,-0.9451968843186076,0.1760401316485373,5.0,1.0
35.238372802734375,-13.317493438720703,0.0488975048065185,-0.0,-0.0,-1.0,0.0775592387204013,2.0,1.0
35.587982177734375,-12.492805480957031,0.047321081161499,-0.0,-0.0,-1.0,0.1895247283971238,2.0,1.0
35.59648895263672,-12.95248794555664,0.0335562229156494,-0.1679186328272227,0.3924043572356437,-0.904335199564806,0.1338603399907037,4.0,1.0
36.12262725830078,-12.537281036376951,0.0071665048599243,-0.0,-0.0,-1.0,0.1312661576671189,1.0,1.0
36.101287841796875,-14.063665390014648,-0.0348864793777465,0.4127477450979074,-0.0353698204580673,-0.9101583789194916,0.2452042165990935,4.0,0.0
37.33659362792969,-12.09955596923828,-0.0696148872375488,-0.2120486017593416,0.0037479752450604,-0.977251934341125,0.2172723612199791,3.0,0.0
37.209590911865234,-12.29470443725586,-0.0656417608261108,-0.0,-0.0,-1.0,0.2477574794941398,1.0,0.0
36.537109375,-13.184980392456056,0.624666690826416,-0.0,-0.0,-1.0,0.1949398380309081,1.0,1.0
37.5277099609375,-12.211084365844728,0.5778138637542725,-0.0,-0.0,-1.0,0.0801578937514669,2.0,1.0
36.49065017700195,-13.458175659179688,0.2673314809799194,-0.0,-0.0,-1.0,0.0834241582249607,2.0,1.0
36.64466094970703,-12.51933765411377,0.2545373439788818,-0.0,-0.0,-1.0,0.1139685836534344,1.0,1.0
36.541805267333984,-13.325538635253906,0.2630136013031006,-0.0,-0.0,-1.0,0.1480768721182365,1.0,1.0
37.02128982543945,-12.405722618103027,0.2217481136322021,-0.0,-0.0,-1.0,0.224053400947246,2.0,1.0
37.04464340209961,-12.83995532989502,0.2196356058120727,-0.0,-0.0,-1.0,0.2147918344990566,2.0,1.0
37.369998931884766,-12.276403427124023,0.1912972927093505,-0.0,-0.0,-1.0,0.1304368604590305,2.0,1.0
37.27925109863281,-12.363073348999023,0.1992383003234863,-0.0,-0.0,-1.0,0.1530550330405765,2.0,1.0
36.5599365234375,-13.328131675720217,0.8973054885864258,0.1294751558827806,0.2712504973618235,-0.9537606364754696,0.1609641826017275,3.0,1.0
35.38996505737305,-11.874679565429688,-0.0048978328704833,-0.9751482450687128,0.2205778698558663,-0.0207678470058439,0.2525404584239283,5.0,0.0
35.34339904785156,-12.202653884887695,-0.0208194255828857,-0.0,-0.0,-1.0,0.1930387851595334,1.0,0.0
35.23253631591797,-12.45737361907959,-0.0255842208862304,-0.0,-0.0,-1.0,0.122388242059181,1.0,0.0
36.4891242980957,-12.421616554260254,-0.156227707862854,-0.0,-0.0,-1.0,0.1245989079918717,1.0,0.0
37.556644439697266,-11.937000274658203,-0.2443938255310058,-0.0,-0.0,-1.0,0.20871474222509,1.0,0.0
36.52088165283203,-13.314363479614258,0.3900692462921142,0.7775839570636169,-0.6267410969703467,0.0505844549806989,0.1567803802680413,3.0,1.0
36.526329040527344,-13.768462181091309,0.3721915483474731,-0.0,-0.0,-1.0,0.173611919931458,2.0,1.0
36.737361907958984,-12.608202934265137,0.3988144397735595,-0.0,-0.0,-1.0,0.1224182430919274,1.0,1.0
37.21059036254883,-12.64596939086914,0.3583509922027588,-0.0,-0.0,-1.0,0.1786565463851221,2.0,1.0
37.44026184082031,-12.371872901916504,0.3489798307418823,-0.0,-0.0,-1.0,0.1288718991020931,2.0,1.0
37.37693786621094,-12.682231903076172,0.343238353729248,-0.0,-0.0,-1.0,0.0979834044068081,1.0,1.0
36.52193069458008,-13.296096801757812,0.9921528100967408,0.7361288375248652,0.6329524032918563,0.2397615267955933,0.1870376234592976,3.0,1.0
35.484676361083984,-11.974221229553224,-0.1466670036315918,-0.0,-0.0,-1.0,0.0697270294751825,1.0,0.0
36.27386093139648,-13.883233070373535,0.2060469388961792,-0.0,-0.0,-1.0,0.1121714694793746,1.0,1.0
36.17470169067383,-14.293381690979004,0.1968556642532348,-0.0925683398834017,-0.9953574182924656,-0.0263573955729371,0.1742305962691899,3.0,1.0
36.52497100830078,-13.401049613952637,0.2032158374786377,-0.0,-0.0,-1.0,0.2010096186219178,1.0,1.0
36.922733306884766,-12.237346649169922,0.2137001752853393,-0.0,-0.0,-1.0,0.2144445209838705,1.0,1.0
36.821563720703125,-12.664855003356934,0.205832839012146,-0.0,-0.0,-1.0,0.2177619078245805,1.0,1.0
36.83526992797851,-12.75340747833252,0.2006788253784179,-0.0,-0.0,-1.0,0.0902307229547035,1.0,1.0
37.12198257446289,-12.40972900390625,0.1863785982131958,0.1838161624686891,0.9171880031903762,0.3535219727526634,0.2281159328906632,6.0,1.0
36.39850616455078,-13.332408905029297,0.7868694067001343,-0.0,-0.0,-1.0,0.2019502182523956,2.0,1.0
36.57972717285156,-13.193727493286133,0.7762768268585205,-0.0,-0.0,-1.0,0.1202534530901476,2.0,1.0
37.071380615234375,-12.795647621154783,0.7476776838302612,-0.0,-0.0,-1.0,0.076365971936888,2.0,1.0
37.16686248779297,-12.724531173706056,0.7419575452804565,-0.9965250029890804,0.0437852457992501,0.0708573967057282,0.1662022747301423,3.0,1.0
35.47584533691406,-12.4257230758667,-0.0103859901428222,-0.6202872006169504,0.1235114498293279,0.7745893818739349,0.1229032037130059,3.0,0.0
35.37614440917969,-12.531441688537598,0.0030477046966552,-0.0,-0.0,-1.0,0.1577651678127545,1.0,1.0
35.354652404785156,-13.188314437866213,-0.0089446306228637,-0.0,-0.0,-1.0,0.072307097106098,2.0,0.0
35.72089767456055,-14.270803451538086,-0.0933011770248413,-0.0,-0.0,-1.0,0.1027265218327441,2.0,0.0
35.644989013671875,-12.34839916229248,-0.0356726646423339,-0.0,-0.0,-1.0,0.1163886913884464,1.0,0.0
35.91569900512695,-11.907876014709473,-0.0704621076583862,-0.0,-0.0,-1.0,0.1301149399268472,1.0,0.0
36.45580291748047,-12.194740295410156,-0.1630624532699585,-0.0,-0.0,-1.0,0.0703403812576376,2.0,0.0
35.635841369628906,-14.339895248413086,0.462804913520813,-0.0,-0.0,-1.0,0.0596050496581705,1.0,1.0
36.55271911621094,-13.36249542236328,0.3424699306488037,-0.0,-0.0,-1.0,0.1735407980318257,2.0,1.0
36.98223876953125,-12.81615161895752,0.2836183309555053,0.2458850343510346,0.5958020723369841,-0.7645655239946055,0.2237515476188633,3.0,1.0
37.54742813110352,-12.10674285888672,0.2036885023117065,-0.0,-0.0,-1.0,0.1547265178852062,1.0,1.0
36.69233703613281,-12.23822021484375,0.3200341463088989,-0.0,-0.0,-1.0,0.2246346408659068,2.0,1.0
37.077762603759766,-12.412432670593262,0.2689815759658813,-0.6410090763465389,-0.4731422478893122,-0.6043540165363389,0.1955702951430078,3.0,1.0
37.05047607421875,-12.59648323059082,0.2735308408737182,-0.0,-0.0,-1.0,0.2291915760776932,1.0,1.0
36.538597106933594,-13.363457679748535,0.8843618631362915,-0.0,-0.0,-1.0,0.1587061377215447,2.0,1.0
35.88191223144531,-12.039649963378906,-0.1656546592712402,-0.0,-0.0,-1.0,0.1227091113995403,1.0,0.0
35.94089889526367,-11.99884796142578,-0.172102689743042,-0.8661833001114633,0.442447018654134,-0.2323082570467157,0.1118136534695162,4.0,0.0
35.356536865234375,-12.076239585876465,-0.0898013114929199,-0.0,-0.0,-1.0,0.197894894061915,2.0,0.0
35.27479553222656,-12.2227144241333,-0.0869156122207641,-0.0,-0.0,-1.0,0.1491747493716652,1.0,0.0
35.645362854003906,-12.08098030090332,-0.1328524351119995,-0.5305574104160133,-0.0592562270587634,-0.8455752679728837,0.1877183032770404,3.0,0.0
36.18621444702149,-14.123449325561523,0.177208662033081,-0.2670620077064698,-0.9458143175089894,-0.1846974846466351,0.2421552829278696,4.0,1.0
36.49283981323242,-13.290611267089844,0.1761667728424072,-0.0,-0.0,-1.0,0.1742051380594396,2.0,1.0
36.47526931762695,-13.780009269714355,0.1582124233245849,-0.0,-0.0,-1.0,0.2351452977627773,1.0,1.0
36.796722412109375,-12.45466136932373,0.1712875366210937,-0.0,-0.0,-1.0,0.2151261455714569,1.0,1.0
