x,y,z,nx,ny,nz,curvature,density,label
19.008026123046875,-0.8982172012329102,-0.2423914670944214,0.6476699108719252,-0.2217495343395329,-0.728938152775222,0.0999001048108055,6.0,0.0
18.994726181030273,-1.2251348495483398,-0.1879769563674926,-0.5778480638864996,0.5580821640451775,0.5955131511875081,0.1186415337674564,4.0,0.0
18.424365997314453,-1.6267032623291016,-0.1742719411849975,-0.0,-0.0,-1.0,0.1412522542394063,1.0,0.0
19.953121185302734,-0.1716890335083007,-0.3028663396835327,-0.0,-0.0,-1.0,0.1777017005226298,1.0,0.0
19.754985809326172,-0.2931442260742187,-0.2933915853500366,-0.0,-0.0,-1.0,0.1324659730259257,2.0,0.0
19.99034118652344,-0.9185390472412108,-0.1652251482009887,-0.0,-0.0,-1.0,0.1392125528723249,2.0,0.0
17.76226234436035,0.2697439193725586,0.369949460029602,-0.0,-0.0,-1.0,0.0480577698431666,2.0,1.0
19.93027114868164,-0.939462661743164,0.2181093692779541,-0.0,-0.0,-1.0,0.0716831845191476,1.0,1.0
20.053722381591797,-1.066359519958496,-0.2836536169052124,-0.0,-0.0,-1.0,0.1343903152458918,2.0,0.0
19.97766876220703,-1.3155860900878906,-0.242350697517395,-0.0,-0.0,-1.0,0.0804714423829686,1.0,0.0
19.515941619873047,-1.5736007690429688,-0.228251576423645,-0.0,-0.0,-1.0,0.0723224763784396,2.0,0.0
19.183259963989254,-1.6567745208740234,-0.2391871213912964,-0.0,-0.0,-1.0,0.0345920377485583,1.0,0.0
20.181137084960938,-1.1658306121826172,-0.2572168111801147,-0.0,-0.0,-1.0,0.0914109051973802,1.0,0.0
19.960918426513672,-1.676164627075195,-0.1775726079940796,-0.0,-0.0,-1.0,0.0489051502582752,1.0,0.0
19.81360626220703,-1.6269054412841797,-0.196740984916687,-0.0,-0.0,-1.0,0.0979627864164321,2.0,0.0
19.07399559020996,-0.905695915222168,0.0372140407562255,-0.7127251374847078,0.7006044735751005,-0.0342965013370276,0.1753521562928289,5.0,1.0
19.77919578552246,-0.9014778137207032,0.0758379697799682,-0.0,-0.0,-1.0,0.1905567770361704,2.0,1.0
18.996646881103516,-1.2626495361328125,0.0844296216964721,-0.2552950299496532,0.9379389369651072,-0.2347232374686637,0.1346133255357884,3.0,1.0
19.989761352539062,-0.8928403854370117,0.0848951339721679,0.2976479953057629,-0.9299931133323408,-0.215681431850034,0.1572362684411066,3.0,1.0
20.02878189086914,-1.7379674911499023,-0.1616264581680297,-0.2778410740349666,0.3557466032036141,-0.8923276819017699,0.0465390438180153,5.0,0.0
18.459360122680664,0.3260221481323242,-0.368840217590332,-0.0,-0.0,-1.0,0.073514112928507,2.0,0.0
18.700439453125,0.1755094528198242,-0.3322761058807373,-0.0,-0.0,-1.0,0.0341885001839667,2.0,0.0
18.456064224243164,-0.113525390625,-0.3011593818664551,-0.0,-0.0,-1.0,0.0705292677529723,2.0,0.0
18.29358291625977,-0.2995386123657226,-0.282437801361084,-0.0,-0.0,-1.0,0.0783266320565285,1.0,0.0
17.971202850341797,-0.6173295974731445,-0.2551541328430176,-0.7876206726978013,-0.5988152320795569,0.1451688457230707,0.1136936191217562,4.0,0.0
19.694934844970703,0.445261001586914,-0.3286612033843994,0.0397863688563588,-0.4995338629396121,-0.8653802428007323,0.0612429018360421,4.0,0.0
19.428977966308594,0.2118349075317382,-0.3023905754089355,-0.0,-0.0,-1.0,0.0635544543897111,1.0,0.0
19.076583862304688,0.0345001220703125,-0.2908036708831787,-0.0,-0.0,-1.0,0.0519561489349633,2.0,0.0
19.8470401763916,0.2763166427612304,-0.2954654693603515,-0.0,-0.0,-1.0,0.1413389964590338,2.0,0.0
19.974084854125977,0.0269498825073242,-0.250314712524414,-0.0,-0.0,-1.0,0.1844756100492182,2.0,0.0
18.415969848632812,-1.0530681610107422,-0.1603407859802246,-0.0,-0.0,-1.0,0.0884215800849838,2.0,0.0
20.124771118164062,-0.2327718734741211,-0.2026515007019043,-0.0,-0.0,-1.0,0.1246007829061919,2.0,0.0
19.194894790649418,-0.9929599761962892,-0.1235413551330566,-0.3947509239654755,0.8640770428587576,0.3123180622904605,0.23393219050144,4.0,0.0
19.044437408447266,-1.0846471786499023,-0.1175858974456787,-0.7524601318157633,0.375168435590336,-0.5413431397593437,0.173228881132635,5.0,0.0
19.8590145111084,-0.9535179138183594,-0.097377061843872,-0.0,-0.0,-1.0,0.2469809353990084,1.0,0.0
19.76342010498047,-1.036174774169922,-0.0884342193603515,-0.0,-0.0,-1.0,0.2012705956644244,2.0,0.0
19.92950439453125,-0.8809432983398438,0.3141775131225586,0.478640236322566,0.1201315284362042,-0.8697539537413208,0.0806426810800589,3.0,1.0
19.18209457397461,-0.8721761703491211,-0.0168172121047973,0.2436503593509147,0.7550925697646842,-0.6086622326663087,0.1590701916118281,4.0,0.0
19.13490104675293,-0.8685722351074219,-0.0175553560256958,0.1294556147587846,-0.5482445332743523,-0.8262379654447095,0.1318659418043943,6.0,0.0
20.163719177246097,-0.223489761352539,-0.1233686208724975,-0.7399140701015646,0.4507392607120562,-0.4993608792431436,0.130048837992044,3.0,0.0
17.783950805664062,0.6104488372802734,0.2586736679077148,-0.0,-0.0,-1.0,0.048014066754292,2.0,1.0
19.040077209472656,-1.131016731262207,0.0223562717437744,-0.8901924932072296,0.1195217910733834,-0.4396269628857024,0.2054629575365951,8.0,1.0
18.44742774963379,-1.098102569580078,-0.2203049659729004,-0.0,-0.0,-1.0,0.1081147521373142,1.0,0.0
18.385385513305664,-1.378678321838379,-0.1710307598114013,-0.0,-0.0,-1.0,0.0629266981766925,1.0,0.0
19.755300521850582,-0.9385223388671876,0.1067709922790527,-0.0,-0.0,-1.0,0.1062288582168354,1.0,1.0
19.91130828857422,-0.3698234558105469,0.0160951614379882,-0.0,-0.0,-1.0,0.1318199160200409,1.0,1.0
20.07727813720703,-0.4446487426757812,0.0267188549041748,-0.0,-0.0,-1.0,0.1472486674815124,1.0,1.0
18.937089920043945,-1.1078872680664062,0.0127737522125244,0.0410793443344868,0.9943832835087486,0.0975416472457218,0.2566694958413055,8.0,1.0
19.091388702392575,-0.9170475006103516,-0.0619795322418212,-0.0417761904486579,0.9281015523084086,-0.3699760242425443,0.1234004886444459,8.0,0.0
20.16980743408203,-0.5269508361816406,-0.0189440250396728,-0.0,-0.0,-1.0,0.1065814206216004,1.0,0.0
18.933120727539062,-1.1033248901367188,-0.0122411251068115,0.2052692155481533,0.97498405242289,0.0852680870506938,0.1914625334016582,5.0,0.0
19.731006622314453,-1.6531105041503906,-0.2002668380737304,-0.0,-0.0,-1.0,0.1925099192339405,1.0,0.0
20.012454986572266,-1.7598323822021484,-0.1738255023956298,-0.177271256210631,0.5771378076725465,-0.7971742925335912,0.0604525777025583,3.0,0.0
19.63648223876953,0.1392021179199218,-0.2927300930023193,-0.0,-0.0,-1.0,0.1254937110364621,1.0,0.0
19.340015411376953,-0.0067272186279296,-0.2858345508575439,-0.0,-0.0,-1.0,0.051054131202337,1.0,0.0
20.06520652770996,-0.0766220092773437,-0.2512688636779785,-0.0,-0.0,-1.0,0.1937585703054946,2.0,0.0
20.037492752075195,-0.6779861450195312,-0.1782131195068359,-0.0,-0.0,-1.0,0.2035637201977877,1.0,0.0
18.60635757446289,-0.8890113830566406,-0.2084267139434814,-0.0,-0.0,-1.0,0.0457809058233444,2.0,0.0
19.823328018188477,-0.8995475769042969,-0.1586484909057617,-0.4339743551940382,0.7691526839284609,0.4691166249873947,0.2038927304453802,3.0,0.0
20.14329719543457,-0.332193374633789,-0.0480010509490966,-0.0,-0.0,-1.0,0.124591368369399,1.0,0.0
19.957918167114254,-0.8935966491699219,0.0145180225372314,-0.0,-0.0,-1.0,0.1833093942315617,1.0,1.0
19.054733276367188,-1.0222320556640625,0.0005233287811279,-0.8874312069488496,0.4471741205399683,0.1118085813013191,0.1950032049926673,7.0,1.0
19.253198623657227,-0.9447097778320312,0.1331808567047119,-0.0,-0.0,-1.0,0.1906521696538334,1.0,1.0
17.84069061279297,0.6103000640869141,-0.1307542324066162,0.4914268414769365,0.7173762469940989,-0.4938329471842314,0.1047763327803131,3.0,0.0
20.207094192504883,-0.6585426330566406,-0.2923665046691894,-0.0,-0.0,-1.0,0.1741898347718588,1.0,0.0
19.98193359375,-0.8300685882568359,-0.2810530662536621,-0.0,-0.0,-1.0,0.223740461055923,1.0,0.0
19.22831153869629,-1.4126625061035156,-0.244368314743042,-0.0,-0.0,-1.0,0.0394844763614545,2.0,0.0
19.07191467285156,-1.452484130859375,-0.2489008903503418,-0.0,-0.0,-1.0,0.0194975623315839,1.0,0.0
18.902034759521484,-1.605913162231445,-0.2381448745727539,0.0089945671983948,-0.7548760996426126,-0.6558057425406322,0.065342840533161,3.0,0.0
19.00027656555176,-1.5018196105957031,-0.2465500831604004,-0.0,-0.0,-1.0,0.0507226028871758,1.0,0.0
20.098703384399418,-0.2069549560546875,-0.0250070095062255,-0.4004878304750831,0.7906843380567202,-0.4630634677807863,0.1378282272553797,5.0,0.0
20.04888153076172,-0.9015674591064452,0.0598821640014648,-0.6962567048132233,-0.4757435963933514,-0.5374891919781757,0.1421465982781262,3.0,1.0
20.110322952270508,-0.1336174011230468,-0.0928590297698974,-0.0,-0.0,-1.0,0.1700072518211552,1.0,0.0
19.130905151367188,0.2672023773193359,-0.2148640155792236,-0.0,-0.0,-1.0,0.1624435304940965,2.0,0.0
18.38722801208496,-0.1664905548095703,-0.1988649368286132,-0.0,-0.0,-1.0,0.1057158534289836,1.0,0.0
17.96491241455078,0.3741607666015625,-0.3120138645172119,-0.0,-0.0,-1.0,0.0644386338452812,1.0,0.0
17.864534378051758,0.5918712615966797,-0.352684736251831,-0.0,-0.0,-1.0,0.0836603124794996,1.0,0.0
19.07182884216309,-0.9793071746826172,-0.0270769596099853,-0.9089228963095988,0.317044989673944,0.2708166226191056,0.1342310413343419,6.0,0.0
19.022085189819336,-1.1257572174072266,-0.0079083442687988,0.2450775823512608,0.857323288314465,0.4526960988815052,0.2601692841735505,12.0,0.0
20.191164016723633,-0.1439399719238281,0.0150120258331298,0.5860294627139015,0.5290736636853757,-0.6137186058983303,0.151934271239567,5.0,1.0
19.060543060302734,-1.1381187438964844,0.1109852790832519,-0.7687718115090626,-0.4149743919680911,-0.4866067774289502,0.2386782364724124,7.0,1.0
19.804630279541016,-0.7890224456787109,0.1775414943695068,-0.0,-0.0,-1.0,0.1254064616344495,1.0,1.0
18.97776222229004,-1.104898452758789,0.0840930938720703,0.3821128622590861,0.8736708836892345,-0.30114605673965,0.2282849723065634,12.0,1.0
19.96390724182129,0.0014209747314453,-0.3101551532745361,-0.0,-0.0,-1.0,0.1977931213051636,2.0,0.0
19.60904884338379,0.0054664611816406,-0.3287012577056885,-0.1168738165994201,-0.928328936633124,-0.3529106068158039,0.0582921984249201,3.0,0.0
19.2681827545166,-0.206827163696289,-0.3027012348175049,-0.0,-0.0,-1.0,0.0366414745701545,1.0,0.0
18.979496002197266,-0.6227445602416992,-0.2323698997497558,-0.667312435154986,0.5852242775097001,-0.4606589398902102,0.0750197542610494,4.0,0.0
18.84688949584961,-0.4037961959838867,-0.2867085933685303,-0.2026813883237979,-0.2453450841801166,-0.9480116267724724,0.0428628645845218,4.0,0.0
18.5368595123291,-0.5915231704711914,-0.2678089141845703,-0.0,-0.0,-1.0,0.023289670341345,1.0,0.0
18.275957107543945,-0.7201175689697266,-0.2592840194702148,-0.1647507856187563,0.6182781684989499,-0.7684980709120788,0.0214781462262674,3.0,0.0
19.937828063964844,-0.8985023498535156,-0.1216294765472412,-0.0,-0.0,-1.0,0.2724137711239888,2.0,0.0
19.219228744506836,-0.9868907928466796,-0.1413283348083496,-0.6095539450354476,0.7165014577026249,0.3392191757577045,0.2399478753527172,4.0,0.0
19.087318420410156,-0.9811973571777344,-0.1504187583923339,-0.3389358636005568,0.7672984089484585,0.5444039235627434,0.2273405362882228,4.0,0.0
18.24442481994629,-0.8965177536010742,-0.224623441696167,-0.0,-0.0,-1.0,0.0136014085579336,2.0,0.0
19.86631202697754,0.3249664306640625,-0.3266534805297851,-0.0,-0.0,-1.0,0.1934539962701466,2.0,0.0
19.56808853149414,0.2310504913330078,-0.3161523342132568,-0.0,-0.0,-1.0,0.1171184408175296,1.0,0.0
18.670276641845703,0.230748176574707,-0.3544433116912842,-0.0,-0.0,-1.0,0.0535886590206536,2.0,0.0
18.47477912902832,0.1028528213500976,-0.3362574577331543,-0.0,-0.0,-1.0,0.0251240871296489,2.0,0.0
17.90439224243164,0.1259050369262695,-0.3735833168029785,-0.0,-0.0,-1.0,0.0162965921241393,1.0,0.0
19.990293502807617,0.1013774871826171,-0.2736337184906006,-0.0,-0.0,-1.0,0.1606409650690039,1.0,0.0
20.0479736328125,-0.8510046005249023,-0.0625486373901367,-0.3413281928512448,-0.7428421937692222,0.5759171293867134,0.1358413183202531,3.0,0.0
19.818735122680664,-0.8800067901611328,-0.0631515979766845,-0.0,-0.0,-1.0,0.1543618909823255,2.0,0.0
19.287155151367188,0.079498291015625,-0.2935378551483154,0.6499983972402475,0.7559927459097932,0.0773113944828325,0.0586302272518165,3.0,0.0
19.13671112060547,-0.9191770553588868,-0.080251932144165,0.0929396558552036,0.988977348324117,0.1152650201549218,0.1559919986482299,3.0,0.0
18.907180786132812,0.0613136291503906,-0.305891752243042,-0.0,-0.0,-1.0,0.0670023528792018,1.0,0.0
18.849868774414062,0.1185474395751953,-0.3211188316345215,-0.4832465117773283,0.7009269221935425,-0.5245705468279099,0.0745475923613235,4.0,0.0
19.06612968444824,-1.0505714416503906,-0.0544593334197998,-0.7111556718120593,0.1045686870665853,-0.6952143555297955,0.1038323482792504,7.0,0.0
18.33389663696289,-0.1645174026489257,-0.2852516174316406,0.0421084455536188,-0.990444346144869,0.1313273619727475,0.096918982107082,4.0,0.0
18.007099151611328,-0.6044759750366211,-0.2077548503875732,-0.0,-0.0,-1.0,0.11580378928493,2.0,0.0
18.099498748779297,-0.1655874252319336,-0.2982439994812011,-0.0,-0.0,-1.0,0.0866430952081753,1.0,0.0
19.997379302978516,0.3445291519165039,-0.2944464683532715,0.6875717885511179,0.5285945302480322,-0.4978281412098747,0.1148422308534092,4.0,0.0
19.73975944519043,0.4573802947998047,-0.3279495239257812,-0.0,-0.0,-1.0,0.0473016986351486,2.0,0.0
19.652324676513672,0.2153491973876953,-0.2742092609405517,-0.0,-0.0,-1.0,0.1357060098234379,2.0,0.0
19.45275115966797,0.2725200653076172,-0.2941255569458008,-0.0,-0.0,-1.0,0.067033852915366,2.0,0.0
19.24372673034668,0.1692361831665039,-0.2775313854217529,-0.0,-0.0,-1.0,0.0643913281641063,2.0,0.0
18.81626319885254,0.4069681167602539,-0.3505253791809082,-0.0324579912181982,0.2584874481661782,-0.965469169858166,0.0218770192742851,3.0,0.0
18.536645889282227,0.4694156646728515,-0.378014326095581,-0.0,-0.0,-1.0,0.0320496485836241,2.0,0.0
18.280757904052734,0.6060161590576172,-0.4227573871612549,-0.0,-0.0,-1.0,0.0203141817831681,1.0,0.0
18.3837947845459,-0.1407356262207031,-0.2434473037719726,-0.0,-0.0,-1.0,0.1015271464675492,2.0,0.0
18.082664489746097,0.244455337524414,-0.3492672443389892,-0.4435422056143484,0.6916947855228532,-0.5699373961403597,0.0308925996777774,4.0,0.0
17.922399520874023,0.2695369720458984,-0.3642029762268066,-0.0,-0.0,-1.0,0.0307086141989309,1.0,0.0
17.780447006225586,0.2409467697143554,-0.3659977912902832,-0.0,-0.0,-1.0,0.0276934026886967,2.0,0.0
20.023664474487305,-0.8374624252319336,-0.0186097621917724,-0.06820524845146,-0.981692348622666,-0.1778431239586971,0.1356082454491537,6.0,0.0
19.780736923217773,-0.9165916442871094,-0.0065906047821044,0.920500020075156,-0.3280288844406263,-0.2123128917759737,0.104552572319805,3.0,0.0
19.047523498535156,-0.9963083267211914,-0.0133478641510009,-0.8771781513323589,0.4625109295215626,-0.1290043832520635,0.1429594885542054,8.0,0.0
19.140079498291016,-0.8764476776123047,-0.0376017093658447,0.1301123934478803,0.2495132517696577,-0.9595904867507784,0.1318659418043943,6.0,0.0
18.99849510192871,-1.0750322341918943,0.0029926300048828,-0.7684172578224793,0.4565163804290956,-0.4484726438485394,0.2727812054522921,8.0,1.0
20.03550910949707,-0.7014694213867188,-0.262800931930542,-0.0,-0.0,-1.0,0.1397251092227073,2.0,0.0
19.763011932373047,-0.4832897186279297,-0.3263390064239502,-0.0,-0.0,-1.0,0.0582701864361918,1.0,0.0
19.844945907592773,-0.8142738342285156,-0.2358970642089843,0.1020144961054788,0.7668075789514673,-0.6337185332992357,0.1623194249210835,4.0,0.0
19.568130493164062,-0.6173820495605469,-0.2950484752655029,-0.0,-0.0,-1.0,0.0286199114806383,1.0,0.0
19.136287689208984,-0.7596616744995117,-0.2698583602905273,-0.0,-0.0,-1.0,0.0474961026718978,2.0,0.0
18.68480682373047,-0.8825321197509766,-0.2543525695800781,-0.0,-0.0,-1.0,0.0405400469726346,2.0,0.0
18.685611724853516,-0.7395620346069336,-0.2928516864776611,0.2614843928497603,-0.2188924305196139,-0.9400595811740914,0.0339146846328382,4.0,0.0
18.440963745117188,-0.9790210723876952,-0.2396111488342285,-0.0,-0.0,-1.0,0.0423935597858412,2.0,0.0
18.50663948059082,-0.8629350662231445,-0.2677016258239746,-0.0,-0.0,-1.0,0.0249031390397135,1.0,0.0
19.945262908935547,-0.6752920150756836,-0.2773215770721435,0.7980448544585683,0.2638041177381282,-0.5417857489235121,0.1359898087226231,6.0,0.0
19.624414443969727,-0.6673488616943359,-0.2850294113159179,-0.1460013548115303,-0.306577099702855,-0.940581780777718,0.0492540984646595,4.0,0.0
19.39955139160156,-0.6381359100341797,-0.2985353469848633,-0.0,-0.0,-1.0,0.0378201325888452,1.0,0.0
19.05116844177246,-0.6992855072021484,-0.2915027141571045,-0.0,-0.0,-1.0,0.0722297449079013,1.0,0.0
18.71011734008789,-0.7141876220703125,-0.2997119426727295,-0.0,-0.0,-1.0,0.0231702649110794,2.0,0.0
19.070466995239254,-0.9980125427246094,-0.2048799991607666,-0.5541492547283968,0.622804548743029,-0.5522980151593471,0.2531048752757517,7.0,0.0
18.599098205566406,-0.9200191497802734,-0.2450511455535888,-0.3707241770696468,0.7437632339991559,-0.5562192340140263,0.0497931758062548,3.0,0.0
18.310998916625977,-0.999018669128418,-0.2356564998626709,-0.7241545293157918,0.0083132118446065,-0.6895876363307643,0.0467161243377617,3.0,0.0
19.97304916381836,-0.827143669128418,0.216703176498413,-0.0,-0.0,-1.0,0.1238653011001528,2.0,1.0
19.618032455444336,-0.9352855682373048,0.2360966205596923,-0.0,-0.0,-1.0,0.1118284981398012,1.0,1.0
17.749454498291016,0.5764055252075195,0.2688405513763428,-0.6826138841668068,0.7231501570990855,0.1053192073188631,0.048014066754292,3.0,1.0
20.03284454345703,0.4106082916259765,-0.3290627002716064,0.4461905844288943,0.1268614028325397,-0.8859007545082922,0.088758100239013,5.0,0.0
20.034374237060547,-0.0853252410888671,-0.1879720687866211,-0.4158821199187181,0.7480102752982805,-0.5172259567926798,0.1330300605629021,5.0,0.0
19.942699432373047,0.3970155715942383,-0.3247566223144531,0.2297194515617544,0.966356508341063,0.1156895516502485,0.1319040082882902,4.0,0.0
19.812255859375,0.3975324630737304,-0.3245575428009033,-0.0,-0.0,-1.0,0.0999789554180049,2.0,0.0
19.6029109954834,0.2233762741088867,-0.2748489379882812,-0.0,-0.0,-1.0,0.1086231555572364,2.0,0.0
19.42059326171875,0.2906532287597656,-0.2950086593627929,-0.1161896744432998,0.9570954802627476,-0.2654584736138224,0.0514422960456082,5.0,0.0
19.075958251953125,0.2650928497314453,-0.2911543846130371,-0.0,-0.0,-1.0,0.1261923979778818,2.0,0.0
18.78326416015625,0.5164480209350586,-0.3690223693847656,-0.0,-0.0,-1.0,0.0539057791453747,1.0,0.0
17.911182403564453,0.3743448257446289,-0.3541507720947265,-0.0,-0.0,-1.0,0.0602640469582338,1.0,0.0
20.11430549621582,-0.2011451721191406,-0.1558387279510498,-0.0,-0.0,-1.0,0.1191373476537808,1.0,0.0
19.98569679260254,-0.7487459182739258,0.0009000301361083,-0.0,-0.0,-1.0,0.1728137752319073,1.0,1.0
18.98236846923828,-1.075420379638672,0.0939230918884277,-0.2061923335613593,0.7293093330770699,0.6523745996490059,0.1105670294720888,9.0,1.0
19.812992095947266,-0.8269989490509033,0.3032615184783935,-0.0,-0.0,-1.0,0.1380720608203592,1.0,1.0
20.15794563293457,-0.1359047889709472,-0.0055365562438964,0.4348144489128679,0.3891823177244194,-0.8120797489084725,0.1787549589391464,6.0,0.0
19.98692321777344,-0.8268630504608154,-0.0208461284637451,0.0104310459356062,-0.955541701911108,-0.2946714258110413,0.1604056269089378,4.0,0.0
19.841472625732425,-0.865410566329956,0.0084576606750488,-0.0,-0.0,-1.0,0.2064029770378701,2.0,1.0
19.751426696777344,-0.8294103145599365,0.2360289096832275,-0.0,-0.0,-1.0,0.1424121530360317,1.0,1.0
19.850208282470703,-0.8274502754211426,0.0593063831329345,0.2610565757516495,0.9340916335942078,-0.2435616642785313,0.20581638597561,3.0,1.0
19.0333251953125,-1.1142449378967283,0.1927094459533691,-0.0,-0.0,-1.0,0.0686536844082527,2.0,1.0
20.01462173461914,-0.8374476432800293,0.0275557041168212,-0.4101572349415893,-0.9084949879962256,-0.0800493560924024,0.1411772290050386,3.0,1.0
19.70901870727539,-0.9430108070373536,0.0651137828826904,-0.0,-0.0,-1.0,0.0645949172922575,1.0,1.0
19.777782440185547,-0.7863669395446777,0.0722553730010986,-0.0,-0.0,-1.0,0.1878870803035736,1.0,1.0
20.166305541992188,-0.2465882301330566,-0.3136391639709472,-0.0,-0.0,-1.0,0.1168260840331306,1.0,0.0
20.03155517578125,-0.5888185501098633,-0.3303756713867187,-0.0,-0.0,-1.0,0.137713374162116,1.0,0.0
20.07547950744629,-0.1324920654296875,-0.2835912704467773,-0.0,-0.0,-1.0,0.2450468815709364,2.0,0.0
20.015949249267575,0.0647015571594238,-0.249873399734497,-0.3142478158772282,-0.6194423149456496,-0.7194022022979677,0.2108325729605321,3.0,0.0
19.691387176513672,-0.7294845581054688,-0.2877111434936523,-0.0,-0.0,-1.0,0.0601786545813188,2.0,0.0
19.24109649658203,-0.99436616897583,-0.2448794841766357,0.1762217537593022,0.1991769635565271,-0.9639888125338372,0.2065365691782096,3.0,0.0
19.232013702392575,-0.9492826461791992,-0.2372248172760009,0.1762217537593022,0.1991769635565271,-0.9639888125338372,0.2179372652396303,3.0,0.0
18.984159469604492,-0.8955574035644531,-0.1878807544708252,-0.0,-0.0,-1.0,0.1516128685843523,2.0,0.0
19.830717086791992,-0.8420314788818359,-0.2729032039642334,0.151281403653761,0.7619635021630218,-0.6297027539085489,0.1196240286187797,3.0,0.0
20.097911834716797,-0.6796913146972656,-0.2809343338012695,0.1176632448638766,-0.2463989434033677,-0.961999439447762,0.180282038839121,3.0,0.0
18.759300231933594,-1.48291015625,-0.2450356483459472,-0.0,-0.0,-1.0,0.0215132675409429,1.0,0.0
18.942310333251953,-1.164163589477539,-0.2342877388000488,0.2892995537411624,0.0527594096889454,-0.955783559648542,0.0963422562480229,3.0,0.0
20.10416603088379,0.124114990234375,-0.2270991802215576,-0.0,-0.0,-1.0,0.1565973999013938,1.0,0.0
18.34404945373535,-1.353071212768555,-0.2088851928710937,-0.0,-0.0,-1.0,0.0597979019020284,1.0,0.0
17.863937377929688,-1.296674728393555,-0.1746523380279541,-0.9022000919011688,-0.2326008898648371,-0.3632242010213643,0.0646265812620938,3.0,0.0
17.977235794067383,-0.6277866363525391,-0.2769646644592285,-0.7259282315264873,-0.6765755796778867,0.1235867616549543,0.1052345549244064,3.0,0.0
18.07920837402344,-0.3616065979003906,-0.2651257514953613,-0.0,-0.0,-1.0,0.0515734096755312,1.0,0.0
18.19499969482422,-0.13134765625,-0.2571539878845215,-0.0,-0.0,-1.0,0.0938018236021453,1.0,0.0
19.00615119934082,0.3625221252441406,-0.2853584289550781,0.6000664627282082,0.4048059945683224,-0.6899654680275,0.1186979003594769,4.0,0.0
19.14384078979492,0.5337314605712891,-0.2845582962036133,-0.0,-0.0,-1.0,0.0934262540859207,2.0,0.0
18.558927536010746,-1.666767120361328,-0.1973259449005127,-0.0,-0.0,-1.0,0.1226509903959465,2.0,0.0
18.86216926574707,-1.849687576293945,-0.2305681705474853,0.0310777833634166,-0.9474461612511326,-0.3184021716504295,0.065995295756641,3.0,0.0
19.626842498779297,-1.2113304138183594,-0.2406482696533203,-0.0,-0.0,-1.0,0.0253698960870877,2.0,0.0
20.034217834472656,-1.0754547119140625,-0.2615225315093994,0.1077554599071126,0.8825661250053707,0.4576743338370763,0.171302410127315,3.0,0.0
18.320499420166016,-1.632244110107422,-0.1790235042572021,-0.0,-0.0,-1.0,0.0648818678025923,1.0,0.0
19.781841278076172,-0.915924072265625,-0.2321598529815673,-0.6383859060046002,0.2211800914805554,0.7372535534992958,0.1528702907818611,4.0,0.0
20.033702850341797,-0.8410987854003906,-0.2459197044372558,0.3508394520111905,-0.8740595642529269,-0.3360529081119091,0.1656629096318943,4.0,0.0
17.926401138305664,-1.5018787384033203,-0.1440920829772949,-0.0,-0.0,-1.0,0.0276247236651717,2.0,0.0
18.137939453125,-1.463848114013672,-0.1551473140716552,-0.0,-0.0,-1.0,0.0598791235582687,1.0,0.0
18.437694549560547,-1.1038970947265625,-0.1498925685882568,-0.0,-0.0,-1.0,0.0914207692959082,2.0,0.0
20.153099060058594,0.0993156433105468,-0.1932575702667236,0.548483807446827,-0.5513392299749094,0.6286418427525371,0.2561936111778739,5.0,0.0
19.62235641479492,-1.030813217163086,-0.2427940368652343,-0.0,-0.0,-1.0,0.1068713634091944,1.0,0.0
18.082834243774418,-1.4215164184570312,-0.1754150390625,-0.1861710633400995,-0.1404884034416916,-0.9724213817441598,0.0599110469739145,3.0,0.0
19.39057731628418,-1.0378150939941406,-0.2280535697937011,0.3082424835241668,0.7923963836400941,0.5263977037800931,0.105544006065195,5.0,0.0
19.815393447875977,-0.8117713928222656,-0.2399687767028808,0.8225668384889032,0.3334199522364032,-0.4606679190795094,0.1424222468360823,5.0,0.0
20.07476043701172,-0.7464637756347656,-0.2529504299163818,-0.0,-0.0,-1.0,0.1802066945782543,2.0,0.0
20.10335350036621,0.0659122467041015,-0.1973953247070312,0.3245780423210412,0.7912822967490751,-0.5181905260563423,0.2136887985306411,6.0,0.0
17.84228515625,-1.5537471771240234,-0.138049840927124,-0.0,-0.0,-1.0,0.0279320685558951,1.0,0.0
18.245372772216797,-1.6722431182861328,-0.1726608276367187,-0.0,-0.0,-1.0,0.0643948036650457,2.0,0.0
19.092273712158203,-1.351701736450195,-0.2061617374420166,-0.0,-0.0,-1.0,0.035460800777141,1.0,0.0
19.13887596130371,-1.1732749938964844,-0.1965665817260742,0.150109750355659,0.9873983561511794,0.0501153581061713,0.1342281016777701,6.0,0.0
19.47025489807129,-1.1634998321533203,-0.2193162441253662,-0.0,-0.0,-1.0,0.0595398875778534,2.0,0.0
19.778432846069336,-0.950653076171875,-0.2265284061431884,-0.6188107453678234,0.7147551733509591,-0.325880811931846,0.2798723727040597,6.0,0.0
19.99905776977539,-0.8056240081787109,-0.232590913772583,-0.3909521345912435,-0.1011854261965361,-0.9148321911607484,0.1948341246083773,3.0,0.0
19.90478515625,-0.1589088439941406,-0.1802887916564941,-0.0,-0.0,-1.0,0.1614967196086644,2.0,0.0
20.035369873046875,-0.0735111236572265,-0.1842150688171386,-0.4547788756719579,0.4060608786638206,-0.7926479275575735,0.1330300605629021,6.0,0.0
20.161487579345703,0.0282630920410156,-0.1868059635162353,0.4155789753000705,-0.9022106873100192,0.1153689342592972,0.1978130655576522,10.0,0.0
20.05088806152344,-1.7637977600097656,-0.1852428913116455,-0.177271256210631,0.5771378076725465,-0.7971742925335912,0.0465390438180153,3.0,0.0
19.617937088012695,-1.6471614837646484,-0.1477391719818115,-0.0,-0.0,-1.0,0.1515991350130848,1.0,0.0
18.81720733642578,-1.2273483276367188,-0.0651159286499023,-0.0,-0.0,-1.0,0.0931332698600389,1.0,0.0
19.959178924560547,-0.1760330200195312,-0.0639839172363281,-0.0,-0.0,-1.0,0.1268374911208096,1.0,0.0
18.011127471923828,-1.1156597137451172,-0.1892666816711425,-0.0,-0.0,-1.0,0.0377651497068867,2.0,0.0
18.33037567138672,-1.194805145263672,-0.2154102325439453,-0.0,-0.0,-1.0,0.037016589162214,2.0,0.0
18.5535945892334,-1.049306869506836,-0.2174921035766601,-0.7671237010097949,-0.2625881091066477,-0.5852936974757461,0.0652125248967913,5.0,0.0
19.26303482055664,-0.5940208435058594,-0.226464033126831,-0.0,-0.0,-1.0,0.026968366715857,1.0,0.0
19.51118850708008,-0.7054958343505859,-0.2520616054534912,-0.0,-0.0,-1.0,0.0335737034662903,2.0,0.0
19.83850479125977,-0.6204929351806641,-0.2674939632415771,0.4722823110373242,-0.8766904689518747,0.0914507535791035,0.1141756420284997,4.0,0.0
20.121360778808594,-0.6118659973144531,-0.2863311767578125,-0.0,-0.0,-1.0,0.1524520265300053,1.0,0.0
19.67802047729492,0.0462760925292968,-0.2030830383300781,-0.0,-0.0,-1.0,0.0709535498882857,1.0,0.0
20.179428100585938,0.0910930633544921,-0.234523057937622,0.5252642268845293,-0.780462510359407,0.3390807601131185,0.1791878292205425,7.0,0.0
17.906110763549805,-1.447122573852539,-0.1242067813873291,-0.0,-0.0,-1.0,0.0254720714808366,1.0,0.0
18.225311279296875,-1.5262737274169922,-0.149986982345581,-0.0,-0.0,-1.0,0.1098999569946323,1.0,0.0
19.1619873046875,-1.1184158325195312,-0.1757385730743408,-0.0,-0.0,-1.0,0.1956726456753698,2.0,0.0
19.419673919677734,-1.285867691040039,-0.2061719894409179,0.4717417265234691,0.8396240112166201,0.2692420161214999,0.0504134946729405,3.0,0.0
19.612258911132812,-1.121784210205078,-0.2057552337646484,-0.0,-0.0,-1.0,0.0561840573992252,2.0,0.0
19.914627075195312,-0.8606605529785156,-0.2052123546600341,-0.0,-0.0,-1.0,0.215361487221585,1.0,0.0
20.18810653686523,-0.9132442474365234,-0.228250503540039,-0.0,-0.0,-1.0,0.1428674299900005,2.0,0.0
20.037796020507812,0.0324516296386718,-0.1423940658569336,-0.0,-0.0,-1.0,0.2608250053542182,2.0,0.0
19.073320388793945,-0.9113693237304688,-0.0510110855102539,-0.4244290118812701,0.8950699809728184,-0.1367835627361972,0.1333396796419638,8.0,0.0
19.057586669921875,-1.0430850982666016,-0.0605237483978271,0.8787664411370512,0.1777860489813126,0.4429014142209708,0.082443775139132,9.0,0.0
20.00335121154785,0.0044021606445312,-0.0420844554901123,-0.0,-0.0,-1.0,0.1375721850820983,1.0,0.0
17.838146209716797,-1.3779335021972656,-0.1516430377960205,-0.0,-0.0,-1.0,0.0641306828450024,2.0,0.0
18.041858673095703,-1.4244728088378906,-0.1671431064605713,-0.0408013945850858,-0.2307669692851738,-0.9721532040202548,0.0564984820915224,4.0,0.0
18.898303985595703,-1.0798912048339844,-0.1859807968139648,0.5795571968190811,0.1445125787648574,-0.8020159413589852,0.1675573401146486,3.0,0.0
19.14693832397461,-1.086713790893555,-0.2016108036041259,0.3385960204454457,0.8772368733730479,0.340306043045354,0.2213233090557007,5.0,0.0
19.43352508544922,-1.0454235076904297,-0.2155878543853759,0.1168102300267463,0.9926125967276384,-0.0327963866716023,0.1184911566430964,4.0,0.0
20.069713592529297,-0.8291206359863281,-0.2370779514312744,0.3508394520111905,-0.8740595642529269,-0.3360529081119091,0.1396153026049922,4.0,0.0
20.0478515625,0.0590705871582031,-0.1582744121551513,-0.0,-0.0,-1.0,0.1979267323053421,2.0,0.0
17.731067657470703,-1.262502670288086,-0.1358740329742431,-0.0,-0.0,-1.0,0.0264188173039746,2.0,0.0
18.076269149780273,-1.3908729553222656,-0.1785852909088134,-0.0252776621223845,-0.417963979923673,-0.9081118605568312,0.0550261399608948,4.0,0.0
18.926006317138672,-0.9248943328857422,-0.213782787322998,-0.0,-0.0,-1.0,0.073017049746066,1.0,0.0
18.867095947265625,-1.052642822265625,-0.2199709415435791,0.7871421857310456,-0.0823881988289099,-0.6112441117395575,0.0813961334269039,3.0,0.0
19.165300369262695,-0.8019676208496094,-0.225245714187622,-0.0,-0.0,-1.0,0.095961648180338,2.0,0.0
19.487735748291016,-0.6619205474853516,-0.2435412406921386,-0.0,-0.0,-1.0,0.0319629871202084,2.0,0.0
20.006654739379883,0.047067642211914,-0.2306296825408935,0.3274908128735807,-0.3181208026854715,-0.8896903519664313,0.1765065590388325,4.0,0.0
20.189163208007812,0.2248516082763672,-0.2331256866455078,-0.0,-0.0,-1.0,0.1077700001602094,1.0,0.0
20.169845581054688,0.0966548919677734,-0.242643117904663,0.486019678726612,-0.7441100474943375,-0.458350421739149,0.2114154313626363,6.0,0.0
20.17280960083008,-0.1049232482910156,0.0161798000335693,0.6352679951969126,0.4992149178274596,-0.5892529508598308,0.1128375955789784,4.0,1.0
17.874217987060547,-1.5063838958740234,-0.1401910781860351,-0.0,-0.0,-1.0,0.0305953841394047,2.0,0.0
18.164899826049805,-1.5681915283203125,-0.1739459037780761,-0.0,-0.0,-1.0,0.0456218600477894,1.0,0.0
18.97488784790039,-1.202898025512695,-0.2137315273284912,-0.3985994493487075,0.5666735124429179,0.7211099841733668,0.1169554067479878,4.0,0.0
19.33147430419922,-1.06939697265625,-0.235447883605957,0.2267880266458457,0.0142398131735607,-0.9738400375271422,0.1172323822813447,3.0,0.0
20.085124969482425,-0.0392570495605468,-0.2066824436187744,0.002969004192029,-0.3412599446754289,-0.9399642733499132,0.1565122570125325,6.0,0.0
20.09113311767578,-0.7028465270996094,-0.2758326530456543,0.2286404147204742,-0.5351657497784527,-0.8132165646496121,0.1873682763980043,4.0,0.0
17.785808563232422,-1.1508121490478516,-0.1892566680908203,0.4726394371895674,0.1628868135629636,-0.8660715030414247,0.0341705419585146,4.0,0.0
18.05797576904297,-1.2102203369140625,-0.2227833271026611,-0.1167173473488959,-0.7342486480771951,-0.668771996740779,0.0163216993183986,3.0,0.0
18.95891571044922,-0.6491718292236328,-0.2491698265075683,-0.667312435154986,0.5852242775097001,-0.4606589398902102,0.0717493025025597,4.0,0.0
19.31949234008789,-0.58734130859375,-0.2808189392089844,-0.0,-0.0,-1.0,0.027154531397365,1.0,0.0
19.58623504638672,-0.5343742370605469,-0.3039617538452148,-0.0,-0.0,-1.0,0.0256736271500181,2.0,0.0
18.970741271972656,-0.5493068695068359,-0.2387380599975586,-0.0,-0.0,-1.0,0.0675679346432157,1.0,0.0
19.257884979248047,-0.4525775909423828,-0.2584319114685058,-0.0,-0.0,-1.0,0.0281927907988392,2.0,0.0
20.113325119018555,0.2612628936767578,-0.2727668285369873,0.4264110650649309,-0.2516535909884448,-0.8688176297318163,0.0959103088307094,4.0,0.0
20.13918685913086,0.4053573608398437,-0.2594122886657715,-0.5898976069998986,-0.7994734237362396,-0.1134154222107734,0.1529827776372396,3.0,0.0
19.046031951904297,-1.022806167602539,-0.0098779201507568,-0.8465575785110505,0.5317499403437745,0.024130213631436,0.1763069089026235,8.0,0.0
18.990724563598633,-1.098222732543945,-0.0114140510559082,-0.6655594525467331,0.3946640214627425,-0.6334594898559407,0.2504057674519546,11.0,0.0
19.246490478515625,-1.0113544464111328,-0.0327844619750976,-0.0,-0.0,-1.0,0.1922269763244142,1.0,0.0
19.78759002685547,-1.5024890899658203,-0.1517210006713867,-0.7836149831244552,0.2766984718430869,0.5562243377474242,0.1042514455140256,3.0,0.0
20.05774307250977,-1.3605995178222656,-0.1701161861419677,-0.0,-0.0,-1.0,0.0482924235874432,2.0,0.0
19.079973220825195,-0.8768863677978516,0.0018036365509033,-0.98651766826399,-0.0708527922248637,0.1475221069430607,0.1337641298288432,7.0,1.0
17.87630844116211,-1.7144832611083984,-0.0885281562805175,0.3484348316086423,-0.448786470353742,-0.8229118252578992,0.040038878793065,4.0,0.0
18.220977783203125,-1.7525787353515625,-0.1192317008972168,-0.0,-0.0,-1.0,0.1913699468097035,2.0,0.0
19.02950096130371,-1.075653076171875,-0.0948867797851562,0.4234916734268876,0.6128323898361782,0.6671516053385266,0.1582151694955161,6.0,0.0
19.014528274536133,-1.834890365600586,-0.1927952766418457,-0.0,-0.0,-1.0,0.0654309289063069,1.0,0.0
19.587451934814453,-1.420633316040039,-0.1874840259552002,-0.0,-0.0,-1.0,0.0621887074986241,1.0,0.0
19.426559448242188,-1.5878677368164062,-0.1952526569366455,-0.0,-0.0,-1.0,0.0594998725810996,1.0,0.0
19.79928398132324,-0.9820232391357422,-0.1496810913085937,-0.3735439439681104,0.8658568714922716,-0.3328014423261491,0.255219311334449,3.0,0.0
19.84235954284668,-1.3485965728759766,-0.2009289264678955,-0.0,-0.0,-1.0,0.0980061431074292,1.0,0.0
19.849424362182617,-1.439016342163086,-0.2130916118621826,-0.0,-0.0,-1.0,0.0695907106814875,2.0,0.0
20.133060455322266,-1.406572341918945,-0.2346014976501464,-0.0,-0.0,-1.0,0.0428019376904162,1.0,0.0
17.967201232910156,-0.8901548385620117,-0.2600359916687011,-0.0,-0.0,-1.0,0.0198586354435966,1.0,0.0
18.720703125,-0.5472707748413086,-0.2705137729644775,-0.0,-0.0,-1.0,0.0147958188884424,2.0,0.0
18.992746353149418,-0.3425102233886719,-0.2637608051300049,-0.0,-0.0,-1.0,0.0603554210608092,2.0,0.0
18.835283279418945,-0.4210081100463867,-0.2613818645477295,-0.3461963078466882,-0.6945570830871567,-0.6306651843623375,0.0428628645845218,3.0,0.0
19.28872299194336,0.0713653564453125,-0.2286086082458496,-0.582141469006544,0.5814875068336022,-0.5683164518640514,0.0557244949870932,4.0,0.0
19.20835304260254,-0.2043666839599609,-0.2630209922790527,-0.0,-0.0,-1.0,0.0508160548943558,1.0,0.0
19.580976486206055,0.2433032989501953,-0.2315552234649658,0.4327390751673577,-0.064536736552006,-0.8992062624662467,0.0815592744645708,6.0,0.0
19.673831939697266,-0.1085071563720703,-0.2942817211151123,-0.0,-0.0,-1.0,0.0458755814713121,2.0,0.0
20.00995826721191,0.3622121810913086,-0.2582931518554687,0.7073964505614224,0.5059301182057349,-0.4935838097278238,0.1303996708054081,3.0,0.0
19.850196838378903,0.0379590988159179,-0.2901234626770019,-0.0,-0.0,-1.0,0.0732057802668726,2.0,0.0
17.862266540527344,-1.3971939086914062,-0.1904141902923584,-0.0,-0.0,-1.0,0.0685601952254313,2.0,0.0
18.323617935180664,-1.4110803604125977,-0.2347345352172851,-0.0,-0.0,-1.0,0.0632168498402698,2.0,0.0
18.717283248901367,-1.2846088409423828,-0.2528214454650879,0.7962133456688731,-0.566327434545602,0.2128791794886866,0.0507948870306229,3.0,0.0
19.114547729492188,-1.0525217056274414,-0.2568206787109375,0.0323124074154634,0.7553991718917485,0.654467722223394,0.1811834054656109,4.0,0.0
18.911008834838867,-1.2004671096801758,-0.2589144706726074,-0.0,-0.0,-1.0,0.0510276972941082,1.0,0.0
19.491453170776367,-0.8968973159790039,-0.2721962928771972,-0.0,-0.0,-1.0,0.0724036640972221,2.0,0.0
20.054615020751953,-0.0587339401245117,-0.2075142860412597,-0.8345588067966148,0.2335951860230201,-0.4989437714463238,0.1576378952305784,8.0,0.0
19.920427322387695,-0.6783523559570312,-0.2854065895080566,0.1110842538506957,0.4844766547562407,-0.8677226858522464,0.1450523075346537,7.0,0.0
19.73702621459961,-0.7447147369384766,-0.2753477096557617,0.3893667164762598,0.8083541813269389,-0.4415394406298835,0.0963794106776388,3.0,0.0
20.169370651245117,0.0152864456176757,-0.2095727920532226,0.0062538682148909,0.6527567850388414,-0.757541727377513,0.2169417339615492,10.0,0.0
20.158430099487305,-0.7824306488037109,-0.3274300098419189,-0.0,-0.0,-1.0,0.1556144101688369,1.0,0.0
17.717363357543945,0.5118513107299805,0.119502305984497,-0.0,-0.0,-1.0,0.0484244900263512,2.0,1.0
19.967262268066406,-0.917729377746582,0.2528214454650879,-0.0,-0.0,-1.0,0.0660475740784323,2.0,1.0
18.04657745361328,-1.1264495849609375,-0.2385702133178711,-0.0,-0.0,-1.0,0.089592207761228,2.0,0.0
18.42879867553711,-1.0299558639526367,-0.2489783763885498,-0.0,-0.0,-1.0,0.0827804086230296,2.0,0.0
19.036312103271484,-0.8521318435668945,-0.2658126354217529,-0.7502335374514097,0.3134363479001836,-0.5821574487182478,0.1022929934979185,5.0,0.0
18.803054809570312,-0.9667377471923828,-0.2675254344940185,-0.0,-0.0,-1.0,0.0431810736380533,2.0,0.0
19.25164794921875,-0.7831745147705078,-0.2723214626312256,0.6518790633358358,-0.4883327839594899,-0.5801592702825386,0.0655642805867646,3.0,0.0
19.643966674804688,-0.6761980056762695,-0.2895724773406982,-0.1460013548115303,-0.306577099702855,-0.940581780777718,0.0459611345305222,4.0,0.0
20.131032943725582,0.0293855667114257,-0.2087635993957519,-0.1945370418004841,-0.4241747963970733,-0.8844382858453257,0.15329477218208,11.0,0.0
20.025999069213867,-0.6930761337280273,-0.3313472270965576,-0.0,-0.0,-1.0,0.1932002267077122,1.0,0.0
17.76645851135254,-0.3522930145263672,-0.2988810539245605,-0.0,-0.0,-1.0,0.0383222831327385,1.0,0.0
18.753602981567383,0.1796712875366211,-0.2830779552459717,0.1347735256108345,-0.9567605592991368,-0.2577699147767804,0.1678705545109219,3.0,0.0
18.609779357910156,-1.742471694946289,-0.1885159015655517,0.425326759892416,-0.4894978132310204,-0.7612417737890295,0.0923586462677319,4.0,0.0
19.02627182006836,0.3371715545654297,-0.2803061008453369,0.6200279502484526,0.3524088250188434,-0.7009802857138997,0.1193065347518974,3.0,0.0
18.897262573242188,-1.646799087524414,-0.1989374160766601,-0.0,-0.0,-1.0,0.1188794796963898,2.0,0.0
19.445053100585938,0.5983057022094727,-0.2749288082122803,-0.0,-0.0,-1.0,0.0241550861097349,1.0,0.0
19.38672637939453,0.4592399597167969,-0.2990341186523437,-0.0,-0.0,-1.0,0.0322524599060279,2.0,0.0
19.7734375,0.6371870040893555,-0.3113493919372558,-0.0,-0.0,-1.0,0.030489463448965,2.0,0.0
17.765586853027344,-1.6959266662597656,-0.0983455181121826,0.4110190682605344,0.5813787549256162,0.7021837856625445,0.0730990417610401,4.0,0.0
18.16562271118164,-1.6806488037109375,-0.1324236392974853,-0.1270885310045288,0.943554119042442,-0.3058661957869025,0.0433263038213684,3.0,0.0
18.461811065673828,-1.7321271896362305,-0.1715824604034423,-0.0,-0.0,-1.0,0.1200806314218497,2.0,0.0
19.05930519104004,-1.2662487030029297,-0.1400837898254394,-0.0,-0.0,-1.0,0.1580856790808328,1.0,0.0
18.944255828857425,-1.6020441055297852,-0.1948487758636474,-0.0,-0.0,-1.0,0.0964806397610055,2.0,0.0
19.399396896362305,-1.341109275817871,-0.192612886428833,-0.0,-0.0,-1.0,0.0375540255530319,1.0,0.0
19.416357040405273,-1.4292726516723633,-0.2119050025939941,-0.0,-0.0,-1.0,0.0389892872652108,1.0,0.0
19.855541229248047,-1.019209861755371,-0.1819756031036377,0.9689770167861254,0.2278044019847479,-0.0958576829296011,0.2339826303121354,3.0,0.0
19.711042404174805,-1.283285140991211,-0.2168331146240234,-0.0,-0.0,-1.0,0.0547170682009925,1.0,0.0
19.991031646728516,-0.8182563781738281,-0.159067153930664,-0.4308116682726964,-0.8925673005900454,-0.1331349706031264,0.2035938053647904,5.0,0.0
20.139144897460938,-1.1334009170532229,-0.2386801242828369,-0.0,-0.0,-1.0,0.090565722450158,1.0,0.0
17.8571720123291,-1.1834840774536133,-0.2218003273010254,-0.0,-0.0,-1.0,0.0407892008156897,1.0,0.0
18.06605529785156,-1.2677812576293943,-0.2462873458862304,-0.0,-0.0,-1.0,0.025428255544369,1.0,0.0
18.33928108215332,-1.1331558227539062,-0.2178544998168945,-0.0,-0.0,-1.0,0.0658415316178187,1.0,0.0
18.34068298339844,-1.281386375427246,-0.2552251815795898,-0.0,-0.0,-1.0,0.0481755584162194,1.0,0.0
18.82870101928711,-1.1824569702148438,-0.2439236640930175,-0.0,-0.0,-1.0,0.0675433659052199,1.0,0.0
18.65224838256836,-1.2866096496582031,-0.2642860412597656,-0.0,-0.0,-1.0,0.0310307511275203,1.0,0.0
19.17936897277832,-1.095916748046875,-0.2350304126739502,-0.0,-0.0,-1.0,0.1944011151338344,2.0,0.0
19.7608642578125,-0.9298467636108398,-0.2209420204162597,-0.6188107453678234,0.7147551733509591,-0.325880811931846,0.1910796096634328,6.0,0.0
19.59549903869629,-1.1282806396484375,-0.261075496673584,-0.0,-0.0,-1.0,0.0271867415382763,1.0,0.0
20.19200134277344,-0.0810747146606445,-0.0434019565582275,0.6058326423441281,-0.4451030988520674,-0.6594316043856396,0.1035273402202715,3.0,0.0
20.002521514892575,-1.068572998046875,-0.2673304080963135,-0.0,-0.0,-1.0,0.1518600385432192,2.0,0.0
19.024269104003903,-1.2017879486083984,0.2192471027374267,0.8915472438874594,0.1136467618583849,-0.4384380519934128,0.105383573657988,3.0,1.0
19.915386199951172,-0.8798742294311523,0.2565336227416992,-0.4805217689427964,-0.4699569482003923,-0.7404318310352813,0.0778774616606229,3.0,1.0
20.128564834594727,-1.333918571472168,-0.3126997947692871,-0.0,-0.0,-1.0,0.0636913469557463,1.0,0.0
19.857494354248047,-1.6701300144195557,-0.254706859588623,-0.0,-0.0,-1.0,0.0671594742605712,1.0,0.0
19.048168182373047,-1.157560110092163,0.013798713684082,0.672191546781762,0.72610994429023,0.1446474100631661,0.1589978184382601,5.0,1.0
19.009864807128903,-1.1141557693481443,-0.1148598194122314,-0.684190023778161,0.2930590851292884,-0.6678326017690547,0.1749505272061057,6.0,0.0
19.42662811279297,-1.2779982089996338,-0.2428972721099853,0.4717417265234691,0.8396240112166201,0.2692420161214999,0.0560500436989552,3.0,0.0
19.375831604003903,-1.4990873336791992,-0.2372200489044189,-0.0,-0.0,-1.0,0.0429051878343834,1.0,0.0
19.35614776611328,-1.7555930614471436,-0.2429063320159912,-0.0,-0.0,-1.0,0.0515048494357186,1.0,0.0
18.05959129333496,-1.505792260169983,-0.1415462493896484,-0.0,-0.0,-1.0,0.0511574563228726,2.0,0.0
17.88373374938965,-1.6944605112075806,-0.094794750213623,0.3484348316086423,-0.448786470353742,-0.8229118252578992,0.0344745533916168,4.0,0.0
17.83521842956543,-1.855737328529358,-0.0857067108154296,-0.0,-0.0,-1.0,0.0523877557772581,2.0,0.0
19.12032699584961,0.163362979888916,-0.2257113456726074,-0.0,-0.0,-1.0,0.09547641389686,1.0,0.0
19.101993560791016,-0.6029505729675293,-0.2039113044738769,-0.0,-0.0,-1.0,0.0581525439406129,2.0,0.0
19.027118682861328,-0.2881007194519043,-0.1885333061218261,-0.0,-0.0,-1.0,0.0829558689730561,1.0,0.0
18.93396759033203,0.0239996910095214,-0.1683220863342285,-0.0,-0.0,-1.0,0.1146953604540493,1.0,0.0
17.857688903808594,0.624755859375,0.129894733428955,-0.0,-0.0,-1.0,0.0507103047756205,1.0,1.0
18.971275329589844,-0.1054086685180664,-0.2388343811035156,-0.0,-0.0,-1.0,0.0657596174801975,1.0,0.0
18.995304107666016,0.124032974243164,-0.2470002174377441,-0.0,-0.0,-1.0,0.1019941859161295,2.0,0.0
18.870189666748047,-1.0989952087402344,-0.2097392082214355,0.6850410594702446,-0.1131356036999219,-0.7196659516854601,0.1479794296642755,3.0,0.0
18.90227508544922,-0.7646331787109375,-0.2181010246276855,-0.0,-0.0,-1.0,0.0530938873420444,2.0,0.0
18.924835205078125,-0.3342723846435547,-0.2246127128601074,-0.0,-0.0,-1.0,0.1460409462454834,2.0,0.0
18.724233627319336,-1.5822229385375977,-0.1704730987548828,-0.0,-0.0,-1.0,0.033746355996629,2.0,0.0
18.810298919677734,-1.2709503173828125,-0.1931629180908203,-0.0,-0.0,-1.0,0.1788024938214079,1.0,0.0
20.060836791992188,-1.2341184616088867,-0.3584575653076172,-0.0,-0.0,-1.0,0.0848210152436408,1.0,0.0
19.962003707885746,-0.9345493316650392,-0.3268437385559082,-0.0,-0.0,-1.0,0.0931444139805088,1.0,0.0
19.647308349609375,-1.691183090209961,-0.2442665100097656,-0.0,-0.0,-1.0,0.12937243946745,1.0,0.0
19.739551544189453,-1.4148168563842771,-0.2674341201782226,-0.0,-0.0,-1.0,0.0566498741055556,2.0,0.0
19.772241592407227,-0.7588319778442383,-0.2701387405395508,0.0946689908425325,-0.1281163043731396,-0.9872304668752,0.1026162396752357,3.0,0.0
19.799057006835938,-0.5511636734008789,-0.2762727737426758,0.3872686313923345,0.8485701638299995,0.3604881193562922,0.0911611039242824,3.0,0.0
19.75403213500977,-0.536219596862793,-0.2630805969238281,-0.5030364699201068,-0.1518624496064322,-0.8508184920004098,0.0742105226522721,4.0,0.0
19.772062301635746,-0.2359943389892578,-0.2663235664367676,-0.0,-0.0,-1.0,0.1623471324561769,2.0,0.0
18.830432891845703,-1.7000694274902344,-0.0089149475097656,-0.0,-0.0,-1.0,0.0977185032884346,1.0,0.0
18.88250732421875,-1.515660285949707,-0.0211787223815917,-0.0,-0.0,-1.0,0.1449938946583364,1.0,0.0
19.89434051513672,-0.5835409164428711,-0.2177734375,-0.0,-0.0,-1.0,0.132537882282518,2.0,0.0
20.088666915893555,-0.4618864059448242,-0.2640223503112793,-0.0,-0.0,-1.0,0.1731872839998816,1.0,0.0
20.062191009521484,0.0743856430053711,-0.2280726432800293,0.8240274759021045,0.5643279353111541,-0.0501268429671848,0.1842959988251599,3.0,0.0
20.12430763244629,0.4118251800537109,-0.2276144027709961,-0.7412698646950195,0.4994145331203633,-0.4484463310176561,0.1149112655692061,3.0,0.0
19.461429595947266,-1.8335857391357424,-0.1733956336975097,-0.0,-0.0,-1.0,0.0437309087723191,2.0,0.0
19.50444221496582,-1.5272283554077148,-0.1664900779724121,-0.0,-0.0,-1.0,0.0660968537976103,1.0,0.0
19.584762573242188,-1.1059579849243164,-0.1633996963500976,-0.0,-0.0,-1.0,0.0784264403699231,1.0,0.0
19.80191421508789,-0.7558307647705078,-0.2022781372070312,-0.0,-0.0,-1.0,0.1299802855039389,2.0,0.0
17.765493392944336,-0.0874910354614257,-0.3231539726257324,-0.0,-0.0,-1.0,0.0294990145396957,2.0,0.0
17.902944564819336,0.2036628723144531,-0.3345322608947754,-0.0,-0.0,-1.0,0.023731310027216,2.0,0.0
17.713064193725586,0.4866962432861328,-0.2511544227600097,-0.0,-0.0,-1.0,0.1167347971365405,1.0,0.0
20.197898864746097,-0.6682825088500977,-0.0798516273498535,-0.0,-0.0,-1.0,0.1080874887197275,1.0,0.0
20.128013610839844,-0.0007877349853515,-0.0082573890686035,-0.0,-0.0,-1.0,0.1111266037380661,1.0,0.0
17.899545669555664,-0.3014640808105469,-0.2666807174682617,-0.0,-0.0,-1.0,0.0321169843966036,1.0,0.0
18.083335876464844,-0.0093936920166015,-0.2784886360168457,-0.0,-0.0,-1.0,0.0451242408530447,1.0,0.0
18.41701316833496,0.4478235244750976,-0.3113679885864258,-0.0,-0.0,-1.0,0.0290586582169503,1.0,0.0
19.205554962158203,-1.8035707473754885,-0.1702222824096679,-0.0,-0.0,-1.0,0.0348932761147523,1.0,0.0
19.357807159423828,-1.5258445739746094,-0.1690526008605957,-0.0,-0.0,-1.0,0.0500733150528474,2.0,0.0
19.74840545654297,-1.0228376388549805,-0.1981844902038574,-0.8172841270983606,0.4812590924648013,-0.3169169315657129,0.1587336956617892,3.0,0.0
19.966047286987305,-0.782658576965332,-0.2210240364074707,-0.5957161232617691,-0.7899586820020726,-0.1452156369524871,0.20490224885791,4.0,0.0
19.390071868896484,-1.3864450454711914,-0.1574201583862304,-0.0,-0.0,-1.0,0.0407174632338192,1.0,0.0
19.40570068359375,-1.1323728561401367,-0.1254496574401855,-0.0,-0.0,-1.0,0.1082910863260413,1.0,0.0
19.8283748626709,-0.77252197265625,-0.1840882301330566,-0.0,-0.0,-1.0,0.1519446431184321,2.0,0.0
20.01030158996582,-0.6041746139526367,-0.2079625129699707,-0.0,-0.0,-1.0,0.2401364280109006,1.0,0.0
20.149272918701172,0.040663719177246,-0.1570658683776855,0.6109133203799706,-0.7685969588978796,0.1898515992960042,0.2535451973451491,5.0,0.0
19.022239685058594,-1.0536861419677734,-0.0159997940063476,-0.6980444309637455,0.6312641722916508,-0.3379933685465408,0.1485709774212123,7.0,0.0
20.092912673950195,0.1193761825561523,-0.1317682266235351,-0.0,-0.0,-1.0,0.2420632945763541,1.0,0.0
