x,y,z,nx,ny,nz,curvature,density,label
19.733741760253903,-32.51542663574219,1.928429365158081,-0.0,-0.0,-1.0,0.1770432358484504,1.0,2.0
20.150436401367188,-32.71504211425781,1.9340265989303589,-0.0,-0.0,-1.0,0.1162431839064775,1.0,2.0
19.857879638671875,-32.94231033325195,1.901118755340576,-0.0,-0.0,-1.0,0.1196819716814044,1.0,2.0
19.943077087402344,-31.995502471923828,2.4107861518859863,-0.5357126894638209,-0.5259608526253731,-0.6605884466542168,0.2386656612931717,3.0,3.0
19.47414779663086,-31.888683319091797,2.4042365550994873,0.2004243195242694,-0.9064470512361246,0.371730864266835,0.1641695811683217,3.0,3.0
19.240036010742188,-32.14304733276367,2.384364366531372,-0.0,-0.0,-1.0,0.2438777286655912,1.0,3.0
18.37268829345703,-32.248992919921875,2.355236530303955,0.6034336712197523,0.518654854349965,-0.6056937728732795,0.1264737057142376,3.0,3.0
20.071239471435547,-32.353580474853516,2.394249200820923,-0.0,-0.0,-1.0,0.0902985305033437,2.0,3.0
17.820999145507812,-32.78569030761719,2.31191349029541,-0.0,-0.0,-1.0,0.0780692065594437,1.0,3.0
20.073978424072266,-32.73317337036133,2.3729562759399414,-0.0,-0.0,-1.0,0.1748018724618501,1.0,3.0
20.10617446899414,-33.002593994140625,2.358347177505493,-0.0,-0.0,-1.0,0.169228899792439,2.0,3.0
20.073898315429688,-33.558815002441406,2.3253300189971924,-0.0,-0.0,-1.0,0.0855879036272467,1.0,3.0
19.53665542602539,-32.037662506103516,2.8396425247192383,0.891545468043421,0.4493781482438023,0.0566211823632156,0.0825977856147905,3.0,3.0
19.867713928222656,-32.45619201660156,2.825207471847534,-0.0,-0.0,-1.0,0.192696570298887,1.0,3.0
19.70957946777344,-32.356163024902344,2.8288354873657227,0.8996248470289561,0.290033199798962,-0.3264289779148033,0.150211223340881,5.0,3.0
19.32691192626953,-32.48584747314453,2.8251922130584717,0.9725023519295722,0.0135727841245768,0.2324972150855977,0.1591618052318721,4.0,3.0
20.1838321685791,-32.32223892211914,3.2587151527404785,-0.0,-0.0,-1.0,0.1455332075184824,2.0,3.0
19.117902755737305,-33.83024978637695,1.440280795097351,-0.0,-0.0,-1.0,0.0807592996460539,2.0,2.0
19.93885803222656,-32.19881820678711,1.6737209558486938,-0.0,-0.0,-1.0,0.2310056862069266,1.0,2.0
19.693822860717773,-32.1682243347168,1.6560847759246826,-0.0,-0.0,-1.0,0.1396726972365385,1.0,2.0
20.120038986206055,-32.40026092529297,1.6683738231658936,-0.0,-0.0,-1.0,0.1514230330526475,1.0,2.0
19.872711181640625,-32.57599639892578,1.630274534225464,-0.0,-0.0,-1.0,0.1179140875433744,2.0,2.0
19.233421325683594,-33.54071807861328,1.4796119928359983,-0.0,-0.0,-1.0,0.0419258239764198,1.0,2.0
19.36132049560547,-33.85251235961914,1.4570043087005615,-0.0,-0.0,-1.0,0.0517134366660383,1.0,2.0
20.13463973999023,-34.138572692871094,1.4841924905776978,-0.0,-0.0,-1.0,0.1440119723332508,1.0,2.0
17.93021011352539,-32.04281997680664,1.9662542343139648,-0.0,-0.0,-1.0,0.2688093212744151,2.0,2.0
19.848678588867188,-31.916568756103516,2.091064453125,-0.0,-0.0,-1.0,0.1510570381009043,1.0,3.0
18.436243057250977,-32.067840576171875,1.9957844018936155,-0.0,-0.0,-1.0,0.1771117952432395,2.0,2.0
18.173442840576172,-32.14582824707031,1.974152445793152,-0.0,-0.0,-1.0,0.2473565154036623,2.0,2.0
20.042591094970703,-32.08330535888672,2.0894899368286133,-0.0,-0.0,-1.0,0.2081358550864659,1.0,3.0
20.076820373535156,-32.993953704833984,2.019853115081787,-0.0,-0.0,-1.0,0.1110270324386591,2.0,3.0
18.24887466430664,-32.179691314697266,2.4214203357696533,-0.0,-0.0,-1.0,0.1922532013405547,2.0,3.0
18.041484832763672,-32.24567794799805,2.411327362060547,-0.0,-0.0,-1.0,0.1709109184403088,1.0,3.0
19.94248390197754,-32.08445739746094,2.4795405864715576,0.3968092185235729,-0.6825248213090187,-0.6137607941142895,0.2303944250500164,3.0,3.0
19.8603515625,-32.342952728271484,2.463179588317871,-0.0,-0.0,-1.0,0.2163488784644117,1.0,3.0
19.206361770629883,-32.17007064819336,2.4524776935577393,-0.0,-0.0,-1.0,0.1605737834210993,1.0,3.0
20.070844650268555,-32.50831604003906,2.460286855697632,-0.0,-0.0,-1.0,0.2196564456312919,1.0,3.0
19.95048713684082,-32.43215560913086,2.460981845855713,0.3592082955801522,-0.7102543484522793,-0.6053991748351089,0.2319416967744732,3.0,3.0
20.132904052734375,-32.87299346923828,2.4417636394500732,-0.0,-0.0,-1.0,0.1542615097095334,2.0,3.0
19.859230041503903,-32.8399658203125,2.4359004497528076,-0.0,-0.0,-1.0,0.1406782428297792,1.0,3.0
20.1409854888916,-33.1390380859375,2.4269866943359375,-0.0,-0.0,-1.0,0.1605439808250026,2.0,3.0
19.585460662841797,-32.06261444091797,2.8732926845550537,0.8474188205869413,-0.5209578815065423,0.1023925202895862,0.1527133451533495,3.0,3.0
19.33656311035156,-32.40630340576172,2.861768960952759,-0.0,-0.0,-1.0,0.1869428798830539,1.0,3.0
19.43904685974121,-32.497642517089844,2.8592536449432373,-0.0,-0.0,-1.0,0.153123964752965,2.0,3.0
20.208654403686523,-32.33289337158203,3.2589528560638428,-0.0,-0.0,-1.0,0.1607720098709379,2.0,3.0
20.079299926757812,-32.00074005126953,1.6394360065460205,-0.0,-0.0,-1.0,0.1932543656729737,1.0,2.0
19.646480560302734,-32.09931182861328,1.7704952955245972,-0.0,-0.0,-1.0,0.1944513013703297,2.0,2.0
19.46129035949707,-32.16038513183594,1.748652458190918,-0.0,-0.0,-1.0,0.1355794266777459,1.0,2.0
20.004619598388672,-32.39396286010742,1.7701375484466553,-0.0,-0.0,-1.0,0.1697506547023804,1.0,2.0
19.909412384033203,-32.58367156982422,1.7425692081451416,-0.0,-0.0,-1.0,0.2249637426445699,1.0,2.0
20.087339401245117,-32.797874450683594,1.734083890914917,-0.0,-0.0,-1.0,0.2161604290932978,1.0,2.0
20.01950454711914,-32.76072692871094,1.732714056968689,-0.0,-0.0,-1.0,0.1883299657483197,1.0,2.0
20.150711059570312,-33.24442672729492,1.6905169486999512,-0.0,-0.0,-1.0,0.0868627918566884,1.0,2.0
20.18896484375,-33.708003997802734,1.6417721509933472,-0.0,-0.0,-1.0,0.158648070985964,1.0,2.0
19.192251205444336,-33.988990783691406,1.5361907482147217,-0.0,-0.0,-1.0,0.1587567649786566,2.0,2.0
19.15375518798828,-34.02782440185547,1.5290367603302002,-0.0,-0.0,-1.0,0.1659328680485512,2.0,2.0
19.23342514038086,-34.34606170654297,1.50026273727417,-0.0,-0.0,-1.0,0.1792867253078132,1.0,2.0
17.77602767944336,-32.0944938659668,2.0261545181274414,-0.0,-0.0,-1.0,0.1940522108199844,1.0,3.0
19.844072341918945,-31.891448974609375,2.1672139167785645,-0.0,-0.0,-1.0,0.127966232720346,2.0,3.0
18.253070831298828,-32.10506820678711,2.055400848388672,-0.0,-0.0,-1.0,0.2741609903548111,1.0,3.0
17.879905700683594,-32.072853088378906,2.0342540740966797,-0.0,-0.0,-1.0,0.215011027575485,2.0,3.0
20.020343780517575,-32.1160774230957,2.1598129272460938,-0.0,-0.0,-1.0,0.1634502121634532,2.0,3.0
20.20407485961914,-32.714942932128906,2.121830463409424,-0.0,-0.0,-1.0,0.1281635974775581,1.0,3.0
20.064023971557617,-33.06635284423828,2.085423707962036,-0.0,-0.0,-1.0,0.0915889705147773,2.0,3.0
19.720184326171875,-31.915122985839844,2.5188512802124023,-0.0,-0.0,-1.0,0.1528066733725918,2.0,3.0
19.29947280883789,-31.91444206237793,2.505343198776245,-0.0,-0.0,-1.0,0.1915609621843638,1.0,3.0
18.849082946777344,-32.206268310546875,2.4753308296203613,-0.0,-0.0,-1.0,0.1825772686658014,2.0,3.0
18.439353942871097,-32.163475036621094,2.4639830589294434,0.5098055734346435,-0.8403726759300877,-0.1840435895245406,0.2374190471311901,3.0,3.0
17.984954833984375,-32.205039978027344,2.446514368057251,-0.0,-0.0,-1.0,0.1782792724949842,1.0,3.0
19.950822830200195,-32.111820220947266,2.5153603553771973,0.3968092185235729,-0.6825248213090187,-0.6137607941142895,0.2189633454144643,3.0,3.0
19.799724578857425,-32.141136169433594,2.5090689659118652,-0.0,-0.0,-1.0,0.2114414825637658,2.0,3.0
19.137327194213867,-32.1734619140625,2.4864344596862793,-0.0,-0.0,-1.0,0.1556839783342717,2.0,3.0
19.029464721679688,-32.21165084838867,2.4809281826019287,-0.351833368776954,-0.9011657405394016,-0.2532066126568025,0.1820284440254479,3.0,3.0
20.163299560546875,-32.60411071777344,2.494229793548584,-0.0,-0.0,-1.0,0.1729106235176029,1.0,3.0
19.96246337890625,-32.520790100097656,2.493028163909912,-0.0,-0.0,-1.0,0.2065360545942165,1.0,3.0
20.180633544921875,-32.92500305175781,2.476379632949829,-0.0,-0.0,-1.0,0.1055057100300368,1.0,3.0
20.0883731842041,-32.928016662597656,2.4735894203186035,-0.0,-0.0,-1.0,0.1488109210111994,1.0,3.0
20.109535217285156,-33.133602142333984,2.462350606918335,-0.0,-0.0,-1.0,0.155810262486274,2.0,3.0
19.410552978515625,-31.88584899902344,2.8773956298828125,-0.2335143961230412,-0.4635611370577247,-0.8547409543323876,0.1389529680300271,3.0,3.0
19.654695510864254,-32.23289108276367,2.8677806854248047,-0.0,-0.0,-1.0,0.1091848629505876,1.0,3.0
19.251060485839844,-32.406253814697266,2.860422372817993,-0.0,-0.0,-1.0,0.1608108504752985,1.0,3.0
19.821109771728516,-32.457855224609375,2.861443519592285,-0.0,-0.0,-1.0,0.2031313647902591,2.0,3.0
20.04079818725586,-32.39057922363281,3.2258007526397705,-0.0,-0.0,-1.0,0.1469085402962595,1.0,3.0
17.777793884277344,-32.01393127441406,1.6413779258728027,0.8114700397824618,0.3050088610683406,-0.4984836699484181,0.1690740913536526,3.0,2.0
20.134136199951172,-31.886186599731445,1.5461097955703735,-0.0,-0.0,-1.0,0.2321757748175739,2.0,2.0
19.853343963623047,-32.756744384765625,1.7412267923355105,-0.0,-0.0,-1.0,0.2157216480253522,1.0,2.0
20.153398513793945,-33.458038330078125,1.678338646888733,-0.0,-0.0,-1.0,0.0817328757993578,1.0,2.0
19.343320846557617,-33.479148864746094,1.614238739013672,-0.0,-0.0,-1.0,0.0699397217230906,1.0,2.0
19.20106506347656,-33.85946273803711,1.557121992111206,-0.0,-0.0,-1.0,0.0807592996460539,2.0,2.0
20.17312812805176,-33.76243209838867,1.641401290893555,-0.0,-0.0,-1.0,0.1806076730033795,1.0,2.0
20.110937118530273,-33.85297393798828,1.6255404949188232,-0.0,-0.0,-1.0,0.1601236597448188,1.0,2.0
19.199024200439453,-34.025978088378906,1.5366336107254028,0.1647451867260292,0.0183598860073171,-0.986165269129066,0.1742752442153021,3.0,2.0
18.74061393737793,-34.253501892089844,1.4735935926437378,-0.0,-0.0,-1.0,0.1014005688138402,1.0,2.0
18.327526092529297,-31.98573303222656,2.0638060569763184,-0.0,-0.0,-1.0,0.2397714317326473,1.0,3.0
17.935871124267578,-31.981460571289062,2.0386409759521484,-0.0,-0.0,-1.0,0.1680791399811803,1.0,3.0
19.8041934967041,-31.924571990966797,1.9965972900390625,-0.0,-0.0,-1.0,0.16913278312059,2.0,2.0
19.38370704650879,-32.002288818359375,1.96109676361084,-0.0,-0.0,-1.0,0.1013202225881926,1.0,2.0
19.19584274291992,-32.027626037597656,2.114992618560791,-0.0,-0.0,-1.0,0.1861459322432511,1.0,3.0
18.519451141357425,-32.31005096435547,2.048518180847168,-0.0,-0.0,-1.0,0.2167182304833509,1.0,3.0
18.295223236083984,-32.253021240234375,2.039283275604248,-0.0,-0.0,-1.0,0.150342130910982,2.0,3.0
20.188549041748047,-32.153072357177734,2.0021891593933105,0.8395455738126008,-0.1562433070911927,-0.5203376389238797,0.1534596316895106,3.0,3.0
19.956148147583008,-32.08182144165039,1.9918320178985596,-0.0,-0.0,-1.0,0.1561714454855044,2.0,2.0
18.5675048828125,-32.471595764160156,2.037660598754883,-0.0,-0.0,-1.0,0.1591058991658883,1.0,3.0
19.961380004882812,-32.71281814575195,1.7550569772720337,-0.0,-0.0,-1.0,0.1987987224104158,1.0,2.0
20.051267623901367,-33.05287170410156,2.070117235183716,-0.0,-0.0,-1.0,0.1051544459667795,2.0,3.0
20.177705764770508,-33.83728790283203,2.000173807144165,-0.0,-0.0,-1.0,0.129644628366944,1.0,3.0
18.570497512817383,-31.961421966552734,2.4394922256469727,-0.0,-0.0,-1.0,0.2165577359253334,1.0,3.0
20.05864143371582,-32.00520324707031,2.4882006645202637,0.0476927218647831,0.9171579910839264,-0.3956597321841399,0.1296210887586175,3.0,3.0
19.835681915283203,-31.873001098632812,2.3291869163513184,-0.0,-0.0,-1.0,0.0855255944340049,1.0,3.0
19.343536376953125,-31.963380813598633,2.466813564300537,-0.0,-0.0,-1.0,0.2190079514542358,2.0,3.0
19.126964569091797,-32.22972106933594,2.442166805267334,-0.0,-0.0,-1.0,0.1637797370532493,1.0,3.0
18.450817108154297,-32.14765930175781,2.4235191345214844,0.9415200233438812,-0.3024675509314369,0.1485039604726968,0.2050548330642239,3.0,3.0
18.211639404296875,-32.19710159301758,2.411743640899658,-0.0,-0.0,-1.0,0.1795208389978877,2.0,3.0
19.932453155517575,-32.28244400024414,2.4655771255493164,-0.0,-0.0,-1.0,0.2040027020219833,1.0,3.0
20.067718505859375,-32.60523986816406,2.4480488300323486,-0.0,-0.0,-1.0,0.2301748420460526,1.0,3.0
19.679853439331055,-32.60641098022461,2.4357573986053467,-0.0,-0.0,-1.0,0.2190200784643171,1.0,3.0
20.13092041015625,-32.93660354614258,2.4272193908691406,-0.0,-0.0,-1.0,0.151541207685087,1.0,3.0
19.712841033935547,-32.11878967285156,2.798913955688477,-0.0,-0.0,-1.0,0.2041870642939203,2.0,3.0
19.453794479370117,-31.978647232055664,2.802667140960694,-0.0,-0.0,-1.0,0.1072898405274434,2.0,3.0
18.13632583618164,-32.22011947631836,2.781480312347412,-0.0,-0.0,-1.0,0.2020747175963466,1.0,3.0
19.77587890625,-32.4245719909668,2.7865495681762695,-0.0,-0.0,-1.0,0.1709262312470065,2.0,3.0
19.51427841186523,-32.388694763183594,2.7860538959503174,-0.0,-0.0,-1.0,0.149931527553131,1.0,3.0
19.25130844116211,-32.40916061401367,2.7831368446350098,0.2001795578013921,-0.576685739500146,-0.7920616784667772,0.1796970099165916,3.0,3.0
19.81454086303711,-32.57362365722656,2.780538558959961,-0.0,-0.0,-1.0,0.161397920138605,1.0,3.0
19.69487762451172,-32.696937561035156,2.7744369506835938,-0.0,-0.0,-1.0,0.1580180283755004,1.0,3.0
19.772987365722656,-31.89908218383789,3.1306610107421875,-0.0,-0.0,-1.0,0.1037897137512828,2.0,3.0
19.884361267089844,-32.39807891845703,3.1198418140411377,-0.0,-0.0,-1.0,0.1422811460156153,2.0,3.0
17.941558837890625,-32.10774230957031,1.5895661115646362,-0.0,-0.0,-1.0,0.1063539389297189,1.0,2.0
20.062437057495117,-32.051490783691406,1.4626067876815796,-0.0,-0.0,-1.0,0.1368208395091642,2.0,2.0
20.17872428894043,-33.224769592285156,1.5501487255096436,-0.0,-0.0,-1.0,0.1107381341520528,2.0,2.0
19.282358169555664,-33.43370056152344,1.4694604873657229,-0.0,-0.0,-1.0,0.0635322183107794,2.0,2.0
20.07787322998047,-33.51661682128906,1.491412878036499,-0.0,-0.0,-1.0,0.1386989706588858,1.0,2.0
19.591938018798828,-33.57369613647461,1.4597444534301758,-0.0,-0.0,-1.0,0.0787359945013606,1.0,2.0
19.33889389038086,-33.545738220214844,1.4524929523468018,-0.0,-0.0,-1.0,0.0352864101091688,1.0,2.0
19.06437110900879,-31.879608154296875,2.0225985050201416,-0.0,-0.0,-1.0,0.0862587294830848,2.0,3.0
19.009124755859375,-31.86907386779785,2.0211899280548096,-0.0,-0.0,-1.0,0.1281936047233865,1.0,3.0
18.34469223022461,-31.923982620239254,1.9786434173583984,-0.0,-0.0,-1.0,0.2050244380174601,1.0,2.0
17.913042068481445,-32.022308349609375,1.9420108795166016,-0.0,-0.0,-1.0,0.2043060274845579,2.0,2.0
19.95155143737793,-31.951597213745117,1.7643084526062012,-0.0,-0.0,-1.0,0.1924452740601926,1.0,2.0
19.5853328704834,-31.9034366607666,1.7480567693710327,-0.0,-0.0,-1.0,0.153452882956553,1.0,2.0
19.08277130126953,-31.96379852294922,2.0124707221984863,-0.0,-0.0,-1.0,0.1329042412970091,1.0,3.0
18.83628845214844,-31.961959838867188,2.000380039215088,-0.0,-0.0,-1.0,0.1647822898876835,1.0,3.0
18.44717788696289,-32.155609130859375,1.955303430557251,0.270312364829022,0.4632269284986613,-0.8440095012108797,0.2749993670858701,3.0,2.0
20.02555274963379,-32.29527282714844,1.8585182428359983,-0.2977251614844059,-0.0818429220127463,-0.9511369324842244,0.1665302139046556,3.0,2.0
19.74315071105957,-32.27824020385742,1.695748805999756,-0.0,-0.0,-1.0,0.1387927417087447,1.0,2.0
20.053735733032227,-32.52881622314453,1.8211132287979128,-0.0,-0.0,-1.0,0.1306790321631775,2.0,2.0
19.913230895996097,-32.633602142333984,1.799086570739746,-0.0,-0.0,-1.0,0.2371123575920457,1.0,2.0
20.018310546875,-32.94534683227539,1.9082220792770384,-0.0,-0.0,-1.0,0.1515193885673268,2.0,2.0
20.07010269165039,-33.54121398925781,1.8169491291046145,-0.0,-0.0,-1.0,0.2301580783236251,1.0,2.0
19.868305206298828,-33.62754821777344,1.7992955446243286,-0.0,-0.0,-1.0,0.2135919289067834,1.0,2.0
20.17233085632324,-33.76361846923828,1.7833986282348633,-0.0,-0.0,-1.0,0.1777960132715823,1.0,2.0
19.339853286743164,-33.98952102661133,1.7308915853500366,-0.0,-0.0,-1.0,0.2083621589228864,1.0,2.0
18.46552085876465,-32.01447296142578,2.298765182495117,-0.0,-0.0,-1.0,0.2419654240817922,2.0,3.0
19.885629653930664,-31.86255645751953,2.2048661708831787,-0.0,-0.0,-1.0,0.1001053994639414,2.0,3.0
19.782407760620117,-31.90914726257324,2.195413827896118,-0.0,-0.0,-1.0,0.0943234551623542,2.0,3.0
19.35726547241211,-32.02140808105469,2.3193917274475098,-0.1375129876043094,-0.8958001850572068,0.4226490348878263,0.1806644170682434,3.0,3.0
18.529333114624023,-32.25645446777344,2.2751898765563965,-0.0,-0.0,-1.0,0.2430362484614358,1.0,3.0
18.1289119720459,-32.25458908081055,2.2648539543151855,-0.0,-0.0,-1.0,0.2323803000930334,1.0,3.0
17.851633071899414,-32.26803207397461,2.2556095123291016,-0.0,-0.0,-1.0,0.1635024895221458,1.0,3.0
20.02776336669922,-32.21797180175781,2.162668466567993,-0.0,-0.0,-1.0,0.2395429305103566,1.0,3.0
19.850317001342773,-32.12723159790039,2.023542881011963,-0.0,-0.0,-1.0,0.1846246760420932,2.0,3.0
18.601282119750977,-32.49549102783203,2.2515220642089844,-0.0,-0.0,-1.0,0.2401874255934376,1.0,3.0
17.72062110900879,-33.04681396484375,2.5382742881774902,-0.0,-0.0,-1.0,0.0851876774377744,1.0,3.0
20.014484405517575,-32.7648811340332,2.241476535797119,-0.0,-0.0,-1.0,0.1784882904676207,2.0,3.0
20.20308494567871,-32.94631576538086,2.2198891639709473,-0.0,-0.0,-1.0,0.064433119665801,1.0,3.0
20.118194580078125,-32.898902893066406,2.225534439086914,-0.0,-0.0,-1.0,0.1497595003936243,1.0,3.0
20.202186584472656,-33.777931213378906,2.1130309104919434,-0.0,-0.0,-1.0,0.1157912325371235,1.0,3.0
19.805601119995117,-32.0738525390625,2.611701726913452,0.0751208685668224,0.996969364120851,-0.0202223171331089,0.2109565348103028,3.0,3.0
19.459360122680664,-32.0739631652832,2.6141598224639893,0.4326011094407954,-0.7621334770756263,-0.4816729629439548,0.181501173099085,3.0,3.0
18.95209503173828,-32.287757873535156,2.5983119010925293,-0.4507779815672198,-0.7822966034760699,-0.429896773102553,0.2078938213234853,3.0,3.0
18.684253692626953,-32.39848709106445,2.589909315109253,-0.0,-0.0,-1.0,0.1382750046168135,1.0,3.0
18.18667984008789,-32.294795989990234,2.598876476287842,-0.0,-0.0,-1.0,0.1977417568534724,2.0,3.0
20.17329788208008,-32.307716369628906,2.5863966941833496,-0.0,-0.0,-1.0,0.1449339689869901,1.0,3.0
19.895496368408203,-32.38750076293945,2.5823707580566406,-0.0,-0.0,-1.0,0.1684367061643523,1.0,3.0
19.393516540527344,-32.35905838012695,2.5896992683410645,-0.0,-0.0,-1.0,0.1607567077861758,2.0,3.0
18.69191551208496,-32.479461669921875,2.5830860137939453,-0.0,-0.0,-1.0,0.1391646730101005,1.0,3.0
19.947046279907227,-32.66378402709961,2.5560495853424072,-0.0,-0.0,-1.0,0.2166575484456358,1.0,3.0
19.666608810424805,-32.60042953491211,2.5654470920562744,-0.0,-0.0,-1.0,0.2567900678293797,1.0,3.0
20.129053115844727,-33.1488151550293,2.5064263343811035,-0.0,-0.0,-1.0,0.117069634811477,1.0,3.0
19.368776321411133,-33.58479690551758,2.4772512912750244,-0.0,-0.0,-1.0,0.122621489500858,1.0,3.0
19.707489013671875,-31.980588912963867,3.050966262817383,-0.0,-0.0,-1.0,0.116879436328643,1.0,3.0
19.543697357177734,-32.02128601074219,2.9123005867004395,0.3599702733977395,0.9295200198428346,0.0800870462767427,0.0965308737454344,3.0,3.0
19.813899993896484,-32.38987350463867,3.027529239654541,-0.0,-0.0,-1.0,0.1419964254119066,2.0,3.0
19.46864891052246,-32.306480407714844,2.8967881202697754,-0.0,-0.0,-1.0,0.1604641524902495,1.0,3.0
19.256450653076172,-32.5953369140625,2.8853466510772705,-0.0,-0.0,-1.0,0.1897480548864749,1.0,3.0
19.86627769470215,-32.5670280456543,2.8666975498199463,-0.0130961852478838,0.2290352211451965,-0.9733300351920326,0.1821592945873333,4.0,3.0
20.11245346069336,-32.01177978515625,1.469539999961853,-0.0,-0.0,-1.0,0.1974493348066146,1.0,2.0
17.979625701904297,-32.093753814697266,1.5158288478851318,-0.0,-0.0,-1.0,0.082097489911583,1.0,2.0
19.918272018432617,-32.555442810058594,1.6452556848526,-0.0,-0.0,-1.0,0.1484414543989315,2.0,2.0
19.97758674621582,-33.456321716308594,1.4987889528274536,-0.0,-0.0,-1.0,0.1016084462397561,1.0,2.0
19.56310272216797,-33.531524658203125,1.4526772499084473,-0.0,-0.0,-1.0,0.0774616353777916,1.0,2.0
19.413511276245117,-33.44557571411133,1.4545009136199951,-0.0,-0.0,-1.0,0.0588407678574497,1.0,2.0
20.134136199951172,-33.562034606933594,1.4923889636993408,-0.0,-0.0,-1.0,0.1220678867070775,1.0,2.0
19.70610618591309,-33.6268424987793,1.4481536149978638,-0.0,-0.0,-1.0,0.08654825101325,1.0,2.0
19.202075958251953,-31.882125854492188,1.977636218070984,-0.0,-0.0,-1.0,0.0738919207744172,1.0,2.0
18.94735336303711,-31.9815673828125,1.945018291473389,-0.0,-0.0,-1.0,0.1695902644740446,2.0,2.0
17.92348861694336,-31.919828414916992,1.8649027347564695,-0.0,-0.0,-1.0,0.1984194230616721,1.0,2.0
19.95369529724121,-32.14674758911133,1.85684072971344,0.2878449936008765,-0.9572736693046482,0.0277917562404116,0.1442598611029283,4.0,2.0
19.63263511657715,-32.16511917114258,1.6813056468963623,-0.0797375310977107,0.4060645268750685,-0.9103590094837136,0.1694657876164814,3.0,2.0
18.68865966796875,-32.09486770629883,1.910211443901062,-0.0,-0.0,-1.0,0.1678556941580755,2.0,2.0
18.42230987548828,-32.113861083984375,1.885769844055176,0.2962396448474896,-0.834257012601174,-0.4650347403650589,0.2377329974500084,3.0,2.0
17.96927261352539,-32.13228988647461,1.8448371887207031,0.3190964014378453,-0.6747601478006442,-0.6654894661296078,0.1241446909142517,3.0,2.0
20.04198455810547,-32.48215103149414,1.814082145690918,-0.0,-0.0,-1.0,0.1941345911390914,2.0,2.0
20.0147762298584,-32.88283157348633,1.9036680459976196,-0.0,-0.0,-1.0,0.1579766743062869,2.0,2.0
20.01176643371582,-33.479278564453125,1.819402098655701,-0.0,-0.0,-1.0,0.1556716597381724,1.0,2.0
20.118793487548828,-33.7314453125,1.7888784408569336,-0.0,-0.0,-1.0,0.2387563718108255,1.0,2.0
19.646373748779297,-33.826412200927734,1.7490179538726809,-0.0,-0.0,-1.0,0.1184411777627978,1.0,2.0
19.46246910095215,-31.95389175415039,2.278125524520874,-0.0703265675439565,0.1209270766461643,-0.9901670647074148,0.2285345482692489,3.0,3.0
19.371856689453125,-31.943883895874023,2.2744152545928955,-0.2756127779828009,-0.693804345016813,-0.6653368526155713,0.1617060740329531,5.0,3.0
18.475208282470703,-31.924394607543945,2.226396083831787,-0.0,-0.0,-1.0,0.172274304319907,1.0,3.0
20.031389236450195,-32.14398956298828,2.2860865592956543,-0.1296816003255753,0.1139396093831123,-0.9849875369519258,0.2217032200093108,4.0,3.0
18.71602249145508,-32.28398895263672,2.2054896354675293,-0.0,-0.0,-1.0,0.1846951155566482,2.0,3.0
18.389196395874023,-32.27310562133789,2.3510353565216064,-0.0,-0.0,-1.0,0.0958958007187043,2.0,3.0
18.05455207824707,-32.23123550415039,2.3380813598632812,-0.0,-0.0,-1.0,0.1720368620226074,1.0,3.0
20.006786346435547,-32.615604400634766,2.234147548675537,-0.0,-0.0,-1.0,0.1198136000858813,1.0,3.0
18.646991729736328,-32.487300872802734,2.18187952041626,-0.0,-0.0,-1.0,0.2223191574403858,2.0,3.0
20.142118453979492,-32.85647964477539,2.2130537033081055,-0.0,-0.0,-1.0,0.133091678859233,2.0,3.0
19.54050636291504,-33.508663177490234,2.4433019161224365,-0.0,-0.0,-1.0,0.1090705192425389,1.0,3.0
20.10271453857422,-33.75257110595703,2.109797477722168,-0.0,-0.0,-1.0,0.1130626205850746,1.0,3.0
19.936817169189453,-31.86953353881836,2.5838537216186523,-0.0,-0.0,-1.0,0.0990513029430018,1.0,3.0
19.448402404785156,-31.863656997680664,2.8550195693969727,-0.2335143961230412,-0.4635611370577247,-0.8547409543323876,0.0891892137565794,3.0,3.0
19.337718963623047,-31.949050903320312,2.561992883682251,-0.0,-0.0,-1.0,0.20952050047183,1.0,3.0
18.09204864501953,-31.92853546142578,2.525091648101806,-0.0,-0.0,-1.0,0.219093317020647,1.0,3.0
19.911163330078125,-32.233253479003906,2.698336601257324,-0.0,-0.0,-1.0,0.1478004733834612,1.0,3.0
19.655838012695312,-32.179378509521484,2.6965954303741455,0.1924685481940721,-0.7979245797889436,-0.5712024360283348,0.1887512449121619,3.0,3.0
19.264387130737305,-32.24570846557617,2.6879258155822754,-0.0,-0.0,-1.0,0.2067295374762738,2.0,3.0
18.770252227783203,-32.33880615234375,2.5169320106506348,-0.0,-0.0,-1.0,0.1509058522144438,1.0,3.0
19.985292434692383,-32.459625244140625,2.5381174087524414,-0.0,-0.0,-1.0,0.2534831173362089,1.0,3.0
19.80014991760254,-32.49747848510742,2.8226277828216553,0.1213456491173247,0.3823337082994231,-0.91602192601395,0.1442425810524288,3.0,3.0
19.335922241210938,-32.51016616821289,2.8217217922210693,0.9331542083154892,0.3233207259465848,0.1571207550785887,0.1717713956123479,3.0,3.0
18.67695426940918,-32.51189041137695,2.5014195442199707,-0.0,-0.0,-1.0,0.1773162555418401,1.0,3.0
18.584142684936523,-32.473358154296875,2.501628875732422,-0.0,-0.0,-1.0,0.2443501087632485,1.0,3.0
20.03337287902832,-32.99778366088867,2.4947214126586914,-0.0,-0.0,-1.0,0.130266793176546,1.0,3.0
19.793167114257812,-31.904150009155273,3.1291942596435547,-0.0,-0.0,-1.0,0.1082284455082507,2.0,3.0
19.925880432128903,-32.1912727355957,3.118637800216675,-0.0,-0.0,-1.0,0.1351230793645134,1.0,3.0
19.841691970825195,-32.26594924926758,1.6939020156860352,-0.0,-0.0,-1.0,0.1536822517111147,1.0,2.0
19.616046905517575,-32.166446685791016,1.6821664571762085,-0.0,-0.0,-1.0,0.1694657876164814,2.0,2.0
19.8590145111084,-32.545684814453125,1.6549561023712158,-0.0,-0.0,-1.0,0.1269593033044466,2.0,2.0
20.117109298706055,-33.4823112487793,1.5400407314300537,-0.0,-0.0,-1.0,0.1236177817562769,1.0,2.0
19.614782333374023,-33.620731353759766,1.4673449993133545,-0.0,-0.0,-1.0,0.0982992251108325,2.0,2.0
19.444664001464844,-33.52210235595703,1.464320421218872,-0.0,-0.0,-1.0,0.0623871634970194,1.0,2.0
19.667455673217773,-33.680965423583984,1.4637632369995115,-0.0,-0.0,-1.0,0.0821661253849406,1.0,2.0
19.822919845581055,-31.887372970581055,2.020883798599243,-0.0,-0.0,-1.0,0.1483789831520262,2.0,3.0
20.13561630249023,-32.360836029052734,1.9939371347427368,-0.0,-0.0,-1.0,0.138616099468482,1.0,2.0
19.92623519897461,-32.211612701416016,1.992846965789795,-0.0,-0.0,-1.0,0.2378106791472546,1.0,2.0
18.367469787597656,-32.13591766357422,1.8482296466827393,-0.0,-0.0,-1.0,0.1961058193864992,2.0,2.0
17.86539077758789,-32.06755065917969,1.8019587993621824,-0.0,-0.0,-1.0,0.2103069045391781,1.0,2.0
20.110795974731445,-32.632877349853516,1.9590022563934328,-0.0,-0.0,-1.0,0.0924171538752061,1.0,2.0
19.90635871887207,-32.77002716064453,1.9246894121170044,-0.0,-0.0,-1.0,0.2446484793492359,1.0,2.0
17.727033615112305,-32.417381286621094,1.9201292991638184,-0.0,-0.0,-1.0,0.1150231583313268,1.0,2.0
20.01371955871582,-32.921329498291016,1.915619730949402,-0.9400128109300844,-0.0773475614363243,-0.3322548269433793,0.1515193885673268,3.0,2.0
20.03534698486328,-33.72748565673828,1.8176109790802,-0.3877809398500222,-0.8807255320439158,0.2719346978504112,0.2578967341002638,3.0,2.0
19.922300338745117,-31.994281768798828,2.426663398742676,-0.5357126894638209,-0.5259608526253731,-0.6605884466542168,0.2616980720095422,3.0,3.0
19.567079544067383,-31.927900314331055,2.4085569381713867,-0.5194365518027295,-0.4712475202791215,-0.7128193623086212,0.2143929713628983,3.0,3.0
20.13438415527344,-32.449913024902344,2.4044747352600098,-0.0,-0.0,-1.0,0.1827672542484971,1.0,3.0
19.9842529296875,-32.277156829833984,2.4089548587799072,-0.0,-0.0,-1.0,0.183215552280816,1.0,3.0
19.480424880981445,-32.11334228515625,2.532050609588623,-0.0,-0.0,-1.0,0.1933594970433218,1.0,3.0
18.980743408203125,-32.231689453125,2.3491742610931396,-0.0,-0.0,-1.0,0.1660383611619935,2.0,3.0
18.62432098388672,-32.14088821411133,2.334138870239258,-0.0,-0.0,-1.0,0.280098797200342,2.0,3.0
18.369274139404297,-32.079437255859375,2.3220465183258057,-0.0,-0.0,-1.0,0.1992744509253024,2.0,3.0
20.1146297454834,-32.83380126953125,2.227174758911133,-0.0114540131382476,0.5184974978488033,-0.8550024270769991,0.1623914917778885,3.0,3.0
19.927318572998047,-32.66276550292969,2.375771760940552,-0.0,-0.0,-1.0,0.1681343827469481,1.0,3.0
18.885414123535156,-32.369354248046875,2.1825203895568848,-0.0,-0.0,-1.0,0.2186736680202133,1.0,3.0
18.550113677978516,-32.38908767700195,2.3127169609069824,-0.0,-0.0,-1.0,0.1716075014482903,1.0,3.0
18.226591110229492,-32.243587493896484,2.3019485473632812,-0.0,-0.0,-1.0,0.178206317018259,1.0,3.0
17.92759132385254,-32.23393249511719,2.444434642791748,-0.0,-0.0,-1.0,0.1770884032660904,1.0,3.0
20.201908111572266,-33.04835891723633,2.3617682456970215,-0.0,-0.0,-1.0,0.0823223874394402,1.0,3.0
19.49217414855957,-33.49635696411133,2.4469621181488037,-0.0,-0.0,-1.0,0.0990748107952652,1.0,3.0
20.05297088623047,-31.97002410888672,2.5687050819396973,0.5459445573742103,0.1760803339626451,-0.819109428748736,0.1933329503176267,4.0,3.0
19.40353012084961,-31.951635360717773,2.817606210708618,-0.0,-0.0,-1.0,0.1168752250355504,2.0,3.0
19.70559883117676,-32.35655975341797,2.811839818954468,0.8908912403054434,-0.4314109739927922,0.1421174495465584,0.1469425910703622,4.0,3.0
19.54627799987793,-32.23675537109375,2.8117525577545166,-0.0,-0.0,-1.0,0.2271480809068355,2.0,3.0
19.778541564941406,-32.525901794433594,2.8079018592834473,-0.0,-0.0,-1.0,0.1302021251517412,2.0,3.0
19.3778133392334,-32.547481536865234,2.796731948852539,-0.0,-0.0,-1.0,0.1603622967734471,1.0,3.0
18.56524658203125,-32.56341552734375,2.774552345275879,-0.0,-0.0,-1.0,0.1969174734736132,1.0,3.0
19.69056701660156,-31.941734313964844,3.097529172897339,-0.0,-0.0,-1.0,0.1083439256142617,2.0,3.0
19.80607032775879,-32.32391357421875,3.095228672027588,-0.0,-0.0,-1.0,0.1652036134169913,2.0,3.0
17.799884796142578,-32.02395248413086,1.5857701301574707,-0.0,-0.0,-1.0,0.1347617585170508,2.0,2.0
17.756080627441406,-32.109962463378906,1.8888791799545288,-0.3111347911606621,-0.9262678521674368,-0.212657019095385,0.1918762998339134,3.0,2.0
20.104156494140625,-32.195404052734375,2.4742159843444824,-0.0,-0.0,-1.0,0.2500586932166522,1.0,3.0
19.986515045166016,-31.999732971191406,2.48298978805542,-0.0,-0.0,-1.0,0.2458780419867418,2.0,3.0
20.08965301513672,-32.67420196533203,2.584184169769287,-0.0,-0.0,-1.0,0.1718054598776525,1.0,3.0
20.01004219055176,-32.40762710571289,2.5949032306671143,-0.0,-0.0,-1.0,0.2959372546230114,2.0,3.0
19.633533477783203,-32.24551773071289,2.4448916912078857,-0.0,-0.0,-1.0,0.2352365602129672,1.0,3.0
19.39702033996582,-32.27621078491211,2.432269334793091,-0.0,-0.0,-1.0,0.257661181179827,1.0,3.0
19.902721405029297,-32.50667190551758,2.8681232929229736,-0.0,-0.0,-1.0,0.1474361794085821,2.0,3.0
19.70765686035156,-32.16507339477539,2.869636058807373,-0.0,-0.0,-1.0,0.1787783206212287,1.0,3.0
19.455934524536133,-31.974288940429688,2.866099119186402,-0.0,-0.0,-1.0,0.1123628711157412,1.0,3.0
19.327173233032227,-32.49933624267578,2.8513972759246826,0.9331542083154892,0.3233207259465848,0.1571207550785887,0.1840894035573874,3.0,3.0
19.98769760131836,-32.43900680541992,3.1511385440826416,-0.0,-0.0,-1.0,0.0962500150219776,1.0,3.0
20.13294219970703,-33.35588836669922,1.505582332611084,-0.0,-0.0,-1.0,0.0983609510790747,1.0,2.0
19.955738067626953,-32.4882698059082,1.9256454706192017,-0.0,-0.0,-1.0,0.1358528752539576,1.0,2.0
20.152667999267575,-33.597476959228516,1.8134262561798096,-0.0,-0.0,-1.0,0.2260899420926926,2.0,2.0
20.03984642028809,-33.73893737792969,1.7869380712509155,-0.0,-0.0,-1.0,0.2457445577017662,2.0,2.0
18.848731994628903,-32.29716491699219,2.14620590209961,-0.0,-0.0,-1.0,0.1291550201744911,2.0,3.0
18.475004196166992,-32.4626579284668,2.420531749725342,-0.0,-0.0,-1.0,0.1529360994718759,1.0,3.0
20.1406307220459,-33.02013397216797,2.518255710601806,-0.0,-0.0,-1.0,0.1309016944844166,1.0,3.0
19.088956832885746,-32.08302307128906,2.486982822418213,-0.0,-0.0,-1.0,0.1753564359294694,1.0,3.0
18.94697952270508,-32.12060546875,2.473985195159912,-0.0,-0.0,-1.0,0.2132918768091541,1.0,3.0
18.63399124145508,-32.369266510009766,2.437645196914673,-0.0,-0.0,-1.0,0.2567465586135768,1.0,3.0
18.35887336730957,-33.43315887451172,2.721433162689209,-0.0,-0.0,-1.0,0.1377612464002723,1.0,3.0
17.927814483642578,-33.64527130126953,2.6908984184265137,-0.0,-0.0,-1.0,0.134827317763676,1.0,3.0
20.056594848632812,-32.11488723754883,1.4997124671936035,-0.0,-0.0,-1.0,0.1309489614906326,1.0,2.0
19.98544692993164,-31.893898010253903,1.5288853645324707,-0.0,-0.0,-1.0,0.188371899752485,1.0,2.0
19.77157974243164,-31.95203399658203,1.8135812282562256,-0.0,-0.0,-1.0,0.2312334693690342,1.0,2.0
19.541223526000977,-32.04527282714844,1.7793456315994265,-0.0,-0.0,-1.0,0.1378238124352974,1.0,2.0
19.864397048950195,-31.871479034423828,2.1424169540405273,-0.0,-0.0,-1.0,0.1641971170592732,2.0,3.0
19.529457092285156,-32.35639953613281,2.3949265480041504,-0.0,-0.0,-1.0,0.2161793059479879,1.0,3.0
19.228178024291992,-32.25767517089844,2.050752878189087,-0.0,-0.0,-1.0,0.2576673347012748,2.0,3.0
19.80052947998047,-31.929943084716797,2.441267967224121,-0.0,-0.0,-1.0,0.2037258883176569,1.0,3.0
19.600370407104492,-32.3358154296875,2.7251527309417725,-0.0,-0.0,-1.0,0.2414220232820595,1.0,3.0
19.494983673095703,-32.07255935668945,2.5676326751708984,0.7585642406411807,0.6370486359309943,-0.136928186575768,0.2131386133566147,3.0,3.0
19.107664108276367,-32.21277618408203,2.6966233253479004,-0.0,-0.0,-1.0,0.1561446722408488,2.0,3.0
18.67099380493164,-32.52985382080078,2.658921003341675,-0.0,-0.0,-1.0,0.205949653274722,1.0,3.0
18.707904815673828,-33.304908752441406,2.6404755115509033,-0.0,-0.0,-1.0,0.0868755765177645,1.0,3.0
18.362001419067383,-33.48259353637695,2.612614154815674,-0.0,-0.0,-1.0,0.1425829046988729,1.0,3.0
19.657848358154297,-31.93343734741211,3.0487570762634277,-0.0,-0.0,-1.0,0.0404957343177598,1.0,3.0
19.20578384399414,-32.48332595825195,3.0276339054107666,-0.0,-0.0,-1.0,0.1161611050998972,1.0,3.0
19.111387252807617,-32.420021057128906,3.0222458839416504,-0.0,-0.0,-1.0,0.1227522147464239,1.0,3.0
19.760404586791992,-32.02316665649414,1.6292083263397217,-0.0,-0.0,-1.0,0.1309880315520338,2.0,2.0
19.390399932861328,-31.935623168945312,1.6983647346496582,-0.0,-0.0,-1.0,0.1419494188345653,1.0,2.0
19.20502662658691,-32.36406707763672,2.7366979122161865,-0.0,-0.0,-1.0,0.123480789941872,2.0,3.0
19.558462142944336,-32.10540008544922,2.7108542919158936,-0.3178306467793566,-0.1489928346204227,-0.9363678845408931,0.1558550849161684,4.0,3.0
20.135887145996097,-32.00883483886719,2.6717851161956787,-0.0,-0.0,-1.0,0.2174224416049816,2.0,3.0
18.474912643432617,-32.15541076660156,1.6900441646575928,-0.0,-0.0,-1.0,0.1491318965142035,2.0,2.0
18.8752384185791,-32.315677642822266,1.658292531967163,-0.0,-0.0,-1.0,0.1838597901876048,2.0,2.0
18.903823852539062,-32.32872772216797,2.0338549613952637,-0.0,-0.0,-1.0,0.2404018132807893,1.0,3.0
19.168798446655273,-32.157440185546875,2.0155439376831055,-0.0,-0.0,-1.0,0.1796701246728786,2.0,3.0
19.700599670410156,-31.919981002807617,1.9783904552459717,-0.0,-0.0,-1.0,0.1709174701681227,1.0,2.0
20.098745346069336,-32.244956970214844,1.948970317840576,-0.7620644242530007,0.2605618956718905,-0.5927607542776542,0.1262669957210895,3.0,2.0
19.84408950805664,-31.89447593688965,1.807416558265686,-0.0,-0.0,-1.0,0.1225545805931834,1.0,2.0
19.092199325561523,-32.237388610839844,2.6697187423706055,0.7746192835331929,-0.6204773764088237,0.1223633562115136,0.1799319237300167,3.0,3.0
19.41228675842285,-31.98288345336914,2.6531362533569336,0.7874042155633103,0.5177916724103334,-0.3344942231125046,0.2121286889053653,5.0,3.0
19.68306541442871,-31.988243103027344,2.6403632164001465,-0.0,-0.0,-1.0,0.1938834181967168,2.0,3.0
20.033111572265625,-32.00780487060547,2.6238889694213867,-0.0,-0.0,-1.0,0.1934045498643223,2.0,3.0
18.4892578125,-32.08836364746094,1.5306377410888672,-0.0,-0.0,-1.0,0.1553150431542935,1.0,2.0
19.993005752563477,-32.16956329345703,3.0776047706604004,-0.0,-0.0,-1.0,0.101855029371722,1.0,3.0
18.40622329711914,-32.00896453857422,1.6707539558410645,-0.0,-0.0,-1.0,0.09866266914498,1.0,2.0
18.5748348236084,-32.14055252075195,1.6629136800765991,-0.0,-0.0,-1.0,0.1666908640147247,2.0,2.0
18.899600982666016,-32.314842224121094,1.649478554725647,-0.0,-0.0,-1.0,0.1854438622803343,2.0,2.0
19.16314125061035,-32.20916748046875,2.6903531551361084,-0.0,-0.0,-1.0,0.1460077292716396,1.0,3.0
19.45071792602539,-32.036903381347656,2.703320264816284,-0.0,-0.0,-1.0,0.1397871776987211,2.0,3.0
19.89574432373047,-31.996490478515625,2.721254825592041,-0.0,-0.0,-1.0,0.1471603901735759,1.0,3.0
17.765869140625,-32.9876823425293,1.8152940273284912,-0.0,-0.0,-1.0,0.152750405665217,1.0,2.0
18.87314796447754,-31.897212982177734,1.8771858215332031,0.9373967264310392,0.3413169154959902,-0.0692108407164252,0.1141263665770969,3.0,2.0
18.60993766784668,-32.24455261230469,1.8598871231079104,-0.0,-0.0,-1.0,0.2179191427772429,1.0,2.0
19.534284591674805,-31.890369415283203,1.8920915126800537,-0.8508352728300878,0.2169243472037008,0.4785636489521509,0.1282694579861764,4.0,2.0
19.926984786987305,-32.15345764160156,1.8919856548309328,-0.7513858623150941,-0.2361697682917135,-0.6161518696377059,0.2181821004259529,3.0,2.0
18.31854248046875,-32.175689697265625,1.56967294216156,-0.0,-0.0,-1.0,0.1160103462736264,1.0,2.0
18.450542449951172,-32.050697326660156,1.5793473720550537,-0.0,-0.0,-1.0,0.1071928923537578,1.0,2.0
20.022945404052734,-31.92180061340332,1.6301943063735962,-0.0,-0.0,-1.0,0.221738556700491,2.0,2.0
18.23224639892578,-32.200992584228516,2.216571807861328,-0.0,-0.0,-1.0,0.1713144988884372,1.0,3.0
19.283641815185547,-32.19397735595703,2.182554006576538,-0.0,-0.0,-1.0,0.1807219778180913,1.0,3.0
18.955543518066406,-32.369667053222656,2.18868637084961,-0.0,-0.0,-1.0,0.2204500668374789,1.0,3.0
18.669715881347656,-32.41775131225586,2.1966912746429443,-0.0,-0.0,-1.0,0.2767136126156398,1.0,3.0
20.08527183532715,-32.23366928100586,2.153193712234497,-0.0,-0.0,-1.0,0.1562442654733196,1.0,3.0
19.35845184326172,-32.45073699951172,3.026322364807129,-0.0,-0.0,-1.0,0.2316476471331663,1.0,3.0
19.141063690185547,-32.29277038574219,2.0609874725341797,-0.0,-0.0,-1.0,0.1758381222472327,1.0,3.0
18.979223251342773,-32.513614654541016,2.0725533962249756,-0.0,-0.0,-1.0,0.1917668453724131,2.0,3.0
18.687950134277344,-32.49416732788086,2.0979254245758057,-0.0,-0.0,-1.0,0.2489905671456271,1.0,3.0
19.58378028869629,-32.035377502441406,2.608555316925049,0.3078275580578844,0.2653287956326872,-0.913697337584075,0.2105666047083048,3.0,3.0
19.182796478271484,-31.966388702392575,1.4192585945129397,-0.0,-0.0,-1.0,0.1294743256808133,1.0,2.0
18.95266914367676,-31.862579345703125,1.455502986907959,-0.0,-0.0,-1.0,0.1222910471652348,1.0,2.0
19.439041137695312,-32.489070892333984,2.326280117034912,-0.0,-0.0,-1.0,0.114164044656575,1.0,3.0
19.512054443359375,-32.01316452026367,2.3565940856933594,0.1768838567118387,-0.9422685719376042,0.284327345806579,0.2552620067439415,3.0,3.0
17.95891761779785,-33.01651382446289,2.446597099304199,-0.0,-0.0,-1.0,0.1400096966047508,1.0,3.0
19.009416580200195,-32.488197326660156,2.443660259246826,-0.0,-0.0,-1.0,0.1278487015606739,1.0,3.0
19.21734046936035,-32.121639251708984,2.465649127960205,-0.0,-0.0,-1.0,0.2176641897088035,2.0,3.0
19.67947578430176,-31.928630828857425,2.4611849784851074,0.2520208396872364,-0.9120476043352748,-0.3235037307197971,0.1483290650771146,4.0,3.0
19.187753677368164,-32.623741149902344,2.297114849090576,-0.0,-0.0,-1.0,0.2485856825638565,1.0,3.0
19.38623046875,-32.20374298095703,2.3381195068359375,-0.0,-0.0,-1.0,0.2539389277360918,1.0,3.0
19.531517028808594,-31.888378143310547,2.3689775466918945,0.268520912282228,-0.8947658435669016,0.3567780890877847,0.1381727893366044,3.0,3.0
19.122833251953125,-32.257511138916016,2.0300064086914062,-0.0,-0.0,-1.0,0.1794412361047556,1.0,3.0
19.45577049255371,-32.22034454345703,2.038285255432129,-0.0,-0.0,-1.0,0.1750165803010461,2.0,3.0
20.1899356842041,-31.89883804321289,2.085468292236328,-0.0,-0.0,-1.0,0.1583394503243419,1.0,3.0
18.955135345458984,-32.35969543457031,1.667567253112793,-0.0,-0.0,-1.0,0.1957102261047714,1.0,2.0
18.02916145324707,-32.01158142089844,1.6940670013427734,-0.0,-0.0,-1.0,0.1324947385072163,1.0,2.0
18.680688858032227,-32.02114486694336,1.7065348625183103,-0.0,-0.0,-1.0,0.1491762860222599,1.0,2.0
17.830020904541016,-31.892200469970703,1.7055535316467283,-0.0,-0.0,-1.0,0.1517303714708588,1.0,2.0
18.53557586669922,-33.54832458496094,1.7800426483154297,-0.0,-0.0,-1.0,0.0616458069527832,1.0,2.0
19.067747116088867,-33.18663787841797,1.8453106880187988,-0.0,-0.0,-1.0,0.0603847494728427,1.0,2.0
18.962108612060547,-32.318260192871094,1.9570302963256836,-0.0,-0.0,-1.0,0.1896933547710916,2.0,2.0
18.49972915649414,-32.07862091064453,1.974036693572998,-0.2211319399477844,-0.9565779188980098,-0.1898929967420662,0.1688044676511854,3.0,2.0
19.03427505493164,-32.03471755981445,1.9968442916870115,-0.0,-0.0,-1.0,0.1138351351791427,1.0,2.0
19.40053939819336,-32.17286682128906,1.9899158477783203,-0.0,-0.0,-1.0,0.2361462443981522,1.0,2.0
20.201669692993164,-32.13726043701172,2.018610954284668,0.8282989999399897,-0.1186096229758958,-0.5475879144355988,0.1351721774495622,3.0,3.0
18.218793869018555,-32.119178771972656,2.1348161697387695,-0.0,-0.0,-1.0,0.2022674330823798,2.0,3.0
19.110326766967773,-32.25653076171875,2.1578140258789062,-0.6794270462315614,0.7298784048378405,-0.0752090619568235,0.1826921899549227,3.0,3.0
19.524232864379883,-32.07304763793945,2.2006993293762207,-0.6703425840921187,0.190285497288261,-0.7172393251031765,0.2529411847413426,3.0,3.0
18.280715942382812,-32.15385818481445,2.05343246459961,-0.0,-0.0,-1.0,0.2683161499112704,2.0,3.0
18.824607849121097,-32.46661376953125,2.0354886054992676,-0.0,-0.0,-1.0,0.2109445035649726,2.0,3.0
18.9068603515625,-32.186466217041016,2.0788378715515137,-0.0,-0.0,-1.0,0.1416957731350506,1.0,3.0
19.217365264892575,-32.26033020019531,2.0829415321350098,-0.0,-0.0,-1.0,0.2576797834880495,2.0,3.0
19.895641326904297,-32.04692459106445,2.143578052520752,-0.0,-0.0,-1.0,0.1750700686931076,2.0,3.0
20.08780860900879,-32.164772033691406,2.135568618774414,-0.2575564191120796,0.8785927229490564,-0.4021685195973518,0.16193508548693,3.0,3.0
19.219745635986328,-32.496971130371094,2.781489372253418,-0.0,-0.0,-1.0,0.2259370677702929,1.0,3.0
19.56509017944336,-32.214942932128906,2.834414482116699,-0.0,-0.0,-1.0,0.1877659818725981,2.0,3.0
17.99945068359375,-32.49298095703125,2.507699489593506,-0.0,-0.0,-1.0,0.1752220192862042,1.0,3.0
18.15611457824707,-32.321372985839844,2.5354456901550293,0.9735981548086312,0.0700114374072274,-0.2172671893899373,0.1877158601215609,3.0,3.0
18.90874290466309,-32.24903869628906,2.5675110816955566,-0.0,-0.0,-1.0,0.2082760805428323,1.0,3.0
19.1076602935791,-32.203765869140625,2.5789389610290527,-0.0,-0.0,-1.0,0.1385396730066297,1.0,3.0
19.314807891845703,-32.16108703613281,2.590062141418457,-0.0,-0.0,-1.0,0.2045184812211518,1.0,3.0
19.398569107055664,-31.985265731811523,2.6151556968688965,0.8145700725955809,0.3382161562165886,-0.4712594068087193,0.1965489252717992,7.0,3.0
19.66955947875977,-32.16112518310547,2.599069118499756,-0.0,-0.0,-1.0,0.1849650434612237,2.0,3.0
18.275108337402344,-33.55533218383789,2.2514724731445312,-0.0,-0.0,-1.0,0.1244254800837678,1.0,3.0
18.823217391967773,-32.23490905761719,2.4369163513183594,-0.0,-0.0,-1.0,0.2684108963318993,2.0,3.0
19.054790496826172,-32.313201904296875,2.4287872314453125,-0.0,-0.0,-1.0,0.1961047449762177,1.0,3.0
19.355941772460938,-31.99242401123047,2.474090099334717,-0.0,-0.0,-1.0,0.183368769015934,2.0,3.0
19.617725372314453,-31.946216583251953,2.481959342956543,-0.0,-0.0,-1.0,0.2244119996342338,2.0,3.0
20.024559020996097,-32.07967758178711,2.4663782119750977,-0.0,-0.0,-1.0,0.2654360629522605,1.0,3.0
17.865432739257812,-32.19247055053711,2.022282123565674,-0.0,-0.0,-1.0,0.2310659565740306,1.0,3.0
18.357959747314453,-32.24752426147461,2.000324249267578,-0.0,-0.0,-1.0,0.2408194857831762,1.0,3.0
18.549396514892575,-33.387306213378906,1.842174053192139,-0.0,-0.0,-1.0,0.1139987715340981,1.0,2.0
18.919179916381836,-32.8369140625,1.9039969444274905,-0.0,-0.0,-1.0,0.2041101460695555,1.0,2.0
18.99981689453125,-31.95066261291504,2.018599033355713,-0.0,-0.0,-1.0,0.1583095687228975,2.0,3.0
19.115070343017575,-32.25855255126953,1.973879337310791,-0.0,-0.0,-1.0,0.178117763644733,1.0,2.0
19.45039749145508,-31.87325096130371,2.012417793273926,-0.0,-0.0,-1.0,0.113610845853116,2.0,3.0
19.287532806396484,-31.986547470092773,2.003593921661377,-0.0,-0.0,-1.0,0.1381240101473482,1.0,3.0
20.097980499267575,-32.28120803833008,1.934018611907959,0.6492633947595031,0.1720610057020159,-0.740845499778582,0.1294957427917237,4.0,2.0
17.938995361328125,-31.96291732788086,1.4099607467651367,-0.0,-0.0,-1.0,0.0811842183450052,1.0,2.0
18.976428985595703,-32.41277313232422,2.607977390289306,-0.0,-0.0,-1.0,0.2338828041811397,1.0,3.0
19.174270629882812,-33.4347038269043,2.485781192779541,-0.0,-0.0,-1.0,0.1845731116971634,1.0,3.0
19.15915298461914,-32.01945495605469,2.64276123046875,-0.0,-0.0,-1.0,0.1409056562647454,2.0,3.0
19.114028930664062,-32.24382400512695,2.620227813720703,-0.0,-0.0,-1.0,0.1777633339922256,2.0,3.0
19.408130645751953,-31.97629165649414,2.635371685028076,0.4056730012433456,0.7324083116270614,-0.5468157652462241,0.209617261515269,6.0,3.0
19.68619155883789,-31.98397445678711,2.620668411254883,-0.0,-0.0,-1.0,0.1939695017763142,2.0,3.0
18.798728942871097,-32.352500915527344,2.609436511993408,-0.0,-0.0,-1.0,0.1053684408610798,1.0,3.0
18.993133544921875,-32.31161880493164,2.598700523376465,-0.3500223681234088,-0.9039214807706676,-0.24578506548333,0.2044630076772312,4.0,3.0
19.47620391845703,-32.1598014831543,2.575924873352051,-0.0,-0.0,-1.0,0.1924657688765395,1.0,3.0
19.851505279541016,-32.07151412963867,2.5543289184570312,-0.325826262346776,0.8986955449344067,-0.2935703736417885,0.2305908654484216,3.0,3.0
18.92950439453125,-32.383548736572266,1.602581024169922,-0.0,-0.0,-1.0,0.1903167589850483,1.0,2.0
19.08604431152344,-32.483734130859375,1.7081341743469238,-0.0,-0.0,-1.0,0.1483933376584159,1.0,2.0
19.13659286499023,-33.41747283935547,1.6243085861206057,-0.0,-0.0,-1.0,0.0582376474214499,1.0,2.0
20.008644104003903,-32.087249755859375,1.5921096801757812,-0.0,-0.0,-1.0,0.0985213940249624,1.0,2.0
20.17110061645508,-32.12186050415039,1.5628938674926758,-0.0,-0.0,-1.0,0.1970961465471893,2.0,2.0
17.743833541870117,-32.55316925048828,1.9070138931274416,-0.0,-0.0,-1.0,0.0830615334344588,1.0,2.0
19.45095443725586,-32.06136703491211,2.5430426597595215,0.5300761769346087,0.6164400542398871,-0.582255018162243,0.1466896571279256,3.0,3.0
19.794471740722656,-31.94494247436523,2.4992198944091797,-0.0,-0.0,-1.0,0.2057065030159094,2.0,3.0
19.33657455444336,-33.183406829833984,2.5204553604125977,-0.0,-0.0,-1.0,0.1551240414966243,1.0,3.0
19.87393569946289,-31.921918869018555,2.5156779289245605,-0.0,-0.0,-1.0,0.1594176073079555,2.0,3.0
19.831729888916016,-32.22924041748047,2.721379280090332,-0.0,-0.0,-1.0,0.1903121750377263,1.0,3.0
20.19118881225586,-32.12220764160156,2.65921688079834,-0.0,-0.0,-1.0,0.1676750896530421,1.0,3.0
20.19321060180664,-32.333797454833984,2.659498691558838,-0.0,-0.0,-1.0,0.1589350121516282,1.0,3.0
19.632457733154297,-32.06168746948242,2.4928245544433594,-0.0,-0.0,-1.0,0.1818361614135463,2.0,3.0
19.529129028320312,-32.1451530456543,2.519622802734375,-0.0,-0.0,-1.0,0.1977325675912126,2.0,3.0
19.732990264892575,-32.58487319946289,2.4921369552612305,-0.0,-0.0,-1.0,0.2659237610293122,1.0,3.0
19.748634338378903,-31.99275016784668,2.4637651443481445,-0.0,-0.0,-1.0,0.1887325259341933,1.0,3.0
19.903240203857425,-31.97691345214844,2.4282917976379395,-0.5357126894638209,-0.5259608526253731,-0.6605884466542168,0.2691785078729993,3.0,3.0
18.057798385620117,-33.75354766845703,2.6165218353271484,-0.0,-0.0,-1.0,0.1358779263912264,1.0,3.0
18.5695858001709,-32.114681243896484,2.421473979949951,-0.0,-0.0,-1.0,0.1740914990014983,2.0,3.0
18.80657386779785,-32.195777893066406,2.3679161071777344,-0.0,-0.0,-1.0,0.168497561667648,1.0,3.0
19.283388137817383,-32.16564178466797,2.251589775085449,-0.0,-0.0,-1.0,0.1631793872383909,1.0,3.0
19.180723190307617,-32.34480667114258,2.284268379211426,-0.0,-0.0,-1.0,0.2984181236077645,2.0,3.0
19.675722122192383,-32.21847152709961,2.159256935119629,-0.0,-0.0,-1.0,0.1930534802226439,1.0,3.0
19.925758361816406,-32.007198333740234,2.089529514312744,0.7193447229747787,0.3952416578645837,-0.5712505592266796,0.2150625808967421,3.0,3.0
