x,y,z,nx,ny,nz,curvature,density
13.99880313873291,-15.072134017944336,0.7843167781829834,-0.0,-0.0,-1.0,0.1484782504547369,1.0
14.299650192260742,-15.341249465942385,0.8734899759292603,-0.0,-0.0,-1.0,0.1053532315906442,1.0
14.479819297790527,-16.033357620239258,0.9812173843383788,-0.0,-0.0,-1.0,0.2367335432544972,1.0
14.318219184875488,-14.690611839294434,0.7947244644165039,-0.0,-0.0,-1.0,0.1891780840938106,2.0
14.501764297485352,-14.894850730895996,0.8560986518859863,-0.0,-0.0,-1.0,0.1295870296768458,1.0
14.674688339233398,-15.26864528656006,0.9356856346130372,-0.3372998482048078,-0.5964972967254123,-0.7282992430315227,0.1982751985901822,3.0
14.710932731628418,-15.586435317993164,0.9796203374862672,-0.0,-0.0,-1.0,0.142229882475616,1.0
14.760258674621582,-14.621362686157228,0.866599440574646,-0.0,-0.0,-1.0,0.1184754180323878,1.0
14.838582992553713,-15.189191818237305,0.9570856094360352,-0.0,-0.0,-1.0,0.2024831753375818,1.0
12.909486770629885,-16.82437515258789,1.427257061004639,-0.0,-0.0,-1.0,0.2588631703106563,1.0
12.841869354248049,-16.164865493774414,1.3715298175811768,-0.0,-0.0,-1.0,0.2091723656897994,2.0
13.18598747253418,-16.105945587158203,1.409077525138855,-0.0,-0.0,-1.0,0.1319747441145002,1.0
13.496041297912598,-15.47536563873291,1.3918204307556152,-0.0,-0.0,-1.0,0.1651317691667183,1.0
13.623665809631348,-16.114805221557617,1.4634056091308594,-0.0,-0.0,-1.0,0.1411525782038211,1.0
13.84162712097168,-16.5456485748291,1.213917255401611,-0.0,-0.0,-1.0,0.2266794769293813,1.0
14.22485637664795,-15.000415802001951,1.126370549201965,-0.0,-0.0,-1.0,0.1996587406628393,2.0
14.410449028015137,-14.758951187133787,1.2777117490768433,-0.0,-0.0,-1.0,0.1590942550937918,1.0
14.71501350402832,-14.923853874206545,1.1918725967407229,-0.0,-0.0,-1.0,0.0608114768437444,1.0
12.877643585205078,-16.230255126953125,1.1703540086746216,-0.0,-0.0,-1.0,0.2104800557997504,2.0
12.997133255004885,-16.51456069946289,1.188852071762085,-0.0,-0.0,-1.0,0.1144064801867441,1.0
12.752817153930664,-14.829551696777344,1.1039056777954102,-0.0,-0.0,-1.0,0.1734542210352167,1.0
12.947223663330078,-15.68186378479004,1.1525115966796875,0.6395217508236719,-0.7675645601886042,0.0430880048957931,0.2067039898984595,3.0
13.511781692504885,-16.569686889648438,1.223355412483215,-0.0,-0.0,-1.0,0.272370135084738,2.0
12.753427505493164,-14.594456672668455,1.0934021472930908,-0.8457217824114842,-0.4110450613601661,-0.3402890305110637,0.1964934478228085,4.0
12.823986053466797,-14.72951602935791,1.10382342338562,-0.0,-0.0,-1.0,0.2590769511695773,1.0
13.270376205444336,-15.152549743652344,1.1500356197357178,-0.0,-0.0,-1.0,0.1917428597312702,1.0
13.407989501953123,-15.41008758544922,1.1696996688842771,-0.0,-0.0,-1.0,0.1702118385424686,1.0
13.442914962768556,-15.89929485321045,1.1923954486846924,-0.0,-0.0,-1.0,0.150859426575649,2.0
13.916536331176758,-16.25042152404785,1.2362060546875,0.428771631363849,0.5533159602659005,-0.7141402777134251,0.1635236593132203,4.0
13.901588439941406,-16.534582138061523,1.2463878393173218,-0.0,-0.0,-1.0,0.2212200007834351,2.0
14.012765884399414,-16.19701385498047,1.2400791645050049,-0.0,-0.0,-1.0,0.1100971061487142,1.0
14.047138214111328,-14.827143669128418,1.1832690238952637,-0.0,-0.0,-1.0,0.2016141328121157,2.0
14.404500961303713,-14.559232711791992,1.192652702331543,-0.5881115955293578,-0.6049669561467326,-0.5367864875110682,0.2206472056470203,4.0
12.956180572509766,-14.865687370300291,0.9728505611419678,-0.0,-0.0,-1.0,0.1561159918833257,1.0
13.392745971679688,-15.34868335723877,1.0192058086395264,-0.0,-0.0,-1.0,0.129400157064409,1.0
13.394317626953123,-15.503074645996094,1.024219036102295,0.8592946160382589,0.1093066173054128,-0.4996647138441031,0.2429075926943886,3.0
13.495855331420898,-16.79135513305664,1.070197343826294,-0.0,-0.0,-1.0,0.1776521145737179,2.0
13.542566299438477,-15.153226852416992,1.0234835147857666,-0.0,-0.0,-1.0,0.1707024606003384,2.0
13.977788925170898,-16.448814392089844,1.094538331031799,-0.0,-0.0,-1.0,0.2141191356720822,1.0
14.241376876831056,-14.826704025268556,1.0617790222167969,-0.0,-0.0,-1.0,0.2669534590130961,2.0
14.166921615600586,-14.953338623046877,1.0607985258102417,-0.0,-0.0,-1.0,0.2204887179249773,1.0
14.221757888793944,-16.7225399017334,1.1199604272842407,-0.0,-0.0,-1.0,0.2399586273028952,1.0
14.469633102416992,-14.70411205291748,1.0735924243927002,-0.0,-0.0,-1.0,0.2315790572776963,2.0
14.4237060546875,-14.959230422973633,1.0790040493011477,-0.0,-0.0,-1.0,0.2115757464239553,1.0
14.670780181884766,-14.503063201904297,1.0807288885116575,-0.0,-0.0,-1.0,0.1913616498096524,1.0
12.868850708007812,-14.740659713745115,0.980720281600952,-0.0,-0.0,-1.0,0.1765743104823978,1.0
13.274703979492188,-15.26758098602295,1.0276004076004028,-0.0,-0.0,-1.0,0.1625976438774638,1.0
13.45356559753418,-15.162367820739746,1.0359708070755005,-0.0,-0.0,-1.0,0.2050809363064232,2.0
13.450294494628906,-15.398387908935549,1.044290542602539,-0.0,-0.0,-1.0,0.2030708601571982,1.0
13.521905899047852,-16.766056060791016,1.0962281227111816,-0.0,-0.0,-1.0,0.1894925048766079,2.0
14.027837753295898,-16.39719009399414,1.1187756061553955,-0.0,-0.0,-1.0,0.1938956261792104,1.0
13.97789192199707,-16.64744758605957,1.1237525939941406,-0.0,-0.0,-1.0,0.2034039892310013,1.0
14.361494064331056,-14.752067565917969,1.0822947025299072,-0.0,-0.0,-1.0,0.2126566483496174,1.0
14.24086570739746,-16.37664222717285,1.1327235698699951,-0.0,-0.0,-1.0,0.2410147674713453,1.0
14.303232192993164,-16.687881469726562,1.147542119026184,-0.0,-0.0,-1.0,0.1866814335145015,1.0
14.566568374633787,-14.590177536010742,1.089969515800476,-0.0,-0.0,-1.0,0.268440405723043,2.0
13.304162979125977,-14.684039115905762,0.8824772834777832,0.8275103944495944,0.3991225255196439,-0.3948768880305586,0.1457516863251503,3.0
13.113611221313477,-16.37208366394043,0.93806791305542,-0.0,-0.0,-1.0,0.188372073296303,1.0
13.723247528076172,-16.153039932250977,0.973442554473877,-0.0,-0.0,-1.0,0.1758769677121995,1.0
14.46051788330078,-14.65976905822754,0.9635472297668456,0.1867529125160665,0.031210538546637,-0.9819110203834126,0.1550157852468425,3.0
14.213384628295898,-14.841869354248049,0.9539422988891602,-0.0,-0.0,-1.0,0.1942408556409731,2.0
13.962385177612305,-16.816511154174805,1.0167961120605469,-0.0,-0.0,-1.0,0.1378189283667563,1.0
14.6475830078125,-14.384607315063477,0.964596390724182,0.0678484968444798,-0.9796913962622152,-0.1886831989492865,0.1839111369555408,3.0
14.589996337890623,-14.645936965942385,0.9720923900604248,-0.0,-0.0,-1.0,0.1984573258809757,1.0
14.162662506103516,-16.571949005126953,1.0217442512512207,-0.0,-0.0,-1.0,0.1904712149944952,1.0
14.767507553100586,-16.519502639770508,1.0633893013000488,-0.0,-0.0,-1.0,0.1982023277598378,1.0
12.881477355957031,-15.686927795410156,1.244126319885254,0.2585381880772537,-0.183843637087747,-0.9483456766433216,0.190357047818401,3.0
12.780158996582031,-16.013927459716797,1.2558276653289795,0.7973759858010118,-0.2996842526350493,-0.5238137894237194,0.2202353042829325,3.0
13.420225143432615,-15.181737899780272,1.2448129653930664,-0.0,-0.0,-1.0,0.1861019912368094,1.0
13.488199234008787,-15.526933670043944,1.266601800918579,-0.0,-0.0,-1.0,0.1675274966044613,1.0
13.129186630249023,-15.648876190185549,1.254763126373291,-0.0,-0.0,-1.0,0.1528187069776475,1.0
12.82655906677246,-16.26697540283203,1.2711150646209717,-0.0,-0.0,-1.0,0.1602401146450991,1.0
14.404605865478516,-14.672019958496094,1.2664395570755005,-0.0,-0.0,-1.0,0.1995459069998249,1.0
14.245445251464844,-15.01048469543457,1.277087926864624,-0.0,-0.0,-1.0,0.2457512537799218,2.0
13.44412612915039,-16.134645462036133,1.2960171699523926,-0.0,-0.0,-1.0,0.164953678768052,1.0
13.267786026000977,-16.314653396606445,1.2961944341659546,-0.0,-0.0,-1.0,0.1697195420238756,1.0
14.638320922851562,-14.727362632751465,1.2811280488967896,-0.0723362592468267,0.3702796523412888,-0.9260995867940932,0.1852371990830148,3.0
13.629362106323242,-16.648231506347656,1.3316632509231567,-0.0,-0.0,-1.0,0.1586158211187313,1.0
13.060522079467772,-15.775754928588867,0.946219563484192,-0.0,-0.0,-1.0,0.1993638761687542,1.0
14.540136337280272,-14.704692840576172,0.9924222230911256,-0.0,-0.0,-1.0,0.1762677816893018,1.0
14.304231643676758,-14.88576602935791,0.9862749576568604,-0.0,-0.0,-1.0,0.2823439660509833,1.0
13.674812316894531,-16.093582153320312,1.003375768661499,-0.0,-0.0,-1.0,0.2406971834761397,1.0
13.961698532104492,-16.413524627685547,1.037994146347046,-0.0,-0.0,-1.0,0.1933874783430646,1.0
13.83347511291504,-16.67503547668457,1.040987253189087,-0.7153459566973212,0.2187778134859122,-0.6636387801832543,0.2045408646229784,3.0
14.633600234985352,-16.514102935791016,1.0889896154403689,-0.0,-0.0,-1.0,0.1703505899118262,1.0
14.248947143554688,-16.614070892333984,1.067025899887085,-0.0,-0.0,-1.0,0.2562426704384338,1.0
12.871623992919922,-14.477937698364258,1.1143393516540527,-0.0,-0.0,-1.0,0.2046017294624421,1.0
12.754121780395508,-14.72897720336914,1.1167869567871094,-0.0,-0.0,-1.0,0.1565885259593216,1.0
14.424577713012695,-14.59294891357422,1.2122808694839478,-0.5395315854078865,-0.6398590873116081,-0.5472531559817706,0.127276961281922,3.0
14.203346252441406,-14.78088665008545,1.2065669298171997,-0.0,-0.0,-1.0,0.2154003298973876,1.0
13.69536590576172,-15.030765533447266,1.185504913330078,-0.0,-0.0,-1.0,0.140689635021573,1.0
13.309904098510742,-15.113794326782228,1.165086269378662,-0.0,-0.0,-1.0,0.2403438744574628,1.0
13.096837997436523,-15.509471893310549,1.1663028001785278,0.1045184297724417,0.9457196989321714,-0.3077176447484717,0.1722392481178087,3.0
12.943307876586914,-15.56797981262207,1.1588475704193115,0.8726808475667518,-0.109418108726163,-0.4758737393184936,0.2097091373112095,4.0
14.746021270751951,-14.48210620880127,1.226875066757202,-0.0,-0.0,-1.0,0.0810441684345119,1.0
14.67380714416504,-14.640572547912598,1.2290778160095217,-0.0,-0.0,-1.0,0.2162857265300858,2.0
13.555883407592772,-15.446747779846191,1.192376732826233,-0.0,-0.0,-1.0,0.2049709092897526,1.0
13.367843627929688,-15.608551025390623,1.186512470245361,-0.0,-0.0,-1.0,0.1886673470331155,2.0
12.87143898010254,-15.901742935180664,1.16580331325531,0.7312546442317054,-0.3256826521594863,-0.5993308396636406,0.2109415473653657,4.0
12.839532852172852,-16.085819244384766,1.1699364185333252,-0.0,-0.0,-1.0,0.1469697934720972,1.0
13.595447540283203,-15.999296188354492,1.2142726182937622,-0.0,-0.0,-1.0,0.2425118917576786,1.0
12.870100021362305,-16.40755844116211,1.1821929216384888,-0.0,-0.0,-1.0,0.162070645965614,1.0
13.943634033203123,-16.27738380432129,1.2454144954681396,0.4742860573629066,0.869030002106251,-0.1408530838510787,0.2072327935236165,5.0
13.526893615722656,-16.618423461914062,1.2303701639175415,-0.0,-0.0,-1.0,0.2396404563659531,1.0
14.721975326538086,-14.633463859558104,0.8181394338607788,-0.0,-0.0,-1.0,0.09073196699074,1.0
14.831018447875977,-14.837759017944336,0.8379884958267212,-0.0,-0.0,-1.0,0.1091474910285587,1.0
14.291021347045898,-16.159847259521484,0.8690733909606934,-0.0,-0.0,-1.0,0.1563740110268561,1.0
14.61478042602539,-16.428287506103516,0.9076896905899048,0.225623489015893,0.333847036790428,-0.9152268556104252,0.2138603229754692,3.0
14.3321533203125,-16.394365310668945,0.8841555118560791,-0.0,-0.0,-1.0,0.2485086232385093,1.0
14.113588333129885,-16.645221710205078,0.8798136711120605,-0.0,-0.0,-1.0,0.1538804846081232,1.0
14.811323165893556,-16.57322120666504,0.9301799535751344,-0.0,-0.0,-1.0,0.1923149666456729,2.0
12.81881332397461,-14.772531509399414,1.438159465789795,-0.7875536607568357,-0.3522254060727104,-0.5056644092136808,0.1904825133096937,3.0
13.515546798706056,-15.382774353027344,1.4929330348968506,-0.0,-0.0,-1.0,0.1830301278221011,1.0
12.788591384887695,-14.677979469299316,1.221774935722351,-0.0,-0.0,-1.0,0.2469472359149331,2.0
14.786001205444336,-14.704439163208008,1.366417407989502,-0.0,-0.0,-1.0,0.0990721046057516,1.0
13.319843292236328,-15.083089828491213,1.2626112699508667,-0.0,-0.0,-1.0,0.2016272520115196,1.0
12.82308578491211,-15.368586540222168,1.226955771446228,-0.0,-0.0,-1.0,0.1864840884248368,2.0
13.325218200683594,-15.355273246765137,1.2640446424484253,-0.8544330431540191,-0.5032811505570187,-0.1290436292908911,0.2063359727832477,4.0
12.935148239135742,-15.53493881225586,1.235680103302002,-0.0,-0.0,-1.0,0.1651398451275131,1.0
13.51146125793457,-15.895675659179688,1.2793269157409668,-0.0,-0.0,-1.0,0.1581385002403635,1.0
12.824836730957031,-15.982315063476562,1.2279994487762451,0.2541085798466733,0.9581105486413208,-0.1321098263965783,0.2271751120600324,4.0
13.904870986938477,-16.170520782470703,1.3091272115707395,-0.0,-0.0,-1.0,0.1647347245706728,1.0
15.038453102111816,-14.500069618225098,0.9080389738082886,-0.0,-0.0,-1.0,0.1567808989717926,1.0
14.699098587036133,-14.466767311096191,0.8743263483047485,-0.0,-0.0,-1.0,0.1587967177470628,2.0
14.266183853149414,-15.942275047302246,0.8796871900558472,-0.0,-0.0,-1.0,0.2541493453077768,1.0
14.693707466125488,-16.357969284057617,0.9342769384384156,-0.0,-0.0,-1.0,0.2379475820885369,2.0
14.422266006469728,-16.296070098876953,0.9050755500793456,-0.0,-0.0,-1.0,0.1779367212702976,2.0
14.099925994873049,-16.525442123413086,0.878067135810852,-0.0,-0.0,-1.0,0.1950774194547389,2.0
15.009836196899414,-16.84100341796875,0.978946566581726,-0.0,-0.0,-1.0,0.1975040242463771,1.0
13.44761085510254,-15.877883911132812,1.4606651067733765,-0.0,-0.0,-1.0,0.1422916975252841,2.0
13.57594871520996,-16.43996238708496,1.47546124458313,-0.0,-0.0,-1.0,0.2192184983068548,2.0
14.901893615722656,-16.834501266479492,1.5727092027664185,-0.0,-0.0,-1.0,0.0329601596523067,1.0
15.06442642211914,-14.427260398864746,0.7204065322875977,-0.0,-0.0,-1.0,0.1293159287689914,1.0
12.81377410888672,-14.48215389251709,1.1488388776779177,-0.3123194432915271,0.4407001976582378,-0.8415699026973696,0.2197931069363627,3.0
13.985651969909668,-14.6176176071167,1.259734272956848,-0.0,-0.0,-1.0,0.1991342944758958,2.0
12.867168426513672,-14.70397663116455,1.1625686883926392,-0.0,-0.0,-1.0,0.216915207963128,2.0
14.658790588378906,-14.672929763793944,1.3216545581817627,-0.0,-0.0,-1.0,0.202988478231171,1.0
14.205033302307127,-14.83002758026123,1.2883901596069336,-0.0,-0.0,-1.0,0.2049606404038238,2.0
13.216314315795898,-14.982989311218262,1.2053897380828855,-0.0,-0.0,-1.0,0.191161580758367,2.0
13.168014526367188,-15.031330108642578,1.202855110168457,-0.0,-0.0,-1.0,0.1619703196345143,2.0
13.42636489868164,-15.363288879394531,1.2392840385437012,-0.5404353098471557,-0.561503035241527,0.626613132071904,0.2144037460041469,4.0
13.137311935424805,-15.424965858459473,1.2148643732070925,-0.0,-0.0,-1.0,0.1840803658322715,1.0
12.854084014892578,-15.682367324829102,1.1975703239440918,0.9064687253265578,-0.3861859222632938,0.1708065673517698,0.2271745302499608,3.0
13.460189819335938,-15.855072975158691,1.2604353427886963,-0.0,-0.0,-1.0,0.1771035511993153,2.0
13.409345626831056,-15.900321006774902,1.2572743892669678,-0.0,-0.0,-1.0,0.1982882847277885,1.0
12.887815475463867,-15.89585781097412,1.2080771923065186,0.8152204835124982,-0.5258918785853657,-0.2425969812252484,0.2055387445849674,3.0
13.42201042175293,-16.40154266357422,1.2753639221191406,-0.0,-0.0,-1.0,0.2044991487077813,1.0
12.75025749206543,-16.50323486328125,1.214372158050537,-0.0,-0.0,-1.0,0.139369614333002,2.0
13.842507362365724,-16.678409576416016,1.3242413997650146,-0.0,-0.0,-1.0,0.1717097594157134,2.0
15.16504192352295,-14.629168510437012,0.7987253665924072,-0.0,-0.0,-1.0,0.1431872289324304,2.0
14.259800910949709,-15.921781539916992,0.780076265335083,-0.0,-0.0,-1.0,0.1854586182471699,1.0
15.00790309906006,-16.52013397216797,0.9105684757232666,-0.0,-0.0,-1.0,0.2548746685490067,2.0
14.696297645568848,-16.391841888427734,0.8637714385986328,-0.0,-0.0,-1.0,0.1761611429109069,1.0
14.431551933288574,-16.522565841674805,0.8385012149810791,-0.0,-0.0,-1.0,0.1410199176530535,1.0
12.798477172851562,-14.390846252441406,1.173526167869568,-0.0,-0.0,-1.0,0.1339675986702213,1.0
14.723203659057615,-14.740610122680664,1.3649561405181885,-0.0,-0.0,-1.0,0.1183385368327938,1.0
14.23999309539795,-14.915928840637209,1.3305363655090332,-0.9468743833079736,-0.0914592937474352,-0.3083246662567961,0.2794953453492371,3.0
13.423205375671388,-15.291823387145996,1.2731852531433103,-0.0,-0.0,-1.0,0.2202749860627981,2.0
12.841300010681152,-15.377655982971191,1.2221977710723877,-0.4522359088182763,-0.5331054723665415,-0.7150393262668522,0.1811046937940518,3.0
13.327959060668944,-15.814173698425291,1.2870402336120603,-0.0,-0.0,-1.0,0.1851935480908779,1.0
12.83701515197754,-15.70560073852539,1.23562490940094,0.04568400629866,-0.9972721698160918,0.0579757783803554,0.1816330070002255,4.0
13.04405689239502,-16.07684326171875,1.2706382274627686,-0.0,-0.0,-1.0,0.2059981348079415,1.0
13.583678245544434,-16.51795196533203,1.3403308391571045,-0.0,-0.0,-1.0,0.2072328631516083,2.0
14.665519714355469,-15.850707054138184,0.8907475471496582,-0.0,-0.0,-1.0,0.1329999353722611,2.0
14.418672561645508,-15.879626274108888,0.863276481628418,-0.0,-0.0,-1.0,0.1827875449551676,1.0
14.203042030334473,-15.865303993225098,0.8362557888031006,-0.0,-0.0,-1.0,0.196755805044145,1.0
14.33478832244873,-16.13003921508789,0.8708364963531494,-0.0,-0.0,-1.0,0.1516002046575284,1.0
14.219959259033203,-16.28801918029785,0.8676831722259521,-0.0,-0.0,-1.0,0.1471966905580749,2.0
14.67905044555664,-16.398778915405273,0.9314186573028564,0.4332693701021872,-0.0928229371782303,-0.8964717258591371,0.1983237312503473,3.0
14.75523567199707,-14.438119888305664,1.3873018026351929,-0.0,-0.0,-1.0,0.1118097484437126,2.0
13.084733963012695,-14.887078285217283,1.264387607574463,-0.0,-0.0,-1.0,0.0771102205135164,1.0
13.461721420288086,-15.380227088928224,1.323991298675537,-0.0,-0.0,-1.0,0.147820308412179,2.0
12.871424674987791,-15.417986869812012,1.2711055278778076,-0.0,-0.0,-1.0,0.2027578528486954,2.0
12.929615020751951,-15.852198600769045,1.2970759868621826,-0.0294348592572053,-0.8920853591441844,-0.450907197836872,0.2044192086744598,4.0
12.751904487609863,-16.10809898376465,1.2917453050613403,-0.6646777059803296,-0.0594057208898658,-0.7447647329850424,0.1668156719960792,3.0
13.592745780944824,-16.786222457885742,1.4024512767791748,0.9512593507575612,-0.1908694034783159,-0.2422282361991162,0.1448077755595906,3.0
13.711085319519045,-14.862342834472656,0.8540253639221191,-0.0,-0.0,-1.0,0.2293939043013168,1.0
13.512782096862791,-14.884248733520508,0.8324282169342041,-0.0,-0.0,-1.0,0.2177830522583958,1.0
13.410883903503418,-15.512823104858398,0.8632967472076416,-0.0,-0.0,-1.0,0.1879942836795756,1.0
14.02413558959961,-15.42365837097168,0.9302630424499512,-0.0,-0.0,-1.0,0.2307290961830834,1.0
13.588099479675291,-15.721517562866213,0.8984556198120117,-0.0,-0.0,-1.0,0.1201587722581988,2.0
14.490017890930176,-15.80015754699707,1.0112738609313965,-0.0,-0.0,-1.0,0.2110366182603827,1.0
14.224261283874512,-15.828229904174805,0.9818406105041504,0.8557979078825847,0.5157723333355875,-0.0398602688068561,0.2120221189209785,4.0
14.56488037109375,-16.336708068847656,1.0568609237670898,-0.0,-0.0,-1.0,0.1522859345204261,2.0
14.145538330078123,-16.31702423095703,1.004875659942627,-0.0,-0.0,-1.0,0.2393298842332212,2.0
13.920555114746094,-16.689125061035156,1.0006520748138428,-0.0,-0.0,-1.0,0.2047414879928407,2.0
14.81347942352295,-16.40127944946289,1.0909667015075684,-0.0,-0.0,-1.0,0.1616175567565908,1.0
14.83456325531006,-14.41315460205078,1.52275288105011,-0.0,-0.0,-1.0,0.1793477476733118,1.0
13.660683631896973,-15.85622787475586,1.4905080795288086,-0.0,-0.0,-1.0,0.180138529410681,1.0
13.53573513031006,-16.459430694580078,1.5043165683746338,-0.0,-0.0,-1.0,0.2712410338782703,2.0
13.031115531921388,-14.715487480163574,0.9916002750396729,-0.0,-0.0,-1.0,0.2299741641817337,2.0
14.803671836853027,-15.94437313079834,0.7136664390563965,-0.0,-0.0,-1.0,0.0713914773921457,1.0
14.456031799316406,-15.89266872406006,0.6801044940948486,-0.0,-0.0,-1.0,0.1356497300445145,1.0
15.026402473449709,-16.120532989501953,0.7576971054077148,-0.0,-0.0,-1.0,0.1576088896333938,1.0
14.390294075012209,-16.379684448242188,0.750546932220459,-0.0,-0.0,-1.0,0.1246528955378432,1.0
14.766047477722168,-16.54977798461914,0.8057336807250977,-0.0,-0.0,-1.0,0.1628798784339102,1.0
13.645512580871582,-14.471973419189451,0.9876806735992432,-0.0,-0.0,-1.0,0.1995975790880993,2.0
14.587481498718262,-14.537137985229492,1.0358948707580566,-0.0,-0.0,-1.0,0.1756526079135669,2.0
14.21827220916748,-14.767013549804688,1.0530462265014648,-0.0,-0.0,-1.0,0.2213425839484745,1.0
13.713991165161133,-14.963486671447754,1.0572595596313477,-0.0,-0.0,-1.0,0.2505642268305262,1.0
13.228593826293944,-15.019391059875488,1.04119610786438,-0.0,-0.0,-1.0,0.2024015813689572,2.0
13.423480033874512,-15.40998649597168,1.1017674207687378,-0.0,-0.0,-1.0,0.2240861559060557,1.0
13.14276123046875,-15.49575424194336,1.098020076751709,-0.0,-0.0,-1.0,0.1719042568056288,2.0
13.450484275817873,-15.868666648864746,1.1617648601531982,-0.0,-0.0,-1.0,0.1126302458100478,2.0
13.182168960571287,-15.782158851623535,1.1363577842712402,-0.0,-0.0,-1.0,0.2445251388956881,2.0
12.883218765258787,-15.96718692779541,1.142349123954773,-0.0,-0.0,-1.0,0.1434927185928311,2.0
13.507883071899414,-16.33293342590332,1.222785234451294,-0.0,-0.0,-1.0,0.2311958017820803,1.0
14.182906150817873,-16.28813362121582,1.2538962364196775,-0.0,-0.0,-1.0,0.1451587763769332,1.0
13.70708465576172,-16.562610626220703,1.2622536420822144,0.4240050212761388,0.1671621320298959,-0.8900991874773508,0.19763850809067,4.0
13.592897415161133,-16.837413787841797,1.2889199256896973,-0.0,-0.0,-1.0,0.1394017398926092,1.0
14.79762363433838,-16.02442169189453,0.8416392803192139,-0.0,-0.0,-1.0,0.0764556787811689,1.0
14.42585563659668,-15.948863983154297,0.7935335636138916,-0.0,-0.0,-1.0,0.175117909097426,1.0
14.539321899414062,-14.493605613708496,1.1860694885253906,-0.0,-0.0,-1.0,0.211219190156835,2.0
13.608576774597168,-14.487735748291016,1.1164155006408691,-0.0,-0.0,-1.0,0.1938294732539155,1.0
12.93649196624756,-14.47577953338623,1.0627069473266602,-0.0,-0.0,-1.0,0.2162842525330918,2.0
14.688969612121582,-14.6582612991333,1.2139054536819458,-0.0,-0.0,-1.0,0.1731121366672861,2.0
14.55691146850586,-14.631115913391112,1.2015771865844729,-0.0,-0.0,-1.0,0.1827886741411673,1.0
14.14603042602539,-14.822748184204102,1.190560817718506,-0.0,-0.0,-1.0,0.1802648532256371,1.0
13.602334022521973,-14.950827598571776,1.1611547470092771,-0.0,-0.0,-1.0,0.1349303585715913,1.0
13.019609451293944,-14.833234786987305,1.1033427715301514,-0.0,-0.0,-1.0,0.1921787842735967,2.0
13.50879192352295,-15.401719093322754,1.1965274810791016,-0.0,-0.0,-1.0,0.2413875369920025,2.0
13.217214584350586,-15.361740112304688,1.1688642501831057,0.4356410865577652,0.2296910507816351,-0.8703211274544573,0.189028697312186,3.0
13.324763298034668,-15.514695167541504,1.1917777061462402,-0.0,-0.0,-1.0,0.2071796516219978,1.0
12.883070945739746,-15.625290870666504,1.1647427082061768,0.6424157044430577,-0.6223831343713068,-0.4471479584377839,0.1712046988943592,3.0
13.54433536529541,-15.943192481994627,1.2494304180145264,-0.4184261642422341,-0.8956774072883925,0.1506038749523883,0.2396828175903728,4.0
13.0789213180542,-15.901795387268066,1.206144094467163,-0.0,-0.0,-1.0,0.2408883725394453,1.0
15.106474876403809,-16.15160369873047,0.8891117572784424,-0.0,-0.0,-1.0,0.2026876224835325,1.0
12.870747566223145,-16.300376892089844,1.2226662635803225,-0.0,-0.0,-1.0,0.2518625180037053,2.0
14.908886909484863,-16.772525787353516,0.9429538249969482,-0.0,-0.0,-1.0,0.1594249708141692,1.0
14.708005905151367,-16.655628204345703,0.907489538192749,-0.0,-0.0,-1.0,0.1790443754629286,1.0
12.77609920501709,-16.64584732055664,1.24320650100708,-0.0,-0.0,-1.0,0.1183670517775798,1.0
14.285163879394531,-15.908085823059082,1.3071508407592771,-0.0,-0.0,-1.0,0.1962427508809513,2.0
14.029282569885254,-16.233970642089844,1.316575288772583,-0.0,-0.0,-1.0,0.1692424294265281,1.0
13.508761405944824,-16.473262786865234,1.2936534881591797,0.5085475380674424,0.8570357780652291,-0.0828798928671516,0.1749465310998076,6.0
13.56662654876709,-16.790897369384766,1.3262429237365725,-0.0,-0.0,-1.0,0.1340218377407676,1.0
14.132962226867676,-15.054884910583496,0.8038899898529053,-0.0,-0.0,-1.0,0.1498630816593789,1.0
14.052568435668944,-14.971895217895508,0.7860867977142334,-0.0,-0.0,-1.0,0.1466701759789679,1.0
14.011727333068848,-15.314571380615234,0.8123505115509033,-0.0,-0.0,-1.0,0.0991158221332583,1.0
12.799972534179688,-14.447572708129885,1.172069787979126,-0.0,-0.0,-1.0,0.1875899671710196,2.0
14.574448585510254,-15.7327299118042,0.922027349472046,-0.0,-0.0,-1.0,0.2215616249690373,1.0
14.525493621826172,-15.86905574798584,0.9281141757965088,-0.0,-0.0,-1.0,0.2301217101201437,2.0
14.402334213256836,-16.30982208251953,0.9513843059539796,-0.0,-0.0,-1.0,0.1608594858103644,2.0
14.055350303649902,-16.1485595703125,0.8918588161468506,-0.0,-0.0,-1.0,0.1997249331568708,1.0
14.336566925048828,-14.415512084960938,1.3243340253829956,-0.0,-0.0,-1.0,0.1606352863839986,2.0
14.328132629394531,-14.487481117248535,1.328571915626526,-0.0,-0.0,-1.0,0.1655415066921567,2.0
14.11464500427246,-14.81123161315918,1.3298882246017456,-0.0,-0.0,-1.0,0.148869669991752,1.0
14.29351806640625,-14.926165580749512,1.3555610179901123,-0.0,-0.0,-1.0,0.2293623177896207,1.0
13.366096496582031,-14.996161460876465,1.266046404838562,-0.8962214618599642,0.4414320808111502,-0.0438726490233631,0.2550480912795853,3.0
13.357913970947266,-15.29193115234375,1.2840319871902466,-0.4906605330602968,-0.5668313969388916,-0.6617812393391717,0.2084292046242764,3.0
13.463452339172363,-15.86631202697754,1.3309686183929443,-0.0,-0.0,-1.0,0.2001694492306935,1.0
12.943888664245604,-15.693683624267578,1.2648522853851318,-0.0,-0.0,-1.0,0.1617809723430485,1.0
13.33247184753418,-16.209022521972656,1.3375228643417358,-0.0,-0.0,-1.0,0.144709085125225,2.0
12.729479789733888,-16.04721450805664,1.2623088359832764,0.0437874442374616,0.932952095467131,0.3573276469721319,0.1013411965964039,3.0
12.715567588806152,-16.52691650390625,1.2877864837646484,-0.0,-0.0,-1.0,0.1029394317418627,1.0
13.584918975830078,-16.823137283325195,1.4008023738861084,0.9512593507575612,-0.1908694034783159,-0.2422282361991162,0.1448077755595906,3.0
14.170490264892578,-15.130936622619627,0.9015393257141112,-0.0,-0.0,-1.0,0.1324033721779505,1.0
13.73863124847412,-14.82020664215088,0.8199987411499023,-0.0,-0.0,-1.0,0.2611953326056207,1.0
14.379728317260742,-15.322683334350586,0.94510817527771,-0.0,-0.0,-1.0,0.0961444403779131,1.0
13.651817321777344,-14.996546745300291,0.8273389339447021,-0.0,-0.0,-1.0,0.1619077280608951,1.0
14.38153839111328,-15.995224952697754,1.0119388103485107,-0.0,-0.0,-1.0,0.2451331420010633,1.0
14.138463020324709,-15.821125030517578,0.9659483432769777,-0.0,-0.0,-1.0,0.214627293175951,2.0
14.977264404296877,-16.788740158081055,1.1603622436523438,-0.0,-0.0,-1.0,0.1301278784625663,2.0
14.880374908447266,-16.50237274169922,1.121023654937744,-0.0,-0.0,-1.0,0.151186392042809,1.0
14.492392539978027,-16.37395477294922,1.0618877410888672,0.6132219812427808,0.7212287224873787,-0.3221613440186489,0.1473376649156997,3.0
14.282129287719728,-16.68610382080078,1.065458059310913,-0.0,-0.0,-1.0,0.2553771513456245,1.0
13.990711212158203,-16.644306182861328,1.025207281112671,-0.0,-0.0,-1.0,0.1953274834898245,1.0
13.331165313720703,-16.216218948364258,0.9032814502716064,-0.0,-0.0,-1.0,0.1799075677222343,1.0
13.909695625305176,-16.854047775268555,1.0338892936706543,-0.0,-0.0,-1.0,0.146597795176581,2.0
14.747992515563965,-14.479748725891112,1.4221248626708984,0.4512238218602049,-0.8913705962259868,0.0430757793846951,0.1971322338139578,3.0
13.602727890014648,-15.287323951721191,1.3793082237243652,-0.0,-0.0,-1.0,0.2182891764376569,1.0
13.20759391784668,-15.113224983215332,1.3292065858840942,-0.0,-0.0,-1.0,0.1911762453998506,1.0
12.732937812805176,-14.723645210266112,1.2561111450195312,-0.0,-0.0,-1.0,0.1303378323735699,2.0
13.338335037231444,-15.38890266418457,1.3612189292907717,-0.0,-0.0,-1.0,0.2069512035310684,2.0
12.962772369384766,-15.573145866394045,1.3373111486434937,-0.0,-0.0,-1.0,0.2034815996974045,2.0
12.718859672546388,-16.155384063720703,1.351327419281006,-0.0,-0.0,-1.0,0.1409988234654212,2.0
14.653246879577637,-15.78700828552246,0.8964555263519287,-0.0,-0.0,-1.0,0.1624191267759804,2.0
14.670987129211426,-15.456235885620115,0.8599374294281006,-0.0,-0.0,-1.0,0.1192917741996574,1.0
14.201189994812012,-15.17126750946045,0.7709105014801025,-0.0,-0.0,-1.0,0.1000417769501733,1.0
14.464909553527832,-15.97739028930664,0.8954811096191406,-0.0,-0.0,-1.0,0.2340977874290013,1.0
14.37646484375,-15.832474708557127,0.8682839870452881,-0.0,-0.0,-1.0,0.2442172392963474,1.0
14.7623291015625,-16.42867660522461,0.9830749034881592,-0.0,-0.0,-1.0,0.1747155449985402,1.0
14.383928298950195,-16.32457733154297,0.9245553016662598,-0.0,-0.0,-1.0,0.2223233576512705,2.0
14.030854225158691,-16.089658737182617,0.8544774055480957,-0.0,-0.0,-1.0,0.161092049833954,1.0
14.02570343017578,-16.602432250976562,0.9096570014953612,-0.0,-0.0,-1.0,0.1449464217773035,1.0
14.701375961303713,-14.59811019897461,1.2684237957000732,-0.0,-0.0,-1.0,0.1211604983179065,1.0
14.376911163330078,-14.483990669250488,1.2283473014831543,-0.0,-0.0,-1.0,0.2402696533543059,2.0
14.24799919128418,-14.832767486572266,1.248805046081543,-0.0,-0.0,-1.0,0.2975148743835422,2.0
12.899497032165527,-14.372939109802246,1.0790352821350098,-0.0,-0.0,-1.0,0.124803851507159,1.0
13.436614990234377,-15.365450859069824,1.2182202339172363,-0.073429229419579,-0.9972381808244046,0.01114266453227,0.1943224808438403,5.0
13.373839378356934,-15.196614265441896,1.1974241733551023,-0.7743820621932128,-0.5057224832883004,-0.3802330754288766,0.2644628549503678,3.0
13.351018905639648,-15.634312629699709,1.2325841188430786,-0.0,-0.0,-1.0,0.2333827109948932,1.0
13.0421142578125,-15.45924472808838,1.1866934299468994,-0.0,-0.0,-1.0,0.1324771651298917,1.0
13.665761947631836,-16.419692993164062,1.3302125930786133,-0.0,-0.0,-1.0,0.2323814761758125,1.0
12.869807243347168,-15.923491477966309,1.207465648651123,0.8152204835124982,-0.5258918785853657,-0.2425969812252484,0.1841948720439195,3.0
13.371654510498049,-16.58171844482422,1.3129206895828247,-0.0,-0.0,-1.0,0.2039248344378855,2.0
14.54746437072754,-15.289701461791992,0.8811149597167969,-0.0,-0.0,-1.0,0.1811127505158292,1.0
13.99006462097168,-14.771354675292969,0.7517402172088623,-0.0,-0.0,-1.0,0.2144296361433508,1.0
14.853511810302734,-15.829448699951172,0.9807612895965576,-0.0,-0.0,-1.0,0.1161946542026068,1.0
14.491180419921877,-15.716285705566406,0.9212908744812012,-0.0,-0.0,-1.0,0.2507606302921581,2.0
14.480592727661133,-16.27452278137207,0.9803924560546876,-0.0,-0.0,-1.0,0.2762213684505383,1.0
14.197768211364746,-15.968152046203612,0.909799098968506,-0.0,-0.0,-1.0,0.2537547215885471,2.0
14.065438270568848,-16.548004150390625,0.9525227546691896,-0.0,-0.0,-1.0,0.2094700172507621,1.0
13.571525573730469,-16.02518081665039,0.8309414386749268,-0.0,-0.0,-1.0,0.1089321609138447,1.0
14.694252967834473,-14.367684364318848,1.28905987739563,-0.0,-0.0,-1.0,0.1157487777636104,1.0
14.902127265930176,-16.813756942749023,1.094082593917847,-0.0,-0.0,-1.0,0.1747585733154923,1.0
13.410574913024902,-15.137894630432127,1.2225406169891355,-0.0,-0.0,-1.0,0.1712528309183372,2.0
13.356735229492188,-14.832999229431152,1.1916916370391846,-0.0,-0.0,-1.0,0.178086697262772,1.0
12.972853660583496,-14.548454284667969,1.1270408630371094,-0.0,-0.0,-1.0,0.1885880795614969,1.0
13.477458953857422,-15.792712211608888,1.282472848892212,-0.0,-0.0,-1.0,0.1682822440449625,2.0
12.921022415161133,-15.422964096069336,1.191611409187317,-0.0,-0.0,-1.0,0.2222390388405718,2.0
13.532081604003906,-16.590024948120117,1.350141167640686,-0.0,-0.0,-1.0,0.2237446098687409,2.0
12.929187774658203,-15.66604995727539,1.2114228010177612,-0.0,-0.0,-1.0,0.2065046640901577,1.0
14.878185272216797,-16.82512092590332,1.518891215324402,-0.0,-0.0,-1.0,0.0329601596523067,2.0
14.120540618896484,-16.839725494384766,1.4359217882156372,-0.0,-0.0,-1.0,0.1199642901141834,1.0
13.529876708984377,-16.737995147705078,1.3609875440597534,-0.0,-0.0,-1.0,0.1737894190621675,1.0
15.074646949768066,-16.464580535888672,0.7809052467346191,-0.0,-0.0,-1.0,0.089146218488036,2.0
14.821369171142578,-16.49350357055664,0.7462694644927979,-0.0,-0.0,-1.0,0.1639391535060256,1.0
14.662471771240234,-16.389694213867188,0.7068014144897461,-0.0,-0.0,-1.0,0.1753836702230476,1.0
13.68495273590088,-14.844700813293455,0.812971830368042,-0.0,-0.0,-1.0,0.2239223769233171,1.0
13.668703079223633,-14.505888938903809,0.7695379257202148,-0.0,-0.0,-1.0,0.2987223949172058,1.0
13.473381996154783,-15.051894187927246,0.8110620975494385,-0.0,-0.0,-1.0,0.2039176387845143,1.0
13.20833969116211,-15.231725692749023,0.7982957363128662,-0.0,-0.0,-1.0,0.1776760955848912,1.0
12.751070976257324,-16.36695098876953,0.8662400245666504,-0.0,-0.0,-1.0,0.1452506977673035,1.0
14.763336181640623,-14.399473190307615,0.889110803604126,-0.0,-0.0,-1.0,0.1344538704890559,1.0
14.812355041503906,-15.21453857421875,0.9983563423156738,-0.0,-0.0,-1.0,0.2241168192319765,2.0
14.62139129638672,-14.734773635864258,0.9148049354553224,-0.0,-0.0,-1.0,0.1621200381219689,1.0
14.719216346740724,-14.489091873168944,0.8953549861907959,0.2594959141978239,-0.5279024324551868,-0.8086908508957752,0.1588457409893108,3.0
14.39142894744873,-15.131733894348145,0.9363644123077391,-0.0,-0.0,-1.0,0.2268746542329867,1.0
14.408289909362791,-16.257186889648438,1.0746304988861084,-0.0,-0.0,-1.0,0.1870729170552607,2.0
14.189099311828612,-15.804922103881836,0.9926912784576416,-0.0,-0.0,-1.0,0.1327540771220065,2.0
13.951930046081545,-15.38167953491211,0.9117047786712646,-0.0,-0.0,-1.0,0.2198933761079751,1.0
14.06728172302246,-16.452558517456055,1.052910089492798,-0.0,-0.0,-1.0,0.1808997139570047,1.0
14.022347450256348,-15.983986854553224,0.9923741817474364,0.7612339878638823,-0.1500008878006463,-0.6308902831553749,0.0987557726377839,3.0
13.887993812561035,-16.846923828125,1.073862075805664,-0.0,-0.0,-1.0,0.1330107457424471,2.0
13.943530082702637,-16.62262725830078,1.055900812149048,-0.0,-0.0,-1.0,0.2100977190330626,1.0
13.691404342651367,-16.458415985107422,1.0036680698394775,-0.0,-0.0,-1.0,0.174583362505142,2.0
13.47208023071289,-15.576573371887209,0.873058557510376,-0.0,-0.0,-1.0,0.1256610369395821,1.0
13.51125431060791,-16.753448486328125,1.0124647617340088,-0.0,-0.0,-1.0,0.1812624282734903,1.0
13.375898361206056,-16.499605178833008,0.9659061431884766,-0.0,-0.0,-1.0,0.2255669785377988,1.0
13.37201976776123,-16.18011474609375,0.9294402599334716,-0.0,-0.0,-1.0,0.1286112216357621,1.0
13.093928337097168,-16.807292938232422,0.961287260055542,-0.0,-0.0,-1.0,0.1726983639750517,1.0
13.359810829162598,-15.310864448547363,1.298842430114746,-0.4906605330602968,-0.5668313969388916,-0.6617812393391717,0.2381226145856629,3.0
13.405744552612305,-15.157814979553224,1.2892796993255615,-0.0,-0.0,-1.0,0.1555729652430074,1.0
13.288228034973145,-15.8079195022583,1.3371703624725342,-0.0,-0.0,-1.0,0.2089873027721106,1.0
13.324798583984377,-15.3735933303833,1.301039218902588,-0.7904566130494171,-0.5452876272480311,-0.2789977534975083,0.1717071710181614,3.0
13.165135383605955,-15.058823585510254,1.255169153213501,-0.0,-0.0,-1.0,0.2249898344379955,2.0
13.472766876220703,-16.46478271484375,1.4160349369049072,-0.0,-0.0,-1.0,0.2587184542804319,2.0
12.910216331481934,-15.839027404785156,1.299856662750244,-0.0,-0.0,-1.0,0.2038374970604036,2.0
12.823126792907717,-15.485711097717283,1.2586920261383057,-0.0,-0.0,-1.0,0.25366831203124,1.0
14.74436378479004,-16.34801483154297,0.952153205871582,-0.0,-0.0,-1.0,0.2520033653369533,2.0
14.505924224853516,-15.818337440490724,0.843036413192749,-0.0,-0.0,-1.0,0.1923765181940998,1.0
14.471792221069336,-15.407899856567385,0.7822568416595459,-0.0,-0.0,-1.0,0.0800902132482584,2.0
14.426822662353516,-16.60973358154297,0.9330627918243408,-0.0,-0.0,-1.0,0.146157363345214,1.0
14.368163108825684,-16.2985782623291,0.8834319114685059,-0.0,-0.0,-1.0,0.2230991284360083,1.0
14.35245418548584,-15.927539825439451,0.8325657844543457,-0.0,-0.0,-1.0,0.1752550551891221,2.0
14.071822166442873,-16.500898361206055,0.8593089580535889,-0.2925271940131984,-0.7691789631121925,-0.5681474839057348,0.1559366148846275,3.0
12.994913101196287,-14.385924339294434,0.8810384273529053,-0.0,-0.0,-1.0,0.1594744546583246,1.0
13.79314136505127,-16.82292366027832,0.8508992195129395,-0.0,-0.0,-1.0,0.1632981926471556,1.0
14.690317153930664,-14.724864959716797,1.1442251205444336,-0.0,-0.0,-1.0,0.1682691910828177,2.0
14.631108283996582,-14.415843963623049,1.100928783416748,-0.4909359194825103,-0.8651672727931745,0.1023108647675441,0.1875895517945825,3.0
14.89381980895996,-15.198152542114258,1.2247467041015625,-0.0,-0.0,-1.0,0.2167439519084446,1.0
14.300533294677734,-14.545083999633787,1.0730109214782717,-0.0,-0.0,-1.0,0.2012162429074237,1.0
14.128823280334473,-14.72483253479004,1.0707669258117676,-0.235956033974991,-0.5295921673610583,-0.8147741320762519,0.1819032590692456,3.0
13.627751350402832,-14.417284965515137,0.9698781967163086,0.8892068373622914,-0.0580579264784894,-0.4538066521781824,0.1249954673486756,5.0
13.620747566223145,-14.890824317932127,1.0208783149719238,-0.0,-0.0,-1.0,0.1616111235348721,2.0
13.492456436157228,-14.564279556274414,0.967815637588501,-0.0,-0.0,-1.0,0.1932303958777682,1.0
13.97762680053711,-16.775983810424805,1.267375946044922,-0.0,-0.0,-1.0,0.2471716121567234,1.0
13.527310371398926,-15.93920612335205,1.1186294555664062,0.9480115650665324,-0.0303213215760015,-0.316788083674225,0.1391715544463355,3.0
13.379877090454102,-15.4037504196167,1.0424420833587646,0.1547439549974169,0.7632850877248448,-0.6272560747004636,0.2001651507478295,3.0
13.38312530517578,-15.093096733093262,1.0100955963134766,-0.0,-0.0,-1.0,0.2326232660318831,1.0
13.632548332214355,-16.78054428100586,1.2177238464355469,-0.0,-0.0,-1.0,0.1205632599309047,1.0
13.348369598388672,-16.00165557861328,1.099489688873291,-0.0,-0.0,-1.0,0.2959177268129691,2.0
13.068266868591309,-15.570987701416016,1.0158109664916992,-0.0,-0.0,-1.0,0.1436329511909968,2.0
13.369028091430664,-16.69149398803711,1.1707186698913574,-0.0,-0.0,-1.0,0.1651359037569245,1.0
13.069323539733888,-16.4154109954834,1.1000566482543943,-0.0,-0.0,-1.0,0.1969563326349976,1.0
13.04527473449707,-16.050935745239258,1.060943603515625,-0.0,-0.0,-1.0,0.2019469172608658,1.0
12.825631141662598,-16.644798278808594,1.0862817764282229,-0.0,-0.0,-1.0,0.1295268960008983,2.0
13.444695472717283,-15.280025482177734,1.4732873439788818,-0.0,-0.0,-1.0,0.2049631374298613,2.0
12.860642433166504,-15.823291778564451,1.4497077465057373,-0.0,-0.0,-1.0,0.2095501024920917,2.0
14.508480072021484,-15.423952102661133,0.7530801296234131,-0.0,-0.0,-1.0,0.0769996395766609,2.0
14.265653610229492,-15.818626403808594,0.7678220272064209,-0.0,-0.0,-1.0,0.1636793280700044,2.0
14.832098007202148,-15.94471549987793,0.8864998817443848,-0.0,-0.0,-1.0,0.0653938197856953,1.0
14.827947616577148,-15.259132385253906,1.156558394432068,-0.0,-0.0,-1.0,0.2244484946510091,2.0
14.75337028503418,-15.0790433883667,1.122854232788086,-0.0,-0.0,-1.0,0.208481605472967,1.0
14.5090913772583,-14.500958442687988,1.0134124755859375,-0.0,-0.0,-1.0,0.2757718018195877,1.0
14.629210472106934,-16.27273178100586,0.897514820098877,-0.0,-0.0,-1.0,0.2037641782628088,1.0
14.51286506652832,-15.762136459350586,0.8035626411437988,-0.0,-0.0,-1.0,0.14131088925041,1.0
14.26317024230957,-14.63137149810791,0.9955148696899414,-0.0,-0.0,-1.0,0.2180970788858227,1.0
14.346735000610352,-16.612476348876953,0.8924808502197266,-0.0,-0.0,-1.0,0.134242865915745,1.0
14.202695846557615,-16.2413330078125,1.0015335083007812,-0.0,-0.0,-1.0,0.2419948769385945,2.0
14.332807540893556,-15.803024291992188,0.9649090766906738,-0.1395203543858557,0.9034064884508474,-0.4054513378162097,0.1685136370204333,3.0
13.929637908935549,-14.518468856811523,0.9333231449127196,-0.0,-0.0,-1.0,0.1361657721020865,1.0
13.671072006225586,-14.461981773376465,0.8886909484863281,-0.0,-0.0,-1.0,0.1400479453959565,2.0
13.946547508239746,-16.6800594329834,1.0100350379943848,-0.0,-0.0,-1.0,0.2030177381135978,2.0
13.871574401855469,-15.627775192260742,1.0601592063903809,-0.0,-0.0,-1.0,0.2392542931841706,1.0
13.504984855651855,-15.224193572998049,0.9567320346832277,-0.0,-0.0,-1.0,0.1716045602475176,1.0
13.4542875289917,-14.819263458251951,0.9006595611572266,-0.0,-0.0,-1.0,0.1658176615488578,1.0
13.423455238342283,-14.508243560791016,0.8581364154815674,-0.0,-0.0,-1.0,0.1243633533213726,1.0
13.668987274169922,-16.828113555908203,0.9773399829864502,-0.0,-0.0,-1.0,0.1554252584211078,1.0
13.559146881103516,-16.4671573638916,1.1056435108184814,-0.0,-0.0,-1.0,0.2108074727836035,1.0
13.463802337646484,-16.12584114074707,1.0532987117767334,-0.0,-0.0,-1.0,0.1782964530909998,2.0
13.363210678100586,-15.71673583984375,0.9918086528778076,-0.0,-0.0,-1.0,0.1224652153998772,1.0
13.331657409667969,-15.399003028869627,0.950653314590454,-0.0,-0.0,-1.0,0.140341519384073,1.0
13.135225296020508,-15.002519607543944,0.8742902278900146,-0.0,-0.0,-1.0,0.2265413761019934,2.0
13.01890754699707,-16.656837463378906,1.0376720428466797,-0.0,-0.0,-1.0,0.1041286636444881,1.0
12.962539672851562,-15.639896392822266,0.9203493595123292,-0.0,-0.0,-1.0,0.1292827687595964,1.0
12.758727073669434,-16.736923217773438,1.0027263164520264,-0.0,-0.0,-1.0,0.1497834579463678,1.0
14.787174224853516,-14.401966094970703,1.4311258792877195,-0.0,-0.0,-1.0,0.1231416536117534,1.0
13.472821235656738,-15.28817653656006,1.363298416137695,-0.0,-0.0,-1.0,0.1587865167415617,1.0
13.563969612121582,-16.400882720947266,1.4758899211883545,-0.0,-0.0,-1.0,0.2982730823953007,2.0
13.370661735534668,-15.80520248413086,1.3980412483215332,-0.0,-0.0,-1.0,0.1054487900534508,2.0
13.325743675231934,-15.345277786254885,1.3501628637313845,-0.0,-0.0,-1.0,0.2056050867797522,2.0
13.279281616210938,-15.070474624633787,1.318554401397705,-0.0,-0.0,-1.0,0.1456297367790186,1.0
12.895134925842283,-16.15447235107422,1.366711974143982,-0.0,-0.0,-1.0,0.1522216394360959,2.0
12.779641151428224,-15.97719383239746,1.3363122940063477,-0.6220530758749441,-0.5327089715610375,-0.5738215074506207,0.1678052110351864,3.0
14.903488159179688,-16.775856018066406,1.6822452545166016,-0.0,-0.0,-1.0,0.109619188671885,2.0
14.86987018585205,-16.46148681640625,0.8026278018951416,-0.0,-0.0,-1.0,0.1653162028958454,2.0
14.572002410888672,-16.582422256469727,0.7553560733795166,-0.0,-0.0,-1.0,0.1494375239268315,1.0
14.696521759033203,-16.347965240478516,0.746049165725708,-0.0,-0.0,-1.0,0.158517892458427,1.0
13.843992233276367,-14.98467254638672,0.7175123691558838,-0.0,-0.0,-1.0,0.1496068891569798,1.0
14.849445343017578,-14.463337898254396,0.814434289932251,-0.0,-0.0,-1.0,0.1486557410978537,2.0
15.0770845413208,-16.601200103759766,1.0247368812561035,-0.0,-0.0,-1.0,0.1378049261704534,1.0
15.125163078308104,-16.199440002441406,0.974722146987915,-0.0,-0.0,-1.0,0.215079502557876,2.0
14.618404388427734,-14.470388412475586,0.9606692790985109,-0.0,-0.0,-1.0,0.1977859804131029,1.0
14.619897842407228,-16.35369110107422,1.059288740158081,-0.0,-0.0,-1.0,0.1384835842286709,1.0
14.34243869781494,-15.74140453338623,0.9203906059265136,-0.0,-0.0,-1.0,0.2180852851560971,2.0
14.26681900024414,-15.059232711791992,0.9891359806060792,-0.0,-0.0,-1.0,0.1251295828884819,1.0
14.247455596923828,-14.645744323730469,1.1127469539642334,-0.0,-0.0,-1.0,0.259052660912846,1.0
14.22630500793457,-14.425704956054688,1.080648422241211,-0.0,-0.0,-1.0,0.2141763372177203,1.0
14.11152458190918,-16.638456344604492,0.9984080791473388,-0.0,-0.0,-1.0,0.1508461277926304,1.0
14.068414688110352,-16.23789405822754,0.9372072219848632,-0.0,-0.0,-1.0,0.184398216746086,1.0
14.21131706237793,-15.850035667419434,0.911167860031128,-0.0,-0.0,-1.0,0.2326285787597809,2.0
14.145095825195312,-15.521568298339844,0.8518033027648926,-0.0,-0.0,-1.0,0.085039376202641,1.0
13.930157661437988,-15.240926742553713,0.771052360534668,-0.0,-0.0,-1.0,0.1158196177925539,1.0
13.697649955749512,-14.861406326293944,1.0562918186187744,-0.0,-0.0,-1.0,0.102909248515332,1.0
13.642178535461426,-14.395398139953612,0.9887502193450928,0.7037052348533251,0.1372269581115474,-0.6971138389154804,0.1344794043292076,3.0
13.90544891357422,-16.7406063079834,0.9703726768493652,-0.0,-0.0,-1.0,0.2213819898748002,1.0
13.721145629882812,-16.366268157958984,0.8858742713928223,-0.0,-0.0,-1.0,0.0930730004142296,1.0
13.642882347106934,-16.070003509521484,0.8319826126098633,-0.0,-0.0,-1.0,0.1157439508166875,1.0
13.641005516052246,-15.717366218566896,0.7839093208312988,-0.0,-0.0,-1.0,0.1203218970995593,1.0
13.452404975891112,-15.332849502563477,1.0749099254608154,0.0394321429214123,0.9771186358893784,-0.2090078407675309,0.1603241785564078,5.0
13.428617477416992,-14.83488941192627,1.010944128036499,-0.0,-0.0,-1.0,0.180726000253826,1.0
13.535099983215332,-14.455331802368164,0.9800117015838624,-0.7652788875656152,0.2229755997518545,-0.6038460947639185,0.1376501665060485,3.0
13.615468978881836,-16.851055145263672,0.925689697265625,-0.0,-0.0,-1.0,0.2196335137000484,1.0
13.251571655273438,-16.01290512084961,1.1197264194488523,-0.0,-0.0,-1.0,0.2386531293971323,1.0
13.285070419311523,-15.473155975341797,1.0643556118011477,-0.0,-0.0,-1.0,0.2192291424109501,2.0
13.301342010498049,-15.33057975769043,1.050283670425415,-0.0,-0.0,-1.0,0.1954480282024158,1.0
13.234870910644531,-14.89793586730957,0.9881157875061036,-0.3475903810836529,0.66381923777838,-0.662212161269673,0.2267296495251262,4.0
13.0004243850708,-14.472102165222168,0.8990528583526611,-0.2929795277762607,-0.1072157441683136,-0.9500883014259436,0.1809056779008571,3.0
12.843549728393556,-16.569801330566406,1.1096365451812744,-0.0,-0.0,-1.0,0.114277612882717,1.0
12.910141944885254,-16.20859718322754,1.0837063789367676,-0.0,-0.0,-1.0,0.1575833202207965,1.0
12.907838821411133,-15.841241836547852,1.043813943862915,-0.0,-0.0,-1.0,0.1423682633379585,1.0
12.754291534423828,-15.235849380493164,0.9506077766418456,-0.0,-0.0,-1.0,0.1860323103989281,1.0
14.982381820678713,-16.862060546875,1.5007667541503906,-0.0,-0.0,-1.0,0.0329601596523067,1.0
14.705842971801758,-14.52971363067627,1.1652770042419434,-0.0,-0.0,-1.0,0.1804084880267981,1.0
14.277839660644531,-15.774347305297852,1.259537935256958,-0.1316401733673988,0.1024793520859756,-0.9859862307110784,0.1326658813314058,3.0
14.361419677734377,-14.864423751831056,1.1585168838500977,-0.0,-0.0,-1.0,0.1602117757041469,1.0
14.248044967651367,-14.419028282165527,1.4573333263397217,0.1665282797538787,-0.9395038810760268,0.2993339096816411,0.1726793163270672,3.0
13.956198692321776,-16.197885513305664,1.2570345401763916,-0.0,-0.0,-1.0,0.1412526469980961,1.0
13.778179168701172,-16.840179443359375,1.2968186140060425,-0.0,-0.0,-1.0,0.1394034465364503,2.0
13.615469932556152,-16.494930267333984,1.23313570022583,-0.0,-0.0,-1.0,0.1952564335015092,1.0
13.637253761291504,-15.89333724975586,1.1701267957687378,-0.0,-0.0,-1.0,0.1659939847769421,1.0
13.405933380126951,-15.190852165222168,1.4300861358642578,-0.0,-0.0,-1.0,0.2146882196396332,2.0
13.50212860107422,-16.743057250976562,1.240058183670044,-0.0,-0.0,-1.0,0.2418133329652358,1.0
13.281766891479492,-16.329818725585938,1.1593105792999268,-0.0,-0.0,-1.0,0.2146428909653391,1.0
12.828890800476074,-15.807369232177734,1.4107056856155396,0.169863531760807,-0.4993174055295108,-0.8496049135410082,0.2361075076456472,5.0
15.08992862701416,-16.491971969604492,0.7877974510192871,-0.0,-0.0,-1.0,0.0790723230415703,2.0
14.855779647827148,-14.45307159423828,0.7474336624145508,-0.0,-0.0,-1.0,0.1331351586615125,1.0
14.872099876403809,-16.84981346130371,0.7733240127563477,-0.0,-0.0,-1.0,0.1230190775182073,1.0
14.86228084564209,-16.65129280090332,0.7455935478210449,-0.0,-0.0,-1.0,0.1235405468486681,1.0
14.238863945007324,-16.023452758789062,0.8141748905181885,-0.0,-0.0,-1.0,0.1405388953772366,2.0
14.251937866210938,-15.801271438598633,0.7909395694732666,-0.0,-0.0,-1.0,0.197940267325828,2.0
13.687400817871094,-16.83469581604004,0.7603530883789062,-0.0,-0.0,-1.0,0.2060844608473938,1.0
