x,y,z,nx,ny,nz,curvature,density
35.831695556640625,-18.40313148498535,0.8740251064300537,-0.0,-0.0,-1.0,0.1193595261062202,1.0
37.26864242553711,-18.727523803710938,0.146607756614685,-0.0,-0.0,-1.0,0.1654708149425886,1.0
37.05992889404297,-18.494781494140625,0.1697534918785095,-0.0,-0.0,-1.0,0.055577379120845,1.0
36.827003479003906,-18.428674697875977,0.1832605004310608,-0.0,-0.0,-1.0,0.068895805175703,2.0
36.54313659667969,-18.40839958190918,0.1957200169563293,-0.0,-0.0,-1.0,0.1185322210312573,1.0
36.49266815185547,-18.714797973632812,0.1781410574913025,-0.0,-0.0,-1.0,0.1937115047206192,1.0
36.44390869140625,-18.46979522705078,0.6574417948722839,-0.0,-0.0,-1.0,0.1085791268032704,1.0
37.28704833984375,-19.048385620117188,0.6179060935974121,-0.0,-0.0,-1.0,0.0290373370768533,2.0
37.02230072021485,-18.93183326721191,0.6284231543540955,0.7673626853618056,-0.5601325774671719,0.312099350807241,0.202153648799059,3.0
36.79096603393555,-18.94021987915039,0.6340792775154114,-0.0,-0.0,-1.0,0.1986417025992511,1.0
36.27508163452149,-18.636096954345703,0.6562737226486206,-0.0,-0.0,-1.0,0.1807192297320921,2.0
36.75463104248047,-19.105077743530273,0.6298378109931946,-0.0,-0.0,-1.0,0.1705817886390835,1.0
36.58002471923828,-18.37802505493164,0.4961882829666137,-0.0,-0.0,-1.0,0.1252546385943171,1.0
37.239498138427734,-18.57312774658203,0.4756825566291809,-0.0,-0.0,-1.0,0.1424078678362389,1.0
37.181190490722656,-18.86910629272461,0.4772746562957763,-0.0,-0.0,-1.0,0.1944946024892239,1.0
37.61990737915039,-18.612621307373047,0.4639475345611572,-0.0,-0.0,-1.0,0.2023777056604613,1.0
36.7344856262207,-18.398761749267575,0.4507417678833008,-0.0,-0.0,-1.0,0.1333109612121075,2.0
36.648956298828125,-18.51978302001953,0.4674866199493408,-0.0,-0.0,-1.0,0.183288351811503,2.0
37.05107879638672,-18.618247985839844,0.4263296127319336,-0.0,-0.0,-1.0,0.152992459511163,1.0
37.31560897827149,-18.619903564453125,0.3957812786102295,-0.0,-0.0,-1.0,0.1103100780918638,2.0
37.7054443359375,-18.671329498291016,0.3535957336425781,-0.0,-0.0,-1.0,0.1113957098022215,1.0
36.88478088378906,-18.485366821289062,0.3281785845756531,-0.0,-0.0,-1.0,0.0746997972130888,1.0
37.475341796875,-18.730003356933594,0.2732988595962524,-0.0,-0.0,-1.0,0.1325893540312137,1.0
36.53814697265625,-18.627300262451172,0.6337316036224365,0.4106698169555268,0.2748424299934231,-0.8693744533381601,0.2764389602471192,8.0
37.03696060180664,-18.92403793334961,0.6063691973686218,-0.5386994449512856,-0.3577150419042447,-0.7627862458150522,0.2376996451550649,4.0
37.14309310913086,-18.846290588378903,0.5967018604278564,0.6739272571192739,0.7263685139986642,-0.134947523071245,0.094787280539836,5.0
35.79273986816406,-20.14697265625,0.3025110363960266,-0.0,-0.0,-1.0,0.021575689057447,2.0
35.81211853027344,-20.318431854248047,0.3732225298881531,-0.0,-0.0,-1.0,0.0159293447314552,2.0
36.75179290771485,-18.478099822998047,0.2731297016143799,-0.0,-0.0,-1.0,0.1191763741338766,1.0
37.45588684082031,-18.704254150390625,0.220912218093872,-0.0,-0.0,-1.0,0.1337229067323416,1.0
37.68627166748047,-18.72840881347656,0.2030640840530395,-0.0,-0.0,-1.0,0.1417958008753728,1.0
37.15055084228515,-20.14438247680664,0.6301152110099792,-0.0,-0.0,-1.0,0.0798825080350355,2.0
36.51080322265625,-18.53649139404297,0.6481081247329712,-0.0,-0.0,-1.0,0.2192412504959929,2.0
36.94669342041016,-18.854434967041016,0.6243154406547546,-0.0,-0.0,-1.0,0.1809202363506319,1.0
37.04623794555664,-19.034988403320312,0.6204891800880432,-0.0,-0.0,-1.0,0.2802818482209296,1.0
37.28998565673828,-18.885929107666016,0.6022923588752747,0.7681054193018886,-0.3979445924594161,-0.5016514389208692,0.0691743315835327,3.0
35.841552734375,-18.450923919677734,0.4664065241813659,-0.0,-0.0,-1.0,0.152631636478813,1.0
36.17603302001953,-18.6568603515625,0.4543051719665527,-0.0,-0.0,-1.0,0.1755921875402906,1.0
36.43572235107422,-18.707340240478516,0.4467486143112182,-0.0,-0.0,-1.0,0.1948774515748587,1.0
36.837310791015625,-19.03456115722656,0.4308115243911743,-0.0,-0.0,-1.0,0.2158724412444728,2.0
36.49410629272461,-18.60493850708008,0.4469684362411499,-0.0,-0.0,-1.0,0.2119141186120193,2.0
37.07164764404297,-18.910354614257812,0.4267963767051697,-0.0,-0.0,-1.0,0.210463001001953,2.0
37.49807357788086,-19.026309967041016,0.413690447807312,-0.0,-0.0,-1.0,0.1888390916122233,1.0
35.74707794189453,-19.673629760742188,0.2682082653045654,-0.0,-0.0,-1.0,0.0930977393179904,2.0
37.46599197387695,-18.44818115234375,0.2980618476867676,-0.0,-0.0,-1.0,0.2136764983288229,1.0
37.645057678222656,-18.68124008178711,0.1342958211898803,-0.0,-0.0,-1.0,0.1242436547109666,2.0
36.54562759399414,-18.603790283203125,0.6192063689231873,-0.2570353564065072,0.289825309146746,-0.9219187142774424,0.2614606674610614,10.0
37.12862777709961,-18.98400115966797,0.5887914299964905,0.7368071135443882,-0.6677000527445909,-0.1062634320698234,0.168499863422339,4.0
37.19408416748047,-20.054170608520508,0.5851244926452637,-0.0,-0.0,-1.0,0.1015004708487911,2.0
37.27132415771485,-18.89564323425293,0.5814246535301208,-0.0,-0.0,-1.0,0.0768025911350896,2.0
36.03950881958008,-20.23320579528809,0.2917013168334961,-0.0,-0.0,-1.0,0.0114769547482506,1.0
37.006893157958984,-18.503177642822266,0.21497642993927,-0.0,-0.0,-1.0,0.0728507907205937,1.0
36.83050537109375,-18.44370460510254,0.1561414003372192,-0.0,-0.0,-1.0,0.068895805175703,2.0
36.47726821899414,-18.60923194885254,0.6713038682937622,0.5998763864811378,0.7306503617207074,-0.3260343077955627,0.2124607157889635,3.0
36.58546829223633,-18.641094207763672,0.6629354953765869,-0.2168894711158957,0.9761958821104968,0.0007463709375621,0.2256408612302142,3.0
36.9403076171875,-19.019113540649418,0.6295486688613892,-0.0,-0.0,-1.0,0.1801955322370988,1.0
37.205177307128906,-18.95038604736328,0.6121904850006104,-0.8570426496903397,0.106228079766066,-0.5041760522684271,0.042686129181853,3.0
37.647850036621094,-18.927343368530273,0.5811135768890381,-0.0,-0.0,-1.0,0.1316382330640941,2.0
36.399925231933594,-18.403715133666992,0.3530253171920776,-0.0,-0.0,-1.0,0.1143026821576181,2.0
36.961910247802734,-18.48796844482422,0.2824989557266235,-0.0,-0.0,-1.0,0.0615046400088778,1.0
36.204566955566406,-18.45209312438965,0.5929648876190186,-0.0,-0.0,-1.0,0.1184226847691942,1.0
36.47966003417969,-18.608402252197266,0.5660552978515625,-0.0,-0.0,-1.0,0.2229541094420239,2.0
36.71569061279297,-18.65394592285156,0.5451341867446899,-0.0,-0.0,-1.0,0.1744548204086155,1.0
36.933963775634766,-18.853496551513672,0.5218288898468018,0.1238187714990729,0.9105336263421234,-0.3944583972039676,0.1536044054934041,3.0
37.20027923583984,-18.751514434814453,0.5018832683563232,-0.0523891608586811,0.4392154971510361,-0.8968528992465216,0.0859226394296473,4.0
37.58297348022461,-18.765380859375,0.4690337181091308,0.0671084313459948,-0.4067263400354379,-0.911081852943882,0.1302923122361854,3.0
36.464942932128906,-18.560306549072266,0.6469305753707886,-0.0,-0.0,-1.0,0.2064461881733031,2.0
36.56100082397461,-18.586557388305664,0.6395878791809082,0.0219468474483713,0.0099676712223578,-0.9997094484986532,0.222973541830977,8.0
37.081809997558594,-18.99924659729004,0.589340329170227,0.0904607249532427,0.9171407843351486,-0.3881618720972502,0.2212165399074898,4.0
37.065616607666016,-20.13469123840332,0.5464949607849121,-0.0,-0.0,-1.0,0.0544332123790342,2.0
37.17761993408203,-18.87302017211914,0.5877549648284912,-0.4613053968194813,-0.8081940306910971,-0.3660870656285183,0.0878087261214207,6.0
37.4041748046875,-18.90386009216309,0.5714271068572998,-0.0,-0.0,-1.0,0.0753734572307071,1.0
37.67316055297851,-18.88171005249023,0.5541410446166992,-0.0,-0.0,-1.0,0.1284783838840673,1.0
36.285396575927734,-18.964107513427734,0.6256345510482788,-0.0,-0.0,-1.0,0.1617498691848148,1.0
36.6671142578125,-18.537582397460938,0.6149942874908447,-0.7462984423607005,-0.1348014868216681,-0.6518183750713533,0.1323176112423604,3.0
37.15475845336914,-18.83900260925293,0.5678653717041016,0.417323655308327,-0.1769282881066467,-0.8913682446597189,0.1064189112518949,7.0
37.19767379760742,-20.01439666748047,0.5187883377075195,-0.0,-0.0,-1.0,0.0730908751889684,2.0
37.481204986572266,-18.763694763183594,0.5467932224273682,-0.0,-0.0,-1.0,0.108150692899006,2.0
35.76454162597656,-19.241899490356445,0.1995116472244262,-0.0,-0.0,-1.0,0.128238548837915,2.0
35.839317321777344,-19.56589698791504,0.1706655025482177,-0.0,-0.0,-1.0,0.1258788673744842,2.0
36.63338470458984,-18.50411605834961,0.7158733606338501,-0.0,-0.0,-1.0,0.1532892530190272,1.0
36.87554931640625,-18.37025260925293,0.7051447629928589,-0.0,-0.0,-1.0,0.1191580926469247,1.0
37.34449768066406,-19.862306594848633,0.6154310703277588,-0.0,-0.0,-1.0,0.0708733487385222,1.0
37.4278678894043,-19.77844619750977,0.6133991479873657,-0.0,-0.0,-1.0,0.0389593404388657,1.0
35.87135696411133,-20.267087936401367,0.3516844511032104,0.2690803381733732,0.0696927618653027,-0.96059288491644,0.0159293447314553,3.0
36.355674743652344,-19.780597686767575,0.3387361764907837,-0.0,-0.0,-1.0,0.1078902197805382,1.0
36.3675422668457,-20.204833984375,0.3143534660339355,-0.0,-0.0,-1.0,0.0906554035569197,1.0
37.22246170043945,-18.584135055541992,0.3284128904342651,-0.0,-0.0,-1.0,0.1076973049264338,1.0
37.62015151977539,-18.719865798950195,0.2868378162384033,0.0478492980115975,-0.9837159611072488,-0.1732436219392734,0.0769013673716907,4.0
35.88626480102539,-19.346824645996097,0.4016746282577514,-0.3513287461991959,0.3971451940776168,-0.8478465703859116,0.1248976484551767,4.0
36.41705322265625,-18.36453437805176,0.4094247817993164,-0.0,-0.0,-1.0,0.1356719520047628,2.0
35.91363525390625,-19.451221466064453,0.393654465675354,-0.0,-0.0,-1.0,0.281938052036689,1.0
36.832862854003906,-18.40898704528809,0.3712329864501953,-0.0,-0.0,-1.0,0.0945111274889187,1.0
35.81231689453125,-19.30815315246582,0.2345669269561767,-0.0,-0.0,-1.0,0.1884178806075726,1.0
35.74985885620117,-19.63148307800293,0.2490730285644531,-0.0,-0.0,-1.0,0.1144726317075433,2.0
35.884742736816406,-18.82973861694336,0.2150325775146484,-0.0,-0.0,-1.0,0.2094922707963812,1.0
35.91358184814453,-19.05706787109375,0.212902545928955,-0.0,-0.0,-1.0,0.0887838674551385,2.0
37.105010986328125,-19.042329788208008,0.5351254940032959,0.5127973712145721,0.2628920596515277,-0.8172677780553947,0.0939636521309229,4.0
37.454803466796875,-19.347431182861328,0.4889817237854004,-0.0,-0.0,-1.0,0.1161584699180935,1.0
35.80998229980469,-18.76434326171875,0.1246571540832519,-0.0,-0.0,-1.0,0.1581975632507487,2.0
36.06589126586914,-18.912635803222656,0.5754289627075195,-0.0,-0.0,-1.0,0.1470752804843498,1.0
36.11832427978515,-18.579700469970703,0.5503652095794678,-0.0,-0.0,-1.0,0.2060156760850602,1.0
36.748497009277344,-19.89270782470703,0.5140364170074463,-0.0,-0.0,-1.0,0.0886845470615816,2.0
37.140403747558594,-20.0834903717041,0.4610762596130371,-0.0,-0.0,-1.0,0.1141296734772723,1.0
36.73637008666992,-18.729381561279297,0.4605615139007568,-0.0,-0.0,-1.0,0.1641019276152041,2.0
36.997901916503906,-19.062898635864254,0.4360570907592773,-0.0,-0.0,-1.0,0.1335622154542012,1.0
37.11835479736328,-18.88440322875977,0.4082076549530029,-0.0,-0.0,-1.0,0.1535472838378028,1.0
37.47188949584961,-19.415363311767575,0.3785915374755859,-0.0,-0.0,-1.0,0.1261765494228649,1.0
37.5020751953125,-19.55755043029785,0.3805842399597168,-0.0,-0.0,-1.0,0.1172650712577473,2.0
35.873409271240234,-19.280948638916016,0.2068490982055664,-0.0,-0.0,-1.0,0.1601175582477758,1.0
35.87646484375,-19.565113067626953,0.2194635868072509,-0.0,-0.0,-1.0,0.1600623267394821,1.0
35.949684143066406,-18.97416305541992,0.1766479015350341,-0.0,-0.0,-1.0,0.1972947484048941,1.0
37.17668151855469,-20.03152847290039,0.5167920589447021,-0.0,-0.0,-1.0,0.0650073267339055,2.0
36.015132904052734,-18.38624382019043,0.6089370250701904,-0.0,-0.0,-1.0,0.0976799690866905,1.0
36.279808044433594,-18.88799285888672,0.596975564956665,-0.0,-0.0,-1.0,0.1552908492263543,1.0
36.53711700439453,-18.60503387451172,0.5397660732269287,-0.0,-0.0,-1.0,0.2375210899516086,1.0
36.88418960571289,-18.692516326904297,0.490213394165039,-0.0,-0.0,-1.0,0.237041961155326,1.0
37.07286834716797,-18.991369247436523,0.4779016971588135,-0.0,-0.0,-1.0,0.1335830798096724,1.0
37.463829040527344,-19.328292846679688,0.4353084564208984,-0.0,-0.0,-1.0,0.1234717372655175,1.0
36.43169403076172,-19.7300968170166,0.3726410865783691,-0.0,-0.0,-1.0,0.1213910026237431,1.0
36.858917236328125,-19.955116271972656,0.3055577278137207,-0.0,-0.0,-1.0,0.128353133766831,1.0
36.211612701416016,-19.20047187805176,0.3878517150878906,-0.0,-0.0,-1.0,0.1595889680346465,1.0
36.72489929199219,-19.5740909576416,0.3129720687866211,-0.0,-0.0,-1.0,0.1055100558583308,2.0
37.19708251953125,-19.71784782409668,0.2345445156097412,0.7439570090917001,-0.6277611517431648,-0.2290063426751038,0.0349732702973085,3.0
37.234832763671875,-19.933176040649418,0.2371900081634521,-0.0,-0.0,-1.0,0.1274854078795389,1.0
35.8675537109375,-18.59412384033203,0.41839599609375,-0.0,-0.0,-1.0,0.1782623926049807,2.0
36.07466506958008,-18.849966049194336,0.3947794437408447,-0.0,-0.0,-1.0,0.2454264778352184,1.0
36.545440673828125,-18.814468383789062,0.3075892925262451,-0.0,-0.0,-1.0,0.1674096007119768,1.0
36.80511093139648,-19.235389709472656,0.2822437286376953,-0.0,-0.0,-1.0,0.1429619161143268,2.0
36.984676361083984,-19.48348617553711,0.2620024681091308,-0.0,-0.0,-1.0,0.0480009150847717,1.0
36.441741943359375,-18.634843826293945,0.3165175914764404,-0.0,-0.0,-1.0,0.2214418626253781,1.0
36.45271301269531,-18.68544006347656,0.3173456192016601,-0.0,-0.0,-1.0,0.2009440475415821,1.0
35.93841552734375,-18.371328353881836,0.8543516397476196,-0.0,-0.0,-1.0,0.1108718849406373,1.0
35.718048095703125,-19.228696823120117,0.1959846019744873,-0.0,-0.0,-1.0,0.0984804346964461,2.0
35.71805953979492,-18.785541534423828,0.1778178215026855,-0.0,-0.0,-1.0,0.1319150815802316,1.0
36.72377014160156,-19.925912857055664,0.5008687973022461,-0.0,-0.0,-1.0,0.0919638386174521,2.0
37.10416412353515,-20.151527404785156,0.4443809986114502,-0.0,-0.0,-1.0,0.0505501799329806,1.0
36.6352424621582,-19.53021240234375,0.50063157081604,-0.0,-0.0,-1.0,0.1251686655142286,1.0
37.46979522705078,-19.57454490661621,0.3599634170532226,-0.0,-0.0,-1.0,0.1172650712577473,2.0
36.25152587890625,-18.9638671875,0.5414690971374512,-0.0,-0.0,-1.0,0.1432020111229888,1.0
36.9328498840332,-19.10186767578125,0.4309868812561035,-0.0,-0.0,-1.0,0.1541459885329027,1.0
37.415626525878906,-19.415992736816406,0.3624312877655029,-0.0,-0.0,-1.0,0.1072196339444857,1.0
36.36290740966797,-18.616010665893555,0.5052525997161865,-0.0,-0.0,-1.0,0.2666560121607226,1.0
36.668670654296875,-18.80841064453125,0.4623377323150635,-0.0,-0.0,-1.0,0.1435367452139576,1.0
37.09212875366211,-18.92951011657715,0.3954992294311523,-0.0,-0.0,-1.0,0.2003718426460756,2.0
37.17457580566406,-20.13139915466309,0.3548529148101806,-0.0,-0.0,-1.0,0.165197756299663,1.0
37.63066482543945,-19.989604949951172,0.267519474029541,-0.0,-0.0,-1.0,0.1792100318132165,1.0
37.287940979003906,-19.62348175048828,0.3210186958312988,-0.0,-0.0,-1.0,0.0713101438117271,1.0
36.98199462890625,-19.175064086914062,0.3639698028564453,-0.0,-0.0,-1.0,0.1549022075196632,2.0
37.19034957885742,-19.375030517578125,0.3318047523498535,-0.0,-0.0,-1.0,0.0712700620600394,1.0
35.806297302246094,-18.79465103149414,0.1554620265960693,0.3046868352662578,-0.6969103391768507,-0.6492163826982799,0.1577556250666422,3.0
36.572662353515625,-19.970474243164062,0.4619693756103515,-0.0,-0.0,-1.0,0.1097894660734816,1.0
36.52196502685547,-19.477075576782227,0.4587805271148681,-0.0,-0.0,-1.0,0.1077040908080844,1.0
35.88908004760742,-18.947851181030273,0.5597982406616211,-0.0,-0.0,-1.0,0.1424499321224174,1.0
36.66680908203125,-19.000871658325195,0.4168260097503662,-0.0,-0.0,-1.0,0.1449668293601707,1.0
36.80168151855469,-19.12975311279297,0.3961181640625,-0.0,-0.0,-1.0,0.3055619485502049,1.0
35.876155853271484,-18.579532623291016,0.5487959384918213,-0.0,-0.0,-1.0,0.1361447593327862,1.0
36.312522888183594,-18.69625663757324,0.4717981815338135,-0.0,-0.0,-1.0,0.2032693518672999,1.0
36.56655502319336,-18.793874740600582,0.4280672073364258,-0.0,-0.0,-1.0,0.1228381005068155,1.0
35.87567138671875,-18.899188995361328,0.0817387104034423,0.2549082226606556,-0.9494242605511848,0.183344952198913,0.186878630559747,3.0
36.82465362548828,-20.137943267822266,0.2737376689910888,-0.0,-0.0,-1.0,0.1433345060069406,1.0
36.94330978393555,-20.298940658569336,0.2486774921417236,-0.0,-0.0,-1.0,0.2228575104729024,1.0
36.45637893676758,-19.83876609802246,0.3504495620727539,-0.0,-0.0,-1.0,0.1127206781231825,2.0
36.84490966796875,-19.837207794189453,0.2683377265930176,-0.0,-0.0,-1.0,0.0725330165425142,1.0
37.06262969970703,-19.890758514404297,0.222689151763916,-0.0,-0.0,-1.0,0.0765468156500507,1.0
36.298133850097656,-19.220970153808594,0.3782670497894287,-0.0,-0.0,-1.0,0.1677650176180998,1.0
36.79792785644531,-19.4779052734375,0.2752125263214111,-0.0,-0.0,-1.0,0.1049016474052368,1.0
35.7376708984375,-18.951969146728516,0.3065638542175293,-0.0,-0.0,-1.0,0.1353068861155453,1.0
36.038108825683594,-18.92633056640625,0.4288825988769531,-0.0,-0.0,-1.0,0.2150273764546518,1.0
36.57853698730469,-18.934539794921875,0.3133962154388428,-0.0,-0.0,-1.0,0.1110746604113813,1.0
36.76325225830078,-19.129234313964844,0.2775523662567138,-0.0,-0.0,-1.0,0.1544336504387801,1.0
36.27688980102539,-18.680892944335938,0.3725507259368896,-0.0,-0.0,-1.0,0.1751030614255068,1.0
36.45869445800781,-18.741716384887695,0.3349957466125488,-0.0,-0.0,-1.0,0.2082407628667336,2.0
37.19089126586914,-20.04006576538086,0.6265032291412354,0.8028497956506222,0.5331931055702702,-0.2667157996746445,0.1077398374099965,4.0
37.24710464477539,-19.31357765197754,0.6046304702758789,-0.0,-0.0,-1.0,0.0558772696862716,1.0
37.451881408691406,-19.41465759277344,0.5704214572906494,-0.2917962466132096,-0.0591996412856759,-0.9546467162956624,0.1156352478559997,3.0
37.12184143066406,-19.02470016479492,0.6201677322387695,-0.0,-0.0,-1.0,0.1362854847489379,1.0
36.59807205200195,-18.638324737548828,0.7032334804534912,-0.5222872029812083,0.846256659393201,0.1051938402888959,0.2078518353011048,3.0
35.84371566772461,-18.906721115112305,0.0871634483337402,0.2549082226606556,-0.9494242605511848,0.183344952198913,0.1773123965909849,3.0
36.55450439453125,-20.17608642578125,0.2767715454101562,-0.0,-0.0,-1.0,0.1126318432171032,1.0
37.124298095703125,-20.102989196777344,0.5336716175079346,-0.0,-0.0,-1.0,0.1123463713749805,1.0
36.37431335449219,-19.706090927124023,0.3175497055053711,-0.0,-0.0,-1.0,0.0794568185670081,1.0
36.555267333984375,-19.802709579467773,0.2746419906616211,-0.0,-0.0,-1.0,0.1047080264363003,1.0
36.10701751708984,-19.295969009399418,0.3768367767333984,-0.0,-0.0,-1.0,0.1661994227617583,1.0
36.25569915771485,-19.23187255859375,0.3392174243927002,-0.0,-0.0,-1.0,0.1623951498062066,1.0
36.60227966308594,-19.507360458374023,0.2596025466918945,-0.0,-0.0,-1.0,0.0910439326488329,1.0
37.26472854614258,-19.304920196533203,0.4871835708618164,-0.0,-0.0,-1.0,0.08805079878441,1.0
37.43873977661133,-19.434499740600582,0.4544844627380371,-0.0,-0.0,-1.0,0.1292549403915932,1.0
35.984195709228516,-18.86600685119629,0.3969817161560058,-0.0,-0.0,-1.0,0.2190124660023881,2.0
36.27491760253906,-18.942459106445312,0.327463150024414,-0.0,-0.0,-1.0,0.210034930047203,1.0
36.60672378540039,-19.0428409576416,0.2485649585723877,-0.0,-0.0,-1.0,0.0761834967853135,1.0
37.06940460205078,-19.029701232910156,0.5194287300109863,0.5127973712145721,0.2628920596515277,-0.8172677780553947,0.1861857420647889,4.0
35.920814514160156,-18.59320831298828,0.4041516780853271,-0.0,-0.0,-1.0,0.183791614378114,1.0
36.46417999267578,-18.73977851867676,0.2749032974243164,-0.0,-0.0,-1.0,0.2204281511864663,2.0
36.922481536865234,-18.746902465820312,0.5403141975402832,-0.0,-0.0,-1.0,0.1614916547963631,2.0
37.10911178588867,-18.735387802124023,0.5005006790161133,-0.2997326980040452,-0.4538969383571908,-0.8391292386141628,0.1397594500858365,5.0
36.55816650390625,-18.642810821533203,0.6129965782165527,-0.2891980104219734,-0.7386879772918544,-0.6088551412055587,0.214323907719964,5.0
36.81078338623047,-18.480064392089844,0.5530622005462646,-0.0,-0.0,-1.0,0.1660022984200068,1.0
36.435523986816406,-20.03992080688477,0.23832368850708,-0.0,-0.0,-1.0,0.106936209068359,2.0
36.512657165527344,-19.914024353027344,0.2175993919372558,-0.0,-0.0,-1.0,0.1206742462076455,1.0
36.259029388427734,-20.175273895263672,0.2854697704315185,-0.0,-0.0,-1.0,0.0779623629478522,2.0
36.36685943603515,-20.14880752563477,0.2560479640960693,-0.0,-0.0,-1.0,0.0931275665519255,2.0
37.03976058959961,-20.146011352539062,0.4271981716156006,-0.0,-0.0,-1.0,0.0624655652767024,1.0
37.20037460327149,-20.3370304107666,0.3891286849975586,-0.0,-0.0,-1.0,0.1349746057266841,1.0
36.35791778564453,-19.571149826049805,0.2602005004882812,-0.0,-0.0,-1.0,0.0729433961746261,1.0
36.5644416809082,-19.805158615112305,0.3743915557861328,-0.0,-0.0,-1.0,0.1138495472933286,1.0
37.42673873901367,-19.866275787353516,0.3309762477874756,-0.0,-0.0,-1.0,0.1821994968517639,1.0
35.96319580078125,-19.32158660888672,0.3687987327575683,-0.0,-0.0,-1.0,0.2088989584585634,2.0
36.22125244140625,-19.3176212310791,0.2960348129272461,-0.0,-0.0,-1.0,0.1212761285756898,1.0
36.726993560791016,-19.525970458984375,0.4965367317199707,-0.0,-0.0,-1.0,0.112846445434324,1.0
37.05682373046875,-19.26669692993164,0.4103403091430664,-0.0,-0.0,-1.0,0.0744943845446871,2.0
37.387939453125,-19.50428771972656,0.3344583511352539,-0.0,-0.0,-1.0,0.0972723887976353,2.0
35.91572952270508,-18.912153244018555,0.3753702640533447,-0.0,-0.0,-1.0,0.2659006313791976,1.0
36.38568115234375,-18.833499908447266,0.4035751819610595,-0.0,-0.0,-1.0,0.2234446843149891,1.0
36.530147552490234,-18.90181350708008,0.3647699356079101,-0.0,-0.0,-1.0,0.1498909620382874,1.0
36.991119384765625,-19.01300811767578,0.4194035530090332,-0.0,-0.0,-1.0,0.1545347045424883,1.0
35.84870910644531,-18.612895965576172,0.38616943359375,-0.0,-0.0,-1.0,0.1220622698090678,2.0
36.45677185058594,-18.49707794189453,0.5332427024841309,-0.1040326985640392,-0.7445420393036577,-0.6594197065140188,0.18379163421316,8.0
36.6140251159668,-18.548778533935547,0.496131420135498,-0.0,-0.0,-1.0,0.2294212838837959,2.0
37.10367202758789,-18.807741165161133,0.3848550319671631,-0.0,-0.0,-1.0,0.1323180750686924,1.0
36.849361419677734,-18.94266891479492,0.787739634513855,-0.0,-0.0,-1.0,0.1189587430108114,1.0
36.692047119140625,-19.94017791748047,0.4623756408691406,-0.0,-0.0,-1.0,0.1120528684033236,1.0
37.06908416748047,-20.169166564941406,0.3548145294189453,-0.0,-0.0,-1.0,0.2274461957590592,1.0
37.2621955871582,-20.32532119750977,0.2990353107452392,-0.0,-0.0,-1.0,0.1532580490187391,1.0
36.66830062866211,-19.574153900146484,0.4702019691467285,-0.0,-0.0,-1.0,0.1036204026971692,1.0
37.37870407104492,-19.762771606445312,0.2695884704589844,-0.0,-0.0,-1.0,0.0841256625406612,1.0
36.96993637084961,-19.19847869873047,0.3807048797607422,-0.0,-0.0,-1.0,0.1549022075196632,2.0
37.28287887573242,-19.4299373626709,0.2946293354034424,-0.0,-0.0,-1.0,0.0751498921807459,1.0
36.69081497192383,-18.74424743652344,0.4503402709960937,-0.0,-0.0,-1.0,0.1229041900283345,2.0
37.037689208984375,-18.997299194335938,0.3571851253509521,-0.0,-0.0,-1.0,0.1221042616003912,1.0
37.60082244873047,-18.813379287719727,0.514784574508667,-0.0053972373672059,-0.936990246434298,-0.3493138243983411,0.0634900677257856,3.0
36.5030403137207,-18.39751243591309,0.4920361042022705,-0.0,-0.0,-1.0,0.131879096700605,2.0
36.68381881713867,-18.47382545471191,0.4428882598876953,-0.0,-0.0,-1.0,0.204442619088518,2.0
36.982303619384766,-18.584341049194336,0.3607921600341797,-0.0,-0.0,-1.0,0.0797304235927679,1.0
37.2188606262207,-20.07023048400879,0.6336297988891602,-0.0,-0.0,-1.0,0.1077398374099965,2.0
37.308563232421875,-19.233957290649418,0.6007070541381836,-0.0,-0.0,-1.0,0.0679085581615221,1.0
36.95759582519531,-18.93117332458496,0.6803208589553833,-0.0,-0.0,-1.0,0.1316761942100269,1.0
37.34999084472656,-18.966815948486328,0.5828781127929688,-0.0,-0.0,-1.0,0.0273753125414981,1.0
37.21247100830078,-20.09825897216797,0.5682802200317383,-0.0,-0.0,-1.0,0.139970297436205,2.0
37.32450485229492,-19.31282615661621,0.5337319374084473,-0.0,-0.0,-1.0,0.1290683708591957,1.0
37.52175521850586,-19.42544174194336,0.4779138565063476,-0.0,-0.0,-1.0,0.1322807725128502,2.0
37.1993522644043,-19.192310333251953,0.5681140422821045,-0.0,-0.0,-1.0,0.0609031444094938,1.0
37.19669723510742,-18.931684494018555,0.5623323917388916,-0.0,-0.0,-1.0,0.072683904712259,1.0
36.6900749206543,-18.579540252685547,0.7002291679382324,-0.0,-0.0,-1.0,0.1438180811800265,1.0
37.06281661987305,-18.53042984008789,0.5876998901367188,-0.0,-0.0,-1.0,0.1336034200841697,1.0
37.27021408081055,-18.711400985717773,0.533515214920044,-0.0,-0.0,-1.0,0.0754289924518514,2.0
36.1939697265625,-18.79546356201172,0.1183297634124755,-0.0,-0.0,-1.0,0.1389621621636268,1.0
37.02458190917969,-18.8746395111084,0.4984309673309326,-0.0,-0.0,-1.0,0.2514393426616671,2.0
37.00584411621094,-18.710954666137695,0.48879075050354,-0.0,-0.0,-1.0,0.1594819801659593,1.0
35.85554504394531,-18.464847564697266,0.1479928493499755,-0.0,-0.0,-1.0,0.2032063897578283,1.0
35.7647705078125,-18.438066482543945,0.1620509624481201,-0.0,-0.0,-1.0,0.176317798506542,1.0
37.35149765014648,-19.366466522216797,0.4806771278381347,-0.0,-0.0,-1.0,0.1121772465607908,1.0
37.060333251953125,-19.17253875732422,0.5148501396179199,-0.0,-0.0,-1.0,0.0874447881413579,2.0
35.828216552734375,-18.81726837158203,0.1900279521942138,-0.0,-0.0,-1.0,0.1615815068486785,2.0
36.07422637939453,-19.458820343017575,0.2055294513702392,-0.0,-0.0,-1.0,0.1477641168537514,2.0
35.86794662475586,-19.06758499145508,0.2078335285186767,-0.0,-0.0,-1.0,0.0779656265819838,2.0
36.30741882324219,-19.815242767333984,0.1915981769561767,-0.0,-0.0,-1.0,0.0603171465220022,1.0
36.08610916137695,-19.716955184936523,0.2266631126403808,-0.0,-0.0,-1.0,0.0262206423185524,1.0
36.447811126708984,-18.531713485717773,0.5636317729949951,-0.2838200532423243,-0.6533915373862578,-0.701801735712834,0.1964549137587033,4.0
36.16399383544922,-18.39575958251953,0.5969419479370117,-0.0,-0.0,-1.0,0.1619762833569994,1.0
35.81947326660156,-18.689056396484375,0.0601594448089599,-0.0,-0.0,-1.0,0.145099024926207,1.0
37.025447845458984,-18.62765121459961,0.3686985969543457,-0.0,-0.0,-1.0,0.1256393082747345,1.0
37.51871871948242,-19.512718200683594,0.3627002239227295,-0.0,-0.0,-1.0,0.1172650712577473,1.0
37.25098419189453,-19.322677612304688,0.3917484283447265,-0.0,-0.0,-1.0,0.0641258640748104,1.0
36.9597053527832,-18.865015029907227,0.4003431797027588,-0.0,-0.0,-1.0,0.2621380106814334,1.0
36.46846008300781,-18.63604736328125,0.4581758975982666,-0.0,-0.0,-1.0,0.1759983288364525,2.0
36.39787673950195,-18.4958553314209,0.4561183452606201,-0.0,-0.0,-1.0,0.1017015071817598,2.0
37.39764022827149,-19.509117126464844,0.3825323581695556,0.317098338533843,-0.9351506794424084,-0.1579298908930107,0.1188105482230779,3.0
37.00974655151367,-19.262948989868164,0.4263491630554199,-0.0,-0.0,-1.0,0.0943743098729982,2.0
36.90211486816406,-19.159038543701172,0.4351074695587158,-0.3588260683347414,-0.6995469676724624,-0.6179626952362854,0.2100973643599104,3.0
36.40320587158203,-18.758832931518555,0.4798967838287353,-0.0,-0.0,-1.0,0.1762950876165461,2.0
36.20500183105469,-18.469886779785156,0.483959436416626,-0.0,-0.0,-1.0,0.2141036025950543,2.0
36.9996337890625,-20.065608978271484,0.4914610385894775,-0.0,-0.0,-1.0,0.1169893419077093,1.0
36.19913864135742,-18.857200622558594,0.1454677581787109,-0.0,-0.0,-1.0,0.1575605176608322,1.0
35.85184860229492,-18.54348373413086,0.1775815486907959,-0.0,-0.0,-1.0,0.1531968130493369,1.0
36.2132453918457,-19.551023483276367,0.2067763805389404,-0.0,-0.0,-1.0,0.0581940753262898,2.0
36.04432678222656,-18.96702003479004,0.1845886707305908,-0.0,-0.0,-1.0,0.2131805258543325,1.0
35.805381774902344,-18.622730255126953,0.1941578388214111,-0.0,-0.0,-1.0,0.1272203161975689,1.0
36.42497253417969,-19.82706642150879,0.1899797916412353,-0.0,-0.0,-1.0,0.1179153767051909,1.0
36.122772216796875,-19.511510848999023,0.2203640937805175,-0.0,-0.0,-1.0,0.0860342366830994,1.0
37.474151611328125,-19.45235061645508,0.5089504718780518,-0.0,-0.0,-1.0,0.1333912604969251,2.0
37.22605514526367,-19.332143783569336,0.539665937423706,-0.0,-0.0,-1.0,0.0686862596722813,2.0
37.02340316772461,-19.031484603881836,0.5494046211242676,-0.0,-0.0,-1.0,0.2412545621524982,1.0
36.66718673706055,-18.76825904846191,0.5840466022491455,-0.0,-0.0,-1.0,0.1762020480046519,1.0
36.4935417175293,-18.597265243530273,0.5968029499053955,0.8829024476245875,0.1383435041122689,-0.4487140992307363,0.2109769736202241,3.0
37.12434768676758,-20.03886985778809,0.6028752326965332,-0.0,-0.0,-1.0,0.1123463713749805,1.0
35.765663146972656,-18.910531997680664,0.2304384708404541,-0.5705370686245159,-0.6284812906273718,-0.5286763855674825,0.1668783088288439,3.0
36.11106872558594,-19.80400848388672,0.2478559017181396,-0.0,-0.0,-1.0,0.0303482313912613,1.0
36.042945861816406,-19.467866897583008,0.2315015792846679,-0.0,-0.0,-1.0,0.1668371287687778,2.0
36.226375579833984,-18.96253967285156,0.1721048355102539,-0.0,-0.0,-1.0,0.1342665336411035,1.0
35.857872009277344,-18.610103607177734,0.1908628940582275,-0.0,-0.0,-1.0,0.1201341033248971,1.0
36.39703750610352,-20.02680206298828,0.2633669376373291,-0.0,-0.0,-1.0,0.1060798530136622,2.0
36.26842498779297,-19.73452377319336,0.2544376850128174,-0.0,-0.0,-1.0,0.0546798294623631,2.0
36.05036163330078,-19.2849063873291,0.2410850524902343,-0.0,-0.0,-1.0,0.1818121807489155,2.0
35.77942657470703,-18.93570327758789,0.2455084323883056,-0.5705370686245159,-0.6284812906273718,-0.5286763855674825,0.1614402639461934,3.0
37.323753356933594,-19.397809982299805,0.583604097366333,-0.0,-0.0,-1.0,0.1120958642714101,1.0
37.098838806152344,-19.17388343811035,0.593209981918335,-0.0,-0.0,-1.0,0.070827266095726,2.0
37.07112121582031,-18.847087860107425,0.5635073184967041,-0.0,-0.0,-1.0,0.1138792223043608,1.0
36.64801406860352,-18.485097885131836,0.583183765411377,0.2869789363571258,-0.8254485547411495,-0.48608412189978,0.1814553121462672,4.0
37.205230712890625,-19.98691177368164,0.6563694477081299,0.8285089279100002,-0.4107386362981444,-0.380613621702328,0.068627092151061,3.0
36.506927490234375,-18.616758346557617,0.617131233215332,0.6058530365972044,0.1856240926528248,-0.7736186361979406,0.2278824020990305,5.0
37.523162841796875,-20.022436141967773,0.226182222366333,-0.0,-0.0,-1.0,0.1773400014758873,2.0
37.16790771484375,-19.650487899780273,0.2592172622680664,-0.0,-0.0,-1.0,0.0320309540457899,1.0
37.12482452392578,-19.552465438842773,0.258636474609375,-0.0,-0.0,-1.0,0.0321055009996185,2.0
36.946434020996094,-18.943504333496097,0.2359771728515625,-0.0,-0.0,-1.0,0.1572445251768408,1.0
37.18277740478515,-19.74563789367676,0.264251708984375,0.7439570090917001,-0.6277611517431648,-0.2290063426751038,0.0907398063078553,3.0
36.875244140625,-19.430784225463867,0.2915043830871582,-0.0,-0.0,-1.0,0.104072391083965,1.0
36.69374084472656,-19.086545944213867,0.2921915054321289,-0.0,-0.0,-1.0,0.1358947811108904,2.0
36.439327239990234,-18.77110481262207,0.3057575225830078,-0.0,-0.0,-1.0,0.2266032879297805,2.0
36.37378692626953,-18.508766174316406,0.2909679412841797,-0.0,-0.0,-1.0,0.1641604414004162,2.0
36.96219253540039,-20.183773040771484,0.3367619514465332,-0.0,-0.0,-1.0,0.1930947015765211,1.0
35.97062301635742,-18.841293334960938,0.3919205665588379,-0.0,-0.0,-1.0,0.237544368630575,2.0
35.917327880859375,-18.51598739624023,0.3681018352508545,-0.0,-0.0,-1.0,0.1716412449136058,1.0
35.8477897644043,-18.408512115478516,0.3685355186462402,-0.0,-0.0,-1.0,0.1589593137444078,1.0
36.46257019042969,-20.092662811279297,0.4173591136932373,-0.0,-0.0,-1.0,0.0780774748259024,1.0
35.95021438598633,-18.575777053833008,0.1665496826171875,-0.0,-0.0,-1.0,0.2035921676869506,1.0
35.91338348388672,-19.858945846557617,0.2621734142303467,-0.0,-0.0,-1.0,0.0210026928403722,2.0
35.979984283447266,-19.290348052978516,0.2131118774414062,-0.0,-0.0,-1.0,0.1641563366693195,1.0
35.850624084472656,-18.922517776489254,0.2118358612060547,-0.0,-0.0,-1.0,0.2260844855764224,1.0
35.876731872558594,-18.67464256286621,0.1881966590881347,-0.0,-0.0,-1.0,0.1338166044243503,1.0
35.775543212890625,-20.034038543701172,0.2991237640380859,-0.0,-0.0,-1.0,0.0197016558127212,2.0
35.859336853027344,-19.919254302978516,0.2762174606323242,-0.0,-0.0,-1.0,0.0200701281233682,1.0
37.48600006103515,-19.490798950195312,0.5040929317474365,-0.0,-0.0,-1.0,0.1309508287607489,2.0
37.27410888671875,-19.346019744873047,0.529799222946167,-0.0,-0.0,-1.0,0.0995326624003025,2.0
37.08382797241211,-18.998517990112305,0.5398447513580322,0.7705029409248736,0.5499228946792755,-0.3223507839818092,0.2002129265562918,5.0
37.130130767822266,-18.734195709228516,0.5165371894836426,-0.3357409723863862,-0.6255461640047774,-0.7042513728491777,0.1371088710780969,6.0
37.1663932800293,-20.145933151245117,0.5872068405151367,0.92128506955202,-0.1764936428443718,0.3465311164326413,0.0798825080350356,3.0
36.57598114013672,-18.603469848632812,0.5945680141448975,-0.4944018023485688,0.2679421857840893,-0.8269061874915017,0.2100670608956941,4.0
36.609493255615234,-18.48636054992676,0.5815796852111816,0.0407165405538253,0.0267231779408072,-0.9988133134305291,0.1918186508440763,3.0
35.71685028076172,-19.99815559387207,0.3084900379180908,-0.0,-0.0,-1.0,0.0197016558127212,2.0
36.48453521728515,-18.72826385498047,0.1245248317718505,-0.0,-0.0,-1.0,0.1701460227212436,1.0
36.29737091064453,-19.94495964050293,0.232400894165039,-0.6573782159559044,0.0701430090627035,-0.7502891705644309,0.0861362932300888,3.0
36.22161102294922,-19.775400161743164,0.2386248111724853,0.2513767959072472,0.3718075431369061,-0.893626799814052,0.0627346740182038,3.0
36.203224182128906,-19.039342880249023,0.1993730068206787,-0.0,-0.0,-1.0,0.1207818317462487,1.0
36.131778717041016,-18.7882137298584,0.1964938640594482,-0.0,-0.0,-1.0,0.1957792881213123,1.0
35.99233627319336,-18.542144775390625,0.206235647201538,-0.0,-0.0,-1.0,0.1764373933270452,1.0
36.197025299072266,-20.0780086517334,0.2584924697875976,-0.0,-0.0,-1.0,0.060643226897673,2.0
36.12489700317383,-19.45964813232422,0.2401089668273925,-0.0,-0.0,-1.0,0.1253272767112292,1.0
36.044288635253906,-19.27016258239746,0.2445142269134521,-0.0,-0.0,-1.0,0.1737502128375512,2.0
35.862632751464844,-18.855247497558594,0.2529542446136474,-0.0,-0.0,-1.0,0.1692880045080407,1.0
35.716224670410156,-18.601118087768555,0.2634835243225097,-0.0,-0.0,-1.0,0.1147120039886083,1.0
35.83268737792969,-20.284828186035156,0.3395652770996094,0.3895256702972433,-0.241993410056709,-0.8886556935442482,0.0159293447314552,3.0
37.45265197753906,-19.47303771972656,0.5523033142089844,-0.0,-0.0,-1.0,0.1333912604969252,2.0
37.27420425415039,-18.83900260925293,0.5467298030853271,-0.0,-0.0,-1.0,0.1454738796488347,1.0
37.19398498535156,-19.304670333862305,0.5848917961120605,-0.0,-0.0,-1.0,0.0708169645560973,1.0
37.103309631347656,-19.0875244140625,0.5877118110656738,-0.0,-0.0,-1.0,0.1151252448979409,1.0
36.82087326049805,-18.515872955322266,0.5988290309906006,-0.0,-0.0,-1.0,0.1985423113695244,1.0
36.561988830566406,-18.59486961364746,0.6443943977355957,0.0219468474483713,0.0099676712223578,-0.9997094484986532,0.1896021919543852,8.0
37.54973983764648,-19.98929023742676,0.2134938240051269,-0.0,-0.0,-1.0,0.1794325451334387,2.0
37.36179733276367,-19.655254364013672,0.2454535961151123,-0.0,-0.0,-1.0,0.0502563346537924,1.0
37.190406799316406,-20.35750961303711,0.280289888381958,-0.0,-0.0,-1.0,0.2082351836507746,1.0
37.2816162109375,-19.818023681640625,0.2615752220153808,-0.0,-0.0,-1.0,0.1198286398905987,1.0
37.138221740722656,-19.530141830444336,0.2849247455596924,-0.0,-0.0,-1.0,0.0573086563716035,2.0
36.984619140625,-19.146556854248047,0.3071968555450439,-0.0,-0.0,-1.0,0.1464033260400724,1.0
36.92988204956055,-18.85950088500977,0.3115880489349365,-0.0,-0.0,-1.0,0.1896829723746294,2.0
36.616546630859375,-19.64548110961914,0.3818371295928955,-0.0,-0.0,-1.0,0.1392252434984437,1.0
36.82396697998047,-19.185556411743164,0.3373396396636963,-0.0,-0.0,-1.0,0.1578007404189665,1.0
36.47296905517578,-18.725000381469727,0.391658067703247,-0.0,-0.0,-1.0,0.1777205589658976,2.0
36.53965759277344,-20.056018829345703,0.3990743160247803,-0.0,-0.0,-1.0,0.1061445869994768,1.0
36.26621627807617,-18.77858543395996,0.4304733276367187,-0.0,-0.0,-1.0,0.1773641490628549,1.0
36.236305236816406,-18.450834274291992,0.4272050857543945,-0.0,-0.0,-1.0,0.1661481189599683,2.0
35.77149200439453,-19.00526428222656,0.5259029865264893,-0.0,-0.0,-1.0,0.1216587406796631,1.0
36.02470397949219,-18.632368087768555,0.4707367420196533,-0.0,-0.0,-1.0,0.1381399167514261,1.0
36.9164924621582,-19.043846130371097,0.1831493377685547,-0.0,-0.0,-1.0,0.1303071887654871,1.0
36.5334587097168,-19.131072998046875,0.2568321228027344,-0.0,-0.0,-1.0,0.0639251757467602,2.0
36.461708068847656,-18.85007667541504,0.2683448791503906,-0.0,-0.0,-1.0,0.2318354545801567,1.0
36.20496368408203,-20.327299118041992,0.3152074813842773,-0.0,-0.0,-1.0,0.0329017765114344,1.0
36.378028869628906,-20.132946014404297,0.2843317985534668,-0.0,-0.0,-1.0,0.1019163041668133,2.0
36.36943054199219,-19.62145614624023,0.289029598236084,-0.0,-0.0,-1.0,0.0779926531149177,1.0
36.26399993896485,-19.34847068786621,0.3091068267822265,-0.0,-0.0,-1.0,0.1277778281198476,1.0
36.23948287963867,-19.01064682006836,0.3121838569641113,-0.0,-0.0,-1.0,0.2020717299452171,1.0
36.0438232421875,-18.664316177368164,0.345947265625,-0.0,-0.0,-1.0,0.1888166784332316,1.0
35.8646125793457,-20.3574161529541,0.3796811103820801,-0.0,-0.0,-1.0,0.0159293447314552,2.0
35.94300842285156,-19.333532333374023,0.3703913688659668,-0.5116764994817281,0.857465227440391,-0.0542267794426692,0.2168985326906584,3.0
35.75994110107422,-18.60407829284668,0.3992419242858886,-0.0,-0.0,-1.0,0.1324589847328078,1.0
37.23539733886719,-19.955158233642575,0.6906514167785645,0.8144421641690239,-0.1421579301379897,-0.5625611825593364,0.058782871496683,3.0
36.72990417480469,-19.06267738342285,0.2028164863586425,-0.0,-0.0,-1.0,0.116588954193496,1.0
36.43500518798828,-19.889753341674805,0.2529962062835693,-0.0,-0.0,-1.0,0.1100087558010869,1.0
36.55118560791016,-19.108814239501953,0.2370901107788086,-0.0,-0.0,-1.0,0.0753117089746323,2.0
36.44535446166992,-18.714603424072266,0.2570581436157226,0.0826592095710866,-0.534436031920534,-0.8411572878232212,0.1944699118647579,3.0
36.26508331298828,-20.213632583618164,0.2803084850311279,-0.0,-0.0,-1.0,0.0779623629478522,2.0
36.37820816040039,-19.93731689453125,0.2631857395172119,-0.0,-0.0,-1.0,0.1030295397012823,1.0
36.29311752319336,-19.563888549804688,0.2840726375579834,-0.0,-0.0,-1.0,0.0893004418632235,1.0
36.15753173828125,-19.20353126525879,0.3123488426208496,-0.0,-0.0,-1.0,0.1105701565128013,1.0
35.8994255065918,-18.629608154296875,0.3616914749145508,-0.0,-0.0,-1.0,0.1557750610620458,1.0
35.851165771484375,-20.31953811645508,0.3571169376373291,-0.2076561269304045,-0.5377864103044023,-0.8171075264860609,0.0159293447314552,5.0
37.22425079345703,-19.96847915649414,0.6778802871704102,0.7290755690811173,0.0447144430545751,-0.6829710339036087,0.058782871496683,3.0
36.260250091552734,-18.479000091552734,0.8310446739196777,-0.0,-0.0,-1.0,0.1852438616516283,1.0
37.19096374511719,-19.9075984954834,0.2223896980285644,-0.0,-0.0,-1.0,0.0984349880174842,1.0
37.16743469238281,-19.752771377563477,0.2339634895324707,0.7439570090917001,-0.6277611517431648,-0.2290063426751038,0.0694859670216227,3.0
37.015419006347656,-18.992950439453125,0.2922167778015136,-0.0,-0.0,-1.0,0.1106181116308265,1.0
36.954933166503906,-19.575998306274418,0.2787463665008545,-0.0,-0.0,-1.0,0.0490085880144245,1.0
36.794708251953125,-19.24750709533691,0.3205180168151855,-0.549129719487218,-0.7421807503110167,-0.3842190586679226,0.1474941734647317,3.0
36.59007263183594,-18.83831024169922,0.3716938495635986,-0.0,-0.0,-1.0,0.1605861249674507,1.0
36.81022644042969,-20.259262084960938,0.2694449424743652,-0.0,-0.0,-1.0,0.1032596006664827,1.0
36.472164154052734,-19.810386657714844,0.3508725166320801,-0.0,-0.0,-1.0,0.1136672449190372,2.0
36.49309539794922,-18.827295303344727,0.3889157772064209,-0.0,-0.0,-1.0,0.1613301127413354,1.0
36.45781707763672,-18.713930130004883,0.3989801406860351,-0.0,-0.0,-1.0,0.2060324945208021,2.0
36.35675430297851,-19.84387588500977,0.3690419197082519,-0.0,-0.0,-1.0,0.11189615349987,1.0
36.32631301879883,-18.594331741333008,0.4257984161376953,-0.0,-0.0,-1.0,0.2556075673420254,1.0
36.3610725402832,-20.122936248779297,0.3537280559539795,-0.0,-0.0,-1.0,0.09136342262435,1.0
35.83452606201172,-18.92041015625,0.4999339580535888,-0.0,-0.0,-1.0,0.1396993179826008,1.0
35.85244369506836,-18.89780616760254,0.1211934089660644,0.2549082226606556,-0.9494242605511848,0.183344952198913,0.1773123965909848,3.0
37.11329650878906,-18.702821731567383,0.5087151527404785,-0.4321795535750988,-0.4546118540044013,-0.7788124906999816,0.1254910302512166,5.0
37.411231994628906,-19.62608528137207,0.4164073467254638,-0.0,-0.0,-1.0,0.166573768325139,1.0
37.016380310058594,-19.24641227722168,0.4961156845092773,-0.0,-0.0,-1.0,0.080329266942104,1.0
36.98274993896485,-18.95231819152832,0.5162458419799805,-0.0,-0.0,-1.0,0.1607224284902595,2.0
36.69793319702149,-18.534515380859375,0.5790739059448242,-0.0,-0.0,-1.0,0.230804540078519,2.0
36.33038330078125,-19.303823471069336,0.5955610275268555,-0.0,-0.0,-1.0,0.1050187824605572,1.0
36.7099609375,-19.07018661499023,0.2954590320587158,-0.0,-0.0,-1.0,0.1334726364515585,2.0
36.46659851074219,-18.80911445617676,0.3466641902923584,-0.0,-0.0,-1.0,0.2297866838480171,1.0
36.38768768310547,-19.183979034423828,0.339942455291748,-0.0,-0.0,-1.0,0.1449335237062692,1.0
36.2333984375,-18.9663028717041,0.3753716945648193,-0.0,-0.0,-1.0,0.2417087346310311,2.0
36.29216003417969,-19.902427673339844,0.2409427165985107,-0.0,-0.0,-1.0,0.0878184833138788,2.0
36.35811996459961,-18.58867454528809,0.5523016452789307,-0.0,-0.0,-1.0,0.1776682025014692,1.0
36.89411544799805,-18.84943962097168,0.5186853408813477,-0.0,-0.0,-1.0,0.2634901092741451,2.0
37.154048919677734,-18.742433547973633,0.5059683322906494,-0.178248430701717,-0.7043842912900792,-0.6870736984750241,0.1289521887374815,6.0
37.467288970947266,-18.764516830444336,0.4882230758666992,0.5192784310875347,-0.8399057194634542,-0.1578236148991839,0.1496040781680549,4.0
35.79471206665039,-20.25747299194336,0.3019249439239502,-0.0,-0.0,-1.0,0.0204617852701,1.0
36.89302444458008,-18.515623092651367,0.7229702472686768,-0.0,-0.0,-1.0,0.1697423654926111,1.0
35.75165557861328,-19.955081939697266,0.2099206447601318,-0.0,-0.0,-1.0,0.0184215322318899,1.0
35.88361358642578,-20.312814712524418,0.3518002033233642,-0.1527721429846662,-0.0434483572997042,-0.987305886023085,0.0159293447314553,3.0
36.838478088378906,-18.369966506958008,0.2649080753326416,-0.0,-0.0,-1.0,0.0778001311049694,1.0
37.07417678833008,-18.481626510620117,0.241321325302124,-0.0,-0.0,-1.0,0.0549117402890769,1.0
37.32359313964844,-18.598237991333008,0.2163584232330322,-0.0,-0.0,-1.0,0.1815082392877792,1.0
37.6356201171875,-18.669408798217773,0.1853551864624023,-0.0,-0.0,-1.0,0.1279495787825158,2.0
35.77320861816406,-20.05019760131836,0.2612063884735107,-0.0,-0.0,-1.0,0.0197016558127212,2.0
36.95720672607422,-18.474300384521484,0.2092912197113037,-0.0,-0.0,-1.0,0.056811727153254,1.0
37.5858039855957,-18.644866943359375,0.1592462062835693,-0.0,-0.0,-1.0,0.1255956800237505,1.0
36.57786178588867,-18.642776489257812,0.6528398990631104,0.4264332045346046,0.8696735351028949,-0.2486416385322096,0.2180635486617818,4.0
37.019989013671875,-18.94072723388672,0.6181447505950928,-0.5386994449512856,-0.3577150419042447,-0.7627862458150522,0.2082114895246136,4.0
37.30424880981445,-18.85379409790039,0.598639726638794,-0.0,-0.0,-1.0,0.0774199952166479,2.0
37.70533752441406,-18.837974548339844,0.5698916912078857,-0.0,-0.0,-1.0,0.0814254985380116,1.0
36.56494140625,-18.502365112304688,0.5793353319168091,-0.0,-0.0,-1.0,0.1911566246460613,2.0
36.53271484375,-18.70505142211914,0.578680157661438,-0.0,-0.0,-1.0,0.2091163368513826,1.0
36.69922637939453,-18.468719482421875,0.5705533027648926,-0.0,-0.0,-1.0,0.2277523674525892,2.0
37.31271743774414,-18.627246856689453,0.5259585380554199,-0.0,-0.0,-1.0,0.1507769071555303,1.0
37.15150833129883,-18.76844787597656,0.5351095199584961,-0.4849100955252238,-0.6309946512066864,-0.6055641579603857,0.0939346063164377,3.0
37.604148864746094,-18.683429718017575,0.5050134658813477,-0.0,-0.0,-1.0,0.1886122550294707,1.0
36.00081253051758,-19.154624938964844,0.2804667949676513,-0.0,-0.0,-1.0,0.0764158035139912,1.0
35.865962982177734,-19.219650268554688,0.2931368350982666,-0.0,-0.0,-1.0,0.1169692522857855,1.0
36.25917434692383,-19.80186462402344,0.23818039894104,-0.0,-0.0,-1.0,0.0592293731430206,2.0
36.29558944702149,-19.987754821777344,0.2299609184265136,-0.0,-0.0,-1.0,0.080547667843913,2.0
35.84648132324219,-18.974462509155273,0.203714370727539,-0.0,-0.0,-1.0,0.1555055306433475,1.0
35.849273681640625,-19.362892150878903,0.1966323852539062,-0.0,-0.0,-1.0,0.2316028076262842,1.0
35.818912506103516,-19.57721710205078,0.19614839553833,-0.0,-0.0,-1.0,0.1576884275617395,2.0
37.0533447265625,-19.17583465576172,-0.0256729125976562,-0.0,-0.0,-1.0,0.128924215062237,1.0
36.5726203918457,-18.429290771484375,0.0472373962402343,-0.0,-0.0,-1.0,0.117516719174877,1.0
35.89329147338867,-19.3939151763916,0.1711902618408203,-0.0,-0.0,-1.0,0.2214475171584937,1.0
35.95527267456055,-18.887487411499023,0.1971745491027832,-0.0,-0.0,-1.0,0.1957125030468746,1.0
36.37492370605469,-20.081756591796875,0.2400531768798828,-0.0,-0.0,-1.0,0.1017474831331185,1.0
36.92830276489258,-18.448650360107425,0.334414005279541,-0.0,-0.0,-1.0,0.0667796756227581,1.0
37.26401901245117,-18.51078414916992,0.2930660247802734,-0.0,-0.0,-1.0,0.1873046576639495,1.0
35.91471481323242,-19.87026023864746,0.2570066452026367,-0.0,-0.0,-1.0,0.020223244402041,2.0
36.25452423095703,-19.755096435546875,0.2563309669494629,0.6264516817183883,-0.4798186030214644,-0.6142738791994442,0.0580039207872119,3.0
37.11019515991211,-18.58200454711914,0.3915390968322754,-0.0,-0.0,-1.0,0.0954864119475256,2.0
37.50529479980469,-18.609357833862305,0.3650012016296386,-0.0,-0.0,-1.0,0.1943763724279241,1.0
36.5219841003418,-18.36537742614746,0.4583001136779785,-0.0,-0.0,-1.0,0.1367653454600411,2.0
37.1140022277832,-20.269760131835938,0.352506160736084,-0.0,-0.0,-1.0,0.2082351836507746,1.0
36.486183166503906,-19.990501403808594,0.4280128479003906,-0.0,-0.0,-1.0,0.0743880704655279,1.0
37.15090560913086,-18.79014587402344,0.5964879989624023,-0.0,-0.0,-1.0,0.0868246574302589,1.0
37.48670959472656,-18.7767333984375,0.5826702117919922,-0.0,-0.0,-1.0,0.0950648498097233,2.0
36.484317779541016,-18.49518585205078,0.6769237518310547,-0.0,-0.0,-1.0,0.2484063428185159,1.0
36.19279479980469,-19.963478088378903,0.2880506515502929,-0.0,-0.0,-1.0,0.0556421518687538,1.0
35.869224548339844,-19.323596954345703,0.4127225875854492,-0.0,-0.0,-1.0,0.1248976484551767,2.0
36.38520050048828,-18.798255920410156,0.4742646217346191,-0.0,-0.0,-1.0,0.2141343821213169,2.0
36.988521575927734,-18.63819122314453,0.4689040184020996,-0.0,-0.0,-1.0,0.150980743128128,1.0
37.37651062011719,-18.68402099609375,0.4404149055480957,-0.0,-0.0,-1.0,0.1253547776140009,2.0
37.63887023925781,-18.715354919433594,0.4210038185119629,-0.0,-0.0,-1.0,0.1561400280977447,2.0
36.47724151611328,-18.47372055053711,0.5235934257507324,-0.06809606000511,-0.0617954121460301,-0.9957631513816338,0.1539576403045998,6.0
37.624778747558594,-18.785568237304688,0.2009186744689941,-0.0,-0.0,-1.0,0.1082211905899854,1.0
35.76987075805664,-19.74327087402344,0.2460484504699707,-0.0,-0.0,-1.0,0.0758631313375262,1.0
36.19847869873047,-18.46186065673828,0.3976035118103027,-0.0,-0.0,-1.0,0.1813459577316816,2.0
36.559043884277344,-18.51265335083008,0.3527684211730957,-0.0,-0.0,-1.0,0.2176877526775821,2.0
36.889644622802734,-18.616924285888672,0.3029546737670898,-0.0,-0.0,-1.0,0.2106940701337187,1.0
