x,y,z,nx,ny,nz,curvature,density,label
35.06050109863281,6.0086212158203125,-1.2735717296600342,-0.0,-0.0,-1.0,0.0461953158033587,1.0,0.0
33.11150360107422,5.861280918121338,-0.8952064514160156,-0.0,-0.0,-1.0,0.1215831174830603,2.0,0.0
34.496829986572266,5.903906345367432,-0.7337789535522461,-0.0,-0.0,-1.0,0.2205908391209482,1.0,0.0
33.7947998046875,7.733098030090332,-1.2690083980560305,-0.0,-0.0,-1.0,0.0421362329467399,1.0,0.0
33.966209411621094,7.619279384613037,-1.2481787204742432,-0.0,-0.0,-1.0,0.0766223786879842,1.0,0.0
33.787532806396484,7.319389343261719,-1.2854931354522705,-0.0,-0.0,-1.0,0.1502504719563585,1.0,0.0
34.696624755859375,7.893075942993164,-1.1318936347961426,-0.0,-0.0,-1.0,0.2708215371857274,2.0,0.0
34.75363540649414,7.734245777130127,-1.1294605731964111,-0.0,-0.0,-1.0,0.133948381754717,1.0,0.0
33.976905822753906,6.92792272567749,-1.274158239364624,-0.0,-0.0,-1.0,0.0675139361231203,2.0,0.0
33.99410629272461,6.750967979431152,-1.2794013023376465,-0.0,-0.0,-1.0,0.1256122093472401,1.0,0.0
34.89007568359375,7.349754810333252,-1.124924659729004,-0.0,-0.0,-1.0,0.1957322972227529,2.0,0.0
34.642852783203125,6.7878642082214355,-1.1848607063293457,-0.0,-0.0,-1.0,0.1700337045740856,2.0,0.0
34.14604187011719,6.384249210357666,-1.2745692729949951,-0.0,-0.0,-1.0,0.0441989805853837,1.0,0.0
34.583251953125,6.643911361694336,-1.2000102996826172,0.5054758561185133,0.6164573692873387,0.6037172108964513,0.2140876879265549,3.0,0.0
34.45135498046875,6.123304843902588,-1.244051218032837,-0.0,-0.0,-1.0,0.2712454639316681,1.0,0.0
34.768707275390625,5.855912685394287,-1.213361740112305,-0.0,-0.0,-1.0,0.1168574935119057,1.0,0.0
34.98084259033203,5.744970798492432,-1.1897284984588623,-0.0,-0.0,-1.0,0.2102785041751114,1.0,0.0
32.98181915283203,5.845193862915039,-0.7962312698364258,0.4554888215999315,0.8758359956650358,-0.1595031099851699,0.2652287620995878,5.0,0.0
33.72163391113281,5.6378302574157715,-0.7245049476623535,-0.0,-0.0,-1.0,0.0679848732168898,1.0,0.0
33.81074523925781,7.618682384490967,-1.2986806631088257,-0.0,-0.0,-1.0,0.0449438902221525,1.0,0.0
34.7111930847168,7.80189847946167,-1.1562875509262085,-0.0,-0.0,-1.0,0.2233112920127674,2.0,0.0
33.77428436279297,7.213902950286865,-1.322787165641785,-0.0,-0.0,-1.0,0.0861501479612446,2.0,0.0
35.19700241088867,7.780491828918457,-1.085107922554016,0.941456779319634,-0.288991551640647,0.1736174408100585,0.1268306038428111,3.0,0.0
34.857078552246094,7.378530025482178,-1.1545716524124146,-0.0,-0.0,-1.0,0.215128852599093,2.0,0.0
34.69072723388672,7.295115947723389,-1.18329656124115,-0.7943494033501866,0.3681947298121608,-0.483158013837867,0.1855855356636837,4.0,0.0
33.98998260498047,6.8704118728637695,-1.308099627494812,-0.0,-0.0,-1.0,0.0614501078422531,1.0,0.0
34.49302673339844,6.711610794067383,-1.242674708366394,-0.0,-0.0,-1.0,0.217705518710959,2.0,0.0
34.23275375366211,6.416876316070557,-1.296958327293396,-0.0,-0.0,-1.0,0.1663684429174302,1.0,0.0
34.463645935058594,6.1849517822265625,-1.276737093925476,-0.0,-0.0,-1.0,0.2434056018452177,2.0,0.0
34.76953125,5.934175491333008,-1.2476681470870972,-0.0,-0.0,-1.0,0.0769305795975013,2.0,0.0
35.04539489746094,5.7224225997924805,-1.2214099168777466,0.0411674748437314,-0.2003877299286973,-0.9788513659943548,0.1599735073552191,4.0,0.0
35.05434036254883,5.654059410095215,-1.2246249914169312,-0.0152967047396259,0.2384017498782615,-0.9710461453911916,0.1695866158979535,3.0,0.0
33.01658248901367,5.8324456214904785,-0.8567072153091431,-0.3406862979518054,0.6653797453179261,-0.6642308641643695,0.1666082489289531,3.0,0.0
33.028053283691406,5.772397994995117,-0.8582350015640259,0.1565061939111944,0.7776407250934186,0.6089176577695982,0.1875749839412423,3.0,0.0
33.63351058959961,5.646402835845947,-0.797042727470398,-0.3799303955710417,-0.8984664860530901,0.2200246985241522,0.092791442770169,4.0,0.0
34.41777420043945,5.858558177947998,-0.699858546257019,-0.0,-0.0,-1.0,0.2298752411480901,2.0,0.0
34.95266342163086,7.831839561462402,-1.137447714805603,-0.0,-0.0,-1.0,0.1977486930998546,1.0,0.0
34.66339874267578,7.848162651062012,-1.1829906702041626,-0.7804968177887893,-0.5587998549593044,-0.2802988396676548,0.2280497889173785,3.0,0.0
33.85884094238281,7.410579204559326,-1.3221677541732788,0.0820072419447045,-0.928527408432042,-0.3620934465840257,0.1157326026974695,3.0,0.0
34.833011627197266,7.405267715454102,-1.1681798696517944,-0.4549875052530763,-0.5159908122185143,-0.7257684560310264,0.2230985856017948,5.0,0.0
33.97683334350586,6.925757884979248,-1.3178600072860718,-0.5972365094448033,0.8011312369177013,-0.0386948707311533,0.0560997357608075,3.0,0.0
34.52458953857422,6.784484386444092,-1.2365645170211792,-0.0,-0.0,-1.0,0.2444009896879969,1.0,0.0
34.09873962402344,6.569960117340088,-1.3107565641403198,-0.0,-0.0,-1.0,0.1514329947217007,1.0,0.0
34.31060028076172,6.286953449249268,-1.288199543952942,-0.0,-0.0,-1.0,0.1072538987924229,1.0,0.0
34.659671783447266,5.9090142250061035,-1.2495101690292358,-0.0,-0.0,-1.0,0.0893539217200633,2.0,0.0
33.045040130615234,5.917884349822998,-0.868069052696228,-0.6127744960113741,0.0128878352449326,-0.7901527198843942,0.1804611085667225,3.0,0.0
33.566436767578125,5.703778266906738,-0.8110705614089966,-0.0,-0.0,-1.0,0.0961774675596211,1.0,0.0
32.94287872314453,5.820061206817627,-0.8831757307052612,-0.0,-0.0,-1.0,0.2633547970954568,2.0,0.0
33.86469268798828,7.852578163146973,-1.317735195159912,-0.0,-0.0,-1.0,0.0597421155875511,2.0,0.0
34.49943542480469,7.778092384338379,-1.214453935623169,-0.0,-0.0,-1.0,0.1939363482671937,1.0,0.0
34.0177001953125,7.602224826812744,-1.298794507980347,-0.0,-0.0,-1.0,0.0716374329892613,1.0,0.0
34.60671615600586,7.280817031860352,-1.2111363410949707,-0.0,-0.0,-1.0,0.2381434472433888,2.0,0.0
34.03008270263672,7.268397331237793,-1.3062748908996582,-0.0,-0.0,-1.0,0.1120992757609682,1.0,0.0
34.404869079589844,6.810300827026367,-1.2599008083343506,-0.0,-0.0,-1.0,0.2215870611898036,2.0,0.0
33.95248794555664,6.906998157501221,-1.330498456954956,-0.0,-0.0,-1.0,0.0742657101880011,2.0,0.0
34.12787628173828,6.482953071594238,-1.3169548511505127,-0.0,-0.0,-1.0,0.1261898651473536,1.0,0.0
34.510032653808594,6.078637599945068,-1.2714104652404783,-0.0,-0.0,-1.0,0.1380586261712506,2.0,0.0
34.824073791503906,5.754828929901123,-1.235527515411377,-0.0,-0.0,-1.0,0.1130889413599723,2.0,0.0
34.62177276611328,5.911536693572998,-1.260679006576538,-0.0,-0.0,-1.0,0.0634317507539531,2.0,0.0
35.191429138183594,7.752889633178711,-1.1008310317993164,0.9074188573828418,0.0541582132521117,-0.4167228157940914,0.1458161075449617,3.0,0.0
34.697425842285156,7.904398918151856,-1.1784136295318604,-0.3146096766455752,-0.9210350792542562,-0.2295977659823216,0.2291891376841568,3.0,0.0
34.8173828125,7.470642566680908,-1.170684576034546,-0.0,-0.0,-1.0,0.219619626360839,2.0,0.0
33.00299835205078,5.9062323570251465,-0.9102733135223388,-0.0,-0.0,-1.0,0.1767850424219832,1.0,0.0
33.38465881347656,5.664999485015869,-0.8688616752624512,-0.0,-0.0,-1.0,0.0420073983097611,2.0,0.0
34.89937210083008,6.499139785766602,-1.432752251625061,-0.0,-0.0,-1.0,0.0510800914511448,1.0,0.0
35.01899337768555,6.3658671379089355,-1.4178847074508667,-0.0,-0.0,-1.0,0.0926219857072376,1.0,0.0
35.05729293823242,7.891615867614746,-1.3453651666641235,-0.0,-0.0,-1.0,0.0967581398421347,1.0,0.0
34.848838806152344,7.841878890991211,-1.385858416557312,-0.0,-0.0,-1.0,0.1278987360133961,1.0,0.0
33.18516540527344,8.006856918334961,-1.127165913581848,-0.534704053466707,0.1567194527368846,-0.8303797856042284,0.0686000133753077,3.0,0.0
35.08954620361328,7.416858673095703,-1.3566385507583618,-0.0,-0.0,-1.0,0.2063847787256774,1.0,0.0
33.45421600341797,7.6116766929626465,-1.0918854475021362,-0.0,-0.0,-1.0,0.1028218362628636,1.0,0.0
33.194610595703125,7.76373815536499,-1.129905104637146,-0.0,-0.0,-1.0,0.1392243807567699,2.0,0.0
35.01470947265625,6.89594841003418,-1.3926552534103394,-0.0,-0.0,-1.0,0.0519067093298904,2.0,0.0
33.34330749511719,7.19533634185791,-1.1192587614059448,-0.0,-0.0,-1.0,0.0440423589053517,1.0,0.0
33.2354736328125,7.166363716125488,-1.136400818824768,-0.0,-0.0,-1.0,0.0452423946475024,1.0,0.0
34.98309326171875,6.75522518157959,-1.4049874544143677,-0.0,-0.0,-1.0,0.0539786674237333,1.0,0.0
33.31804275512695,6.765217304229736,-1.1357330083847046,-0.0,-0.0,-1.0,0.018640446024983,1.0,0.0
33.174686431884766,6.861522197723389,-1.1541918516159058,-0.0,-0.0,-1.0,0.0685203254851324,2.0,0.0
35.0915412902832,6.338037490844727,-1.4062479734420776,-0.0,-0.0,-1.0,0.0739402009951299,1.0,0.0
34.33535385131836,6.190548896789551,-1.005067229270935,-0.0,-0.0,-1.0,0.1535555821491026,1.0,0.0
33.847591400146484,6.164266586303711,-1.0779279470443726,-0.0,-0.0,-1.0,0.0801268005872165,2.0,0.0
33.23652648925781,6.523177623748779,-1.155692219734192,-0.0,-0.0,-1.0,0.0360233416727526,2.0,0.0
33.17530059814453,6.113905906677246,-1.1791599988937378,-0.0,-0.0,-1.0,0.098482658297973,1.0,0.0
33.10789489746094,5.8191657066345215,-1.2003034353256226,-0.0,-0.0,-1.0,0.1167511828593735,1.0,0.0
35.12305450439453,7.793529987335205,-0.834619402885437,-0.0,-0.0,-1.0,0.1912934937734773,2.0,0.0
34.95522689819336,6.784397602081299,-0.89104163646698,-0.0,-0.0,-1.0,0.1739197904995023,1.0,0.0
34.519676208496094,6.680697917938232,-0.9594415426254272,-0.0,-0.0,-1.0,0.0890045391969347,1.0,0.0
35.04002380371094,6.22293758392334,-0.900391697883606,-0.0,-0.0,-1.0,0.1547930304748975,1.0,0.0
34.563053131103516,8.123274803161621,-1.3963172435760498,-0.0,-0.0,-1.0,0.1631933989539652,1.0,0.0
35.18234634399414,7.923863410949707,-1.3197779655456543,-0.8948563380052938,0.0335369416149328,-0.4450925834912014,0.1954937973753058,3.0,0.0
34.95409393310547,8.084250450134277,-1.3348991870880127,-0.0,-0.0,-1.0,0.1306640891903285,1.0,0.0
35.06365966796875,7.418441295623779,-1.4181482791900637,-0.0,-0.0,-1.0,0.2262748610481615,1.0,0.0
33.15869140625,8.036233901977539,-1.104574203491211,-0.7917607033702834,-0.5889685562430658,-0.1619599591119749,0.0696475450976631,3.0,0.0
35.045997619628906,7.3244404792785645,-1.4360947608947754,-0.0,-0.0,-1.0,0.1256891457030184,1.0,0.0
34.37163543701172,7.159363269805908,-1.0608947277069092,-0.0,-0.0,-1.0,0.2316291275008137,1.0,0.0
33.13249969482422,7.788632869720459,-1.140693426132202,0.7661945190486533,0.6044150690474251,0.2182392798929628,0.1131016711093466,3.0,0.0
34.2164306640625,7.107425212860107,-1.089188575744629,-0.0,-0.0,-1.0,0.1893452477587465,1.0,0.0
33.33495330810547,7.275863170623779,-1.183269739151001,-0.0,-0.0,-1.0,0.0536680983455977,2.0,0.0
33.10791778564453,7.419763565063477,-1.193969964981079,-0.0,-0.0,-1.0,0.0673182118729348,1.0,0.0
34.15188980102539,6.5366740226745605,-1.1840643882751465,-0.0,-0.0,-1.0,0.19849609494761,1.0,0.0
33.562721252441406,6.679691791534424,-1.2395670413970947,-0.0,-0.0,-1.0,0.1733188919922952,1.0,0.0
33.351226806640625,7.014912128448486,-1.2182581424713137,-0.0,-0.0,-1.0,0.0292489833719415,1.0,0.0
34.985748291015625,5.686042308807373,-1.2172815799713137,-0.0,-0.0,-1.0,0.1105367027734396,1.0,0.0
34.68340301513672,5.790370941162109,-1.237016677856445,-0.0,-0.0,-1.0,0.0910938834320906,1.0,0.0
34.30983352661133,5.9940900802612305,-1.2503345012664795,-0.0,-0.0,-1.0,0.1303414828495603,1.0,0.0
34.00585174560547,6.206414699554443,-1.2549822330474854,0.4232649515216699,-0.2378031264009657,-0.8742405011707504,0.0831643281084474,4.0,0.0
33.63616943359375,6.458659648895264,-1.2636077404022217,-0.0,-0.0,-1.0,0.1262943657879942,1.0,0.0
35.05650329589844,7.622056007385254,-0.90199613571167,-0.0,-0.0,-1.0,0.1474107220583154,1.0,0.0
34.5041389465332,7.302062511444092,-1.022289514541626,-0.0,-0.0,-1.0,0.1817695617419228,2.0,0.0
35.15118408203125,6.3001604080200195,-1.0933361053466797,-0.0,-0.0,-1.0,0.2101049810659141,1.0,0.0
34.28462219238281,5.750389099121094,-0.7631421089172363,-0.4500727723821814,-0.5695714835328591,0.6877665481152707,0.2095038424007922,3.0,0.0
32.918304443359375,5.709273338317871,-0.8982083797454834,-0.0,-0.0,-1.0,0.1329705259889852,1.0,0.0
35.203861236572266,8.056442260742188,-1.0083703994750977,-0.0,-0.0,-1.0,0.1176185728525982,1.0,0.0
35.18886947631836,7.467708110809326,-1.0549147129058838,-0.0,-0.0,-1.0,0.1006450690980323,1.0,0.0
35.07398986816406,7.768137454986572,-1.050612449645996,-0.0,-0.0,-1.0,0.1957096197147277,1.0,0.0
34.21917724609375,8.113943099975586,-1.166053056716919,-0.0,-0.0,-1.0,0.098502376596147,1.0,0.0
35.041107177734375,7.075887203216553,-1.1100053787231443,-0.0,-0.0,-1.0,0.0946147832582492,1.0,0.0
34.666805267333984,7.445151329040527,-1.141183376312256,-0.0,-0.0,-1.0,0.2434020915194049,2.0,0.0
33.95262145996094,7.914543151855469,-1.2236289978027344,-0.0,-0.0,-1.0,0.0611265616879803,1.0,0.0
33.9029541015625,8.084600448608398,-1.2201521396636963,-0.0,-0.0,-1.0,0.0780919801379374,1.0,0.0
34.7225456237793,7.062174320220947,-1.1623003482818604,-0.0,-0.0,-1.0,0.1567345172813742,1.0,0.0
34.66581726074219,7.042226791381836,-1.1730194091796875,-0.0,-0.0,-1.0,0.0894491715314601,1.0,0.0
33.91339874267578,7.30438756942749,-1.2742302417755127,-0.0,-0.0,-1.0,0.1210098236925425,1.0,0.0
33.72621154785156,7.477029800415039,-1.2919161319732666,0.7700154828808945,-0.1888646654376508,-0.6094311234855232,0.1149920550338687,3.0,0.0
34.53091812133789,6.497452735900879,-1.2399110794067385,-0.0,-0.0,-1.0,0.1993115265874417,1.0,0.0
33.725364685058594,6.921240329742432,-1.3342325687408447,-0.0,-0.0,-1.0,0.1115531278788363,1.0,0.0
33.729583740234375,7.174339771270752,-1.3140132427215576,-0.0,-0.0,-1.0,0.0960539205943437,2.0,0.0
34.616661071777344,5.864281177520752,-1.2826905250549316,-0.0,-0.0,-1.0,0.0667415204546768,1.0,0.0
34.33065414428711,6.150434970855713,-1.301842451095581,-0.0,-0.0,-1.0,0.1295812903767519,1.0,0.0
34.04652786254883,6.466038703918457,-1.3197989463806152,-0.0,-0.0,-1.0,0.0995631014824598,1.0,0.0
33.926170349121094,6.6169047355651855,-1.3264100551605225,-0.0,-0.0,-1.0,0.0970462709884345,1.0,0.0
34.442474365234375,5.7531538009643555,-0.8022875785827637,-0.0,-0.0,-1.0,0.1515279037625852,2.0,0.0
35.163307189941406,8.075493812561035,-1.1400573253631592,-0.0,-0.0,-1.0,0.2114684055183482,2.0,0.0
35.160888671875,7.773986339569092,-1.1546428203582764,0.6626643890737554,0.6925081558272114,0.2851462108573447,0.2101104710278616,5.0,0.0
34.586368560791016,7.933935165405273,-1.2525181770324707,-0.0,-0.0,-1.0,0.1737635157921908,1.0,0.0
34.878021240234375,7.356998920440674,-1.2274770736694336,-0.0,-0.0,-1.0,0.1573650644134105,1.0,0.0
34.69318771362305,7.417911052703857,-1.2579355239868164,0.7961567303312376,-0.425011945197172,-0.4306963050549535,0.2782382330785596,3.0,0.0
34.28317642211914,7.718671798706055,-1.31823992729187,-0.0,-0.0,-1.0,0.0965994587652961,1.0,0.0
34.778709411621094,6.634833812713623,-1.2859394550323486,-0.0,-0.0,-1.0,0.0657691045775271,1.0,0.0
34.66931915283203,7.1067891120910645,-1.2787256240844729,-0.0,-0.0,-1.0,0.2428749647098368,1.0,0.0
34.36083984375,7.407412528991699,-1.319091558456421,-0.0,-0.0,-1.0,0.1699701500491681,1.0,0.0
34.05315399169922,7.647122859954834,-1.363816261291504,-0.4482237326971602,0.7913503496461726,-0.4157644880962119,0.0712067089017045,3.0,0.0
34.837425231933594,6.290053367614746,-1.296621561050415,-0.0,-0.0,-1.0,0.0821972250938187,2.0,0.0
34.777259826660156,6.438300609588623,-1.2981183528900146,-0.0,-0.0,-1.0,0.0862452282640444,1.0,0.0
34.48093795776367,6.789251804351807,-1.330479621887207,-0.0,-0.0,-1.0,0.2105450965070437,2.0,0.0
34.262908935546875,6.959494590759277,-1.3603672981262207,0.3251908654687928,0.7692059077468351,-0.5500665164350813,0.141882825383342,3.0,0.0
34.72066879272461,7.336775779724121,-0.7682502269744873,-0.0,-0.0,-1.0,0.1186532556480183,1.0,0.0
34.0617790222168,6.790969371795654,-0.888221025466919,-0.0,-0.0,-1.0,0.1316816945366338,1.0,0.0
32.72175598144531,7.863670349121094,-1.0480406284332275,-0.0,-0.0,-1.0,0.0701559305418821,1.0,0.0
32.92230224609375,7.038210391998291,-1.046813726425171,-0.9894466786300916,0.0125500587502592,-0.1443529222885567,0.0906386187163097,3.0,0.0
33.59194564819336,5.645036697387695,-1.0098211765289309,-0.0,-0.0,-1.0,0.0770887092063561,2.0,0.0
33.008941650390625,5.841231346130371,-1.0849196910858154,-0.4649603466087753,-0.2735797431291544,-0.8420011877846929,0.2291671206206125,4.0,0.0
34.72734832763672,7.506216526031494,-1.1610167026519775,-0.0,-0.0,-1.0,0.2400154246449996,1.0,0.0
34.6765022277832,7.742835521697998,-1.1526527404785156,-0.0,-0.0,-1.0,0.2117817882679203,1.0,0.0
33.983848571777344,8.086893081665039,-1.2535676956176758,-0.0,-0.0,-1.0,0.08521751678648,2.0,0.0
34.67890930175781,7.26583194732666,-1.1878747940063477,0.3569549154157986,-0.1059191253772161,-0.9280971539875692,0.2233169546456742,4.0,0.0
34.450164794921875,7.344795227050781,-1.2223598957061768,-0.0,-0.0,-1.0,0.2337631563151502,1.0,0.0
33.97267150878906,8.009075164794922,-1.26074481010437,0.5070750603102488,0.439944471838352,-0.7411637773867737,0.0812576161036584,3.0,0.0
34.57539749145508,6.795759677886963,-1.2434227466583252,-0.0,-0.0,-1.0,0.1786869918699141,1.0,0.0
33.82304382324219,7.453575134277344,-1.3262228965759275,-0.788605157040441,-0.2640726022571729,-0.5553085331834426,0.0791608409207557,3.0,0.0
35.05657196044922,5.814818859100342,-1.246471643447876,-0.0,-0.0,-1.0,0.1726340110911158,2.0,0.0
34.775169372558594,6.065857887268066,-1.2713901996612549,-0.0,-0.0,-1.0,0.0142195315830932,2.0,0.0
34.51593780517578,6.407162189483643,-1.2862939834594729,-0.0,-0.0,-1.0,0.1350424590759607,1.0,0.0
34.20281982421875,6.661898136138916,-1.3195533752441406,-0.0,-0.0,-1.0,0.1840881481534343,1.0,0.0
34.04077911376953,6.76468563079834,-1.3397023677825928,-0.0,-0.0,-1.0,0.1141135061296839,1.0,0.0
35.129981994628906,5.728789806365967,-1.242170810699463,-0.0,-0.0,-1.0,0.1575885007176493,1.0,0.0
34.788116455078125,5.965907096862793,-1.278127908706665,0.2522945110207537,-0.7429255594125707,-0.6200073329246335,0.0673015344901375,3.0,0.0
35.20927429199219,7.699141025543213,-1.0608243942260742,0.9783010917762603,-0.0515835957609256,0.2006641634117827,0.1088773150292231,3.0,0.0
35.12751388549805,7.713190078735352,-1.0743179321289062,-0.0,-0.0,-1.0,0.1577113227619956,2.0,0.0
35.11543655395508,7.331771373748779,-1.105644941329956,-0.0,-0.0,-1.0,0.145486905074958,1.0,0.0
34.533111572265625,7.232879638671875,-0.7443170547485352,-0.5952933993264716,0.0103688462234197,0.8034415073583948,0.0953920589308193,4.0,0.0
34.29458236694336,5.874266624450684,-0.8703324794769287,-0.4057643363108293,-0.7994255432913803,-0.4430283333055727,0.1969439086776064,3.0,0.0
34.261573791503906,5.690877914428711,-0.8883109092712402,-0.0,-0.0,-1.0,0.1784947080132497,1.0,0.0
32.763832092285156,6.805957317352295,-1.025970220565796,-0.0,-0.0,-1.0,0.0492328681941375,2.0,0.0
32.714134216308594,5.788519859313965,-1.0986125469207764,-0.0,-0.0,-1.0,0.148260108884399,1.0,0.0
34.781578063964844,7.238656520843506,-0.7082712650299072,-0.0,-0.0,-1.0,0.0689595146056145,1.0,0.0
34.10790252685547,8.134169578552246,-1.2965203523635864,-0.6074473359442694,-0.3505731043706531,-0.7128157072807343,0.0712355458569477,3.0,0.0
34.68339920043945,7.6108078956604,-1.271260380744934,-0.0,-0.0,-1.0,0.2254551402537951,1.0,0.0
34.01186752319336,7.980493068695068,-1.3336032629013062,-0.0,-0.0,-1.0,0.0854610703997602,1.0,0.0
34.70368194580078,7.004292964935303,-1.3587321043014526,-0.0,-0.0,-1.0,0.1329705452969088,1.0,0.0
34.58720779418945,7.235467433929443,-1.3426393270492554,-0.4890117135003471,0.4277000325266912,-0.7602238000984458,0.2256775002584514,4.0,0.0
34.05812072753906,7.424437046051025,-1.4030922651290894,-0.0,-0.0,-1.0,0.0793996428398724,1.0,0.0
35.101585388183594,6.529231548309326,-1.3707903623580933,-0.0,-0.0,-1.0,0.0958474890531956,2.0,0.0
34.699737548828125,6.759026527404785,-1.3978880643844604,-0.0,-0.0,-1.0,0.0799001840143125,1.0,0.0
34.43968963623047,6.895518779754639,-1.418587565422058,-0.0,-0.0,-1.0,0.1313539987223918,1.0,0.0
35.18477249145508,7.749773979187012,-1.1672197580337524,0.7784495768251944,0.5431161665081774,-0.3147079376471733,0.160114397612552,6.0,0.0
35.04010772705078,7.443019866943359,-1.2368797063827517,-0.0,-0.0,-1.0,0.2400699231876783,2.0,0.0
32.98460388183594,7.745733261108398,-1.0456405878067017,-0.0,-0.0,-1.0,0.1040748359292659,2.0,0.0
34.244895935058594,6.941714286804199,-0.9761005640029908,-0.0,-0.0,-1.0,0.1013641826696723,1.0,0.0
33.730953216552734,7.352343559265137,-0.9911495447158812,0.5727587788270064,0.7303351400058613,-0.372233749879313,0.1133570843218108,4.0,0.0
32.725372314453125,7.5333662033081055,-1.1070643663406372,-0.0,-0.0,-1.0,0.0449375449066767,1.0,0.0
34.52613067626953,6.588212013244629,-0.988195300102234,0.3777099744206132,-0.602674867446637,-0.7029354019903662,0.0861352643087228,3.0,0.0
34.16033935546875,6.597598552703857,-1.0342923402786257,-0.0,-0.0,-1.0,0.1893873469951624,1.0,0.0
33.96509552001953,6.599995136260986,-1.0594266653060913,-0.0,-0.0,-1.0,0.1364455646986642,2.0,0.0
32.997596740722656,7.06376314163208,-1.1274033784866333,-0.0,-0.0,-1.0,0.1632814889453856,1.0,0.0
32.84946823120117,7.230315208435059,-1.1267775297164917,-0.0,-0.0,-1.0,0.0747002544895504,1.0,0.0
34.94365692138672,5.642878532409668,-1.0757452249526978,-0.0,-0.0,-1.0,0.0861361707323054,1.0,0.0
34.73443603515625,5.760956287384033,-1.0832101106643677,-0.0,-0.0,-1.0,0.0515031775740165,2.0,0.0
33.180240631103516,6.359902381896973,-1.1952396631240845,0.0193345685368195,-0.639097684730566,-0.7688825162737963,0.0549195561752571,3.0,0.0
32.944679260253906,6.6556291580200195,-1.1872371435165403,-0.0,-0.0,-1.0,0.0276641591794629,1.0,0.0
34.1536865234375,5.69007682800293,-1.1656078100204468,-0.0,-0.0,-1.0,0.0251495989458098,2.0,0.0
33.720149993896484,5.714143753051758,-1.2164860963821411,-0.0,-0.0,-1.0,0.0842820477685564,1.0,0.0
33.425682067871094,5.899626731872559,-1.2273210287094116,-0.0,-0.0,-1.0,0.0647407930690729,2.0,0.0
33.19990539550781,6.224246025085449,-1.21121346950531,-0.0,-0.0,-1.0,0.0632257376082686,2.0,0.0
33.70222854614258,5.648295879364014,-1.2283064126968384,-0.0,-0.0,-1.0,0.1502553927021288,2.0,0.0
34.728450775146484,7.228878974914551,-0.8734980821609497,-0.1412908476667569,-0.7361958177462455,0.6618554330807791,0.1187278053050156,3.0,0.0
33.54132843017578,5.63819694519043,-0.7436877489089966,-0.3789070225939657,-0.1285849845465187,-0.9164580568570218,0.0922162841927274,3.0,0.0
32.975067138671875,5.836484432220459,-0.7738150358200073,0.2967800803168808,-0.9441002602722708,-0.1435140497684344,0.2339154183387859,6.0,0.0
35.076358795166016,7.7570366859436035,-1.3246469497680664,-0.0,-0.0,-1.0,0.2113215972429516,2.0,0.0
35.04842758178711,7.341863632202148,-1.381030559539795,-0.0,-0.0,-1.0,0.2403989617263777,1.0,0.0
33.512142181396484,7.250183582305908,-1.2502682209014893,-0.0,-0.0,-1.0,0.0458899655314587,2.0,0.0
33.49302291870117,7.066104412078857,-1.272021770477295,0.0735619404349961,0.545967229905021,-0.8345708027419103,0.0455403071771258,3.0,0.0
34.06267166137695,6.194569110870361,-1.2663514614105225,-0.0,-0.0,-1.0,0.0714716146344345,2.0,0.0
33.83755874633789,6.496660232543945,-1.2716851234436035,-0.0,-0.0,-1.0,0.0838091187049272,1.0,0.0
35.06380081176758,7.730414867401123,-0.9289717674255372,-0.0,-0.0,-1.0,0.1987572232956263,1.0,0.0
34.83039093017578,7.649830341339111,-0.9780566692352296,-0.3974169169841199,0.1361174481988708,-0.9074865477739408,0.1643688216629001,4.0,0.0
34.638519287109375,7.272535800933838,-1.050544500350952,-0.8844076397095434,0.1105317573858974,-0.4534378209110697,0.1737009826867404,4.0,0.0
34.33705139160156,7.595636367797852,-1.070275068283081,-0.0,-0.0,-1.0,0.1587976678501721,1.0,0.0
33.378849029541016,7.756604194641113,-1.2254188060760498,-0.0,-0.0,-1.0,0.0963294160445573,1.0,0.0
34.5452995300293,7.252178192138672,-1.068892240524292,-0.3556440497164816,0.6210236271860634,-0.6984604243462375,0.2016085602700191,4.0,0.0
33.5625,7.409879684448242,-1.225679636001587,-0.0,-0.0,-1.0,0.138182753821114,1.0,0.0
34.366790771484375,6.618897438049316,-1.1675686836242676,0.9931856567890496,0.0088423642204363,-0.1162069866380555,0.2444240312522005,4.0,0.0
34.070762634277344,6.6081132888793945,-1.219411849975586,-0.0,-0.0,-1.0,0.2285812323528897,1.0,0.0
34.223289489746094,6.165740489959717,-1.2424380779266355,0.1100701652104965,0.6780361071276505,-0.7267403911726082,0.1042868753640196,3.0,0.0
34.42235565185547,6.0082011222839355,-1.2270557880401611,-0.0,-0.0,-1.0,0.2136660451706568,2.0,0.0
34.282649993896484,6.047107696533203,-1.245964288711548,-0.0,-0.0,-1.0,0.1475886711871254,1.0,0.0
32.90624237060547,5.728282451629639,-1.015535831451416,-0.0,-0.0,-1.0,0.1905229375485179,2.0,0.0
34.350040435791016,5.989618301391602,-0.7910749912261963,-0.0,-0.0,-1.0,0.2115067194821624,1.0,0.0
34.74518966674805,7.584592342376709,-1.265060305595398,-0.0,-0.0,-1.0,0.1793187712750405,2.0,0.0
34.16175842285156,7.937535762786865,-1.337105393409729,-0.0,-0.0,-1.0,0.0844626981646015,1.0,0.0
34.9443359375,7.385372638702393,-1.2532261610031128,-0.0,-0.0,-1.0,0.2047143890029922,1.0,0.0
34.755149841308594,7.300095081329346,-1.3031412363052368,-0.0,-0.0,-1.0,0.2238364989144059,2.0,0.0
34.18796157836914,7.3466057777404785,-1.4104033708572388,-0.0,-0.0,-1.0,0.1365929306430007,1.0,0.0
34.89612579345703,6.783581733703613,-1.3509527444839478,-0.0,-0.0,-1.0,0.0213731124102054,2.0,0.0
34.57606506347656,6.870931625366211,-1.400542378425598,-0.0,-0.0,-1.0,0.1475071235378859,2.0,0.0
34.198238372802734,7.260618686676025,-1.4201775789260864,-0.0,-0.0,-1.0,0.1411836774879243,1.0,0.0
35.083946228027344,6.564888954162598,-1.347965121269226,-0.0,-0.0,-1.0,0.099211219833008,2.0,0.0
35.12119674682617,7.716194629669189,-0.9850901365280152,-0.0,-0.0,-1.0,0.143765203642092,1.0,0.0
34.644996643066406,7.2297163009643555,-0.9394630193710328,-0.0,-0.0,-1.0,0.1614019577786146,2.0,0.0
34.30980682373047,7.353437423706055,-0.9814716577529908,-0.0,-0.0,-1.0,0.1491525635213892,1.0,0.0
33.15959930419922,7.752874374389648,-1.1368013620376587,0.3318593956365389,0.8487195967075046,-0.4117576807934515,0.150734970117216,5.0,0.0
34.425201416015625,6.918188095092773,-1.014670491218567,-0.0,-0.0,-1.0,0.1021468256324903,1.0,0.0
33.339881896972656,7.359939575195312,-1.1482006311416626,0.2098983407216509,0.8414180171008455,-0.4979542218521494,0.0943355492859893,3.0,0.0
33.1323356628418,7.496254444122315,-1.169456124305725,-0.0,-0.0,-1.0,0.0701734467276127,1.0,0.0
34.39520263671875,6.561740875244141,-1.064311146736145,-0.2946707424951961,-0.7890474796045149,-0.5390484472170312,0.1012454594868431,3.0,0.0
34.145992279052734,6.653688907623291,-1.0941635370254517,-0.0,-0.0,-1.0,0.1558076845254064,1.0,0.0
33.49588394165039,6.845547199249268,-1.1807337999343872,-0.0,-0.0,-1.0,0.0465654019235151,2.0,0.0
33.27531051635742,6.989941120147705,-1.201709866523743,-0.0,-0.0,-1.0,0.0515376026599192,1.0,0.0
34.15126037597656,6.054210662841797,-1.16948664188385,-0.0,-0.0,-1.0,0.0718252491710698,1.0,0.0
33.525577545166016,6.366271018981934,-1.2337852716445925,-0.0,-0.0,-1.0,0.0898256919214278,1.0,0.0
33.35193634033203,6.449896812438965,-1.2526301145553589,-0.0,-0.0,-1.0,0.0359833678959815,1.0,0.0
34.669334411621094,5.7646098136901855,-1.1246334314346311,-0.0,-0.0,-1.0,0.100785175787895,1.0,0.0
34.29686737060547,5.877828121185303,-1.1690291166305542,-0.0,-0.0,-1.0,0.0693344636199935,1.0,0.0
33.90254592895508,6.0257744789123535,-1.213875412940979,-0.0,-0.0,-1.0,0.0424803132844811,2.0,0.0
33.64336013793945,6.128819942474365,-1.2435208559036257,-0.0,-0.0,-1.0,0.0390139830676863,2.0,0.0
32.79431915283203,5.722049713134766,-0.9599238634109496,-0.0,-0.0,-1.0,0.2043048252051007,1.0,0.0
34.81304931640625,8.132080078125,-1.2129634618759155,-0.0,-0.0,-1.0,0.150425810351788,2.0,0.0
35.17183303833008,7.641526222229004,-1.2093816995620728,0.4165130583258354,0.902725325047166,0.1077212131501833,0.1260777596521495,5.0,0.0
34.787235260009766,7.63870096206665,-1.2944923639297483,-0.0,-0.0,-1.0,0.1496518669832288,2.0,0.0
34.18461608886719,8.00738525390625,-1.3741222620010376,-0.0,-0.0,-1.0,0.0680575876565623,1.0,0.0
34.743656158447266,7.271386623382568,-1.3614164590835571,-0.0,-0.0,-1.0,0.169506494650784,1.0,0.0
33.42338562011719,7.596594333648682,-1.2063449621200562,-0.5720232412961255,0.5058314666117792,-0.6456964757550185,0.0936127984499136,3.0,0.0
33.27138137817383,7.751355171203613,-1.2185436487197876,-0.0,-0.0,-1.0,0.1042033572374076,1.0,0.0
34.94584274291992,6.921216011047363,-1.3745278120040894,-0.0,-0.0,-1.0,0.042232674001328,2.0,0.0
33.58319854736328,7.055562496185303,-1.2442444562911987,-0.0,-0.0,-1.0,0.1054308043925731,2.0,0.0
33.45813751220703,7.296046733856201,-1.2359813451766968,-0.0,-0.0,-1.0,0.0742590701817473,2.0,0.0
34.39259719848633,6.617311954498291,-1.148891568183899,0.4411103127703988,0.7097606270184931,-0.5492372386336496,0.235726177809836,3.0,0.0
33.86091613769531,6.614577770233154,-1.2487949132919312,-0.0,-0.0,-1.0,0.1400548523904936,1.0,0.0
33.723880767822266,6.921685695648193,-1.2342804670333862,-0.0,-0.0,-1.0,0.1781106857087885,1.0,0.0
34.50529098510742,6.000885963439941,-1.2163468599319458,-0.0,-0.0,-1.0,0.1173227832138427,1.0,0.0
34.32148742675781,6.121021747589111,-1.2322412729263306,-0.0,-0.0,-1.0,0.1784851251767186,2.0,0.0
33.967201232910156,6.390913486480713,-1.2594224214553833,-0.0,-0.0,-1.0,0.1019670230971839,1.0,0.0
34.585052490234375,5.867244720458984,-1.2218109369277954,-0.0,-0.0,-1.0,0.1061732516408789,1.0,0.0
35.0184440612793,7.9427900314331055,-0.8517252206802368,-0.0,-0.0,-1.0,0.1049917476248216,1.0,0.0
34.542327880859375,7.388355731964111,-1.015837788581848,-0.0,-0.0,-1.0,0.2783697419211203,1.0,0.0
32.710365295410156,6.815352439880371,-1.0108071565628052,-0.0,-0.0,-1.0,0.04756753484974,2.0,0.0
34.34221649169922,5.808604717254639,-0.8657344579696655,-0.3361449344757107,-0.8736854782843613,-0.3516820553587387,0.263868889247783,3.0,0.0
32.90984344482422,5.8063483238220215,-1.0899966955184937,-0.0,-0.0,-1.0,0.2288422574447121,2.0,0.0
34.63330841064453,7.278635978698731,-0.6479090452194214,-0.9633570779649028,0.1320065732105561,-0.2334896249603623,0.1063318702983613,4.0,0.0
33.63922882080078,5.674313068389893,-0.5655394792556763,-0.0,-0.0,-1.0,0.1143900336870232,2.0,0.0
35.18375015258789,7.315918445587158,-1.4188405275344849,-0.0,-0.0,-1.0,0.1426114272724742,1.0,0.0
35.009979248046875,7.858068466186523,-1.3480340242385864,-0.0,-0.0,-1.0,0.1000879886870363,1.0,0.0
34.704925537109375,8.065065383911133,-1.3801826238632202,-0.0,-0.0,-1.0,0.1319022995825792,1.0,0.0
35.184226989746094,7.412150859832764,-1.230718731880188,-0.0,-0.0,-1.0,0.1170067441636894,2.0,0.0
34.882179260253906,7.417027473449707,-1.123773217201233,-0.0,-0.0,-1.0,0.1539919124727945,1.0,0.0
34.518680572509766,7.793126583099365,-1.133689045906067,-0.0,-0.0,-1.0,0.143549181818842,1.0,0.0
32.785057067871094,8.073949813842773,-1.0890358686447144,-0.0,-0.0,-1.0,0.0519094327392863,1.0,0.0
34.64116668701172,7.274279594421387,-1.1978470087051392,0.1198569264049162,0.9925424143003366,0.0222232537587476,0.1807292997491139,5.0,0.0
34.41182327270508,7.263547420501709,-1.2465449571609497,-0.0,-0.0,-1.0,0.1676864297571556,2.0,0.0
33.84478759765625,7.415991306304932,-1.3392289876937866,-0.5546737928060326,-0.3810854575318835,-0.7396694245620034,0.073442625368694,4.0,0.0
33.766815185546875,7.627189636230469,-1.3213104009628296,-0.0,-0.0,-1.0,0.0583565230374367,1.0,0.0
33.13666534423828,7.535386562347412,-1.090539813041687,-0.0,-0.0,-1.0,0.0952756361698757,1.0,0.0
32.894737243652344,7.822517395019531,-1.0993846654891968,0.675672313811156,-0.7276007407228746,0.1185921011223047,0.0904440919137467,3.0,0.0
34.62382125854492,6.674838066101074,-1.309542536735535,-0.0,-0.0,-1.0,0.1847229264524325,1.0,0.0
34.30463409423828,6.7172017097473145,-1.3648334741592407,-0.0,-0.0,-1.0,0.2354419845988974,1.0,0.0
34.00563049316406,7.028372764587402,-1.3709992170333862,-0.0,-0.0,-1.0,0.0611042115098641,1.0,0.0
33.09187698364258,7.240907192230225,-1.1388825178146362,-0.4403304528921284,0.4614329618035864,-0.7701874538169153,0.0923491487575116,3.0,0.0
34.8796501159668,6.361813068389893,-1.3187750577926636,-0.0,-0.0,-1.0,0.1022125783356583,2.0,0.0
34.55268859863281,6.547477722167969,-1.3466676473617554,-0.0,-0.0,-1.0,0.1009686240938984,2.0,0.0
33.24299621582031,6.692923545837402,-1.1880241632461548,-0.0,-0.0,-1.0,0.0262791753165486,2.0,0.0
33.1441764831543,6.887224197387695,-1.178355097770691,-0.0456550700863094,-0.712480260159222,-0.7002053223582788,0.0755592099820424,3.0,0.0
34.72234344482422,5.768564701080322,-1.0777519941329956,-0.0,-0.0,-1.0,0.0558108873250431,2.0,0.0
34.42383575439453,5.85267972946167,-1.11231529712677,-0.0,-0.0,-1.0,0.0754315924772507,2.0,0.0
33.33453369140625,6.366661548614502,-1.2194150686264038,-0.0,-0.0,-1.0,0.0567587235462685,1.0,0.0
34.25503921508789,5.7787675857543945,-1.1520370244979858,-0.0,-0.0,-1.0,0.0383031281974693,2.0,0.0
34.01202392578125,5.854429244995117,-1.1804426908493042,-0.0,-0.0,-1.0,0.0108163048114992,2.0,0.0
33.65593719482422,5.977494716644287,-1.2218135595321655,-0.0,-0.0,-1.0,0.070979189826617,1.0,0.0
35.026729583740234,8.069110870361328,-0.9806467294692992,-0.0,-0.0,-1.0,0.1085327185461224,1.0,0.0
34.71134948730469,7.260916709899902,-0.8415125608444214,-0.4807172745602822,-0.722893840220705,0.4963218690631072,0.1245531105452397,4.0,0.0
34.282318115234375,7.238946914672852,-0.92078959941864,0.901180923545364,-0.228820774219287,0.3681222573053839,0.2067263916980942,4.0,0.0
33.5949592590332,7.360984802246094,-1.0282269716262815,-0.0,-0.0,-1.0,0.1383663828544234,1.0,0.0
34.63037109375,6.611917495727539,-0.9560853242874146,-0.0,-0.0,-1.0,0.0961598597085458,1.0,0.0
34.24694061279297,6.8306169509887695,-0.988256573677063,-0.0,-0.0,-1.0,0.0602984678767686,1.0,0.0
34.4863395690918,6.56327486038208,-0.9881960153579712,-0.0,-0.0,-1.0,0.1797432658337985,2.0,0.0
34.11931610107422,6.546851634979248,-1.0538235902786257,-0.0,-0.0,-1.0,0.16679068041914,2.0,0.0
34.362091064453125,5.868048667907715,-0.7357326745986938,0.2221034707817033,-0.41421485921322,-0.8826642049350892,0.179708461414197,6.0,0.0
32.948326110839844,5.811307907104492,-0.9486266374588012,-0.0,-0.0,-1.0,0.2111442648132688,2.0,0.0
34.034873962402344,7.655889511108398,-1.3274229764938354,-0.0,-0.0,-1.0,0.0773259145151011,2.0,0.0
34.558265686035156,7.184538841247559,-1.3356035947799685,-0.0,-0.0,-1.0,0.174799432582333,2.0,0.0
34.02968215942383,7.4663238525390625,-1.3705817461013794,-0.0,-0.0,-1.0,0.0597749782356863,1.0,0.0
34.72529602050781,6.893611431121826,-1.3750792741775513,0.5472400834592764,-0.272890007466932,-0.7912391135934714,0.0873404395431936,4.0,0.0
35.141136169433594,7.528272151947021,-1.1497615575790403,-0.0,-0.0,-1.0,0.1350060648340407,1.0,0.0
35.046382904052734,7.551086902618408,-1.161121487617493,0.7117015826955523,0.5587746744340234,-0.4257366796504584,0.1627256238144054,3.0,0.0
34.47504425048828,7.666323661804199,-1.2397702932357788,-0.0,-0.0,-1.0,0.2342552261315688,1.0,0.0
33.27442932128906,7.938279151916504,-1.0736685991287231,-0.0,-0.0,-1.0,0.0682259533019204,1.0,0.0
33.06432342529297,8.050191879272461,-1.0925921201705933,-0.0,-0.0,-1.0,0.0450022349380742,1.0,0.0
34.65031814575195,7.293720245361328,-1.1269673109054563,0.3980237828499571,0.6091529922464609,-0.6859370964767785,0.237376702201076,3.0,0.0
34.37041473388672,7.358930587768555,-1.1616653203964231,-0.0,-0.0,-1.0,0.2337750436297824,1.0,0.0
33.617862701416016,7.442156314849853,-1.1046348810195925,-0.0579108999307006,0.9322127482778324,0.3572474207289777,0.1443571727483523,3.0,0.0
33.208160400390625,7.541543960571289,-1.1582318544387815,-0.0,-0.0,-1.0,0.0859908470649718,1.0,0.0
33.058746337890625,7.875631332397461,-1.1245321035385132,-0.0,-0.0,-1.0,0.1106024319355358,1.0,0.0
34.35688781738281,6.744716167449951,-1.1227411031723022,-0.0,-0.0,-1.0,0.1793670265611383,1.0,0.0
33.40906524658203,7.104247093200684,-1.20573627948761,-0.0,-0.0,-1.0,0.0351934184947647,2.0,0.0
33.30451965332031,7.352062702178955,-1.176416516304016,-0.0,-0.0,-1.0,0.0750601230230501,2.0,0.0
33.89921569824219,6.413530349731445,-1.2628284692764282,-0.0,-0.0,-1.0,0.1060708347928753,1.0,0.0
33.72502899169922,6.648987293243408,-1.242850661277771,-0.0,-0.0,-1.0,0.1353177746936743,2.0,0.0
33.53252029418945,6.859943389892578,-1.2323418855667114,-0.0,-0.0,-1.0,0.0816548030931083,2.0,0.0
32.75586700439453,6.757122993469238,-0.9984887838363647,-0.0,-0.0,-1.0,0.0373464210600691,2.0,0.0
34.00008010864258,6.24784517288208,-1.281614899635315,-0.0,-0.0,-1.0,0.0712713097882592,2.0,0.0
33.533260345458984,5.6625776290893555,-1.0788577795028689,-0.0,-0.0,-1.0,0.1358369053364672,1.0,0.0
33.00315856933594,5.870987892150879,-1.1131592988967896,-0.0,-0.0,-1.0,0.2514421737464345,2.0,0.0
32.73069381713867,6.030155181884766,-1.1238676309585571,-0.0,-0.0,-1.0,0.1079900378131842,2.0,0.0
33.094146728515625,5.697572708129883,-1.1311830282211304,-0.0,-0.0,-1.0,0.1336105939129127,1.0,0.0
35.03036880493164,8.07356071472168,-0.7432790994644165,-0.5958689745989824,-0.7012761051644687,0.3913463803789567,0.1437275088555134,5.0,0.0
35.07329177856445,7.649661540985107,-0.8233176469802856,-0.0,-0.0,-1.0,0.1579730923924348,1.0,0.0
32.978309631347656,5.859472274780273,-0.7200425863265991,-0.8582035299660002,-0.4430655489072666,-0.2591903171906685,0.1971429402762524,5.0,0.0
32.97364044189453,5.681241035461426,-0.7468677759170532,-0.0,-0.0,-1.0,0.1964917725203748,2.0,0.0
33.241146087646484,8.130975723266602,-1.083114504814148,-0.0,-0.0,-1.0,0.1123125553645834,2.0,0.0
34.05472946166992,7.535712718963623,-1.39452064037323,-0.0,-0.0,-1.0,0.0539857427974252,1.0,0.0
33.37016296386719,7.554981231689453,-1.1812933683395386,-0.0,-0.0,-1.0,0.1202346549498446,2.0,0.0
33.165069580078125,7.741892337799072,-1.1778682470321655,-0.0,-0.0,-1.0,0.1490393080841297,2.0,0.0
33.45104217529297,7.070560455322266,-1.272807002067566,-0.082873406860875,-0.8672628712057294,-0.4909043803667534,0.04015958185762,3.0,0.0
33.40565490722656,7.210880756378174,-1.2497116327285769,-0.0,-0.0,-1.0,0.0390607809661761,1.0,0.0
32.74333572387695,6.434976577758789,-1.1505109071731567,-0.0,-0.0,-1.0,0.0236483469264976,1.0,0.0
32.86420440673828,6.256111145019531,-1.1672567129135132,-0.0,-0.0,-1.0,0.0302024675077788,2.0,0.0
32.76045227050781,6.287893295288086,-1.1760507822036743,-0.0,-0.0,-1.0,0.0205952651135885,1.0,0.0
32.72655487060547,6.633738994598389,-1.1154018640518188,-0.0,-0.0,-1.0,0.0447995679966626,1.0,0.0
33.30573654174805,8.08592700958252,-1.2273210287094116,-0.0,-0.0,-1.0,0.0996644988354527,1.0,0.0
32.75994110107422,7.787059307098389,-1.078161120414734,-0.0,-0.0,-1.0,0.0766223719835318,1.0,0.0
33.40178680419922,7.901670455932617,-1.1461846828460691,-0.0,-0.0,-1.0,0.1130499154953735,1.0,0.0
35.1145133972168,7.075140953063965,-1.3802123069763184,-0.0,-0.0,-1.0,0.1518513996838089,1.0,0.0
35.09012985229492,6.958290100097656,-1.4074831008911133,0.9725960054573496,0.0248274515467498,-0.2311722470758577,0.077881633640753,3.0,0.0
35.02858352661133,8.048766136169434,-1.101443886756897,-0.0,-0.0,-1.0,0.1674728953235853,1.0,0.0
35.050506591796875,8.054039001464844,-0.7420169115066528,-0.9343465987712792,-0.3327446820790863,-0.1275829530643892,0.1437275088555134,7.0,0.0
35.00575256347656,7.950070381164551,-0.9099949598312378,-0.6975086583805442,-0.3760457412335231,-0.6099764519916353,0.1047948530580466,3.0,0.0
34.7117919921875,7.411140441894531,-1.2168636322021484,-0.0,-0.0,-1.0,0.1934823407467348,2.0,0.0
34.43370056152344,7.383705139160156,-1.1918604373931885,-0.0,-0.0,-1.0,0.2338493337926747,1.0,0.0
35.16449737548828,6.997066497802734,-1.3438639640808103,-0.0,-0.0,-1.0,0.164643167317771,1.0,0.0
34.692543029785156,7.235300064086914,-1.2475852966308594,-0.0,-0.0,-1.0,0.1901671517355486,1.0,0.0
34.466957092285156,7.268254280090332,-1.2171974182128906,0.0862328640109743,-0.8906840854867704,-0.446369525197521,0.2171089452108433,7.0,0.0
34.70819854736328,6.763815879821777,-1.33829927444458,-0.0,-0.0,-1.0,0.0931820384219196,1.0,0.0
34.52009201049805,7.309698104858398,-0.7964560985565186,-0.6625581372792269,-0.1685509419488355,0.7297994893758432,0.1294688232611923,3.0,0.0
34.53868865966797,7.953484535217285,-1.1203304529190063,-0.0,-0.0,-1.0,0.1332514627469371,1.0,0.0
34.600914001464844,7.820301055908203,-1.1499985456466677,-0.0,-0.0,-1.0,0.2349074256612545,2.0,0.0
34.651527404785156,7.439959526062012,-1.2209495306015017,-0.4937648352787258,-0.2975627142191243,-0.8171001888071745,0.1569792654703435,3.0,0.0
34.58671188354492,5.799039840698242,-1.060674786567688,-0.319598872304572,0.7460417792220428,-0.5841902296999281,0.2203418497850952,5.0,0.0
32.745941162109375,6.021274089813232,-1.1350533962249756,-0.0,-0.0,-1.0,0.0761122706901957,2.0,0.0
33.56413650512695,5.6539483070373535,-0.7553277015686035,0.5839820348602223,-0.8103642293558684,0.0476948502564316,0.1007999347604063,3.0,0.0
33.71307373046875,5.710838794708252,-0.7755239009857178,-0.0,-0.0,-1.0,0.0818492455777931,1.0,0.0
34.56726837158203,5.759807586669922,-0.8965580463409424,-0.511071000085903,-0.6376842176254063,-0.5763378101969955,0.1688544178997094,3.0,0.0
33.03131103515625,5.948647975921631,-0.7934176921844482,-0.4743997748172266,0.6010666432912344,-0.6431669643070705,0.2043656848663957,3.0,0.0
33.5306282043457,5.692861557006836,-0.8722200393676758,-0.0,-0.0,-1.0,0.0772504948444173,1.0,0.0
34.46644592285156,5.701655387878418,-1.0186686515808103,-0.2446276737876644,0.9049655634304646,-0.3481301914833269,0.1960504872153918,5.0,0.0
34.56040954589844,5.873285293579102,-1.03338623046875,-0.1595859293732124,-0.9178321637176794,-0.3634782667387569,0.1633854273566587,4.0,0.0
33.05073547363281,5.869775772094727,-0.8173426389694214,-0.0,-0.0,-1.0,0.1130216488404974,1.0,0.0
34.543724060058594,5.864421844482422,-1.0630720853805542,0.7042155335999044,-0.0758761136337514,-0.7059201779354655,0.1766451723390102,4.0,0.0
34.773681640625,7.480796813964844,-1.1327422857284546,-0.9265174991175134,0.1861425743758209,-0.3269805282180734,0.267236201723166,3.0,0.0
35.13272476196289,7.590805530548096,-1.1957238912582395,-0.0,-0.0,-1.0,0.1204437972646533,1.0,0.0
35.106204986572266,8.12634563446045,-1.2053784132003784,-0.7589593935858032,0.403678015702309,-0.5109057628628945,0.1383035547345512,3.0,0.0
35.19849395751953,7.805930137634277,-1.2122925519943235,-0.0,-0.0,-1.0,0.1846599914793822,2.0,0.0
32.73735046386719,5.790594100952148,-0.994388222694397,-0.0,-0.0,-1.0,0.1588557281106981,1.0,0.0
33.18357849121094,5.919320583343506,-1.074473261833191,-0.0,-0.0,-1.0,0.2119558452418471,1.0,0.0
33.5499267578125,5.754587173461914,-1.141687035560608,0.3303229823457789,-0.8329834266952497,-0.4438753633456466,0.1294433876465379,3.0,0.0
33.89865493774414,5.9327569007873535,-1.2043875455856323,-0.0,-0.0,-1.0,0.042645750548723,1.0,0.0
34.03434753417969,6.029473304748535,-1.2288681268692017,-0.0,-0.0,-1.0,0.0236729335990436,1.0,0.0
33.210365295410156,7.782742500305176,-1.084300875663757,-0.0,-0.0,-1.0,0.1523178645280186,2.0,0.0
33.24296188354492,7.84589433670044,-1.091075778007507,-0.0,-0.0,-1.0,0.1188453286791151,1.0,0.0
32.92363357543945,7.730196952819824,-1.0303958654403689,-0.0,-0.0,-1.0,0.0879705722508782,2.0,0.0
33.08937072753906,8.131245613098145,-1.0660187005996704,0.0794775596425772,0.7989013535510192,0.5961878435590666,0.0719801707227396,3.0,0.0
34.36366653442383,5.747441291809082,-1.1173760890960691,-0.587430010060006,-0.0457695061431074,-0.8079796628556422,0.1392795311093463,3.0,0.0
34.229591369628906,6.54461145401001,-1.1017534732818604,-0.0,-0.0,-1.0,0.1229587449758885,2.0,0.0
34.46864700317383,6.232985019683838,-1.142455816268921,-0.0,-0.0,-1.0,0.0951917799141632,2.0,0.0
34.51659393310547,5.946829795837402,-1.1479976177215576,-0.0,-0.0,-1.0,0.1106715990324105,1.0,0.0
35.1674919128418,5.888881206512451,-1.2702679634094238,0.9256726845559148,0.3705591169479268,0.0762628475328512,0.0464935159916233,3.0,0.0
34.400230407714844,6.7830891609191895,-1.1386072635650637,-0.0,-0.0,-1.0,0.1530567997722631,2.0,0.0
34.608245849609375,6.779242515563965,-1.178321361541748,-0.0,-0.0,-1.0,0.2233009661314122,2.0,0.0
34.62677764892578,7.587897777557373,-1.2019033432006836,-0.0,-0.0,-1.0,0.2479279048036652,2.0,0.0
34.90817642211914,7.805883407592773,-1.2632629871368408,-0.0,-0.0,-1.0,0.1910452263425756,2.0,0.0
35.201454162597656,7.6967082023620605,-1.3165597915649414,-0.0,-0.0,-1.0,0.1263198948707712,2.0,0.0
35.091522216796875,8.081477165222168,-1.308297872543335,-0.0,-0.0,-1.0,0.1632315005478792,1.0,0.0
35.18543243408203,7.9695258140563965,-1.3225419521331787,-0.0,-0.0,-1.0,0.1700501731480944,2.0,0.0
33.069515228271484,5.8344407081604,-0.8758144378662109,-0.0,-0.0,-1.0,0.1581950414637251,2.0,0.0
34.605003356933594,7.285436630249023,-0.7089576721191406,-0.4606039763953513,-0.8803814017933332,0.1130157701614971,0.1017594629872302,6.0,0.0
35.20244216918945,7.748219013214111,-0.8198099136352539,0.9360502731583786,-0.3502428938387949,-0.0337609454185033,0.1761874423716941,4.0,0.0
34.29827117919922,5.68952751159668,-1.0755009651184082,-0.0,-0.0,-1.0,0.1173852928989425,2.0,0.0
34.38133239746094,5.995595455169678,-1.104664325714111,-0.0,-0.0,-1.0,0.1173075468913154,1.0,0.0
34.885135650634766,6.010913848876953,-1.212663173675537,-0.0,-0.0,-1.0,0.1090490795333106,1.0,0.0
34.9817008972168,6.04996395111084,-1.2349956035614014,-0.0,-0.0,-1.0,0.0336097707128598,1.0,0.0
34.60641098022461,6.60567569732666,-1.1803581714630127,-0.0,-0.0,-1.0,0.2138527762599977,2.0,0.0
34.99355697631836,6.259840488433838,-1.2470107078552246,-0.0,-0.0,-1.0,0.1232729578641796,1.0,0.0
35.047454833984375,6.149176597595215,-1.2534992694854736,-0.0,-0.0,-1.0,0.0759026615331942,1.0,0.0
34.513648986816406,7.83411979675293,-1.2324059009552002,-0.0,-0.0,-1.0,0.2167464019836004,1.0,0.0
34.907955169677734,7.695263862609863,-1.3097038269042969,-0.0,-0.0,-1.0,0.1663996471625726,1.0,0.0
34.99832534790039,7.514285087585449,-1.3176350593566897,-0.0,-0.0,-1.0,0.2076840665080603,1.0,0.0
34.59269714355469,8.058944702148438,-1.2655141353607178,-0.0,-0.0,-1.0,0.170261727980477,1.0,0.0
34.89173889160156,7.830288887023926,-1.3153135776519775,-0.0,-0.0,-1.0,0.1443091270704773,2.0,0.0
33.004150390625,5.906655311584473,-0.8103618621826172,-0.9205200831109298,-0.3087548215045662,0.2394018312108952,0.2082520102443441,5.0,0.0
33.74909591674805,6.696247577667236,-1.0000998973846436,-0.0,-0.0,-1.0,0.1412473237575079,1.0,0.0
34.785587310791016,7.331120014190674,-0.7979953289031982,-0.0,-0.0,-1.0,0.102944473285619,1.0,0.0
34.02703857421875,7.7737274169921875,-1.121487379074097,-0.0,-0.0,-1.0,0.0702923156849225,1.0,0.0
35.17708969116211,5.710220813751221,-1.2228862047195437,-0.0,-0.0,-1.0,0.1631056843306082,1.0,0.0
33.694435119628906,6.762782573699951,-1.2968465089797974,-0.0,-0.0,-1.0,0.1277856638062675,1.0,0.0
32.92688751220703,5.872281551361084,-0.950867772102356,-0.0,-0.0,-1.0,0.1446528838879081,1.0,0.0
33.043212890625,5.80122709274292,-0.7882324457168579,-0.0,-0.0,-1.0,0.1900279078048355,1.0,0.0
34.4412841796875,5.653380393981934,-1.073499321937561,0.732328073484301,-0.0521011587292201,-0.678955861633026,0.1023305090315495,3.0,0.0
34.816490173339844,5.753340721130371,-1.1484886407852173,-0.0,-0.0,-1.0,0.1155642197770489,1.0,0.0
33.0584831237793,6.125491142272949,-1.1632519960403442,-0.0,-0.0,-1.0,0.0749651670201498,1.0,0.0
33.09998321533203,6.283597946166992,-1.1685417890548706,-0.0,-0.0,-1.0,0.0584564677217642,1.0,0.0
34.086944580078125,6.700738430023193,-0.985479474067688,-0.0,-0.0,-1.0,0.2167052046958192,1.0,0.0
34.09430694580078,6.981392860412598,-0.9874051809310912,-0.0,-0.0,-1.0,0.1066593600807444,1.0,0.0
33.000953674316406,7.453263282775879,-1.1222387552261353,-0.0,-0.0,-1.0,0.0740292496514329,1.0,0.0
34.15626525878906,7.282130241394043,-1.0023120641708374,-0.0,-0.0,-1.0,0.2862123844475424,1.0,0.0
34.57747268676758,7.256115913391113,-1.09099543094635,-0.7921573913055399,0.0280035876932101,-0.6096740657731068,0.2172695277010657,5.0,0.0
32.99058532714844,7.851160049438477,-1.1206508874893188,-0.0,-0.0,-1.0,0.1065796191470248,1.0,0.0
34.77800750732422,7.49580192565918,-1.1364578008651731,-0.9265174991175134,0.1861425743758209,-0.3269805282180734,0.267236201723166,3.0,0.0
35.088932037353516,7.687555313110352,-1.2059184312820437,-0.0,-0.0,-1.0,0.1435209303021424,2.0,0.0
