x,y,z,nx,ny,nz,curvature,density,label
45.20323944091797,0.0326147079467773,-1.1218137741088867,-0.0,-0.0,-1.0,0.0988020149520063,1.0,0.0
43.91896057128906,-1.684565544128418,-0.9680905342102052,-0.0,-0.0,-1.0,0.0662752630785886,2.0,0.0
43.850250244140625,-0.7617998123168945,-0.8455774784088135,0.7665792922352744,-0.3584610451506805,-0.5327868878130797,0.1453698375468509,3.0,0.0
43.683101654052734,-0.747065544128418,-0.8550992012023926,-0.1477700601155101,-0.4546635699603076,-0.8783194450109864,0.1935657440890427,5.0,0.0
43.53951644897461,-1.1673622131347656,-0.922126293182373,0.5944047845343376,-0.7657785392538368,-0.2454917125708062,0.1582893132350459,3.0,0.0
43.934818267822266,-1.201372146606445,-0.9002130031585693,-0.0,-0.0,-1.0,0.2476484322060045,1.0,0.0
43.88026809692383,-1.533220291137695,-0.94958233833313,-0.0,-0.0,-1.0,0.1070094653271819,1.0,0.0
44.308250427246094,-1.4944982528686523,-0.9173548221588136,0.6838000492738004,0.3188905677995458,-0.6562974161015964,0.1460885198463694,3.0,0.0
44.6146354675293,-1.4524412155151367,-0.8930480480194092,-0.0,-0.0,-1.0,0.1418647762076303,1.0,0.0
43.48622131347656,0.63641357421875,-1.216399312019348,-0.0,-0.0,-1.0,0.0328001688067375,2.0,0.0
44.10808944702149,0.4872579574584961,-1.1834059953689575,0.7238856340364982,-0.4887815653907396,-0.486910844169397,0.0579854109732583,3.0,0.0
43.790287017822266,0.444981575012207,-1.220328688621521,-0.0,-0.0,-1.0,0.0708244602482021,2.0,0.0
44.55447006225586,0.321537971496582,-1.1739495992660522,-0.0,-0.0,-1.0,0.028524444511432,1.0,0.0
44.326507568359375,0.3260946273803711,-1.1927820444107056,-0.3473865737968862,0.4743621274057364,-0.8088900669613668,0.0243581974465795,3.0,0.0
45.152931213378906,0.31719970703125,-1.1264153718948364,0.9855389767065746,-0.1466946841923538,0.0848150636494674,0.0872263824291246,4.0,0.0
44.86655807495117,0.1915369033813476,-1.1720353364944458,-0.0,-0.0,-1.0,0.1244864245334619,2.0,0.0
44.9102668762207,-0.024174690246582,-0.7471808195114136,-0.0,-0.0,-1.0,0.110598709041235,2.0,0.0
43.64960861206055,-1.000226974487305,-0.9770115613937378,-0.0,-0.0,-1.0,0.2434429636178399,2.0,0.0
43.25201797485352,-1.128143310546875,-1.024246096611023,-0.0,-0.0,-1.0,0.0925616195509571,1.0,0.0
42.98243713378906,-1.1572256088256836,-1.0482620000839231,-0.0,-0.0,-1.0,0.1379069890009526,2.0,0.0
45.0107536315918,-0.1290626525878906,-0.7569273710250854,-0.0,-0.0,-1.0,0.1230939285436003,2.0,0.0
44.18629837036133,-1.0906057357788086,-0.9543739557266236,-0.0,-0.0,-1.0,0.1042128087956441,2.0,0.0
44.04930877685547,-1.1449384689331057,-0.9714852571487428,-0.0,-0.0,-1.0,0.1721148068676836,1.0,0.0
43.68890380859375,-1.3737897872924805,-1.0297731161117554,-0.0,-0.0,-1.0,0.0468195559883033,1.0,0.0
45.17595672607422,-0.7101669311523438,-0.8361579179763794,-0.0,-0.0,-1.0,0.1218554725156757,1.0,0.0
44.34718704223633,-1.171004295349121,-0.956379532814026,-0.8188472101898766,-0.4591890071226166,-0.3444338864020235,0.1235989467760084,3.0,0.0
45.10084533691406,-1.281926155090332,-0.9287105798721312,-0.0,-0.0,-1.0,0.0960788127995723,1.0,0.0
45.19890594482422,-1.4060096740722656,-0.9425917863845824,-0.0,-0.0,-1.0,0.1277676600466174,1.0,0.0
44.16167068481445,-1.1948213577270508,-0.466827392578125,-0.5547594557707408,0.8127356347887831,0.1780526163172724,0.2230352950919494,3.0,0.0
42.84827423095703,-0.0115633010864257,-1.1810322999954224,-0.0,-0.0,-1.0,0.0165788157215794,2.0,0.0
43.34777069091797,-0.3080577850341797,-1.175453543663025,-0.0,-0.0,-1.0,0.051530605544924,1.0,0.0
43.12653350830078,-0.2267818450927734,-1.185144066810608,-0.8907045092234628,0.180196228616118,-0.4173425408959861,0.0496341194804756,3.0,0.0
44.355125427246094,-0.4004144668579101,-1.0953067541122437,-0.9273262155924432,-0.1800972064143852,-0.3280717697649884,0.0546790620299514,3.0,0.0
44.00550842285156,-0.551849365234375,-1.1516746282577517,0.2435684014426417,0.8742078977250131,-0.4200416471897629,0.1125518615514226,3.0,0.0
43.64484024047851,-0.5405998229980469,-1.1836837530136108,-0.8004381217989305,-0.1357345813010628,-0.5838449593942091,0.1002347106650947,5.0,0.0
44.86614608764648,-0.4773855209350586,-1.0648940801620483,-0.0,-0.0,-1.0,0.097297819600795,2.0,0.0
44.53993225097656,-0.489389419555664,-1.0940595865249634,-0.8414224012987692,-0.4276691368151357,-0.330314171673589,0.0954298452721995,3.0,0.0
42.99263000488281,-1.0172500610351562,-0.8167637586593628,-0.0,-0.0,-1.0,0.2342844805355409,1.0,0.0
43.67200469970703,-0.9298162460327148,-0.7514225244522095,-0.204989514703971,0.0596092546672912,-0.9769473044230382,0.132544276253753,4.0,0.0
44.163909912109375,-1.2943267822265625,-0.763590931892395,-0.0,-0.0,-1.0,0.1537886961853823,2.0,0.0
43.74264144897461,-1.3877496719360352,-0.8064659833908081,-0.0,-0.0,-1.0,0.1629031581362877,1.0,0.0
42.92585754394531,-1.7122697830200195,-0.9117418527603148,-0.0,-0.0,-1.0,0.1680872807368751,1.0,0.0
45.15462112426758,-0.1699810028076172,-0.5441633462905884,-0.0,-0.0,-1.0,0.0887862264962354,1.0,0.0
45.06733322143555,0.6353492736816406,-1.2494618892669678,-0.0,-0.0,-1.0,0.1000867074803114,1.0,0.0
42.89065170288086,-0.1226310729980468,-1.169363021850586,-0.0,-0.0,-1.0,0.020036799680022,2.0,0.0
43.33467102050781,-0.4085903167724609,-1.1696083545684814,-0.0612618061697446,-0.6757998595902551,-0.7345349146790858,0.0644674042600041,3.0,0.0
43.11429977416992,-0.2397212982177734,-1.164621353149414,-0.8907045092234628,0.180196228616118,-0.4173425408959861,0.0459935797267806,3.0,0.0
44.98984909057617,-0.6878185272216797,-1.069422960281372,-0.0,-0.0,-1.0,0.1711502385849099,1.0,0.0
44.765838623046875,-0.6942739486694336,-1.0881807804107666,-0.0,-0.0,-1.0,0.039969580323124,1.0,0.0
44.098331451416016,-0.6596612930297852,-1.1389200687408447,-0.0,-0.0,-1.0,0.0584735444613916,2.0,0.0
43.8277587890625,-0.6569728851318359,-1.1631755828857422,-0.0,-0.0,-1.0,0.1218189412112119,2.0,0.0
43.54001235961914,-0.559453010559082,-1.1741714477539062,-0.0,-0.0,-1.0,0.1203415929816567,2.0,0.0
45.10355758666992,-0.7581863403320312,-1.0729594230651855,-0.0,-0.0,-1.0,0.1097425645751571,1.0,0.0
44.57593536376953,-0.8730621337890625,-1.134336233139038,-0.0,-0.0,-1.0,0.06761620290184,1.0,0.0
44.30171203613281,-0.8803749084472656,-1.1586523056030271,-0.0,-0.0,-1.0,0.0687853385591203,1.0,0.0
44.06398391723633,-0.8527517318725586,-1.1745600700378418,-0.0,-0.0,-1.0,0.0855336251088297,1.0,0.0
44.333457946777344,-1.5273408889770508,-0.7757670879364014,-0.0,-0.0,-1.0,0.1964043761212349,1.0,0.0
44.324745178222656,-1.8187484741210935,-0.8167145252227783,-0.0,-0.0,-1.0,0.1268960083703448,1.0,0.0
44.232688903808594,-1.2890748977661133,-0.4893002510070801,-0.0,-0.0,-1.0,0.2813274086177289,2.0,0.0
44.99380111694336,-0.038670539855957,-0.8807635307312012,-0.0,-0.0,-1.0,0.1362558233356278,1.0,0.0
45.14479446411133,-0.5894527435302734,-0.9582066535949708,-0.0,-0.0,-1.0,0.2393479655146979,2.0,0.0
45.0519905090332,-0.8030004501342773,-0.9836137294769288,-0.0,-0.0,-1.0,0.1425024066372225,2.0,0.0
44.828880310058594,-0.052281379699707,-1.103367567062378,-0.0,-0.0,-1.0,0.1027396559807548,2.0,0.0
44.68266677856445,0.0839090347290039,-1.0787625312805176,-0.0,-0.0,-1.0,0.1259725295044086,1.0,0.0
44.70244598388672,-0.2645721435546875,-1.127485275268555,-0.0,-0.0,-1.0,0.0840440411134647,2.0,0.0
44.448150634765625,-0.3312091827392578,-1.1269292831420898,-0.0,-0.0,-1.0,0.0627880663427266,2.0,0.0
44.24024963378906,-0.5049924850463867,-1.1433613300323486,-0.0,-0.0,-1.0,0.0530973409736721,1.0,0.0
44.01614761352539,-0.6037521362304688,-1.1493079662322998,-0.5453779428167826,-0.2447164457399939,-0.8016712297901919,0.1017799898101947,4.0,0.0
42.91305923461914,0.1945858001708984,-1.1582539081573486,-0.0,-0.0,-1.0,0.0089778983029794,1.0,0.0
42.71792984008789,-1.718427658081055,-0.7244303226470947,-0.0,-0.0,-1.0,0.2451624214111415,1.0,0.0
43.07206726074219,-1.0140857696533203,-1.007100224494934,-0.0,-0.0,-1.0,0.2245179082848532,1.0,0.0
43.06538009643555,-0.8822803497314453,-0.9950345754623412,-0.0,-0.0,-1.0,0.1553386782009714,1.0,0.0
43.21158981323242,-1.2857646942138672,-1.0371931791305542,-0.0,-0.0,-1.0,0.0880933470796757,2.0,0.0
43.02484130859375,-1.2078227996826172,-1.0225166082382202,0.8829092524830924,-0.4571141985113924,-0.1073212998385424,0.1745427336941551,4.0,0.0
44.903053283691406,-1.5319747924804688,-0.9047465324401855,-0.0,-0.0,-1.0,0.0622554121034997,2.0,0.0
45.14515686035156,-1.541460037231445,-0.9180786609649658,-0.0,-0.0,-1.0,0.1430102721258608,1.0,0.0
44.83042526245117,-1.6606330871582031,-0.908623218536377,-0.0,-0.0,-1.0,0.0658054689238811,1.0,0.0
44.491249084472656,-1.754547119140625,-0.8965306282043457,-0.0,-0.0,-1.0,0.1058259398843826,2.0,0.0
43.690330505371094,-0.7956418991088867,-0.8658119440078735,-0.6848250744936524,-0.6914524174753764,0.230017763905793,0.2132985261520843,5.0,0.0
43.5394287109375,-1.5154237747192385,-0.8855406045913696,-0.0,-0.0,-1.0,0.117034839694814,1.0,0.0
44.770320892333984,-1.0146493911743164,-0.9492405652999878,-0.628993906354512,0.4841969867635416,0.6082104436607435,0.0887764317248269,3.0,0.0
44.511077880859375,-1.1228723526000977,-0.9358681440353394,-0.0,-0.0,-1.0,0.1113135712203326,1.0,0.0
44.01300048828125,-1.4673547744750977,-0.9159899950027466,-0.9027851516421525,0.4229809944808483,0.0778848398756043,0.1500575643722768,3.0,0.0
43.567813873291016,-1.6545381546020508,-0.8933240175247192,-0.0,-0.0,-1.0,0.0454896140824831,1.0,0.0
43.40431213378906,-1.8228254318237305,-0.889224648475647,-0.0,-0.0,-1.0,0.1072339191183826,1.0,0.0
44.13467025756836,-1.8024263381958008,-0.6164559125900269,-0.0,-0.0,-1.0,0.1577009197620719,1.0,0.0
44.39788818359375,-1.1856346130371094,-0.664217472076416,-0.0,-0.0,-1.0,0.1240747374309874,1.0,0.0
43.09313201904297,-0.8778476715087891,-1.1245781183242798,-0.0,-0.0,-1.0,0.0761167653486756,2.0,0.0
43.25919723510742,-0.6683540344238281,-1.1460453271865845,-0.0,-0.0,-1.0,0.0563899643218946,2.0,0.0
43.212554931640625,-0.8439464569091797,-1.1384063959121704,-0.9012161049553532,-0.2399666266827277,-0.3608677739111854,0.0520953901453563,3.0,0.0
43.47913360595703,-0.4791250228881836,-1.1734050512313845,0.0274696807309963,0.0586568367830595,-0.9979001914716435,0.1571863834571069,3.0,0.0
43.6109733581543,-0.4764060974121094,-1.1882840394973757,-0.2215361790516029,-0.3550831932962675,-0.908205729562274,0.0775004643681302,4.0,0.0
43.44264221191406,0.314910888671875,-1.181202054023743,-0.3447643092065192,0.0715751435651572,-0.9359565000153474,0.0370762908660954,3.0,0.0
43.72249603271485,-0.1990213394165039,-1.204914689064026,-0.0,-0.0,-1.0,0.0770483951534605,1.0,0.0
43.777381896972656,-0.2246294021606445,-1.2107270956039429,-0.0317130490611214,0.5956206450888553,-0.802639601354919,0.1032277119591832,3.0,0.0
43.4139289855957,0.5198850631713867,-1.1811929941177368,-0.0,-0.0,-1.0,0.0258750101722186,1.0,0.0
43.87840270996094,0.4607934951782226,-1.2328494787216189,-0.0,-0.0,-1.0,0.0519026366373752,2.0,0.0
43.54312896728515,-1.1296377182006836,-1.0634424686431885,-0.0,-0.0,-1.0,0.1921131795416595,2.0,0.0
43.74946594238281,-1.0895423889160156,-1.0879557132720947,-0.0,-0.0,-1.0,0.1057813967814994,2.0,0.0
43.92024993896485,-0.9323415756225586,-1.110771656036377,-0.0,-0.0,-1.0,0.131538410024632,2.0,0.0
44.15923309326172,-0.564030647277832,-1.1460974216461182,-0.0,-0.0,-1.0,0.05806313113317,2.0,0.0
43.72239303588867,0.2529382705688476,-1.1133489608764648,-0.9587297258612714,-0.0082676531813455,0.2841988013008579,0.107831365409583,3.0,0.0
44.22825622558594,-0.1640453338623047,-1.1629438400268557,0.1174164008863224,0.2447060879091318,-0.9624615936976968,0.049556849743638,3.0,0.0
44.19041442871094,-0.3380298614501953,-1.154625415802002,-0.0,-0.0,-1.0,0.0641951272148557,2.0,0.0
44.384864807128906,0.2415685653686523,-1.1907615661621094,-0.0,-0.0,-1.0,0.0204540263406514,2.0,0.0
44.5203857421875,0.5563259124755859,-1.214475393295288,-0.0,-0.0,-1.0,0.0585977730485986,2.0,0.0
42.73163604736328,-1.717890739440918,-0.9826443195343018,-0.0,-0.0,-1.0,0.2060585968219642,2.0,0.0
43.30665588378906,-0.643986701965332,-1.1046128273010254,-0.0,-0.0,-1.0,0.0591246225547854,2.0,0.0
43.34849548339844,-0.391880989074707,-1.1215393543243408,-0.0,-0.0,-1.0,0.0641455427375499,2.0,0.0
43.548187255859375,-0.2645540237426758,-1.1548335552215576,-0.6984258684210874,0.2323435674525512,-0.6769178480315553,0.0865682337489356,3.0,0.0
43.512107849121094,0.0205068588256835,-1.1631488800048828,-0.0,-0.0,-1.0,0.1072201795653019,1.0,0.0
43.27885055541992,0.5941123962402344,-1.1584594249725342,-0.0,-0.0,-1.0,0.0729423817115475,2.0,0.0
43.34358215332031,0.4541492462158203,-1.1605699062347412,-0.0,-0.0,-1.0,0.0229148986253581,2.0,0.0
43.82295227050781,-1.4776906967163086,-0.6390941143035889,-0.3089802517929207,0.9420013036929032,0.1310143039627895,0.2308660062820242,3.0,0.0
43.93562316894531,-1.4475336074829102,-0.6504870653152466,-0.0,-0.0,-1.0,0.164046482120336,1.0,0.0
44.51725769042969,-1.4435224533081057,-0.7077895402908325,-0.0,-0.0,-1.0,0.1394964060512416,1.0,0.0
45.2070426940918,-1.773885726928711,-0.8261662721633911,-0.0,-0.0,-1.0,0.1090856751265659,2.0,0.0
43.77062225341797,-1.535008430480957,-0.6791952848434448,-0.0,-0.0,-1.0,0.185933190165205,1.0,0.0
44.438331604003906,-1.4750967025756836,-0.7474204301834106,-0.0,-0.0,-1.0,0.1416921887538072,1.0,0.0
45.11256790161133,-0.1779642105102539,-0.823487401008606,-0.0,-0.0,-1.0,0.1191908288672161,2.0,0.0
44.28058624267578,-1.2874107360839844,-0.6895554065704346,-0.0,-0.0,-1.0,0.1760283138183244,2.0,0.0
45.13599395751953,-0.1790227890014648,-0.7952618598937988,-0.0,-0.0,-1.0,0.0868317215033237,2.0,0.0
45.001976013183594,0.0132398605346679,-0.7822322845458984,0.7038648431464846,0.359675951181692,-0.6125418293667132,0.2626577552198554,3.0,0.0
44.27072525024414,-1.6927404403686523,-0.9091678857803344,-0.6743990100088212,0.7153051789870507,0.1830969038881467,0.0878127471662497,3.0,0.0
44.36420440673828,-1.6857481002807615,-0.9160679578781128,-0.0,-0.0,-1.0,0.0836885336165537,2.0,0.0
44.07910919189453,-1.2902898788452148,-0.8664945363998413,-0.0,-0.0,-1.0,0.2375150836744928,1.0,0.0
44.67840576171875,-1.263016700744629,-0.9142378568649292,-0.0,-0.0,-1.0,0.108518870052577,2.0,0.0
44.94822692871094,-1.2423162460327148,-0.9357408285140992,-0.0,-0.0,-1.0,0.0449376967619001,2.0,0.0
45.154083251953125,-0.974905014038086,-0.9376190900802612,-0.0,-0.0,-1.0,0.1073799640723902,1.0,0.0
43.74052429199219,-0.9898529052734376,-0.8191014528274536,0.0901501275287043,-0.0750602375064053,-0.9930956224110752,0.1377427347267435,3.0,0.0
43.61775588989258,-0.8351583480834961,-0.7989610433578491,-0.0,-0.0,-1.0,0.14871589027816,2.0,0.0
44.06090545654297,-1.5818967819213867,-0.970844030380249,-0.0,-0.0,-1.0,0.115153764840892,1.0,0.0
44.20941925048828,-1.4312067031860352,-0.9865705966949464,0.0966071322663262,-0.6060042517985804,-0.789573244732444,0.0888890819580296,3.0,0.0
44.485965728759766,-0.9613246917724608,-1.0135436058044434,-0.0,-0.0,-1.0,0.0900784498437518,2.0,0.0
44.61564254760742,-0.721623420715332,-1.026512861251831,-0.0,-0.0,-1.0,0.0848635061479726,1.0,0.0
44.679100036621094,-0.6404256820678711,-1.0335547924041748,-0.0,-0.0,-1.0,0.109634190898013,2.0,0.0
44.91345977783203,-0.2719097137451172,-1.059326410293579,-0.0,-0.0,-1.0,0.0716846510318795,1.0,0.0
45.097660064697266,-0.0672988891601562,-1.081120491027832,0.04070172265277,-0.0874179824405728,-0.9953398746755386,0.0699349430493828,6.0,0.0
43.582275390625,-1.7759933471679688,-0.9155066013336182,-0.0,-0.0,-1.0,0.0480886377327541,2.0,0.0
43.83509063720703,-1.6626605987548828,-0.9443371295928956,-0.0,-0.0,-1.0,0.1030780176175824,2.0,0.0
44.00236129760742,-1.4816675186157229,-0.9615814685821532,-0.8830518324374529,0.4648955551437735,-0.0639654909808333,0.1484706977461014,5.0,0.0
43.72304916381836,-0.8566551208496094,-0.9148366451263428,-0.1244502302542255,-0.6867304295038755,-0.7161797661084072,0.1096968886185782,3.0,0.0
43.808502197265625,-1.0742177963256836,-0.9295156002044678,-0.0,-0.0,-1.0,0.1833994993200485,1.0,0.0
44.38414001464844,-0.8943290710449219,-0.999448537826538,-0.0,-0.0,-1.0,0.0533059265393694,2.0,0.0
43.73152160644531,-0.7011594772338867,-0.9132115840911864,0.0424965680751839,-0.9175139926062408,-0.3954264976877325,0.1837644802234514,5.0,0.0
44.63422393798828,-0.5738248825073242,-1.026818037033081,-0.0,-0.0,-1.0,0.1252500863141507,1.0,0.0
44.64301300048828,-0.4190883636474609,-1.0258948802947998,-0.0,-0.0,-1.0,0.1208376862793673,1.0,0.0
44.859493255615234,-0.1986579895019531,-1.0513629913330078,-0.0,-0.0,-1.0,0.0938009060023763,2.0,0.0
43.192928314208984,-1.6173381805419922,-0.9743427038192748,-0.0,-0.0,-1.0,0.0668415030128908,2.0,0.0
43.30730819702149,-1.3009519577026367,-0.9767671823501588,0.8326106232384772,0.4633185735187938,0.3034723208184641,0.093348434220741,3.0,0.0
43.612281799316406,-1.2562894821166992,-1.014140248298645,-0.0,-0.0,-1.0,0.1660180843620226,2.0,0.0
43.98695373535156,-1.4285573959350586,-1.0682858228683472,-0.0,-0.0,-1.0,0.1135808513102211,1.0,0.0
43.67300033569336,-0.9060945510864258,-1.0096710920333862,0.560893057502316,0.4991473954298515,-0.6604928884411242,0.1712742649368001,5.0,0.0
44.05892181396485,-0.7963676452636719,-1.0562397241592407,0.8577015207439945,0.5009879041183631,0.1155820974049595,0.1042260932817339,6.0,0.0
44.2676887512207,-0.7074117660522461,-1.0807408094406128,-0.2051127600462816,0.9787180922415204,0.0062969504774014,0.0497782861735658,3.0,0.0
44.4332389831543,-0.5111303329467773,-1.096629977226257,-0.5146025812638112,0.0044920114636033,-0.8574170544079665,0.0885758739528108,3.0,0.0
44.698951721191406,-0.3743495941162109,-1.1278897523880005,-0.0,-0.0,-1.0,0.1023175862601465,1.0,0.0
44.640621185302734,-0.0296459197998046,-1.110529541969299,0.4385426384941601,0.886020896429045,-0.1504902831203795,0.1756840149802725,3.0,0.0
44.90229797363281,-0.1384534835815429,-1.148685097694397,-0.0,-0.0,-1.0,0.0974078945974972,2.0,0.0
45.03435897827149,0.177525520324707,-1.158326268196106,0.1139566374179211,0.7458220294853601,-0.6563256700166005,0.0893474038858033,3.0,0.0
42.80107879638672,-1.0608453750610352,-1.0807892084121704,-0.0,-0.0,-1.0,0.0960046790373035,1.0,0.0
43.057830810546875,-0.9506654739379884,-1.111080527305603,-0.0531172907406315,-0.6026091675112362,-0.7962667547096202,0.1037328569538707,4.0,0.0
43.26227951049805,-0.7290477752685547,-1.1288508176803589,-0.0,-0.0,-1.0,0.0609104098165967,2.0,0.0
43.59486770629883,-0.5823707580566406,-1.1696137189865112,-0.0,-0.0,-1.0,0.1254445665620938,2.0,0.0
43.76910781860352,-0.3883924484252929,-1.1859971284866333,0.2749929393542655,0.3546448789759746,-0.8936475217452446,0.0688948476049756,3.0,0.0
43.912330627441406,-0.1977701187133789,-1.1984878778457642,-0.0,-0.0,-1.0,0.0959630609112627,2.0,0.0
44.026485443115234,0.0417900085449218,-1.205213189125061,0.0864721668089841,-0.958302023117242,-0.2723596828768166,0.0265630566820459,3.0,0.0
44.173858642578125,0.4261932373046875,-1.2118312120437622,-0.0,-0.0,-1.0,0.037770604154939,2.0,0.0
44.36656951904297,0.5915088653564453,-1.2348164319992063,0.4631795783664078,0.2306144580008172,-0.8557345674596217,0.0422715551699204,4.0,0.0
43.778770446777344,-1.4254121780395508,-0.6144024133682251,-0.6092132074342579,-0.4943566028863675,-0.6200571079104843,0.179474932603027,4.0,0.0
45.17740631103515,-1.7708978652954102,-0.7859231233596802,-0.0,-0.0,-1.0,0.1112717943269539,1.0,0.0
44.30574798583984,-1.3383846282958984,-0.6726697683334351,-0.0,-0.0,-1.0,0.1590371417655942,2.0,0.0
42.793094635009766,-1.092289924621582,-1.0175447463989258,-0.0,-0.0,-1.0,0.1055849658084439,1.0,0.0
43.129791259765625,-1.1338186264038086,-1.0677926540374756,-0.0,-0.0,-1.0,0.0972611659069081,1.0,0.0
43.30335235595703,-1.0030632019042969,-1.0848076343536377,-0.0,-0.0,-1.0,0.0508810336871452,1.0,0.0
43.606201171875,-0.8520870208740234,-1.1199932098388672,-0.0,-0.0,-1.0,0.1915396684066737,2.0,0.0
43.84148788452149,-0.6968851089477539,-1.1458003520965576,-0.0,-0.0,-1.0,0.0999163339373403,2.0,0.0
44.017234802246094,-0.5613422393798828,-1.1646318435668943,0.5174884106838616,-0.0614690493261796,-0.8534795256963265,0.1119329696472619,4.0,0.0
43.741668701171875,-0.2540416717529297,-1.1072864532470703,-0.0,-0.0,-1.0,0.105741462012137,1.0,0.0
44.18232727050781,-0.1663846969604492,-1.1691417694091797,-0.0,-0.0,-1.0,0.0551013623666249,2.0,0.0
44.32495880126953,-0.0729455947875976,-1.1861364841461182,-0.0,-0.0,-1.0,0.0505465228051704,1.0,0.0
44.31721115112305,0.1048192977905273,-1.1764295101165771,0.2127398032431964,-0.9651816712709732,0.1522041969152519,0.0409302987334359,3.0,0.0
44.464962005615234,0.2392282485961914,-1.1929032802581787,-0.9082316037071544,-0.0180686463791871,-0.418077598114936,0.0223333383207312,3.0,0.0
44.59599304199219,0.5448675155639648,-1.1996431350708008,-0.0,-0.0,-1.0,0.0548185779770019,1.0,0.0
43.764408111572266,-1.344583511352539,-0.5825142860412598,-0.208861798581546,0.206129329717353,-0.9559746066311364,0.167375480322302,4.0,0.0
43.88313674926758,-1.3359270095825195,-0.5961644649505615,-0.0,-0.0,-1.0,0.2214639605575387,2.0,0.0
44.26026916503906,-1.275125503540039,-0.6387605667114258,-0.6638167621399188,0.0591519306050724,-0.7455523827389781,0.1370624591380682,3.0,0.0
42.76779556274414,-1.8593339920043943,-0.8442747592926025,-0.0,-0.0,-1.0,0.2456764411658542,1.0,0.0
43.58039474487305,-1.7033405303955078,-0.9330222606658936,-0.0,-0.0,-1.0,0.0443067614245862,2.0,0.0
43.8924560546875,-1.6272897720336914,-0.9673187732696532,-0.0,-0.0,-1.0,0.1081895718593903,1.0,0.0
43.99471664428711,-1.379502296447754,-0.9633946418762208,0.3432724548776475,-0.9358503015675756,0.0796758104957276,0.1349464578673583,3.0,0.0
44.35123825073242,-1.1493806838989258,-0.9948387145996094,-0.0,-0.0,-1.0,0.0324182878733355,2.0,0.0
43.68234634399414,-0.816523551940918,-0.8847811222076416,0.3260283621161471,-0.0281502844235306,-0.9449407751720404,0.210660424354242,5.0,0.0
44.46737289428711,-0.9919395446777344,-1.000211238861084,0.488558603133597,-0.5804189475658993,-0.65147857724613,0.0648335004413169,3.0,0.0
44.683387756347656,-0.8633298873901367,-1.0212244987487793,-0.0,-0.0,-1.0,0.0970795109910238,2.0,0.0
44.764617919921875,-0.5619573593139648,-1.0140340328216553,-0.0,-0.0,-1.0,0.1397614919114501,1.0,0.0
45.19200134277344,-0.5238628387451172,-1.0708484649658203,-0.0,-0.0,-1.0,0.1789318396841954,1.0,0.0
42.78279876708984,0.3048238754272461,-1.1885616779327393,-0.0,-0.0,-1.0,0.0086452748489317,1.0,0.0
42.947776794433594,0.5112133026123047,-1.1971404552459717,-0.0,-0.0,-1.0,0.0214879982324718,1.0,0.0
44.24747085571289,-1.2148733139038086,-0.4194426536560058,-0.0,-0.0,-1.0,0.2376609971515942,1.0,0.0
44.45730209350586,-1.4548206329345703,-0.9450066089630128,-0.0,-0.0,-1.0,0.1445536489733172,2.0,0.0
44.650428771972656,-1.210348129272461,-0.9540605545043944,-0.4619658574868552,0.8742016003896289,0.1495296237962453,0.0829694262880542,3.0,0.0
42.96510314941406,-0.5022954940795898,-1.1782653331756592,-0.0,-0.0,-1.0,0.0159568901290012,1.0,0.0
44.98450469970703,-0.8369369506835938,-0.9749341011047364,-0.0,-0.0,-1.0,0.1403156357034348,2.0,0.0
43.1909294128418,-0.2793569564819336,-1.1915912628173828,-0.0,-0.0,-1.0,0.0589637298910366,1.0,0.0
43.38236618041992,-0.1244411468505859,-1.2070941925048828,-0.0,-0.0,-1.0,0.0527312777138932,2.0,0.0
45.139286041259766,-0.5833902359008789,-0.9804685115814208,-0.0,-0.0,-1.0,0.2368204718800954,2.0,0.0
43.56678771972656,0.1457929611206054,-1.2120370864868164,0.2153057200778277,-0.3132079370365535,-0.9249563422557168,0.1303978514792272,3.0,0.0
43.84626388549805,0.2790517807006836,-1.2457966804504397,-0.9475999583800212,0.2263010362016886,-0.2254820611317536,0.0529786641718052,3.0,0.0
44.02851104736328,0.5366744995117188,-1.2542526721954346,0.5495999335435098,0.4134750389855441,-0.7259327139514185,0.0481740026128874,3.0,0.0
43.76771545410156,-1.0801372528076172,-0.8284966945648193,-0.0,-0.0,-1.0,0.1047872348429575,2.0,0.0
43.68705749511719,-0.8459081649780273,-0.8013989925384521,-0.0,-0.0,-1.0,0.1376840405615071,2.0,0.0
42.826995849609375,-0.656804084777832,-1.1522094011306765,-0.0,-0.0,-1.0,0.0059133542817334,1.0,0.0
43.068138122558594,-0.5201025009155273,-1.1697756052017212,-0.0,-0.0,-1.0,0.0227426039464004,2.0,0.0
43.23919296264648,-0.3699817657470703,-1.1767269372940063,-0.8397379623076091,0.1425596875139176,0.5239435944406599,0.0629280251741733,3.0,0.0
43.588958740234375,-0.2082138061523437,-1.2098101377487185,-0.3847290842228278,0.8407551375007473,-0.380938749038692,0.0998102099752294,3.0,0.0
43.796485900878906,0.0140504837036132,-1.2161294221878052,0.174350132574122,0.7156403144031898,-0.6763586117381001,0.0779634040386406,4.0,0.0
43.993446350097656,0.1730127334594726,-1.2291191816329956,-0.0,-0.0,-1.0,0.0195643614383643,2.0,0.0
44.190948486328125,0.4300107955932617,-1.2328072786331177,-0.3868744867780127,0.9099169016822932,-0.1495973379213172,0.0413042096815589,3.0,0.0
44.388816833496094,0.5954046249389648,-1.2472633123397827,-0.4992599910412943,0.4066875765932752,-0.765078215864323,0.0465497553633889,3.0,0.0
42.89152526855469,-1.8571929931640625,-0.8056670427322388,-0.0,-0.0,-1.0,0.1811378986479807,1.0,0.0
44.10310363769531,-1.7835121154785156,-0.9391752481460572,-0.0,-0.0,-1.0,0.0873265457215388,1.0,0.0
44.30137252807617,-1.525653839111328,-0.9396592378616332,0.5631672705142945,0.4310902392270543,-0.7049849864108034,0.1256736553121513,4.0,0.0
43.681549072265625,-1.0134897232055664,-0.8169490098953247,0.3528849858875401,0.91203288843057,-0.2089693689422961,0.1320943174327399,3.0,0.0
44.43729782104492,-1.3047428131103516,-0.9364982843399048,-0.0,-0.0,-1.0,0.1372797971508481,2.0,0.0
44.67802810668945,-1.1952219009399414,-0.9572266340255736,-0.4619658574868552,0.8742016003896289,0.1495296237962453,0.0962068165531251,3.0,0.0
43.58898162841797,-0.7599773406982422,-0.7824274301528931,0.2384385922528571,-0.5646100249293816,-0.7901661581425254,0.2025165647747747,5.0,0.0
44.87735748291016,-0.9686574935913086,-0.9631463289260864,-0.0,-0.0,-1.0,0.065716776273936,1.0,0.0
45.11259841918945,-0.7897586822509766,-0.9788085222244264,-0.0,-0.0,-1.0,0.1220045236774644,2.0,0.0
42.95322799682617,-1.701616287231445,-0.9789564609527588,-0.0,-0.0,-1.0,0.125462487434785,1.0,0.0
43.30665969848633,-1.4738655090332031,-0.994619846343994,-0.0,-0.0,-1.0,0.0343637579846785,1.0,0.0
43.741432189941406,-1.4212636947631836,-1.0438580513000488,-0.561962359538379,-0.2077323039461989,-0.8006532310303016,0.0898871566582784,4.0,0.0
43.73967361450195,-1.0136146545410156,-0.9960606098175048,0.9814087681715252,-0.1740599415873504,-0.0808700592967369,0.2221779303394165,5.0,0.0
44.07762145996094,-1.124776840209961,-1.0541234016418457,-0.0,-0.0,-1.0,0.0639105383022882,2.0,0.0
43.88979721069336,-0.8501138687133789,-0.9974935054779052,-0.0,-0.0,-1.0,0.2421520528103047,2.0,0.0
44.29838943481445,-0.7666826248168945,-1.0444536209106443,-0.0,-0.0,-1.0,0.077814082863185,2.0,0.0
44.54074478149414,-0.6182355880737305,-1.0624430179595947,-0.0,-0.0,-1.0,0.0840362603034691,2.0,0.0
44.72076416015625,-0.4314527511596679,-1.0686328411102295,0.7066737910431501,0.698739960634763,0.1112412714096379,0.0966764864105095,3.0,0.0
42.8674201965332,0.1356124877929687,-1.174358606338501,-0.0,-0.0,-1.0,0.0057327450582602,2.0,0.0
43.12187957763672,0.2725811004638672,-1.195101022720337,-0.0,-0.0,-1.0,0.0198719464652432,2.0,0.0
44.83548355102539,-0.1818828582763672,-1.059497356414795,-0.2168316759682738,-0.8283594224254371,-0.5165314042493308,0.0895252452900851,4.0,0.0
45.12273025512695,-0.0757761001586914,-1.091899871826172,-0.5426026257884355,-0.5872302871879643,-0.600618831120567,0.1175182278408462,4.0,0.0
43.3049201965332,0.4875249862670898,-1.1949131488800049,-0.0,-0.0,-1.0,0.026915726596025,2.0,0.0
43.61766815185547,0.5683889389038086,-1.2360589504241943,-0.5049115342254694,0.289938691961962,-0.8130190019362827,0.0464290864983488,4.0,0.0
43.84516143798828,-1.3833417892456057,-0.5664396286010742,-0.0,-0.0,-1.0,0.2307089154147941,2.0,0.0
44.167503356933594,-1.4120006561279297,-0.6046309471130371,-0.0,-0.0,-1.0,0.1457609412457068,1.0,0.0
44.24122619628906,-1.3115530014038086,-0.6042313575744629,0.9313290049430129,-0.0644294172285385,0.358434282327248,0.1521791088018441,3.0,0.0
43.976200103759766,-0.5939264297485352,-1.1857153177261353,-0.390788345582608,0.1347348537627757,-0.9105663007921676,0.085621674570303,3.0,0.0
44.78116226196289,0.0525436401367187,-1.1905707120895386,-0.0,-0.0,-1.0,0.0726586743565229,1.0,0.0
44.96762466430664,0.2320661544799804,-1.18974506855011,-0.0,-0.0,-1.0,0.0837268656142565,2.0,0.0
42.753963470458984,-0.9726495742797852,-1.107646107673645,0.0423625358437727,-0.5663210827113794,-0.823095284176441,0.0850751783109155,4.0,0.0
42.98799133300781,-0.9541702270507812,-1.129715085029602,-0.0,-0.0,-1.0,0.0958328290166443,2.0,0.0
44.33541488647461,-1.607834815979004,-0.9088476896286012,-0.0,-0.0,-1.0,0.128142475894311,1.0,0.0
44.447269439697266,-1.541966438293457,-0.911213517189026,-0.0,-0.0,-1.0,0.1703138925917112,2.0,0.0
43.20570755004883,-0.826716423034668,-1.1327635049819946,-0.9012161049553532,-0.2399666266827277,-0.3608677739111854,0.0420031173727473,3.0,0.0
43.466407775878906,-0.761993408203125,-1.1518672704696655,-0.0,-0.0,-1.0,0.0652946538402981,1.0,0.0
44.70493698120117,-1.3743953704833984,-0.9155534505844116,-0.0,-0.0,-1.0,0.065770039472624,1.0,0.0
44.95322036743164,-1.3538169860839844,-0.9383851289749146,-0.0,-0.0,-1.0,0.0546332101113227,1.0,0.0
43.46671676635742,-0.6156930923461914,-1.1281152963638306,-0.0,-0.0,-1.0,0.1322946609363851,2.0,0.0
43.73714447021485,-0.6656303405761719,-1.1682218313217163,-0.0,-0.0,-1.0,0.1177583818380995,1.0,0.0
43.97518157958984,-0.5569143295288086,-1.1798015832901,0.0390734197823045,0.570990984992849,-0.8200259525913871,0.0882628057396719,5.0,0.0
44.17415618896485,-0.2879066467285156,-1.1626194715499878,-0.0,-0.0,-1.0,0.0643739818283042,2.0,0.0
45.092041015625,-0.7177104949951172,-0.8735734224319458,-0.0,-0.0,-1.0,0.1602065009028855,1.0,0.0
44.46647262573242,-0.0610971450805664,-1.165659785270691,-0.0,-0.0,-1.0,0.1063804855051419,2.0,0.0
44.65971374511719,0.0278873443603515,-1.177874207496643,-0.0,-0.0,-1.0,0.1383198028020775,1.0,0.0
44.90235137939453,0.2244243621826172,-1.1819745302200315,-0.5218153914389831,0.3302099567982287,-0.7865558350738315,0.0944192175431102,3.0,0.0
44.935211181640625,0.5163373947143555,-1.1442235708236694,-0.0,-0.0,-1.0,0.0499238913363525,2.0,0.0
43.64427185058594,-0.948650360107422,-0.7546142339706421,0.8469730369807797,-0.437758150332439,-0.301669482124189,0.1466178611033722,4.0,0.0
44.96456527709961,-0.0269813537597656,-0.7754224538803101,0.1853139154926847,-0.7812012160650088,-0.5961404303881106,0.1440302340171718,3.0,0.0
45.0222053527832,-0.025461196899414,-0.7817116975784302,0.7038648431464846,0.359675951181692,-0.6125418293667132,0.2259624369646896,3.0,0.0
42.89006042480469,0.0074491500854492,-1.1875250339508057,-0.0,-0.0,-1.0,0.0141451315942248,2.0,0.0
43.203521728515625,0.222447395324707,-1.1849851608276367,-0.2123242324500741,0.9764314164452674,0.0387312444052041,0.0207072413262132,3.0,0.0
43.42537689208984,0.255167007446289,-1.2076547145843506,-0.9692609362715128,0.1253596253024941,-0.2117030981400329,0.0358201282588238,3.0,0.0
43.7403678894043,0.3563060760498047,-1.2312545776367188,-0.0,-0.0,-1.0,0.0755676834215063,2.0,0.0
43.88037872314453,0.3808317184448242,-1.2460191249847412,-0.7578251494475882,0.5800431383351451,0.298749059471418,0.0455211973348177,3.0,0.0
44.20906066894531,0.5898141860961914,-1.2551729679107666,-0.0,-0.0,-1.0,0.0348391280526583,1.0,0.0
42.89213562011719,-1.414470672607422,-1.037571668624878,-0.0,-0.0,-1.0,0.0392741109140154,1.0,0.0
43.10215759277344,-1.2123174667358398,-1.0225880146026611,-0.0,-0.0,-1.0,0.1304775229312057,2.0,0.0
43.472862243652344,-1.2519025802612305,-1.0653424263000488,-0.0,-0.0,-1.0,0.088152739769767,2.0,0.0
43.71164321899414,-0.974989891052246,-1.0438084602355957,-0.0,-0.0,-1.0,0.1928884972986957,2.0,0.0
43.97943115234375,-0.9840030670166016,-1.0734376907348633,-0.3247196403111584,0.0767950679009593,-0.942687473525706,0.1137565317632458,3.0,0.0
44.74357604980469,-1.6972007751464844,-0.7980341911315918,-0.0,-0.0,-1.0,0.076557149288213,2.0,0.0
44.95375061035156,-1.8091278076171875,-0.8314950466156006,0.6850217616891946,-0.057146297752703,-0.7262778302174668,0.0808759318486277,4.0,0.0
43.993350982666016,-0.7476654052734375,-1.0368287563323977,-0.0,-0.0,-1.0,0.1674037390842497,1.0,0.0
44.15070343017578,-0.767033576965332,-1.057291030883789,-0.0,-0.0,-1.0,0.0594506549333049,2.0,0.0
44.44997787475586,-0.5938549041748047,-1.063606023788452,-0.0,-0.0,-1.0,0.0796893800786622,2.0,0.0
44.75978469848633,-0.3084745407104492,-1.056105613708496,0.5256614729626461,-0.4822035865844114,-0.7008278796736552,0.0888195796734103,3.0,0.0
44.82220077514648,-0.3840541839599609,-1.0750043392181396,-0.0,-0.0,-1.0,0.0537031937925763,2.0,0.0
44.91872024536133,-0.1042070388793945,-1.0445079803466797,-0.0,-0.0,-1.0,0.1595759671670127,2.0,0.0
45.1496696472168,-0.0169172286987304,-1.0604708194732666,-0.0,-0.0,-1.0,0.1382767332526883,2.0,0.0
43.81892013549805,-1.450333595275879,-0.6860219240188599,-0.8316278717798897,-0.0219071072410234,0.5549010376014645,0.2175664763317461,7.0,0.0
43.865421295166016,-1.2829065322875977,-0.6673108339309692,-0.9944040857571682,-0.0546416728181136,-0.0904146106615981,0.1456304861828283,3.0,0.0
44.21336364746094,-1.2820396423339844,-0.6968801021575928,-0.0,-0.0,-1.0,0.1893311975992364,2.0,0.0
45.1391716003418,-0.3363857269287109,-0.6630290746688843,0.274773845657387,-0.4346328152373994,-0.857667563605773,0.0877719954281299,4.0,0.0
43.43613815307617,0.0707950592041015,-1.2218010425567627,-0.0,-0.0,-1.0,0.043510111256687,1.0,0.0
43.655311584472656,0.2128591537475586,-1.2257592678070068,-0.0,-0.0,-1.0,0.0849395920680027,2.0,0.0
43.73460006713867,0.1851692199707031,-1.2424921989440918,-0.0,-0.0,-1.0,0.0722858851231597,1.0,0.0
44.022647857666016,0.4214887619018554,-1.2409112453460691,-0.0,-0.0,-1.0,0.0408409956181124,2.0,0.0
44.34595489501953,0.6257381439208984,-1.2536838054656982,0.5857470657411944,-0.0911479410807683,-0.8053523625173751,0.0422715551699204,3.0,0.0
42.928924560546875,-1.4650764465332031,-1.0488123893737793,-0.0,-0.0,-1.0,0.044884647819746,1.0,0.0
43.09617614746094,-1.4329767227172852,-1.0600271224975586,-0.0,-0.0,-1.0,0.0796751573068338,1.0,0.0
43.16831970214844,-1.1697607040405271,-1.0216374397277832,-0.0,-0.0,-1.0,0.1168264574216628,2.0,0.0
43.49612808227539,-1.2699823379516602,-1.0740013122558594,0.0052877022304771,0.4374651849802822,-0.8992198019034553,0.0931750539227576,3.0,0.0
42.9134521484375,-0.1539030075073242,-1.1960058212280271,-0.0,-0.0,-1.0,0.0192702236664405,2.0,0.0
43.66084671020508,-0.8414173126220703,-1.0195188522338867,0.3023076492089656,-0.4300185216027441,-0.8507021548746304,0.1685801296282056,3.0,0.0
43.71198654174805,-1.1059284210205078,-1.0699748992919922,0.4695309242016833,-0.8614092406785419,0.1936874577558691,0.1573471675397509,3.0,0.0
43.26691818237305,0.0057001113891601,-1.2112274169921875,-0.0,-0.0,-1.0,0.0491615740605108,1.0,0.0
44.085487365722656,-0.8353109359741211,-1.0680546760559082,-0.0,-0.0,-1.0,0.0961968675105398,2.0,0.0
44.8947639465332,-1.749368667602539,-0.8558340072631836,0.7950170966913661,0.3708238826561069,-0.4800390234348463,0.068769722789508,3.0,0.0
43.5046272277832,0.1604480743408203,-1.2140569686889648,-0.0,-0.0,-1.0,0.1014885957694718,1.0,0.0
44.42926788330078,-0.6054449081420898,-1.072483777999878,-0.0,-0.0,-1.0,0.0710997717508135,2.0,0.0
45.18431854248047,-1.5632457733154297,-0.8603355884552002,-0.0,-0.0,-1.0,0.1468088235238614,2.0,0.0
43.94221115112305,0.4853887557983398,-1.2166905403137207,-0.0,-0.0,-1.0,0.0324589854179788,1.0,0.0
44.731407165527344,-0.3243999481201172,-1.0664329528808594,-0.1065842187933,0.0900446167967044,-0.990218042296825,0.0772361908438605,5.0,0.0
44.75382232666016,-0.4613809585571289,-1.0906507968902588,-0.1649440766978676,0.4034801342529204,-0.8999984626795388,0.1225149326516874,5.0,0.0
44.98532485961914,-0.0787801742553711,-1.0620522499084473,-0.0,-0.0,-1.0,0.0596490659568959,2.0,0.0
43.77019119262695,-1.444997787475586,-0.7067966461181641,0.3979350619362534,-0.0484483048091298,-0.9161334227299606,0.2087104119237116,4.0,0.0
43.84920501708984,-1.3830528259277344,-0.7054158449172974,-0.7384073606737824,0.5153864644133915,0.4348923567990625,0.1998843976862221,4.0,0.0
44.46443939208984,-1.766244888305664,-0.816094160079956,-0.0,-0.0,-1.0,0.2111462019452394,2.0,0.0
44.266510009765625,-1.25335693359375,-0.7270779609680176,0.8257608629072715,0.5297741079429555,-0.1935417056964316,0.1995262299113546,3.0,0.0
44.72311782836914,-1.6820793151855469,-0.8297319412231445,-0.0,-0.0,-1.0,0.0728392491928091,2.0,0.0
43.28232192993164,-0.7473917007446289,-1.152906060218811,0.6289286728931597,0.6672129546344018,-0.3990934697296869,0.0633032259531486,4.0,0.0
42.9940071105957,0.4935541152954101,-1.2161539793014526,-0.0,-0.0,-1.0,0.0216542554942838,1.0,0.0
43.45338439941406,-0.6753110885620117,-1.1595438718795776,-0.0,-0.0,-1.0,0.0618057817463669,2.0,0.0
43.604759216308594,-0.6693534851074219,-1.1774436235427856,-0.0,-0.0,-1.0,0.1297772973663052,2.0,0.0
43.954734802246094,-0.5080404281616211,-1.1916531324386597,-0.0,-0.0,-1.0,0.0685918549124373,1.0,0.0
44.22905349731445,-0.1886405944824218,-1.1690999269485474,-0.0,-0.0,-1.0,0.0620986407241852,2.0,0.0
44.58711242675781,0.0129365921020507,-1.183775544166565,-0.6121307191691808,0.5767533547864184,-0.5409727815630223,0.1619394120518124,3.0,0.0
44.943363189697266,0.547736644744873,-1.144214749336243,-0.7855597020249323,0.2041144974293251,-0.5841517153049139,0.063481153977605,3.0,0.0
44.92327117919922,0.2203478813171386,-1.1975644826889038,-0.1559417499421922,0.8841352956817263,-0.4404394959069327,0.0816983814508521,3.0,0.0
42.71942138671875,-1.8143243789672852,-0.9046438932418824,-0.0,-0.0,-1.0,0.2472680128723828,1.0,0.0
42.79417419433594,-0.8821334838867188,-1.1236032247543335,-0.4967489837838714,0.4578806063184983,-0.7372827120359566,0.0551141395026661,3.0,0.0
43.25050354003906,-1.808011054992676,-0.9506133794784546,-0.0,-0.0,-1.0,0.0756179598656818,2.0,0.0
43.108036041259766,-0.7778482437133789,-1.138302445411682,-0.0,-0.0,-1.0,0.0514797269143524,1.0,0.0
43.638389587402344,-1.6741065979003906,-0.96446692943573,-0.0,-0.0,-1.0,0.0518794257832217,1.0,0.0
43.535377502441406,-0.5042819976806641,-1.1362568140029907,-0.0,-0.0,-1.0,0.1590260386586912,1.0,0.0
43.61614227294922,-0.72735595703125,-0.8032013177871704,0.2684151769578081,-0.5251403676850541,-0.8075771709293889,0.2001441116042533,5.0,0.0
43.77381896972656,-1.2013750076293943,-0.8983830213546753,-0.0,-0.0,-1.0,0.1111845405668627,1.0,0.0
43.9360466003418,-1.50830078125,-0.9664994478225708,-0.0,-0.0,-1.0,0.1151860266427591,1.0,0.0
43.759376525878906,-0.1087551116943359,-1.0894709825515747,-0.0,-0.0,-1.0,0.1354571773649011,1.0,0.0
44.32184982299805,-1.2883272171020508,-0.9710966348648072,-0.0,-0.0,-1.0,0.1984647165744185,1.0,0.0
44.65113830566406,-0.980792999267578,-0.958720088005066,-0.2584690569404259,0.939691508116502,-0.2239946789056854,0.0805597291518995,3.0,0.0
44.638458251953125,-1.1043024063110352,-0.9768487215042114,-0.0,-0.0,-1.0,0.0810183218410193,1.0,0.0
45.019779205322266,-0.7722558975219727,-0.9697216749191284,0.682146315883636,0.7303897371890142,-0.0347452951540982,0.1732867003774572,3.0,0.0
45.009620666503906,-0.9268369674682616,-0.9923640489578248,0.1828406573157325,0.755757542466399,-0.6288082625391465,0.0731650039311135,3.0,0.0
45.05354690551758,-0.111760139465332,-0.8739393949508667,-0.0,-0.0,-1.0,0.1144351404250542,1.0,0.0
44.02310562133789,-1.7013044357299805,-0.5886478424072266,-0.0,-0.0,-1.0,0.2054515974364011,2.0,0.0
43.9586296081543,-1.7886962890625,-0.5953459739685059,-0.0,-0.0,-1.0,0.0926093529210566,1.0,0.0
44.14506530761719,-1.168238639831543,-0.5267535448074341,-0.0,-0.0,-1.0,0.2370079390641604,2.0,0.0
44.27145767211914,-1.2136220932006836,-0.543930172920227,0.5427556636838959,0.2708425232411394,-0.7950224004035522,0.1763174612054302,3.0,0.0
42.748924255371094,-1.6874852180480957,-0.9744751453399658,0.1121909246145754,0.1978423414823538,-0.9737923825697684,0.2060585968219642,3.0,0.0
42.91985702514648,-0.4822549819946289,-1.144688844680786,-0.0,-0.0,-1.0,0.0209739376982856,2.0,0.0
43.23798370361328,-1.2480778694152832,-0.9722769260406494,0.5831778078018954,0.0370461031825866,-0.8114993719814951,0.1014877417898825,5.0,0.0
43.07841873168945,-1.4752907752990725,-0.9865052700042723,0.4350636572870623,0.8912785106044216,0.1278367343245638,0.0842162199377076,3.0,0.0
43.26165771484375,-0.2603406906127929,-1.1637635231018066,-0.0,-0.0,-1.0,0.0528535083497407,1.0,0.0
43.586334228515625,-1.2461857795715332,-1.026707410812378,0.2051697854365466,-0.5112030842961182,-0.8346117455140789,0.1954793853006592,3.0,0.0
43.48286056518555,-1.3318848609924316,-1.024632215499878,-0.0,-0.0,-1.0,0.11742107829054,2.0,0.0
43.77288436889648,0.077669620513916,-1.1986889839172363,-0.0,-0.0,-1.0,0.0948101436248385,2.0,0.0
43.62393569946289,-0.0870194435119628,-1.199922800064087,-0.0,-0.0,-1.0,0.1356469837453451,1.0,0.0
43.824119567871094,-0.98588228225708,-1.0228838920593262,-0.0,-0.0,-1.0,0.1602584708513127,1.0,0.0
43.7199592590332,-1.2461066246032717,-1.0481269359588623,-0.6982336012370857,0.0537072749795463,0.7138524824624217,0.1261240651128569,4.0,0.0
44.13117599487305,0.5291886329650879,-1.1911752223968506,0.9898142436586918,-0.1263488557956566,0.0656028176948211,0.0586608299738481,4.0,0.0
43.99597930908203,0.2530064582824707,-1.2120838165283203,-0.0,-0.0,-1.0,0.0451145974005447,2.0,0.0
44.21681594848633,-0.6930203437805176,-1.042503833770752,-0.0,-0.0,-1.0,0.1247280345480732,2.0,0.0
44.07541275024414,-0.9041895866394044,-1.05157470703125,-0.0,-0.0,-1.0,0.0959460431828402,1.0,0.0
44.3804931640625,0.6213083267211914,-1.2280621528625488,0.4631795783664078,0.2306144580008172,-0.8557345674596217,0.0459359289399361,4.0,0.0
44.27568435668945,0.4692883491516113,-1.2317657470703125,-0.0,-0.0,-1.0,0.0244243632063474,1.0,0.0
44.52888870239258,-0.4895105361938476,-1.0657711029052734,-0.2921355680199772,-0.6152585258522069,-0.7321978941951516,0.0915377256577235,5.0,0.0
44.861297607421875,-0.1392040252685547,-1.0738732814788818,0.708537706604551,0.120867913123843,-0.6952447525128475,0.1030964278819754,6.0,0.0
44.74578857421875,-0.3668861389160156,-1.0861358642578125,-0.0,-0.0,-1.0,0.0779939767070526,2.0,0.0
43.65013885498047,-0.8094058036804199,-0.965641975402832,0.5073304951181843,0.4479294325447434,-0.7361895083355113,0.1959114277773708,5.0,0.0
43.800411224365234,-1.4082598686218262,-0.6971466541290283,0.1867690490356754,-0.2918324413824503,-0.9380571136551696,0.2083071075312646,6.0,0.0
44.28563690185547,-1.3060173988342283,-0.7527265548706055,0.9107834336648296,0.3135715684760262,-0.2686008347067963,0.204097995989794,3.0,0.0
44.52781295776367,-1.831885814666748,-0.8566455841064453,-0.1957814210223041,0.2827913696154762,-0.9389881130522848,0.1463248366502359,4.0,0.0
44.755348205566406,-1.5631232261657717,-0.8549082279205322,-0.0,-0.0,-1.0,0.059859960005981,2.0,0.0
44.95321273803711,-0.1005420684814453,-0.7043588161468506,-0.0,-0.0,-1.0,0.1062989467381264,1.0,0.0
45.091854095458984,-1.3438401222229004,-0.8773908615112305,-0.0,-0.0,-1.0,0.1537316331667854,2.0,0.0
45.09494400024414,-1.4529242515563965,-0.891625165939331,-0.0,-0.0,-1.0,0.095878331263095,1.0,0.0
42.910430908203125,0.2380018234252929,-1.1895521879196167,-0.0,-0.0,-1.0,0.0089884109997631,1.0,0.0
42.75238800048828,0.0318875312805175,-1.1972748041152954,-0.0,-0.0,-1.0,0.011349574681045,1.0,0.0
43.05086517333984,-0.9260134696960448,-1.1322048902511597,-0.0,-0.0,-1.0,0.0777739074940777,2.0,0.0
42.88037109375,-1.0419197082519531,-1.1217516660690308,-0.0,-0.0,-1.0,0.0517412487387585,1.0,0.0
43.128395080566406,0.3928852081298828,-1.2092214822769165,-0.0,-0.0,-1.0,0.0246563809691846,1.0,0.0
43.30045318603515,-0.7826552391052246,-1.1546844244003296,0.6728894178431905,0.3780420842799536,-0.635849049592685,0.061926840794297,3.0,0.0
43.46409225463867,0.6109051704406738,-1.247604250907898,-0.0,-0.0,-1.0,0.0314081912133209,2.0,0.0
43.6534309387207,-0.3886671066284179,-1.155469536781311,-0.0,-0.0,-1.0,0.0406797178611381,1.0,0.0
43.63926315307617,-0.5993261337280273,-1.190175175666809,-0.0,-0.0,-1.0,0.0663238104104037,2.0,0.0
44.15509796142578,-0.0166215896606445,-1.2001277208328247,0.2276501303117749,-0.5299971246525197,-0.8168711440790971,0.0276752650671392,4.0,0.0
43.98522186279297,-0.2515559196472168,-1.202731728553772,-0.0,-0.0,-1.0,0.0834967243141883,2.0,0.0
44.46549987792969,0.4679703712463379,-1.1926251649856567,-0.0,-0.0,-1.0,0.0328862951927762,2.0,0.0
44.34650802612305,0.1787409782409668,-1.2113600969314575,-0.0,-0.0,-1.0,0.0356247546840551,2.0,0.0
44.74338150024414,0.6201333999633789,-1.2348743677139282,-0.0,-0.0,-1.0,0.0462743997646348,1.0,0.0
42.88712310791016,-1.8116259574890137,-0.9174503087997437,-0.0,-0.0,-1.0,0.1685395523718197,1.0,0.0
43.420291900634766,-1.6289610862731934,-0.9759105443954468,-0.0,-0.0,-1.0,0.0308562108474744,1.0,0.0
43.275657653808594,-1.817293643951416,-0.9821065664291382,-0.0,-0.0,-1.0,0.0648034610379666,2.0,0.0
43.635223388671875,-0.8312549591064453,-0.887616753578186,0.487941383904064,-0.8290047845247175,-0.2732476406282654,0.1880309539796325,4.0,0.0
43.72438049316406,-1.0032401084899902,-0.9303380250930786,-0.0,-0.0,-1.0,0.1992847624559377,2.0,0.0
43.75505828857422,-1.4737272262573242,-1.0090917348861694,-0.3931358959560082,-0.762177122217129,-0.5143249961645676,0.1190931504313903,4.0,0.0
44.177337646484375,-1.0430169105529783,-1.0192474126815796,-0.1946435043890354,-0.937368535614556,0.2888842928215007,0.0993613716986467,4.0,0.0
44.02903747558594,-1.5173907279968262,-1.0645567178726196,-0.0,-0.0,-1.0,0.0794002795288216,1.0,0.0
44.55034637451172,-0.6814861297607422,-1.036927580833435,-0.0,-0.0,-1.0,0.0490948154762971,2.0,0.0
44.38680267333984,-0.8930416107177734,-1.03622305393219,-0.0,-0.0,-1.0,0.0720635311742875,2.0,0.0
44.670654296875,-1.8308539390563965,-0.8387712240219116,-0.0,-0.0,-1.0,0.0475527761176647,1.0,0.0
44.93489837646485,-0.1892175674438476,-1.044580578804016,-0.0,-0.0,-1.0,0.1721825151121974,1.0,0.0
44.83341217041016,-0.5076732635498047,-1.067839741706848,-0.5412359334810392,0.6381972304100079,-0.5475106934169442,0.1020949981057973,3.0,0.0
45.14208221435547,-1.40907621383667,-0.8647052049636841,-0.0,-0.0,-1.0,0.1418329980150462,2.0,0.0
45.04280853271485,-1.6569571495056152,-0.8778411149978638,-0.0,-0.0,-1.0,0.0671375588157662,2.0,0.0
43.86339569091797,-1.286583423614502,-0.642810583114624,-0.0,-0.0,-1.0,0.204409849087757,2.0,0.0
43.83966827392578,-1.4689693450927734,-0.6623786687850952,-0.2205773699400008,-0.8507673673643774,-0.4770120653591882,0.2477577982602004,3.0,0.0
44.25788497924805,-1.3357200622558594,-0.7113363742828369,-0.0,-0.0,-1.0,0.2250906257566997,1.0,0.0
42.73465347290039,-1.8555073738098145,-0.9918923377990724,-0.0,-0.0,-1.0,0.1680904122550358,1.0,0.0
43.11946487426758,-0.6803069114685059,-1.1426846981048584,-0.0,-0.0,-1.0,0.0236351025590054,1.0,0.0
42.96990585327149,-0.8736886978149414,-1.1500959396362305,-0.0,-0.0,-1.0,0.0337553709291454,1.0,0.0
43.222537994384766,-1.526829719543457,-1.0191636085510254,-0.0,-0.0,-1.0,0.0678120071366104,2.0,0.0
43.0301399230957,-1.668661117553711,-1.0096261501312256,-0.0,-0.0,-1.0,0.0499381463418442,1.0,0.0
43.374305725097656,-0.5430388450622559,-1.1734964847564695,-0.0,-0.0,-1.0,0.0764839412313844,1.0,0.0
43.5064697265625,-1.3726472854614258,-1.0463712215423584,-0.0,-0.0,-1.0,0.1029515011772701,2.0,0.0
43.78649139404297,-0.1740651130676269,-1.200512170791626,0.7835420803479628,0.3641045689038018,-0.5034775776808367,0.0902710171131423,3.0,0.0
43.635520935058594,-0.3939800262451172,-1.2057535648345947,-0.9206763909376178,0.3902638583714897,0.0070074259953901,0.0357685671908656,3.0,0.0
43.90970230102539,-0.9162287712097168,-1.0482933521270752,-0.0,-0.0,-1.0,0.1012353076021151,2.0,0.0
43.77016067504883,-1.2061843872070312,-1.0698235034942627,0.0736243182483882,-0.902483447542298,-0.4243855401337657,0.1480220977614725,4.0,0.0
