x,y,z,nx,ny,nz,curvature,density,label
37.38494491577149,27.607236862182617,-2.2500360012054443,-0.0,-0.0,-1.0,0.1820070976224604,1.0,0.0
37.36091995239258,27.757369995117188,-2.249155282974243,-0.2221717381250226,-0.1739498032094149,-0.9593649903670198,0.1781003448292011,3.0,0.0
37.418060302734375,27.89409637451172,-2.261749505996704,0.4341929708509846,-0.5066992975034967,-0.7448035217243933,0.1464287526117552,3.0,0.0
35.41489791870117,27.37299537658691,-1.914870023727417,0.1951265279910312,0.1826875678185757,-0.9636134549904845,0.1710836369482642,3.0,0.0
36.835655212402344,25.72652244567871,-2.239079475402832,-0.0,-0.0,-1.0,0.0223575111794955,1.0,0.0
36.71783828735352,26.01236343383789,-2.2145886421203613,-0.0,-0.0,-1.0,0.0714299292728345,1.0,0.0
36.763065338134766,26.397850036621097,-2.216218948364258,-0.0,-0.0,-1.0,0.2135500235489303,1.0,0.0
37.3094482421875,27.065954208374023,-2.2993478775024414,-0.0,-0.0,-1.0,0.0101438556973378,1.0,0.0
37.5286979675293,27.221773147583008,-2.3345956802368164,-0.0,-0.0,-1.0,0.0121685253176609,1.0,0.0
36.69148635864258,26.565250396728516,-2.2018375396728516,-0.0,-0.0,-1.0,0.240110424894048,1.0,0.0
36.8694953918457,26.77144241333008,-2.2289505004882812,-0.0,-0.0,-1.0,0.1348621193985503,2.0,0.0
37.15015411376953,26.949806213378903,-2.273898124694824,-0.0,-0.0,-1.0,0.0145209853363413,1.0,0.0
37.50480270385742,27.479469299316406,-2.3280105590820312,-0.0,-0.0,-1.0,0.1591691206574017,1.0,0.0
35.45829772949219,26.52818298339844,-1.9957971572875977,-0.0,-0.0,-1.0,0.0878863969796145,1.0,0.0
35.97270584106445,27.930034637451172,-2.0653600692749023,-0.0,-0.0,-1.0,0.2190580599427843,1.0,0.0
35.22582244873047,27.4220027923584,-2.2473905086517334,-0.0,-0.0,-1.0,0.181940817594762,1.0,0.0
35.2193603515625,27.652122497558594,-2.238133668899536,-0.0,-0.0,-1.0,0.074160905902636,1.0,0.0
35.282161712646484,27.823745727539062,-2.2435290813446045,-0.0,-0.0,-1.0,0.0487491436764383,1.0,0.0
37.29228591918945,25.827917098999023,-2.284376621246338,0.9797341103061088,0.147542637536812,0.1354704514326941,0.0258068617795886,3.0,0.0
37.16219711303711,26.20797348022461,-2.2644052505493164,-0.0,-0.0,-1.0,0.0258904928109085,1.0,0.0
36.95513916015625,26.65121078491211,-2.231687545776367,-0.0,-0.0,-1.0,0.1316149289639752,1.0,0.0
37.059444427490234,26.6884765625,-2.2515854835510254,0.4049251397403385,0.5170344948776969,-0.7541292742712167,0.0486060890681662,3.0,0.0
37.29534912109375,26.901851654052734,-2.298520565032959,-0.0,-0.0,-1.0,0.011817937957394,2.0,0.0
37.49742889404297,27.091732025146484,-2.3392152786254883,-0.0,-0.0,-1.0,0.008007303403306,1.0,0.0
37.63074493408203,27.35457992553711,-2.3687357902526855,-0.0,-0.0,-1.0,0.1013602554987976,1.0,0.0
37.462833404541016,27.821800231933594,-2.3466286659240723,-0.0,-0.0,-1.0,0.2253952257772717,1.0,0.0
35.45372772216797,26.85964584350586,-1.956364631652832,-0.0,-0.0,-1.0,0.1276466043633423,1.0,0.0
36.90283966064453,25.895328521728516,-2.287271499633789,-0.0,-0.0,-1.0,0.0484099347561949,2.0,0.0
36.9473876953125,25.685253143310547,-2.3049888610839844,-0.0,-0.0,-1.0,0.0184955786328662,2.0,0.0
36.89031982421875,26.229158401489254,-2.269598484039306,-0.4130432371779847,-0.8978231114038131,-0.1526726722459098,0.0648008792900645,3.0,0.0
37.000274658203125,26.625633239746097,-2.2710256576538086,-0.0,-0.0,-1.0,0.1168913255307447,2.0,0.0
37.55109405517578,26.90882682800293,-2.3546218872070312,-0.0,-0.0,-1.0,0.0059968725452291,2.0,0.0
37.36695098876953,27.856718063354492,-2.286259174346924,-0.0,-0.0,-1.0,0.1983084328978346,1.0,0.0
36.83216094970703,26.628955841064453,-2.1649792194366455,-0.0,-0.0,-1.0,0.1677685432439332,2.0,0.0
37.33206558227539,27.792753219604492,-2.2488887310028076,0.5152768870365854,0.4096337367176268,-0.7527881052651136,0.1806266747082833,6.0,0.0
37.35163116455078,27.692157745361328,-2.252870798110962,0.5414298948556807,-0.0627312702271435,-0.8384023238829049,0.2156422594031255,4.0,0.0
37.386661529541016,27.955829620361328,-2.258549928665161,-0.0,-0.0,-1.0,0.1296960016380936,1.0,0.0
35.237857818603516,26.370304107666016,-2.3596439361572266,-0.0,-0.0,-1.0,0.0346499722131952,1.0,0.0
35.254112243652344,26.23373794555664,-2.366994857788086,-0.0,-0.0,-1.0,0.0565790606837088,1.0,0.0
35.254295349121094,26.74266815185547,-2.3526129722595215,-0.0,-0.0,-1.0,0.1941628273010058,2.0,0.0
37.645042419433594,27.152809143066406,-2.373019218444824,-0.0,-0.0,-1.0,0.0416593738355286,1.0,0.0
37.564231872558594,26.944196701049805,-2.3640456199645996,-0.0,-0.0,-1.0,0.006796568200637,2.0,0.0
35.36363220214844,26.644227981567383,-1.9646673202514648,-0.0,-0.0,-1.0,0.1384570735312649,1.0,0.0
36.821983337402344,26.275680541992188,-2.2478675842285156,-0.0,-0.0,-1.0,0.1002604362663604,2.0,0.0
36.886138916015625,25.816085815429688,-2.276463508605957,-0.0,-0.0,-1.0,0.0258881425576873,2.0,0.0
37.000038146972656,26.58125114440918,-2.2704596519470215,-0.0,-0.0,-1.0,0.12156227809465,2.0,0.0
37.3640251159668,26.763458251953125,-2.332296848297119,-0.0,-0.0,-1.0,0.0106705361714404,1.0,0.0
37.30669403076172,27.66400146484375,-2.2957754135131836,-0.0,-0.0,-1.0,0.202774582699232,1.0,0.0
35.33157730102539,25.883453369140625,-2.275970697402954,-0.0,-0.0,-1.0,0.1719842550361986,2.0,0.0
35.51277160644531,26.318592071533203,-2.30507493019104,-0.0,-0.0,-1.0,0.1283180583276335,1.0,0.0
35.425811767578125,25.808746337890625,-2.298478364944458,-0.0,-0.0,-1.0,0.1310593759202872,2.0,0.0
37.208229064941406,26.314022064208984,-2.2980785369873047,-0.0,-0.0,-1.0,0.0243130312304969,2.0,0.0
37.44983673095703,25.99766540527344,-2.311555862426758,-0.0,-0.0,-1.0,0.0104815069753098,2.0,0.0
37.63999938964844,25.826133728027344,-2.331418514251709,-0.0,-0.0,-1.0,0.0120474569517821,2.0,0.0
36.63449478149414,27.305946350097656,-2.3000473976135254,-0.0,-0.0,-1.0,0.0209981538296679,1.0,0.0
36.69232940673828,27.180532455444336,-2.2962942123413086,-0.0,-0.0,-1.0,0.0251690096084694,1.0,0.0
36.26140594482422,25.658361434936523,-2.03184175491333,-0.0,-0.0,-1.0,0.0765698791508328,1.0,0.0
36.66704559326172,26.868831634521484,-2.253861427307129,-0.0,-0.0,-1.0,0.1059805542120354,1.0,0.0
36.87959671020508,26.56562042236328,-2.260758399963379,-0.0934465854208715,0.3448248857870458,-0.934004033082904,0.2178444675545716,4.0,0.0
35.693450927734375,26.075603485107425,-2.264118194580078,-0.0,-0.0,-1.0,0.044130330003139,1.0,0.0
35.917381286621094,25.792911529541016,-2.2667603492736816,-0.0,-0.0,-1.0,0.024586606372503,2.0,0.0
35.343833923339844,26.843151092529297,-2.314265727996826,-0.0,-0.0,-1.0,0.1868903726438348,1.0,0.0
35.47500991821289,26.58118057250977,-2.2989277839660645,0.7291698681904463,-0.4036714730959143,-0.5525944671562514,0.1533311429416286,3.0,0.0
37.312156677246094,27.9085693359375,-2.1276044845581055,0.4348630390848966,-0.4792565455472503,-0.7623695303381187,0.1644098391290864,3.0,0.0
37.392669677734375,27.736480712890625,-2.117319107055664,-0.0,-0.0,-1.0,0.1421818769775879,2.0,0.0
37.62910461425781,27.721481323242188,-2.4210782051086426,-0.0,-0.0,-1.0,0.0714245398715121,1.0,0.0
37.23752212524414,28.134784698486328,-2.422194004058838,-0.0,-0.0,-1.0,0.2175352814696787,1.0,0.0
37.469520568847656,27.82415199279785,-2.410170078277588,-0.0,-0.0,-1.0,0.1758373435237884,1.0,0.0
36.856971740722656,26.594532012939453,-2.098158836364746,-0.020270011526782,0.933943042608774,-0.3568466334370693,0.1186589207072961,4.0,0.0
37.299217224121094,27.83778953552246,-2.382596015930176,0.7249619201221151,0.2522785095573363,-0.6409257117547903,0.1393832670385789,3.0,0.0
37.18312072753906,28.09650421142578,-2.4062752723693848,-0.0,-0.0,-1.0,0.2309861740649983,1.0,0.0
37.436397552490234,26.40093231201172,-2.356168746948242,-0.0,-0.0,-1.0,0.0127162975979384,1.0,0.0
37.60293960571289,26.24003219604492,-2.3603873252868652,-0.0,-0.0,-1.0,0.0147940997594599,2.0,0.0
35.431976318359375,26.756093978881836,-2.039656162261963,-0.0,-0.0,-1.0,0.1866546806573883,2.0,0.0
36.92473983764648,26.532020568847656,-2.2806172370910645,0.0051269063557886,0.967816263045308,0.2516056355017392,0.2334061018581872,3.0,0.0
37.20669174194336,26.447620391845703,-2.319864273071289,-0.0,-0.0,-1.0,0.0112738862573824,1.0,0.0
36.308563232421875,26.94299697875977,-2.2386865615844727,-0.0,-0.0,-1.0,0.0263868726905559,1.0,0.0
36.57273864746094,26.846784591674805,-2.2708706855773926,-0.0,-0.0,-1.0,0.0843613889929048,1.0,0.0
36.82808303833008,26.694034576416016,-2.2913780212402344,-0.0,-0.0,-1.0,0.1763152967367098,2.0,0.0
35.41185760498047,27.421207427978516,-2.1637983322143555,-0.0,-0.0,-1.0,0.1679257613929691,1.0,0.0
35.9529914855957,27.414722442626953,-2.261686325073242,-0.0,-0.0,-1.0,0.0344346211759516,1.0,0.0
36.24238967895508,27.16280746459961,-2.2675046920776367,-0.0,-0.0,-1.0,0.0306997407104282,1.0,0.0
35.59917068481445,27.848777770996097,-2.281402587890625,-0.0,-0.0,-1.0,0.1128119264944899,2.0,0.0
35.793434143066406,27.625734329223633,-2.273131847381592,-0.0,-0.0,-1.0,0.0571508140162681,1.0,0.0
35.439231872558594,28.097476959228516,-2.301910877227783,-0.0,-0.0,-1.0,0.0927598345199748,2.0,0.0
35.701717376708984,26.149139404296875,-2.314746141433716,-0.0,-0.0,-1.0,0.0632438559903064,1.0,0.0
35.89116287231445,25.937557220458984,-2.315927267074585,-0.0,-0.0,-1.0,0.0148731218115535,1.0,0.0
35.560298919677734,26.389076232910156,-2.3311116695404053,-0.0,-0.0,-1.0,0.1228205882037111,1.0,0.0
35.2596435546875,26.832191467285156,-2.3555843830108643,-0.0,-0.0,-1.0,0.1475545442480705,1.0,0.0
35.42866134643555,26.6075439453125,-2.346132516860962,-0.0,-0.0,-1.0,0.0907709674401032,2.0,0.0
37.48283767700195,28.05508041381836,-2.392136812210083,-0.0,-0.0,-1.0,0.1488414555213185,1.0,0.0
36.793983459472656,26.62433624267578,-2.0102274417877197,0.6641269040031443,-0.0889673784673861,-0.7423073897974065,0.2514130965543423,3.0,0.0
37.377532958984375,27.73487091064453,-2.3154327869415283,-0.0,-0.0,-1.0,0.2796232564924613,2.0,0.0
37.32656478881836,27.817243576049805,-2.3203299045562744,0.9397282495569478,-0.0359158263789477,0.3400306903797832,0.1045848235145135,4.0,0.0
35.990882873535156,26.130788803100582,-2.291304588317871,-0.0,-0.0,-1.0,0.0134994588477121,2.0,0.0
36.171234130859375,25.95079040527344,-2.295358657836914,-0.0,-0.0,-1.0,0.0143727209954062,1.0,0.0
35.87529754638672,26.31870460510254,-2.304520606994629,-0.0,-0.0,-1.0,0.0622522289444972,1.0,0.0
35.47883605957031,26.835765838623047,-2.327178478240967,-0.0,-0.0,-1.0,0.1761735968312832,1.0,0.0
35.28712844848633,27.031394958496097,-2.328441619873047,-0.0,-0.0,-1.0,0.0421875302243269,2.0,0.0
35.90156555175781,25.865100860595703,-2.216784954071045,-0.0,-0.0,-1.0,0.0221626073726028,1.0,0.0
35.568397521972656,26.5548095703125,-2.286377429962158,-0.7706997921227206,-0.3079503691561442,-0.5578426306393133,0.1378754264707324,4.0,0.0
35.681007385253906,26.441883087158203,-2.287242889404297,-0.0,-0.0,-1.0,0.1679845962170993,1.0,0.0
35.54640197753906,26.60721969604492,-2.2927331924438477,-0.1916551894936612,-0.6631709084186181,-0.7235140873316659,0.1561961093231904,3.0,0.0
37.31454086303711,27.835262298583984,-2.2830586433410645,0.6113662274906774,-0.7319656953346289,0.3007616277670925,0.1925516031455145,5.0,0.0
35.269500732421875,25.89966583251953,-2.3445184230804443,-0.0,-0.0,-1.0,0.1359479278844764,1.0,0.0
37.48879623413086,26.29405212402344,-2.3758962154388428,-0.0,-0.0,-1.0,0.0181004575125068,1.0,0.0
37.70661926269531,26.1094913482666,-2.3863365650177,-0.0,-0.0,-1.0,0.0152379851919993,1.0,0.0
36.65522766113281,26.74615478515625,-2.29120135307312,-0.9928971095246304,0.0891824483051841,0.0787516400586506,0.102866980606494,3.0,0.0
36.92620849609375,26.53821182250977,-2.304462194442749,-0.0,-0.0,-1.0,0.1511418150498749,2.0,0.0
37.324668884277344,26.445884704589844,-2.371472120285034,-0.0,-0.0,-1.0,0.0101764800863787,1.0,0.0
36.27366638183594,27.099632263183594,-2.288935422897339,-0.0,-0.0,-1.0,0.0308943514812729,2.0,0.0
36.467506408691406,26.911720275878903,-2.2877037525177,-0.0,-0.0,-1.0,0.0298361794175052,1.0,0.0
35.84569549560547,27.512786865234375,-2.2950451374053955,-0.0,-0.0,-1.0,0.0113213795408944,2.0,0.0
35.39340591430664,27.98128890991211,-2.3149282932281494,-0.0,-0.0,-1.0,0.07000171172691,1.0,0.0
36.20579147338867,25.79030990600586,-1.9890186786651611,-0.0,-0.0,-1.0,0.0893359533343134,1.0,0.0
36.16927337646485,27.147233963012695,-2.2782108783721924,-0.0,-0.0,-1.0,0.0312688911512648,1.0,0.0
35.425106048583984,27.5058536529541,-2.209398031234741,-0.0,-0.0,-1.0,0.1714815418151236,2.0,0.0
35.824737548828125,27.471118927001953,-2.2814557552337646,-0.0,-0.0,-1.0,0.0136879497266838,2.0,0.0
35.543556213378906,27.783672332763672,-2.2976982593536377,-0.0,-0.0,-1.0,0.0712026156505276,1.0,0.0
35.89479064941406,25.865131378173828,-2.3057162761688232,-0.0,-0.0,-1.0,0.022801199067252,1.0,0.0
35.6072998046875,26.235578536987305,-2.332002878189087,-0.0,-0.0,-1.0,0.1352272235792022,1.0,0.0
35.247684478759766,26.724773406982425,-2.3776166439056396,-0.0,-0.0,-1.0,0.1350957033332947,2.0,0.0
35.436134338378906,26.499616622924805,-2.3607757091522217,-0.0,-0.0,-1.0,0.070582164561842,1.0,0.0
37.237823486328125,27.17965316772461,-2.363274335861206,-0.0,-0.0,-1.0,0.0121250249341095,2.0,0.0
37.64678955078125,26.904218673706055,-2.389498472213745,-0.611265954731339,0.7069931762949097,-0.3556888826753219,0.0059968725452291,3.0,0.0
36.906593322753906,27.5238037109375,-2.372431516647339,-0.0,-0.0,-1.0,0.0539260640092239,2.0,0.0
37.12242126464844,27.294780731201172,-2.3649895191192627,-0.0,-0.0,-1.0,0.0579438089081065,1.0,0.0
36.542724609375,27.81858253479004,-2.3667752742767334,-0.0,-0.0,-1.0,0.0536692177055135,1.0,0.0
36.7027587890625,27.67354965209961,-2.365211248397827,-0.0,-0.0,-1.0,0.0178827785799276,1.0,0.0
36.852333068847656,26.561418533325195,-2.143270254135132,-0.7080375117855765,-0.2670894766579578,-0.6537171355892912,0.1564550415071905,5.0,0.0
36.171234130859375,27.979103088378903,-2.3308465480804443,-0.0,-0.0,-1.0,0.0480459964456868,1.0,0.0
36.318641662597656,27.860111236572266,-2.331675291061402,-0.0,-0.0,-1.0,0.0730308933649258,2.0,0.0
35.95247268676758,28.098438262939453,-2.316660642623902,-0.0,-0.0,-1.0,0.1227390146321146,1.0,0.0
36.47345352172851,25.959651947021484,-2.2829601764678955,-0.0,-0.0,-1.0,0.0257798938977838,1.0,0.0
36.73149871826172,25.845962524414062,-2.314378023147583,-0.0,-0.0,-1.0,0.0380426300523183,1.0,0.0
36.966026306152344,25.640504837036133,-2.3177435398101807,-0.0,-0.0,-1.0,0.0316780315593483,2.0,0.0
36.06044006347656,26.37617874145508,-2.2994558811187744,-0.0,-0.0,-1.0,0.0487261077033645,1.0,0.0
36.28018951416016,26.164005279541016,-2.2925641536712646,-0.0,-0.0,-1.0,0.0274624423070902,1.0,0.0
35.628135681152344,26.73236846923828,-2.3018815517425537,-0.0,-0.0,-1.0,0.1092570202355444,1.0,0.0
35.84823989868164,26.543962478637695,-2.298025369644165,-0.0,-0.0,-1.0,0.1710057500793316,1.0,0.0
35.43892288208008,26.96493911743164,-2.326610803604126,-0.0,-0.0,-1.0,0.0469166307591527,1.0,0.0
35.349029541015625,25.760190963745117,-1.9707329273223877,-0.0,-0.0,-1.0,0.1619105044325692,1.0,0.0
36.26036834716797,25.67983627319336,-2.1589725017547607,-0.0,-0.0,-1.0,0.0825490997487733,1.0,0.0
35.671356201171875,26.39706802368164,-2.2180025577545166,-0.0,-0.0,-1.0,0.1657611121745387,1.0,0.0
36.8126106262207,26.5850830078125,-1.9888575077056885,-0.0,-0.0,-1.0,0.2040000904675739,2.0,0.0
35.4260139465332,27.37372589111328,-1.9124805927276611,0.1951265279910312,0.1826875678185757,-0.9636134549904845,0.1914589903458311,3.0,0.0
37.27214050292969,27.919055938720703,-2.404517412185669,-0.0,-0.0,-1.0,0.2165238906176325,1.0,0.0
37.57330322265625,27.697650909423828,-2.411327600479126,-0.0,-0.0,-1.0,0.0973795941660153,1.0,0.0
37.093074798583984,28.066545486450195,-2.4054481983184814,-0.0,-0.0,-1.0,0.1804493462606391,1.0,0.0
36.88954162597656,26.600601196289062,-2.224303722381592,-0.7487761021638738,0.0182742389765401,0.6625710535618834,0.1575987241910963,3.0,0.0
37.0604248046875,26.654754638671875,-2.274178981781006,0.4049251397403385,0.5170344948776969,-0.7541292742712167,0.0517808888498315,3.0,0.0
37.673439025878906,26.618423461914062,-2.3903732299804688,-0.0,-0.0,-1.0,0.0068573752744015,2.0,0.0
36.81061172485352,26.95360565185547,-2.3100013732910156,-0.0,-0.0,-1.0,0.0442200605335014,1.0,0.0
37.24525451660156,26.76801300048828,-2.3439111709594727,-0.0,-0.0,-1.0,0.0135903147401793,1.0,0.0
37.49079895019531,26.70577049255371,-2.376654624938965,-0.0,-0.0,-1.0,0.007894829926135,1.0,0.0
35.76416778564453,27.53299331665039,-2.2853498458862305,-0.0,-0.0,-1.0,0.0140745254865079,2.0,0.0
36.0623893737793,27.345230102539062,-2.2828049659729004,-0.0,-0.0,-1.0,0.023114145279724,2.0,0.0
36.44487762451172,27.182058334350582,-2.3058013916015625,-0.0,-0.0,-1.0,0.0235116897522082,2.0,0.0
36.64405822753906,27.129920959472656,-2.3285655975341797,-0.0,-0.0,-1.0,0.0271619126927845,1.0,0.0
35.33765411376953,27.905784606933594,-2.325728416442871,-0.0,-0.0,-1.0,0.082040368585961,1.0,0.0
35.59705352783203,27.69244384765625,-2.30466365814209,-0.0,-0.0,-1.0,0.0505001877355246,1.0,0.0
35.356163024902344,26.775012969970703,-1.9835476875305176,-0.8454262676122833,-0.4810420013399625,0.2320625324734852,0.2323817359690985,5.0,0.0
35.46778106689453,27.516328811645508,-2.228275775909424,-0.0,-0.0,-1.0,0.1196517293157442,2.0,0.0
37.33915710449219,27.702781677246097,-2.074246406555176,-0.0,-0.0,-1.0,0.1509303364367135,2.0,0.0
37.500526428222656,27.902584075927734,-2.1535086631774902,-0.0,-0.0,-1.0,0.185199638915603,1.0,0.0
37.338653564453125,27.948978424072266,-2.1378931999206543,-0.0,-0.0,-1.0,0.1533760171574845,2.0,0.0
36.34894561767578,25.9216365814209,-2.3007683753967285,-0.0,-0.0,-1.0,0.0304546708564936,2.0,0.0
36.70841979980469,25.75827407836914,-2.3241524696350098,-0.0,-0.0,-1.0,0.0197693648143875,1.0,0.0
35.61238098144531,26.340675354003903,-2.287872791290283,-0.0,-0.0,-1.0,0.1304579168997232,2.0,0.0
35.939430236816406,26.2194881439209,-2.3101372718811035,-0.0,-0.0,-1.0,0.0205710683039135,1.0,0.0
36.21049880981445,26.050003051757812,-2.3109397888183594,-0.0,-0.0,-1.0,0.016842755404825,1.0,0.0
35.45783233642578,26.60382843017578,-2.3381385803222656,0.0302021081091281,-0.859752307419301,-0.5098174208017534,0.1240582446972581,3.0,0.0
37.294429779052734,27.554750442504883,-2.399256706237793,-0.0,-0.0,-1.0,0.1842727214991147,2.0,0.0
37.60250473022461,27.39729881286621,-2.4103431701660156,-0.0,-0.0,-1.0,0.1230128226257686,1.0,0.0
36.578243255615234,27.88962173461914,-2.373445510864258,-0.0,-0.0,-1.0,0.0541160236752153,2.0,0.0
36.804317474365234,27.81532287597656,-2.3885679244995117,-0.0,-0.0,-1.0,0.0376597844540515,1.0,0.0
37.15412902832031,27.692073822021484,-2.4114155769348145,-0.0,-0.0,-1.0,0.1714187288000081,2.0,0.0
37.38175964355469,27.585716247558594,-2.4208788871765137,-0.0,-0.0,-1.0,0.2005893640133267,2.0,0.0
36.839725494384766,26.585437774658203,-2.0865306854248047,-0.1466095327774772,0.9885746867277648,-0.0350104792865094,0.172161006286719,5.0,0.0
35.33334732055664,27.37168884277344,-2.0612497329711914,-0.0,-0.0,-1.0,0.0609764592431018,1.0,0.0
35.729244232177734,27.99043655395508,-2.2782511711120605,-0.0,-0.0,-1.0,0.1235696852983851,1.0,0.0
35.99785232543945,27.949981689453125,-2.3050732612609863,-0.0,-0.0,-1.0,0.1171985272523972,1.0,0.0
36.358116149902344,27.902259826660156,-2.344372272491455,-0.0,-0.0,-1.0,0.0746811758303603,2.0,0.0
36.68779754638672,27.792125701904297,-2.36494779586792,-0.0,-0.0,-1.0,0.0224573429564978,1.0,0.0
35.24817657470703,25.946014404296875,-2.3448030948638916,-0.0,-0.0,-1.0,0.1068172854137496,1.0,0.0
36.896461486816406,26.36776351928711,-2.3053510189056396,-0.0,-0.0,-1.0,0.1115695792623136,1.0,0.0
37.27109146118164,26.265899658203125,-2.3465991020202637,-0.0,-0.0,-1.0,0.0200478731628609,2.0,0.0
37.624752044677734,26.124977111816406,-2.37725830078125,-0.0,-0.0,-1.0,0.0111242230702834,1.0,0.0
36.12589263916016,26.78920555114746,-2.2824575901031494,0.2341855453403711,-0.748819848368655,-0.6200209391970384,0.0577112421617749,3.0,0.0
36.490333557128906,26.641603469848633,-2.3044373989105225,-0.0,-0.0,-1.0,0.0459109016165574,1.0,0.0
35.33070755004883,27.31492805480957,-2.2982969284057617,-0.2854732057132638,0.8738833201545533,-0.393488235625218,0.1919419013811727,4.0,0.0
35.700706481933594,27.115093231201172,-2.300536632537842,-0.0,-0.0,-1.0,0.0483216209851535,1.0,0.0
35.91730880737305,26.969961166381836,-2.2958595752716064,-0.0,-0.0,-1.0,0.0370897839757931,1.0,0.0
35.288475036621094,27.40725326538086,-2.3166961669921875,-0.0,-0.0,-1.0,0.2078571004155655,2.0,0.0
35.444427490234375,26.793275833129883,-2.1781952381134033,-0.3897281774840241,-0.7305685968336395,-0.5606973096025234,0.1022477766947285,3.0,0.0
35.90118408203125,26.683841705322266,-2.219877004623413,0.281234502205402,-0.2709690502381878,-0.920588360008041,0.2185016033104443,4.0,0.0
37.41207504272461,27.647687911987305,-2.2056124210357666,0.0675554116074619,-0.9725239020262938,-0.2227858306762311,0.2239858522866255,5.0,0.0
37.34874725341797,27.811309814453125,-2.2319111824035645,0.4736489175822475,0.7762378440503587,-0.4160667162093312,0.2425861403428316,6.0,0.0
35.25174331665039,25.812206268310547,-2.3229901790618896,-0.0,-0.0,-1.0,0.1415661576708317,1.0,0.0
36.19663619995117,25.669025421142575,-2.023195266723633,-0.0,-0.0,-1.0,0.0780785726602495,1.0,0.0
37.62311172485352,25.96399307250977,-2.3392446041107178,-0.0,-0.0,-1.0,0.0123107645144472,1.0,0.0
36.757938385009766,26.242834091186523,-2.2692008018493652,-0.0,-0.0,-1.0,0.0664794900124308,2.0,0.0
37.12205123901367,26.10894775390625,-2.2923083305358887,-0.0,-0.0,-1.0,0.0399389901716081,1.0,0.0
37.49712371826172,26.0351505279541,-2.3361802101135254,0.3131538393996302,-0.0752177197505598,-0.9467190541574606,0.0150211015672332,3.0,0.0
36.007633209228516,26.6942138671875,-2.280223608016968,-0.0,-0.0,-1.0,0.1520030382012773,2.0,0.0
36.380741119384766,26.524293899536133,-2.287949562072754,-0.0,-0.0,-1.0,0.0263291850884549,1.0,0.0
35.80522155761719,26.920185089111328,-2.315239429473877,-0.0,-0.0,-1.0,0.0747746892537259,2.0,0.0
37.32508850097656,27.831077575683594,-2.300675868988037,0.8859535159998061,-0.124474231349643,0.4467578015183358,0.1409360451828945,5.0,0.0
37.46385955810547,27.775081634521484,-2.3063271045684814,-0.0,-0.0,-1.0,0.1814265115907451,1.0,0.0
36.86368560791016,26.637489318847656,-1.9486727714538576,-0.0,-0.0,-1.0,0.1951499995928829,1.0,0.0
36.34259414672851,25.889244079589844,-2.314040422439575,-0.0,-0.0,-1.0,0.0304546708564936,2.0,0.0
36.65862274169922,25.76408576965332,-2.3215878009796143,-0.0,-0.0,-1.0,0.0196650681041188,1.0,0.0
36.88080596923828,25.66852569580078,-2.326089382171631,-0.0,-0.0,-1.0,0.0163524588439328,1.0,0.0
36.19768905639648,25.670482635498047,-2.223243474960327,-0.0,-0.0,-1.0,0.0780785726602495,1.0,0.0
36.86022186279297,26.65946578979492,-2.199251890182495,-0.0,-0.0,-1.0,0.1334612152785923,1.0,0.0
36.84320068359375,27.133527755737305,-2.3309810161590576,-0.0,-0.0,-1.0,0.0288515458859786,1.0,0.0
37.061275482177734,27.03776741027832,-2.3328051567077637,-0.0,-0.0,-1.0,0.0148122218919899,2.0,0.0
37.50414276123047,26.98129653930664,-2.3777763843536377,-0.0,-0.0,-1.0,0.0079855157310559,1.0,0.0
37.37824630737305,27.86801528930664,-2.132599115371704,-0.0,-0.0,-1.0,0.1216952737713225,1.0,0.0
37.4583854675293,25.995691299438477,-2.332930326461792,-0.0,-0.0,-1.0,0.0104815069753098,2.0,0.0
37.704978942871094,25.939414978027344,-2.3551454544067383,-0.0,-0.0,-1.0,0.0123107645144472,1.0,0.0
37.45609664916992,26.05557632446289,-2.3513739109039307,-0.0,-0.0,-1.0,0.0147795762062022,2.0,0.0
35.310218811035156,27.034446716308594,-2.341620445251465,-0.0,-0.0,-1.0,0.0467578568492544,2.0,0.0
35.826019287109375,26.93606948852539,-2.2774415016174316,-0.0,-0.0,-1.0,0.0666923730086927,2.0,0.0
36.109039306640625,26.877410888671875,-2.247549295425415,-0.0,-0.0,-1.0,0.0440913353351642,2.0,0.0
35.7160758972168,27.03223419189453,-2.3134284019470215,-0.0,-0.0,-1.0,0.0780901330976694,2.0,0.0
36.908878326416016,26.811546325683594,-2.295516014099121,-0.0,-0.0,-1.0,0.0541470774320134,1.0,0.0
37.086029052734375,26.901411056518555,-2.3196823596954346,-0.1155808347575749,-0.558689434100752,-0.8212838649705252,0.0171404686259606,3.0,0.0
37.274444580078125,27.0340576171875,-2.3589775562286377,-0.0,-0.0,-1.0,0.0105962605519643,1.0,0.0
37.48793411254883,27.157936096191406,-2.395746946334839,-0.0,-0.0,-1.0,0.0109940723085285,2.0,0.0
37.654483795166016,27.435283660888672,-2.4395740032196045,-0.0,-0.0,-1.0,0.124684936128252,1.0,0.0
35.524723052978516,26.19794464111328,-2.2655415534973145,-0.0,-0.0,-1.0,0.1650341562465259,2.0,0.0
35.5090217590332,26.400705337524418,-2.3238580226898193,-0.0,-0.0,-1.0,0.1245744263589057,1.0,0.0
35.92485427856445,26.161460876464844,-2.3297042846679688,-0.0,-0.0,-1.0,0.0105311796917676,2.0,0.0
36.2823371887207,26.258384704589844,-2.3171095848083496,-0.0,-0.0,-1.0,0.030984400314241,1.0,0.0
36.61248397827149,26.30473899841309,-2.2954065799713135,-0.0,-0.0,-1.0,0.0179657868181287,2.0,0.0
36.73925018310547,26.397188186645508,-2.308530807495117,-0.0,-0.0,-1.0,0.056351503627623,1.0,0.0
35.31867980957031,26.832759857177734,-2.0605905055999756,-0.4772381752588016,-0.8425340819513999,-0.2497599744273717,0.0939766735120044,4.0,0.0
37.075164794921875,26.087940216064453,-2.2849059104919434,-0.0,-0.0,-1.0,0.0454525608821981,1.0,0.0
37.270484924316406,26.25011825561523,-2.3056020736694336,-0.0,-0.0,-1.0,0.0206819241277192,2.0,0.0
35.46183776855469,26.786754608154297,-2.1295247077941895,-0.0410085729771759,-0.9538941049648342,0.2973286623514681,0.1144463127539051,4.0,0.0
37.47978591918945,26.494518280029297,-2.3486618995666504,-0.0,-0.0,-1.0,0.0105680463105373,1.0,0.0
37.64146041870117,26.632537841796875,-2.369176864624023,-0.0,-0.0,-1.0,0.0068573752744015,2.0,0.0
35.40983581542969,27.402490615844727,-2.277327537536621,-0.0,-0.0,-1.0,0.17898543743654,1.0,0.0
35.65509033203125,27.5133056640625,-2.278830051422119,-0.0,-0.0,-1.0,0.0248646653041505,1.0,0.0
36.26701736450195,26.69658851623535,-2.1994433403015137,-0.0,-0.0,-1.0,0.0296524698318371,1.0,0.0
36.461875915527344,26.768869400024418,-2.1938304901123047,-0.0,-0.0,-1.0,0.0687552181573562,1.0,0.0
36.83567810058594,26.647846221923828,-2.1241652965545654,-0.9204589475761272,0.2722439354835369,-0.2804256860907785,0.1515625144460418,4.0,0.0
36.70370864868164,26.961471557617188,-2.2115464210510254,-0.0,-0.0,-1.0,0.0691413408078764,1.0,0.0
36.78337860107422,27.14829444885254,-2.2466933727264404,-0.0,-0.0,-1.0,0.0271404562255301,1.0,0.0
36.88807678222656,27.39068603515625,-2.2928881645202637,-0.0,-0.0,-1.0,0.0420497617364492,1.0,0.0
35.300071716308594,27.172046661376953,-2.2838518619537354,-0.0,-0.0,-1.0,0.0898848257209072,1.0,0.0
35.94489288330078,27.748876571655273,-2.282494306564331,-0.0,-0.0,-1.0,0.0930862197235592,1.0,0.0
35.87461853027344,27.460494995117188,-2.2539377212524414,-0.0,-0.0,-1.0,0.0111327017833952,1.0,0.0
35.639373779296875,27.16219139099121,-2.2435576915740967,-0.0,-0.0,-1.0,0.0399688616963365,1.0,0.0
35.59428024291992,26.460750579833984,-2.1631877422332764,-0.0,-0.0,-1.0,0.1776324408211817,1.0,0.0
35.530250549316406,26.27367401123047,-2.148284912109375,-0.0,-0.0,-1.0,0.1667196711549906,1.0,0.0
35.893028259277344,26.47553253173828,-2.130035638809204,-0.0,-0.0,-1.0,0.0721543449116487,1.0,0.0
37.26618194580078,27.776540756225582,-2.14228892326355,-0.0,-0.0,-1.0,0.1476593410292898,2.0,0.0
37.15913391113281,27.68567657470703,-2.1417300701141357,-0.0,-0.0,-1.0,0.1259994222356157,1.0,0.0
36.6514892578125,26.446374893188477,-2.0391745567321777,-0.0,-0.0,-1.0,0.1569860366231651,1.0,0.0
35.60219955444336,26.89547348022461,-2.262537956237793,-0.3392696671670329,-0.7884029796417494,-0.5131440681060069,0.1165681376986872,3.0,0.0
35.335269927978516,26.686927795410156,-2.2675940990448,-0.0,-0.0,-1.0,0.1856353442048693,1.0,0.0
36.24384307861328,28.05289649963379,-2.339573621749878,-0.0,-0.0,-1.0,0.0591514681428548,2.0,0.0
36.11367416381836,27.70086097717285,-2.307708501815796,-0.0,-0.0,-1.0,0.0397963840136428,1.0,0.0
36.0507698059082,27.38783836364746,-2.2741775512695312,-0.0,-0.0,-1.0,0.0297645217081457,2.0,0.0
35.81792449951172,26.99221420288086,-2.2500264644622803,-0.0,-0.0,-1.0,0.0578745366048136,2.0,0.0
35.71630859375,26.580371856689453,-2.2100579738616943,-0.0,-0.0,-1.0,0.1585525990045405,2.0,0.0
35.491172790527344,26.246992111206055,-2.1953320503234863,-0.0,-0.0,-1.0,0.1662778237151863,1.0,0.0
37.238250732421875,27.729772567749023,-2.1900815963745117,-0.0,-0.0,-1.0,0.1495407387750379,1.0,0.0
37.29603576660156,27.664899826049805,-2.175283432006836,-0.0,-0.0,-1.0,0.1972273773402607,2.0,0.0
36.68022155761719,26.44699478149414,-2.082970142364502,-0.0,-0.0,-1.0,0.1401175979321005,1.0,0.0
37.6392707824707,26.24395751953125,-2.3475341796875,-0.0,-0.0,-1.0,0.0144958039802781,2.0,0.0
37.50132751464844,25.902511596679688,-2.315496921539306,-0.0,-0.0,-1.0,0.0122306258582653,2.0,0.0
35.31110763549805,26.70979881286621,-1.9418811798095703,-0.0,-0.0,-1.0,0.2323817359690985,2.0,0.0
37.58582305908203,27.155288696289062,-2.3820624351501465,-0.0,-0.0,-1.0,0.0409825511083511,2.0,0.0
37.47502517700195,26.905414581298828,-2.3599276542663574,-0.0,-0.0,-1.0,0.0075026189035225,1.0,0.0
37.41790771484375,26.651029586791992,-2.3312931060791016,-0.0,-0.0,-1.0,0.0081946390394246,1.0,0.0
37.2543830871582,26.31629180908203,-2.305191993713379,-0.0,-0.0,-1.0,0.0171734495511753,2.0,0.0
36.93273162841797,25.905353546142575,-2.290008068084717,0.0326827422087747,-0.3527244035165304,-0.9351563150220517,0.0372946816566244,3.0,0.0
36.63028717041016,25.67971992492676,-2.299190044403076,-0.0,-0.0,-1.0,0.0190931698950975,1.0,0.0
36.99041748046875,25.908771514892575,-2.283151149749756,-0.5846776534723965,0.3658417246018964,-0.7240938296038176,0.0479575144140371,3.0,0.0
36.83429718017578,25.76229476928711,-2.283620834350586,-0.0,-0.0,-1.0,0.0224914798690983,1.0,0.0
36.295509338378906,27.962007522583008,-2.3080883026123047,-0.0,-0.0,-1.0,0.0585755688160481,1.0,0.0
36.213157653808594,27.71014976501465,-2.283559799194336,-0.0,-0.0,-1.0,0.0270624073085608,1.0,0.0
37.45919418334961,27.789226531982425,-2.165736675262451,-0.0,-0.0,-1.0,0.1283547168971847,1.0,0.0
35.98389434814453,27.24003028869629,-2.2468905448913574,-0.0,-0.0,-1.0,0.0193402538201911,2.0,0.0
35.78915786743164,27.121671676635746,-2.252941131591797,-0.0,-0.0,-1.0,0.0408108756484718,1.0,0.0
35.848480224609375,26.512287139892575,-2.1689066886901855,-0.0,-0.0,-1.0,0.1359776666299277,1.0,0.0
35.723175048828125,26.326759338378903,-2.1596922874450684,-0.0,-0.0,-1.0,0.110467509273241,1.0,0.0
36.8994026184082,26.56296157836914,-2.060124397277832,-0.0,-0.0,-1.0,0.0894763974557308,2.0,0.0
36.461090087890625,28.103601455688477,-2.3392508029937744,-0.0,-0.0,-1.0,0.0734684844899084,1.0,0.0
37.43183517456055,27.827539443969727,-2.1995346546173096,-0.0,-0.0,-1.0,0.1987726746118129,2.0,0.0
36.367034912109375,27.750709533691406,-2.301837205886841,-0.0,-0.0,-1.0,0.0434382380459454,1.0,0.0
37.39457702636719,27.574771881103516,-2.1685476303100586,0.3730800400871306,0.9144714265069146,-0.1566949067168225,0.1621817719270995,4.0,0.0
36.30047607421875,27.41700553894043,-2.2645199298858643,-0.0,-0.0,-1.0,0.0172326052784572,1.0,0.0
36.057228088378906,27.033069610595703,-2.241037130355835,-0.0,-0.0,-1.0,0.0279474672153598,2.0,0.0
35.67655563354492,26.779102325439453,-2.2514965534210205,-0.0,-0.0,-1.0,0.1359299136049841,1.0,0.0
35.55143737792969,26.569480895996097,-2.239121913909912,-0.0,-0.0,-1.0,0.1643295632501045,2.0,0.0
35.61271667480469,26.186542510986328,-2.1833620071411133,-0.0,-0.0,-1.0,0.1655545695851189,1.0,0.0
35.561683654785156,26.13710021972656,-2.183152675628662,-0.0,-0.0,-1.0,0.156315309740512,1.0,0.0
35.33699417114258,25.7557430267334,-2.1624128818511963,-0.0,-0.0,-1.0,0.1663734955406155,1.0,0.0
36.82999420166016,26.48539352416992,-2.082486867904663,-0.0,-0.0,-1.0,0.1754840045186605,1.0,0.0
35.37598419189453,28.02225112915039,-2.287827491760254,-0.0,-0.0,-1.0,0.0700017117269101,1.0,0.0
35.43699645996094,26.801036834716797,-2.1157517433166504,-0.1760053411728471,-0.9301911147168486,0.3221282508263695,0.0794917199794987,5.0,0.0
37.4484748840332,28.002300262451172,-2.0958523750305176,-0.0,-0.0,-1.0,0.1249459685877459,1.0,0.0
37.384918212890625,27.714435577392575,-2.0597105026245117,-0.0,-0.0,-1.0,0.1534411597333112,2.0,0.0
37.307350158691406,28.06572723388672,-1.7040801048278809,-0.0,-0.0,-1.0,0.160693167760047,1.0,0.0
37.06693649291992,27.98975372314453,-1.706570386886597,-0.0,-0.0,-1.0,0.1435185447782832,1.0,0.0
36.98797607421875,27.734153747558594,-1.6735315322875977,-0.0,-0.0,-1.0,0.1078279545031934,1.0,0.0
36.947471618652344,27.374399185180664,-1.623514175415039,-0.0,-0.0,-1.0,0.0940897250705063,1.0,0.0
36.876914978027344,27.285186767578125,-1.6152071952819824,-0.0,-0.0,-1.0,0.0926776940326643,1.0,0.0
36.764408111572266,26.80765151977539,-1.5544960498809814,-0.0,-0.0,-1.0,0.1031474964112775,1.0,0.0
36.79457473754883,27.04265594482422,-1.5857954025268557,-0.0,-0.0,-1.0,0.1201802439098852,1.0,0.0
36.49855041503906,26.628427505493164,-1.5485074520111084,-0.0,-0.0,-1.0,0.1188455174557697,1.0,0.0
36.249046325683594,26.4261474609375,-1.5393924713134766,-0.0,-0.0,-1.0,0.1542368008711353,1.0,0.0
36.05965423583984,26.35604476928711,-1.5447046756744385,-0.0,-0.0,-1.0,0.144221292097445,1.0,0.0
35.976715087890625,25.75011825561523,-1.4713263511657717,-0.0,-0.0,-1.0,0.1466651692632066,1.0,0.0
35.80735397338867,26.029998779296875,-1.522172212600708,-0.0,-0.0,-1.0,0.1915572366918459,1.0,0.0
35.92311096191406,25.71579933166504,-1.4713943004608154,-0.0,-0.0,-1.0,0.1326043879683534,1.0,0.0
35.66639709472656,25.65093994140625,-1.485248565673828,-0.0,-0.0,-1.0,0.0852912314277482,1.0,0.0
36.02610397338867,28.030288696289062,-2.3144545555114746,-0.0,-0.0,-1.0,0.1034802457994908,2.0,0.0
35.879764556884766,27.6422119140625,-2.281932592391968,-0.0,-0.0,-1.0,0.0599452809917447,1.0,0.0
35.79814910888672,27.008102416992188,-2.210757255554199,-0.0,-0.0,-1.0,0.0575266611659478,2.0,0.0
35.820152282714844,27.379863739013672,-2.255521297454834,-0.0,-0.0,-1.0,0.0105606380044835,1.0,0.0
36.404998779296875,26.385114669799805,-2.0525877475738525,-0.0,-0.0,-1.0,0.181930923650144,1.0,0.0
35.591068267822266,26.873123168945312,-2.220839023590088,-0.0,-0.0,-1.0,0.1544888543480971,2.0,0.0
35.475120544433594,26.81978225708008,-2.229433536529541,-0.0,-0.0,-1.0,0.1487458988460243,1.0,0.0
35.35694122314453,26.54326629638672,-2.2109177112579346,-0.0,-0.0,-1.0,0.1845090362072468,1.0,0.0
35.21919250488281,25.98768615722656,-2.162001848220825,-0.0,-0.0,-1.0,0.1448145481069067,1.0,0.0
35.6895866394043,28.126224517822266,-2.2651336193084717,-0.0,-0.0,-1.0,0.1040838374324824,1.0,0.0
35.61414337158203,28.109699249267575,-2.2725138664245605,-0.0,-0.0,-1.0,0.0953181629752361,1.0,0.0
37.17539978027344,27.771530151367188,-2.0371997356414795,-0.0,-0.0,-1.0,0.1716780546415746,1.0,0.0
35.56109619140625,27.942249298095703,-2.2579071521759033,-0.0,-0.0,-1.0,0.0966846266045461,1.0,0.0
35.45613098144531,27.855487823486328,-2.260268449783325,-0.0,-0.0,-1.0,0.0726697881644218,1.0,0.0
35.377620697021484,27.842525482177734,-2.268684148788452,-0.0,-0.0,-1.0,0.0691715227111574,1.0,0.0
35.304893493652344,26.81844711303711,-2.150789260864258,-0.0,-0.0,-1.0,0.1009645726208723,1.0,0.0
36.59529495239258,27.953670501708984,-2.36397385597229,-0.0,-0.0,-1.0,0.0588624125266779,1.0,0.0
37.420555114746094,27.86582946777344,-2.2410647869110107,0.2752470257254026,-0.8575719110371456,-0.434522142392557,0.2248186275410808,5.0,0.0
37.32000732421875,27.631547927856445,-2.2188777923583984,-0.0,-0.0,-1.0,0.1572152787222468,2.0,0.0
36.50661849975586,27.50660514831543,-2.3105621337890625,-0.0,-0.0,-1.0,0.0053410938545344,1.0,0.0
36.83952713012695,26.67859268188477,-2.143786668777466,-0.0,-0.0,-1.0,0.1526603383023098,2.0,0.0
36.327056884765625,26.98604202270508,-2.26059889793396,-0.0,-0.0,-1.0,0.0244178716652128,2.0,0.0
36.80995559692383,26.507492065429688,-2.1232714653015137,-0.0,-0.0,-1.0,0.2266222141803557,2.0,0.0
36.10287857055664,26.764652252197266,-2.2614963054656982,0.2341855453403711,-0.748819848368655,-0.6200209391970384,0.0667079901142669,3.0,0.0
35.74066925048828,26.572376251220703,-2.2879433631896973,-0.0,-0.0,-1.0,0.153395063423586,1.0,0.0
35.681861877441406,26.596256256103516,-2.2999253273010254,-0.0,-0.0,-1.0,0.1358790195965195,2.0,0.0
35.59520721435547,26.349815368652344,-2.2790393829345703,-0.0,-0.0,-1.0,0.1461825530090091,2.0,0.0
35.3123893737793,26.421226501464844,-2.331753730773926,-0.0,-0.0,-1.0,0.0441030657447493,1.0,0.0
35.3963623046875,25.808666229248047,-2.2364249229431152,-0.3243232479811704,0.4672677927750766,-0.8224811491177483,0.1669395976318803,3.0,0.0
37.37882614135742,27.86076545715332,-2.221926689147949,0.2006816210732037,-0.9624303270967474,0.1829064035179703,0.2114682688191623,3.0,0.0
36.695411682128906,28.083740234375,-2.3239212036132812,-0.0,-0.0,-1.0,0.0726216189350231,1.0,0.0
36.49559783935547,27.704967498779297,-2.2746334075927734,-0.0,-0.0,-1.0,0.0281836249851397,1.0,0.0
36.31612777709961,27.309181213378903,-2.2224745750427246,-0.0,-0.0,-1.0,0.0197749050055309,1.0,0.0
36.07080078125,27.069337844848633,-2.206204414367676,-0.0,-0.0,-1.0,0.0342429562492422,1.0,0.0
35.89394760131836,26.97133445739746,-2.208299160003662,-0.0,-0.0,-1.0,0.0416593364311683,1.0,0.0
35.865692138671875,26.8028507232666,-2.1826372146606445,-0.0,-0.0,-1.0,0.1105336633508118,1.0,0.0
35.660125732421875,26.787574768066406,-2.2030229568481445,-0.0,-0.0,-1.0,0.1610219679837046,1.0,0.0
35.56824493408203,26.356727600097656,-2.1415858268737793,-0.0,-0.0,-1.0,0.1602647574833239,2.0,0.0
36.830413818359375,26.61836624145508,-2.048616409301758,-0.0,-0.0,-1.0,0.1956562600349707,2.0,0.0
37.44218444824219,27.9541015625,-2.4102108478546143,-0.0,-0.0,-1.0,0.1812105477227647,1.0,0.0
37.290916442871094,27.80595016479492,-2.404517650604248,0.1201143147063379,-0.6429400351461333,0.7564394639420365,0.1427427317053695,4.0,0.0
37.1564826965332,27.692182540893555,-2.403175592422486,-0.0,-0.0,-1.0,0.1714187288000081,2.0,0.0
37.03455352783203,27.31120491027832,-2.353414297103882,-0.0,-0.0,-1.0,0.0554833131623467,1.0,0.0
36.913795471191406,26.945125579833984,-2.3072409629821777,-0.0,-0.0,-1.0,0.0496800097465305,1.0,0.0
36.88691329956055,26.65795135498047,-2.2615396976470947,-0.908995981236066,-0.2766990159598604,-0.3117113418910617,0.2301673680901992,3.0,0.0
36.59174346923828,26.529298782348633,-2.284642457962036,-0.0,-0.0,-1.0,0.0569002890370616,2.0,0.0
36.396854400634766,26.406360626220703,-2.2940781116485596,-0.0,-0.0,-1.0,0.0191303617775847,1.0,0.0
36.20079040527344,26.230493545532227,-2.2959392070770264,-0.5992180474600024,0.7881319136912988,-0.1406620710053485,0.0269171650163641,3.0,0.0
35.93782424926758,25.983943939208984,-2.298018217086792,-0.0,-0.0,-1.0,0.0128331864670319,1.0,0.0
35.34897994995117,27.371591567993164,-1.9929053783416748,-0.0,-0.0,-1.0,0.0861364269222938,1.0,0.0
37.39384078979492,27.60751724243164,-2.055813789367676,0.6505516759162926,0.6659079435526658,0.3651699983240171,0.1422301085870938,6.0,0.0
36.00419998168945,28.05057144165039,-2.3216357231140137,-0.0,-0.0,-1.0,0.1072424616396088,2.0,0.0
35.889556884765625,27.89586067199707,-2.311859130859375,-0.0,-0.0,-1.0,0.0988766438225307,1.0,0.0
35.651092529296875,27.591814041137695,-2.295808792114258,-0.0,-0.0,-1.0,0.0135594518870887,1.0,0.0
35.353248596191406,27.502490997314453,-2.325833320617676,-0.0,-0.0,-1.0,0.139013291644677,1.0,0.0
37.537864685058594,26.55315399169922,-2.392812728881836,-0.0,-0.0,-1.0,0.0074483822142928,2.0,0.0
37.29603958129883,26.178491592407227,-2.35200834274292,-0.0,-0.0,-1.0,0.0237673395244135,1.0,0.0
37.100616455078125,25.936962127685547,-2.333522319793701,-0.0,-0.0,-1.0,0.0525369179777551,2.0,0.0
36.94611358642578,25.82465171813965,-2.335799217224121,-0.0,-0.0,-1.0,0.0331966542683173,2.0,0.0
35.28961944580078,25.816232681274418,-2.063591480255127,-0.0,-0.0,-1.0,0.1663734955406155,2.0,0.0
36.49990463256836,28.12516212463379,-2.3627028465270996,-0.0,-0.0,-1.0,0.0708403941780502,1.0,0.0
36.3390998840332,27.867433547973633,-2.3317136764526367,0.1437896791460904,-0.4064721108724503,-0.902277646433712,0.0738513748546095,3.0,0.0
37.52816009521485,26.06360244750977,-2.328174591064453,-0.2591610467260464,0.5129652223308551,-0.818353366547066,0.0131924920430023,3.0,0.0
37.2921028137207,25.85441017150879,-2.311906337738037,-0.0,-0.0,-1.0,0.0268005929266292,2.0,0.0
37.076473236083984,25.743751525878903,-2.3172202110290527,-0.0,-0.0,-1.0,0.0335421075659851,2.0,0.0
37.43998336791992,27.868553161621097,-2.19933557510376,0.9847485899542852,0.0452006056385759,-0.1680092849605437,0.164963887927439,4.0,0.0
37.29701614379883,27.79329490661621,-2.2003936767578125,-0.0,-0.0,-1.0,0.2025456697451373,2.0,0.0
36.22548294067383,27.653736114501953,-2.304177761077881,-0.0,-0.0,-1.0,0.0260855103140106,1.0,0.0
36.11263275146485,27.378337860107425,-2.2650880813598633,-0.0,-0.0,-1.0,0.0313116411440483,1.0,0.0
36.77385330200195,26.596385955810547,-2.0248875617980957,-0.0,-0.0,-1.0,0.2555176171747413,2.0,0.0
35.98312759399414,27.218677520751953,-2.2513136863708496,-0.0,-0.0,-1.0,0.0217506040783445,2.0,0.0
35.74273681640625,27.10495948791504,-2.2624940872192383,-0.0,-0.0,-1.0,0.0470958487159261,2.0,0.0
35.61804962158203,26.654407501220703,-2.1937737464904785,-0.0,-0.0,-1.0,0.1213496967413721,1.0,0.0
37.07465744018555,25.658279418945312,-2.297746181488037,-0.0,-0.0,-1.0,0.0328035700843857,2.0,0.0
35.28632736206055,25.7886962890625,-2.080565929412842,-0.0,-0.0,-1.0,0.1663734955406154,2.0,0.0
37.649024963378906,27.57733917236328,-2.4333066940307617,-0.0,-0.0,-1.0,0.1583118612977942,1.0,0.0
37.36463165283203,27.304000854492188,-2.398716926574707,-0.0,-0.0,-1.0,0.0941188953593768,1.0,0.0
37.18962478637695,27.035972595214844,-2.354814052581787,-0.0,-0.0,-1.0,0.0112790891599289,1.0,0.0
37.11164474487305,26.92128562927246,-2.3368072509765625,-0.0,-0.0,-1.0,0.0162198790975037,2.0,0.0
36.83146667480469,26.58675193786621,-2.292291164398194,-0.0,-0.0,-1.0,0.2067474404491989,2.0,0.0
36.58810806274414,26.41949462890625,-2.2841310501098633,-0.0,-0.0,-1.0,0.0833804724818171,1.0,0.0
36.31804656982422,26.325485229492188,-2.2985315322875977,-0.0,-0.0,-1.0,0.0304215168790568,1.0,0.0
35.896541595458984,26.10542678833008,-2.3072004318237305,-0.0,-0.0,-1.0,0.0100238778296127,1.0,0.0
35.645389556884766,25.86467742919922,-2.289750099182129,-0.0,-0.0,-1.0,0.0490658206278132,1.0,0.0
35.427330017089844,25.77191925048828,-2.3023085594177246,-0.0,-0.0,-1.0,0.1310593759202873,2.0,0.0
35.31101608276367,27.382539749145508,-2.124456882476806,-0.0,-0.0,-1.0,0.0773375970602196,2.0,0.0
35.34477615356445,26.81134796142578,-2.0102009773254395,0.3704883840008269,-0.919689770251113,0.1300349330599684,0.1678791193787298,9.0,0.0
35.92108154296875,25.93404006958008,-2.264645576477051,-0.0,-0.0,-1.0,0.015199611278014,1.0,0.0
35.33782958984375,25.639089584350582,-2.2868032455444336,-0.0,-0.0,-1.0,0.1208328349020903,2.0,0.0
37.39690017700195,27.96480941772461,-2.114236354827881,-0.0,-0.0,-1.0,0.1380813062486287,2.0,0.0
37.28009414672851,27.81556701660156,-2.0872583389282227,-0.0,-0.0,-1.0,0.1681329439677588,1.0,0.0
35.42325210571289,28.135948181152344,-2.3096184730529785,-0.0,-0.0,-1.0,0.0927598345199749,2.0,0.0
35.21936798095703,27.99985122680664,-2.299447536468506,-0.0,-0.0,-1.0,0.0838997281573295,1.0,0.0
35.3346061706543,26.805530548095703,-2.0253305435180664,-0.7469494472297595,-0.6313560862828504,-0.208461064942015,0.1678791193787298,7.0,0.0
35.38621520996094,27.47976303100586,-1.9168790578842163,-0.0,-0.0,-1.0,0.1730326817871723,2.0,0.0
35.43735885620117,27.43011474609375,-1.9132786989212036,-0.0752084438003988,0.092184282079265,-0.9928976523885292,0.1812386501844362,3.0,0.0
37.281517028808594,27.969242095947266,-2.107170581817627,-0.0,-0.0,-1.0,0.1233121802990371,2.0,0.0
37.13038635253906,27.928165435791016,-2.0773820877075195,-0.0,-0.0,-1.0,0.1962060975597206,1.0,0.0
37.38290023803711,27.788684844970703,-2.2599234580993652,0.7617366991965876,-0.2109720390339222,0.6125748932522104,0.2349096224879885,5.0,0.0
37.29019927978515,27.876361846923828,-2.25939416885376,-0.0648448198202549,-0.2760656733456289,-0.9589488481366992,0.2190991614825129,5.0,0.0
37.361724853515625,27.65251350402832,-2.303314208984375,0.3582248164463166,0.915331733689996,-0.1839641219968415,0.2490038157985201,6.0,0.0
37.256256103515625,27.809127807617188,-2.3046116828918457,-0.0,-0.0,-1.0,0.1074943097356407,1.0,0.0
35.403358459472656,27.444595336914062,-1.9093588590621948,0.001680239772299,-0.0603231831715985,-0.9981774844016232,0.1500601298274601,4.0,0.0
37.300994873046875,27.64311981201172,-1.9951380491256712,-0.0,-0.0,-1.0,0.1507342338796777,1.0,0.0
36.835540771484375,26.55146026611328,-2.2604193687438965,-0.5001616348949348,0.3893844499111456,0.7734455954665594,0.2140813072628987,6.0,0.0
35.69336700439453,27.035776138305664,-2.2648115158081055,-0.0,-0.0,-1.0,0.0779436576017803,1.0,0.0
36.06418991088867,26.84624481201172,-2.2570881843566895,-0.0,-0.0,-1.0,0.0516665204153277,1.0,0.0
36.45654296875,26.76481056213379,-2.2695398330688477,-0.0,-0.0,-1.0,0.0638334825241024,1.0,0.0
36.80469512939453,26.674291610717773,-2.2783288955688477,-0.0,-0.0,-1.0,0.1567322949429725,2.0,0.0
37.20414352416992,26.743764877319336,-2.3172011375427246,-0.0,-0.0,-1.0,0.0143955231699334,1.0,0.0
35.29857635498047,27.318525314331055,-2.287808418273926,-0.2712354463917362,0.356095074197237,-0.8942190060343942,0.1958427054613717,4.0,0.0
35.623165130615234,27.12505340576172,-2.275303840637207,-0.0,-0.0,-1.0,0.0483024975874992,1.0,0.0
37.664363861083984,26.92475700378418,-2.3788771629333496,-0.611265954731339,0.7069931762949097,-0.3556888826753219,0.0055133252011525,3.0,0.0
36.809417724609375,25.969573974609375,-2.285315990447998,0.3486919914730594,-0.3542649698147964,-0.8677039969048622,0.0726356006298351,6.0,0.0
37.1701774597168,25.893333435058594,-2.2994418144226074,-0.0,-0.0,-1.0,0.0352702912725302,2.0,0.0
37.53174591064453,25.83876037597656,-2.3180184364318848,-0.0,-0.0,-1.0,0.0108213297233824,2.0,0.0
35.39186477661133,26.786670684814453,-2.3284800052642822,-0.0,-0.0,-1.0,0.2110142918923276,2.0,0.0
35.58380889892578,26.298463821411133,-2.2551894187927246,-0.0,-0.0,-1.0,0.162280720041332,2.0,0.0
36.030059814453125,26.262094497680664,-2.2795889377593994,-0.0,-0.0,-1.0,0.0262475802082402,1.0,0.0
36.32549285888672,26.129661560058594,-2.277552366256714,-0.0,-0.0,-1.0,0.0246732163292504,2.0,0.0
36.607181549072266,26.035785675048828,-2.2817347049713135,-0.0,-0.0,-1.0,0.0398395859596915,2.0,0.0
35.58544921875,26.532812118530273,-2.296591281890869,-0.7621667751807031,-0.333042192674494,-0.5551438594717707,0.1753007866387702,3.0,0.0
35.941001892089844,26.370105743408203,-2.2922494411468506,-0.0,-0.0,-1.0,0.0766862938956873,1.0,0.0
35.44189453125,26.736448287963867,-2.322885751724243,-0.0,-0.0,-1.0,0.2002013839156676,1.0,0.0
37.07796859741211,25.98532485961914,-2.349862575531006,-0.0,-0.0,-1.0,0.0519040572851484,1.0,0.0
37.25779724121094,26.02899932861328,-2.353419780731201,-0.0,-0.0,-1.0,0.0191006983277381,2.0,0.0
37.53044891357422,26.21591567993164,-2.3889012336730957,-0.0,-0.0,-1.0,0.0200457011957107,1.0,0.0
35.637393951416016,26.56182861328125,-2.3166732788085938,-0.0,-0.0,-1.0,0.1297132032995918,2.0,0.0
35.74333572387695,26.52120590209961,-2.3127002716064453,-0.0,-0.0,-1.0,0.1339509841165106,2.0,0.0
35.80942153930664,26.23360824584961,-2.2583584785461426,-0.0,-0.0,-1.0,0.0419155409104883,1.0,0.0
36.880165100097656,26.231670379638672,-2.2568979263305664,-0.4130432371779847,-0.8978231114038131,-0.1526726722459098,0.0587641032825898,3.0,0.0
36.734039306640625,26.123279571533203,-2.24375057220459,-0.0,-0.0,-1.0,0.0822074000440098,1.0,0.0
36.2227668762207,26.12461853027344,-2.2441964149475098,-0.0,-0.0,-1.0,0.0220338978378157,1.0,0.0
35.81201934814453,28.10403823852539,-2.264068603515625,-0.0,-0.0,-1.0,0.0968953507179455,1.0,0.0
37.315818786621094,27.732898712158203,-2.3022046089172363,0.6401910150929231,0.7626085190194032,-0.0926483184592409,0.1779525834774747,4.0,0.0
36.74869918823242,26.51271629333496,-2.134005069732666,-0.0,-0.0,-1.0,0.2067527712151488,1.0,0.0
