x,y,z,nx,ny,nz,curvature,density,label
26.235633850097656,13.268301963806152,-1.2573267221450806,-0.0,-0.0,-1.0,0.1737720568996517,1.0,0.0
26.026138305664062,13.191826820373535,-1.2605830430984497,-0.0,-0.0,-1.0,0.1449194631277482,2.0,0.0
25.280378341674805,14.487632751464844,-1.312308669090271,-0.6964137296835021,-0.001394914878184,-0.7176391651246447,0.0618233037365069,5.0,0.0
25.945377349853516,14.71564483642578,-1.4078716039657593,-0.0,-0.0,-1.0,0.0282058155450115,2.0,0.0
26.09018325805664,14.515518188476562,-1.3881713151931765,-0.0,-0.0,-1.0,0.0181610038839329,2.0,0.0
26.048992156982425,14.072206497192385,-1.3121870756149292,-0.7063928306192901,0.0984476881996528,-0.7009402410603991,0.0686582965719446,4.0,0.0
27.536752700805664,13.422428131103516,-1.3418058156967163,-0.0,-0.0,-1.0,0.1490118554016132,1.0,0.0
27.430822372436523,13.284822463989258,-1.309237360954285,-0.6322519723277276,-0.7690538037323925,0.0938812571945923,0.1378826771919703,4.0,0.0
26.78877830505371,15.44072151184082,-0.8141175508499146,0.6456444629586887,0.6088354138388417,-0.4609367270097629,0.057204584303686,3.0,0.0
25.976566314697266,15.193414688110352,-1.363837718963623,-0.0,-0.0,-1.0,0.0832735187877055,1.0,0.0
25.65149307250977,14.370079040527344,-1.31880521774292,0.7963143887385958,0.60150015228093,-0.0638824005019707,0.2140564471896328,4.0,0.0
25.644718170166016,13.919740676879885,-1.2778544425964355,-0.0,-0.0,-1.0,0.0603535628616402,2.0,0.0
26.06727600097656,14.043333053588867,-1.2474913597106934,-0.0,-0.0,-1.0,0.0829118906246741,1.0,0.0
25.447612762451172,13.410758972167969,-1.251218557357788,-0.6117772430392547,0.6998733319785329,0.3686542066551731,0.1241010942304327,3.0,0.0
25.746536254882812,13.70223903656006,-1.435245156288147,-0.0,-0.0,-1.0,0.0851626731104984,1.0,0.0
25.377180099487305,13.608540534973145,-1.3797448873519895,-0.0,-0.0,-1.0,0.1058523229072919,1.0,0.0
25.388343811035156,13.412398338317873,-1.347620129585266,-0.0,-0.0,-1.0,0.1072302332695158,1.0,0.0
26.120849609375,13.165534019470217,-1.3845478296279907,-0.0,-0.0,-1.0,0.1545979316209494,1.0,0.0
25.978466033935547,13.154921531677246,-1.3671149015426636,-0.0,-0.0,-1.0,0.0889618011471821,1.0,0.0
25.379802703857425,14.073301315307615,-1.1314254999160769,-0.0,-0.0,-1.0,0.0680163484253932,1.0,0.0
27.422388076782227,13.197519302368164,-1.1001232862472534,-0.0,-0.0,-1.0,0.0912497124158961,1.0,0.0
26.547119140625,15.286380767822266,-1.4151691198349,-0.0,-0.0,-1.0,0.0824503907254962,1.0,0.0
25.792741775512695,15.074914932250977,-1.4318469762802124,-0.0,-0.0,-1.0,0.0787132305989291,1.0,0.0
25.60892677307129,14.86427879333496,-1.4168630838394165,-0.0,-0.0,-1.0,0.0874050724060664,1.0,0.0
25.400854110717773,14.734371185302734,-1.4121381044387815,-0.0,-0.0,-1.0,0.0505330342333287,1.0,0.0
25.3555850982666,14.479890823364258,-1.3860431909561155,-0.0,-0.0,-1.0,0.0497358849174282,2.0,0.0
26.000951766967773,13.185699462890623,-1.2118319272994995,-0.0,-0.0,-1.0,0.0895904030840723,2.0,0.0
25.350765228271484,13.614160537719728,-1.290349364280701,-0.1029780475212789,0.4898016641747285,-0.8657308193083872,0.121627740331218,3.0,0.0
26.755937576293945,15.356380462646484,-1.1261309385299685,-0.0,-0.0,-1.0,0.1473701835562464,2.0,0.0
27.330150604248047,15.50033187866211,-1.4806138277053833,-0.0,-0.0,-1.0,0.1550638818168049,2.0,0.0
27.662063598632812,13.589506149291992,-1.214290976524353,0.4135710264841911,0.601711828790099,-0.6833021887473264,0.2102020310534201,4.0,0.0
26.432104110717773,14.499557495117188,-1.4010220766067505,-0.0,-0.0,-1.0,0.0577737804090402,1.0,0.0
26.21896743774414,14.169012069702148,-1.3711446523666382,-0.0,-0.0,-1.0,0.0301533186282313,1.0,0.0
26.13483238220215,13.259672164916992,-1.2592335939407349,-0.0,-0.0,-1.0,0.2817285980458568,1.0,0.0
25.989601135253903,13.16737174987793,-1.2565311193466189,0.3019967484080312,-0.9387650077901736,-0.165886178145413,0.1055131388800868,4.0,0.0
27.000207901000977,15.43327808380127,-1.2042443752288818,-0.0,-0.0,-1.0,0.1181341526504776,2.0,0.0
26.786701202392575,15.184809684753418,-1.1731479167938232,-0.0,-0.0,-1.0,0.1903869151600403,1.0,0.0
25.873960494995117,15.58937168121338,-1.2219092845916748,-0.0,-0.0,-1.0,0.0765050027277418,2.0,0.0
26.47384262084961,15.506593704223633,-1.2992756366729736,-0.2753823258603828,0.9613291650350778,0.0032880171359069,0.2544424592785337,4.0,0.0
26.652557373046875,14.525890350341797,-1.1716210842132568,-0.0,-0.0,-1.0,0.1999799115689717,1.0,0.0
26.214031219482425,15.50840950012207,-1.2862179279327393,-0.0,-0.0,-1.0,0.1355374280005855,2.0,0.0
25.787086486816406,15.536766052246094,-1.268705129623413,-0.0,-0.0,-1.0,0.0678162852547271,2.0,0.0
26.191051483154297,15.57908058166504,-1.454070806503296,-0.0,-0.0,-1.0,0.1492926094393842,1.0,0.0
26.73390007019043,15.026227951049805,-1.4089820384979248,-0.0,-0.0,-1.0,0.1161109023805308,1.0,0.0
26.509868621826172,15.354442596435549,-1.442786455154419,-0.0,-0.0,-1.0,0.1110258029823451,1.0,0.0
26.639129638671875,14.568172454833984,-1.3317956924438477,-0.0,-0.0,-1.0,0.2394323818101719,2.0,0.0
26.029239654541016,15.276620864868164,-1.396266222000122,-0.1270336082594581,0.9477466399647732,-0.2926410237954776,0.082142775320233,3.0,0.0
26.07874870300293,15.424585342407228,-1.422417402267456,0.0393242737467477,-0.2316335361630071,-0.9720079765202094,0.1099094590102582,5.0,0.0
25.76803398132324,14.988157272338867,-1.3338830471038818,-0.0,-0.0,-1.0,0.118578586267451,2.0,0.0
25.927270889282227,13.90838623046875,-1.1798579692840576,-0.0,-0.0,-1.0,0.1142735995656104,2.0,0.0
25.76410865783691,14.305780410766602,-1.2292916774749756,-0.0,-0.0,-1.0,0.1945390955243837,2.0,0.0
26.735734939575195,14.896688461303713,-1.397534966468811,-0.0,-0.0,-1.0,0.2069939244060563,1.0,0.0
26.66277503967285,15.141475677490234,-1.439949631690979,0.874265340679968,-0.471640963974397,0.1149561446249891,0.1911604596202946,3.0,0.0
26.38968276977539,14.36610221862793,-1.326111912727356,0.5621838786651885,-0.8065438136713206,-0.182856127043878,0.0895766021057519,3.0,0.0
26.60811424255371,14.614824295043944,-1.357159972190857,-0.0,-0.0,-1.0,0.2278499433173198,1.0,0.0
26.471296310424805,15.356203079223633,-1.4823788404464722,-0.0,-0.0,-1.0,0.181179583647757,1.0,0.0
26.192623138427734,14.338106155395508,-1.33009135723114,-0.0,-0.0,-1.0,0.0483389668696074,1.0,0.0
26.18268394470215,14.44926643371582,-1.3484257459640503,0.7668071922342067,0.2440581636666523,0.5936685461480622,0.0320382791362204,3.0,0.0
27.64821434020996,13.589178085327148,-1.1531883478164673,-0.0,-0.0,-1.0,0.2034966488919879,2.0,0.0
26.05385398864746,13.99629020690918,-1.2812107801437378,-0.0,-0.0,-1.0,0.1355803957128054,2.0,0.0
25.790756225585938,13.830888748168944,-1.2668565511703491,-0.0,-0.0,-1.0,0.1054956752991611,1.0,0.0
25.798139572143555,14.024236679077148,-1.2975143194198608,-0.0,-0.0,-1.0,0.1816252780536145,1.0,0.0
25.435619354248047,13.545225143432615,-1.2382246255874634,-0.2391819799956689,0.4064128428954803,-0.8818279773147164,0.0876065431191381,4.0,0.0
26.625160217285156,15.217422485351562,-1.3662137985229492,-0.2192475408928668,0.5690304852814065,-0.7925495710886717,0.1801089597100003,6.0,0.0
26.433094024658203,15.478107452392578,-1.4174604415893557,0.2402777412035384,0.7436409669883108,0.623910826399747,0.2440106436842423,5.0,0.0
26.091232299804688,15.451620101928713,-1.430565357208252,0.0393242737467477,-0.2316335361630071,-0.9720079765202094,0.1272282170588932,5.0,0.0
25.72541046142578,14.754302978515623,-1.3384032249450684,-0.0,-0.0,-1.0,0.0487024111435903,2.0,0.0
25.860605239868164,15.052136421203612,-1.3786778450012207,-0.0,-0.0,-1.0,0.1498174544191198,2.0,0.0
25.41807556152344,14.586957931518556,-1.3295674324035645,-0.6126455970534157,-0.3638415876913836,-0.7016300103881518,0.0649138077540061,3.0,0.0
25.63478660583496,14.831205368041992,-1.355896234512329,-0.0598884179499494,0.553896811329916,-0.8304286241417769,0.0958294556627628,4.0,0.0
25.217674255371097,14.450901985168455,-1.3199660778045654,-0.225407115172994,-0.1287429737448886,-0.9657209116202834,0.072986683670775,3.0,0.0
27.61910820007324,13.142603874206545,-0.9895851612091064,-0.0,-0.0,-1.0,0.1377764892695386,1.0,0.0
25.60184669494629,13.757524490356444,-1.185797929763794,-0.0,-0.0,-1.0,0.0952795968796694,1.0,0.0
27.663089752197266,13.490297317504885,-1.2407203912734983,0.8568841694866762,-0.1925143259702453,0.4782130847011103,0.1594855191701598,3.0,0.0
26.471555709838867,13.773157119750977,-1.3449190855026243,-0.0,-0.0,-1.0,0.0179150120137197,1.0,0.0
26.557193756103516,14.019485473632812,-1.3876746892929075,0.6868359029389519,0.3524861885589936,-0.6356177540858877,0.0276020174478594,3.0,0.0
26.128725051879883,13.347638130187988,-1.2815803289413452,-0.0,-0.0,-1.0,0.1668245929423671,2.0,0.0
26.26736640930176,13.724838256835938,-1.3460756540298462,-0.0,-0.0,-1.0,0.0145467605582937,2.0,0.0
26.224931716918945,13.93427276611328,-1.3880873918533323,-0.0,-0.0,-1.0,0.0158991110692644,1.0,0.0
26.038156509399418,13.314990043640137,-1.280301213264465,-0.0,-0.0,-1.0,0.1686678764935157,1.0,0.0
26.019203186035156,13.560768127441406,-1.3280431032180786,-0.0,-0.0,-1.0,0.0400286821203105,2.0,0.0
26.45458984375,15.45299243927002,-1.1221119165420532,-0.0,-0.0,-1.0,0.1826061410620613,2.0,0.0
27.676198959350582,13.5567045211792,-1.3462435007095337,0.3575397814084514,-0.573957393632886,-0.7367076862667724,0.1729858181321525,3.0,0.0
26.627901077270508,14.649665832519531,-1.1412936449050903,-0.0,-0.0,-1.0,0.1448354993971534,2.0,0.0
26.578659057617188,14.80795955657959,-1.1718138456344604,0.2279325213418716,-0.7862092744905202,-0.5743881461344993,0.1543538337711377,3.0,0.0
26.63379669189453,15.342718124389648,-1.2650054693222046,-0.0,-0.0,-1.0,0.1651987688098407,2.0,0.0
26.433788299560547,13.28688144683838,-1.3374944925308228,-0.0,-0.0,-1.0,0.0747187439452974,2.0,0.0
26.65868377685547,13.573760032653809,-1.3884223699569702,-0.0,-0.0,-1.0,0.0375325739023477,1.0,0.0
26.275636672973633,15.358171463012695,-1.2844525575637815,-0.0,-0.0,-1.0,0.1311814923558026,2.0,0.0
26.12039375305176,15.531346321105955,-1.3231092691421509,-0.0,-0.0,-1.0,0.1809662323757559,2.0,0.0
26.23297691345215,13.147117614746094,-1.3178707361221311,-0.0,-0.0,-1.0,0.1292138527343519,2.0,0.0
25.354921340942383,15.03168773651123,-1.276319146156311,-0.0,-0.0,-1.0,0.092409349877401,2.0,0.0
25.455074310302734,15.56411075592041,-1.365143656730652,-0.0,-0.0,-1.0,0.0298074305392272,2.0,0.0
27.3088321685791,13.144285202026367,-0.8445101976394653,-0.0,-0.0,-1.0,0.0732300112486047,1.0,0.0
26.79845809936523,15.45949363708496,-0.7757633924484253,-0.0,-0.0,-1.0,0.0572045843036859,2.0,0.0
27.615543365478516,15.558303833007812,-1.527383804321289,-0.0,-0.0,-1.0,0.1363765088460579,2.0,0.0
27.11505889892578,15.630590438842772,-1.5629167556762695,-0.0588562044043891,-0.9937746392902456,-0.0945934115393372,0.0403155560126327,3.0,0.0
26.69356155395508,14.986108779907228,-1.4433543682098389,-0.0,-0.0,-1.0,0.2403973438251082,2.0,0.0
26.652084350585938,15.11358642578125,-1.4730684757232666,-0.0030238434035798,0.7653918400300841,-0.6435574469978829,0.2064467914195712,3.0,0.0
27.61496353149414,13.63913917541504,-1.114198923110962,0.8781786748452345,0.0914806246741555,-0.4695034721450888,0.1899726398375177,7.0,0.0
27.523250579833984,13.481653213500977,-1.0834174156188965,-0.0,-0.0,-1.0,0.1338781544388367,1.0,0.0
27.158950805664062,13.180505752563477,-1.0322751998901367,0.981639739117393,-0.1451619091784309,0.1237394145339699,0.0889445921125632,3.0,0.0
26.804183959960938,13.919992446899414,-1.207657814025879,-0.0,-0.0,-1.0,0.158724250025182,1.0,0.0
26.60719871520996,14.682788848876951,-1.3821752071380615,0.0493074961696738,0.2981645485575896,-0.9532400918996882,0.2057900065671541,4.0,0.0
26.677499771118164,15.23685073852539,-1.0359246730804443,-0.0542732761862056,0.8258899656183031,-0.5612131290187476,0.2625810273850905,3.0,0.0
26.57615852355957,15.559528350830078,-1.0989789962768557,-0.0,-0.0,-1.0,0.2202055169054071,2.0,0.0
26.383255004882812,14.432071685791016,-1.3398706912994385,-0.0,-0.0,-1.0,0.1019556883221111,2.0,0.0
26.225069046020508,14.617393493652344,-1.388740062713623,-0.0,-0.0,-1.0,0.0222396580221641,1.0,0.0
26.363224029541016,15.558889389038086,-1.1099669933319092,-0.0,-0.0,-1.0,0.1497312715333707,1.0,0.0
26.105304718017575,13.371870040893556,-1.1267931461334229,-0.0,-0.0,-1.0,0.1398509101812101,1.0,0.0
25.916568756103516,14.088726043701172,-1.293076753616333,-0.2638607215936716,0.3919646821878335,-0.8813292276541486,0.1200228830223934,7.0,0.0
25.95365333557129,14.119237899780272,-1.2974021434783936,-0.3548540631872008,0.2510300260080115,-0.9005900953718907,0.090456041741503,7.0,0.0
26.118812561035156,14.562017440795898,-1.382946252822876,-0.0,-0.0,-1.0,0.0159668233440796,2.0,0.0
25.81513214111328,15.581512451171877,-1.1451923847198486,0.4617081548343687,-0.7866938240270122,-0.4098028879805491,0.0771103602857945,5.0,0.0
25.526735305786133,13.867177963256836,-1.2710819244384766,-0.7518109018963467,0.6528447585360928,0.0925963770444211,0.0915989756350658,3.0,0.0
25.76949882507324,14.464029312133787,-1.3833885192871094,-0.0,-0.0,-1.0,0.1492010613940964,2.0,0.0
25.27302360534668,13.85552978515625,-1.28676438331604,-0.0,-0.0,-1.0,0.0392310278697385,2.0,0.0
27.51216506958008,14.666698455810549,-1.4897575378417969,-0.0,-0.0,-1.0,0.0055556439675983,1.0,0.0
27.45440101623535,14.67827033996582,-1.4931252002716064,-0.0,-0.0,-1.0,0.0073915674107343,1.0,0.0
27.12521743774414,13.992376327514648,-1.3278944492340088,-0.9742148409617912,-0.0390342908063105,-0.2222200886307094,0.1954954303392381,4.0,0.0
27.05472755432129,14.533071517944336,-1.4627578258514404,-0.0,-0.0,-1.0,0.0508532238536817,2.0,0.0
26.6644287109375,14.354352951049805,-1.4270577430725098,-0.0,-0.0,-1.0,0.050170661759533,1.0,0.0
26.25640869140625,14.224925994873049,-1.4071848392486572,-0.0,-0.0,-1.0,0.0592924579867531,2.0,0.0
25.975984573364254,14.001535415649414,-1.362260341644287,-0.0,-0.0,-1.0,0.067116453773277,1.0,0.0
25.862483978271484,14.02452278137207,-1.3728907108306885,-0.0,-0.0,-1.0,0.1230270774618632,1.0,0.0
25.65336799621582,13.912189483642578,-1.3544206619262695,-0.0,-0.0,-1.0,0.053499487349269,1.0,0.0
27.623281478881836,13.585723876953123,-1.2230565547943115,0.0408159356654775,-0.0065344768691196,-0.9991453147604702,0.2327640445852921,9.0,0.0
27.277494430541992,13.154584884643556,-1.1193082332611084,-0.0,-0.0,-1.0,0.0966108936811449,2.0,0.0
27.26043701171875,13.8648681640625,-1.2945642471313477,-0.7551204430580947,-0.6160322026206285,0.2242709116450987,0.1531038436214977,5.0,0.0
26.786212921142575,15.25429344177246,-1.2166378498077393,-0.0,-0.0,-1.0,0.1899835734018994,2.0,0.0
26.896886825561523,15.414493560791016,-1.2477498054504397,0.6777136969190147,-0.1724665408182984,-0.7148142676993318,0.0879139220207582,3.0,0.0
26.66875648498535,15.21139907836914,-1.2106459140777588,0.8029469210326714,0.0476202319490108,-0.594145230994304,0.2101703968343617,6.0,0.0
26.48398208618164,15.565017700195312,-1.2905123233795166,-0.1909934415011051,0.8279530993905015,0.5272714391214703,0.2346358465759073,3.0,0.0
26.23236656188965,15.44327163696289,-1.2728602886199951,0.8285816318532636,-0.0024111660450215,-0.5598630775767287,0.1715702303420427,3.0,0.0
26.14154815673828,13.156307220458984,-1.146531343460083,-0.0,-0.0,-1.0,0.1720522106271295,2.0,0.0
25.872236251831055,15.051034927368164,-1.203460693359375,-0.0,-0.0,-1.0,0.146063642228366,1.0,0.0
25.56723403930664,15.45330810546875,-1.3012559413909912,-0.0,-0.0,-1.0,0.0642262240057494,1.0,0.0
25.45689582824707,13.413532257080078,-1.2410783767700195,-0.0,-0.0,-1.0,0.1182791242557665,2.0,0.0
25.5745849609375,13.748737335205078,-1.3178560733795166,-0.0,-0.0,-1.0,0.1267350278305968,2.0,0.0
25.359548568725582,14.908584594726562,-1.1963355541229248,-0.0,-0.0,-1.0,0.1587731807935379,1.0,0.0
25.28752326965332,13.59004020690918,-1.2940092086791992,-0.0,-0.0,-1.0,0.1009047342739475,1.0,0.0
26.76411247253418,15.455930709838867,-0.8285782337188721,0.5927471502991857,0.7833366428347683,-0.1871751046601791,0.0572045843036859,3.0,0.0
27.448583602905273,15.313970565795898,-1.5636147260665894,-0.0,-0.0,-1.0,0.032392926605433,1.0,0.0
27.021228790283203,15.188272476196287,-1.5347391366958618,-0.0,-0.0,-1.0,0.0581079051911608,2.0,0.0
26.672826766967773,14.788082122802734,-1.425784945487976,0.3481031317001762,-0.5299082076488093,-0.7733184991754405,0.1831618894326199,3.0,0.0
26.60452461242676,15.123346328735352,-1.5283552408218384,-0.0,-0.0,-1.0,0.1075937498928944,2.0,0.0
26.184877395629883,14.728755950927734,-1.4278672933578491,-0.0,-0.0,-1.0,0.02821762368575,2.0,0.0
26.38558578491211,15.117870330810549,-1.5350993871688845,-0.0,-0.0,-1.0,0.041961071093494,1.0,0.0
25.906797409057617,14.671083450317385,-1.42505943775177,-0.0,-0.0,-1.0,0.021354733157489,1.0,0.0
25.524925231933594,14.493928909301758,-1.3953055143356323,-0.0,-0.0,-1.0,0.0889157552830042,2.0,0.0
27.57167625427246,13.605405807495115,-1.0600959062576294,-0.0,-0.0,-1.0,0.2484354693946708,2.0,0.0
27.23016357421875,13.97443389892578,-1.1710301637649536,-0.5560876779847742,-0.6564763256297826,-0.5097110242883922,0.1724384529446782,5.0,0.0
26.91322326660156,15.44643211364746,-1.2399672269821167,0.6777136969190147,-0.1724665408182984,-0.7148142676993318,0.207934069520848,3.0,0.0
26.70366668701172,15.17879867553711,-1.1775912046432495,0.366937500483816,0.4884401386800596,-0.7916963443548883,0.188210101310417,4.0,0.0
26.511608123779297,15.569051742553713,-1.2868398427963257,-0.0170213227985528,0.734327790260664,-0.6785815875936203,0.1557869932156758,3.0,0.0
26.23141288757324,15.473199844360352,-1.2744005918502808,0.5238759908273329,-0.0271232242117346,-0.8513626001552105,0.1637721710576401,3.0,0.0
25.862138748168945,14.99518585205078,-1.1686700582504272,-0.0,-0.0,-1.0,0.1529999363339329,1.0,0.0
25.559038162231445,15.315746307373049,-1.270849347114563,-0.0,-0.0,-1.0,0.0927007220175625,1.0,0.0
25.476184844970703,14.348081588745115,-1.355160355567932,0.6476809176604589,-0.4286572530469736,-0.6298907749036567,0.0574425229356469,3.0,0.0
25.609771728515625,14.416688919067385,-1.3668233156204224,-0.0,-0.0,-1.0,0.1052281880635866,2.0,0.0
26.753192901611328,15.433389663696287,-0.8753420114517212,0.1016675817438239,0.6998113245819749,-0.7070557352919107,0.0658036007847016,3.0,0.0
27.61880874633789,13.627328872680664,-1.110848069190979,0.8324503531480163,-0.1621057206392841,-0.5298567210857681,0.1963268517387126,8.0,0.0
27.573707580566406,14.86789321899414,-1.498843789100647,-0.0,-0.0,-1.0,0.0719745281794538,1.0,0.0
27.60944366455078,14.932915687561035,-1.5220609903335571,-0.0,-0.0,-1.0,0.0615384019722052,2.0,0.0
27.222877502441406,13.973746299743652,-1.1908835172653198,-0.5560876779847742,-0.6564763256297826,-0.5097110242883922,0.1832329226592682,5.0,0.0
27.13212203979492,15.007749557495115,-1.5158354043960571,-0.0,-0.0,-1.0,0.0276986302763002,1.0,0.0
26.60137939453125,14.681912422180176,-1.3847724199295044,0.4240649712868088,-0.1947383912041408,-0.8844466400630063,0.2010039637728913,3.0,0.0
26.702495574951172,15.10295581817627,-1.3573893308639526,-0.0,-0.0,-1.0,0.1530697535622219,2.0,0.0
26.567474365234375,15.520218849182127,-1.3069385290145874,0.2045975297920023,0.6066828147684111,-0.7681639233052331,0.1681470670261046,4.0,0.0
26.22954368591309,14.793598175048828,-1.4077595472335815,-0.2169734879749188,0.155449384566469,-0.9637209110286568,0.0495380291572928,3.0,0.0
26.360925674438477,15.071182250976562,-1.5020734071731567,-0.0,-0.0,-1.0,0.0358802307354908,1.0,0.0
26.36560821533203,15.447793006896973,-1.2803338766098022,-0.0,-0.0,-1.0,0.1923708800152762,2.0,0.0
25.88968849182129,13.988536834716797,-1.137500882148743,0.2444148625298845,0.2597273838475893,-0.9342392953918094,0.139907226638196,4.0,0.0
25.79737663269043,14.740433692932127,-1.3807307481765747,-0.0,-0.0,-1.0,0.0399104168082097,2.0,0.0
26.007328033447266,14.920379638671877,-1.4433943033218384,-0.0,-0.0,-1.0,0.0517351578951724,2.0,0.0
25.51313018798828,14.65317153930664,-1.3493572473526,-0.0,-0.0,-1.0,0.0465573140554555,1.0,0.0
25.638336181640625,14.800464630126951,-1.398220181465149,-0.0,-0.0,-1.0,0.0835802614805362,1.0,0.0
27.60837173461914,13.31979751586914,-1.013665795326233,-0.0,-0.0,-1.0,0.1400765074058408,2.0,0.0
26.75572967529297,15.177348136901855,-0.8865493535995483,-0.0,-0.0,-1.0,0.1809362843621016,1.0,0.0
26.61845016479492,15.389138221740724,-0.935088038444519,-0.0,-0.0,-1.0,0.1435573072347198,1.0,0.0
26.47417640686035,15.300975799560549,-0.9091407060623168,-0.194974773767723,0.1033589989025481,-0.9753469920700468,0.1600009999675039,3.0,0.0
26.678119659423828,14.943126678466797,-1.3026021718978882,-0.0,-0.0,-1.0,0.0838663081044956,1.0,0.0
26.721694946289062,15.23394775390625,-1.4027780294418335,0.8464568060691344,-0.4983683183851732,-0.1874563807640982,0.2396109989228907,6.0,0.0
25.909608840942383,15.306804656982422,-1.405436873435974,-0.0,-0.0,-1.0,0.0459013818370681,2.0,0.0
25.828310012817383,15.509040832519531,-1.4735177755355835,-0.0,-0.0,-1.0,0.116259650955273,1.0,0.0
25.3439884185791,14.92076015472412,-1.2704044580459597,-0.0,-0.0,-1.0,0.1178303883143879,2.0,0.0
25.518291473388672,15.192373275756836,-1.3633776903152466,0.1156998864354602,0.591778526707024,-0.7977541674020172,0.0576609616579527,6.0,0.0
26.983461380004883,15.456083297729492,-1.178279995918274,-0.0,-0.0,-1.0,0.1082753478009074,2.0,0.0
26.690210342407227,15.281600952148438,-1.1154106855392456,-0.0,-0.0,-1.0,0.2156693560764492,1.0,0.0
26.541282653808594,15.584508895874023,-1.202022671699524,-0.0,-0.0,-1.0,0.1355048768323409,1.0,0.0
26.378137588500977,15.47370147705078,-1.1644495725631714,-0.0,-0.0,-1.0,0.1996263395798804,2.0,0.0
26.30712127685547,15.563371658325195,-1.1904312372207642,-0.0,-0.0,-1.0,0.1265766711858285,1.0,0.0
25.79139709472656,15.622048377990724,-1.200952649116516,0.9083201124803384,0.0574209136289205,0.4143155946156571,0.0621130511066721,9.0,0.0
26.77071952819824,15.44251823425293,-0.8637868165969849,-0.2156035659362077,0.8983685774403556,-0.3826865576727039,0.0658036007847017,3.0,0.0
26.77091407775879,15.300371170043944,-0.9147844314575196,-0.0,-0.0,-1.0,0.1003058553976947,1.0,0.0
26.80293083190918,15.51772689819336,-0.8483386039733887,-0.0,-0.0,-1.0,0.0646479777904221,1.0,0.0
25.37307357788086,15.206714630126951,-1.40533709526062,-0.0,-0.0,-1.0,0.0459884245791786,2.0,0.0
25.232311248779297,15.054080963134766,-1.3908205032348633,-0.0,-0.0,-1.0,0.0502375194514679,1.0,0.0
27.668142318725582,14.452058792114258,-1.48108172416687,-0.0,-0.0,-1.0,0.0122915310617801,2.0,0.0
27.709239959716797,14.443231582641602,-1.489417314529419,-0.0,-0.0,-1.0,0.0114829769196383,2.0,0.0
27.45455551147461,14.262287139892578,-1.4607975482940674,-0.0,-0.0,-1.0,0.0232514521207996,1.0,0.0
26.540571212768555,14.397102355957031,-1.2819111347198486,-0.0,-0.0,-1.0,0.1297283934384389,1.0,0.0
27.208335876464844,14.159133911132812,-1.4263694286346436,-0.0,-0.0,-1.0,0.1024375097525575,2.0,0.0
27.342544555664062,14.21993350982666,-1.4446613788604736,-0.0,-0.0,-1.0,0.0280185761327247,1.0,0.0
27.208839416503903,14.010727882385254,-1.441258192062378,-0.0,-0.0,-1.0,0.1376785544845487,1.0,0.0
26.520580291748047,14.42198371887207,-1.433464288711548,0.1151444481464034,0.6334208302553531,-0.765192660615403,0.0687853884901512,3.0,0.0
27.050445556640625,14.559774398803713,-1.5288794040679932,-0.0,-0.0,-1.0,0.0535124897236451,1.0,0.0
26.79874038696289,14.384185791015623,-1.4921140670776367,-0.0,-0.0,-1.0,0.0367162350535345,1.0,0.0
26.570829391479492,14.270880699157717,-1.4554486274719238,-0.0,-0.0,-1.0,0.0572748045043537,1.0,0.0
27.670063018798828,13.712362289428713,-1.3534889221191406,-0.0,-0.0,-1.0,0.1393345253421467,1.0,0.0
26.120336532592773,13.298877716064451,-1.0277328491210938,-0.0,-0.0,-1.0,0.1484390170419006,2.0,0.0
27.182933807373047,14.048890113830566,-1.2814464569091797,-0.4911377586628646,-0.597487190562705,0.6338712480694355,0.1568439622823225,3.0,0.0
27.410259246826172,13.482312202453612,-1.288520336151123,0.8383875494364427,-0.4015235733341797,-0.3686260123850567,0.1352100102199107,7.0,0.0
27.29274559020996,13.978572845458984,-1.297992706298828,-0.0,-0.0,-1.0,0.1970011428779524,1.0,0.0
27.48300552368164,13.622533798217772,-1.311512470245361,-0.0,-0.0,-1.0,0.1561247132511467,2.0,0.0
25.226707458496097,13.162700653076172,-1.2513954639434814,-0.0,-0.0,-1.0,0.1082083413522997,1.0,0.0
25.339853286743164,13.923454284667969,-1.2790422439575195,-0.0,-0.0,-1.0,0.027205784754887,1.0,0.0
25.31132698059082,13.771093368530272,-1.2713048458099363,-0.0,-0.0,-1.0,0.0400284475236261,1.0,0.0
25.330455780029297,14.592920303344728,-1.2862493991851809,-0.1572621747379622,-0.9141951199549831,-0.3735182606609496,0.0652114066217177,4.0,0.0
25.504127502441406,14.23498821258545,-1.3213825225830078,-0.0,-0.0,-1.0,0.0817395403875997,1.0,0.0
25.422826766967773,15.05616855621338,-1.319166660308838,-0.0,-0.0,-1.0,0.0685079992546056,1.0,0.0
25.48791122436523,14.83884620666504,-1.328874588012695,-0.0,-0.0,-1.0,0.1452473528917712,2.0,0.0
25.660457611083984,14.557811737060549,-1.3635892868041992,0.7426176873443939,-0.0071011334195006,-0.669677940765128,0.1363192153530884,3.0,0.0
25.56487274169922,15.301424980163574,-1.3599145412445068,-0.0,-0.0,-1.0,0.0914442166214712,1.0,0.0
27.429264068603516,13.27208137512207,-1.2964262962341309,-0.0,-0.0,-1.0,0.1326875148695966,2.0,0.0
25.868165969848633,15.544528007507324,-1.4391181468963623,-0.2210163163657511,-0.9428032580152388,-0.2495471990946107,0.1459801173315082,3.0,0.0
27.317947387695312,13.850016593933104,-1.2758557796478271,-0.0,-0.0,-1.0,0.1996321955317537,2.0,0.0
26.045669555664062,13.151537895202637,-1.0205442905426023,-0.0,-0.0,-1.0,0.1984644594399594,2.0,0.0
26.603771209716797,15.56317901611328,-1.163642644882202,-0.0,-0.0,-1.0,0.1602547841051519,2.0,0.0
26.73220443725586,15.189323425292969,-1.1793038845062256,-0.0,-0.0,-1.0,0.1803317545903104,2.0,0.0
25.236801147460938,13.713180541992188,-1.2943990230560305,-0.0,-0.0,-1.0,0.0801248144122245,2.0,0.0
25.35272216796875,13.370065689086914,-1.299058437347412,-0.0,-0.0,-1.0,0.112572960009474,2.0,0.0
25.2307071685791,14.288623809814451,-1.338510036468506,-0.0,-0.0,-1.0,0.0382207416512052,2.0,0.0
25.264373779296875,14.03960418701172,-1.326355218887329,-0.5533997888908825,-0.0513830367974826,-0.8313293313633261,0.0946435168891594,4.0,0.0
27.35046768188477,13.510513305664062,-1.3631377220153809,0.6968132758253334,-0.4178115806437841,-0.5829963479418292,0.1132909855874222,4.0,0.0
27.336029052734375,13.29122543334961,-1.3458948135375977,-0.8068585955615237,-0.5889438202356473,0.0460910335610654,0.1937756815912867,4.0,0.0
26.031606674194336,15.044917106628418,-1.204658031463623,-0.0,-0.0,-1.0,0.1793913769254823,1.0,0.0
26.587831497192383,14.6231050491333,-1.285008430480957,-0.0,-0.0,-1.0,0.1503091789198567,2.0,0.0
27.197731018066406,13.969411849975586,-1.362823247909546,-0.5268924667851105,-0.6250442751093646,-0.5759374815013435,0.1995939552549252,4.0,0.0
27.307710647583008,13.897994995117188,-1.3809547424316406,-0.0,-0.0,-1.0,0.270861756114196,2.0,0.0
27.528125762939453,13.67336654663086,-1.4117059707641602,-0.0,-0.0,-1.0,0.1511583150553559,2.0,0.0
26.41193389892578,15.475409507751465,-1.3236935138702393,-0.1598580366362951,0.5466141787277322,-0.8219843962853527,0.2013827171021313,3.0,0.0
26.502853393554688,15.31753635406494,-1.3279740810394287,-0.8825426886811791,-0.073901675049433,-0.464388786557431,0.1320516792333451,3.0,0.0
26.65747833251953,14.79218292236328,-1.313779592514038,-0.0,-0.0,-1.0,0.1231237487288955,1.0,0.0
27.475440979003903,14.371313095092772,-1.4517221450805664,-0.0,-0.0,-1.0,0.0222275448061358,1.0,0.0
27.49605178833008,14.180395126342772,-1.4414267539978027,-0.0,-0.0,-1.0,0.0295030780665433,1.0,0.0
26.46661376953125,15.631278038024902,-1.3499648571014404,-0.0,-0.0,-1.0,0.1070209724808114,2.0,0.0
26.580305099487305,15.46976089477539,-1.358330011367798,-0.7650611457532788,-0.0831934091333885,-0.6385611168364737,0.1891184848766328,4.0,0.0
26.856632232666016,15.130977630615234,-1.3849356174468994,-0.0,-0.0,-1.0,0.1506561477314941,1.0,0.0
27.570707321166992,14.701601028442385,-1.4982101917266846,0.934634330998338,-0.2860761526395808,-0.2112323417713865,0.0131334604371535,4.0,0.0
27.4583797454834,15.494937896728516,-1.5436313152313232,-0.0,-0.0,-1.0,0.0410133477519281,1.0,0.0
27.57889175415039,15.150164604187012,-1.5379505157470703,0.5137981147221601,0.5599553073710355,-0.6499704232155209,0.0202308919530334,3.0,0.0
27.630889892578125,14.976672172546388,-1.5337586402893066,-0.0,-0.0,-1.0,0.0578397650784234,2.0,0.0
26.494384765625,15.30501937866211,-0.9127519130706788,-0.1755048151004483,0.0273416927115886,-0.9840988221292732,0.1600009999675039,4.0,0.0
26.792919158935547,15.158955574035645,-0.9522666931152344,-0.0,-0.0,-1.0,0.2068069586285337,1.0,0.0
26.794424057006836,15.343059539794922,-0.9679121971130372,-0.0,-0.0,-1.0,0.1771158255530345,1.0,0.0
25.51433563232422,13.705896377563477,-1.240378499031067,-0.1221750831159119,-0.2224392153480379,-0.9672611046356454,0.1351626262588088,3.0,0.0
25.885204315185547,13.26781940460205,-1.308738350868225,-0.0,-0.0,-1.0,0.064598014846255,1.0,0.0
25.611865997314453,13.879586219787598,-1.2776564359664917,-0.0,-0.0,-1.0,0.0957140307312607,2.0,0.0
25.967206954956055,13.491809844970703,-1.3434287309646606,-0.0,-0.0,-1.0,0.0309184018510979,2.0,0.0
25.983596801757812,13.344231605529783,-1.3386436700820925,-0.0,-0.0,-1.0,0.0420825166772835,1.0,0.0
25.46764755249023,14.675424575805664,-1.3033303022384644,-0.0,-0.0,-1.0,0.0361183960694305,1.0,0.0
25.657264709472656,14.37736988067627,-1.3268293142318726,0.7963143887385958,0.60150015228093,-0.0638824005019707,0.20618576942679,4.0,0.0
25.68887710571289,14.151896476745604,-1.3172115087509155,-0.0,-0.0,-1.0,0.0564571674972924,1.0,0.0
25.49699592590332,15.008277893066406,-1.3409353494644165,0.1169829440507744,-0.2963955303917616,-0.947873768159558,0.073768893016308,5.0,0.0
25.68825912475586,14.683753967285156,-1.3602176904678345,-0.0,-0.0,-1.0,0.0412297247000473,2.0,0.0
27.29619026184082,13.810874938964844,-1.2944854497909546,0.1526512808409161,0.3542648662501463,-0.9226017510271664,0.156790117444922,3.0,0.0
27.406429290771484,13.375018119812012,-1.293793559074402,0.2192803474997863,-0.9436535462169706,0.2478590605818327,0.0921366609062269,3.0,0.0
27.703990936279297,13.147136688232422,-1.347767949104309,-0.0,-0.0,-1.0,0.1698724826244915,1.0,0.0
25.505006790161133,15.548346519470217,-1.3959602117538452,-0.0,-0.0,-1.0,0.0331029905474112,2.0,0.0
25.5803165435791,15.3358154296875,-1.3932920694351196,-0.0,-0.0,-1.0,0.0904110016810765,1.0,0.0
27.243728637695312,13.885777473449709,-1.2874945402145386,-0.6750321072737746,-0.7221516361773017,-0.1510915898254212,0.1508477933630754,11.0,0.0
27.663402557373047,13.568294525146484,-1.361483454704285,0.7337811158301886,-0.0773681025112858,-0.6749662589824816,0.186761745236278,3.0,0.0
26.196996688842773,15.332840919494627,-1.164623141288757,-0.414162528943486,-0.5694223421016877,-0.7100898506066431,0.1512989271788209,3.0,0.0
26.76501846313477,15.150588989257812,-1.272729754447937,0.0835790220756572,-0.6687756998559832,-0.7387513860230766,0.1987499760878454,3.0,0.0
26.529136657714844,15.595035552978516,-1.259161114692688,-0.0,-0.0,-1.0,0.159450643419336,2.0,0.0
26.754060745239254,15.287376403808594,-1.28154456615448,-0.0,-0.0,-1.0,0.2153506892685205,2.0,0.0
26.771183013916016,15.377449035644531,-0.8947681188583374,0.9581146735377316,-0.1569292371520904,-0.2395610295489414,0.0755327747638823,4.0,0.0
26.88740921020508,14.958269119262695,-1.5290592908859253,-0.4353089218330093,0.0142048706565513,-0.9001690753531881,0.0688519341894526,3.0,0.0
26.84062957763672,15.419655799865724,-1.5609718561172483,-0.0,-0.0,-1.0,0.0631469948350738,1.0,0.0
25.91386032104492,13.97042465209961,-1.1917577981948853,0.940166877696728,0.3396453638002153,0.0269679241137522,0.1429568989933578,4.0,0.0
26.708280563354492,13.221074104309082,-1.350528597831726,-0.0,-0.0,-1.0,0.0275981489961804,1.0,0.0
25.777851104736328,14.361921310424805,-1.1883198022842407,-0.0,-0.0,-1.0,0.2360020997973211,1.0,0.0
26.626239776611328,13.733235359191896,-1.3618406057357788,-0.0,-0.0,-1.0,0.0399476773660027,1.0,0.0
26.80994033813477,13.512998580932615,-1.3956652879714966,-0.0,-0.0,-1.0,0.0240012369288697,2.0,0.0
27.175559997558594,13.218026161193848,-1.1016925573349,-0.0,-0.0,-1.0,0.100298939879361,2.0,0.0
27.348613739013672,13.14981460571289,-1.1378053426742554,-0.0,-0.0,-1.0,0.1261074462963507,1.0,0.0
25.7193603515625,15.009822845458984,-1.2334293127059937,-0.0,-0.0,-1.0,0.1367263407079101,1.0,0.0
25.90939712524414,14.957417488098145,-1.2769697904586792,-0.0,-0.0,-1.0,0.2050659834537652,1.0,0.0
26.467132568359375,14.342493057250977,-1.3663872480392456,-0.0,-0.0,-1.0,0.111146527993566,1.0,0.0
26.679588317871097,14.058347702026367,-1.3996790647506714,-0.0,-0.0,-1.0,0.0531375555519234,2.0,0.0
27.205341339111328,13.949026107788086,-1.1512149572372437,-0.3981685909529217,0.1266768561326184,-0.9085233884160168,0.1623520877297946,5.0,0.0
27.621753692626953,13.614252090454102,-1.2257333993911743,0.1869570729729536,-0.3052673636884688,-0.9337338429831477,0.2428139076093111,9.0,0.0
27.691505432128903,13.437211036682127,-1.231681227684021,0.550094853528743,0.5040414805537594,-0.6658361945721823,0.1451669400812931,4.0,0.0
25.625015258789062,15.28180980682373,-1.237218737602234,-0.0,-0.0,-1.0,0.1018477343770819,1.0,0.0
26.746654510498047,14.65060043334961,-1.465259671211243,-0.0,-0.0,-1.0,0.1045765996471712,2.0,0.0
27.665830612182617,13.698752403259276,-1.2407253980636597,0.099099559608524,-0.7222679622520657,-0.6844766380159701,0.158599891095382,4.0,0.0
26.43256950378418,15.448918342590332,-1.4598058462142944,0.949759309531234,0.0695896138636361,0.3051467509266053,0.1880198403648665,5.0,0.0
26.70425033569336,15.25143051147461,-1.3221417665481567,-0.0,-0.0,-1.0,0.2155598701909797,2.0,0.0
26.83484268188477,14.94298267364502,-1.5140241384506226,-0.0,-0.0,-1.0,0.1226392441118735,2.0,0.0
26.488903045654297,15.514384269714355,-1.1110466718673706,-0.0,-0.0,-1.0,0.2038115028922724,2.0,0.0
25.31066513061523,13.53043270111084,-1.2993947267532349,-0.0,-0.0,-1.0,0.1135891482750215,1.0,0.0
25.425018310546875,13.24586296081543,-1.31116783618927,-0.0,-0.0,-1.0,0.0952752663638109,2.0,0.0
25.25766372680664,14.02109432220459,-1.3333865404129028,-0.7272844220371343,0.4578705901272374,-0.5112845510658883,0.1113934444382909,3.0,0.0
25.29529190063477,13.81340217590332,-1.322985053062439,-0.0,-0.0,-1.0,0.0355210729143825,1.0,0.0
25.222522735595703,14.308013916015623,-1.355847716331482,-0.0,-0.0,-1.0,0.031546141353091,2.0,0.0
26.44925308227539,13.64231777191162,-1.3523670434951782,0.0640762243416822,-0.7830755629757019,0.6186169252004037,0.0178046522428335,5.0,0.0
26.64019203186035,13.36637020111084,-1.3880051374435425,-0.0,-0.0,-1.0,0.0485067722139238,1.0,0.0
26.42621421813965,14.247570037841797,-1.397995114326477,0.716810007382959,-0.6941597974116186,0.0657692099169731,0.0710338946829876,4.0,0.0
26.573993682861328,13.966317176818848,-1.4155827760696411,-0.0,-0.0,-1.0,0.0240453541887134,1.0,0.0
25.901817321777344,14.925642013549805,-1.3196815252304075,-0.0,-0.0,-1.0,0.1780506701648865,1.0,0.0
26.38902282714844,14.412696838378906,-1.4033137559890747,0.3856638187126293,0.1463160859814806,-0.9109637873807342,0.1415467445476673,3.0,0.0
26.57620620727539,14.165395736694336,-1.433667778968811,-0.0,-0.0,-1.0,0.0236360810760314,1.0,0.0
26.06208610534668,15.557729721069336,-1.439907193183899,-0.730374887235529,-0.6098326762188936,-0.3076631780232896,0.17269608763195,3.0,0.0
26.06430435180664,15.452386856079102,-1.4274088144302368,0.0393242737467477,-0.2316335361630071,-0.9720079765202094,0.1270980097599139,5.0,0.0
26.520252227783203,15.15994358062744,-1.5194679498672483,-0.0,-0.0,-1.0,0.11803956919597,2.0,0.0
26.66626739501953,14.917448043823242,-1.5337673425674438,-0.0,-0.0,-1.0,0.0782577492678824,2.0,0.0
26.37694549560547,15.452714920043944,-1.5135806798934937,-0.0,-0.0,-1.0,0.1238265228706206,1.0,0.0
26.567352294921875,15.243528366088867,-1.5421396493911743,-0.0,-0.0,-1.0,0.0945930441436187,1.0,0.0
25.915403366088867,14.00345230102539,-1.228134274482727,0.9874066321990492,0.0940105955682997,0.1272405226734986,0.1135372918387822,3.0,0.0
25.76737594604492,14.413589477539062,-1.2259708642959597,-0.0,-0.0,-1.0,0.2342762481359036,1.0,0.0
27.450916290283203,13.236421585083008,-1.2610975503921509,-0.0,-0.0,-1.0,0.1903941549186213,1.0,0.0
25.758413314819336,14.939943313598633,-1.2813841104507446,-0.0,-0.0,-1.0,0.1160626715555261,1.0,0.0
26.63955307006836,14.590957641601562,-1.1497431993484497,-0.0,-0.0,-1.0,0.1427399513087067,2.0,0.0
27.17516708374023,13.945777893066406,-1.2347222566604614,-0.2703877615695763,-0.8916089697923129,-0.3632133028666278,0.1304349142490457,6.0,0.0
27.65938949584961,13.483458518981934,-1.3293482065200806,0.5488692081182319,-0.3705817553905796,0.7492741520640505,0.1645517854664582,3.0,0.0
26.46958351135254,15.572105407714844,-1.2018882036209106,0.5908193090146524,0.781967121005262,0.1986453265551214,0.1564707911592723,3.0,0.0
26.638750076293945,15.300403594970703,-1.2155228853225708,0.5797365627620233,-0.2193415167650846,-0.7847259501380508,0.2607639316309456,5.0,0.0
26.775833129882812,15.393024444580078,-0.9054023027420044,0.9581146735377316,-0.1569292371520904,-0.2395610295489414,0.0755327747638822,4.0,0.0
25.84314727783203,13.201122283935549,-1.3129626512527466,0.0046714641950805,0.685479837702275,-0.728076623389281,0.0357283028528997,3.0,0.0
25.584728240966797,13.914728164672852,-1.3270455598831177,-0.0,-0.0,-1.0,0.0704480414787375,1.0,0.0
25.834632873535156,13.466718673706056,-1.344333529472351,-0.0,-0.0,-1.0,0.0163979915085155,2.0,0.0
25.323684692382812,14.45731258392334,-1.3318473100662231,-0.7311258600912147,-0.564627789941173,-0.3829496514321805,0.0580505649205846,3.0,0.0
25.52054214477539,14.285587310791016,-1.364552617073059,-0.0,-0.0,-1.0,0.1045126615323827,1.0,0.0
25.644350051879883,14.074872016906738,-1.3701092004776,-0.0,-0.0,-1.0,0.0447670882772907,1.0,0.0
26.931350708007812,13.853788375854492,-1.420303225517273,-0.5509836211900783,0.6992926509536928,-0.4554194083506164,0.0605995432866412,3.0,0.0
27.014209747314453,13.578207015991213,-1.4133731126785278,-0.0,-0.0,-1.0,0.0241478664750951,1.0,0.0
26.765544891357425,14.40060329437256,-1.4406057596206665,-0.0,-0.0,-1.0,0.0339094601135293,2.0,0.0
26.836902618408203,14.056777954101562,-1.4174648523330688,-0.0,-0.0,-1.0,0.0502464744286685,1.0,0.0
26.74822235107422,15.05280303955078,-1.5252970457077026,-0.216849785355178,0.2017228711066325,-0.9551356206654164,0.1049538074091046,4.0,0.0
26.850833892822266,14.760066986083984,-1.5128194093704224,-0.0,-0.0,-1.0,0.0257062500518218,1.0,0.0
26.745983123779297,15.156782150268556,-1.539897084236145,-0.0,-0.0,-1.0,0.1044797467126705,1.0,0.0
25.31586456298828,13.588522911071776,-1.1936248540878296,-0.0,-0.0,-1.0,0.0745607568853251,2.0,0.0
25.80376625061035,13.268568992614746,-1.3084746599197388,-0.0,-0.0,-1.0,0.0228778454863014,2.0,0.0
25.534164428710938,13.668700218200684,-1.275107741355896,-0.0,-0.0,-1.0,0.1006133279375708,1.0,0.0
25.95737075805664,13.93662452697754,-1.150997757911682,0.292538443898207,0.951753595377891,-0.0926625734958468,0.1274654971311388,3.0,0.0
26.9827880859375,13.309784889221191,-1.3755618333816528,0.2354028309713822,-0.2345206448301024,-0.9431784424588656,0.0476524912921372,3.0,0.0
26.89940643310547,13.743034362792969,-1.3982652425765991,-0.0,-0.0,-1.0,0.0359212655137089,2.0,0.0
27.40200424194336,13.137648582458496,-1.1500855684280396,-0.0,-0.0,-1.0,0.1502983083460525,1.0,0.0
26.76687812805176,14.081235885620115,-1.4002267122268677,-0.0,-0.0,-1.0,0.0434290715827312,2.0,0.0
27.240291595458984,13.94094467163086,-1.1835938692092896,-0.5104755615256202,-0.5500448125711987,-0.6609579451437264,0.1587340341906419,5.0,0.0
27.63906478881836,13.571794509887695,-1.2499562501907349,0.0976541867594616,-0.9948140869819068,-0.0284357547939735,0.165038746233926,4.0,0.0
27.68982315063477,13.402690887451172,-1.2477954626083374,0.6889858859122046,0.2787329158683939,-0.6690339383209772,0.1138373691707392,3.0,0.0
26.68325424194336,15.209566116333008,-1.1922181844711304,0.8101913808692907,0.4152949565275506,-0.4136665631252932,0.2171487646757892,5.0,0.0
26.49997329711914,13.661018371582031,-1.335840940475464,-0.0301846912457095,-0.9977538749204172,-0.0598004138421625,0.096534341773674,4.0,0.0
26.818195343017575,13.36781120300293,-1.386592149734497,-0.0,-0.0,-1.0,0.0150423375916663,1.0,0.0
26.622547149658203,13.910317420959473,-1.4152798652648926,-0.0,-0.0,-1.0,0.0458072029168767,1.0,0.0
26.753910064697266,13.61704444885254,-1.406024932861328,-0.0,-0.0,-1.0,0.0349875379834334,2.0,0.0
27.592924118041992,13.60649299621582,-1.3351876735687256,-0.0,-0.0,-1.0,0.2307728970503345,2.0,0.0
27.610626220703125,14.304147720336914,-1.439251184463501,-0.0,-0.0,-1.0,0.0309893969083463,1.0,0.0
27.680892944335938,14.59896755218506,-1.5028457641601562,-0.0,-0.0,-1.0,0.008843157674839,2.0,0.0
27.38727569580078,13.316271781921388,-1.0860154628753662,-0.0,-0.0,-1.0,0.1267753738825842,1.0,0.0
27.576478958129883,13.285833358764648,-1.129340410232544,-0.0,-0.0,-1.0,0.1815096752121296,2.0,0.0
27.25259017944336,13.878023147583008,-1.2798264026641846,-0.5788117918228408,-0.8154039722383252,-0.009657727724131,0.1508477933630754,8.0,0.0
27.59967613220215,13.610340118408203,-1.17470121383667,0.8458556503414525,-0.5014395059402594,0.1818973355160179,0.1723373243678719,9.0,0.0
27.601646423339844,13.210870742797852,-1.3692777156829834,-0.0,-0.0,-1.0,0.1553002582153377,1.0,0.0
26.96644592285156,13.523361206054688,-1.1547038555145264,-0.0,-0.0,-1.0,0.2182834130389952,1.0,0.0
25.698467254638672,14.316829681396484,-1.418421983718872,-0.0,-0.0,-1.0,0.0578167022985189,1.0,0.0
25.585912704467773,13.85293960571289,-1.370502233505249,-0.0,-0.0,-1.0,0.0731418186647253,1.0,0.0
25.953102111816406,13.655525207519531,-1.345534324645996,-0.0,-0.0,-1.0,0.0223054902147566,2.0,0.0
27.172027587890625,15.110546112060549,-1.4809343814849854,-0.0,-0.0,-1.0,0.0357706727478324,1.0,0.0
26.988677978515625,14.69586944580078,-1.4367859363555908,-0.0,-0.0,-1.0,0.0376748594005958,2.0,0.0
26.66626739501953,15.20539665222168,-1.3554415702819824,-0.421810319865091,0.0283428355118744,-0.9062409931858392,0.1947557778753518,7.0,0.0
25.986289978027344,15.274370193481444,-1.384911060333252,-0.133537292684588,0.93080428928595,-0.340251622346387,0.0804067990548959,4.0,0.0
27.613847732543945,13.656864166259766,-1.1107892990112305,0.8781786748452345,0.0914806246741555,-0.4695034721450888,0.1404646581915554,7.0,0.0
25.701751708984375,14.92140769958496,-1.342761516571045,-0.0,-0.0,-1.0,0.1056661243979167,2.0,0.0
25.454212188720703,14.789960861206056,-1.331660270690918,-0.0,-0.0,-1.0,0.1263717014318426,2.0,0.0
26.146100997924805,15.134523391723633,-1.475724220275879,-0.0,-0.0,-1.0,0.0139046829877289,1.0,0.0
26.35750961303711,14.637720108032228,-1.3979029655456543,-0.0,-0.0,-1.0,0.0433080890311035,1.0,0.0
25.94899559020996,14.733339309692385,-1.413373947143555,-0.0,-0.0,-1.0,0.0302052164195632,2.0,0.0
26.096031188964844,14.029342651367188,-1.3030858039855957,-0.0,-0.0,-1.0,0.0564489982826834,2.0,0.0
25.566638946533203,14.261205673217772,-1.3405804634094238,0.6734401008578089,0.0115645406261354,-0.7391513322430872,0.1150359945954069,4.0,0.0
26.64142608642578,15.52729606628418,-1.2966575622558594,-0.0,-0.0,-1.0,0.1527675410125376,1.0,0.0
26.839340209960938,14.232688903808594,-1.4046263694763184,-0.0,-0.0,-1.0,0.0262915930956493,1.0,0.0
26.745033264160156,14.262481689453123,-1.4101228713989258,-0.0,-0.0,-1.0,0.0356797936696164,1.0,0.0
26.41149139404297,14.338098526000977,-1.424943923950195,-0.0,-0.0,-1.0,0.1510679161754391,1.0,0.0
26.62724876403809,15.16078758239746,-1.4939887523651123,-0.0,-0.0,-1.0,0.1609296732516559,2.0,0.0
26.673410415649418,14.707748413085938,-1.4165117740631104,0.540049339968926,0.419840422958571,-0.7294386400850285,0.1805712687164941,4.0,0.0
26.21820068359375,15.202693939208984,-1.5004713535308838,-0.0,-0.0,-1.0,0.0332375798243112,2.0,0.0
26.112958908081055,15.19869613647461,-1.4997365474700928,-0.0,-0.0,-1.0,0.03138497884799,1.0,0.0
25.77518844604492,14.776412963867188,-1.4270036220550537,-0.0,-0.0,-1.0,0.0519524991166696,1.0,0.0
27.57608413696289,13.573837280273438,-1.230276346206665,0.3459984372290636,-0.8374078543369537,-0.4231231108434342,0.2577984023612458,9.0,0.0
25.331348419189453,14.477375030517578,-1.3760592937469482,-0.0807725634160468,-0.902311162093044,-0.4234505399234973,0.0611951875062496,3.0,0.0
26.74984359741211,15.265382766723633,-0.95269775390625,0.8193040032287692,0.5529282115735465,-0.1516949014943875,0.1706787339132,4.0,0.0
26.738523483276367,15.349947929382324,-1.2149395942687988,-0.0,-0.0,-1.0,0.2729610065890789,1.0,0.0
27.660213470458984,13.269306182861328,-1.0348308086395264,-0.0,-0.0,-1.0,0.164366569927153,1.0,0.0
27.304847717285156,13.90316390991211,-1.1173975467681885,-0.0,-0.0,-1.0,0.1524351938022285,1.0,0.0
26.73101234436035,15.173532485961914,-1.2973473072052002,0.7910075260105226,-0.2260386841949535,-0.5685187833679084,0.2254456598791548,6.0,0.0
26.65953826904297,15.27664852142334,-1.0607223510742188,-0.0,-0.0,-1.0,0.213248317504388,2.0,0.0
26.68538475036621,15.314016342163086,-1.1862647533416748,0.7465607503744814,-0.45101816386685,-0.4891110935794302,0.2544459302597838,5.0,0.0
26.162084579467773,15.366601943969728,-1.1713335514068604,-0.4756422430653065,-0.6819393912980198,-0.5556285838650583,0.1388626212433442,9.0,0.0
25.792190551757812,15.586336135864258,-1.1934988498687744,0.914063126791486,-0.4043204445223666,-0.0318367457728889,0.0558215390418356,12.0,0.0
26.739303588867188,15.332377433776855,-1.0850450992584229,-0.0,-0.0,-1.0,0.1353006574293903,1.0,0.0
26.601673126220703,15.26663875579834,-1.0661966800689695,-0.0,-0.0,-1.0,0.1844697384517708,2.0,0.0
27.09836769104004,13.220288276672363,-1.3776276111602783,-0.0,-0.0,-1.0,0.0548968513955403,2.0,0.0
26.972335815429688,13.48981761932373,-1.4157354831695557,-0.0,-0.0,-1.0,0.029563752608521,1.0,0.0
26.96685028076172,13.349276542663574,-1.3893592357635498,0.346072197500769,-0.0444102866482742,-0.9371562092611916,0.0403313309152613,4.0,0.0
26.672901153564453,13.511012077331545,-1.3934457302093506,-0.0,-0.0,-1.0,0.0361305957385853,2.0,0.0
26.08078956604004,13.616944313049316,-1.363247632980347,-0.0,-0.0,-1.0,0.0415951989292969,1.0,0.0
25.51633644104004,13.594971656799316,-1.3138830661773682,-0.0,-0.0,-1.0,0.1011065652867934,2.0,0.0
25.417030334472656,13.64306354522705,-1.315420389175415,-0.7004956867594968,0.1136517762018082,-0.7045488390434793,0.1198373557885096,3.0,0.0
27.65926742553711,14.094208717346191,-1.4469871520996094,-0.0,-0.0,-1.0,0.0562260563584331,2.0,0.0
27.36469841003418,14.67823886871338,-1.523928165435791,-0.0,-0.0,-1.0,0.0199865526182505,1.0,0.0
27.30881118774414,14.737385749816896,-1.529496669769287,-0.0,-0.0,-1.0,0.0289965928541106,1.0,0.0
27.346660614013672,14.458138465881348,-1.4822936058044434,-0.0,-0.0,-1.0,0.0244591279856605,2.0,0.0
27.069616317749023,14.6837797164917,-1.4976773262023926,-0.3778775794885673,0.6701140168923861,-0.6388706749289814,0.0568677472861791,3.0,0.0
26.19590950012207,14.956257820129396,-1.4714550971984863,-0.0,-0.0,-1.0,0.0206967346732987,1.0,0.0
27.25989151000977,13.837422370910645,-1.362171649932861,0.0457949594537872,0.5070872257015863,-0.8606772723959278,0.1943163545404418,4.0,0.0
27.152793884277344,13.889937400817873,-1.3612666130065918,0.0362301491362735,0.4113524619444648,-0.9107560202083717,0.2182801794870671,3.0,0.0
26.463863372802734,14.263543128967283,-1.3654780387878418,-0.0,-0.0,-1.0,0.0966895753860354,2.0,0.0
26.349658966064453,14.497576713562012,-1.3988385200500488,0.6255342261884087,-0.0858824936307685,0.7754554333774635,0.0602319532072795,5.0,0.0
26.177471160888672,14.83571720123291,-1.447249412536621,-0.0,-0.0,-1.0,0.0362628589086781,1.0,0.0
26.12300491333008,14.179295539855955,-1.3196535110473633,-0.0,-0.0,-1.0,0.0497844666813895,1.0,0.0
