x,y,z,nx,ny,nz,curvature,density
23.104307174682617,4.563324928283691,-0.4417363405227661,-0.0,-0.0,-1.0,0.247400257357368,2.0
23.6640625,4.049006462097168,-0.6555373668670654,-0.0,-0.0,-1.0,0.0526703387701225,1.0
23.85297203063965,3.98075532913208,-0.708611249923706,-0.0,-0.0,-1.0,0.088776370390087,2.0
24.74012756347656,3.224836826324463,-0.7268543243408203,-0.0,-0.0,-1.0,0.0960563914126461,1.0
23.600732803344727,4.62437105178833,-0.5349781513214111,-0.3305369592916817,-0.3304233359153192,-0.8840620666134257,0.2359847081807867,4.0
23.708690643310547,4.6312713623046875,-0.5575023889541626,-0.5545326940727727,-0.2764013341362308,-0.7849176986742654,0.1885281169468903,3.0
24.19097328186035,4.2078118324279785,-0.7415571212768555,-0.0,-0.0,-1.0,0.0873853495238686,2.0
24.892650604248047,3.794454574584961,-0.6744602918624878,-0.0,-0.0,-1.0,0.2203030180368674,1.0
25.00672912597656,3.417609214782715,-0.5966353416442871,-0.0,-0.0,-1.0,0.1545997109956783,2.0
24.384681701660156,4.41869592666626,-0.7493557929992676,0.4249147032952777,-0.0996258531507282,-0.8997345076785015,0.0462119973524172,7.0
24.5926513671875,4.4054388999938965,-0.8007762432098389,-0.0,-0.0,-1.0,0.01557378969475,1.0
24.988262176513672,3.8733668327331543,-0.6835192441940308,-0.3944253542082228,0.0068602708230837,-0.9189023760127908,0.1565622788509527,4.0
24.16161346435547,5.4073052406311035,-0.5321756601333618,0.1187837644374964,-0.505125360114613,-0.8548326081023933,0.1521492223734928,5.0
24.275781631469727,5.299264430999756,-0.5776630640029907,0.4635464389216888,0.2255728267388859,0.8568789872555227,0.1261204972579454,4.0
24.96595764160156,4.79857873916626,-0.8295094966888428,-0.0,-0.0,-1.0,0.0241921670583539,2.0
25.109134674072266,4.995569229125977,-0.8367323875427246,0.1673867417672231,-0.8996142967610347,-0.4033308762588131,0.0394717822031959,4.0
23.08266258239746,4.543600559234619,-0.2032359838485717,-0.0,-0.0,-1.0,0.1003508094205283,2.0
24.335054397583008,5.290543556213379,-0.3483690023422241,-0.0,-0.0,-1.0,0.0889408657727027,2.0
24.261693954467773,5.450806617736816,-0.3110322952270508,0.2632048451250273,-0.7685939197826034,-0.5830836955154239,0.2364836740773259,11.0
22.910213470458984,3.627060890197754,-0.34203040599823,0.3641016750004357,0.4122424432746707,-0.8351563555555372,0.1617720865715813,10.0
23.708919525146484,3.14205551147461,-0.5775920152664185,0.7953415330348825,-0.3237455405562512,-0.5124652874094634,0.1109367551484392,3.0
23.987375259399418,3.341165065765381,-0.5858186483383179,-0.9623497587121194,-0.2605757330222475,-0.0773513365537034,0.1008121832440158,6.0
24.204265594482425,3.3226304054260254,-0.6304261684417725,-0.0,-0.0,-1.0,0.0943473326075207,1.0
24.546871185302734,3.151968479156494,-0.7314349412918091,-0.0,-0.0,-1.0,0.0445174264151315,1.0
24.887086868286133,3.3545422554016113,-0.6249169111251831,-0.0,-0.0,-1.0,0.1389403995882284,1.0
24.995424270629883,3.888323783874512,-0.6856056451797485,-0.3944253542082228,0.0068602708230837,-0.9189023760127908,0.1414138149717307,4.0
25.124916076660156,3.5936598777770996,-0.6306189298629761,-0.0,-0.0,-1.0,0.2229521691647346,2.0
24.298572540283203,5.369625568389893,-0.2636808156967163,-0.6895673973571325,-0.6915937628657896,-0.2149299226893465,0.1249144231808517,5.0
24.517702102661133,5.178607940673828,-0.3481847047805786,-0.2623383646988543,-0.7881802393357797,0.5567319756648831,0.1207005832429136,6.0
25.114700317382812,3.329551696777344,-0.4687278270721435,0.0919715860248833,-0.1234613083245517,-0.9880782017182934,0.1686151862898723,3.0
22.87953186035156,4.736935615539551,-0.4093246459960937,-0.0,-0.0,-1.0,0.1429768988339071,2.0
24.752174377441406,5.310009002685547,-0.3809196949005127,-0.0,-0.0,-1.0,0.1974176609966889,1.0
24.558181762695312,5.575155258178711,-0.4196467399597168,-0.0,-0.0,-1.0,0.1751666163326992,1.0
23.032670974731445,4.716497421264648,-0.3733234405517578,-0.0,-0.0,-1.0,0.1824679216130566,1.0
22.780309677124023,4.679780960083008,-0.3790147304534912,0.5108648535904229,0.5539254786278861,-0.657406773233211,0.151346839825957,3.0
23.063058853149418,4.5573883056640625,-0.5785739421844482,-0.0,-0.0,-1.0,0.150069966718824,2.0
23.24172592163086,4.487493515014648,-0.6197211742401123,-0.0,-0.0,-1.0,0.0609103435604895,1.0
24.229595184326172,5.362438201904297,-0.766716718673706,0.363005380811182,0.3952379957863266,-0.8438092321069592,0.1774657450354761,4.0
24.301225662231445,5.400054931640625,-0.7259869575500488,0.6689203270291612,-0.39512430379842,-0.629620822904559,0.2459766066791383,4.0
23.6298770904541,3.810201644897461,-0.4895820617675781,-0.0,-0.0,-1.0,0.1532172644207082,1.0
23.265859603881836,4.388139724731445,-0.590519905090332,-0.0,-0.0,-1.0,0.052038662546961,1.0
23.231216430664062,4.465793609619141,-0.5696473121643066,-0.0,-0.0,-1.0,0.1205338838207678,1.0
24.89954376220703,5.331830978393555,-0.8062927722930908,-0.0,-0.0,-1.0,0.0759964137511064,1.0
25.055503845214844,5.5190582275390625,-0.8365318775177002,-0.0,-0.0,-1.0,0.0679162521297247,1.0
24.616241455078125,5.30610466003418,-0.8080825805664062,0.2844870354084844,0.8673375534710082,-0.4084026138792675,0.0883629177123473,4.0
23.95298957824707,4.58123779296875,-0.695070743560791,-0.0,-0.0,-1.0,0.0995114815062185,2.0
23.713489532470703,4.502632141113281,-0.6878831386566162,-0.0,-0.0,-1.0,0.1205091335131894,1.0
24.298324584960938,5.438940048217773,-0.5554594993591309,-0.0,-0.0,-1.0,0.1844519025024366,2.0
23.007728576660156,4.746210098266602,-0.4515104293823242,-0.272606336519811,-0.0087734663850815,-0.9620856570892414,0.2222643291794108,6.0
24.321460723876953,5.459987640380859,-0.6425118446350098,-0.0,-0.0,-1.0,0.1949469687543446,1.0
24.172460556030273,5.467458724975586,-0.6427254676818848,-0.436251516177971,0.6059801224357818,-0.6651862189230443,0.1848358344274978,9.0
23.16438865661621,4.653219223022461,-0.4929826259613037,-0.036388967923856,0.996240724173008,-0.0786146456627351,0.1683717834593563,3.0
22.998939514160156,4.720020294189453,-0.5053286552429199,0.9026573333471636,0.2696775288296439,-0.3353860000043595,0.1265624321717766,4.0
22.92810821533203,3.6624927520751953,-0.314119815826416,-0.1289488588126167,0.649954442497456,-0.748953546282241,0.1789174281154196,5.0
24.28792381286621,5.597360610961914,-0.7366042137145996,-0.0,-0.0,-1.0,0.1900547925632351,1.0
23.624584197998047,4.65577507019043,-0.5516855716705322,-0.3203458142947606,-0.2437113864902528,-0.9154142883737534,0.2156650909926346,3.0
23.371639251708984,4.791570663452148,-0.5767006874084473,0.5593231509011845,-0.513223151747574,-0.6509682091901705,0.0809745186318491,6.0
23.051782608032227,4.605476379394531,-0.5404367446899414,-0.0,-0.0,-1.0,0.147005879932408,1.0
22.87213897705078,3.724313735961914,-0.3705008029937744,-0.2682041701650138,0.9223426325700332,-0.2781197426467182,0.1557331997545673,3.0
24.694080352783203,3.172666549682617,-0.6995959281921387,-0.0,-0.0,-1.0,0.0699113638138913,2.0
24.31451988220215,5.277673721313477,-0.4348363876342773,-0.0,-0.0,-1.0,0.0937064858345591,2.0
22.90082550048828,4.72205924987793,-0.4666223526000976,-0.4761391732015017,0.8756928624309365,-0.0803336693454463,0.1764271096080523,3.0
25.01751708984375,3.5073232650756836,-0.7504270076751709,0.0856504637597046,-0.917843538879015,-0.3875915842685359,0.1929538332656452,3.0
24.845518112182617,3.812619209289551,-0.811682939529419,-0.0,-0.0,-1.0,0.1123564883845371,2.0
24.488445281982425,3.61283016204834,-0.7481706142425537,-0.0,-0.0,-1.0,0.0279868763298606,1.0
24.283296585083008,5.307010650634766,-0.4643516540527344,0.5386235908545621,0.0980111328095773,-0.8368264128362107,0.1113549475486156,5.0
24.21225357055664,5.467180252075195,-0.4951510429382324,0.6975660476781734,-0.7165128069088376,-0.0033176290135972,0.1791737052956749,9.0
24.079004287719727,5.471656799316406,-0.4931540489196777,-0.0,-0.0,-1.0,0.2438947093710269,2.0
22.73823356628418,4.668737411499023,-0.3067703247070312,-0.0,-0.0,-1.0,0.186562136485773,2.0
22.824031829833984,4.746526718139648,-0.3238232135772705,-0.5328991752948997,0.8439889343419911,-0.0608370584289349,0.2478271271433227,4.0
24.240442276000977,5.496088027954102,-0.7155299186706543,0.8358455728664476,-0.3772235267584914,-0.3988290224888928,0.228306742750645,5.0
23.677385330200195,4.9014177322387695,-0.567317008972168,-0.0,-0.0,-1.0,0.1036388929421764,1.0
23.61779403686523,4.396359443664551,-0.4528613090515136,-0.4035266987491628,-0.0750012216874824,-0.9118887103928788,0.2051837398556462,4.0
22.940763473510746,4.734345436096191,-0.513477087020874,-0.2334568063209679,0.9569210366233784,0.1726269076652103,0.156176917666269,3.0
24.883350372314453,5.419273376464844,-0.8972344398498535,-0.0,-0.0,-1.0,0.0801508376763486,1.0
24.666851043701172,5.527521133422852,-0.8976263999938965,-0.0,-0.0,-1.0,0.0837517906682751,1.0
24.324398040771484,5.4647111892700195,-0.8508467674255371,-0.0,-0.0,-1.0,0.1344571668338584,1.0
24.0955753326416,5.347945213317871,-0.8044111728668213,0.5657017693467394,-0.5393008291298763,-0.6238077619409659,0.1490995799203016,3.0
24.96391487121582,3.931309700012207,-0.6047782897949219,-0.0,-0.0,-1.0,0.1108470342127117,2.0
24.91510009765625,3.5967350006103516,-0.5328316688537598,-0.0,-0.0,-1.0,0.1910326515072248,1.0
24.886638641357425,3.85934066772461,-0.5815396308898926,0.9168397137714076,-0.3987737518589468,-0.0196069905876164,0.2843296023762572,4.0
23.679357528686523,4.668017387390137,-0.6220259666442871,0.9779434995703477,-0.1119586001662229,-0.1763286235893695,0.1602315522207062,3.0
23.74554443359375,4.314916610717773,-0.5539677143096924,-0.0,-0.0,-1.0,0.213109850107704,1.0
23.59198760986328,4.497964859008789,-0.5778317451477051,-0.0,-0.0,-1.0,0.1371937907772878,2.0
23.153339385986328,4.808978080749512,-0.6048407554626465,-0.0,-0.0,-1.0,0.1246645527333023,1.0
22.869874954223633,4.735021591186523,-0.5651073455810547,-0.0,-0.0,-1.0,0.2201223019274264,1.0
25.14228057861328,5.585074424743652,-0.925196886062622,-0.0,-0.0,-1.0,0.0684166212087364,1.0
24.74288558959961,5.458310127258301,-0.8552167415618896,-0.0,-0.0,-1.0,0.0836564773350993,1.0
24.526832580566406,5.492281913757324,-0.839921236038208,-0.0,-0.0,-1.0,0.1059063041871196,2.0
24.945463180541992,3.9825592041015625,-0.5688002109527588,0.5454875222732368,-0.3968063652516327,-0.7382330739949228,0.1886415308345522,6.0
24.129104614257812,5.388509750366211,-0.7770407199859619,0.5149700404663976,0.2085307131091917,-0.8314570338341052,0.1898898916120823,4.0
23.73240852355957,4.331830024719238,-0.5075876712799072,0.3047784974652905,-0.8113453333438405,-0.4988274426532412,0.2103758518631261,3.0
23.633726119995117,4.378554344177246,-0.5076920986175537,-0.0,-0.0,-1.0,0.1840297592923115,2.0
22.962425231933594,4.679932594299316,-0.5095236301422119,-0.0,-0.0,-1.0,0.0885709648647287,2.0
22.71668243408203,4.554986000061035,-0.459608793258667,-0.0,-0.0,-1.0,0.0975696028575977,1.0
24.274757385253903,5.36497688293457,-0.5449533462524414,0.5242744889618456,-0.5144579722091581,0.6785788495482578,0.1816545356299917,5.0
22.850292205810547,4.74687385559082,-0.2698853015899658,0.4520826792291047,0.1105077314580079,-0.8851041138922805,0.1714961439529572,5.0
22.718238830566406,4.7537031173706055,-0.2589690685272217,-0.0,-0.0,-1.0,0.1935330789516993,1.0
24.28958511352539,5.398000240325928,-0.5615179538726807,0.2960558759529108,-0.223022502381499,-0.9287690142038812,0.164988147027847,4.0
22.78479385375977,4.8497633934021,-0.2742748260498047,-0.6416688685208571,-0.0052385488553324,-0.7669638979619918,0.1415203777677378,3.0
24.264328002929688,5.441868782043457,-0.456568956375122,0.938966422152914,0.2447894462832848,-0.2417026790453068,0.174705183620773,7.0
24.132530212402344,5.52880859375,-0.4559366703033447,-0.0733961267781866,-0.7270508388667009,-0.6826493142728463,0.2178751750532059,3.0
24.29511833190918,5.379276275634766,-0.2680947780609131,-0.3326329918083509,-0.9306604042591856,-0.1524024432374853,0.1595459560892,4.0
24.232723236083984,5.4002203941345215,-0.2842342853546142,-0.6750228772851963,-0.0603701041937924,-0.7353227629152013,0.1286999472359694,6.0
24.174297332763672,5.5315117835998535,-0.291691780090332,-0.0,-0.0,-1.0,0.1655563436860534,2.0
24.404579162597656,5.320549488067627,-0.3362989425659179,-0.0,-0.0,-1.0,0.1131692109691948,1.0
24.219972610473633,5.59644889831543,-0.3262929916381836,0.9988629202127371,-0.0462327862655172,0.0116359829069007,0.1837217922199727,4.0
25.16189956665039,3.6532604694366455,-0.5688741207122803,0.789056099918685,-0.1372889156793507,0.5987839550394635,0.1589029134203121,3.0
25.01191139221191,3.9345855712890625,-0.5533437728881836,-0.0,-0.0,-1.0,0.1917455932723523,2.0
25.039663314819336,3.433655261993408,-0.5303504467010498,-0.0,-0.0,-1.0,0.163472415840099,2.0
25.00058364868164,3.7517828941345215,-0.5399942398071289,-0.0,-0.0,-1.0,0.1652733140591662,2.0
24.893836975097656,4.097735404968262,-0.5385525226593018,-0.0,-0.0,-1.0,0.1764475932593294,2.0
24.296913146972656,5.334939479827881,-0.5108001232147217,-0.0,-0.0,-1.0,0.1302469732668446,2.0
24.23516082763672,5.462238311767578,-0.5099525451660156,0.0218759600024773,0.7935894729638674,-0.6080601868030017,0.2273005894371333,9.0
24.15650177001953,5.539422512054443,-0.5027048587799072,0.7241249151771006,0.6790402279970624,0.1206129179708968,0.1359243686390811,4.0
25.112682342529297,3.679806709289551,-0.5590887069702148,0.0414410543992882,0.9481863564956622,0.3150004323263002,0.1691571829820182,3.0
24.95089340209961,3.986572027206421,-0.5333161354064941,0.5454875222732368,-0.3968063652516327,-0.7382330739949228,0.1908089371382631,6.0
24.969402313232425,3.429086923599243,-0.5216841697692871,0.3857663730242361,-0.7870988477206463,-0.4813104085312891,0.1732845930272037,4.0
24.862260818481445,3.946190357208252,-0.5128655433654785,0.980764465110422,0.0185106863385162,-0.1943152553659774,0.2451232299711143,3.0
25.166400909423828,4.3705573081970215,-0.8751435279846191,-0.0,-0.0,-1.0,0.0201293452105631,2.0
25.12007522583008,4.681290626525879,-0.8794713020324707,-0.0,-0.0,-1.0,0.0180732102357371,1.0
24.93265914916992,4.944694519042969,-0.8509140014648438,0.0522382431629619,-0.9856570365822884,-0.1604723408786362,0.0298790206815362,3.0
24.99556350708008,3.837191581726074,-0.8143761157989502,-0.0,-0.0,-1.0,0.1893892324671756,2.0
24.91815948486328,4.097469329833984,-0.8064415454864502,-0.6617195636358113,-0.3745635080925709,-0.6494839470741504,0.1439504882281368,3.0
24.822547912597656,3.225306510925293,-0.7556862831115723,0.408534371722804,0.7816613366808822,-0.4712804068273051,0.1210151096401094,3.0
24.517635345458984,3.920710563659668,-0.7074258327484131,0.3610898162749515,0.8937723392953024,0.2660547877658366,0.1281971743801496,5.0
24.161788940429688,3.5507068634033203,-0.6124675273895264,-0.7505324982993654,-0.0595293065559345,-0.6581468154275939,0.219279459568085,3.0
24.12354278564453,3.477900981903076,-0.6013684272766113,-0.6151775996099271,0.569720931765047,0.5449537419331429,0.1985245326872027,6.0
23.98278427124023,4.230521202087402,-0.5978565216064453,-0.0,-0.0,-1.0,0.1666784685533754,1.0
23.858531951904297,4.604499816894531,-0.5880892276763916,-0.0,-0.0,-1.0,0.0970265871329878,2.0
23.96428680419922,3.3514866828918457,-0.5609009265899658,0.0943265223153675,0.8358547887615305,-0.5407857979757841,0.1443567868801697,8.0
23.918201446533203,3.710930347442627,-0.5618233680725098,-0.0,-0.0,-1.0,0.0691026819295267,1.0
23.66783332824707,4.318109512329102,-0.5299978256225586,0.0320841538269333,-0.980956887550965,-0.191557280831435,0.1674250747876662,6.0
23.429611206054688,4.482762336730957,-0.4841203689575195,-0.0,-0.0,-1.0,0.1538974916717497,1.0
22.85786819458008,3.640087604522705,-0.3153836727142334,-0.9514976001470796,0.1468933386064463,-0.2703232583175189,0.2040412721305029,7.0
25.020572662353516,3.4384195804595947,-0.5599846839904785,0.8229719740928085,0.3010217252825153,-0.4817707450289233,0.1863770362830107,3.0
25.05081558227539,3.696079730987549,-0.5716190338134766,-0.0,-0.0,-1.0,0.2067340811295573,2.0
24.282392501831055,5.347772121429443,-0.4710252285003662,0.7037960104878128,-0.4333684187377287,0.5629058440469414,0.1449212867748588,10.0
24.230255126953125,5.4400634765625,-0.4649205207824707,0.0134831142192894,0.7446950020304348,-0.6672687311584741,0.1748370023975042,12.0
23.058536529541016,3.987247467041016,-0.638385534286499,-0.0,-0.0,-1.0,0.0337441668457587,1.0
22.710433959960938,5.527161598205566,-0.6266586780548096,-0.2184240724647599,-0.0737296492870293,-0.973064675848384,0.1253646401576565,3.0
22.87339782714844,3.5157103538513184,-0.5807504653930664,0.6465160319071525,-0.2427685780432862,0.7232430006587486,0.0975207842661793,3.0
22.99451446533203,3.9111831188201904,-0.6205837726593018,-0.0,-0.0,-1.0,0.0732771378499907,2.0
22.89908790588379,4.153378009796143,-0.6048333644866943,-0.0,-0.0,-1.0,0.0097423916389439,1.0
22.75986671447754,3.251654624938965,-0.5478923320770264,0.178137834273458,0.2624208020340526,-0.9483681957236688,0.0923220034897694,3.0
25.182598114013672,4.329342365264893,-0.8529539108276367,-0.0,-0.0,-1.0,0.023020081958942,2.0
25.1829776763916,4.559005260467529,-0.8628785610198975,-0.0,-0.0,-1.0,0.0155818701493303,1.0
25.00769805908203,4.117683410644531,-0.8059237003326416,-0.5440109718952755,-0.471576875934135,0.6940225591014746,0.0583917660565166,3.0
24.136993408203125,5.409937858581543,-0.6765780448913574,0.53033114719845,0.2863872615875779,-0.7979543913730562,0.2417419320133819,4.0
24.12420654296875,5.482628345489502,-0.6782994270324707,-0.0,-0.0,-1.0,0.2428846799017371,2.0
24.186079025268555,4.101494312286377,-0.6228675842285156,-0.0,-0.0,-1.0,0.1652821165093575,2.0
23.92388916015625,4.2169294357299805,-0.5690646171569824,-0.1545037091543178,-0.9474605341174738,-0.2800841661847184,0.1690375512297819,3.0
23.63948631286621,4.324740886688232,-0.5102927684783936,0.2190149516201542,0.919362026894706,-0.3268117416355778,0.1753300937449387,6.0
23.68719482421875,4.605742454528809,-0.5333261489868164,0.8442374524197175,-0.2754569080060923,0.4597680021093119,0.1708225879105372,3.0
23.563289642333984,4.368931293487549,-0.4952418804168701,-0.0,-0.0,-1.0,0.1786933039388827,1.0
24.078556060791016,5.465169906616211,-0.839827299118042,0.5690808247079455,0.0680854979147548,-0.8194579793518545,0.172185750704577,3.0
23.857288360595703,4.05558443069458,-0.7213940620422363,-0.5767071630179565,0.8054414509681941,-0.1366488828568699,0.0821741946528226,3.0
23.547035217285156,3.698605537414551,-0.6383514404296875,-0.0,-0.0,-1.0,0.1399799239617125,1.0
23.63219451904297,4.258266448974609,-0.6761152744293213,-0.0,-0.0,-1.0,0.1957195283450979,1.0
23.53497886657715,4.357612609863281,-0.6573002338409424,-0.3534726639625551,0.3489553575839492,-0.8679212143073084,0.0603809707076125,4.0
23.15312385559082,3.4933009147644043,-0.5417592525482178,-0.6769242643085933,-0.7197108591566125,-0.1542394878178739,0.055370956413334,3.0
23.139284133911133,4.509588241577148,-0.5712215900421143,-0.0,-0.0,-1.0,0.1650920793837384,1.0
25.060914993286133,3.7440860271453857,-0.6690692901611328,0.8381283052574557,0.5454570154955182,-0.0041938255790042,0.2192266616351596,3.0
24.93000602722168,3.5314037799835205,-0.6439182758331299,-0.0,-0.0,-1.0,0.2037881714979521,1.0
24.936677932739254,3.743981122970581,-0.6437497138977051,0.930475001020474,-0.3662165215990719,-0.0100862175182298,0.2091221817056746,4.0
24.88526153564453,3.9920907020568848,-0.6320827007293701,-0.6242068124568024,-0.5557818525476685,-0.5490650122355274,0.1696042857324336,7.0
24.182764053344727,5.37990665435791,-0.5006446838378906,0.6163404280771587,-0.5620221707509582,-0.5515936514337753,0.2189432500851043,5.0
24.116819381713867,5.6118316650390625,-0.4924540519714355,-0.0,-0.0,-1.0,0.1280843025946515,1.0
24.36688995361328,5.244411945343018,-0.8868231773376465,-0.0,-0.0,-1.0,0.0658009455669716,1.0
25.05447006225586,3.448722124099731,-0.4789528846740722,-0.0,-0.0,-1.0,0.1380377233254545,2.0
24.226795196533203,5.365108966827393,-0.8551676273345947,-0.0,-0.0,-1.0,0.1355554996159305,1.0
24.093902587890625,5.509357929229736,-0.8254983425140381,-0.8422851450511167,0.4070953555546077,-0.3533116271962852,0.1966284251024028,3.0
23.27155876159668,3.9564404487609863,-0.656118631362915,-0.0,-0.0,-1.0,0.0279085587504151,1.0
23.16548538208008,4.194286346435547,-0.6268060207366943,-0.0,-0.0,-1.0,0.0261736828613738,1.0
22.893178939819336,3.558435440063477,-0.5840916633605957,0.6465160319071525,-0.2427685780432862,0.7232430006587486,0.0851740737662689,3.0
23.031200408935547,3.728311777114868,-0.6091523170471191,-0.0,-0.0,-1.0,0.1093217813781767,1.0
23.108871459960938,4.276354789733887,-0.6124205589294434,-0.0,-0.0,-1.0,0.0246506768539347,1.0
22.77737617492676,3.336458444595337,-0.5668430328369141,0.7847107652033188,0.3341396135259786,-0.5220916908424531,0.1102805248127829,4.0
24.948156356811523,4.063921928405762,-0.8718917369842529,-0.0,-0.0,-1.0,0.0538049843198137,1.0
24.74881362915039,3.239480972290039,-0.9019708633422852,-0.0,-0.0,-1.0,0.0666638487720465,1.0
24.199018478393555,5.4784698486328125,-0.6278579235076904,0.4517440443638765,-0.2964635471372258,-0.8414491568719894,0.1918819083796017,9.0
24.092832565307617,3.551811695098877,-0.7495505809783936,-0.0,-0.0,-1.0,0.1383192831422709,1.0
23.83557891845703,3.265885829925537,-0.726125955581665,-0.0,-0.0,-1.0,0.0921440332210358,1.0
23.58793258666992,3.151033878326416,-0.689927339553833,-0.0,-0.0,-1.0,0.0795377226724354,1.0
22.89066696166992,3.7007498741149902,-0.5074186325073242,-0.0,-0.0,-1.0,0.2134913721173595,1.0
22.78896713256836,4.823923587799072,-0.3957805633544922,-0.0,-0.0,-1.0,0.2116952524775578,1.0
23.901641845703125,5.559343338012695,-0.8639531135559082,-0.0,-0.0,-1.0,0.086382786659589,2.0
23.657432556152344,5.382565498352051,-0.8162016868591309,-0.0,-0.0,-1.0,0.0268571270822027,1.0
24.96111297607422,3.586249351501465,-0.5712645053863525,-0.0,-0.0,-1.0,0.2156929492372787,1.0
24.99833106994629,3.89289665222168,-0.563826322555542,0.931997342053598,-0.2882238823389944,-0.2197906914645527,0.2067358280385227,8.0
25.006486892700195,3.5733866691589355,-0.6444442272186279,-0.0,-0.0,-1.0,0.1853324664618095,2.0
23.31383895874023,5.633828163146973,-0.8095223903656006,-0.0,-0.0,-1.0,0.0378137293774896,1.0
25.05864143371582,3.747763156890869,-0.64518141746521,0.9732888179419676,0.1053478835553788,0.2039870101244925,0.1956510659944782,4.0
24.93111228942871,3.4732518196105957,-0.6362264156341553,-0.0,-0.0,-1.0,0.2075481451399294,2.0
24.946266174316406,3.787839889526367,-0.6234068870544434,-0.0,-0.0,-1.0,0.2638393618080427,2.0
24.24010467529297,5.364841461181641,-0.4337620735168457,0.8436249073319829,0.1748620852883091,-0.5076615672450767,0.1973038940593932,6.0
24.246089935302734,5.4340314865112305,-0.475006103515625,0.763064330086306,-0.2438115597689061,-0.5985722608616192,0.1647258461392838,10.0
24.226654052734375,5.379410266876221,-0.4750113487243652,-0.2456898099454232,-0.573532597067718,-0.7814709702796007,0.1814963674362317,8.0
24.973033905029297,3.439292907714844,-0.7481610774993896,-0.5246867751900817,0.1175793691633689,-0.8431363352909048,0.1658353185641526,4.0
25.06155586242676,3.6922435760498047,-0.743424654006958,-0.0,-0.0,-1.0,0.1808826656364579,1.0
24.85646629333496,4.136444091796875,-0.6974887847900391,-0.0,-0.0,-1.0,0.1186110679341412,1.0
24.34298324584961,5.405757904052734,-0.5753419399261475,-0.0,-0.0,-1.0,0.1308371741235923,1.0
24.251062393188477,5.605466842651367,-0.5551106929779053,-0.0,-0.0,-1.0,0.1789710499530621,1.0
22.990238189697266,3.2685108184814453,-0.5566112995147705,0.6987031321515428,-0.1387432426630948,-0.7018292140805719,0.0674644418006492,3.0
23.03304100036621,3.565561294555664,-0.5425798892974854,-0.0,-0.0,-1.0,0.1201225159018296,2.0
22.798831939697266,3.2598724365234375,-0.5382993221282959,0.2461521619401947,0.1910651715951251,-0.9502121938680296,0.0923220034897693,4.0
22.710704803466797,5.384433746337891,-0.402862548828125,-0.0,-0.0,-1.0,0.1009151153097065,2.0
24.567853927612305,5.006549835205078,-0.8205690383911133,-0.0,-0.0,-1.0,0.0347075728371418,2.0
24.338558197021484,4.9571075439453125,-0.7958476543426514,-0.0,-0.0,-1.0,0.0282064534163698,1.0
24.568683624267575,5.581539154052734,-0.7933192253112793,-0.0,-0.0,-1.0,0.103014383596988,2.0
23.860370635986328,5.145175933837891,-0.7302093505859375,-0.0,-0.0,-1.0,0.0858151433048521,1.0
24.214134216308594,5.578927993774414,-0.7509152889251709,-0.0,-0.0,-1.0,0.2812775612874266,1.0
23.600282669067383,5.189550399780273,-0.6975429058074951,-0.0,-0.0,-1.0,0.0381058186384745,1.0
23.24127769470215,5.344228744506836,-0.6478402614593506,-0.0,-0.0,-1.0,0.0791187214603595,1.0
22.744150161743164,5.568273544311523,-0.5786945819854736,-0.505425037680402,-0.1489748709728053,-0.8499129479566716,0.133161788849403,3.0
23.922035217285156,5.467096328735352,-0.8002521991729736,0.0163811026621401,0.988548405715187,-0.1500123629356406,0.1666015946149608,3.0
23.744869232177734,5.441854476928711,-0.7798638343811035,-0.4399514648482799,0.8053387008279709,-0.3973314554959981,0.1022058122613486,6.0
23.288747787475582,5.5062713623046875,-0.7212636470794678,-0.3833288406666327,0.2547282320411413,-0.887790813037829,0.0497201778696026,5.0
24.2617244720459,5.529088973999023,-0.2901761531829834,-0.0,-0.0,-1.0,0.1491105296324848,2.0
23.134939193725582,3.214197158813477,-0.4864449501037597,-0.0,-0.0,-1.0,0.0555623036614498,2.0
23.037303924560547,5.604248046875,-0.700951099395752,-0.0,-0.0,-1.0,0.034709249928774,2.0
23.328765869140625,5.497104644775391,-0.7439172267913818,-0.360538393589401,0.393093185566359,-0.8458663098913838,0.0368187959760259,4.0
23.633378982543945,5.487071990966797,-0.7791736125946045,0.6006831663808608,0.6524032875396795,-0.4621143625057345,0.0401806101515107,3.0
23.784711837768555,5.444145202636719,-0.8004739284515381,-0.4346338982171929,0.6479002520795903,-0.6255546641787033,0.1111480054932859,5.0
24.062156677246097,5.628662109375,-0.8143444061279297,-0.0,-0.0,-1.0,0.1277061784194167,2.0
23.358549118041992,5.534049987792969,-0.7763059139251709,-0.0,-0.0,-1.0,0.0435311147530571,1.0
23.70216941833496,5.49177360534668,-0.8180322647094727,-0.0,-0.0,-1.0,0.0559722148966094,2.0
24.11918258666992,4.703691482543945,-0.7347381114959717,0.9146296477232784,-0.2115852012060056,-0.3445058927452551,0.0545910172375648,3.0
24.39404296875,4.709434509277344,-0.7676568031311035,0.32535120821515,0.188909248595729,-0.926531104231228,0.0284970798927768,3.0
24.780960083007812,4.99915885925293,-0.7881143093109131,-0.0,-0.0,-1.0,0.0206043951356785,2.0
25.200672149658203,5.229196548461914,-0.8198771476745605,-0.0,-0.0,-1.0,0.092623190434732,1.0
23.037857055664062,5.1233367919921875,-0.5648665428161621,-0.0,-0.0,-1.0,0.0709279119483432,2.0
23.263702392578125,5.021757125854492,-0.6013922691345215,-0.0,-0.0,-1.0,0.0797286022875006,2.0
23.520694732666016,4.877542495727539,-0.6459648609161377,0.5118027915155626,-0.3846232293769875,-0.7681945547974777,0.0819320337642972,3.0
23.75191879272461,4.785961151123047,-0.6824772357940674,0.5996821196606993,-0.683467599669067,0.4162371866638714,0.1211689569692735,3.0
24.06297492980957,5.411417007446289,-0.6596674919128418,-0.0,-0.0,-1.0,0.2119083220677007,2.0
24.32413101196289,5.509138107299805,-0.6827793121337891,-0.0,-0.0,-1.0,0.1875460136498627,1.0
24.266754150390625,5.3787994384765625,-0.6879887580871582,0.4909394014190092,-0.7073333875596227,0.5085842928932959,0.1739111061133903,5.0
24.891225814819336,3.5494327545166016,-0.4936444759368896,-0.0,-0.0,-1.0,0.1140800850352657,2.0
25.087982177734375,3.840534210205078,-0.4965627193450928,-0.0,-0.0,-1.0,0.1236242949889902,1.0
25.106395721435547,3.664596557617187,-0.5124773979187012,0.073831771568866,0.9450907221809748,0.318358911221982,0.1396123828018383,3.0
24.27206802368164,5.436243057250977,-0.268193244934082,-0.81732480391397,0.5597065523657249,0.1367798967168222,0.1770682051479236,7.0
23.43176651000977,4.866128921508789,-0.6043479442596436,-0.317612873395382,0.0895042846485106,-0.9439867825785946,0.0872692620172942,3.0
23.711549758911133,4.739837646484375,-0.6587677001953125,-0.4182798330394057,-0.8992309849047934,0.1281624635362563,0.1342507980674663,5.0
23.95154571533203,4.686908721923828,-0.7005951404571533,0.8940924033113199,0.2660322041843999,-0.3603132535416612,0.0948651661289203,3.0
24.15363121032715,5.372232437133789,-0.6699402332305908,-0.9005418531179851,-0.4182614264970563,-0.1186665491512792,0.252481794209372,3.0
24.285547256469727,4.699827194213867,-0.7513120174407959,-0.0,-0.0,-1.0,0.0350529527985835,1.0
24.743453979492188,5.511228561401367,-0.7519071102142334,-0.0,-0.0,-1.0,0.0969598863423945,1.0
24.52237319946289,5.196811676025391,-0.7440924644470215,-0.0,-0.0,-1.0,0.0673002710564017,1.0
24.85735321044922,5.534894943237305,-0.7683076858520508,-0.0,-0.0,-1.0,0.0769164232078251,1.0
25.110931396484375,5.428747177124023,-0.8187692165374756,-0.0,-0.0,-1.0,0.0552060187578984,1.0
23.10521125793457,4.944446563720703,-0.5476129055023193,-0.0,-0.0,-1.0,0.1033834154130124,1.0
23.015470504760746,5.23381233215332,-0.5806951522827148,-0.0,-0.0,-1.0,0.0721639035550263,2.0
23.466007232666016,5.058858871459961,-0.6692759990692139,-0.0,-0.0,-1.0,0.0997554173501136,1.0
23.759782791137695,5.0332794189453125,-0.7184157371520996,-0.0,-0.0,-1.0,0.1228527856135093,1.0
24.0042724609375,4.897207260131836,-0.7712216377258301,-0.3873499017557274,-0.7685704719211445,-0.509175297221632,0.1298186326663492,3.0
24.217409133911133,5.444835662841797,-0.7512426376342773,-0.8417626476472121,-0.4418441839582381,-0.3101763403746873,0.1644652160367975,5.0
24.20860290527344,5.142431259155273,-0.7796778678894043,-0.0,-0.0,-1.0,0.1685561783887209,2.0
24.14813232421875,4.926115036010742,-0.7914505004882812,-0.0,-0.0,-1.0,0.0773578974021108,1.0
24.42809295654297,5.43553352355957,-0.7867183685302734,0.9068753276649824,-0.3516338950774763,0.2322299375730299,0.1689934728737019,4.0
23.05535316467285,5.270658493041992,-0.6791431903839111,-0.0,-0.0,-1.0,0.0734803195535185,1.0
23.242753982543945,5.260826110839844,-0.7094085216522217,-0.0,-0.0,-1.0,0.1737347986358448,1.0
23.729171752929688,5.421716690063477,-0.7667300701141357,-0.7151369456455378,0.655241056704009,-0.2433892080232499,0.1002828670712048,4.0
23.55316925048828,5.336804389953613,-0.7489101886749268,0.9197300969497856,0.0944307575991024,-0.3810241210002287,0.0299837667417351,3.0
23.99254989624023,5.551279067993164,-0.79390549659729,-0.0,-0.0,-1.0,0.1504780684226535,2.0
23.85344886779785,5.354402542114258,-0.7944507598876953,-0.0,-0.0,-1.0,0.153232149091802,2.0
22.718339920043945,5.382896423339844,-0.6138393878936768,-0.0,-0.0,-1.0,0.0859011098168689,1.0
24.8448486328125,3.692392349243164,-0.4306204319000244,-0.0,-0.0,-1.0,0.1627737688011162,1.0
25.183853149414062,3.6904544830322266,-0.4780161380767822,-0.0,-0.0,-1.0,0.1463152453990372,1.0
23.32180976867676,5.463213920593262,-0.7554881572723389,-0.0761612522789926,0.3003760344502865,-0.9507753160338228,0.0576141455468783,4.0
23.55373191833496,5.483574867248535,-0.7945282459259033,-0.0749687459593849,-0.7841537749738126,-0.6160215453404184,0.0250385649952905,3.0
23.94444274902344,5.584264755249023,-0.8533444404602051,-0.0,-0.0,-1.0,0.1028135611091889,1.0
23.121543884277344,5.4584455490112305,-0.7206621170043945,-0.2405969943425518,-0.097894393295441,-0.9656758120998205,0.090984356847152,3.0
24.91078758239746,3.992019653320313,-0.5495436191558838,0.1882083974159114,0.9722780706996222,-0.1387550084816931,0.205458839185021,3.0
24.925521850585938,3.6374101638793945,-0.5846617221832275,-0.0,-0.0,-1.0,0.2453804802990594,1.0
25.08679962158203,3.6370458602905273,-0.6104178428649902,-0.0,-0.0,-1.0,0.135710798887394,2.0
24.24850082397461,5.4365081787109375,-0.3109707832336426,-0.9553056692204672,0.1185077599055145,-0.2708264927908874,0.133682520942117,13.0
23.207199096679688,4.904183387756348,-0.5581052303314209,0.4358327800514324,0.1139752126271744,-0.8927818539482247,0.0921554777279222,5.0
23.351808547973633,4.85768985748291,-0.5897848606109619,0.7208871421221639,0.001708490447533,-0.6930503656902071,0.0934039065718815,5.0
23.76384735107422,4.803045272827148,-0.6716105937957764,0.5996821196606993,-0.683467599669067,0.4162371866638714,0.1211689569692735,3.0
24.17053604125977,5.25010871887207,-0.6956212520599365,-0.3810712099398715,-0.862750682614946,-0.3323341580433861,0.2297074546918868,3.0
24.12470436096191,4.744670867919922,-0.7452466487884521,0.9835305405853052,0.097991925345648,-0.1518725067384828,0.0621207048981524,5.0
24.334686279296875,5.429248809814453,-0.7065229415893555,0.6689203270291612,-0.39512430379842,-0.629620822904559,0.183100147550053,4.0
24.39876937866211,4.810186386108398,-0.7889516353607178,0.9447876458326926,0.2744904789738294,-0.1789728505517986,0.0421141244857697,3.0
24.67784118652344,5.338339805603027,-0.7824132442474365,-0.0,-0.0,-1.0,0.0993499099983628,1.0
25.089887619018555,5.619260787963867,-0.8316290378570557,-0.0,-0.0,-1.0,0.0659278428429663,1.0
25.091503143310547,3.96636962890625,-0.7944755554199219,-0.7897614829196927,-0.5701993463287797,0.226162564414892,0.1081599853212883,4.0
25.084190368652344,3.87912654876709,-0.8043439388275146,-0.0,-0.0,-1.0,0.2050428811349398,2.0
22.83030891418457,3.229336738586426,-0.5347857475280762,-0.0,-0.0,-1.0,0.0933011297560025,2.0
23.73052978515625,4.185591697692871,-0.5407633781433105,-0.0,-0.0,-1.0,0.1196537476282848,1.0
23.947834014892575,3.774142265319824,-0.6309690475463867,-0.8032463641647808,-0.0412532671249513,-0.5942166662149231,0.1071394156318917,4.0
24.225069046020508,5.361485481262207,-0.4702441692352295,0.2943743485273651,0.9498305261460592,0.1056679446671959,0.1690822194264629,5.0
24.35608673095703,3.836569786071778,-0.6887109279632568,-0.9015334395586656,-0.0434780882751692,-0.4305195851496862,0.0769887246440399,3.0
24.575359344482425,3.781552314758301,-0.7318916320800781,-0.0,-0.0,-1.0,0.0571500461065357,1.0
24.24309730529785,5.500702857971191,-0.4559578895568847,0.5258347647093345,-0.6392189930107004,0.5611567331837558,0.2222034952299649,5.0
24.81549835205078,3.9739389419555664,-0.746920108795166,-0.332895556455657,0.840451052550312,-0.4275775681196937,0.2415024332590536,3.0
24.72366523742676,3.8291549682617183,-0.7502632141113281,-0.0,-0.0,-1.0,0.0894487733733573,2.0
25.1190128326416,4.112565994262695,-0.7806558609008789,-0.3191056270010192,0.1981551785131666,-0.9267718834992252,0.0387528376407302,3.0
22.709592819213867,5.1085920333862305,-0.2535505294799804,-0.0,-0.0,-1.0,0.1178449098702511,2.0
22.827835083007812,5.023941993713379,-0.2837202548980713,-0.0,-0.0,-1.0,0.1704621815092065,2.0
23.629669189453125,4.7393903732299805,-0.6652376651763916,-0.1757586540101689,-0.330774165300728,-0.9271986556882724,0.0918953170010682,4.0
23.840824127197266,4.71198844909668,-0.7096517086029053,-0.0,-0.0,-1.0,0.1530863537684728,2.0
24.29439163208008,5.227238655090332,-0.7270872592926025,-0.0,-0.0,-1.0,0.166934999751716,1.0
24.242511749267575,4.729119300842285,-0.7853617668151855,-0.0,-0.0,-1.0,0.0376970424489502,2.0
24.648908615112305,5.239106178283691,-0.7973847389221191,0.5779838814562098,0.1233457506125308,-0.8066724605331743,0.0691362749415321,3.0
24.501510620117188,4.7748212814331055,-0.8302257061004639,-0.0,-0.0,-1.0,0.0287634443348221,1.0
25.11878204345703,5.500740051269531,-0.8608267307281494,0.4729537816612484,0.6132666021298346,-0.6326284811202,0.0593461524177715,3.0
24.94064140319824,5.397684097290039,-0.8367757797241211,-0.0,-0.0,-1.0,0.0675237450969934,2.0
23.12505340576172,4.841395378112793,-0.5552883148193359,0.8648112612279784,-0.3698573664490109,-0.3395688603754406,0.1198144498045328,3.0
23.34551239013672,4.823152542114258,-0.5992569923400879,0.7160765857586022,0.0370802062352049,-0.6970361408376597,0.0931937727860501,6.0
24.172657012939453,5.553949356079102,-0.6587560176849365,0.3579401789804446,-0.6441124393233667,-0.6760162673932855,0.251021731113705,3.0
24.84446144104004,3.62166976928711,-0.4911267757415771,-0.0,-0.0,-1.0,0.1908493142466524,1.0
25.10934066772461,3.598581314086914,-0.5388514995574951,-0.0,-0.0,-1.0,0.1577432187859143,2.0
23.091957092285156,5.554332733154297,-0.7552900314331055,0.8101790913701568,-0.4260811386854495,-0.4025726060763912,0.0821079989793727,3.0
23.46349716186523,5.59343147277832,-0.8307790756225586,-0.0,-0.0,-1.0,0.0240438282493269,2.0
23.728851318359375,5.63038444519043,-0.8841309547424316,-0.0,-0.0,-1.0,0.0466493422125052,2.0
22.757530212402344,3.3696765899658203,-0.5774564743041992,0.8367066482074107,0.5403063074602129,0.0893928350833004,0.0752645439040528,5.0
22.929691314697266,5.609084129333496,-0.7105386257171631,-0.0,-0.0,-1.0,0.0405296295072407,2.0
22.867916107177734,3.528567314147949,-0.5715346336364746,0.6465160319071525,-0.2427685780432862,0.7232430006587486,0.0831363069185336,3.0
23.568119049072266,4.652229309082031,-0.5290737152099609,-0.3680076762382929,-0.2404598687619409,-0.8981922966406926,0.1941696473578171,3.0
23.684043884277344,4.659686088562012,-0.550095796585083,0.4622831509641829,0.5765834375964259,-0.6736808055927631,0.1488095532252444,3.0
23.797870635986328,4.099490165710449,-0.6536955833435059,-0.0,-0.0,-1.0,0.1044540260090549,1.0
23.88713836669922,3.952530860900879,-0.6922588348388672,-0.0,-0.0,-1.0,0.093464909031858,2.0
24.253437042236328,5.382267951965332,-0.5603547096252441,0.5342098667675087,-0.4079526716945678,-0.7404015369416143,0.1545377137123081,6.0
24.283615112304688,4.273094177246094,-0.7211334705352783,-0.0,-0.0,-1.0,0.0319327016736511,2.0
24.142349243164062,3.998422622680664,-0.7337141036987305,-0.946659393165769,0.3126180799167348,-0.0781404468901507,0.1945169534249721,4.0
24.72926139831543,4.26240348815918,-0.8094446659088135,-0.1180580092874758,-0.019878493409693,-0.9928077114642286,0.0922283214382268,3.0
25.201622009277344,4.90092658996582,-0.8170018196105957,0.7890662760545697,-0.6109008784368024,0.0646105929280686,0.0457682300191893,3.0
25.173507690429688,4.723382949829102,-0.8349432945251465,0.8390192475328276,-0.4261286562048374,-0.3383209580125171,0.0226638192934179,3.0
24.95774269104004,4.346321105957031,-0.8429286479949951,0.4787798518002818,-0.3552515295783051,-0.802848805344054,0.0166369334953251,3.0
25.01673889160156,4.082891464233398,-0.8224775791168213,-0.0,-0.0,-1.0,0.0503258033267264,2.0
25.133424758911133,4.200060844421387,-0.8315479755401611,-0.0,-0.0,-1.0,0.0340160398129573,2.0
22.894641876220703,3.225746154785156,-0.5195515155792236,0.081055709666661,0.5138972560212283,-0.8540138067878564,0.112333331646284,3.0
23.216075897216797,3.3646469116210938,-0.5577654838562012,-0.0,-0.0,-1.0,0.0468720903980413,1.0
23.692493438720703,4.31028938293457,-0.4969394207000732,0.2381674574341885,-0.86456230558542,-0.4425022960168195,0.2065822133387267,5.0
23.43416976928711,3.493931770324707,-0.5787441730499268,-0.0,-0.0,-1.0,0.021434854907178,2.0
24.076446533203125,3.976593017578125,-0.6325781345367432,0.1096860759850624,0.8459815780312682,0.5218085227041855,0.1951955469955621,3.0
24.006994247436523,3.758111953735352,-0.6529905796051025,-0.0,-0.0,-1.0,0.0587112457101185,1.0
24.28967666625977,5.3919854164123535,-0.4665346145629883,0.768103516671159,0.1191315467529113,-0.6291459784864384,0.2069001583830605,6.0
24.53707504272461,3.9331789016723633,-0.7390122413635254,-0.0,-0.0,-1.0,0.1311275147267426,2.0
24.402359008789062,3.816305160522461,-0.7281479835510254,-0.0,-0.0,-1.0,0.083658952016256,2.0
24.78070831298828,3.998734474182129,-0.7825808525085449,-0.0,-0.0,-1.0,0.1900744065211206,1.0
24.68393325805664,3.885342597961426,-0.7785825729370117,0.2871548488165207,-0.2597625781062382,-0.9219899651388632,0.068914333998613,3.0
22.86077117919922,4.773637771606445,-0.2458758354187011,0.3445802087031102,-0.464901090226135,-0.8155559184241579,0.1332709490146911,6.0
22.72528839111328,4.654119491577148,-0.2377266883850097,-0.0,-0.0,-1.0,0.1543690342968438,1.0
24.14126205444336,5.449951171875,-0.4239926338195801,0.4030416889650046,-0.499587064966461,-0.7667921240299962,0.2224354611359082,4.0
24.3902587890625,4.820347309112549,-0.8182947635650635,0.3159704351415489,-0.8309646451444105,-0.4578869321529979,0.041350278140875,4.0
24.77658462524414,5.391047954559326,-0.8233799934387207,-0.0,-0.0,-1.0,0.0831628413766306,1.0
24.551761627197266,4.960254192352295,-0.8364772796630859,-0.0,-0.0,-1.0,0.0375074015401268,1.0
24.49988555908203,4.8674092292785645,-0.8390514850616455,0.2273521951570123,0.2179581525855584,-0.9491075929939544,0.0312311496351382,5.0
24.976280212402344,5.592635154724121,-0.8454351425170898,-0.0,-0.0,-1.0,0.0529876028828346,1.0
22.835554122924805,3.869563102722168,-0.611565113067627,-0.2994297929991457,-0.0800738214906508,-0.9507523243076362,0.1094516691566742,4.0
23.423227310180664,4.710793972015381,-0.5868144035339355,-0.0,-0.0,-1.0,0.0656536947771954,2.0
23.754112243652344,4.719686985015869,-0.6701183319091797,0.5017042244018117,0.4755666192748192,-0.722585124292561,0.1184039055002574,4.0
23.995887756347656,3.340076446533203,-0.525031328201294,-0.8098961834942665,-0.3964433168121118,0.4323203309080348,0.1020714150625821,6.0
24.161123275756836,5.4221625328063965,-0.6502132415771484,0.8082780602591428,-0.2705778385893948,-0.5229476174226331,0.1962385310178484,7.0
24.17127990722656,4.747308254241943,-0.7737762928009033,-0.0,-0.0,-1.0,0.0577370379527276,2.0
24.24418258666992,3.4067869186401367,-0.5679688453674316,-0.0,-0.0,-1.0,0.0993912209814232,1.0
24.64788246154785,5.480409145355225,-0.7731208801269531,-0.0,-0.0,-1.0,0.105232160422505,2.0
24.505062103271484,5.234768390655518,-0.775886058807373,-0.0,-0.0,-1.0,0.0759602383022194,2.0
24.679821014404297,3.1528940200805664,-0.7086086273193359,-0.0,-0.0,-1.0,0.0623215597866473,2.0
24.947097778320312,3.899059295654297,-0.6445283889770508,0.7047574978509934,-0.5937977267834218,-0.3882281917759805,0.2108585521711506,6.0
24.98785400390625,3.4920196533203125,-0.7207419872283936,-0.0,-0.0,-1.0,0.1986632211082146,2.0
24.895538330078125,3.26210880279541,-0.7382094860076904,-0.692266740432187,0.5003956409458192,-0.5199720786867478,0.1074683528725721,3.0
24.42370986938477,5.2162628173828125,-0.3142166137695312,0.4060088912908662,0.8889312703328506,0.2120329616290502,0.0923986884409279,8.0
24.671314239501953,3.3221402168273926,-0.6745154857635498,-0.0,-0.0,-1.0,0.0409957819808955,1.0
24.555843353271484,3.204759359359741,-0.6507337093353271,-0.0,-0.0,-1.0,0.0159661394690222,1.0
24.681190490722656,3.2458693981170654,-0.68448805809021,-0.0,-0.0,-1.0,0.0657305362400714,1.0
24.111629486083984,5.156282424926758,-0.763127326965332,-0.0,-0.0,-1.0,0.1719558679226182,1.0
24.121726989746097,5.474130630493164,-0.7862749099731445,-0.103770586252097,0.2536909739519161,-0.9617029453860604,0.1990933877729516,4.0
24.121417999267575,4.774325370788574,-0.7417082786560059,-0.0,-0.0,-1.0,0.0602907519119197,2.0
24.041255950927734,4.937178611755371,-0.7310886383056641,-0.0,-0.0,-1.0,0.1437398363934315,1.0
24.124271392822266,3.576948881149292,-0.6722736358642578,-0.0,-0.0,-1.0,0.203268505226166,2.0
23.863101959228516,3.441018581390381,-0.5973706245422363,-0.0,-0.0,-1.0,0.0845065976965966,2.0
23.491039276123047,3.804023504257202,-0.5214552879333496,-0.0,-0.0,-1.0,0.1245168985714913,1.0
24.264019012451172,4.833301067352295,-0.822054386138916,-0.0,-0.0,-1.0,0.0357006889946882,2.0
24.20842742919922,5.2603888511657715,-0.8306517601013184,-0.0,-0.0,-1.0,0.1408017253282416,1.0
24.158145904541016,5.265003204345703,-0.8174705505371094,-0.0,-0.0,-1.0,0.1685510790208891,1.0
24.09933090209961,4.953048229217529,-0.7844104766845703,-0.0,-0.0,-1.0,0.1218892076410067,1.0
23.975004196166992,3.631436824798584,-0.6850571632385254,-0.0,-0.0,-1.0,0.0877436429708699,1.0
23.632633209228516,3.31563949584961,-0.5796294212341309,-0.0,-0.0,-1.0,0.0268512062326418,2.0
23.729297637939453,3.4079694747924805,-0.6094350814819336,-0.0,-0.0,-1.0,0.0507187468995181,1.0
24.484201431274418,5.171295166015625,-0.8205981254577637,-0.0,-0.0,-1.0,0.0598720677815841,2.0
24.43049430847168,5.288072109222412,-0.7999415397644043,-0.0,-0.0,-1.0,0.1170489300961565,2.0
24.13692855834961,5.6070756912231445,-0.7042551040649414,-0.0,-0.0,-1.0,0.1687245697892535,1.0
23.37566375732422,3.895068645477295,-0.5959324836730957,-0.0,-0.0,-1.0,0.0373286300846006,1.0
23.0029239654541,3.683990001678467,-0.5091724395751953,-0.0,-0.0,-1.0,0.151002881787459,1.0
23.099214553833008,3.809321880340576,-0.527252197265625,-0.0,-0.0,-1.0,0.0773980211132842,1.0
24.62495994567871,3.260745048522949,-0.6701622009277344,-0.0,-0.0,-1.0,0.0193772366637847,1.0
24.841732025146484,3.575655937194824,-0.6967525482177734,-0.0,-0.0,-1.0,0.2513196725622958,1.0
24.959745407104492,3.812809467315674,-0.7056212425231934,-0.4397767273925053,-0.6004035593809851,-0.6679161593542874,0.175604754300666,3.0
24.770030975341797,4.078774929046631,-0.633575439453125,-0.0,-0.0,-1.0,0.176728603225528,1.0
24.086694717407227,3.526174545288086,-0.5088505744934082,-0.0,-0.0,-1.0,0.1908482833110652,1.0
24.27845001220703,5.547403335571289,-0.3820796012878418,-0.0,-0.0,-1.0,0.1500248197409815,2.0
24.44967460632324,4.909909725189209,-0.7476162910461426,-0.0,-0.0,-1.0,0.0278231589172428,2.0
24.57026100158691,5.131572246551514,-0.7589735984802246,-0.0,-0.0,-1.0,0.0529072023421606,1.0
24.67728805541992,5.610308647155762,-0.7423763275146484,-0.0,-0.0,-1.0,0.0993963443279697,1.0
22.909290313720703,3.479729652404785,-0.4758310317993164,-0.0,-0.0,-1.0,0.2389635065179119,2.0
23.120525360107425,3.7566404342651367,-0.5032315254211426,-0.0,-0.0,-1.0,0.1036304948652282,1.0
23.461591720581055,4.001986503601074,-0.5700383186340332,-0.0,-0.0,-1.0,0.0549082284622397,1.0
23.730300903320312,4.175303936004639,-0.6251773834228516,-0.0,-0.0,-1.0,0.1146338484579257,1.0
24.281862258911133,5.404777526855469,-0.6531281471252441,0.5628277462163912,-0.6784956801801113,0.4720895466602769,0.2452055838314856,5.0
24.51734161376953,3.325735092163086,-0.6840605735778809,-0.0,-0.0,-1.0,0.0175686910202031,1.0
24.82035446166992,3.622243881225586,-0.7487392425537109,-0.0,-0.0,-1.0,0.1786469350023358,2.0
24.621829986572266,3.486569404602051,-0.7020788192749023,-0.0,-0.0,-1.0,0.0259747980194175,1.0
24.951030731201172,4.079182147979736,-0.7547931671142578,-0.0,-0.0,-1.0,0.183859813935747,1.0
24.133705139160156,3.552623748779297,-0.5594692230224609,-0.6645500830073813,-0.746981941813335,-0.019777911407985,0.2359158556701036,3.0
24.481586456298828,3.932964324951172,-0.6313557624816895,0.0524999128209683,0.9986167985875348,-0.0028720606841893,0.1759539015084159,3.0
23.939022064208984,3.382634162902832,-0.5168299674987793,-0.1113981442158307,0.6705170445846201,-0.7334830239254181,0.1335285378130157,3.0
24.114604949951172,4.148940563201904,-0.5126209259033203,-0.0,-0.0,-1.0,0.1723172734364519,2.0
24.09784698486328,5.580532073974609,-0.4182243347167969,-0.0,-0.0,-1.0,0.1606396002485198,2.0
22.955434799194336,3.7376785278320312,-0.6149301528930664,-0.0,-0.0,-1.0,0.1361003608982694,1.0
23.03316116333008,3.8915090560913086,-0.6150555610656738,0.0091864488309047,-0.253736358477653,-0.9672297914892698,0.0711799695175593,3.0
23.10973358154297,4.106746673583984,-0.6065378189086914,-0.0,-0.0,-1.0,0.0247201154998027,1.0
24.211158752441406,4.870038032531738,-0.8212060928344727,-0.0912311409362207,-0.990360373188858,-0.1042267246952586,0.0296115359467476,3.0
24.37453842163086,5.099643707275391,-0.8388957977294922,-0.0,-0.0,-1.0,0.0430577788701224,1.0
24.156509399414062,5.4393157958984375,-0.7318663597106934,-0.941407401234033,0.0254575303587311,-0.3363094096956232,0.2361231245130967,5.0
23.8254337310791,3.4876956939697266,-0.6180210113525391,-0.0,-0.0,-1.0,0.0503180122260945,1.0
23.984209060668945,3.607725143432617,-0.6378636360168457,-0.0,-0.0,-1.0,0.0984445310788585,1.0
24.446334838867188,3.8446779251098633,-0.7184615135192871,-0.0,-0.0,-1.0,0.1117951307398151,1.0
24.78529357910156,4.048795700073242,-0.7727537155151367,-0.0,-0.0,-1.0,0.2739704138915953,1.0
25.095731735229492,4.261222839355469,-0.8185958862304688,0.7497024373311724,-0.6513739496562976,0.1168684438539981,0.039226544085275,3.0
23.28830909729004,3.2056961059570312,-0.5283117294311523,-0.0,-0.0,-1.0,0.0444040708347004,1.0
23.657508850097656,3.4139108657836914,-0.5869302749633789,-0.0,-0.0,-1.0,0.0337756459581432,1.0
