x,y,z,nx,ny,nz,curvature,density,label
38.69227600097656,-12.191169738769531,0.0994752645492553,-0.0,-0.0,-1.0,0.2211259687938916,1.0,1.0
39.87122344970703,-11.893476486206056,0.1303685903549194,-0.0,-0.0,-1.0,0.1137275889977171,2.0,1.0
37.93571853637695,-14.26314926147461,-0.0045784711837768,-0.0,-0.0,-1.0,0.0983722759836391,2.0,0.0
40.000850677490234,-14.063596725463867,0.0330116748809814,0.9762651376481548,-0.1151514471562185,0.1834298918678685,0.1911003162957444,3.0,1.0
38.3716926574707,-11.863887786865234,-0.1636000871658325,-0.0,-0.0,-1.0,0.2032723108258354,1.0,0.0
38.49749755859375,-12.227624893188477,-0.1812622547149658,0.0185025401829217,-0.9991612190914884,0.0365310042346214,0.2102110127661914,3.0,0.0
37.747833251953125,-12.660457611083984,-0.2190912961959839,0.7845067610418902,-0.5602693915010643,0.2657956937698386,0.1353202070297227,4.0,0.0
38.536094665527344,-12.358390808105469,-0.1877690553665161,0.2966651252649507,-0.93769541079771,0.1808787439707762,0.1997636389203813,3.0,0.0
37.87492370605469,-13.040647506713867,-0.2375234365463256,-0.0,-0.0,-1.0,0.0477910218240539,1.0,0.0
37.90404510498047,-13.19643783569336,-0.2455486059188842,-0.0,-0.0,-1.0,0.0295518338902509,1.0,0.0
39.86924362182617,-12.791864395141602,-0.1893600225448608,-0.0,-0.0,-1.0,0.1015135199898752,2.0,0.0
39.726829528808594,-12.886735916137695,-0.1969488859176635,-0.0,-0.0,-1.0,0.1479795805549427,2.0,0.0
39.939300537109375,-14.100893020629885,-0.2623506784439087,-0.0,-0.0,-1.0,0.2014728356809907,1.0,0.0
39.71085739135742,-14.147333145141602,-0.2683682441711426,-0.0,-0.0,-1.0,0.1513803657653614,1.0,0.0
38.42659378051758,-12.365560531616213,0.7439918518066406,-0.0,-0.0,-1.0,0.064925171281068,1.0,1.0
38.50312042236328,-12.220918655395508,0.1365178823471069,-0.0,-0.0,-1.0,0.1327737081976072,1.0,1.0
37.80080032348633,-14.224224090576172,0.0421797037124633,-0.0,-0.0,-1.0,0.1174507514353611,2.0,1.0
40.17552947998047,-13.711050033569336,0.1217679977416992,-0.0,-0.0,-1.0,0.1752761685152749,1.0,1.0
39.841102600097656,-14.161260604858398,0.0962667465209961,-0.0,-0.0,-1.0,0.2026664122804504,2.0,1.0
37.98545837402344,-12.55617332458496,0.0386486053466796,-0.0,-0.0,-1.0,0.1378332494969331,1.0,1.0
39.50348663330078,-12.618701934814451,0.0848646163940429,-0.0,-0.0,-1.0,0.1513322902914163,1.0,1.0
38.18395233154297,-12.660676956176758,0.0412201881408691,-0.0,-0.0,-1.0,0.1035566493506361,1.0,1.0
39.36935806274414,-13.81446647644043,0.0335390567779541,-0.0,-0.0,-1.0,0.1354848394216304,1.0,1.0
38.02347183227539,-14.290019989013672,-0.0269314050674438,-0.1624582475033033,0.986708339136528,0.0037378197642194,0.1064784601898051,3.0,0.0
37.835060119628906,-14.23940086364746,-0.0310205221176147,-0.0,-0.0,-1.0,0.1078609981416527,2.0,0.0
37.81263732910156,-12.366303443908691,-0.3617465496063232,-0.0,-0.0,-1.0,0.072468763893143,1.0,0.0
40.15812301635742,-14.185182571411133,0.0802196264266967,-0.0,-0.0,-1.0,0.1794280574042369,2.0,1.0
39.92716217041016,-11.87071418762207,0.322619080543518,0.4905879262760534,0.4981302175553618,-0.7149753652752027,0.1033149115105706,3.0,1.0
38.63409805297851,-12.336015701293944,0.0739375352859497,-0.8564019424906876,0.1179486397880289,0.502656772828469,0.1135481229042753,6.0,1.0
37.97867584228515,-14.21760368347168,-0.0265772342681884,-0.0,-0.0,-1.0,0.1044070771507246,2.0,0.0
38.04473114013672,-14.329145431518556,0.034611701965332,-0.0,-0.0,-1.0,0.0960183148850897,1.0,1.0
40.138206481933594,-14.152851104736328,-0.2893909215927124,-0.0,-0.0,-1.0,0.2032740904900727,1.0,0.0
38.79912567138672,-12.1913480758667,0.1918209791183471,-0.0,-0.0,-1.0,0.1815097005030865,1.0,1.0
38.164649963378906,-14.328838348388672,0.0501412153244018,-0.0,-0.0,-1.0,0.0555945600562028,1.0,1.0
39.865272521972656,-12.877836227416992,-0.0859472751617431,-0.0,-0.0,-1.0,0.1559015075881112,1.0,0.0
39.78144073486328,-12.948261260986328,-0.0791800022125244,-0.0,-0.0,-1.0,0.1518630453048293,2.0,0.0
39.95060729980469,-14.032733917236328,-0.0854750871658325,-0.0,-0.0,-1.0,0.1606274768765453,1.0,0.0
38.72846984863281,-12.362709045410156,-0.0037580728530883,-0.0,-0.0,-1.0,0.1670065644511529,1.0,0.0
39.78187561035156,-12.978752136230469,-0.0775696039199829,-0.0,-0.0,-1.0,0.1044639945759149,2.0,0.0
39.754730224609375,-13.11821174621582,-0.075382113456726,-0.0,-0.0,-1.0,0.1115209436551856,1.0,0.0
39.92948913574219,-14.212379455566406,-0.0859204530715942,-0.0,-0.0,-1.0,0.2321506761036394,1.0,0.0
40.075340270996094,-14.213214874267578,-0.0962660312652587,-0.0,-0.0,-1.0,0.1640110116129186,2.0,0.0
39.84259796142578,-14.21047592163086,-0.1816568374633789,-0.0,-0.0,-1.0,0.2078026442079209,1.0,0.0
40.18909454345703,-14.204885482788086,-0.2072776556015014,-0.0495678864361708,-0.4668863481261294,-0.8829270426075404,0.2075316618339108,3.0,0.0
38.64751434326172,-12.367469787597656,-0.0938776731491088,-0.0,-0.0,-1.0,0.2412463258000569,2.0,0.0
38.64942932128906,-12.157234191894531,0.2441624402999878,-0.0,-0.0,-1.0,0.2357365914227034,1.0,1.0
39.83807373046875,-14.150472640991213,0.1946080923080444,-0.0,-0.0,-1.0,0.2109942845500339,2.0,1.0
39.72809600830078,-14.207358360290527,0.3736164569854736,0.7048459146501905,0.6531066518737838,0.2768464156877455,0.1214208331641999,3.0,1.0
38.55393600463867,-12.521885871887209,0.423257052898407,0.2064673496560017,-0.7409904484128633,-0.638987002126749,0.1490958485792495,3.0,1.0
39.820762634277344,-11.959080696105955,0.3138141632080078,-0.0,-0.0,-1.0,0.107320246118677,2.0,1.0
39.96178436279297,-11.964251518249512,0.3031798005104065,-0.0,-0.0,-1.0,0.1033149115105706,1.0,1.0
38.554203033447266,-12.41989803314209,0.6536096334457397,-0.0258120364297901,-0.0476822318528583,-0.998528989834986,0.1016145590796566,4.0,1.0
38.53172302246094,-12.443120002746582,-0.2514804601669311,-0.0,-0.0,-1.0,0.2382444661344436,1.0,0.0
39.735103607177734,-14.19936180114746,0.336910605430603,0.7048459146501905,0.6531066518737838,0.2768464156877455,0.1065443340890853,3.0,1.0
38.5717658996582,-12.502904891967772,0.4070072174072265,-0.0,-0.0,-1.0,0.143551799934716,2.0,1.0
38.56156539916992,-12.420555114746094,0.4950858354568481,-0.0,-0.0,-1.0,0.1521495569644639,1.0,1.0
38.31941223144531,-12.76451587677002,-0.3033610582351684,-0.0,-0.0,-1.0,0.084906969236387,1.0,0.0
39.31254577636719,-12.970532417297363,-0.2721253633499145,-0.0,-0.0,-1.0,0.1010464474394031,1.0,0.0
38.9847297668457,-12.545561790466309,-0.2484325170516967,0.0983119034804696,-0.9936282996637656,-0.0551141700594412,0.0782424382233967,4.0,0.0
39.84125900268555,-12.827149391174316,-0.2342461347579956,-0.0,-0.0,-1.0,0.1240857665274187,2.0,0.0
39.3824462890625,-12.284985542297363,-0.2054613828659057,0.7141487794516485,-0.4634918443009777,-0.5245634671554995,0.0899772189764976,4.0,0.0
39.94416046142578,-14.31264591217041,-0.1591428518295288,-0.0,-0.0,-1.0,0.1671807898442866,2.0,0.0
38.305694580078125,-13.592267036437988,-0.0380058288574218,-0.0,-0.0,-1.0,0.2598484578225291,1.0,0.0
39.73143768310547,-13.472525596618652,-0.1227530241012573,-0.0,-0.0,-1.0,0.0941003908687743,1.0,0.0
39.65036392211914,-13.11069393157959,-0.1077947616577148,-0.0,-0.0,-1.0,0.1139116803235263,1.0,0.0
38.53871154785156,-12.416874885559082,-0.018659234046936,-0.0,-0.0,-1.0,0.1282854927297912,1.0,0.0
38.817840576171875,-12.40482234954834,-0.0357269048690795,-0.0,-0.0,-1.0,0.15781361948398,2.0,0.0
38.5410270690918,-12.23222827911377,-0.0136442184448242,-0.0,-0.0,-1.0,0.1538718081332737,1.0,0.0
39.854434967041016,-11.992974281311035,-0.0916047096252441,-0.4840031078082173,0.8651149175356964,-0.1315947228774496,0.140108586810626,4.0,0.0
38.108184814453125,-12.86316204071045,-0.2953907251358032,-0.0,-0.0,-1.0,0.0574580733921453,2.0,0.0
38.79395294189453,-12.317450523376465,-0.3160648345947265,-0.0,-0.0,-1.0,0.2631666768971671,1.0,0.0
39.27652359008789,-11.871174812316896,-0.3296332359313965,-0.0,-0.0,-1.0,0.0251191050198879,1.0,0.0
39.675437927246094,-14.213194847106934,-0.0157409906387329,-0.0,-0.0,-1.0,0.1654495098505133,1.0,0.0
39.863914489746094,-14.32821559906006,-0.0292950868606567,-0.0,-0.0,-1.0,0.1661171091602788,2.0,0.0
40.1953239440918,-14.191039085388184,-0.0421837568283081,0.9775519821364166,0.1914042693121889,0.0880711525428746,0.1166548188996808,4.0,0.0
38.29378890991211,-13.498295783996582,0.0772550106048584,-0.3917475559676647,0.459233331855872,-0.7972694646767277,0.1658726087771317,3.0,1.0
39.5829963684082,-13.283596992492676,0.0197566747665405,0.864914517005673,0.3897921531964002,0.3162039778044505,0.1141233644553966,3.0,1.0
39.60688400268555,-13.11399745941162,0.0240659713745117,0.8800981262937405,-0.1481247357313987,-0.4510946139766584,0.189346707180291,5.0,1.0
38.47169494628906,-12.512490272521973,0.1022249460220336,-0.0,-0.0,-1.0,0.1679367729609932,1.0,1.0
38.52713394165039,-12.308127403259276,0.1063507795333862,-0.3093656879941361,0.5573685016812205,0.7704759726464844,0.1998912001651852,3.0,1.0
39.843902587890625,-11.951720237731934,0.0488451719284057,-0.0,-0.0,-1.0,0.1440253934674621,2.0,1.0
37.76304626464844,-14.269745826721191,0.0323743820190429,-0.0752589678668807,0.832104350112588,-0.5494892521963634,0.1174507514353611,3.0,1.0
39.707550048828125,-14.24838924407959,-0.065921664237976,-0.0,-0.0,-1.0,0.1940268300877405,2.0,0.0
40.20143127441406,-14.186774253845217,-0.0907825231552124,0.9756552950051997,0.2059656231867293,-0.0753319812139506,0.1629095814580095,5.0,0.0
39.59291458129883,-13.269993782043455,-0.0241416692733764,0.87688350150473,0.306381624565882,0.3704127763957049,0.1004072195702747,4.0,0.0
37.84498596191406,-12.681639671325684,0.0889240503311157,0.4587743894545036,0.7179095939618454,-0.5235760445992406,0.1840734719591633,3.0,1.0
39.605712890625,-13.055195808410645,-0.0170804262161254,-0.0,-0.0,-1.0,0.1871295890900462,2.0,0.0
38.510292053222656,-12.265049934387209,0.0706361532211303,-0.109723927070215,0.6852523946745798,0.7199929273409871,0.1890795766737092,3.0,1.0
39.74052047729492,-14.241459846496582,-0.0340230464935302,-0.0,-0.0,-1.0,0.2179572865390142,2.0,0.0
39.858436584472656,-14.330977439880373,-0.0426188707351684,-0.0,-0.0,-1.0,0.1400012260218102,2.0,0.0
38.27481460571289,-13.709612846374512,0.0452380180358886,-0.0,-0.0,-1.0,0.1367772491040159,1.0,1.0
40.13458251953125,-14.190608024597168,-0.0481759309768676,-0.7368471362021667,0.3780535800876607,-0.5604746099990333,0.1590398480151155,3.0,0.0
38.32186126708984,-13.533429145812988,0.0511772632598876,-0.2076198407745584,0.238762224102909,-0.94862353020478,0.1511633902411179,3.0,1.0
39.60856246948242,-13.218941688537598,0.0145305395126342,0.4853740555716801,-0.8682833130056236,-0.1024505467719783,0.1057626961519621,4.0,1.0
39.48554229736328,-12.5419282913208,0.0481022596359252,-0.0,-0.0,-1.0,0.0896433058415377,1.0,1.0
38.53996276855469,-12.287741661071776,0.0967546701431274,-0.6740826654816815,0.3564638321981079,0.6469513864516796,0.1836526365638337,6.0,1.0
39.886497497558594,-11.95769214630127,0.0553948879241943,0.1251956454847096,0.7563343078399631,-0.6420938133449897,0.1637813716792891,5.0,1.0
39.958953857421875,-14.204940795898438,-0.0072951316833496,-0.0,-0.0,-1.0,0.2785478886392989,2.0,0.0
39.636112213134766,-13.09187126159668,0.0528347492218017,0.7418562567998239,-0.6055896174204091,-0.2879418509344488,0.104772977418583,3.0,1.0
38.55828094482422,-12.387517929077148,0.1268410682678222,-0.8762400968528777,0.1292223002612588,0.4642250421750732,0.259919096981827,5.0,1.0
38.600948333740234,-12.222000122070312,0.1321508884429931,-0.0,-0.0,-1.0,0.2126751114091739,2.0,1.0
39.893741607666016,-11.944938659667969,0.0888923406600952,-0.8915008739792796,-0.1432101695541941,-0.4297872020319351,0.1589708680464258,5.0,1.0
39.44985580444336,-13.91386604309082,-0.2772222757339477,-0.0,-0.0,-1.0,0.1164340635250956,1.0,0.0
38.07830429077149,-13.142778396606444,-0.1860604286193847,-0.0,-0.0,-1.0,0.0358017883567009,2.0,0.0
38.3145637512207,-13.376296997070312,-0.2072782516479492,-0.5810226899157297,0.3008400638526633,-0.7562459188545849,0.1427435253527556,3.0,0.0
38.14826965332031,-13.071340560913086,-0.1840639114379882,-0.0,-0.0,-1.0,0.0535496777800034,2.0,0.0
39.744850158691406,-12.953750610351562,-0.2325137853622436,-0.0,-0.0,-1.0,0.1688167249105669,2.0,0.0
39.91188430786133,-12.81380844116211,-0.2307926416397094,-0.0,-0.0,-1.0,0.1130643160944701,1.0,0.0
38.408443450927734,-12.741565704345703,-0.1730986833572387,-0.0,-0.0,-1.0,0.1525347411809496,1.0,0.0
37.75894927978515,-12.59876823425293,-0.1441600322723388,-0.0,-0.0,-1.0,0.1278369725371631,1.0,0.0
37.916282653808594,-12.622211456298828,-0.150376558303833,-0.0,-0.0,-1.0,0.1840998010026938,1.0,0.0
38.89152526855469,-12.54833984375,-0.1781507730484008,-0.0,-0.0,-1.0,0.1907655954594644,1.0,0.0
38.53608703613281,-12.25827407836914,-0.1490784883499145,0.0787738915611006,-0.4869867155355274,-0.8698497645572131,0.1634372102586428,3.0,0.0
39.37655258178711,-12.385618209838867,-0.1860312223434448,0.0300570970636242,0.8068676609100844,-0.5899670742453312,0.1377085892070083,5.0,0.0
37.76828384399414,-14.345457077026367,0.060333251953125,-0.0,-0.0,-1.0,0.0940393186473718,1.0,1.0
39.85138702392578,-14.251047134399414,0.0122091770172119,0.2799549798245982,0.3535255893729329,-0.8925496439582108,0.2712974220494753,3.0,1.0
40.10248947143555,-14.237577438354492,0.0054527521133422,-0.0,-0.0,-1.0,0.189309359345058,2.0,1.0
38.25626373291016,-13.50638198852539,0.0910357236862182,-0.0,-0.0,-1.0,0.1517448125032288,2.0,1.0
38.82428741455078,-12.369373321533203,0.1330506801605224,-0.0,-0.0,-1.0,0.1442512524210515,1.0,1.0
38.56602478027344,-12.207979202270508,0.1477141380310058,0.4802239532840074,0.8020956864209513,0.3550034711339908,0.1715690720830573,3.0,1.0
37.98811340332031,-14.295867919921877,-0.0199931859970092,-0.0,-0.0,-1.0,0.0810364311219735,2.0,0.0
38.060813903808594,-13.562105178833008,0.0194641351699829,-0.0,-0.0,-1.0,0.1043435685277164,1.0,1.0
39.91603088378906,-14.191299438476562,-0.0360544919967651,0.3814185939568347,-0.2795448539427089,-0.8811211782826134,0.1987438753092192,3.0,0.0
40.19482421875,-14.178205490112305,-0.0391737222671508,0.9991578066199264,0.0332747029536701,0.0240098232772124,0.138474397655674,3.0,0.0
38.37725067138672,-13.50742530822754,0.0193564891815185,-0.0,-0.0,-1.0,0.2361879295200926,1.0,1.0
37.78779602050781,-12.87816047668457,0.0593749284744262,-0.0,-0.0,-1.0,0.1524190449689575,1.0,1.0
38.56770706176758,-12.138301849365234,0.0921127796173095,0.5018308967386318,0.8579496947984727,-0.1099457696944645,0.1910990907498715,3.0,1.0
37.71193313598633,-14.31454849243164,0.0113500356674194,-0.6968770080988171,0.6482905397706938,-0.3067275853702487,0.0925825040479602,3.0,1.0
39.75907516479492,-14.197891235351562,0.0171595811843872,0.9399429935636076,-0.3394147455810223,0.0361220062130261,0.24200545510238,3.0,1.0
39.881954193115234,-14.179351806640623,0.0178301334381103,-0.0,-0.0,-1.0,0.2721511064547343,1.0,1.0
40.04356002807617,-14.126091003417969,0.0202243328094482,-0.0,-0.0,-1.0,0.2553067315278448,1.0,1.0
38.498252868652344,-12.351476669311523,0.1190896034240722,-0.0,-0.0,-1.0,0.2043285987439288,1.0,1.0
39.568965911865234,-13.230587005615234,0.0700435638427734,-0.0,-0.0,-1.0,0.1015281948703169,1.0,1.0
39.87516021728515,-11.953845977783203,0.1382626295089721,-0.0,-0.0,-1.0,0.1417694339063483,2.0,1.0
40.195899963378906,-14.179034233093262,-0.0827918052673339,0.888018885737763,0.4552864513473666,0.064317227805498,0.1629095814580096,5.0,0.0
37.85172653198242,-14.23287296295166,-0.0627279281616211,-0.0,-0.0,-1.0,0.1041578216601775,2.0,0.0
38.042938232421875,-14.286662101745604,-0.0672699213027954,-0.0,-0.0,-1.0,0.0871114937555577,2.0,0.0
38.10844421386719,-13.681559562683104,-0.0325374603271484,-0.0,-0.0,-1.0,0.1059550314740496,2.0,0.0
38.522926330566406,-14.306685447692873,-0.0723692178726196,-0.0,-0.0,-1.0,0.0444489110059104,1.0,0.0
37.77679061889648,-12.84654712677002,0.0185739994049072,-0.0,-0.0,-1.0,0.1124512786412855,1.0,1.0
38.25645065307617,-13.525946617126465,-0.0246675014495849,-0.0,-0.0,-1.0,0.2088650258789627,2.0,0.0
39.951904296875,-14.155085563659668,-0.0784088373184204,-0.0,-0.0,-1.0,0.1831852465204004,1.0,0.0
38.60006332397461,-12.187399864196776,0.0502560138702392,-0.2010322336826612,0.0109592583881977,-0.9795233206392492,0.2149005361659511,3.0,1.0
39.67516326904297,-13.032330513000488,-0.0100511312484741,0.9104847384855668,0.0343121284244583,-0.4121167538791067,0.1622236760052575,3.0,0.0
40.07721328735352,-12.58433437347412,0.0109890699386596,-0.0,-0.0,-1.0,0.2046179871345327,2.0,1.0
37.80474853515625,-14.192835807800291,0.0132813453674316,-0.0,-0.0,-1.0,0.1080679021629023,2.0,1.0
37.9217529296875,-14.308751106262209,0.0070364475250244,-0.8857181625379008,0.2687241248725527,0.378537555946521,0.0940759212359865,5.0,1.0
38.27928161621094,-13.393095970153809,0.0598517656326293,-0.0,-0.0,-1.0,0.1532730974185117,2.0,1.0
38.59758758544922,-12.162495613098145,0.1300827264785766,-0.0,-0.0,-1.0,0.2016824165775088,2.0,1.0
39.7691764831543,-14.170018196105955,0.016214370727539,0.9399429935636076,-0.3394147455810223,0.0361220062130261,0.2598784752165013,3.0,1.0
39.599998474121094,-13.12683391571045,0.0753796100616455,-0.0,-0.0,-1.0,0.1545260498273921,2.0,1.0
39.96495819091797,-14.170632362365724,0.0158387422561645,0.7069968280259245,-0.5098254762988934,0.4901361738107974,0.2395122085962731,4.0,1.0
39.90386962890625,-11.871855735778809,0.1456656455993652,-0.0,-0.0,-1.0,0.0748264152087007,2.0,1.0
38.291629791259766,-13.403484344482422,0.1439287662506103,-0.0,-0.0,-1.0,0.1901312269543747,2.0,1.0
38.46413040161133,-12.146989822387695,0.205484390258789,-0.0,-0.0,-1.0,0.1882839089406529,1.0,1.0
38.54013442993164,-12.33771514892578,0.1909483671188354,-0.0,-0.0,-1.0,0.1794419247970243,1.0,1.0
39.58243179321289,-13.153802871704102,0.0908385515213012,-0.0,-0.0,-1.0,0.0860421978765321,2.0,1.0
39.82936096191406,-14.218425750732422,0.018221378326416,-0.0,-0.0,-1.0,0.2741189334858379,2.0,1.0
40.09099578857422,-14.164918899536133,0.0069973468780517,-0.0,-0.0,-1.0,0.2334129580949281,1.0,1.0
40.16827392578125,-12.592798233032228,0.0901983976364135,-0.0,-0.0,-1.0,0.2009559121744436,1.0,1.0
38.0688591003418,-12.085006713867188,-0.39773690700531,-0.0,-0.0,-1.0,0.0577200145203169,2.0,0.0
37.90855407714844,-12.273347854614258,-0.4053410291671753,-0.0,-0.0,-1.0,0.0437132316721306,2.0,0.0
38.289894104003906,-12.014852523803713,-0.404456615447998,-0.0,-0.0,-1.0,0.0814877296580896,2.0,0.0
38.23053359985352,-12.120389938354492,-0.4103761911392212,-0.0,-0.0,-1.0,0.0490340586232186,2.0,0.0
38.49228286743164,-12.425432205200195,0.2082374095916748,-0.0,-0.0,-1.0,0.1865732939544135,1.0,1.0
39.87939453125,-14.238563537597656,0.0259385108947753,0.483848646170421,-0.1344853442640563,-0.864756717104429,0.2789897130126442,3.0,1.0
39.84092712402344,-14.341312408447266,0.0227818489074707,-0.0,-0.0,-1.0,0.1313731273495535,1.0,1.0
40.128944396972656,-14.304533004760742,0.0068399906158447,-0.0,-0.0,-1.0,0.1454433739277997,2.0,1.0
37.803707122802734,-12.64140510559082,-0.332939863204956,-0.0,-0.0,-1.0,0.1213768741424047,1.0,0.0
38.15777969360352,-12.64931297302246,-0.3516649007797241,-0.8157910225312353,0.0475394418154257,-0.5763896329995178,0.0546845335929857,4.0,0.0
38.528167724609375,-12.196670532226562,-0.3305611610412597,-0.0,-0.0,-1.0,0.1804086322004014,2.0,0.0
38.427974700927734,-12.397575378417969,-0.3432238101959228,-0.0,-0.0,-1.0,0.1817468194025516,2.0,0.0
39.16640853881836,-11.873844146728516,-0.3368779420852661,-0.0,-0.0,-1.0,0.0468707314983852,1.0,0.0
38.387107849121094,-12.172574996948242,0.296667993068695,-0.0,-0.0,-1.0,0.1421069114057938,2.0,1.0
38.51619720458984,-12.361900329589844,0.2796122431755066,-0.0,-0.0,-1.0,0.1371884131813453,2.0,1.0
38.828819274902344,-12.385076522827148,0.2618592977523803,-0.0781086019918723,-0.8182630371446761,-0.5695126410692266,0.1340939888162316,3.0,1.0
39.57136917114258,-13.044113159179688,0.1857085227966308,-0.0,-0.0,-1.0,0.1108719391156103,1.0,1.0
39.776607513427734,-14.27263069152832,0.107580542564392,-0.0,-0.0,-1.0,0.231918380858546,2.0,1.0
39.81196975708008,-11.890039443969728,0.2349704504013061,-0.0,-0.0,-1.0,0.1075196816228692,2.0,1.0
40.01870346069336,-14.251646041870115,0.0951757431030273,-0.1781822851556729,0.8997096625879645,-0.3984640464365063,0.1980749306433497,3.0,1.0
40.00152587890625,-11.93537139892578,0.2217953205108642,-0.0,-0.0,-1.0,0.0843311634358264,2.0,1.0
37.7281608581543,-12.637453079223633,-0.3306707143783569,-0.0,-0.0,-1.0,0.1048495444245789,1.0,0.0
38.01308822631836,-12.663232803344728,-0.3445347547531128,-0.0,-0.0,-1.0,0.0913339269542897,2.0,0.0
38.501556396484375,-12.262947082519531,-0.3270772695541382,-0.0,-0.0,-1.0,0.2259705163735958,1.0,0.0
38.353370666503906,-12.549158096313477,-0.3478370904922485,-0.0,-0.0,-1.0,0.094269213605018,1.0,0.0
38.58065414428711,-12.110239028930664,-0.3160542249679565,0.1173079595435958,-0.3963263069566555,-0.9105845930180329,0.1665899011262424,3.0,0.0
39.06642150878906,-11.864418029785156,-0.3146253824234009,-0.0,-0.0,-1.0,0.0757914621603758,1.0,0.0
39.13243865966797,-12.029518127441406,-0.3333350419998169,-0.0,-0.0,-1.0,0.0316835415501341,2.0,0.0
38.500205993652344,-12.379972457885742,0.2526956796646118,-0.0,-0.0,-1.0,0.1596257054774343,2.0,1.0
39.720584869384766,-11.957143783569336,0.2234636545181274,-0.0,-0.0,-1.0,0.1007585063811593,1.0,1.0
39.52853012084961,-13.321859359741213,0.1512452363967895,-0.0,-0.0,-1.0,0.0955672418856473,2.0,1.0
39.724361419677734,-14.318157196044922,0.0830709934234619,-0.0,-0.0,-1.0,0.1657618414510392,2.0,1.0
39.9531364440918,-11.94708251953125,0.2131520509719848,-0.0,-0.0,-1.0,0.120403674619881,1.0,1.0
40.04801559448242,-14.256231307983398,0.0717148780822753,-0.0,-0.0,-1.0,0.2359812636044546,2.0,1.0
37.86399459838867,-12.359909057617188,-0.3960144519805908,-0.0,-0.0,-1.0,0.0608966941531728,1.0,0.0
38.194602966308594,-12.123186111450195,-0.3843092918395996,-0.0,-0.0,-1.0,0.0490340586232186,2.0,0.0
38.18032455444336,-12.22144889831543,-0.3943628072738647,-0.0,-0.0,-1.0,0.0440998453065334,1.0,0.0
38.266143798828125,-13.590618133544922,0.0454044342041015,-0.0,-0.0,-1.0,0.106895714007393,2.0,1.0
38.56477355957031,-12.340204238891602,0.1245536804199218,-0.9427131098297789,0.1439139469990624,0.3009663908382772,0.2403370653707897,3.0,1.0
39.56964874267578,-13.244256973266602,0.0077711343765258,0.971013440561885,-0.2275889076265815,-0.0730492119978725,0.1213692041584947,5.0,1.0
39.788543701171875,-14.343692779541016,-0.0851761102676391,-0.0,-0.0,-1.0,0.1440604424422419,1.0,0.0
39.978179931640625,-12.04425048828125,0.0747895240783691,-0.0,-0.0,-1.0,0.1401194200032711,1.0,1.0
39.9736442565918,-14.256290435791016,-0.0885833501815795,0.7883567318216045,0.3027618122077984,-0.5355641403792907,0.2315700485397566,3.0,0.0
40.03007507324219,-14.320507049560549,-0.0963832139968872,0.3217497899615203,0.9442299551013752,0.0700490153319263,0.1862124550346906,3.0,0.0
40.20405197143555,-12.682954788208008,0.015126347541809,-0.0,-0.0,-1.0,0.1580235497005372,1.0,1.0
40.18292236328125,-12.751083374023438,0.0112522840499877,-0.0,-0.0,-1.0,0.1375132987879243,2.0,1.0
38.44486999511719,-12.489561080932615,0.670784056186676,-0.0,-0.0,-1.0,0.1188643391136435,2.0,1.0
39.64515686035156,-14.134931564331056,0.548612117767334,-0.0,-0.0,-1.0,0.104935365777595,1.0,1.0
37.76625061035156,-12.749576568603516,-0.2404307126998901,-0.0,-0.0,-1.0,0.1067926365056177,1.0,0.0
37.98292541503906,-13.04238510131836,-0.2771689891815185,-0.0,-0.0,-1.0,0.0452320643827416,1.0,0.0
38.167728424072266,-12.999820709228516,-0.2781227827072143,0.7757982130636767,-0.0262175844578099,-0.6304361750981646,0.0547253597935487,3.0,0.0
38.45147705078125,-12.24521255493164,-0.2074548006057739,0.1389953982051038,-0.2435929036694971,-0.9598660201088838,0.1963238947789004,3.0,0.0
38.44219970703125,-12.56157684326172,-0.240469217300415,-0.0,-0.0,-1.0,0.1564925315464982,1.0,0.0
38.94233703613281,-12.64397430419922,-0.2663735151290893,-0.0,-0.0,-1.0,0.0844171179720824,1.0,0.0
39.08872604370117,-12.98056983947754,-0.3071898221969604,-0.0,-0.0,-1.0,0.060075365789585,2.0,0.0
39.3543701171875,-12.29240608215332,-0.2449384927749633,-0.0,-0.0,-1.0,0.1064562769794621,2.0,0.0
39.403682708740234,-12.453695297241213,-0.263978362083435,-0.0,-0.0,-1.0,0.1847285709446078,1.0,0.0
39.698123931884766,-12.612030029296877,-0.2927957773208618,-0.0,-0.0,-1.0,0.0484500733002122,2.0,0.0
39.9110221862793,-12.730585098266602,-0.3145149946212768,-0.0,-0.0,-1.0,0.120890312181833,1.0,0.0
40.09490585327149,-11.930002212524414,-0.2388054132461547,-0.0,-0.0,-1.0,0.1291945175644968,1.0,0.0
38.41305923461914,-12.33803939819336,0.2937511205673218,-0.0,-0.0,-1.0,0.12135703649303,1.0,1.0
38.52719497680664,-12.504913330078123,0.2782515287399292,-0.0,-0.0,-1.0,0.2192095861019546,1.0,1.0
39.56993865966797,-13.282501220703123,0.1856396198272705,-0.0,-0.0,-1.0,0.1042731951831622,2.0,1.0
39.70159149169922,-14.343320846557615,0.1060293912887573,-0.0,-0.0,-1.0,0.1955460981954235,2.0,1.0
39.84579849243164,-11.945060729980469,0.2681868076324463,-0.0,-0.0,-1.0,0.107320246118677,2.0,1.0
38.048152923583984,-12.526963233947754,-0.354159951210022,-0.0,-0.0,-1.0,0.0733780542458524,1.0,0.0
38.461090087890625,-12.16371726989746,-0.326043963432312,-0.0,-0.0,-1.0,0.1850189804133725,1.0,0.0
38.353946685791016,-12.456547737121582,-0.3580912351608276,-0.0,-0.0,-1.0,0.0852494535566794,2.0,0.0
37.82360076904297,-14.353711128234863,-0.0291972160339355,-0.0,-0.0,-1.0,0.0965681723341839,1.0,0.0
38.269554138183594,-13.50706958770752,0.0277167558670043,-0.0,-0.0,-1.0,0.1694435381985282,1.0,1.0
38.20642852783203,-13.717225074768066,0.0115809440612792,-0.0,-0.0,-1.0,0.1776916034303258,2.0,1.0
38.429351806640625,-11.927002906799316,-0.2949050664901733,-0.0,-0.0,-1.0,0.1686474083034262,1.0,0.0
39.14966583251953,-11.937583923339844,-0.3301644325256347,-0.0,-0.0,-1.0,0.0499828094471624,1.0,0.0
39.59638977050781,-13.145087242126465,-0.0040500164031982,0.0415500023026985,0.7628158009387151,-0.6452795139680728,0.1737740846471201,4.0,0.0
39.90533447265625,-14.282772064208984,-0.1231524944305419,0.7668532266299102,-0.4973578406852958,-0.4056738925740175,0.1959800806149532,5.0,0.0
40.134674072265625,-12.747498512268066,0.0024768114089965,-0.0,-0.0,-1.0,0.1377682489107482,2.0,1.0
40.19224166870117,-14.204463005065918,-0.1318546533584594,0.7925969100224317,0.4752429323663957,-0.3820134728758699,0.1812478490199562,3.0,0.0
38.54737091064453,-12.254756927490234,0.1280593872070312,0.2779132157832432,0.6277016463580852,-0.7271553394236787,0.1668199033240991,3.0,1.0
38.47126388549805,-12.401427268981934,0.1183118820190429,-0.0,-0.0,-1.0,0.1545122972020381,1.0,1.0
39.45195007324219,-12.407112121582031,0.0700728893280029,-0.0,-0.0,-1.0,0.0837865926987377,2.0,1.0
40.172325134277344,-12.63380241394043,0.0106184482574462,-0.0,-0.0,-1.0,0.2132151487030518,2.0,1.0
39.674354553222656,-13.986220359802246,0.4435818791389465,-0.0,-0.0,-1.0,0.0550823055188238,2.0,1.0
37.90470886230469,-13.354178428649902,-0.2203725576400756,-0.0,-0.0,-1.0,0.0200484603035299,2.0,0.0
38.106929779052734,-13.164362907409668,-0.1998848915100097,-0.2550250450534383,0.2585392065997201,-0.931729416218185,0.0345964233323264,3.0,0.0
38.37126159667969,-13.728257179260254,-0.2656570672988891,-0.0,-0.0,-1.0,0.0875250507803826,1.0,0.0
38.670162200927734,-13.464395523071287,-0.2386108636856079,-0.0,-0.0,-1.0,0.0680353254312252,1.0,0.0
38.56172180175781,-13.749390602111816,-0.2698239088058471,-0.0,-0.0,-1.0,0.0600522975004736,1.0,0.0
38.93208694458008,-13.17716121673584,-0.2091817855834961,-0.0,-0.0,-1.0,0.0535746616646242,2.0,0.0
39.044063568115234,-13.546180725097656,-0.2526576519012451,-0.0,-0.0,-1.0,0.0534945356650172,1.0,0.0
39.13728713989258,-13.904074668884276,-0.2947299480438232,-0.0,-0.0,-1.0,0.0455176855090984,1.0,0.0
39.401153564453125,-13.946734428405762,-0.3039624691009521,-0.0,-0.0,-1.0,0.1220831873487609,1.0,0.0
39.68839263916016,-13.172802925109863,-0.2214468717575073,-0.0,-0.0,-1.0,0.186310978351939,1.0,0.0
39.67440032958984,-13.958929061889648,-0.3104432821273803,-0.0,-0.0,-1.0,0.1239785334829692,1.0,0.0
39.779781341552734,-14.19705867767334,-0.3396403789520263,-0.0,-0.0,-1.0,0.1298181485808469,1.0,0.0
40.14473342895508,-14.094680786132812,-0.3362363576889038,-0.0,-0.0,-1.0,0.2332833578519727,2.0,0.0
37.74693298339844,-12.852885246276855,-0.1632709503173828,-0.0,-0.0,-1.0,0.1295538839180899,2.0,0.0
38.41106796264648,-11.966768264770508,-0.0661461353302002,-0.0,-0.0,-1.0,0.1099208146558284,1.0,0.0
38.53660583496094,-12.33644962310791,-0.1091721057891845,-0.4781268450297282,-0.7573322757566447,0.4447949461933886,0.2001719047429984,5.0,0.0
38.79407501220703,-12.413156509399414,-0.1206011772155761,-0.0,-0.0,-1.0,0.2262113432445951,1.0,0.0
38.89748001098633,-12.682690620422363,-0.1525324583053589,-0.0,-0.0,-1.0,0.0916757204021285,2.0,0.0
38.91417694091797,-12.924643516540527,-0.1802250146865844,-0.0,-0.0,-1.0,0.0326263435823905,1.0,0.0
39.9445915222168,-12.824872016906738,-0.1875209808349609,-0.0,-0.0,-1.0,0.1301830279901,2.0,0.0
39.791744232177734,-12.967008590698242,-0.200250506401062,-0.0,-0.0,-1.0,0.1393403839214079,1.0,0.0
39.89221954345703,-14.319540023803713,0.147925853729248,-0.0,-0.0,-1.0,0.1305727290385436,1.0,1.0
40.175926208496094,-12.666412353515623,-0.1751563549041748,-0.0,-0.0,-1.0,0.1687525935730864,1.0,0.0
40.1595344543457,-13.894815444946287,0.1756887435913086,-0.0,-0.0,-1.0,0.1473401371720094,1.0,1.0
38.34129333496094,-12.134053230285645,0.3424460887908935,-0.0,-0.0,-1.0,0.2488013484871004,1.0,1.0
38.502418518066406,-12.259050369262695,0.3310117721557617,0.4365941812406652,0.4637544674563389,-0.770919784945931,0.22851220978007,4.0,1.0
38.48905563354492,-12.50029182434082,0.3122934103012085,-0.0,-0.0,-1.0,0.1950746093566717,1.0,1.0
39.766963958740234,-11.97603988647461,0.3339992761611938,-0.55527598895333,0.746540544723929,0.3665321147937803,0.1112382007197048,3.0,1.0
37.856502532958984,-12.115212440490724,-0.4255216121673584,-0.0,-0.0,-1.0,0.0396844262184423,1.0,0.0
38.36522674560547,-11.929844856262209,-0.3987829685211181,-0.0,-0.0,-1.0,0.1092376451248308,1.0,0.0
38.14017868041992,-12.048827171325684,-0.4157470464706421,-0.0,-0.0,-1.0,0.0282464520089309,1.0,0.0
37.91346740722656,-13.800201416015623,-0.2115719318389892,-0.0,-0.0,-1.0,0.0672245875090799,1.0,0.0
38.63981246948242,-13.958955764770508,-0.2355948686599731,-0.0,-0.0,-1.0,0.0403287036009914,1.0,0.0
39.17037582397461,-13.86681842803955,-0.2322715520858764,-0.0,-0.0,-1.0,0.0573650291776734,1.0,0.0
39.07781982421875,-13.98546314239502,-0.244490385055542,-0.0,-0.0,-1.0,0.0433336029823921,1.0,0.0
39.40747833251953,-13.849807739257812,-0.2344763278961181,-0.0,-0.0,-1.0,0.1045896256503212,1.0,0.0
39.81453704833984,-14.237200736999512,-0.2873226404190063,-0.0,-0.0,-1.0,0.1298878065747911,1.0,0.0
40.13269805908203,-14.22146987915039,-0.2929708957672119,-0.0,-0.0,-1.0,0.1869885192820855,2.0,0.0
37.724090576171875,-12.80724048614502,-0.0971035957336425,-0.0,-0.0,-1.0,0.1000717489949546,1.0,0.0
37.94163131713867,-13.46172046661377,-0.1728984117507934,-0.0,-0.0,-1.0,0.0675962690470727,1.0,0.0
38.544403076171875,-12.343111038208008,-0.0484580993652343,0.0880337327180115,-0.851645933390247,-0.5166713327092849,0.1794938321327439,4.0,0.0
38.251487731933594,-13.531634330749512,-0.1827526092529297,-0.0,-0.0,-1.0,0.1974589822262157,1.0,0.0
38.8070182800293,-12.461332321166992,-0.0650175809860229,-0.0,-0.0,-1.0,0.1675612539753303,1.0,0.0
38.901214599609375,-13.256675720214844,-0.1579219102859497,-0.466212843313931,-0.7784857107839985,-0.42024467020329,0.0501501344130646,3.0,0.0
39.19744491577149,-12.531176567077637,-0.0787813663482666,-0.0,-0.0,-1.0,0.089839219488108,1.0,0.0
39.684085845947266,-13.189950942993164,-0.163935899734497,-0.0191245382348044,-0.1497052582362018,-0.9885456932756006,0.1256063916457336,3.0,0.0
39.64044189453125,-13.190244674682615,-0.1630470752716064,-0.017073232018021,0.8242617416461736,-0.5659514873263213,0.2111607101758852,3.0,0.0
40.13438034057617,-12.690142631530762,-0.1172400712966919,-0.0,-0.0,-1.0,0.1294432976784525,1.0,0.0
38.53063201904297,-12.250751495361328,0.3695963621139526,-0.7043934960908015,0.5949695046307278,0.3870931299111938,0.2413733082728783,3.0,1.0
40.176231384277344,-14.303768157958984,0.1776500940322876,-0.0,-0.0,-1.0,0.2215077227830262,1.0,1.0
38.200294494628906,-11.988469123840332,-0.4530971050262451,-0.0,-0.0,-1.0,0.0404987817801676,1.0,0.0
38.460453033447266,-11.92310619354248,-0.0686424970626831,-0.0,-0.0,-1.0,0.1123250492946129,1.0,0.0
38.37934494018555,-12.115317344665527,-0.0913711786270141,-0.0,-0.0,-1.0,0.1374218591403123,1.0,0.0
37.74876403808594,-12.814690589904783,-0.1682673692703247,-0.0,-0.0,-1.0,0.0978419109183784,2.0,0.0
38.545196533203125,-12.344436645507812,-0.1249266862869262,-0.2865077687874112,-0.7132914667649557,0.639631598550883,0.195462928377813,4.0,0.0
38.1418571472168,-13.024495124816896,-0.2027128934860229,-0.0,-0.0,-1.0,0.0562586536515402,1.0,0.0
37.91563415527344,-13.310933113098145,-0.2348229885101318,-0.0,-0.0,-1.0,0.0204660418511885,2.0,0.0
38.84193420410156,-12.542096138000488,-0.158338189125061,-0.0,-0.0,-1.0,0.172145075421874,1.0,0.0
38.48329162597656,-13.354344367980955,-0.2529425621032715,-0.0,-0.0,-1.0,0.0572764620967658,1.0,0.0
39.43924331665039,-12.432916641235352,-0.1633868217468261,-0.0,-0.0,-1.0,0.2579531805076792,2.0,0.0
39.30244064331055,-12.489532470703123,-0.1659209728240966,-0.0,-0.0,-1.0,0.2254111656577994,1.0,0.0
38.97985076904297,-12.91860580444336,-0.2107012271881103,-0.0,-0.0,-1.0,0.0318258836441839,1.0,0.0
38.77756118774414,-13.312792778015137,-0.2554184198379516,-0.0,-0.0,-1.0,0.0498838713127547,1.0,0.0
39.698028564453125,-12.993878364562988,-0.2447257041931152,-0.0,-0.0,-1.0,0.1841521192615101,2.0,0.0
39.50371551513672,-13.292381286621094,-0.2758668661117553,-0.0,-0.0,-1.0,0.2241091257081212,1.0,0.0
39.208003997802734,-13.588312149047852,-0.3037989139556885,-0.0,-0.0,-1.0,0.0578771680904163,1.0,0.0
39.85421371459961,-12.910551071166992,-0.2400565147399902,-0.0,-0.0,-1.0,0.157474220722923,2.0,0.0
40.17099380493164,-13.72045612335205,-0.3563981056213379,-0.0,-0.0,-1.0,0.1262577490050488,1.0,0.0
38.585262298583984,-12.341143608093262,0.2652328014373779,-0.967566386901272,0.1141681794731417,0.2253462086093451,0.2171969312994292,3.0,1.0
40.01061248779297,-11.912914276123049,0.2594058513641357,-0.322098816633026,0.8450591900658371,-0.4267637726059652,0.0966695132910055,3.0,1.0
39.937870025634766,-11.934367179870604,0.2601490020751953,0.6855597531007062,0.659568950032785,-0.3081827786900951,0.1021277207760266,3.0,1.0
39.58413314819336,-13.277351379394531,0.1481579542160034,-0.0,-0.0,-1.0,0.1133703758517421,2.0,1.0
39.66911315917969,-13.297572135925291,0.1433916091918945,-0.1837942628927501,-0.1338186044456961,-0.9738132521340612,0.1133703758517421,3.0,1.0
39.90143966674805,-14.277762413024902,0.0443693399429321,-0.0,-0.0,-1.0,0.2248711754932391,2.0,1.0
40.10792922973633,-14.289756774902344,0.0358080863952636,0.4327681563742508,0.8905228831537936,-0.1402879802687548,0.1589068042868512,3.0,1.0
38.520240783691406,-12.432741165161133,0.6498467922210693,-0.4574857516042403,-0.3282927080395777,-0.8263962033595894,0.1016145590796567,5.0,1.0
39.694488525390625,-14.116621971130373,0.5183382034301758,-0.0,-0.0,-1.0,0.0890521771283225,2.0,1.0
37.80051040649414,-12.42289924621582,-0.4049545526504516,-0.0,-0.0,-1.0,0.0952160329034377,2.0,0.0
38.2808952331543,-12.299919128417969,-0.3997464179992676,-0.0,-0.0,-1.0,0.0562624494290017,1.0,0.0
38.07241439819336,-12.248590469360352,-0.3842800855636596,-0.0,-0.0,-1.0,0.0479317712286282,2.0,0.0
37.845462799072266,-12.225902557373049,-0.1949056386947631,-0.0,-0.0,-1.0,0.0537224689842276,1.0,0.0
38.515750885009766,-11.930131912231444,-0.3475416898727417,-0.0,-0.0,-1.0,0.1478501882371628,1.0,0.0
38.34922409057617,-12.230789184570312,-0.2116961479187011,-0.0,-0.0,-1.0,0.1718356531749643,1.0,0.0
37.81023406982422,-12.898273468017578,-0.1014281511306762,-0.0,-0.0,-1.0,0.2034498404888313,1.0,0.0
38.69276428222656,-12.42987823486328,-0.0711824893951416,-0.0,-0.0,-1.0,0.1632746773723927,1.0,0.0
38.08000564575195,-13.474634170532228,-0.1841973066329956,-0.0,-0.0,-1.0,0.083515124024288,1.0,0.0
37.94330978393555,-13.755653381347656,-0.2161241769790649,-0.0,-0.0,-1.0,0.0741322924453886,1.0,0.0
39.2397346496582,-12.599857330322266,-0.1163103580474853,-0.0,-0.0,-1.0,0.126042407289715,1.0,0.0
38.45981216430664,-13.48207664489746,-0.1981076002120971,-0.0,-0.0,-1.0,0.1634721524225885,1.0,0.0
38.34424591064453,-13.661968231201172,-0.217231273651123,-0.0,-0.0,-1.0,0.1890126358721097,1.0,0.0
37.938446044921875,-13.99867820739746,-0.2473510503768921,-0.0,-0.0,-1.0,0.0505064663295375,1.0,0.0
39.84223556518555,-12.02208137512207,-0.0722792148590087,-0.8715463681456053,0.4661726236952448,0.1519539834597861,0.140108586810626,3.0,0.0
39.366111755371094,-13.088663101196287,-0.1849614381790161,-0.0,-0.0,-1.0,0.1264914256752884,1.0,0.0
38.95306396484375,-13.216650009155272,-0.1831574440002441,-0.0,-0.0,-1.0,0.0506337594082012,1.0,0.0
38.79945373535156,-13.59442901611328,-0.225576639175415,-0.0,-0.0,-1.0,0.0532960483407974,1.0,0.0
38.69965744018555,-13.86176300048828,-0.256151795387268,-0.0,-0.0,-1.0,0.0318204600408055,1.0,0.0
40.187965393066406,-12.72231674194336,-0.1804267168045044,-0.0,-0.0,-1.0,0.2043105902050998,1.0,0.0
39.85437774658203,-12.892112731933594,-0.1839332580566406,-0.0,-0.0,-1.0,0.1426292909637367,2.0,0.0
39.750919342041016,-13.089410781860352,-0.2038313150405883,-0.0,-0.0,-1.0,0.1127795408116269,2.0,0.0
39.08452606201172,-13.896644592285156,-0.2763335704803467,-0.0,-0.0,-1.0,0.0518516669962631,1.0,0.0
39.18212127685547,-14.078720092773438,-0.3040041923522949,-0.0,-0.0,-1.0,0.0492307529676991,1.0,0.0
39.53361129760742,-13.949317932128906,-0.3034782409667969,-0.0,-0.0,-1.0,0.1325296766171642,1.0,0.0
39.2682991027832,-14.10738754272461,-0.3114858865737915,-0.0,-0.0,-1.0,0.0977551643656517,1.0,0.0
40.2020378112793,-13.971929550170898,-0.340232253074646,-0.0,-0.0,-1.0,0.1488147501718353,1.0,0.0
39.886260986328125,-14.032407760620115,-0.331328272819519,-0.0,-0.0,-1.0,0.2234803515664417,1.0,0.0
38.42072677612305,-12.177606582641602,0.3249253630638122,-0.0,-0.0,-1.0,0.1597264151866812,2.0,1.0
38.86924743652344,-12.408540725708008,0.2866856455802917,-0.0,-0.0,-1.0,0.1302352286496718,2.0,1.0
39.76985168457031,-11.952508926391602,0.290446937084198,-0.55527598895333,0.746540544723929,0.3665321147937803,0.1075196816228692,3.0,1.0
39.886512756347656,-11.951269149780272,0.2849927544593811,0.4025768016011337,0.3462062200788267,-0.84739198249177,0.107320246118677,3.0,1.0
39.8192024230957,-12.039098739624023,0.2800889015197754,-0.0,-0.0,-1.0,0.1155110968300311,1.0,1.0
39.55867004394531,-13.157106399536133,0.1881245374679565,-0.0,-0.0,-1.0,0.0953698629668671,1.0,1.0
39.94884490966797,-14.279821395874023,0.0661346912384033,-0.3449590165075166,-0.7364587737109709,-0.5819207433614126,0.2218797483930845,3.0,1.0
38.453121185302734,-12.448734283447266,0.658816933631897,0.9302693580752056,-0.2629902998489467,-0.2558027044651913,0.1369564399524757,3.0,1.0
39.67365646362305,-14.170783996582031,0.5128955245018005,-0.0,-0.0,-1.0,0.1343147065293463,2.0,1.0
38.25428771972656,-11.88514518737793,-0.4624984264373779,-0.0,-0.0,-1.0,0.1059705009951845,1.0,0.0
38.14767074584961,-12.965526580810549,-0.3042314052581787,0.7757982130636767,-0.0262175844578099,-0.6304361750981646,0.0507107240855851,3.0,0.0
40.04436492919922,-12.728879928588867,-0.3430126905441284,-0.0,-0.0,-1.0,0.1474712540609565,1.0,0.0
38.37343978881836,-12.004213333129885,-0.1592034101486206,-0.0,-0.0,-1.0,0.2119908110691402,1.0,0.0
37.72827911376953,-12.67325210571289,-0.249094009399414,-0.0,-0.0,-1.0,0.1133294099038583,2.0,0.0
38.54302215576172,-12.362554550170898,-0.2207163572311401,0.8244869492169096,-0.5132937291654721,0.2382243022245965,0.2257978406053028,3.0,0.0
37.87288284301758,-12.699258804321287,-0.0811520814895629,-0.0,-0.0,-1.0,0.1974880868907523,1.0,0.0
38.843406677246094,-12.60256576538086,-0.2686396837234497,-0.0,-0.0,-1.0,0.186861681627772,2.0,0.0
38.47044372558594,-12.789512634277344,-0.2856534719467163,-0.0,-0.0,-1.0,0.0666362215141141,1.0,0.0
38.22870635986328,-12.917512893676758,-0.2987518310546875,-0.0,-0.0,-1.0,0.0510637893071464,1.0,0.0
39.84366989135742,-12.015504837036133,-0.2226955890655517,-0.0,-0.0,-1.0,0.1824001787899632,1.0,0.0
39.46335220336914,-12.309648513793944,-0.2488237619400024,-0.0,-0.0,-1.0,0.0783305696990265,1.0,0.0
39.334083557128906,-12.422027587890623,-0.260405421257019,-0.0,-0.0,-1.0,0.1070165398663113,1.0,0.0
39.12608337402344,-12.78057098388672,-0.3072770833969116,-0.0,-0.0,-1.0,0.0624686123657592,1.0,0.0
38.33243560791016,-13.47446060180664,-0.0107334852218627,-0.0,-0.0,-1.0,0.1743414917298504,1.0,0.0
38.19120407104492,-13.60101318359375,-0.0226906538009643,-0.0,-0.0,-1.0,0.1126631588329049,1.0,0.0
38.03741836547851,-14.0068359375,-0.0686995983123779,-0.0,-0.0,-1.0,0.072697849429024,1.0,0.0
39.9563102722168,-12.623743057250977,-0.142723798751831,-0.0,-0.0,-1.0,0.1951114524130379,1.0,0.0
39.633506774902344,-12.845701217651367,-0.1546055078506469,-0.0,-0.0,-1.0,0.1207707831989427,1.0,0.0
38.120487213134766,-14.226320266723633,-0.097348928451538,-0.0,-0.0,-1.0,0.0664262245155905,1.0,0.0
39.582767486572266,-13.23073387145996,-0.0219807624816894,-0.3391762411764821,0.6646965110836525,-0.6656861314272766,0.1138236779629729,4.0,0.0
40.18732833862305,-14.138763427734377,-0.1560848951339721,0.7067443183412598,-0.5670180564867643,-0.4230874520832785,0.2461653594429526,5.0,0.0
39.904518127441406,-14.27043914794922,-0.159752607345581,0.3331157422029671,-0.910431644448686,-0.2452511428781285,0.1846627189899262,4.0,0.0
38.60301208496094,-12.264474868774414,0.2956403493881225,0.3172173664699189,0.5979458167154897,-0.7360937050962567,0.1879411463471511,5.0,1.0
38.80758285522461,-12.38344383239746,0.446394145488739,-0.0,-0.0,-1.0,0.1890792598061106,1.0,1.0
39.86905670166016,-11.968408584594728,0.1163657903671264,-0.7770065472948142,0.6020562350084467,-0.1838181583751864,0.1394788074918345,3.0,1.0
39.47956085205078,-12.3770751953125,0.0845342874526977,0.7408709211522276,-0.434401935866484,-0.5122550500546591,0.0823195074761092,3.0,1.0
39.74568176269531,-14.234380722045898,0.2588896751403808,-0.0,-0.0,-1.0,0.1276247793403865,1.0,1.0
38.31695556640625,-11.884800910949709,-0.4583625793457031,-0.0,-0.0,-1.0,0.1084324219439982,1.0,0.0
38.527069091796875,-12.391148567199709,-0.2271138429641723,-0.0,-0.0,-1.0,0.1638837370499663,2.0,0.0
37.79426956176758,-12.79258632659912,-0.1060501337051391,-0.0,-0.0,-1.0,0.119905371222854,2.0,0.0
38.50142288208008,-12.598859786987305,-0.2597686052322387,-0.0,-0.0,-1.0,0.1225182632017604,1.0,0.0
38.32524871826172,-12.84257984161377,-0.2954063415527344,-0.0,-0.0,-1.0,0.0658587752954111,1.0,0.0
38.10174560546875,-12.910536766052246,-0.3026692867279053,-0.0,-0.0,-1.0,0.0581372093196523,2.0,0.0
38.244415283203125,-13.57392120361328,-0.0386584997177124,-0.0,-0.0,-1.0,0.1860518098836283,2.0,0.0
38.352821350097656,-13.983501434326172,-0.091232419013977,-0.0,-0.0,-1.0,0.0815468085941308,1.0,0.0
38.03862380981445,-14.069002151489258,-0.0981727838516235,-0.0,-0.0,-1.0,0.0663575202743837,1.0,0.0
37.78033828735352,-14.177392959594728,-0.1095045804977417,-0.0,-0.0,-1.0,0.0943569195300246,2.0,0.0
38.47124481201172,-14.240874290466309,-0.1250596046447754,-0.0,-0.0,-1.0,0.0458762199072053,2.0,0.0
38.1974983215332,-14.279922485351562,-0.1263433694839477,-0.0,-0.0,-1.0,0.0518700130327003,1.0,0.0
38.54161071777344,-12.380549430847168,0.1056396961212158,-0.7417978938562179,-0.5318982875443915,0.4084361594886324,0.1968726431363567,3.0,1.0
37.81005096435547,-12.79146671295166,0.0638496875762939,-0.0,-0.0,-1.0,0.1108965380342597,1.0,1.0
38.627437591552734,-14.31240940093994,0.4600430130958557,-0.0,-0.0,-1.0,0.1127502860971552,1.0,1.0
39.90958023071289,-12.002037048339844,0.0757644176483154,-0.0,-0.0,-1.0,0.1594183568795066,1.0,1.0
38.83272171020508,-12.021387100219728,-0.1275498867034912,-0.0,-0.0,-1.0,0.1571204642315492,1.0,0.0
39.01107406616211,-12.04575252532959,-0.1623905897140503,-0.0,-0.0,-1.0,0.0895418987503006,1.0,0.0
38.82734680175781,-12.194375991821287,-0.129307746887207,-0.0,-0.0,-1.0,0.2154690756621468,2.0,0.0
38.56656265258789,-12.133837699890137,-0.0781342983245849,-0.0,-0.0,-1.0,0.1609848679075714,1.0,0.0
39.42607498168945,-12.224523544311523,0.104501724243164,-0.0,-0.0,-1.0,0.0846966390807135,1.0,1.0
40.127777099609375,-12.519115447998049,-0.0092276334762573,-0.0,-0.0,-1.0,0.2082483097532935,1.0,0.0
39.923851013183594,-12.639580726623535,0.0250767469406127,-0.0,-0.0,-1.0,0.1000088224227701,1.0,1.0
38.40257263183594,-13.308385848999023,0.2773387432098388,-0.0,-0.0,-1.0,0.1972361050470783,1.0,1.0
39.83025741577149,-11.901984214782717,0.3879517316818237,-0.0,-0.0,-1.0,0.107320246118677,1.0,1.0
38.91444396972656,-12.077787399291992,-0.3260213136672973,-0.0,-0.0,-1.0,0.1177277963930277,1.0,0.0
38.83556365966797,-12.134207725524902,0.4370152354240417,-0.0,-0.0,-1.0,0.2342256626278925,1.0,1.0
38.85431671142578,-12.186848640441896,-0.1238991022109985,-0.0,-0.0,-1.0,0.1887937537809254,2.0,0.0
38.761741638183594,-12.274455070495604,-0.1091984510421752,-0.0,-0.0,-1.0,0.1495032280429393,1.0,0.0
40.1439208984375,-14.149670600891112,-0.1650495529174804,-0.1370019303977946,-0.315776100701969,-0.9388907951901212,0.1939933758869744,5.0,0.0
38.58269500732422,-12.055852890014648,0.2903865575790405,-0.0,-0.0,-1.0,0.2042883948806309,1.0,1.0
38.74598693847656,-12.36396598815918,-0.143486738204956,-0.0,-0.0,-1.0,0.1840512122458932,1.0,0.0
38.612579345703125,-12.277737617492676,0.3067247867584228,-0.0225031344183785,0.9988763707998152,-0.0417085698524743,0.1757221300183125,4.0,1.0
39.96688079833984,-14.322975158691406,-0.1277073621749878,0.797306320817948,-0.0705368171226447,-0.5994390613014421,0.1721861029713887,3.0,0.0
38.54634094238281,-12.345718383789062,-0.0478366613388061,0.0880337327180115,-0.851645933390247,-0.5166713327092849,0.1794938321327439,4.0,0.0
38.817115783691406,-12.40052604675293,-0.0688248872756958,-0.0,-0.0,-1.0,0.2285597487169299,2.0,0.0
39.98490905761719,-14.339533805847168,-0.0484520196914672,-0.0,-0.0,-1.0,0.1641412882187689,2.0,0.0
38.66732406616211,-12.352944374084473,0.0260859727859497,-0.0,-0.0,-1.0,0.128743313799311,2.0,1.0
39.65550231933594,-13.171759605407717,-0.0407099723815918,0.9050754207703052,0.2101047674285879,-0.3697221516507136,0.1256117235762548,4.0,0.0
39.72796630859375,-14.154772758483888,0.3702962398529053,-0.0,-0.0,-1.0,0.1217643057643895,1.0,1.0
39.79119491577149,-11.948792457580566,0.3152111768722534,-0.1344460978339663,0.8588459188928647,0.4942751605920437,0.111238200719705,4.0,1.0
39.899932861328125,-11.91452693939209,0.3063795566558838,-0.7506703099576816,0.603170121984099,-0.2695920801761903,0.1041412818258231,5.0,1.0
39.7355842590332,-14.212279319763184,0.36616051197052,0.6163502696069947,0.7326854855945928,0.288590236069069,0.1214208331641999,4.0,1.0
39.95404052734375,-11.9113130569458,0.3127763271331787,-0.2039003000682077,0.4598454490964973,-0.8642724284491178,0.1033149115105705,4.0,1.0
39.693328857421875,-14.130126953125,0.419992983341217,0.8565362102775608,0.2212735175512352,-0.466244303894275,0.1438504098017193,3.0,1.0
39.578704833984375,-14.280064582824709,0.4330098628997803,-0.0,-0.0,-1.0,0.1374155687131707,1.0,1.0
38.480262756347656,-12.395668983459473,0.4930455684661865,-0.0,-0.0,-1.0,0.1073719674970087,1.0,1.0
38.556297302246094,-12.64036464691162,0.4871540069580078,-0.0,-0.0,-1.0,0.0691062608485094,1.0,1.0
39.0523681640625,-12.189536094665527,0.4861749410629272,-0.0,-0.0,-1.0,0.1763174767805108,1.0,1.0
40.034149169921875,-13.803751945495604,0.4253441095352173,-0.0,-0.0,-1.0,0.0841814601802208,1.0,1.0
38.62848281860352,-12.270475387573242,0.0797069072723388,-0.1307930434659506,-0.0430633030080401,-0.9904739934571484,0.1942034189534115,3.0,1.0
39.82441711425781,-14.277376174926758,-0.0319488048553466,-0.0,-0.0,-1.0,0.2578154020607397,2.0,0.0
39.68499755859375,-13.139652252197266,0.0139694213867187,-0.0,-0.0,-1.0,0.158389733244858,1.0,1.0
