x,y,z,nx,ny,nz,curvature,density,label
11.998141288757324,17.41901969909668,-0.8760006427764893,-0.0,-0.0,-1.0,0.2565243977435212,1.0,0.0
12.340286254882812,18.05596923828125,-0.7325541973114014,-0.0,-0.0,-1.0,0.1759411302302605,1.0,0.0
12.567427635192873,17.57558822631836,-0.8616831302642822,-0.0,-0.0,-1.0,0.1839875769821669,2.0,0.0
12.030263900756836,17.46569061279297,-0.3727254867553711,-0.0,-0.0,-1.0,0.1116037996145079,2.0,0.0
10.292169570922852,16.748027801513672,-1.0020792484283447,-0.0,-0.0,-1.0,0.0657674848539998,2.0,0.0
10.514023780822754,16.65460205078125,-1.0230205059051514,-0.0,-0.0,-1.0,0.0697838049356622,1.0,0.0
10.83412265777588,16.52157211303711,-1.054877758026123,-0.0,-0.0,-1.0,0.0181142829132059,1.0,0.0
11.280091285705566,16.426124572753906,-1.0798285007476809,-0.0,-0.0,-1.0,0.0072686532835303,1.0,0.0
11.747166633605955,16.411447525024414,-1.088378667831421,-0.0,-0.0,-1.0,0.0053725086177189,1.0,0.0
11.926972389221191,16.403526306152344,-1.0931198596954346,-0.0,-0.0,-1.0,0.0647256479166282,1.0,0.0
11.712685585021973,17.178340911865234,-0.8896846771240234,-0.0,-0.0,-1.0,0.2808588648175053,2.0,0.0
11.86408233642578,17.248781204223633,-0.8733744621276855,-0.1167006481977618,-0.2309112911246375,-0.9659507929192744,0.2044801846083081,3.0,0.0
12.236505508422852,18.03730010986328,-0.6752912998199463,-0.0,-0.0,-1.0,0.202441226653244,1.0,0.0
12.345687866210938,17.918087005615234,-0.7084264755249023,-0.0,-0.0,-1.0,0.1453994865926667,2.0,0.0
12.385660171508787,16.633285522460938,-1.043508529663086,-0.0,-0.0,-1.0,0.0437163398046789,1.0,0.0
12.410633087158203,18.08342742919922,-0.6669008731842041,-0.3436816380579499,0.9334976169948374,0.1022992215354742,0.2144110663030254,7.0,0.0
12.63145351409912,17.834110260009766,-0.7376625537872314,-0.7106345051643469,0.1879929897156535,-0.6779802621666755,0.098565318075193,3.0,0.0
12.641912460327148,17.5810546875,-0.8036494255065918,-0.0,-0.0,-1.0,0.2115310414247913,1.0,0.0
11.52305030822754,17.349578857421875,-0.3695046901702881,-0.0,-0.0,-1.0,0.1929482153890738,1.0,0.0
11.897950172424316,17.440460205078125,-0.3555319309234619,-0.2082738371414439,0.4700515666535061,-0.8577141327091233,0.1477281693563022,4.0,0.0
12.315360069274902,18.13465881347656,-0.6515748500823975,-0.0,-0.0,-1.0,0.169469084190598,2.0,0.0
12.176422119140623,17.91935157775879,-0.2549247741699219,-0.0,-0.0,-1.0,0.1836226312498574,1.0,0.0
12.457191467285156,18.11446952819824,-0.6598968505859375,-0.4603025670716054,0.561261603639872,-0.6878277102784458,0.1626274860456155,5.0,0.0
10.227325439453123,15.762956619262695,-0.883190393447876,-0.0,-0.0,-1.0,0.0144301162446029,1.0,0.0
10.4959716796875,15.666058540344238,-0.9036178588867188,-0.0,-0.0,-1.0,0.0156765371238905,2.0,0.0
11.746542930603027,17.115493774414062,-0.5506463050842285,-0.0,-0.0,-1.0,0.1720820243153966,2.0,0.0
12.36372184753418,16.630273818969727,-0.6807687282562256,-0.0,-0.0,-1.0,0.1400670436316057,1.0,0.0
12.16156768798828,18.068408966064453,-0.3200249671936035,-0.0,-0.0,-1.0,0.2080707515082366,2.0,0.0
12.578206062316896,18.102031707763672,-0.3191046714782715,-0.0,-0.0,-1.0,0.0589390181041125,2.0,0.0
12.47649097442627,17.996204376220703,-0.021754503250122,-0.0,-0.0,-1.0,0.1140449151836454,2.0,0.0
12.532022476196287,17.73253631591797,-0.0722482204437255,-0.0,-0.0,-1.0,0.1464158039624595,1.0,0.0
10.78519058227539,16.465335845947266,-1.0402508974075315,-0.0,-0.0,-1.0,0.0100761794344766,2.0,0.0
11.174606323242188,16.295663833618164,-1.01233971118927,-0.0,-0.0,-1.0,0.0056805836860612,1.0,0.0
11.36452865600586,15.74156665802002,-0.9834071397781372,-0.7901021369957008,-0.5356162243797561,-0.2980836682812411,0.0455984152849689,3.0,0.0
12.555187225341797,17.73865509033203,-0.7958023548126221,-0.0,-0.0,-1.0,0.0784444869522329,1.0,0.0
11.986217498779297,16.844167709350586,-0.8057482242584229,-0.0,-0.0,-1.0,0.1297541111628758,1.0,0.0
10.26169204711914,17.064062118530273,-1.0014408826828003,-0.0,-0.0,-1.0,0.019753541933056,1.0,0.0
12.078720092773438,17.130266189575195,-0.9004219770431519,-0.0,-0.0,-1.0,0.2244412980141508,2.0,0.0
10.753799438476562,16.288766860961914,-0.9607313871383668,-0.0,-0.0,-1.0,0.0114379674606507,1.0,0.0
11.076164245605469,15.903213500976562,-0.9363454580307008,0.1403559837435287,-0.9897664328694656,-0.0257411381302469,0.0194798083432702,4.0,0.0
10.922164916992188,16.0596923828125,-0.947529435157776,0.4805848637246326,-0.6830530691120784,-0.5499788118967371,0.0144411910693595,3.0,0.0
11.236736297607422,15.747184753417969,-0.9248231649398804,-0.0,-0.0,-1.0,0.0336550534250074,1.0,0.0
12.412792205810549,15.950013160705566,-1.0687980651855469,-0.0,-0.0,-1.0,0.0159241446822542,2.0,0.0
12.591835021972656,15.666702270507812,-1.0531303882598877,-0.0,-0.0,-1.0,0.0111916614511908,2.0,0.0
12.562255859375,18.03805923461914,-0.8062458038330078,0.5698886105763459,0.7139555855393531,0.406810021278387,0.2135105217793943,3.0,0.0
12.15909194946289,16.448143005371094,-0.861546516418457,-0.0,-0.0,-1.0,0.1804268785986806,1.0,0.0
12.143924713134766,16.317798614501953,-0.8651227951049805,-0.0,-0.0,-1.0,0.2419974042115464,1.0,0.0
10.28802490234375,16.297069549560547,-0.982905387878418,-0.0,-0.0,-1.0,0.0214826820059824,2.0,0.0
10.292854309082031,16.03226089477539,-0.9880995750427246,-0.0,-0.0,-1.0,0.0150396402063995,1.0,0.0
12.47319793701172,17.913475036621094,-0.4116828441619873,-0.0,-0.0,-1.0,0.242847851359822,1.0,0.0
11.788589477539062,17.262313842773438,-0.4432011842727661,-0.0,-0.0,-1.0,0.1347931888142852,1.0,0.0
12.441112518310549,17.963415145874023,-0.2246930599212646,-0.0,-0.0,-1.0,0.1239973775501683,1.0,0.0
12.400016784667969,18.032976150512695,-0.2458295822143554,-0.0,-0.0,-1.0,0.1426563614914885,1.0,0.0
12.383749008178713,17.866676330566406,-0.1990600824356079,-0.0,-0.0,-1.0,0.1099109705622649,1.0,0.0
12.442710876464844,18.10142517089844,-0.4985884428024292,0.3136986262664024,0.7428469200636807,0.5914149349065135,0.1941201291456153,3.0,0.0
12.465776443481444,18.07567596435547,-0.7821985483169556,-0.7189244926184015,0.6230197430110025,0.3082109240956235,0.1692605569740443,4.0,0.0
12.526987075805664,17.97568702697754,-0.7791398763656616,-0.0,-0.0,-1.0,0.1801662537163084,2.0,0.0
10.41360855102539,16.685449600219727,-0.988704800605774,-0.0,-0.0,-1.0,0.0694335005863266,1.0,0.0
11.751686096191406,15.838111877441406,-0.895846962928772,-0.0,-0.0,-1.0,0.1308030676300488,1.0,0.0
11.028512954711914,16.064077377319336,-0.9517568349838256,0.8083047428401839,0.4338358740765624,-0.3980325075496844,0.0194448109190492,3.0,0.0
10.662063598632812,16.27815818786621,-0.9776061773300172,0.1878155476982486,-0.1737781176031925,-0.9667091009632102,0.0151989457703895,3.0,0.0
11.24422836303711,15.677905082702637,-0.9433368444442748,-0.958332768286673,0.0350311359109702,-0.2834980154159624,0.0423535733744184,3.0,0.0
10.938064575195312,15.973203659057615,-0.9618018865585328,-0.0,-0.0,-1.0,0.0152850810796657,1.0,0.0
12.488683700561523,18.037025451660156,-0.5159647464752197,-0.2574063045042329,0.9573728468012478,0.1310695487485511,0.2212485830702193,3.0,0.0
11.935752868652344,17.41809844970703,-0.3648748397827148,-0.3840279658995674,0.5497076605535116,-0.7418517435012375,0.1561469957098154,6.0,0.0
11.685585021972656,17.355379104614258,-0.3843799829483032,-0.0,-0.0,-1.0,0.1025112868327052,1.0,0.0
12.45928192138672,17.984745025634766,-0.7959587574005127,-0.0,-0.0,-1.0,0.1579236951848866,2.0,0.0
11.980504989624023,17.10594940185547,-0.854964017868042,-0.0,-0.0,-1.0,0.170578403512257,2.0,0.0
10.56903076171875,16.475805282592773,-0.998682975769043,-0.0,-0.0,-1.0,0.0199452419307846,2.0,0.0
10.303411483764648,16.792240142822266,-1.0169620513916016,-0.7070834410411455,-0.0574570196041574,-0.7047919539152105,0.0516278708590936,3.0,0.0
11.060895919799805,15.908039093017578,-0.965280294418335,0.3332199216799,-0.5245020494400366,-0.7834935123718914,0.0222984058763109,4.0,0.0
10.802898406982422,16.043516159057617,-0.9862499237060548,-0.0,-0.0,-1.0,0.0198056160141715,1.0,0.0
10.694122314453123,16.213315963745117,-0.9926292896270752,-0.0,-0.0,-1.0,0.0160687435685236,1.0,0.0
12.525680541992188,18.057281494140625,-0.7887437343597412,-0.0,-0.0,-1.0,0.2656002369858283,2.0,0.0
12.462160110473633,18.132978439331055,0.0097908973693847,-0.0,-0.0,-1.0,0.1692286385566445,2.0,1.0
10.4622802734375,17.117979049682617,-1.0242180824279783,-0.0,-0.0,-1.0,0.0289220950133253,2.0,0.0
10.330276489257812,17.377059936523438,-1.032064437866211,-0.0,-0.0,-1.0,0.111555324578113,1.0,0.0
10.654863357543944,16.698509216308594,-1.0141339302062988,-0.6173486760511984,0.5403091525792666,-0.5717924726829721,0.0531400940282602,3.0,0.0
10.614997863769531,16.78268814086914,-1.0162303447723389,-0.0,-0.0,-1.0,0.048740828098921,1.0,0.0
11.123371124267578,16.111427307128906,-0.9810385704040528,-0.0,-0.0,-1.0,0.0135531510726766,1.0,0.0
10.823272705078123,16.364452362060547,-1.0050349235534668,-0.0,-0.0,-1.0,0.0107335200057337,1.0,0.0
12.556379318237305,17.932998657226562,-0.7979369163513184,-0.0,-0.0,-1.0,0.1516242078017489,1.0,0.0
12.233634948730469,17.23218536376953,-0.8436989784240723,0.2753891237440374,0.4383085260539474,-0.8555971403130723,0.193981639292969,3.0,0.0
11.881952285766602,17.26117706298828,-0.8784966468811035,-0.6726729573887946,-0.3012430285726184,-0.6758429774246454,0.1599536885535846,4.0,0.0
11.858831405639648,15.670074462890623,-0.9183673858642578,-0.0,-0.0,-1.0,0.1324037952761143,1.0,0.0
11.490087509155272,15.90701389312744,-0.9492788314819336,-0.0,-0.0,-1.0,0.0455745368730678,1.0,0.0
12.485673904418944,17.887901306152344,-0.0414350032806396,-0.0,-0.0,-1.0,0.1105515517741766,1.0,0.0
12.562810897827148,18.00975227355957,-0.7326353788375854,-0.0,-0.0,-1.0,0.1879695659990645,1.0,0.0
12.545347213745115,17.598047256469727,-0.7431946992874146,-0.0,-0.0,-1.0,0.1178555648801158,1.0,0.0
12.260543823242188,17.33556365966797,-0.7793642282485962,-0.0,-0.0,-1.0,0.1891202148389241,2.0,0.0
11.97154426574707,17.21040153503418,-0.8129919767379761,-0.3642872333309577,0.8664204609343624,-0.3414826445170577,0.2433331657290012,3.0,0.0
11.894515991210938,17.1095027923584,-0.8236087560653687,0.1887933870405206,0.661238876115494,-0.7260304440746866,0.1560103514060001,4.0,0.0
10.279258728027344,16.913225173950195,-1.0000356435775757,-0.0,-0.0,-1.0,0.0271302985644914,1.0,0.0
10.488004684448242,16.680776596069336,-0.9838634729385376,-0.0,-0.0,-1.0,0.0813724682108248,2.0,0.0
11.740793228149414,15.73053741455078,-0.8776718378067017,-0.0,-0.0,-1.0,0.1014463413095188,1.0,0.0
11.558061599731444,15.798131942749023,-0.8950423002243042,-0.0,-0.0,-1.0,0.0551354401454096,1.0,0.0
11.039833068847656,15.898193359375,-0.9471160173416138,0.2092079938306598,-0.940637662041464,-0.2672691603356418,0.0266562427196244,3.0,0.0
10.799566268920898,16.106382369995117,-0.9665919542312622,-0.0,-0.0,-1.0,0.0194646539092049,1.0,0.0
11.24001693725586,15.641729354858398,-0.9335707426071168,-0.0,-0.0,-1.0,0.0413046553262231,2.0,0.0
12.481922149658203,17.792850494384766,-0.0517880916595459,0.292409383696578,-0.926514356668388,-0.2367866111365881,0.1239403119786396,5.0,0.0
12.47140121459961,17.90022087097168,-0.8424520492553711,-0.0,-0.0,-1.0,0.1397197284181623,2.0,0.0
12.268774032592772,17.26154899597168,-0.8645157814025879,-0.0,-0.0,-1.0,0.1740043520203131,2.0,0.0
11.961563110351562,17.192630767822266,-0.8995087146759033,-0.0,-0.0,-1.0,0.2006072953328503,1.0,0.0
10.553987503051758,16.988801956176758,-1.059896469116211,-0.0,-0.0,-1.0,0.0262993704437518,2.0,0.0
10.51058578491211,17.061952590942383,-1.0647382736206057,-0.0,-0.0,-1.0,0.0270064528974906,1.0,0.0
10.797449111938477,16.489524841308594,-1.0334558486938477,-0.0,-0.0,-1.0,0.0098603203418507,2.0,0.0
10.68085479736328,16.738494873046875,-1.045992374420166,-0.0,-0.0,-1.0,0.0427790572153507,1.0,0.0
10.416606903076172,15.705363273620604,-0.874221920967102,-0.0,-0.0,-1.0,0.0207666214907859,1.0,0.0
12.500810623168944,18.116361618041992,-0.5918196439743042,-0.0,-0.0,-1.0,0.1216410532953796,2.0,0.0
12.336673736572266,17.2751522064209,-0.9396015405654908,-0.0,-0.0,-1.0,0.1435401273841514,2.0,0.0
11.38447380065918,16.66423797607422,-1.081516146659851,-0.0,-0.0,-1.0,0.0709407552419463,1.0,0.0
12.026254653930664,15.930241584777832,-1.0140241384506226,-0.0,-0.0,-1.0,0.0670196652236992,1.0,0.0
12.708181381225586,18.102556228637695,-0.3012987375259399,-0.0,-0.0,-1.0,0.0829768637706014,2.0,0.0
11.948976516723633,17.401065826416016,-0.3895158767700195,0.8441477982695982,-0.5355790552938143,0.0238656700550233,0.1825815770891274,4.0,0.0
10.477056503295898,16.668323516845703,-0.9708566665649414,-0.0,-0.0,-1.0,0.0799333796812296,2.0,0.0
10.26459503173828,16.85015106201172,-0.9930906295776368,-0.0,-0.0,-1.0,0.0475918220669097,1.0,0.0
10.562292098999023,16.464492797851562,-0.9661235809326172,-0.0,-0.0,-1.0,0.0207564376173411,2.0,0.0
10.954008102416992,15.89083766937256,-0.9345788955688475,-0.0,-0.0,-1.0,0.0165792918901018,1.0,0.0
10.652915954589844,16.16033363342285,-0.9642255306243896,-0.0,-0.0,-1.0,0.0183610251599492,2.0,0.0
11.055496215820312,15.736651420593262,-0.926999568939209,-0.0,-0.0,-1.0,0.0481677763786998,1.0,0.0
12.419371604919434,18.088035583496097,-0.6845302581787109,-0.8978306992751116,0.4221514047882361,0.1252526521654645,0.2456369491589814,9.0,0.0
12.022045135498049,17.30006217956543,-0.7531847953796387,-0.0,-0.0,-1.0,0.2079357240840931,2.0,0.0
12.214866638183594,16.99313735961914,-0.7362229824066162,-0.0,-0.0,-1.0,0.2163033200455756,2.0,0.0
11.8384428024292,17.11246681213379,-0.7817916870117188,0.3061860938659737,-0.6351055910992431,-0.7091480551179549,0.1279761387119533,4.0,0.0
11.860270500183104,17.48702621459961,-0.2067705392837524,-0.0,-0.0,-1.0,0.0910554462277443,1.0,0.0
11.26992416381836,16.649938583374023,-1.0922008752822876,-0.0,-0.0,-1.0,0.0063477834654491,2.0,0.0
12.387795448303224,17.93068504333496,-0.8620446920394897,-0.0,-0.0,-1.0,0.1377827852059776,1.0,0.0
12.265718460083008,17.23633575439453,-0.9106324911117554,0.3345340202905191,0.3736100047560795,-0.8651604207396595,0.1694880947146393,3.0,0.0
11.989106178283691,17.346359252929688,-0.9477273225784302,-0.0,-0.0,-1.0,0.170962091414865,1.0,0.0
12.254766464233398,17.186450958251953,-0.9146641492843628,0.9602204135323986,0.1915892201207295,-0.2031509984449997,0.1663217698523409,3.0,0.0
12.240666389465332,17.111459732055664,-0.9204200506210328,0.1791612969504331,0.0154784837220777,-0.9836979446032736,0.1645198864799755,3.0,0.0
11.583185195922852,16.94184684753418,-1.0291608572006226,-0.0,-0.0,-1.0,0.0606032891486632,1.0,0.0
11.697595596313477,16.15851593017578,-1.0543919801712036,-0.0492862905053492,-0.9674532653689852,-0.2482036278846657,0.013881075512687,4.0,0.0
12.06319522857666,15.806379318237305,-1.020102858543396,-0.5187421433840698,0.3725245666075499,-0.7695011604612161,0.0740358351228106,4.0,0.0
11.922398567199709,17.379758834838867,-0.431583046913147,0.3814898901816722,0.3737084630635725,-0.8454628604047836,0.1609619903153391,3.0,0.0
10.415074348449709,17.1175479888916,-1.0634384155273438,-0.0,-0.0,-1.0,0.0282298401438907,2.0,0.0
12.151387214660645,17.20796775817871,-0.78926682472229,-0.7222858294004606,0.4393946348528311,-0.5340744662590002,0.2532672806772991,3.0,0.0
11.866069793701172,17.30660057067871,-0.828646183013916,0.9240396877681356,-0.0629826908093571,-0.377072719893364,0.214884042502849,3.0,0.0
10.471461296081545,16.984317779541016,-1.0617315769195557,-0.1540169336201558,-0.145258010562552,-0.9773325404004792,0.0222628185995705,3.0,0.0
12.15514087677002,17.022842407226562,-0.7982447147369385,-0.0,-0.0,-1.0,0.240843976589435,2.0,0.0
11.80916690826416,17.127214431762695,-0.8465113639831543,0.2553263751482914,0.8716430879485219,-0.4183859096398918,0.1640979984908329,5.0,0.0
10.619606971740724,16.745031356811523,-1.0518972873687744,-0.0,-0.0,-1.0,0.0619300303714593,2.0,0.0
10.838396072387695,16.40401268005371,-1.0376639366149902,-0.0,-0.0,-1.0,0.0119215711211294,2.0,0.0
11.267261505126951,15.934246063232422,-1.000383377075195,-0.0,-0.0,-1.0,0.0268953944816755,1.0,0.0
11.0291166305542,16.187339782714844,-1.0212056636810305,-0.0,-0.0,-1.0,0.0113027169017351,1.0,0.0
11.745362281799316,15.679119110107422,-0.9433186054229736,-0.9708545105302177,-0.110905038681705,-0.2124655072668052,0.100056083274365,3.0,0.0
12.182220458984377,17.507152557373047,-0.9202818870544434,-0.0,-0.0,-1.0,0.1164843897261477,1.0,0.0
11.481396675109863,16.90565299987793,-1.0631778240203855,-0.0,-0.0,-1.0,0.0627478316594361,1.0,0.0
11.234163284301758,16.80477523803711,-1.1109387874603271,-0.0,-0.0,-1.0,0.0107336728850153,1.0,0.0
11.384952545166016,16.547847747802734,-1.093315362930298,-0.0,-0.0,-1.0,0.060248752198032,2.0,0.0
11.320646286010742,16.64072608947754,-1.1013340950012207,-0.0,-0.0,-1.0,0.0689247172537627,1.0,0.0
11.743704795837402,16.152729034423828,-1.045423984527588,-0.0,-0.0,-1.0,0.0150506786227727,2.0,0.0
12.020864486694336,15.802350044250488,-1.0122458934783936,-0.1826922460621778,0.7971429018571243,-0.5754882598694431,0.1105028093393671,3.0,0.0
12.56522274017334,17.978843688964844,-0.8427155017852783,-0.0,-0.0,-1.0,0.1049394826303677,1.0,0.0
11.83608627319336,17.393285751342773,-0.5276080369949341,0.8718156634289961,0.2449094115088543,-0.4242131883313456,0.091641726574376,3.0,0.0
12.27037525177002,17.114105224609375,-0.9149675369262696,0.6624026792701226,0.7480627087411513,0.0403097294286947,0.2101861917779247,5.0,0.0
12.526167869567873,18.035152435302734,-0.4138917922973633,-0.0,-0.0,-1.0,0.1761666830229808,2.0,0.0
10.857562065124512,18.08591651916504,-1.000795841217041,-0.0,-0.0,-1.0,0.0831084123485982,2.0,0.0
10.344711303710938,17.866655349731445,-1.0927343368530271,-0.0,-0.0,-1.0,0.0303026363397629,2.0,0.0
10.515305519104004,16.97896957397461,-1.0678460597991943,-0.0203323907540284,0.6757455681598399,-0.7368544774910175,0.0223498906643196,3.0,0.0
10.457767486572266,17.075416564941406,-1.0770158767700195,-0.0,-0.0,-1.0,0.0281327861315171,1.0,0.0
10.656367301940918,16.665325164794922,-1.047114610671997,-0.6173486760511984,0.5403091525792666,-0.5717924726829721,0.0489960759105751,3.0,0.0
10.834967613220217,16.29953384399414,-1.0221257209777832,-0.0,-0.0,-1.0,0.008714501115826,1.0,0.0
12.62576675415039,16.517414093017578,-1.0863723754882812,-0.0,-0.0,-1.0,0.0771098801585876,1.0,0.0
11.08425235748291,16.000106811523438,-0.9843747615814208,-0.0,-0.0,-1.0,0.0167222860070668,1.0,0.0
12.60985279083252,16.092628479003906,-1.099181890487671,-0.0,-0.0,-1.0,0.0458400721141205,2.0,0.0
12.50270175933838,15.916492462158203,-1.1275570392608645,-0.4168930799145288,-0.2457819323729203,-0.8750950814845275,0.0185517969721676,3.0,0.0
12.551671981811523,15.78618335723877,-1.120962381362915,-0.0,-0.0,-1.0,0.0140495438929517,1.0,0.0
11.665873527526855,18.122880935668945,-0.8561105728149414,-0.0,-0.0,-1.0,0.1166507962791521,1.0,0.0
12.421408653259276,18.108150482177734,-0.7209317684173584,-0.9142421888240068,0.3919171520006167,-0.1027723997093298,0.2069584900582417,5.0,0.0
11.913945198059082,17.36673927307129,-0.8108987808227539,-0.0,-0.0,-1.0,0.2240411196437046,2.0,0.0
12.179974555969238,17.15639877319336,-0.7642369270324707,-0.0,-0.0,-1.0,0.2490435802069728,1.0,0.0
11.82669162750244,17.151634216308594,-0.828178882598877,0.4258758293998433,-0.8854336365588411,-0.186110325299758,0.2394103357559748,5.0,0.0
11.153164863586426,15.826955795288086,-0.9768884181976318,-0.0,-0.0,-1.0,0.0352309030445391,2.0,0.0
11.917241096496582,15.900368690490724,-0.8356704711914062,-0.0,-0.0,-1.0,0.1075217018489822,1.0,0.0
11.251011848449709,15.70457649230957,-0.9629719257354736,-0.3316323931979394,-0.5031536097496424,-0.7980328318920917,0.0384382711006768,3.0,0.0
12.1899995803833,18.10559463500977,-0.3511854410171509,0.6348758785027185,-0.6118182654483162,-0.4718167323858017,0.1947559185546958,4.0,0.0
11.937179565429688,17.474933624267578,-0.3894884586334228,0.3645775288636302,0.1199947826732517,-0.9234091604369582,0.1448931071906852,3.0,0.0
11.328848838806152,17.687793731689453,-1.0713783502578735,-0.0,-0.0,-1.0,0.1033997765188144,1.0,0.0
12.147998809814451,17.88176918029785,-0.9085296392440796,-0.0,-0.0,-1.0,0.0846612123342603,2.0,0.0
11.671273231506348,17.698225021362305,-1.0013974905014038,-0.0,-0.0,-1.0,0.0899315327633047,2.0,0.0
11.437212944030762,17.607227325439453,-1.0476547479629517,-0.8667761728242154,-0.183110807779634,-0.4638636634815189,0.0961829656966483,3.0,0.0
11.046526908874512,17.236051559448242,-1.1238147020339966,-0.0,-0.0,-1.0,0.0571606786392487,1.0,0.0
10.906359672546388,17.053192138671875,-1.1516958475112915,-0.0,-0.0,-1.0,0.0422341684938974,2.0,0.0
11.944225311279297,17.224594116210938,-0.9379149675369264,-0.5876703446309782,0.5589931867940254,-0.5849531461229752,0.2191415463557661,3.0,0.0
10.99844455718994,16.82231330871582,-1.1324957609176636,-0.0,-0.0,-1.0,0.0557850613173302,1.0,0.0
11.180901527404783,16.442485809326172,-1.0967518091201782,-0.0,-0.0,-1.0,0.0088564750989217,1.0,0.0
11.401144981384276,16.042869567871094,-1.056381344795227,-0.0,-0.0,-1.0,0.0188168396480096,1.0,0.0
11.82349967956543,15.74622631072998,-0.9744364023208618,-0.0,-0.0,-1.0,0.1073285516774055,1.0,0.0
11.626294136047363,15.862316131591797,-1.012936234474182,-0.0,-0.0,-1.0,0.0694587984430382,1.0,0.0
12.54910373687744,18.063814163208008,-0.8330215215682983,-0.0,-0.0,-1.0,0.1955841127960499,2.0,0.0
12.32076644897461,17.91602325439453,-0.874411940574646,-0.0,-0.0,-1.0,0.0902480093317173,2.0,0.0
12.402969360351562,17.531251907348633,-0.8482919931411743,-0.0,-0.0,-1.0,0.1989096949060411,2.0,0.0
12.042970657348633,17.333959579467773,-0.7247071266174316,0.8041465765442447,0.0029681626983181,-0.594423648118383,0.2455913674376216,3.0,0.0
11.67075538635254,17.28792953491211,-0.5972931385040283,-0.0,-0.0,-1.0,0.1841668843630181,1.0,0.0
12.262207984924316,17.194677352905273,-0.8717325925827026,0.9152569811070108,0.0944546375815695,-0.3916413920593885,0.1899962732847668,4.0,0.0
12.51632022857666,18.058448791503903,-0.4662472009658813,0.530648123885675,0.7718483791069164,-0.3502322776196379,0.1675090610044887,3.0,0.0
12.531250953674316,17.96622085571289,-0.0939904451370239,-0.0,-0.0,-1.0,0.1715197061876246,1.0,0.0
12.568528175354004,17.794841766357422,-0.0866142511367797,-0.0,-0.0,-1.0,0.1194555545613915,2.0,0.0
11.441363334655762,17.015588760375977,-1.087926149368286,-0.0,-0.0,-1.0,0.0818967671908718,1.0,0.0
11.235608100891112,16.89032745361328,-1.1341588497161863,-0.0,-0.0,-1.0,0.0217155042701741,1.0,0.0
11.279258728027344,16.624998092651367,-1.1252985000610352,-0.0,-0.0,-1.0,0.0063477834654491,2.0,0.0
12.070112228393556,17.58110237121582,-0.9546432495117188,-0.0,-0.0,-1.0,0.0526896305065926,2.0,0.0
10.254010200500488,16.413063049316406,-0.934955358505249,-0.0,-0.0,-1.0,0.036977913279642,1.0,0.0
10.261207580566406,16.20782470703125,-0.938119649887085,-0.0,-0.0,-1.0,0.0251348252967501,1.0,0.0
12.50973415374756,17.74653434753418,-0.8624944686889648,-0.0,-0.0,-1.0,0.1058190925250272,1.0,0.0
12.150752067565918,17.45922088623047,-0.9345474243164062,-0.0,-0.0,-1.0,0.0642012714021388,2.0,0.0
11.95890998840332,17.202892303466797,-0.9734065532684326,-0.802353537767335,-0.5959669496029854,0.0324375617634019,0.1934868769402593,3.0,0.0
11.778587341308594,17.016162872314453,-1.0120890140533447,-0.0,-0.0,-1.0,0.125798411301545,1.0,0.0
10.431572914123535,15.83104133605957,-0.915447473526001,-0.0,-0.0,-1.0,0.0225147415500158,2.0,0.0
11.513995170593262,16.269479751586914,-1.0755622386932373,-0.0,-0.0,-1.0,0.0078491066667425,1.0,0.0
11.562420845031738,16.062740325927734,-1.0679264068603516,-0.0,-0.0,-1.0,0.0207032946109197,1.0,0.0
11.644586563110352,15.929040908813477,-1.0519392490386963,-0.0,-0.0,-1.0,0.0600216705313422,2.0,0.0
11.931732177734377,15.741814613342283,-0.990654706954956,-0.0,-0.0,-1.0,0.1082254963127262,1.0,0.0
11.611388206481934,18.030548095703125,-0.2922894954681396,-0.0,-0.0,-1.0,0.0598473138973269,1.0,0.0
12.52173137664795,17.95001983642578,-0.5087988376617432,-0.0,-0.0,-1.0,0.2361173151735771,1.0,0.0
11.890089988708496,17.263708114624023,-0.6166598796844482,-0.0,-0.0,-1.0,0.2187563083325974,1.0,0.0
12.3004150390625,17.153404235839844,-0.5391677618026733,-0.0,-0.0,-1.0,0.1085423062349751,2.0,0.0
12.50263214111328,17.855213165283203,-0.1579163074493408,-0.0,-0.0,-1.0,0.0976065598547102,1.0,0.0
10.36288070678711,17.926898956298828,-1.092756748199463,-0.0,-0.0,-1.0,0.0264626990045086,1.0,0.0
10.283141136169434,17.509300231933594,-1.087190866470337,-0.0,-0.0,-1.0,0.1052983268830242,2.0,0.0
10.879875183105469,18.005420684814453,-0.9958386421203612,-0.0,-0.0,-1.0,0.0753037267683851,1.0,0.0
10.76572322845459,17.91013526916504,-1.012376070022583,-0.0,-0.0,-1.0,0.0831847488977951,1.0,0.0
10.28221321105957,17.343772888183594,-1.0797626972198486,-0.0,-0.0,-1.0,0.0636638922555836,1.0,0.0
10.33676052093506,17.022178649902344,-1.0560119152069092,-0.0,-0.0,-1.0,0.0272093708304329,2.0,0.0
10.334814071655272,16.789724349975586,-1.048261642456055,-0.0,-0.0,-1.0,0.0554036199434468,2.0,0.0
10.444539070129396,16.564857482910156,-1.0191833972930908,-0.0,-0.0,-1.0,0.0538405327781034,1.0,0.0
10.59933853149414,16.16891098022461,-0.9780895709991456,0.5029944295124377,0.7038096115908112,-0.5016459254412903,0.0150778325461513,3.0,0.0
10.655126571655272,15.84057331085205,-0.9613893032073976,-0.0,-0.0,-1.0,0.0141067403628055,1.0,0.0
11.560699462890623,17.998815536499023,-0.8631212711334229,-0.0,-0.0,-1.0,0.1508500474749639,1.0,0.0
12.269363403320312,18.133573532104492,-0.737619161605835,-0.0,-0.0,-1.0,0.1243419471185656,1.0,0.0
12.447068214416504,17.977800369262695,-0.6919779777526855,-0.0,-0.0,-1.0,0.1921383263628991,2.0,0.0
11.869306564331056,17.287431716918945,-0.7593533992767334,0.4616136710325296,0.2928877764644432,-0.8373348010883013,0.265594904988031,4.0,0.0
11.713346481323242,17.10715675354004,-0.7811479568481445,-0.0,-0.0,-1.0,0.2175150628326027,2.0,0.0
10.766836166381836,15.877296447753906,-0.9384045600891112,0.0545885015035216,0.1366105108827186,-0.9891196408018408,0.0193183848953795,3.0,0.0
10.807489395141602,15.70302963256836,-0.9280924797058104,-0.0,-0.0,-1.0,0.0264626450702524,2.0,0.0
12.089773178100586,16.889307022094727,-0.6953035593032837,-0.0,-0.0,-1.0,0.1992301524432209,1.0,0.0
12.173035621643066,18.065826416015625,-0.3932809829711914,-0.0,-0.0,-1.0,0.1483754129657957,1.0,0.0
11.548467636108398,17.059707641601562,-0.4462924003601074,-0.0,-0.0,-1.0,0.1899141590067949,1.0,0.0
12.41545295715332,17.93769073486328,-0.3474078178405761,-0.0,-0.0,-1.0,0.1554199413618198,1.0,0.0
11.937650680541992,17.34233856201172,-0.3932003974914551,-0.0,-0.0,-1.0,0.1708728486782352,1.0,0.0
12.442242622375488,17.97750473022461,-0.0024093389511108,-0.0,-0.0,-1.0,0.0899187027171959,2.0,0.0
10.485740661621094,17.74089813232422,-1.139663577079773,-0.0,-0.0,-1.0,0.0403957115898577,1.0,0.0
10.385887145996094,17.35750961303711,-1.1183089017868042,-0.0,-0.0,-1.0,0.0246927959852685,1.0,0.0
10.336175918579102,17.21932029724121,-1.1141594648361206,-0.0,-0.0,-1.0,0.0211926702006307,1.0,0.0
11.175470352172852,17.922250747680664,-1.03294837474823,-0.0,-0.0,-1.0,0.1360175640077149,1.0,0.0
10.856123924255373,17.868953704833984,-1.0852314233779907,-0.0,-0.0,-1.0,0.0562037062734447,2.0,0.0
10.381752967834473,17.03754425048828,-1.0880812406539917,-0.0,-0.0,-1.0,0.0284966960747217,1.0,0.0
10.335559844970703,16.734378814697266,-1.0695253610610962,-0.0,-0.0,-1.0,0.0702603023102283,1.0,0.0
10.455536842346191,16.43793296813965,-1.0209003686904907,-0.0,-0.0,-1.0,0.0205939752079844,1.0,0.0
10.495970726013184,16.194873809814453,-0.9936589002609252,-0.0,-0.0,-1.0,0.0188432243953004,2.0,0.0
11.399653434753418,17.938350677490234,-0.9941235780715942,-0.0,-0.0,-1.0,0.1796063664354652,1.0,0.0
10.530234336853027,16.050540924072266,-0.9759942293167114,-0.0,-0.0,-1.0,0.0310735376874675,2.0,0.0
11.930459976196287,17.867843627929688,-0.8899637460708618,-0.0,-0.0,-1.0,0.075852100686982,1.0,0.0
11.741363525390623,17.81705093383789,-0.9175089597702026,-0.0,-0.0,-1.0,0.0661160137390194,1.0,0.0
11.754172325134276,17.219675064086914,-0.8453649282455444,0.175112775594252,-0.6065516424519184,-0.7755195812244571,0.2392948834791929,3.0,0.0
10.503266334533691,15.909879684448242,-0.9714256525039672,-0.0,-0.0,-1.0,0.0244688010113696,1.0,0.0
12.496679306030272,18.015640258789062,-0.809907078742981,-0.0,-0.0,-1.0,0.1836911450515239,1.0,0.0
12.312636375427246,17.85873794555664,-0.8209370374679565,-0.0,-0.0,-1.0,0.1147159706907807,1.0,0.0
12.144769668579102,17.21752166748047,-0.7724570035934448,-0.7222858294004606,0.4393946348528311,-0.5340744662590002,0.2548403746742123,3.0,0.0
12.043004989624023,17.1390323638916,-0.782436728477478,-0.0,-0.0,-1.0,0.1151255621591115,1.0,0.0
12.187179565429688,16.841960906982422,-0.7230247259140015,-0.0,-0.0,-1.0,0.1497901269694977,1.0,0.0
11.471617698669434,17.97978401184082,-0.420428991317749,-0.0,-0.0,-1.0,0.0617414179657049,1.0,0.0
12.252976417541504,18.114097595214844,-0.5089075565338135,-0.0,-0.0,-1.0,0.1168125613065395,1.0,0.0
11.591537475585938,17.041057586669922,-0.4969826936721802,-0.0,-0.0,-1.0,0.232501453889905,1.0,0.0
12.450000762939451,17.92203712463379,-0.4585171937942505,-0.0,-0.0,-1.0,0.2231621275126077,1.0,0.0
12.339224815368652,17.813945770263672,-0.4622348546981811,-0.0,-0.0,-1.0,0.2004331019274174,1.0,0.0
11.885960578918455,17.042057037353516,-0.4516972303390503,-0.7083870352915896,-0.4614288353964845,-0.534107889939323,0.1778798976239314,3.0,0.0
12.435303688049316,17.94269371032715,-0.1198582649230957,-0.0,-0.0,-1.0,0.1281749180487515,2.0,0.0
12.4977388381958,17.642852783203125,-0.084360122680664,-0.0,-0.0,-1.0,0.1906813989395669,1.0,0.0
12.450078964233398,18.03715133666992,-0.4493124485015869,0.6774769923221513,0.1248426620385013,-0.7248718746159711,0.1908163127166956,3.0,0.0
12.170934677124023,17.918750762939453,-0.4666473865509033,-0.0,-0.0,-1.0,0.0989986951860863,1.0,0.0
11.714958190917969,17.129268646240234,-0.4314185380935669,-0.0,-0.0,-1.0,0.221154991077785,1.0,0.0
12.563676834106444,17.830278396606445,-0.4084694385528564,-0.0,-0.0,-1.0,0.2126667658799977,1.0,0.0
12.394107818603516,18.082199096679688,-0.1141078472137451,-0.0,-0.0,-1.0,0.1812959973703302,1.0,0.0
12.377511978149414,17.78436851501465,-0.0827289819717407,-0.0,-0.0,-1.0,0.1345456356094046,1.0,0.0
10.413394927978516,17.76420783996582,-1.2070611715316772,-0.0,-0.0,-1.0,0.0412705967835879,1.0,0.0
10.76437759399414,17.866533279418945,-1.191555142402649,-0.0,-0.0,-1.0,0.062163008006222,1.0,0.0
11.729307174682615,17.785266876220703,-1.073952555656433,-0.0,-0.0,-1.0,0.2125261469840576,1.0,0.0
12.07353973388672,17.7423152923584,-1.030439019203186,-0.0,-0.0,-1.0,0.0460904900740707,1.0,0.0
11.923072814941406,17.217954635620117,-0.9230090379714966,-0.2959491232520433,0.3666845429538965,-0.8820184592201225,0.2720990535870783,4.0,0.0
11.86178970336914,17.118976593017578,-0.9068971872329712,0.4874295708773518,-0.6356045231841007,-0.5986813038188453,0.2439417007095277,5.0,0.0
12.383482933044434,17.678173065185547,-0.9858831167221068,-0.0,-0.0,-1.0,0.0887124737949095,1.0,0.0
12.28237533569336,17.25653076171875,-0.8954707384109497,0.5798544215632768,0.6820422136734808,-0.4456313146098414,0.1828951029125871,4.0,0.0
12.26799201965332,16.955055236816406,-0.8271857500076294,-0.0,-0.0,-1.0,0.1864683260927108,1.0,0.0
11.607044219970703,18.07339859008789,-0.3840576410293579,-0.0,-0.0,-1.0,0.0342235854552603,1.0,0.0
12.375484466552734,18.128570556640625,-0.728169322013855,-0.0,-0.0,-1.0,0.1280188444673451,2.0,0.0
11.91363525390625,17.38677406311035,-0.6003642082214355,0.5234250359935003,0.4373107582707125,-0.7312903201847385,0.2474386121220627,5.0,0.0
11.697729110717772,17.150146484375,-0.5685141086578369,-0.0,-0.0,-1.0,0.2403175261388769,2.0,0.0
12.449803352355955,18.033607482910156,-0.7026132345199585,-0.3868038551907555,-0.4270170465833647,0.8173366622982171,0.1985260658579637,4.0,0.0
12.575637817382812,18.01653289794922,-0.3355400562286377,-0.0,-0.0,-1.0,0.1439727990113882,1.0,0.0
10.599893569946287,17.10940933227539,-1.1220922470092771,-0.0,-0.0,-1.0,0.0167564208284385,1.0,0.0
10.5717134475708,16.753765106201172,-1.0682106018066406,-0.718386339195267,0.243078574484101,-0.6517928154593302,0.055192059380889,3.0,0.0
10.88382339477539,17.455303192138672,-1.137911319732666,-0.8872064166703415,-0.343974822356308,-0.3074834886687722,0.1473142591064002,4.0,0.0
10.7122802734375,17.281953811645508,-1.1337251663208008,-0.0,-0.0,-1.0,0.0706973997295142,2.0,0.0
11.297847747802734,17.673952102661133,-1.115752935409546,0.7569042074100628,-0.0099218890926385,-0.6534505160467606,0.1005745826725347,3.0,0.0
10.62001895904541,16.53276824951172,-1.0252470970153809,-0.0,-0.0,-1.0,0.0244167182836488,1.0,0.0
10.619418144226074,16.286418914794922,-0.9873764514923096,-0.0,-0.0,-1.0,0.0143413298768114,2.0,0.0
10.550938606262209,15.919727325439451,-0.944572687149048,-0.0,-0.0,-1.0,0.0228497689774321,1.0,0.0
10.657809257507324,16.326251983642578,-0.9870781898498536,0.2445767828991824,-0.1087772505888395,-0.963509059127634,0.0155439866554184,4.0,0.0
10.644309997558594,16.09007453918457,-0.9535901546478271,-0.0,-0.0,-1.0,0.0239329887486581,1.0,0.0
11.531041145324709,18.09772491455078,-0.7719521522521973,-0.072901652261794,0.208182797468742,-0.9753693002835332,0.0885875470612082,4.0,0.0
11.499468803405762,17.560874938964844,-1.065786838531494,-0.0,-0.0,-1.0,0.1422488408041432,2.0,0.0
11.835866928100586,17.474321365356445,-1.0015344619750977,-0.0,-0.0,-1.0,0.1604928767834453,1.0,0.0
11.857295989990234,17.11255645751953,-0.9317295551300048,0.369269471566279,-0.9292288158257438,-0.0131857957001812,0.2706640553803827,5.0,0.0
12.186785697937012,17.622154235839844,-0.9809083938598632,-0.0,-0.0,-1.0,0.0354111054751723,2.0,0.0
12.14390754699707,17.454856872558594,-0.9547388553619384,-0.0,-0.0,-1.0,0.0600698924378046,2.0,0.0
12.084756851196287,17.084121704101562,-0.8934416770935059,-0.9741577892735768,0.0981644051382441,-0.2034216093768608,0.2130798446962244,4.0,0.0
12.44785976409912,17.59539222717285,-0.9404737949371338,0.0604475122004105,-0.2248994945655201,-0.9725051751085724,0.1530181988675026,3.0,0.0
12.469073295593262,17.552669525146484,-0.9292752742767334,-0.0,-0.0,-1.0,0.164819346778742,2.0,0.0
11.926197052001951,17.344776153564453,-0.602620005607605,0.254594972188242,0.3224556958586881,-0.9117037481247718,0.2570912883209794,4.0,0.0
11.84007453918457,17.070415496826172,-0.5686439275741577,-0.0,-0.0,-1.0,0.1367536744447179,2.0,0.0
12.286205291748049,18.024139404296875,-0.6786072254180908,-0.0,-0.0,-1.0,0.2345235171868017,1.0,0.0
12.332119941711426,17.75139808654785,-0.626150369644165,-0.0,-0.0,-1.0,0.1691555032621608,2.0,0.0
12.281475067138672,17.18647003173828,-0.5361649990081787,-0.0,-0.0,-1.0,0.1691920829927755,2.0,0.0
12.453734397888184,18.084136962890625,-0.6721744537353516,-0.4251618324083372,0.8248558845319971,-0.3726260672794128,0.1638048972192983,7.0,0.0
12.415322303771973,17.974824905395508,-0.6565988063812256,-0.2446540790602062,0.9596210231517622,-0.1388231735855634,0.2067021654341096,3.0,0.0
11.878911018371582,17.45413589477539,-0.2650409936904907,-0.0,-0.0,-1.0,0.1114938854557535,1.0,0.0
12.197071075439451,18.09014320373535,-0.3317925930023193,0.3953360072202486,-0.7141625107291726,-0.577651581547351,0.1947559185546957,4.0,0.0
12.524539947509766,18.12226295471191,-0.3118951320648193,-0.0,-0.0,-1.0,0.0647340767671724,1.0,0.0
10.627852439880373,16.94670295715332,-1.0894708633422852,-0.0,-0.0,-1.0,0.0191918650509134,1.0,0.0
10.611021995544434,16.698741912841797,-1.0532276630401611,-0.0,-0.0,-1.0,0.0677386846697452,2.0,0.0
10.830620765686035,17.339601516723633,-1.1215379238128662,-0.0,-0.0,-1.0,0.089185455209255,2.0,0.0
10.634029388427734,17.161293029785156,-1.1230089664459229,-0.0,-0.0,-1.0,0.041101034808809,1.0,0.0
11.00811004638672,17.553455352783203,-1.1304421424865725,-0.0,-0.0,-1.0,0.1220377109314862,2.0,0.0
10.66024112701416,16.483558654785156,-1.012099266052246,-0.0,-0.0,-1.0,0.0183039695860978,1.0,0.0
10.638668060302734,16.149076461791992,-0.966482162475586,0.2338463153974466,-0.1021479022785969,-0.966892810416501,0.018361025159949,3.0,0.0
10.60176944732666,15.774497032165527,-0.9202268123626708,-0.0,-0.0,-1.0,0.0136753774290437,1.0,0.0
11.544822692871094,18.008216857910156,-0.8058791160583496,-0.0,-0.0,-1.0,0.1177355356424342,1.0,0.0
12.436132431030272,17.84857749938965,-0.7415664196014404,-0.0,-0.0,-1.0,0.2204524765164896,1.0,0.0
11.964160919189451,17.304706573486328,-0.6792668104171753,-0.6769418023019029,-0.6305220535085627,-0.379725869984647,0.2702273161667731,3.0,0.0
12.545202255249023,18.115619659423828,-0.6859664916992188,0.4071256031639421,0.807943304531327,0.4260004224310061,0.1362914812663349,4.0,0.0
12.489965438842772,18.034425735473633,-0.6849465370178223,-0.0,-0.0,-1.0,0.2426644559759597,2.0,0.0
10.46425437927246,16.423355102539062,-0.9395768642425536,-0.0,-0.0,-1.0,0.0181593106133125,2.0,0.0
10.62933349609375,16.140522003173828,-0.916973352432251,-0.0,-0.0,-1.0,0.0273048305386725,1.0,0.0
10.677600860595703,16.012086868286133,-0.9084606170654296,-0.0,-0.0,-1.0,0.0229373697174008,1.0,0.0
10.906793594360352,15.76117706298828,-0.8833925724029541,-0.0,-0.0,-1.0,0.0311435785052057,2.0,0.0
11.84786605834961,17.091510772705078,-0.8845129013061523,-0.0,-0.0,-1.0,0.2004789418276924,2.0,0.0
12.148513793945312,17.443984985351562,-0.8835561275482178,-0.0,-0.0,-1.0,0.1049499528823542,1.0,0.0
12.211013793945312,17.199535369873047,-0.8677060604095459,-0.0,-0.0,-1.0,0.2323372320367914,2.0,0.0
12.53241729736328,17.473129272460938,-0.8619856834411621,-0.0,-0.0,-1.0,0.2511088661632014,2.0,0.0
12.540327072143556,16.18601417541504,-1.0422972440719604,-0.0,-0.0,-1.0,0.1029357653435587,1.0,0.0
12.458822250366213,18.065446853637695,-0.3229590654373169,-0.0,-0.0,-1.0,0.1419152313618132,2.0,0.0
11.515735626220703,18.063541412353516,-0.7835735082626343,-0.8477427149592988,0.5268945659120213,0.0609459239475436,0.0858818658692816,5.0,0.0
12.240474700927734,17.154827117919922,-0.6988409757614136,-0.0,-0.0,-1.0,0.2551649641099384,1.0,0.0
12.655256271362305,17.938894271850586,-0.7303019762039185,-0.0,-0.0,-1.0,0.1480698243457242,1.0,0.0
11.540456771850586,17.969358444213867,-0.7715595960617065,-0.0,-0.0,-1.0,0.145103807707857,1.0,0.0
11.661752700805664,16.997739791870117,-0.7232056856155396,-0.0,-0.0,-1.0,0.1033636126251591,1.0,0.0
12.350975036621094,17.88339614868164,-0.7323511838912964,-0.0,-0.0,-1.0,0.2284959706809517,2.0,0.0
11.97197151184082,17.323047637939453,-0.7236455678939819,-0.0,-0.0,-1.0,0.2919903727573427,2.0,0.0
12.614688873291016,17.838390350341797,-0.718903660774231,-0.0,-0.0,-1.0,0.1383118161965421,2.0,0.0
12.617286682128906,17.97571563720703,-0.6094939708709717,-0.0,-0.0,-1.0,0.2048711777659515,1.0,0.0
12.431163787841797,17.98465347290039,-0.6165765523910522,-0.0,-0.0,-1.0,0.1942047811173047,2.0,0.0
11.839994430541992,17.160709381103516,-0.5998331308364868,-0.1542808167215684,-0.9854628419690666,0.0711366058367724,0.1316845612409903,3.0,0.0
12.20049285888672,17.93051528930664,-0.3095202445983886,-0.0,-0.0,-1.0,0.1979005015652891,1.0,0.0
12.681354522705078,18.112646102905273,-0.2932745218276977,-0.0,-0.0,-1.0,0.0631641315698095,2.0,0.0
12.561275482177734,17.821849822998047,-0.0835474729537963,-0.479432588324335,-0.0291514307652891,-0.8770944004706478,0.1194555545613913,3.0,0.0
12.035507202148438,17.45176887512207,-0.6115763187408447,-0.0,-0.0,-1.0,0.1380536174147385,1.0,0.0
11.90292739868164,17.296566009521484,-0.6731427907943726,-0.0,-0.0,-1.0,0.2522901003326548,2.0,0.0
12.441078186035156,18.05129623413086,-0.8087812662124634,-0.8263831272869058,0.3688612962666924,0.4254788726270311,0.1348402811428916,5.0,0.0
11.932750701904297,17.180341720581055,-0.7878075838088989,0.9141749771036792,-0.3957922706498578,-0.0873646938489299,0.2207573083147792,3.0,0.0
12.21180534362793,17.1994571685791,-0.7762218713760376,-0.0,-0.0,-1.0,0.3094250668399231,1.0,0.0
11.972780227661133,18.00168228149414,-0.9169930219650269,-0.1577956809456575,-0.2160234212285404,-0.9635530107656828,0.0799236387765442,3.0,0.0
11.564004898071287,18.13423728942871,-0.9124382734298706,-0.0,-0.0,-1.0,0.0942430048442851,1.0,0.0
12.483230590820312,17.660493850708008,-0.897241473197937,0.8794294851366437,-0.2464903395244407,0.4072423028043916,0.1859108426979226,4.0,0.0
11.877113342285156,17.139921188354492,-0.7865575551986694,0.2305726628116887,-0.7287188638328859,-0.644829484947792,0.1353790160484637,4.0,0.0
12.210847854614258,17.08885955810547,-0.798319935798645,-0.0,-0.0,-1.0,0.2392287621649668,2.0,0.0
11.58112335205078,18.09809112548828,-1.0583244562149048,-0.0,-0.0,-1.0,0.1138783425045728,1.0,0.0
12.021875381469728,17.382949829101562,-0.9805029630661012,-0.0,-0.0,-1.0,0.0995479849859461,2.0,0.0
10.67665672302246,17.730867385864258,-1.213689208030701,-0.0,-0.0,-1.0,0.0773383992381538,1.0,0.0
10.47905731201172,17.639833450317383,-1.200652003288269,-0.0,-0.0,-1.0,0.0398531931040436,1.0,0.0
11.84193992614746,16.234050750732422,-1.0655494928359983,-0.0,-0.0,-1.0,0.0723764859227717,1.0,0.0
11.209083557128906,15.69529151916504,-0.997062087059021,-0.0,-0.0,-1.0,0.0362741656371487,1.0,0.0
11.35256576538086,17.793087005615234,-0.7937688827514648,-0.0,-0.0,-1.0,0.1688621128233131,1.0,0.0
11.11812973022461,17.56061553955078,-0.7872289419174194,-0.0,-0.0,-1.0,0.1610652710289251,1.0,0.0
10.759490966796877,17.4731502532959,-0.7927447557449341,-0.0,-0.0,-1.0,0.2462011487105563,1.0,0.0
10.410627365112305,17.5377254486084,-0.8067154884338379,-0.0,-0.0,-1.0,0.1486808924747222,1.0,0.0
10.293378829956056,17.34467124938965,-0.7993509769439697,-0.0,-0.0,-1.0,0.1060006958241443,1.0,0.0
11.857206344604492,17.29595947265625,-0.3943352699279785,-0.0,-0.0,-1.0,0.1351597852911565,1.0,0.0
11.540987014770508,17.175745010375977,-0.3995031118392944,-0.0,-0.0,-1.0,0.1340019435664291,2.0,0.0
12.48369598388672,18.105405807495117,-0.5458871126174927,0.3463999361183916,0.7847491004863028,-0.513980479729642,0.1622755358864809,5.0,0.0
12.44939422607422,17.980195999145508,-0.5436830520629883,-0.0,-0.0,-1.0,0.1577019510135354,2.0,0.0
12.517045974731444,18.121173858642575,-0.7364691495895386,-0.0,-0.0,-1.0,0.1362972878830973,1.0,0.0
12.426956176757812,18.00988006591797,-0.727311372756958,-0.4240662768442286,-0.4244186665812234,0.8000228673612337,0.1801291565515788,3.0,0.0
11.929681777954102,17.337398529052734,-0.6720843315124512,-0.0136495732430751,0.4324550775103503,-0.9015521588270968,0.2633049596446541,4.0,0.0
12.36503791809082,17.054887771606445,-1.006671667098999,-0.7035796125964593,0.4754897898886415,-0.5280958137026573,0.1057869145150121,4.0,0.0
12.027164459228516,17.10428810119629,-1.00516939163208,-0.0,-0.0,-1.0,0.2074438624466241,1.0,0.0
11.824310302734377,17.033145904541016,-0.9913909435272216,-0.0,-0.0,-1.0,0.1864857493072071,2.0,0.0
10.212882995605469,16.40165901184082,-0.876638650894165,-0.0,-0.0,-1.0,0.0319399238326162,1.0,0.0
12.519869804382324,18.053369522094727,-0.2161440849304199,-0.0,-0.0,-1.0,0.1458130389897958,1.0,0.0
12.617505073547363,16.35177993774414,-0.96091890335083,-0.0,-0.0,-1.0,0.1015800516271709,1.0,0.0
12.239420890808104,17.057342529296875,-1.0464906692504885,-0.0,-0.0,-1.0,0.1337958294882604,1.0,0.0
10.582561492919922,16.74966812133789,-0.9687619209289552,-0.0,-0.0,-1.0,0.0632432272747317,1.0,0.0
10.58262062072754,17.148984909057617,-1.02119779586792,-0.0,-0.0,-1.0,0.0452174444627803,1.0,0.0
10.35209846496582,16.74020767211914,-0.9628808498382568,-0.0,-0.0,-1.0,0.0719790542781916,1.0,0.0
12.37027359008789,17.9573917388916,-0.2661556005477905,-0.0,-0.0,-1.0,0.1661570846326014,1.0,0.0
12.68364429473877,16.361703872680664,-1.0716408491134644,-0.0,-0.0,-1.0,0.0820904986570789,1.0,0.0
12.110210418701172,17.065814971923828,-1.164819836616516,-0.0,-0.0,-1.0,0.0931185802642653,1.0,0.0
12.24452781677246,17.958433151245117,-0.3434466123580932,-0.0,-0.0,-1.0,0.2184772604101165,1.0,0.0
11.904287338256836,17.464515686035156,-0.3326283693313598,-0.0,-0.0,-1.0,0.1015293448941717,2.0,0.0
12.535388946533203,18.09646797180176,-0.6497138738632202,0.1354799051339309,0.9765859947590984,-0.167107720184566,0.1363992066241702,5.0,0.0
12.249886512756348,16.956762313842773,-0.6210490465164185,-0.0,-0.0,-1.0,0.2043395145112068,1.0,0.0
12.387323379516602,18.020282745361328,-0.6569646596908569,-0.7253771083955746,0.6587197630419601,0.1997907014693598,0.2504338101055448,4.0,0.0
11.735024452209473,17.174779891967773,-0.6679638624191284,-0.0,-0.0,-1.0,0.2669795445851315,1.0,0.0
12.389727592468262,16.371383666992188,-0.999142289161682,-0.0,-0.0,-1.0,0.1441945288009621,2.0,0.0
11.847334861755373,16.88480567932129,-1.0762988328933716,-0.0,-0.0,-1.0,0.0450733253379665,1.0,0.0
12.404669761657717,18.137521743774418,-0.3117498159408569,-0.0,-0.0,-1.0,0.151551346265356,2.0,0.0
12.69483757019043,17.584848403930664,-0.8038173913955688,-0.0,-0.0,-1.0,0.2157112648689602,2.0,0.0
12.288681030273438,17.76717185974121,-0.8456102609634399,-0.0,-0.0,-1.0,0.1633878176049192,2.0,0.0
12.062073707580566,17.19377899169922,-0.8295766115188599,-0.0,-0.0,-1.0,0.1478862101481604,2.0,0.0
11.940349578857422,17.92438507080078,-0.8815590143203735,-0.0,-0.0,-1.0,0.1200212978911695,1.0,0.0
11.769716262817385,17.146921157836914,-0.8495911359786987,0.436380136581613,0.8135064302741107,-0.3844212068807942,0.2254598876241108,3.0,0.0
11.632928848266602,18.023902893066406,-0.911044716835022,-0.0,-0.0,-1.0,0.1695624849073764,2.0,0.0
10.983311653137209,15.711024284362791,-0.8312457799911499,-0.0,-0.0,-1.0,0.0379629204198283,2.0,0.0
10.454090118408203,16.659353256225586,-0.9260512590408324,-0.0,-0.0,-1.0,0.0675439217836767,1.0,0.0
10.30999755859375,16.472867965698242,-0.9273217916488647,-0.0,-0.0,-1.0,0.0468991605288153,2.0,0.0
12.454317092895508,17.789461135864258,-0.0694242715835571,0.5360284395251993,-0.3360286517824348,-0.7744406092151023,0.1249713759318785,3.0,0.0
12.433202743530272,18.05213165283203,-0.0791612863540649,-0.6390662051988908,0.4933445399143848,-0.5900894426350581,0.1930005523708874,3.0,0.0
12.418179512023926,17.671905517578125,-0.8604857921600342,-0.0,-0.0,-1.0,0.125469033824096,2.0,0.0
12.090231895446776,17.210615158081055,-0.8617818355560303,-0.0,-0.0,-1.0,0.1908408557120959,2.0,0.0
11.82231616973877,17.347932815551758,-0.8929800987243652,-0.0,-0.0,-1.0,0.2190972613268651,2.0,0.0
11.995590209960938,17.857128143310547,-0.9076764583587646,-0.0,-0.0,-1.0,0.1052683004260277,2.0,0.0
11.78320598602295,17.123685836791992,-0.8834483623504639,0.436380136581613,0.8135064302741107,-0.3844212068807942,0.1329408491513175,3.0,0.0
10.935527801513672,15.80030632019043,-0.8842751979827881,-0.0,-0.0,-1.0,0.0322871476418808,2.0,0.0
10.79229736328125,15.63888931274414,-0.888390302658081,-0.0,-0.0,-1.0,0.0178803378428709,1.0,0.0
10.52444839477539,16.247304916381836,-0.9456565380096436,-0.0,-0.0,-1.0,0.0124553836399639,2.0,0.0
10.415735244750977,16.488616943359375,-0.968651533126831,0.2705713036349569,-0.7221626976796617,-0.636609933734397,0.0383522012064148,3.0,0.0
12.444777488708496,17.842533111572266,-0.1352419853210449,-0.452726190011692,-0.4000814420479838,-0.7968524559831031,0.1496641251725436,3.0,0.0
12.388535499572754,18.012178421020508,-0.4881941080093384,-0.0,-0.0,-1.0,0.1959081718849248,2.0,0.0
11.271184921264648,17.74767303466797,-0.8942971229553223,-0.0,-0.0,-1.0,0.201223921472556,1.0,0.0
10.882960319519045,17.364290237426758,-0.9401075839996338,-0.0,-0.0,-1.0,0.1712914840979477,1.0,0.0
10.998101234436035,17.553699493408203,-0.9274003505706788,-0.0,-0.0,-1.0,0.2285586808121943,1.0,0.0
10.877364158630373,16.925146102905273,-0.9355883598327636,-0.0,-0.0,-1.0,0.0735974530885534,1.0,0.0
10.795769691467283,17.209638595581055,-0.9498591423034668,-0.0,-0.0,-1.0,0.1403194259301015,1.0,0.0
10.784231185913086,17.624876022338867,-0.956667184829712,-0.0,-0.0,-1.0,0.1627915745860729,1.0,0.0
12.602468490600586,17.563955307006836,-0.7191040515899658,-0.0,-0.0,-1.0,0.191926952527087,1.0,0.0
12.258023262023926,17.09005355834961,-0.7550230026245117,-0.0,-0.0,-1.0,0.1853283270190921,2.0,0.0
12.237570762634276,17.595420837402344,-0.7664103507995605,-0.0,-0.0,-1.0,0.2196260714261773,1.0,0.0
