x,y,z,nx,ny,nz,curvature,density,label
3.2462644577026367,20.17906379699707,-0.630352258682251,-0.0,-0.0,-1.0,0.205097002855653,1.0,0.0
3.5967283248901367,19.889923095703125,-0.5387680530548096,-0.0,-0.0,-1.0,0.1478646209420701,2.0,0.0
3.547811508178711,20.2357177734375,-0.575913667678833,-0.0018317917653906,0.6770123666826874,-0.7359693607057529,0.1706535960419858,5.0,0.0
3.5148696899414062,20.185880661010746,-0.3451999425888061,-0.0,-0.0,-1.0,0.2132990365803183,1.0,0.0
2.74422836303711,20.323226928710938,-0.6868585348129272,-0.0,-0.0,-1.0,0.1543059389518078,2.0,0.0
3.596721649169922,20.19599342346191,-0.5899771451950073,-0.4890002324279841,0.2186211018039623,-0.8444427668773054,0.1550446575173833,5.0,0.0
3.5130538940429688,20.18479347229004,-0.645483136177063,-0.0,-0.0,-1.0,0.2142295617200061,2.0,0.0
3.2335243225097656,20.392269134521484,-0.5106610059738159,-0.0,-0.0,-1.0,0.1320789737159954,2.0,0.0
2.8442840576171875,20.37712860107422,-0.7453330755233765,-0.7070893932364477,0.6900474953718336,-0.1544637307058567,0.2204506936309158,4.0,0.0
3.4884567260742188,20.252544403076172,-0.2627016305923462,0.2594506461947488,-0.184831515100665,-0.9479043586853684,0.1628040910301081,7.0,0.0
2.720134735107422,20.505844116210938,-0.2947405576705932,-0.0,-0.0,-1.0,0.1239653424516671,1.0,0.0
4.096595764160156,18.34673118591309,-0.28160560131073,0.3250208149692689,0.6223962047037949,-0.712028394242129,0.0851270144773962,3.0,0.0
3.4566001892089844,20.290386199951172,0.2575235366821289,-0.0,-0.0,-1.0,0.1356513822841398,1.0,1.0
2.7766761779785156,20.45753288269043,-0.5075473785400391,0.2916034547126868,0.8500003243363764,-0.4387104669684565,0.1337020683531172,5.0,0.0
3.593229293823242,20.240001678466797,-0.5735750198364258,0.0151868828669838,0.3502555923154137,-0.936531034531458,0.1699771253869288,3.0,0.0
2.850149154663086,20.315330505371097,-0.2043278217315673,-0.0,-0.0,-1.0,0.2827757480546417,2.0,0.0
3.536581039428711,20.227500915527344,-0.6303422451019287,-0.6822238221053338,0.7300874480021776,-0.0392807181917101,0.1596526923648745,4.0,0.0
3.1999340057373047,19.9659481048584,-0.6596115827560425,-0.7220503807382007,-0.6133604083348605,0.3200503978487022,0.2049662278378689,3.0,0.0
3.096275329589844,19.77845001220703,-0.6709674596786499,-0.0,-0.0,-1.0,0.1969117038589873,1.0,0.0
3.0427379608154297,20.41443252563477,-0.6218559741973877,-0.0,-0.0,-1.0,0.1235296446324567,1.0,0.0
3.6025562286376953,20.372547149658203,-0.2764471769332886,-0.0,-0.0,-1.0,0.1033880094229859,1.0,0.0
3.4967269897460938,20.47453498840332,-0.2815947532653808,-0.7647544918242877,-0.26818948902619,-0.5858540477033904,0.1276596720250369,4.0,0.0
4.1543731689453125,18.370357513427734,-0.2772392034530639,-0.0,-0.0,-1.0,0.0851270144773962,1.0,0.0
4.618915557861328,20.3984375,-0.8271000385284424,-0.5343763593679236,-0.0896497015109637,-0.8404789334466864,0.2053675299977987,4.0,0.0
3.5569305419921875,20.39269256591797,-0.9261791706085204,0.832850820321843,-0.4580431307816212,0.3107346157623959,0.1569413341195349,3.0,0.0
3.543458938598633,20.199661254882812,-0.4729983806610107,0.7970432409419251,0.5141786685450971,-0.3167686362031178,0.1026861620424107,5.0,0.0
2.803140640258789,20.38938331604004,-0.525586724281311,-0.0,-0.0,-1.0,0.1110510345064331,1.0,0.0
3.4336986541748047,19.88172721862793,-0.4942387342453003,-0.0,-0.0,-1.0,0.2271600635435292,2.0,0.0
2.808629989624023,20.522336959838867,-0.4666168689727783,-0.8117243007153854,0.4867846811079049,-0.3227140125045612,0.1609269878038378,5.0,0.0
3.549175262451172,20.24044609069824,-0.4166657924652099,-0.7127757419174752,0.5809718941114074,-0.3929661562865137,0.1785274713502738,7.0,0.0
3.102151870727539,20.07167625427246,-0.4610207080841064,-0.0,-0.0,-1.0,0.2414335443450474,1.0,0.0
3.509733200073242,19.935914993286133,-0.4328247308731079,-0.0,-0.0,-1.0,0.1493315550641409,2.0,0.0
4.0754547119140625,18.267492294311523,-0.4621628522872925,-0.0,-0.0,-1.0,0.0694630187157842,1.0,0.0
5.202842712402344,18.324623107910156,-0.3645486831665039,-0.0,-0.0,-1.0,0.1056793277150343,2.0,0.0
4.59698486328125,20.474361419677734,-0.7814505100250244,-0.5936213585619647,-0.7825307124334165,0.1877747766807255,0.1241182606600864,3.0,0.0
3.620035171508789,20.223365783691406,-0.8892812728881836,-0.0,-0.0,-1.0,0.1802916956993105,1.0,0.0
3.397031784057617,20.376449584960938,-0.9102914333343506,0.7586200425143622,-0.6117747351592293,0.224114489751025,0.1789041668803448,3.0,0.0
4.636941909790039,20.357969284057617,-0.7790510654449463,-0.0,-0.0,-1.0,0.1315848243055065,1.0,0.0
3.63261604309082,20.14583969116211,-0.8893470764160156,-0.0,-0.0,-1.0,0.1921454103223943,2.0,0.0
3.445688247680664,19.876585006713867,-0.9144341945648192,-0.0,-0.0,-1.0,0.1753660278731881,1.0,0.0
3.600057601928711,19.701419830322266,-0.9015216827392578,-0.0,-0.0,-1.0,0.2647441097756873,2.0,0.0
4.118574142456055,18.445138931274418,-0.1529281139373779,0.6732850621504483,0.7373166754955774,-0.0552389818988062,0.1017896077612803,3.0,0.0
3.376428604125977,20.357622146606445,-0.891944408416748,0.4737889093733489,-0.8232358364346524,-0.3127408303444725,0.2401741789874312,3.0,0.0
2.9036922454833984,20.534244537353516,-0.9427804946899414,-0.0,-0.0,-1.0,0.2387779864554876,1.0,0.0
3.558218002319336,20.21159553527832,-0.8725097179412842,-0.0,-0.0,-1.0,0.2060044164351993,2.0,0.0
3.057830810546875,20.166271209716797,-0.9266698360443116,-0.0,-0.0,-1.0,0.1593267040775196,1.0,0.0
3.4860877990722656,19.830209732055664,-0.8813295364379883,-0.0,-0.0,-1.0,0.1962942392442788,2.0,0.0
4.529697418212891,20.486068725585938,-0.7678885459899902,-0.0,-0.0,-1.0,0.1112691380963298,2.0,0.0
3.0108089447021484,20.10647964477539,-0.6780908107757568,-0.0,-0.0,-1.0,0.2007583659662544,2.0,0.0
3.63385009765625,20.160993576049805,-0.6171444654464722,-0.0,-0.0,-1.0,0.2027154263151846,2.0,0.0
3.5177974700927734,19.77959442138672,-0.6266554594039917,-0.0,-0.0,-1.0,0.1294844465560692,2.0,0.0
3.519186019897461,20.25436019897461,0.0593479871749877,-0.6248641848555412,-0.2123067811084918,-0.7513125722228869,0.0856079696035455,4.0,1.0
3.337888717651367,20.31789779663086,-0.8607473373413086,-0.0,-0.0,-1.0,0.2470063657474015,1.0,0.0
3.014514923095703,20.16822052001953,-0.8992915153503418,-0.0,-0.0,-1.0,0.1880820846672223,1.0,0.0
3.5331382751464844,19.98751449584961,-0.8400933742523193,0.5955917158736573,0.7936310236525477,-0.124178525836323,0.1696931402601248,3.0,0.0
3.331043243408203,19.76861000061035,-0.8654801845550537,-0.0,-0.0,-1.0,0.2019480120696564,1.0,0.0
3.572622299194336,20.19536590576172,-0.162956953048706,-0.0,-0.0,-1.0,0.1176850239671654,1.0,0.0
3.3831520080566406,20.097755432128903,-0.5759042501449585,-0.0,-0.0,-1.0,0.1747902032324478,1.0,0.0
3.2305355072021484,19.773345947265625,-0.5857466459274292,-0.0,-0.0,-1.0,0.1828390037994661,1.0,0.0
2.824914932250977,20.547607421875,-0.8021606206893921,-0.0,-0.0,-1.0,0.1525433313041564,1.0,0.0
2.7599353790283203,20.119789123535156,-0.7834464311599731,-0.0,-0.0,-1.0,0.1151120273797219,1.0,0.0
3.4924755096435547,19.97051239013672,-0.7070034742355347,-0.0,-0.0,-1.0,0.1604088623609108,1.0,0.0
2.97760009765625,19.682729721069336,-0.739150881767273,-0.0,-0.0,-1.0,0.1824139198733347,1.0,0.0
5.021121025085449,18.740537643432617,-0.4967917203903198,-0.0,-0.0,-1.0,0.1434245421645711,1.0,0.0
2.822715759277344,20.50676918029785,-0.6362788677215576,-0.0,-0.0,-1.0,0.1473788301897522,2.0,0.0
3.619281768798828,20.328012466430664,-0.5616797208786011,-0.0,-0.0,-1.0,0.1980875559851256,1.0,0.0
3.6084022521972656,20.021648406982425,-0.5457535982131958,-0.0,-0.0,-1.0,0.0609780327620473,2.0,0.0
3.995887756347656,18.270153045654297,-0.43140709400177,-0.0,-0.0,-1.0,0.0636847910133226,1.0,0.0
2.9670181274414062,20.450706481933594,-0.5890743732452393,-0.0,-0.0,-1.0,0.138612601562489,1.0,0.0
3.553354263305664,20.27432632446289,-0.5453611612319946,-0.9762557611341128,0.1409547931801482,0.1644884042478243,0.17781497700144,4.0,0.0
3.547433853149414,20.060951232910156,-0.5156644582748413,-0.0,-0.0,-1.0,0.1856278962923798,1.0,0.0
4.138053894042969,18.475391387939453,-0.2806375026702881,-0.0,-0.0,-1.0,0.1077245348555558,1.0,0.0
2.8542041778564453,20.372085571289062,-0.8286981582641602,-0.1957235140679453,0.8747091921443579,-0.4433690733678428,0.1571216879432671,5.0,0.0
3.10616683959961,20.049285888671875,-0.7793540954589844,-0.0,-0.0,-1.0,0.1381625957910504,1.0,0.0
3.5938873291015625,20.26018524169922,-0.7637362480163574,-0.0,-0.0,-1.0,0.138466090907611,2.0,0.0
3.403350830078125,19.926441192626953,-0.7455973625183105,-0.0,-0.0,-1.0,0.2139066573921529,2.0,0.0
3.5618247985839844,20.32221794128418,-0.1184134483337402,-0.0,-0.0,-1.0,0.0957103211063493,2.0,0.0
2.7185230255126953,19.21504783630371,-0.7574756145477295,-0.0,-0.0,-1.0,0.1129452074718097,1.0,0.0
3.26180648803711,20.02593231201172,-0.784076452255249,-0.7263758630307374,-0.2987531189551901,-0.6189706612763624,0.266971772042797,4.0,0.0
3.460674285888672,20.34873962402344,-0.7982261180877686,-0.0,-0.0,-1.0,0.1360434512612798,2.0,0.0
3.9129886627197266,20.457927703857425,-0.773949384689331,-0.0,-0.0,-1.0,0.2205283479482856,1.0,0.0
2.8944263458251953,20.63101577758789,-0.1886982917785644,-0.0,-0.0,-1.0,0.1967756129761333,2.0,0.0
3.4466514587402344,20.237730026245117,-0.228810429573059,0.3177634942157176,0.9480267328490064,0.016482583154838,0.225571913946434,3.0,0.0
3.518962860107422,20.381452560424805,-0.3531860113143921,-0.0,-0.0,-1.0,0.104830591302006,2.0,0.0
3.6744461059570312,20.167552947998047,-0.2920899391174316,-0.0,-0.0,-1.0,0.1850226552586904,1.0,0.0
3.0863513946533203,20.252288818359375,-0.323811411857605,-0.0,-0.0,-1.0,0.1298805755390678,1.0,0.0
3.3929290771484375,20.32164192199707,0.2027944326400756,-0.0,-0.0,-1.0,0.1332116196306452,2.0,1.0
3.3874568939208984,20.381534576416016,0.2393989562988281,-0.0,-0.0,-1.0,0.160141531179707,2.0,1.0
3.4886741638183594,20.446231842041016,-0.251331090927124,-0.0,-0.0,-1.0,0.1525825253775139,2.0,0.0
3.2000789642333984,20.0490779876709,-0.2541728019714355,-0.0,-0.0,-1.0,0.0904423154859579,1.0,0.0
3.382654190063477,20.34592628479004,-0.2535542249679565,-0.0,-0.0,-1.0,0.1371897764393502,1.0,0.0
3.50421142578125,20.28986167907715,-0.0362424850463867,0.1535525361576258,0.3063069943904369,-0.9394666805305328,0.0815821799363556,4.0,0.0
3.4245147705078125,20.280834197998047,0.1413013935089111,-0.0,-0.0,-1.0,0.0775139448017,1.0,1.0
4.073219299316406,18.35975646972656,-0.157801866531372,-0.0,-0.0,-1.0,0.1017896077612804,2.0,0.0
3.542978286743164,20.14597511291504,-0.3109663724899292,-0.0,-0.0,-1.0,0.2053961120908766,1.0,0.0
3.2990169525146484,20.082630157470703,-0.3125563859939575,-0.0,-0.0,-1.0,0.1000202129374582,2.0,0.0
2.8136672973632812,20.359222412109375,-0.6625270843505859,-0.5176637409495888,0.696933743567449,-0.4962938730058412,0.2231311239507397,3.0,0.0
3.4049606323242188,20.288047790527344,0.2311487197875976,-0.0,-0.0,-1.0,0.1299039886318163,2.0,1.0
4.583957672119141,20.35694122314453,-0.7822802066802979,-0.9241972408479636,-0.3250550558567386,-0.2004960614849667,0.1637281902200142,3.0,0.0
4.406656265258789,20.513080596923828,-0.8029170036315918,-0.0,-0.0,-1.0,0.1066116626704249,1.0,0.0
2.9041976928710938,20.58101463317871,-0.8899967670440674,-0.0,-0.0,-1.0,0.2396348876075943,1.0,0.0
3.733846664428711,20.50785446166992,-0.8113367557525635,-0.0,-0.0,-1.0,0.164272360218274,1.0,0.0
3.304475784301758,20.19393539428711,-0.8480629920959473,-0.0,-0.0,-1.0,0.1225020176755586,1.0,0.0
3.2594757080078125,20.33422088623047,-0.8538634777069092,-0.0,-0.0,-1.0,0.232741394716631,1.0,0.0
3.030067443847656,20.6234188079834,-0.8786706924438477,-0.0,-0.0,-1.0,0.1413614675156273,1.0,0.0
2.825542449951172,19.349536895751953,-0.8839325904846191,-0.0,-0.0,-1.0,0.1358881188276823,1.0,0.0
3.7143497467041016,20.57524871826172,-0.0252739191055297,-0.0,-0.0,-1.0,0.0705612181004889,1.0,0.0
3.6761550903320312,20.31787109375,-0.5317767858505249,-0.0,-0.0,-1.0,0.1691532532600529,1.0,0.0
4.230735778808594,18.409467697143555,-0.4663630723953247,-0.0,-0.0,-1.0,0.0289309289571666,1.0,0.0
4.187444686889648,18.205162048339844,-0.6310950517654419,-0.0,-0.0,-1.0,0.2007429189094908,2.0,0.0
3.625215530395508,19.78614616394043,-0.7138108015060425,-0.0,-0.0,-1.0,0.1327383501263386,2.0,0.0
3.3812026977539062,20.113784790039062,-0.7431055307388306,-0.0,-0.0,-1.0,0.2167534328389293,1.0,0.0
3.3369083404541016,19.781070709228516,-0.7397277355194092,-0.0,-0.0,-1.0,0.2207040702673622,1.0,0.0
3.134275436401367,20.135643005371097,-0.7658160924911499,-0.0,-0.0,-1.0,0.2089848556285789,2.0,0.0
2.81988525390625,20.29558753967285,-0.797735333442688,-0.0,-0.0,-1.0,0.185750172845046,2.0,0.0
3.0526161193847656,18.327468872070312,-0.7366150617599487,-0.0,-0.0,-1.0,0.0378305103161675,1.0,0.0
3.551698684692383,20.21923828125,-0.7255607843399048,-0.0,-0.0,-1.0,0.1461585980772552,2.0,0.0
3.360431671142578,19.896860122680664,-0.7475196123123169,-0.0,-0.0,-1.0,0.2097136288181396,2.0,0.0
2.9141311645507812,20.44038772583008,-0.7895380258560181,-0.0,-0.0,-1.0,0.2407403962752513,1.0,0.0
3.1758975982666016,19.751710891723633,-0.7676395177841187,-0.0,-0.0,-1.0,0.1553618198053484,2.0,0.0
3.030920028686523,18.327430725097656,-0.7966147661209106,-0.0,-0.0,-1.0,0.039184224520459,2.0,0.0
3.53570556640625,20.281700134277344,-0.012769341468811,0.2272333018290663,0.8993078741305747,-0.3736447163638296,0.0765859763668937,4.0,0.0
3.106924057006836,19.86242294311523,-0.6439123153686523,-0.8849197163684631,-0.4569658585814567,-0.0899961092118483,0.1816117047501871,3.0,0.0
2.716951370239258,20.427593231201172,-0.6785874366760254,-0.0,-0.0,-1.0,0.1294517162109058,2.0,0.0
2.8751869201660156,19.97266960144043,-0.6660211086273193,-0.0,-0.0,-1.0,0.1634308669461142,1.0,0.0
3.5034408569335938,20.264270782470703,0.0804122686386108,-0.3673719514838941,0.5401045327244037,-0.7571822389580126,0.0750468004471458,4.0,1.0
3.584836959838867,20.16863250732422,-0.571264386177063,-0.7309578072744068,0.5720221870186137,0.3721441945577453,0.1544131042874775,3.0,0.0
3.2734508514404297,20.351682662963867,-0.6006340980529785,-0.0,-0.0,-1.0,0.1152037301669381,2.0,0.0
3.183910369873047,19.831689834594727,-0.6171905994415283,-0.0,-0.0,-1.0,0.1421380935711765,2.0,0.0
2.7755203247070312,19.95937728881836,-0.657166600227356,-0.0,-0.0,-1.0,0.176260041998919,1.0,0.0
2.803255081176758,20.361392974853516,-0.6486184597015381,-0.5176637409495888,0.696933743567449,-0.4962938730058412,0.2189434616273447,3.0,0.0
4.111637115478516,18.205148696899418,-0.5496082305908203,-0.0,-0.0,-1.0,0.0940434549661991,1.0,0.0
3.454925537109375,20.308347702026367,0.0727349519729614,-0.0,-0.0,-1.0,0.1012081140728913,1.0,1.0
2.818103790283203,20.35624313354492,-0.7216761112213135,-0.2687032393204416,0.8500156065676633,0.4530695727701305,0.266279019809449,3.0,0.0
3.5192642211914062,20.168407440185547,-0.6448874473571777,-0.0,-0.0,-1.0,0.2155383283466072,2.0,0.0
3.488697052001953,19.79234313964844,-0.6499921083450317,-0.0,-0.0,-1.0,0.1341413415078374,2.0,0.0
3.2041797637939453,19.949970245361328,-0.6806536912918091,-0.7151680367883092,-0.5754287160978633,0.3967574471214376,0.2082446798150176,4.0,0.0
3.1510467529296875,19.831144332885746,-0.687160849571228,-0.0,-0.0,-1.0,0.2081429488340779,1.0,0.0
2.8896942138671875,18.268619537353516,-0.7307212352752686,-0.0,-0.0,-1.0,0.0589759610725073,2.0,0.0
3.493274688720703,20.199731826782227,-0.7060503959655762,-0.0,-0.0,-1.0,0.1659042633371568,1.0,0.0
3.0095043182373047,20.397140502929688,-0.7550845146179199,-0.0,-0.0,-1.0,0.1622833330751771,1.0,0.0
2.83401870727539,20.3580379486084,-0.7796626091003418,0.3483387662943013,0.9373609803711715,0.0038074104270401,0.1437205040054524,4.0,0.0
3.183279037475586,19.781024932861328,-0.7716882228851318,-0.7822480978951691,0.4121263948002129,0.4671613725987722,0.1518799495633002,4.0,0.0
2.8935508728027344,20.04582977294922,-0.7915377616882324,-0.0,-0.0,-1.0,0.1908429561452305,1.0,0.0
2.7559986114501953,20.181663513183594,-0.8004364967346191,-0.0,-0.0,-1.0,0.138776324391184,1.0,0.0
3.7322311401367183,18.26776123046875,-0.8049662113189697,-0.0,-0.0,-1.0,0.144808277492372,2.0,0.0
3.3288307189941406,18.468164443969727,-0.8418426513671875,-0.0,-0.0,-1.0,0.0380622933651734,1.0,0.0
2.7802066802978516,18.74072265625,-0.892336368560791,-0.0,-0.0,-1.0,0.0403934597797674,2.0,0.0
2.8972835540771484,20.614912033081055,-0.1397466659545898,-0.0,-0.0,-1.0,0.22847380027626,2.0,0.0
4.045188903808594,18.43634796142578,-0.1810146570205688,-0.0,-0.0,-1.0,0.1017896077612803,1.0,0.0
4.057880401611328,18.38003921508789,-0.1838278770446777,-0.0,-0.0,-1.0,0.1017896077612804,2.0,0.0
4.498416900634766,20.507869720458984,-0.8153238296508789,-0.0,-0.0,-1.0,0.1129966757984141,1.0,0.0
4.457853317260742,20.35573959350586,-0.8321123123168945,-0.0,-0.0,-1.0,0.1427646456659775,2.0,0.0
3.5663108825683594,20.384654998779297,-0.9631688594818116,0.832850820321843,-0.4580431307816212,0.3107346157623959,0.1070985344948648,3.0,0.0
4.811490058898926,19.49134826660156,-0.8438692092895508,-0.0,-0.0,-1.0,0.0595443516410826,2.0,0.0
3.645364761352539,20.054710388183594,-0.975482702255249,-0.0,-0.0,-1.0,0.1008049824038546,2.0,0.0
3.5978612899780273,20.303443908691406,-0.9643063545227052,-0.0,-0.0,-1.0,0.1234865474742246,2.0,0.0
3.8585643768310542,19.685405731201172,-0.9714674949645996,-0.0,-0.0,-1.0,0.0755450676792105,1.0,0.0
3.6968603134155273,19.805870056152344,-0.9864413738250732,-0.0,-0.0,-1.0,0.098584704360741,1.0,0.0
3.5176429748535156,19.909809112548828,-0.444587230682373,-0.0,-0.0,-1.0,0.1184120157971616,2.0,0.0
3.47457218170166,20.216157913208008,-0.4261999130249023,-0.0,-0.0,-1.0,0.2066823855823237,1.0,0.0
3.017770767211914,20.053524017333984,-0.4905797243118286,-0.0,-0.0,-1.0,0.2727452427315527,1.0,0.0
5.189385414123535,18.287805557250977,-0.3859241008758545,-0.8336130886305589,0.471619996848032,-0.2875131249819438,0.1056793277150344,3.0,0.0
4.436478614807129,20.563520431518555,-0.8229126930236816,-0.0,-0.0,-1.0,0.1013217483887087,1.0,0.0
4.419924736022949,20.39496421813965,-0.8352599143981934,-0.4173520004141774,-0.901295744838158,0.116117561492286,0.1421390871025425,3.0,0.0
3.5769548416137695,20.318647384643555,-0.973989486694336,-0.0,-0.0,-1.0,0.1095313439679475,2.0,0.0
5.147574424743652,19.601871490478516,-0.7690842151641846,-0.0,-0.0,-1.0,0.1011717925715905,2.0,0.0
3.694892883300781,19.90424537658691,-0.981046199798584,-0.0,-0.0,-1.0,0.0734906495290062,1.0,0.0
3.624408721923828,20.1104679107666,-0.9792087078094482,-0.0,-0.0,-1.0,0.133275362441144,1.0,0.0
4.833545684814453,19.44870948791504,-0.8297104835510254,-0.0,-0.0,-1.0,0.0591869117160369,1.0,0.0
4.717503547668457,19.543291091918945,-0.8417432308197021,-0.0,-0.0,-1.0,0.1022168947232423,1.0,0.0
3.761651039123535,19.748687744140625,-0.9805707931518556,-0.0,-0.0,-1.0,0.121708158384129,1.0,0.0
3.5038042068481445,20.240766525268555,-0.4639066457748413,-0.0,-0.0,-1.0,0.1455313800388725,2.0,0.0
3.428651809692383,19.884418487548828,-0.4962279796600342,-0.0,-0.0,-1.0,0.1832525924830427,2.0,0.0
3.1558351516723633,20.003551483154297,-0.5222088098526001,-0.0,-0.0,-1.0,0.1363210010013117,2.0,0.0
5.125444412231445,18.292688369750977,-0.4018296003341675,-0.0,-0.0,-1.0,0.1140530429871562,1.0,0.0
4.913572311401367,20.163881301879883,-0.971455693244934,-0.0,-0.0,-1.0,0.029320661442409,1.0,0.0
4.817350387573242,20.333280563354492,-0.9809669256210328,-0.0,-0.0,-1.0,0.0632150503844759,1.0,0.0
4.850044250488281,20.08262825012207,-0.9873234033584596,0.5034285033829895,-0.0274737612283464,-0.8635999851931053,0.0492161067756605,3.0,0.0
4.841045379638672,20.039838790893555,-0.9912079572677612,-0.0,-0.0,-1.0,0.0475312424584927,2.0,0.0
3.342961311340332,20.33071517944336,-0.750090479850769,-0.0,-0.0,-1.0,0.195601133394923,2.0,0.0
3.1665639877319336,20.124345779418945,-0.7874206304550171,-0.0,-0.0,-1.0,0.2366993285241556,2.0,0.0
5.057859420776367,19.97928810119629,-0.9543300867080688,-0.0,-0.0,-1.0,0.0685252919406807,2.0,0.0
3.4316835403442383,19.7402286529541,-0.7698246240615845,-0.0,-0.0,-1.0,0.1885258535008374,2.0,0.0
3.181306838989258,19.91817283630371,-0.7968524694442749,-0.4079508539746088,-0.1928196118167025,-0.8924106106721519,0.2180789658381627,3.0,0.0
3.07772445678711,18.692941665649418,-0.8909519910812378,-0.0,-0.0,-1.0,0.0529980209045033,1.0,0.0
3.873479843139648,18.26763916015625,-0.8035162687301636,-0.0,-0.0,-1.0,0.1067830057494485,1.0,0.0
3.375838279724121,20.201587677001953,-0.2556933164596557,-0.0,-0.0,-1.0,0.1430575674598709,1.0,0.0
4.064671516418457,18.34563446044922,-0.2971367835998535,0.3250208149692689,0.6223962047037949,-0.712028394242129,0.1147232760271341,3.0,0.0
3.3928394317626953,20.41515350341797,0.2507474422454834,0.5698789583741313,0.1794495350885818,-0.8018951534701447,0.1632940160195993,3.0,1.0
3.764101028442383,20.3292236328125,-1.0078545808792114,-0.0,-0.0,-1.0,0.0699990576157718,2.0,0.0
3.7549076080322266,20.074460983276367,-1.0093258619308472,-0.0,-0.0,-1.0,0.0751771570124735,1.0,0.0
3.8271913528442383,19.821880340576172,-0.9966431856155396,-0.0,-0.0,-1.0,0.0923503664201336,1.0,0.0
4.493102073669434,20.60274124145508,-0.8766130208969116,-0.0,-0.0,-1.0,0.1667415637759015,1.0,0.0
3.527587890625,20.22239875793457,-0.5941896438598633,-0.5963598246066948,0.799045972098122,-0.0766843795622015,0.1574227538364549,5.0,0.0
2.7679176330566406,20.225994110107425,-0.7062287330627441,-0.0,-0.0,-1.0,0.1136644182162877,2.0,0.0
4.658821105957031,20.430513381958008,-0.8450771570205688,-0.7800996844375138,0.5209173782787708,0.3465394167301363,0.1837297654250818,3.0,0.0
4.386824607849121,20.34753799438477,-0.894194483757019,-0.0,-0.0,-1.0,0.1284225411413554,1.0,0.0
3.858072280883789,19.924894332885746,-0.9905859231948853,-0.0,-0.0,-1.0,0.0494364373435313,2.0,0.0
3.387953758239746,19.90508079528809,-0.616508960723877,-0.0,-0.0,-1.0,0.1942144656522054,1.0,0.0
2.9729108810424805,19.8323917388916,-0.6785299777984619,-0.0,-0.0,-1.0,0.1825014812749121,1.0,0.0
3.8479137420654297,19.757070541381836,-0.993160605430603,-0.0,-0.0,-1.0,0.083391270197919,1.0,0.0
2.979130744934082,19.647052764892575,-0.6793617010116577,-0.0,-0.0,-1.0,0.1139806553259634,1.0,0.0
4.657995223999023,19.6009578704834,-0.8452297449111938,-0.0,-0.0,-1.0,0.1486465392260839,2.0,0.0
2.82564926147461,18.54401397705078,-0.7214522361755371,-0.0,-0.0,-1.0,0.0584604070567317,1.0,0.0
2.8559656143188477,18.20104217529297,-0.725993275642395,-0.0,-0.0,-1.0,0.0459899597881032,1.0,0.0
2.8367815017700195,20.54138946533203,-0.2174745798110962,-0.0,-0.0,-1.0,0.1794826775898305,1.0,0.0
5.164888381958008,18.247228622436523,-0.3814576864242553,-0.0,-0.0,-1.0,0.1056793277150344,2.0,0.0
3.517123222351074,20.308095932006836,-0.1426950693130493,-0.0,-0.0,-1.0,0.0946085111968554,2.0,0.0
3.3548812866210938,20.413339614868164,0.2952777147293091,-0.0,-0.0,-1.0,0.1464345711183477,1.0,1.0
3.7206497192382817,20.42913818359375,-1.0047852993011477,-0.0,-0.0,-1.0,0.0972521463186249,1.0,0.0
2.902475357055664,20.50084114074707,-0.728140115737915,-0.0,-0.0,-1.0,0.2288604647258984,2.0,0.0
4.611668586730957,20.45400619506836,-0.8198583126068115,-0.911627247664158,0.3038411522459872,-0.2767965236741656,0.1850147898418727,5.0,0.0
4.43746280670166,20.463096618652344,-0.8557355403900146,-0.2909646463543439,-0.8804504860784756,-0.3743614779007952,0.1562478775689809,3.0,0.0
3.723273277282715,20.210813522338867,-1.010913610458374,-0.0,-0.0,-1.0,0.0927269565588728,1.0,0.0
2.745894432067871,20.01311492919922,-0.774662971496582,-0.0,-0.0,-1.0,0.1162669490194056,1.0,0.0
3.97628402709961,19.739667892456055,-0.975559949874878,-0.0,-0.0,-1.0,0.0400607233660161,1.0,0.0
3.838455200195313,19.9414119720459,-0.996311902999878,0.5999462472632805,0.4945054927933834,-0.6289108187906136,0.0473989330349786,3.0,0.0
3.186579704284668,20.407072067260746,-0.6825871467590332,-0.0,-0.0,-1.0,0.1210729006395212,1.0,0.0
3.549041748046875,20.2370548248291,-0.6264065504074097,-0.6822238221053338,0.7300874480021776,-0.0392807181917101,0.1768406344693379,4.0,0.0
3.212848663330078,19.923908233642575,-0.6976237297058105,-0.7447135652649106,-0.5200575066608235,0.4182605593121989,0.1698721387297724,3.0,0.0
3.0959672927856445,19.796796798706055,-0.7237999439239502,-0.0,-0.0,-1.0,0.2064862569700947,1.0,0.0
3.5214662551879883,19.85859107971191,-0.6469390392303467,-0.0,-0.0,-1.0,0.1464048466195339,1.0,0.0
5.143953323364258,19.629161834716797,-0.735278844833374,-0.0,-0.0,-1.0,0.0990142812943066,2.0,0.0
4.657782554626465,19.61247444152832,-0.8379819393157959,-0.0,-0.0,-1.0,0.1486465392260839,2.0,0.0
3.2193546295166016,18.643556594848633,-0.769944429397583,-0.0,-0.0,-1.0,0.0696782368873087,1.0,0.0
2.9112796783447266,18.48847389221191,-0.8352539539337158,-0.0,-0.0,-1.0,0.06658472383657,2.0,0.0
3.022080421447754,18.38291931152344,-0.8235962390899658,-0.0,-0.0,-1.0,0.0407097038193179,1.0,0.0
2.809027671813965,20.53510093688965,-0.3001818656921386,-0.0,-0.0,-1.0,0.1558894569857636,1.0,0.0
3.463642120361328,20.32993507385254,-0.2191054821014404,-0.0,-0.0,-1.0,0.1873825986712781,1.0,0.0
4.048581123352051,18.39712142944336,-0.2493298053741455,-0.0,-0.0,-1.0,0.1017896077612803,2.0,0.0
3.4275083541870117,20.39385223388672,0.1950896978378296,-0.0,-0.0,-1.0,0.1356953506949725,1.0,1.0
3.046945571899414,20.52517318725586,-0.5330263376235962,-0.0,-0.0,-1.0,0.0821298213871009,1.0,0.0
3.4777345657348633,20.328125,-0.4662787914276123,-0.0,-0.0,-1.0,0.149035407760765,2.0,0.0
3.3034353256225586,20.033645629882812,-0.5008692741394043,-0.0,-0.0,-1.0,0.1646986502809974,1.0,0.0
2.9606761932373047,19.96082878112793,-0.559134840965271,-0.0,-0.0,-1.0,0.2226067111653836,1.0,0.0
3.4444408416748047,20.374610900878903,-0.0714132785797119,-0.0,-0.0,-1.0,0.0579652174246245,1.0,0.0
3.91629409790039,18.26531982421875,-0.4776337146759033,-0.0,-0.0,-1.0,0.0370920392460857,2.0,0.0
3.3779220581054688,20.492816925048828,0.3221595287322998,-0.0,-0.0,-1.0,0.1559688663763967,2.0,1.0
2.818883895874023,20.59632110595703,-0.3431541919708252,-0.0,-0.0,-1.0,0.0907536149830671,1.0,0.0
3.4767627716064453,20.373756408691406,-0.247471809387207,-0.0,-0.0,-1.0,0.1659449192462209,1.0,0.0
3.4591007232666016,20.44876480102539,0.140862226486206,-0.0,-0.0,-1.0,0.0976116194635598,2.0,1.0
4.013591766357422,18.55647087097168,-0.1837831735610962,-0.0,-0.0,-1.0,0.0765880376897025,1.0,0.0
3.217074394226074,20.4207820892334,-0.502435564994812,-0.0,-0.0,-1.0,0.1531922366143805,2.0,0.0
3.159372329711914,20.118988037109375,-0.4994645118713379,-0.0,-0.0,-1.0,0.1738753635269334,2.0,0.0
3.5015792846679688,20.311664581298828,-0.4548021554946899,0.5863425460922824,0.8078725749425998,-0.0595342027546599,0.131379336048733,3.0,0.0
3.5600013732910156,20.06087303161621,-0.4360756874084472,-0.0,-0.0,-1.0,0.1572574276653849,1.0,0.0
4.0799407958984375,18.39726448059082,-0.3241709470748901,-0.0,-0.0,-1.0,0.0851270144773962,1.0,0.0
3.4351301193237305,20.53207778930664,0.3113564252853393,-0.0,-0.0,-1.0,0.1585851116234962,1.0,1.0
2.7899246215820312,20.513248443603516,-0.918965458869934,-0.0,-0.0,-1.0,0.148208923557109,1.0,0.0
2.829946517944336,20.28079414367676,-0.893011212348938,-0.9571088436098846,0.2007258272595215,-0.2089301408479172,0.1366121577112975,3.0,0.0
3.027149200439453,20.3928165435791,-0.8700729608535767,-0.0,-0.0,-1.0,0.239838158109319,1.0,0.0
3.189295768737793,19.948564529418945,-0.8070710897445679,-0.4079508539746088,-0.1928196118167025,-0.8924106106721519,0.2501122072819867,3.0,0.0
3.4347314834594727,20.327648162841797,-0.7975586652755737,-0.0,-0.0,-1.0,0.133200843562562,2.0,0.0
3.281230926513672,19.882909774780273,-0.7868565320968628,-0.0,-0.0,-1.0,0.2683995734633497,1.0,0.0
3.197660446166992,19.6820011138916,-0.7856894731521606,-0.0,-0.0,-1.0,0.1518764276040201,1.0,0.0
2.89200210571289,18.406225204467773,-0.7623988389968872,-0.0,-0.0,-1.0,0.0611564788514583,1.0,0.0
3.984081268310547,20.379602432250977,-0.7128462791442871,-0.0,-0.0,-1.0,0.182700527593271,1.0,0.0
3.615870475769043,19.76646614074707,-0.7219763994216919,-0.0,-0.0,-1.0,0.1063441245531406,2.0,0.0
4.520698547363281,20.20877265930176,-0.9797095060348512,-0.0,-0.0,-1.0,0.1226550248674319,1.0,0.0
4.404660224914551,20.08353805541992,-0.989392876625061,-0.0,-0.0,-1.0,0.0930642613692612,1.0,0.0
4.130405426025391,19.809194564819336,-1.016849398612976,-0.0,-0.0,-1.0,0.0199474262747174,1.0,0.0
4.671797752380371,20.5015811920166,-0.9826852083206176,-0.0,-0.0,-1.0,0.1593028067860671,1.0,0.0
4.704347610473633,20.343719482421875,-0.9588068723678588,-0.0,-0.0,-1.0,0.1080743439235877,1.0,0.0
4.863812446594238,19.51589584350586,-0.8432413339614868,-0.0,-0.0,-1.0,0.1050696467010506,1.0,0.0
5.056880950927734,18.298370361328125,-0.7096482515335083,-0.0,-0.0,-1.0,0.1007955535232644,2.0,0.0
2.985774040222168,19.861846923828125,-0.4228785037994385,-0.0,-0.0,-1.0,0.14033823400115,2.0,0.0
3.589949607849121,20.16464614868164,-0.3635308742523193,-0.0,-0.0,-1.0,0.1516744356441431,2.0,0.0
3.379641532897949,19.774045944213867,-0.3648120164871216,-0.0,-0.0,-1.0,0.2744577818146352,1.0,0.0
3.760403633117676,20.242095947265625,-0.346933364868164,-0.0,-0.0,-1.0,0.1822264745707644,1.0,0.0
4.174193382263184,18.21950340270996,-0.5298696756362915,-0.0,-0.0,-1.0,0.0884882244906458,2.0,0.0
3.521158218383789,20.30556869506836,0.0121161937713623,0.2602089633370949,0.913231421801742,-0.3135277748988167,0.0861265350441335,4.0,1.0
4.140795707702637,18.408540725708008,-0.1871044635772705,0.8509012929028988,0.3927250347659608,-0.3489040510000566,0.1017896077612804,6.0,0.0
2.726604461669922,19.691986083984375,-0.9644352197647096,-0.0,-0.0,-1.0,0.0995094046968489,1.0,0.0
2.711817741394043,19.409900665283203,-0.9476367235183716,-0.0,-0.0,-1.0,0.0751046486598989,1.0,0.0
3.304154396057129,20.376476287841797,-0.9211651086807252,-0.0,-0.0,-1.0,0.2160468632211802,1.0,0.0
3.149698257446289,20.090499877929688,-0.9229496717453004,-0.0,-0.0,-1.0,0.1780439562456109,1.0,0.0
3.1799182891845703,19.682233810424805,-0.8861974477767944,-0.0,-0.0,-1.0,0.1608665357842604,2.0,0.0
2.715669631958008,18.866838455200195,-0.91380774974823,-0.0,-0.0,-1.0,0.046541253604494,1.0,0.0
3.510714530944824,20.14777946472168,-0.867470383644104,-0.0,-0.0,-1.0,0.1652987794336506,1.0,0.0
3.430487632751465,19.84663200378418,-0.8563462495803833,-0.0,-0.0,-1.0,0.2118604199147571,2.0,0.0
3.2785730361938477,19.70323944091797,-0.8709937334060669,-0.0,-0.0,-1.0,0.1760124885633945,2.0,0.0
3.0703420639038086,18.242746353149418,-0.818285346031189,-0.0,-0.0,-1.0,0.0338664195387332,1.0,0.0
4.8253374099731445,20.527015686035156,-1.0655802488327026,-0.0,-0.0,-1.0,0.0957702121851253,1.0,0.0
4.896625518798828,20.244157791137695,-1.0187073945999146,-0.0,-0.0,-1.0,0.0314359581745418,1.0,0.0
4.912402153015137,19.966453552246097,-0.9840508699417114,-0.9065324703462608,0.4170637405006774,-0.0652435174365151,0.0837355994903941,3.0,0.0
2.8316431045532227,20.44160842895508,-0.5735487937927246,-0.0,-0.0,-1.0,0.1813365080498584,2.0,0.0
3.156682014465332,19.994152069091797,-0.5000931024551392,-0.0,-0.0,-1.0,0.1465418985940844,2.0,0.0
3.541872024536133,20.20204734802246,-0.4623893499374389,0.7970432409419251,0.5141786685450971,-0.3167686362031178,0.1128592502894271,5.0,0.0
3.605937004089355,19.87835693359375,-0.4319342374801636,-0.0,-0.0,-1.0,0.0986709344234798,1.0,0.0
5.146724700927734,18.95534324645996,-0.4978106021881103,-0.0,-0.0,-1.0,0.1174159508570891,1.0,0.0
2.9592294692993164,20.60809326171875,-0.1428295373916626,-0.0,-0.0,-1.0,0.2455182923393287,2.0,0.0
3.135647773742676,20.451805114746097,-0.1165250539779663,-0.0,-0.0,-1.0,0.1704032185179893,1.0,0.0
4.1424560546875,18.312305450439453,-0.2711390256881714,-0.0,-0.0,-1.0,0.0851270144773962,1.0,0.0
3.4670801162719727,20.383575439453125,0.3228272199630737,-0.6737816804758594,-0.201692009091342,-0.710871704686454,0.1332876427201848,3.0,1.0
3.2681198120117188,19.66552734375,-0.3158565759658813,-0.0,-0.0,-1.0,0.2107642134968635,1.0,0.0
3.610227584838867,20.58905982971191,-0.4176968336105346,-0.0,-0.0,-1.0,0.2193389313667586,1.0,0.0
3.455510139465332,19.960773468017575,-0.3392883539199829,-0.0,-0.0,-1.0,0.1020918670690018,1.0,0.0
3.4276256561279297,19.84557342529297,-0.3258641958236694,-0.0,-0.0,-1.0,0.2062670719583675,1.0,0.0
2.791611671447754,20.266658782958984,-1.052762150764465,-0.0,-0.0,-1.0,0.1122691747055541,1.0,0.0
2.8050413131713867,19.86736297607422,-0.9780079126358032,-0.0,-0.0,-1.0,0.217820109114943,2.0,0.0
2.7771825790405273,20.188730239868164,-0.5895379781723022,-0.0,-0.0,-1.0,0.1813775817802232,2.0,0.0
3.211480140686035,20.098209381103516,-0.976108193397522,-0.0,-0.0,-1.0,0.1670020204061569,1.0,0.0
3.116161346435547,19.735492706298828,-0.9195750951766968,-0.0,-0.0,-1.0,0.1911405751364391,1.0,0.0
3.1812877655029297,19.34117317199707,-0.8422106504440308,-0.0,-0.0,-1.0,0.0360134302664885,1.0,0.0
3.4803218841552734,20.3468017578125,-0.9954284429550172,-0.0,-0.0,-1.0,0.122935444447088,1.0,0.0
3.522984504699707,20.07439613342285,-0.938592791557312,-0.0,-0.0,-1.0,0.1121718792392047,2.0,0.0
3.44852352142334,19.72596740722656,-0.8811389207839966,-0.0,-0.0,-1.0,0.2118001689645939,1.0,0.0
3.4893054962158203,19.33346939086914,-0.8058053255081177,-0.0,-0.0,-1.0,0.0418880023889412,1.0,0.0
4.44317626953125,19.97284698486328,-0.8235028982162476,-0.0,-0.0,-1.0,0.1553864953493698,1.0,0.0
4.570725440979004,20.000019073486328,-0.8160990476608276,-0.0,-0.0,-1.0,0.1157559087808683,1.0,0.0
2.8116140365600586,19.405189514160156,-0.46034836769104,-0.0,-0.0,-1.0,0.1292144361709188,1.0,0.0
3.3688173294067383,19.823894500732425,-0.4827349185943603,-0.0,-0.0,-1.0,0.1525718834576158,1.0,0.0
3.192842483520508,19.33232307434082,-0.4173212051391601,-0.0,-0.0,-1.0,0.1800939811178682,1.0,0.0
3.4764270782470703,19.522396087646484,-0.4246609210968017,-0.0,-0.0,-1.0,0.1188227244121993,1.0,0.0
4.849930763244629,18.49358367919922,-0.5037753582000732,-0.0,-0.0,-1.0,0.129867393617281,1.0,0.0
2.814751625061035,20.127901077270508,-0.1331568956375122,-0.0,-0.0,-1.0,0.1061866751633648,1.0,0.0
3.43697738647461,19.84026336669922,-0.061230182647705,-0.0,-0.0,-1.0,0.1410722977350731,1.0,0.0
4.114688873291016,18.3868408203125,-0.2221474647521972,0.3545013996657039,0.6788201318614739,-0.6430645272557242,0.1017896077612804,7.0,0.0
3.634082794189453,20.18068504333496,-0.4314172267913818,-0.0,-0.0,-1.0,0.2063208690286811,2.0,0.0
3.465182304382324,20.426246643066406,0.2947821617126465,-0.8013224419264814,-0.1579802697543018,-0.5769961684737073,0.1547719377132803,4.0,1.0
4.6229248046875,20.3829288482666,-0.8475437164306641,-0.9861635568365702,-0.1418501800058573,-0.0857902418678881,0.158178861541386,3.0,0.0
4.400078773498535,20.399799346923828,-0.869060754776001,-0.0,-0.0,-1.0,0.1506227421427885,2.0,0.0
2.90694522857666,20.417808532714844,-0.6636905670166016,-0.0,-0.0,-1.0,0.2298313430216346,1.0,0.0
2.8082923889160156,20.144792556762695,-0.5090937614440918,-0.0,-0.0,-1.0,0.1286496002780525,1.0,0.0
3.5702733993530273,20.205060958862305,-0.4445595741271972,0.3113940181826824,0.7518276186749219,-0.5811961779275904,0.176522750308461,5.0,0.0
4.111898422241211,18.417566299438477,-0.1941626071929931,0.3263748829095901,0.551112839262913,-0.7679544740447328,0.1017896077612804,7.0,0.0
3.571561813354492,20.187088012695312,-0.4744482040405273,0.5548340756537592,0.6820725737211671,-0.4763781614125712,0.0835304755465161,5.0,0.0
2.8662633895874023,20.06214141845703,-0.5306038856506348,-0.0,-0.0,-1.0,0.1928793242258566,1.0,0.0
3.1286678314208984,20.11713981628418,-0.5074865818023682,-0.0,-0.0,-1.0,0.1620375331032866,2.0,0.0
3.612924575805664,20.208885192871097,-0.8019993305206299,-0.0,-0.0,-1.0,0.1200357640768917,1.0,0.0
4.332516670227051,19.40533447265625,-0.8768603801727295,-0.0,-0.0,-1.0,0.0554740809324345,2.0,0.0
5.091602325439453,18.875993728637695,-0.7275948524475098,-0.0,-0.0,-1.0,0.1176893928304385,1.0,0.0
3.5382823944091797,20.273611068725582,-0.3107130527496338,-0.171179700797505,0.9123728212724488,-0.3718512404688583,0.1645302198273041,3.0,0.0
2.9975719451904297,20.5745906829834,-0.3913376331329345,-0.4778944013135965,-0.2251718390439702,-0.8490668902357903,0.1649167512256582,3.0,0.0
3.622195243835449,20.280122756958008,-0.739387035369873,0.5969818608979345,0.1209601591184859,-0.7930834115431177,0.096655348989432,3.0,0.0
2.8750476837158203,20.38543128967285,-0.8332560062408447,-0.5367087038973852,0.8436204151935313,0.0157595123491339,0.1573188137427832,3.0,0.0
2.744871139526367,20.235408782958984,-0.828392505645752,-0.0,-0.0,-1.0,0.100178835592244,1.0,0.0
4.598983287811279,20.461275100708008,-0.8404836654663086,-0.695418824534267,0.4268076826766817,0.5781244333978102,0.1893695597539171,3.0,0.0
4.418683052062988,20.469995498657227,-0.8573646545410156,-0.0,-0.0,-1.0,0.1667921808807405,2.0,0.0
3.726175308227539,20.399555206298828,-0.908316135406494,-0.0,-0.0,-1.0,0.1279561109316714,1.0,0.0
3.479315280914306,19.84504508972168,-0.8458411693572998,0.108715429003727,0.9243725321108186,-0.3656725001631506,0.2319497580775641,3.0,0.0
3.252211093902588,19.86258125305176,-0.8703339099884033,-0.0,-0.0,-1.0,0.2060953341006298,1.0,0.0
2.760697364807129,20.147844314575195,-0.962061882019043,-0.0,-0.0,-1.0,0.1121578004792561,1.0,0.0
2.8875107765197754,20.371946334838867,-0.9836640357971193,-0.0,-0.0,-1.0,0.2051329909299248,2.0,0.0
3.901322841644287,18.17002868652344,-0.5485372543334961,-0.0,-0.0,-1.0,0.0890813144159268,1.0,0.0
2.910459518432617,20.372203826904297,-0.2765383720397949,-0.0,-0.0,-1.0,0.2488787465394704,2.0,0.0
3.718435287475586,20.214019775390625,-0.7281103134155273,-0.0,-0.0,-1.0,0.0735538433583967,1.0,0.0
3.446776866912842,20.11962890625,-0.7344114780426025,-0.0,-0.0,-1.0,0.1877260055826443,1.0,0.0
3.3828558921813965,20.36188507080078,-0.7787132263183594,-0.0,-0.0,-1.0,0.2003704727988376,2.0,0.0
3.172520637512207,19.871227264404297,-0.7166318893432617,-0.0,-0.0,-1.0,0.1273749812210114,1.0,0.0
3.7809243202209473,18.28212547302246,-0.4102668762207031,-0.0,-0.0,-1.0,0.1082488635645455,2.0,0.0
3.5379714965820312,20.310033798217773,-0.1016077995300293,0.1382351559551373,0.9131942323634172,-0.3833631902468569,0.0550632458640417,5.0,0.0
2.9317641258239746,20.59864616394043,-0.179656982421875,0.2231751723220337,-0.9609747302577394,0.1634637888496884,0.2516130463959848,4.0,0.0
3.957181453704834,20.407936096191406,-1.0482516288757324,-0.0,-0.0,-1.0,0.1008999651606302,1.0,0.0
5.149250030517578,18.286117553710938,-0.5485823154449463,-0.0,-0.0,-1.0,0.1140530429871563,1.0,0.0
4.897617340087891,19.213085174560547,-0.740807294845581,-0.0,-0.0,-1.0,0.0914833762246386,1.0,0.0
4.3528361320495605,18.58264541625977,-0.6804935932159424,-0.0,-0.0,-1.0,0.1242424339308326,2.0,0.0
4.3553996086120605,20.170339584350582,-0.9663031101226808,-0.0,-0.0,-1.0,0.1083649650874346,2.0,0.0
3.9442062377929688,19.321611404418945,-0.854515552520752,-0.0,-0.0,-1.0,0.0468233481490031,2.0,0.0
3.883272171020508,20.232837677001953,-1.0240955352783203,-0.0,-0.0,-1.0,0.0548529233287583,2.0,0.0
3.7383604049682617,19.276344299316406,-0.8677706718444824,0.7092434223835231,0.6575975821370946,-0.2540456411221308,0.04681306514376,3.0,0.0
3.4143991470336914,19.681669235229492,-0.9738550186157228,-0.0,-0.0,-1.0,0.1239455604667849,2.0,0.0
3.293583393096924,18.69610023498535,-0.8127832412719727,-0.0,-0.0,-1.0,0.0729209586282125,2.0,0.0
3.256615161895752,19.356218338012695,-0.93308687210083,-0.0,-0.0,-1.0,0.0333142346529092,1.0,0.0
3.2131285667419434,19.562759399414062,-0.974351406097412,-0.0,-0.0,-1.0,0.0611815859456018,1.0,0.0
2.7868552207946777,19.180309295654297,-0.9539437294006348,-0.0,-0.0,-1.0,0.0376597327938178,1.0,0.0
3.3897604942321777,19.8613224029541,-0.3820972442626953,-0.0,-0.0,-1.0,0.2592277021656293,1.0,0.0
3.6159300804138184,20.12622833251953,-0.400078535079956,-0.0,-0.0,-1.0,0.0914553647442103,2.0,0.0
3.287559509277344,20.4381046295166,-0.4747986793518066,-0.0,-0.0,-1.0,0.0436306558193128,1.0,0.0
2.8071703910827637,20.439722061157227,-0.519132137298584,0.2916034547126868,0.8500003243363764,-0.4387104669684565,0.1145881618768996,5.0,0.0
3.4775390625,20.436737060546875,0.1792261600494384,-0.0,-0.0,-1.0,0.142791364135742,2.0,1.0
4.939834117889404,19.078407287597656,-0.6990416049957275,-0.0,-0.0,-1.0,0.0992351567772949,1.0,0.0
4.206662654876709,19.445199966430664,-0.8356971740722656,-0.0,-0.0,-1.0,0.0501381484108793,1.0,0.0
4.263288974761963,20.235231399536133,-0.9859211444854736,-0.0,-0.0,-1.0,0.0815949543866528,1.0,0.0
3.850485324859619,19.30477523803711,-0.8411822319030762,-0.0,-0.0,-1.0,0.0469243123722157,2.0,0.0
3.663550853729248,19.251577377319336,-0.8486082553863525,-0.0,-0.0,-1.0,0.0465619025278156,1.0,0.0
3.3987884521484375,19.655744552612305,-0.9523556232452391,-0.0,-0.0,-1.0,0.1017039489058486,2.0,0.0
3.3127732276916504,18.693143844604492,-0.7756071090698242,-0.0,-0.0,-1.0,0.1055251988325424,2.0,0.0
3.0846147537231445,19.320587158203125,-0.918910264968872,-0.0,-0.0,-1.0,0.0174648401987383,2.0,0.0
3.149512767791748,19.601804733276367,-0.9643642902374268,-0.0,-0.0,-1.0,0.0931617555873375,1.0,0.0
2.7415618896484375,18.91409683227539,-0.8707811832427979,-0.0,-0.0,-1.0,0.048952441420413,1.0,0.0
4.350375175476074,18.560670852661133,-0.6495490074157715,-0.0,-0.0,-1.0,0.1323670285111752,2.0,0.0
4.056638240814209,18.196557998657227,-0.6065685749053955,-0.0,-0.0,-1.0,0.1688115017256365,1.0,0.0
3.5417189598083496,20.28239631652832,-0.4566402435302734,-0.0,-0.0,-1.0,0.1547637421221192,2.0,0.0
2.9814963340759277,20.468524932861328,-0.5319974422454834,-0.0,-0.0,-1.0,0.1344316076737804,1.0,0.0
2.718195915222168,20.326574325561523,-0.5313653945922852,-0.0,-0.0,-1.0,0.1026221735291087,2.0,0.0
3.490081310272217,20.39710998535156,0.1215035915374755,-0.7700482239198094,-0.1803487647339921,-0.6119640969018282,0.0761059549341177,4.0,1.0
4.304845809936523,18.616966247558594,-0.8640837669372559,-0.0,-0.0,-1.0,0.0996584365611535,1.0,0.0
3.624396324157715,19.875648498535156,-0.663618803024292,-0.0,-0.0,-1.0,0.1704920912804766,1.0,0.0
3.643722534179687,20.25083923339844,-0.7276489734649658,-0.0,-0.0,-1.0,0.1080148560468331,2.0,0.0
3.5746636390686035,19.856163024902344,-0.666236162185669,-0.0,-0.0,-1.0,0.1955231989124701,2.0,0.0
3.5178699493408203,20.26877212524414,-0.745964527130127,-0.0,-0.0,-1.0,0.1772820948706108,2.0,0.0
3.1381983757019043,19.906024932861328,-0.7290232181549072,-0.0,-0.0,-1.0,0.2204993227703497,2.0,0.0
2.8285341262817383,20.352508544921875,-0.8460192680358887,-0.0549884696688516,0.7011099792806025,-0.7109297188587849,0.1295048628149298,3.0,0.0
4.155914783477783,18.371429443359375,-0.3335962295532226,-0.0,-0.0,-1.0,0.0718829452285553,2.0,0.0
2.869259834289551,20.45330810546875,-0.2785646915435791,-0.0,-0.0,-1.0,0.1828585471379347,1.0,0.0
4.579103946685791,18.13779067993164,-0.8032753467559814,-0.0,-0.0,-1.0,0.0712705441383631,1.0,0.0
4.358124256134033,20.439924240112305,-0.8647441864013672,-0.0,-0.0,-1.0,0.1471624859989537,1.0,0.0
3.5788393020629883,20.41875648498535,-0.9464805126190186,0.832850820321843,-0.4580431307816212,0.3107346157623959,0.1435096262610573,3.0,0.0
3.228801727294922,19.942283630371097,-0.8884258270263672,-0.0,-0.0,-1.0,0.2053281620571211,1.0,0.0
3.4022650718688965,20.366233825683594,-0.9558923244476318,-0.0,-0.0,-1.0,0.1409165296581609,2.0,0.0
2.731307029724121,19.97673797607422,-0.9572141170501708,-0.0,-0.0,-1.0,0.1257363272448775,2.0,0.0
2.86974573135376,20.15898323059082,-0.9772567749023438,-0.0,-0.0,-1.0,0.1864008544627558,1.0,0.0
5.184462547302246,18.84315299987793,-0.436722993850708,-0.0,-0.0,-1.0,0.1203035985117565,1.0,0.0
4.6794843673706055,20.45437240600586,-0.8344266414642334,-0.0,-0.0,-1.0,0.1434899347220546,2.0,0.0
4.531298637390137,20.403491973876953,-0.8387866020202637,-0.0,-0.0,-1.0,0.1606664409926098,1.0,0.0
4.1178131103515625,18.306446075439453,-0.4419624805450439,0.8732631195892447,0.4808025875890823,-0.0789961754321242,0.0907316508757899,3.0,0.0
3.5043296813964844,20.004701614379883,-0.8684229850769043,-0.0,-0.0,-1.0,0.0926948285431808,2.0,0.0
3.333282947540283,19.89613151550293,-0.8663790225982666,-0.0,-0.0,-1.0,0.1895121593087023,2.0,0.0
3.5609893798828125,20.22971534729004,-0.3805024623870849,0.2439993538655273,-0.769713571575009,-0.5899197683129873,0.1875057485252649,7.0,0.0
2.8171682357788086,20.494693756103516,-0.5042262077331543,-0.5444888320830529,0.3459166966286949,-0.7641161892868937,0.1854691971550122,5.0,0.0
3.719241142272949,20.51524353027344,-1.0040769577026367,-0.0,-0.0,-1.0,0.0977805969395481,1.0,0.0
3.361894130706787,20.37109375,-1.0232088565826416,-0.0,-0.0,-1.0,0.1726228779936238,1.0,0.0
2.796530246734619,19.996898651123047,-1.028459072113037,-0.0,-0.0,-1.0,0.1459147861052093,1.0,0.0
2.9062628746032715,20.19747734069824,-1.053851842880249,-0.0,-0.0,-1.0,0.1335245044419049,2.0,0.0
4.4556708335876465,20.475168228149418,-0.8982782363891602,-0.0,-0.0,-1.0,0.1538624008516639,2.0,0.0
3.386631488800049,19.930221557617188,-0.924602508544922,-0.0,-0.0,-1.0,0.186924987600756,1.0,0.0
3.1584744453430176,19.90142059326172,-0.9524247646331788,-0.0,-0.0,-1.0,0.1874634916752288,1.0,0.0
2.8050904273986816,20.432401657104492,-0.6032583713531494,-0.0,-0.0,-1.0,0.1637201866511036,2.0,0.0
2.8278961181640625,20.52945899963379,-0.6175603866577148,-0.0,-0.0,-1.0,0.1142938851068536,2.0,0.0
3.9702229499816895,18.277498245239254,-0.483628511428833,-0.0,-0.0,-1.0,0.0372038196463133,2.0,0.0
3.6041855812072754,20.16265869140625,-0.4492871761322021,0.5563989384841005,-0.1058021846505097,-0.8241517572492005,0.1135685360291759,3.0,0.0
3.733294486999512,20.27085304260254,-0.4531025886535644,-0.0,-0.0,-1.0,0.1466948665890755,1.0,0.0
3.295609474182129,20.44059944152832,-0.5397260189056396,-0.0,-0.0,-1.0,0.0767442586720317,2.0,0.0
2.8624372482299805,20.14708137512207,-0.5441694259643555,-0.0,-0.0,-1.0,0.1606376324692215,2.0,0.0
3.5197649002075195,20.36436462402344,-0.0028371810913085,-0.0,-0.0,-1.0,0.0848231367239461,1.0,0.0
5.088033676147461,18.657421112060547,-0.63614821434021,-0.0,-0.0,-1.0,0.1149530433021348,1.0,0.0
4.473043918609619,19.4029541015625,-0.9283103942871094,-0.0,-0.0,-1.0,0.05744812513459,1.0,0.0
4.1639084815979,18.20681381225586,-0.6539053916931152,-0.0,-0.0,-1.0,0.1955797722263906,2.0,0.0
4.358468532562256,18.61073875427246,-0.7307536602020264,-0.0,-0.0,-1.0,0.1268807600159905,1.0,0.0
4.070769786834717,18.99334716796875,-0.878441333770752,-0.0,-0.0,-1.0,0.0646806764840435,1.0,0.0
4.122036933898926,19.302902221679688,-0.953810691833496,-0.0,-0.0,-1.0,0.0324631274684819,1.0,0.0
3.882954597473145,19.0599365234375,-0.926034450531006,-0.0,-0.0,-1.0,0.0349891157892247,1.0,0.0
3.7337546348571777,19.090166091918945,-0.9583263397216796,-0.0,-0.0,-1.0,0.0271991549020792,1.0,0.0
3.5888419151306152,19.82926368713379,-0.7201294898986816,-0.0,-0.0,-1.0,0.1576085407625109,2.0,0.0
3.658055305480957,20.23601531982422,-0.805795431137085,-0.0,-0.0,-1.0,0.1267256277826841,1.0,0.0
3.5261101722717285,20.258487701416016,-0.8293509483337402,-0.0,-0.0,-1.0,0.1749176598568455,2.0,0.0
3.2955026626586914,18.52967834472656,-0.8859727382659912,-0.0,-0.0,-1.0,0.0600464928578116,1.0,0.0
3.4096226692199707,18.802413940429688,-0.9368488788604736,0.0824417072272539,0.9782105908170754,0.1905450207241438,0.0760909795755676,3.0,0.0
3.5388383865356445,19.074138641357425,-0.986036777496338,-0.0,-0.0,-1.0,0.0256157788167231,1.0,0.0
3.2514562606811523,20.021804809570312,-0.8133430480957031,-0.9055107810849516,-0.2349093776168537,0.3533663957517515,0.2722307850393753,3.0,0.0
3.2869081497192383,20.51663398742676,-0.9233620166778564,-0.0,-0.0,-1.0,0.1955247871396805,1.0,0.0
3.116029739379883,18.44842529296875,-0.8972151279449463,-0.0,-0.0,-1.0,0.0462928964146394,1.0,0.0
2.769721508026123,20.267730712890625,-0.9412884712219238,-0.0,-0.0,-1.0,0.1093315798229093,1.0,0.0
5.193758010864258,18.14984130859375,-0.4815020561218261,-0.0,-0.0,-1.0,0.1140530429871563,1.0,0.0
3.5194334983825684,20.257423400878903,-0.3651876449584961,-0.1368748106016174,0.3803101435273732,-0.9146745218671832,0.1265511101882341,4.0,0.0
2.8182973861694336,20.452884674072266,-0.4931333065032959,0.0166123893350966,0.1632067018972459,-0.986452026697904,0.1854404944717458,5.0,0.0
4.664831638336182,20.39325714111328,-0.9845142364501952,-0.0,-0.0,-1.0,0.2443474032765566,1.0,0.0
