x,y,z,nx,ny,nz,curvature,density
32.03477478027344,-9.920108795166016,-0.1538174152374267,-0.0,-0.0,-1.0,0.0724124039560456,2.0
31.82761001586914,-9.902268409729004,-0.1506903171539306,-0.0,-0.0,-1.0,0.0087974828714003,2.0
33.47278594970703,-9.89555835723877,-0.2241313457489013,-0.1499673045502182,-0.4884921745332188,-0.8595843198812722,0.1070741761902216,3.0
33.612762451171875,-10.263463973999023,-0.1593482494354248,-0.0,-0.0,-1.0,0.1194575507929435,1.0
33.57172775268555,-10.193398475646973,0.3403005599975586,-0.0,-0.0,-1.0,0.1897476455055732,2.0
33.649532318115234,-9.04097843170166,-0.3092296123504638,-0.0,-0.0,-1.0,0.1601250584071172,1.0
33.29875183105469,-9.061722755432127,-0.280026912689209,-0.0,-0.0,-1.0,0.0273820825936526,1.0
32.94647216796875,-9.043390274047852,-0.2602138519287109,-0.0,-0.0,-1.0,0.0545564625925132,2.0
33.48404312133789,-9.137348175048828,-0.277825117111206,-0.0,-0.0,-1.0,0.0627896809462943,1.0
32.559391021728516,-9.251232147216797,-0.1939902305603027,0.6106109595229865,-0.41956935280516,-0.6716515572058751,0.0616991713832675,3.0
32.24763488769531,-9.427021980285645,-0.1402535438537597,-0.0,-0.0,-1.0,0.0064284448804835,1.0
31.76976776123047,-9.436278343200684,-0.1136672496795654,0.9790569703383436,-0.0188643879010171,-0.2027105909937213,0.0681187504438813,3.0
33.644588470458984,-9.370793342590332,-0.2427973747253418,-0.2442663708524234,0.3940401888098179,-0.8860396546844328,0.1072438498731421,5.0
33.34590148925781,-9.234498977661133,-0.2484188079833984,0.6285145549995221,0.7452050371120719,0.2227979057723582,0.1143191144346865,4.0
33.63147735595703,-10.221014022827148,-0.0720243453979492,-0.7883282151384788,0.614463714970736,0.0311924382013019,0.2558442718911684,3.0
33.636497497558594,-9.669880867004396,0.3721768856048584,-0.0,-0.0,-1.0,0.0984121822421447,1.0
33.46642303466797,-10.298103332519531,0.4871129989624023,0.1924016166227126,-0.5474169667771831,-0.8144423137370965,0.0935603731436149,4.0
32.57376480102539,-9.51880168914795,-0.2555477619171142,-0.0,-0.0,-1.0,0.00833362927238,1.0
32.39073181152344,-9.57142162322998,-0.2326817512512207,0.6710304861446278,0.7367709897668188,-0.0829855126062788,0.0088687549164847,3.0
33.17721176147461,-9.726018905639648,-0.2578070163726806,0.401684409822611,-0.8479787720874318,-0.3458057792960553,0.0602443328508798,5.0
32.82844161987305,-9.620830535888672,-0.2529633045196533,-0.0,-0.0,-1.0,0.0227344423007222,1.0
32.378578186035156,-9.619135856628418,-0.2221181392669677,-0.1235485741186938,0.3190203779999883,-0.9396604430612062,0.0081026072108062,3.0
33.36420440673828,-9.828043937683104,-0.2521035671234131,-0.0,-0.0,-1.0,0.0261991931575319,2.0
31.82708168029785,-9.749401092529297,-0.161189317703247,-0.0,-0.0,-1.0,0.0369619413208829,2.0
32.1951789855957,-9.682387351989746,-0.1973626613616943,-0.0,-0.0,-1.0,0.0106421690507343,1.0
32.03380584716797,-9.793429374694824,-0.1646451950073242,-0.0,-0.0,-1.0,0.0659089824802671,1.0
33.448020935058594,-10.014439582824709,-0.2218422889709472,-0.0,-0.0,-1.0,0.1329610602160355,2.0
33.54702377319336,-10.306655883789062,-0.1722681522369384,-0.7878434811667842,-0.4818611290623062,-0.3835524755255827,0.1690360288702205,4.0
33.62955856323242,-9.494742393493652,0.24709153175354,-0.0,-0.0,-1.0,0.0907919472776074,2.0
33.5648078918457,-9.871520042419434,0.3134517669677734,-0.0,-0.0,-1.0,0.1656602559998694,1.0
33.481937408447266,-10.294349670410156,0.3886129856109619,-0.0,-0.0,-1.0,0.1053580848833114,2.0
32.00594711303711,-8.819156646728516,0.105076789855957,-0.0,-0.0,-1.0,0.1046137731475712,2.0
31.777095794677734,-8.877569198608398,0.1281700134277343,-0.0,-0.0,-1.0,0.2296754406772809,2.0
33.577232360839844,-9.80902099609375,0.1593284606933593,-0.0,-0.0,-1.0,0.1545699800049257,2.0
33.672733306884766,-9.956758499145508,0.1754279136657714,0.5566739383752837,0.8302407600767648,-0.0285378107237843,0.1279049082598377,4.0
33.47832107543945,-10.294745445251465,0.2451422214508056,-0.0,-0.0,-1.0,0.1506112830727501,1.0
33.37445068359375,-10.10211944580078,0.2223744392395019,-0.0,-0.0,-1.0,0.2224914464687197,1.0
32.90430450439453,-10.320432662963867,-0.264589786529541,-0.0,-0.0,-1.0,0.0258496016128176,1.0
32.64207458496094,-10.31222152709961,-0.2419989109039306,-0.0,-0.0,-1.0,0.0197822425590819,1.0
33.62007141113281,-9.66460418701172,0.1801490783691406,-0.0,-0.0,-1.0,0.0547857938200091,1.0
33.62809753417969,-10.017260551452637,0.2312371730804443,-0.0,-0.0,-1.0,0.1910073638010364,2.0
33.154541015625,-8.596006393432617,-0.0289733409881591,-0.0,-0.0,-1.0,0.2157790665058452,1.0
33.625431060791016,-8.827932357788086,-0.0764052867889404,-0.0,-0.0,-1.0,0.1478101080485414,2.0
33.420841217041016,-8.724605560302734,-0.0558245182037353,-0.0,-0.0,-1.0,0.177670716828986,1.0
33.06853103637695,-8.626245498657227,-0.0123276710510253,-0.0,-0.0,-1.0,0.1432888794402147,1.0
32.86249923706055,-8.66203498840332,0.0230112075805664,-0.0,-0.0,-1.0,0.1076448945370054,1.0
31.89021873474121,-8.964679718017578,0.2022078037261963,-0.0,-0.0,-1.0,0.1435734357003059,1.0
31.79032516479492,-8.875133514404297,0.2065141201019287,-0.0,-0.0,-1.0,0.194047493044627,1.0
33.47746658325195,-8.837030410766602,-0.0522296428680419,-0.0,-0.0,-1.0,0.1663424820796564,1.0
32.413002014160156,-9.096147537231444,0.1397092342376709,-0.0,-0.0,-1.0,0.0640080821216239,1.0
32.066402435302734,-9.145233154296877,0.1968367099761963,-0.0,-0.0,-1.0,0.0829889207464642,1.0
33.68421173095703,-9.284481048583984,0.0965781211853027,-0.0,-0.0,-1.0,0.0603839021122066,1.0
33.42464065551758,-9.974191665649414,0.2123279571533203,-0.0,-0.0,-1.0,0.0957687225964359,2.0
33.639930725097656,-9.536605834960938,0.0069749355316162,-0.0,-0.0,-1.0,0.1691342408219658,2.0
32.22616958618164,-9.128067016601562,0.0428254604339599,0.9079523284393842,-0.2008232590108965,-0.3678214076447201,0.1078684116488794,3.0
31.93533706665039,-9.155216217041016,0.0649306774139404,-0.5025864489964922,0.1737745151328722,-0.8468820928414009,0.1958612096182447,3.0
33.677734375,-9.742979049682615,0.0349645614624023,-0.0,-0.0,-1.0,0.0804181341672322,1.0
33.507198333740234,-10.180249214172363,0.1134569644927978,-0.0,-0.0,-1.0,0.2153222018739068,1.0
33.691993713378906,-9.583097457885742,0.6784162521362305,-0.0,-0.0,-1.0,0.1416909690110422,1.0
33.628761291503906,-8.894773483276367,-0.2999179363250732,-0.0,-0.0,-1.0,0.1303859409042742,2.0
33.5229377746582,-8.948163986206055,-0.282637357711792,-0.0,-0.0,-1.0,0.149933553349862,1.0
33.16617965698242,-8.825927734375,-0.2714054584503174,-0.0,-0.0,-1.0,0.0638018677631613,2.0
32.892887115478516,-8.792173385620117,-0.2542855739593506,-0.0,-0.0,-1.0,0.063481963498527,2.0
33.60039520263672,-9.48040008544922,-0.2077279090881347,-0.0,-0.0,-1.0,0.1735348504671388,1.0
32.505924224853516,-9.11678695678711,-0.1722931861877441,0.9973302638579996,-0.0291524849920512,-0.0669513062734477,0.1260189073977783,3.0
32.33959197998047,-9.231861114501951,-0.1410474777221679,-0.0,-0.0,-1.0,0.035088374192161,1.0
33.5019645690918,-10.025641441345217,-0.1160118579864502,0.6414964486350241,0.7470548360325522,-0.1743312317085747,0.166933748460858,3.0
32.0379753112793,-9.360244750976562,-0.0975265502929687,-0.0,-0.0,-1.0,0.07666186840377,1.0
33.55174255371094,-10.25297737121582,-0.0862138271331787,-0.8949271900547867,0.3321981923929459,0.2979088543019546,0.2103888854226764,4.0
33.69156265258789,-9.462261199951172,0.4606802463531494,-0.0,-0.0,-1.0,0.1244957845157442,1.0
33.39708709716797,-10.305303573608398,-0.2722625732421875,-0.0,-0.0,-1.0,0.1389787027273121,2.0
33.13132858276367,-10.322759628295898,-0.2453482151031494,-0.0,-0.0,-1.0,0.04024703019462,1.0
31.832988739013672,-10.142581939697266,-0.1667649745941162,-0.0,-0.0,-1.0,0.0083204822251072,1.0
33.59421920776367,-9.749293327331545,0.2883665561676025,-0.0,-0.0,-1.0,0.2295005127401799,1.0
33.26154708862305,-8.939718246459961,-0.2657885551452636,-0.2233920663928241,-0.5043734628025929,-0.8340883614421589,0.0276362006487127,3.0
33.01665496826172,-8.842029571533203,-0.2624585628509521,-0.0,-0.0,-1.0,0.0577407243228296,1.0
32.89375686645508,-8.859390258789062,-0.2502865791320801,-0.0,-0.0,-1.0,0.0346220625386035,1.0
33.519535064697266,-10.155378341674805,-0.0947852134704589,-0.0,-0.0,-1.0,0.2545812807314246,2.0
32.43276596069336,-9.276440620422363,-0.1478805541992187,-0.0,-0.0,-1.0,0.0414835718148976,1.0
32.01380920410156,-9.434184074401855,-0.0916378498077392,-0.0,-0.0,-1.0,0.0494591410466164,2.0
31.730270385742188,-9.252238273620604,-0.1020309925079345,-0.4719222005416866,-0.5324879854581144,-0.7026706070262588,0.0960996542983767,3.0
33.67561721801758,-9.802099227905272,0.4998869895935058,0.7119748586171254,0.6885215723415097,-0.137948704660463,0.0565979115252856,4.0
33.65730667114258,-10.018394470214844,0.2385187149047851,0.1840904913422382,0.7629897196918051,-0.6196429444785072,0.1893889801509984,3.0
32.32009506225586,-8.716442108154297,0.0871078968048095,-0.0,-0.0,-1.0,0.0677894559350376,2.0
32.09929275512695,-8.7764892578125,0.1061909198760986,-0.0,-0.0,-1.0,0.0640388349056069,1.0
33.446876525878906,-8.528909683227539,-0.2765135765075683,-0.0,-0.0,-1.0,0.0828537972859245,2.0
33.68017578125,-9.422327041625977,-0.1346759796142578,0.3532769671262678,0.0984156098185052,-0.9303277660277142,0.0940955473234146,7.0
33.61602783203125,-8.838373184204102,-0.232811689376831,0.7836787273558089,-0.5176104538359032,0.3434051111584835,0.1582119601206231,3.0
33.45669174194336,-8.782438278198242,-0.2318575382232666,-0.0175163937508291,-0.4021647491255648,-0.9153997435605592,0.1944231766361387,4.0
33.704498291015625,-10.184426307678224,-0.0048670768737792,-0.0,-0.0,-1.0,0.1055311257713243,1.0
33.62603759765625,-9.882704734802246,-0.0507786273956298,0.5336895164817355,0.6983304730931401,-0.4769801362184835,0.1432284574877539,3.0
33.02765655517578,-8.723634719848633,-0.2140681743621826,0.570967178895834,-0.4250286319741095,-0.7023867471884344,0.1977180950869815,3.0
32.38666534423828,-9.14914894104004,-0.0963013172149658,-0.0,-0.0,-1.0,0.06839269743164,2.0
31.796321868896484,-8.490076065063477,-0.1839447021484375,-0.6108195665154473,-0.3721246709140887,-0.6988724393327885,0.1130368608482971,3.0
32.00852584838867,-9.271758079528809,-0.0508646965026855,-0.5071514308264904,0.5286714730235309,-0.6806643077330952,0.0881208784692511,4.0
31.77178955078125,-9.03190803527832,-0.0814509391784668,-0.0,-0.0,-1.0,0.0978455646423892,1.0
33.48644256591797,-8.70386791229248,-0.2191963195800781,0.8372955967511199,0.2161545089399066,-0.5022084347421235,0.1492896606024763,10.0
32.986148834228516,-8.58244800567627,-0.1956794261932373,0.7707563854692462,-0.5848834622955262,-0.2526775213420866,0.193550761579378,6.0
32.2779655456543,-9.099671363830566,-0.0467677116394043,-0.0,-0.0,-1.0,0.0731548999592107,1.0
31.909996032714844,-8.387035369873047,-0.1391389369964599,0.6352051866159266,0.597115633783267,-0.4898645637192319,0.1381757302547642,6.0
31.997568130493164,-9.133359909057615,-0.0172431468963623,0.4877343874643907,-0.7689493384668319,-0.4133183786818068,0.118028636373057,3.0
31.841163635253903,-8.899688720703125,-0.0445470809936523,0.7571450618396702,0.650512150409039,-0.0597101122257351,0.1950544592541222,4.0
33.66985321044922,-9.885117530822754,0.0297799110412597,-0.0,-0.0,-1.0,0.1073742429921841,2.0
33.50906753540039,-8.773393630981445,-0.1355609893798828,0.0760878881949899,0.9949921115167918,-0.0648176772908652,0.2414574197079483,4.0
33.050209045410156,-8.625727653503418,-0.1164338588714599,0.672502186408858,-0.2157490637786043,-0.7079499634536055,0.2295283124227686,3.0
33.01764678955078,-8.572047233581543,-0.1225521564483642,-0.0,-0.0,-1.0,0.1741986986992195,2.0
33.65092468261719,-10.116625785827637,0.0686378479003906,0.8278791262481335,-0.0837543398576998,-0.554618213618727,0.1850033120858487,4.0
32.22470474243164,-9.147663116455078,0.0499086380004882,-0.78101343906129,-0.1598354324871458,-0.6037140403595931,0.1077266146436325,3.0
32.38146209716797,-9.094182014465332,0.0262563228607177,-0.023662133954809,0.6336531349160776,-0.7732553317163301,0.0834380296283516,4.0
32.07197570800781,-9.198747634887695,0.0726819038391113,-0.0055168610323244,-0.0765290298668089,-0.9970520908317656,0.1928928309366857,6.0
31.87941551208496,-8.944624900817871,0.045412540435791,-0.0,-0.0,-1.0,0.1440295447016824,2.0
31.772489547729492,-8.7122802734375,0.0137040615081787,0.4722710276369121,0.0744106797039532,-0.8783069663851988,0.2480405288757753,7.0
33.61534118652344,-9.389532089233398,0.5653679370880127,0.7711765164705051,0.6288080229632491,0.0994346554349464,0.1375293519754567,4.0
33.411869049072266,-9.514970779418944,0.5983624458312988,-0.0,-0.0,-1.0,0.16259505747225,2.0
33.60435104370117,-9.953801155090332,0.0549342632293701,0.5820643389588517,-0.0709760813453068,-0.8100391973165616,0.1858944000518524,5.0
33.57588195800781,-10.052023887634276,0.0731236934661865,0.843846843023925,-0.517153066094767,-0.1430916201157041,0.1952465412333809,6.0
32.34163284301758,-9.003656387329102,0.0555775165557861,0.0561587802229419,0.1386918720884439,-0.9887420068048464,0.0952543366253496,4.0
32.06367874145508,-8.995467185974121,0.0845801830291748,-0.0,-0.0,-1.0,0.0522074473955241,1.0
31.851119995117188,-8.912554740905762,0.0934491157531738,0.6711839749089463,-0.7184295695493942,-0.1826773807084466,0.1697811695375981,3.0
33.417510986328125,-9.584857940673828,0.6014959812164307,-0.0,-0.0,-1.0,0.1734398503471009,2.0
31.96859359741211,-10.21146011352539,-0.1928238868713379,-0.0,-0.0,-1.0,0.0087969715652966,1.0
31.712291717529297,-10.020145416259766,-0.1864421367645263,-0.0,-0.0,-1.0,0.0044417794026006,1.0
33.63469696044922,-10.253609657287598,0.0944499969482421,-0.0,-0.0,-1.0,0.1321129411826628,1.0
33.67238998413086,-10.070050239562988,0.063218355178833,0.9239209022511587,-0.3595023222350689,-0.1308749276637718,0.1681992267405705,3.0
32.29767608642578,-8.870445251464844,0.0664582252502441,-0.0,-0.0,-1.0,0.0197694711369798,2.0
31.92565536499023,-8.828490257263184,0.105745792388916,0.6464822459174231,-0.6345111184857696,0.4236228820914924,0.201966910430392,4.0
31.986024856567383,-8.620359420776367,0.0639593601226806,0.7414021565722086,0.667772056568567,-0.0663575368459749,0.1920228834083763,6.0
33.497703552246094,-9.528729438781738,0.5735373497009277,-0.0,-0.0,-1.0,0.1678716955953429,1.0
32.78314208984375,-10.24275016784668,-0.230168342590332,-0.0,-0.0,-1.0,0.0217750392101724,2.0
32.59000778198242,-10.007951736450195,-0.234734296798706,0.3042579403996219,0.8367413936988378,-0.4552921543083148,0.0147410454854941,3.0
32.440826416015625,-9.937060356140137,-0.2206854820251464,-0.3600440406522252,0.8230028913501027,0.4393569501216409,0.0151846130447418,3.0
31.993558883666992,-9.86933422088623,-0.1555705070495605,-0.3470502835403332,0.4497192837725525,-0.8229876466251945,0.0706921850748881,3.0
31.776412963867188,-9.700200080871582,-0.1488986015319824,-0.0,-0.0,-1.0,0.0074945483082432,2.0
33.6861572265625,-10.111227989196776,0.1338975429534912,-0.0,-0.0,-1.0,0.1323469608941637,2.0
33.51352310180664,-9.520156860351562,0.6252772808074951,-0.0,-0.0,-1.0,0.1988010998255003,1.0
33.606895446777344,-8.87126636505127,-0.10054612159729,-0.0,-0.0,-1.0,0.2194418695781,1.0
33.706642150878906,-9.780099868774414,-0.0006055831909179,-0.0,-0.0,-1.0,0.0593649949858782,1.0
33.553985595703125,-10.074603080749512,0.0619235038757324,-0.2794167221648634,0.8624450407948095,-0.4220365469755936,0.157121443095049,4.0
32.37645721435547,-8.681736946105957,0.0724921226501464,-0.0,-0.0,-1.0,0.097353097941747,2.0
32.230289459228516,-8.606842994689941,0.0842008590698242,-0.1558724351709392,-0.0852489171524197,-0.9840916654855996,0.0827160991582374,4.0
33.44745635986328,-9.514594078063965,0.5467736721038818,0.5755403925055055,-0.5744130804691354,-0.5820677534278692,0.1513012878768314,3.0
33.5211181640625,-8.858799934387207,-0.1979813575744629,0.7655810086823814,-0.6360293262980434,0.0967078860989324,0.236243290940121,4.0
33.47841262817383,-8.734925270080566,-0.2038190364837646,0.775683317645065,-0.1590765005474078,-0.6107454933937176,0.2226093421004632,9.0
33.683109283447266,-10.194788932800291,-0.093761920928955,0.1220205837686604,0.8067960284374185,-0.5780926791046255,0.2551357053128579,4.0
33.66143798828125,-9.835993766784668,-0.1232728958129882,0.8908394733940957,-0.0305413052308883,0.4532904822712739,0.1143011977202159,3.0
32.19622802734375,-9.132484436035156,0.0827298164367675,0.1106815668125538,0.9351726263501356,-0.3364546770269473,0.1516784882445281,3.0
31.917560577392575,-8.725913047790527,0.0841102600097656,0.9395678094733168,-0.1343712004639342,0.3148915875144873,0.1866595448425158,3.0
32.003578186035156,-8.611602783203125,0.0540544986724853,0.1692953971621051,0.9663954121502676,-0.1934398507925375,0.1901995074027307,4.0
32.01571273803711,-9.060443878173828,0.1075930595397949,0.3799726855361723,0.8872027821591507,-0.2617097277051269,0.1393622883880763,3.0
31.90092086791992,-8.935785293579102,0.1133434772491455,-0.0,-0.0,-1.0,0.1310409461382909,2.0
33.676979064941406,-9.833969116210938,0.4144535064697265,-0.0,-0.0,-1.0,0.0887612042347945,1.0
33.38130187988281,-10.359704971313477,0.5049099922180176,-0.0,-0.0,-1.0,0.1044332319414513,2.0
33.448421478271484,-10.239124298095703,-0.2662680149078369,-0.0,-0.0,-1.0,0.0695797598710518,2.0
33.309783935546875,-9.984411239624023,-0.2586495876312256,-0.0,-0.0,-1.0,0.056024464142884,1.0
33.17674255371094,-9.574384689331056,-0.2684125900268554,-0.0,-0.0,-1.0,0.0259440542525962,1.0
33.085853576660156,-9.23906135559082,-0.2825284004211426,-0.0,-0.0,-1.0,0.0554842067580593,1.0
33.08734130859375,-9.73486614227295,-0.2340962886810302,-0.0,-0.0,-1.0,0.0735295327955258,1.0
32.59124755859375,-9.225127220153809,-0.1813361644744873,0.6106109595229865,-0.41956935280516,-0.6716515572058751,0.0769959721725344,3.0
32.08378219604492,-9.273666381835938,-0.0718133449554443,-0.0,-0.0,-1.0,0.1042520901320736,1.0
31.81698226928711,-8.966007232666016,-0.0521292686462402,-0.9145470391991708,-0.4044773040494556,-0.001350407684594,0.1943987574718883,3.0
31.87611961364746,-8.635440826416016,-0.1028566360473632,0.7706681986314493,-0.6343740600414995,0.0603330718977659,0.241317309581045,4.0
31.885459899902344,-9.22695541381836,-0.0363745689392089,-0.9987008943001792,-0.0364611051373154,-0.0355965101686667,0.1434687624928277,3.0
31.844890594482425,-9.171871185302734,-0.0342729091644287,0.224058664499267,-0.0631658444971473,-0.9725264988429708,0.1918903528670129,4.0
33.576080322265625,-10.24875831604004,0.2486395835876464,-0.0,-0.0,-1.0,0.1705193165955766,2.0
33.48101043701172,-9.981887817382812,0.2465400695800781,0.7538319382179711,-0.3711603825050955,0.5421968087154404,0.1748854343981173,4.0
33.32244873046875,-10.19250202178955,-0.2687475681304931,-0.0,-0.0,-1.0,0.096370112271983,2.0
33.08203887939453,-9.789362907409668,-0.2513830661773681,0.0639413412519345,-0.6558473537723232,-0.7521806654180528,0.0674924245007545,6.0
32.98198699951172,-9.464950561523438,-0.2600493431091308,-0.0,-0.0,-1.0,0.0298797027947149,2.0
32.84693908691406,-9.28109359741211,-0.2493209838867187,-0.0,-0.0,-1.0,0.0104269945062051,1.0
33.30253219604492,-10.304624557495115,-0.255401611328125,-0.0,-0.0,-1.0,0.0855646707023984,2.0
33.122737884521484,-9.990833282470703,-0.2424471378326416,-0.0,-0.0,-1.0,0.0266589831310438,2.0
32.981143951416016,-9.638318061828612,-0.2435564994812011,-0.0,-0.0,-1.0,0.0735825161177884,2.0
32.617027282714844,-9.26374053955078,-0.202784776687622,0.892363938456828,0.1816049909874275,0.4131661029056899,0.0492569235659437,3.0
31.97286605834961,-8.553632736206055,-0.1467649936676025,0.3278500980292474,0.1058472284159217,-0.9387814854687326,0.1541048839233845,4.0
32.12141418457031,-9.357725143432615,-0.0895428657531738,-0.0,-0.0,-1.0,0.0632434659456916,1.0
31.885021209716797,-9.19427490234375,-0.0575408935546875,-0.9987008943001792,-0.0364611051373154,-0.0355965101686667,0.1347544370003542,3.0
31.82069396972656,-8.812427520751953,-0.0862736701965332,-0.1539427411712586,-0.9737501421342382,0.1676672094782683,0.2473455318044217,3.0
33.47755813598633,-10.006308555603027,0.2320227622985839,0.7538319382179711,-0.3711603825050955,0.5421968087154404,0.1798854981535932,4.0
33.34873580932617,-9.384953498840332,-0.2780296802520752,0.406810759709577,0.7253490915451701,-0.5553140563492993,0.0439962992160384,3.0
33.25626754760742,-9.114751815795898,-0.2793343067169189,-0.0,-0.0,-1.0,0.0240777124116541,1.0
33.423545837402344,-10.292917251586914,-0.2330963611602783,-0.0,-0.0,-1.0,0.1479317965036623,2.0
33.31615447998047,-9.91737174987793,-0.2336061000823974,-0.0,-0.0,-1.0,0.0830191549034826,2.0
33.16386413574219,-9.743083953857422,-0.2128565311431884,-0.4632366379926288,-0.7675366509269012,-0.4430567759387077,0.0554079720120491,4.0
33.082740783691406,-9.68247413635254,-0.1998727321624755,-0.1042712182498334,-0.8582637449002316,-0.5025045842920502,0.1002581965172016,5.0
31.96080780029297,-8.589788436889648,-0.056093692779541,0.9692640186117863,0.1546268715200834,-0.1913577613488471,0.169606877458482,5.0
32.03038024902344,-8.404851913452148,-0.0881791114807128,0.3121526745941996,-0.3115595621318504,-0.8974916974478914,0.1727825989291752,4.0
31.959735870361328,-9.181526184082031,-0.0025851726531982,-0.9990978840089588,-0.0419507034588344,0.006599746065582,0.176449923611755,5.0
31.83665657043457,-8.877596855163574,-0.0039088726043701,0.8015370313431162,-0.3439265630822909,0.4891348552209984,0.2225092777025927,4.0
33.69478225708008,-9.821646690368652,0.2472622394561767,-0.0,-0.0,-1.0,0.0985423100133708,1.0
33.589900970458984,-10.22726821899414,0.2881522178649902,-0.0,-0.0,-1.0,0.18646168754456,2.0
33.37899398803711,-9.525674819946287,-0.2903075218200683,-0.0,-0.0,-1.0,0.0345056038081029,2.0
33.306758880615234,-9.29384994506836,-0.2931632995605469,-0.0,-0.0,-1.0,0.0331797671690278,1.0
33.237491607666016,-9.061202049255373,-0.297433853149414,-0.0,-0.0,-1.0,0.0255299356991328,1.0
33.368194580078125,-10.16697883605957,-0.244091510772705,-0.0142648246918202,0.4151411542676797,-0.9096451708275104,0.1094931511793333,5.0
33.294124603271484,-9.781126022338867,-0.2543952465057373,-0.0,-0.0,-1.0,0.0181171479205382,1.0
33.683895111083984,-10.009328842163086,0.2575807571411133,-0.0,-0.0,-1.0,0.1170843018007307,2.0
31.937789916992188,-8.528295516967773,-0.0809526443481445,0.9740769977545602,0.0410526497124092,-0.2224605187377141,0.1978772604340483,4.0
31.909080505371097,-9.116411209106444,-0.0212645530700683,0.5570307551477888,-0.5373178213802576,-0.6332505796654737,0.1630237107066352,4.0
31.770090103149418,-8.810212135314941,-0.0204329490661621,0.5494512254550677,0.705108510100957,0.4482469629893028,0.1776784729511848,8.0
32.56840896606445,-9.83242416381836,-0.2321565151214599,-0.0,-0.0,-1.0,0.0141051641931079,2.0
32.58860778808594,-10.313454627990724,-0.2117838859558105,-0.0,-0.0,-1.0,0.0192734171988665,1.0
33.66880798339844,-9.853594779968262,0.1268680095672607,0.9353861130154852,-0.248585042181871,0.2515120203513529,0.0974184294658103,7.0
31.830068588256836,-8.657649040222168,-0.152524709701538,-0.0,-0.0,-1.0,0.1922586771186615,2.0
31.85356903076172,-8.390650749206543,-0.1790747642517089,0.4370718628808964,0.5885639038615839,-0.6801181645486577,0.1692799674516878,4.0
32.088623046875,-9.599886894226074,-0.1422846317291259,-0.0,-0.0,-1.0,0.02391487906882,2.0
31.768573760986328,-9.30559253692627,-0.0924832820892334,-0.0,-0.0,-1.0,0.1183170239877759,2.0
33.55327606201172,-9.797657012939451,-0.2489991188049316,-0.0,-0.0,-1.0,0.1031095568708542,1.0
33.582496643066406,-9.481026649475098,-0.2649073600769043,-0.0,-0.0,-1.0,0.1081963893708964,1.0
33.462791442871094,-9.885176658630373,-0.2282874584197998,-0.0,-0.0,-1.0,0.1132477156191621,2.0
33.45636749267578,-10.028462409973145,-0.2232444286346435,-0.5445713924023771,-0.2438968245229442,-0.802468901306811,0.1279883540553519,3.0
31.967300415039062,-8.486810684204102,0.0152959823608398,0.3559736623602556,-0.3666115803620891,-0.8595805377335151,0.2537327756140634,9.0
33.60126495361328,-9.877248764038086,0.3482122421264648,0.9236073829292274,-0.2947318952075699,0.2451173436254106,0.1930957204212963,3.0
33.60218811035156,-9.418618202209473,0.335181713104248,0.8121744400798745,0.465616167315903,0.3515313124246426,0.1229770888219806,3.0
33.520965576171875,-10.223586082458496,0.3694915771484375,-0.0,-0.0,-1.0,0.1352532355729404,2.0
33.310455322265625,-9.837230682373049,0.3954267501831054,0.1488749669744232,-0.6460130156670209,0.7486677686378425,0.0689780686429066,3.0
31.85484504699707,-8.640120506286621,0.0457210540771484,0.5640490265962098,0.6790790862257283,-0.4697874947747095,0.16876924026218,4.0
31.814239501953125,-8.983345031738281,0.0702471733093261,-0.0,-0.0,-1.0,0.1351614913074091,1.0
31.756752014160156,-8.731903076171875,0.0698931217193603,0.3095010242550192,-0.5601809827054736,-0.7683790617919148,0.19405638622481,6.0
32.902099609375,-9.542720794677734,-0.2479794025421142,-0.0,-0.0,-1.0,0.027859162430633,1.0
32.762168884277344,-9.943622589111328,-0.2304956912994384,-0.0,-0.0,-1.0,0.0191074420050886,1.0
31.953052520751953,-8.441485404968262,-0.0385189056396484,-0.0841151822982745,0.9917662499129422,-0.0965626306629407,0.1987177784196576,5.0
32.610469818115234,-10.22209358215332,-0.2085123062133789,-0.0,-0.0,-1.0,0.0252531927800164,1.0
33.55288314819336,-9.94393825531006,0.2339673042297363,0.2221106062651434,0.903764909711214,-0.3658905117097347,0.122024842009331,3.0
33.525020599365234,-10.183289527893066,0.2314083576202392,-0.0,-0.0,-1.0,0.1639599975209047,2.0
31.900314331054688,-8.584115028381348,-0.0291297435760498,-0.1035120021300054,0.8044215236922391,-0.5849711767563376,0.1637556369102641,4.0
31.944259643554688,-9.311508178710938,-0.0490164756774902,-0.0,-0.0,-1.0,0.1091749196552553,2.0
31.841033935546875,-9.09896755218506,-0.0242133140563964,-0.5143681082260277,0.4734517563026887,-0.71503068723928,0.141623496492059,5.0
31.754905700683594,-8.782425880432129,-0.0020527839660644,0.6733744856115295,0.0584337992487642,0.7369886656067132,0.1943296334963133,10.0
32.048377990722656,-8.43216323852539,0.0348527431488037,0.7359064377968236,0.5760457754236922,-0.3558271763450725,0.1925285833473169,4.0
31.888643264770508,-8.798154830932617,-0.0039761066436767,-0.0,-0.0,-1.0,0.2558417823173933,2.0
31.95292091369629,-8.518743515014648,0.0369377136230468,0.711675093540828,-0.1242434763127032,0.6914348268834803,0.2237290062244629,8.0
31.77573013305664,-8.716668128967285,0.0335614681243896,0.2508810012953968,0.9676566930543584,0.0264432898127717,0.1765627810578852,10.0
31.74225616455078,-8.964531898498535,-0.0075995922088623,-0.0,-0.0,-1.0,0.2172073870035234,1.0
33.571083068847656,-10.14788055419922,0.0624372959136962,-0.0,-0.0,-1.0,0.1959155038943341,1.0
33.54241180419922,-9.990689277648926,0.0978050231933593,0.8817307475833704,0.3176581384206902,0.3487752798883152,0.1934035970284379,3.0
33.26659393310547,-9.48215675354004,-0.2880926132202148,-0.0,-0.0,-1.0,0.0224710179180051,2.0
33.26720428466797,-9.388800621032717,-0.2861638069152832,-0.0,-0.0,-1.0,0.0274437064142044,1.0
33.08046340942383,-9.77824878692627,-0.2596521377563476,-0.0,-0.0,-1.0,0.0674924245007545,2.0
33.02049255371094,-10.342347145080566,-0.2651050090789795,-0.9175695958665672,0.3955765100034805,0.0398153422028629,0.0142265218784656,4.0
33.01010513305664,-9.759361267089844,-0.2456967830657959,-0.0,-0.0,-1.0,0.0732564303662986,2.0
32.96570587158203,-10.231212615966797,-0.251018762588501,-0.0,-0.0,-1.0,0.023431232294075,2.0
32.95964050292969,-10.03564167022705,-0.2436189651489257,-0.0,-0.0,-1.0,0.0182536370380532,1.0
31.945335388183594,-8.51622486114502,-0.0180516242980957,0.9864546706777628,-0.0195373983263638,-0.1628664261432151,0.2314952728811923,7.0
31.89042091369629,-9.049071311950684,-0.0146880149841308,-0.0,-0.0,-1.0,0.1506976551644504,2.0
31.74769401550293,-8.766809463500977,0.017181396484375,0.5906708954334087,0.1196975867245825,0.7979852010032553,0.1653025249788965,10.0
33.70044708251953,-9.419851303100586,0.2808854579925537,0.6953090452421703,-0.7185792311757093,-0.0137557307093469,0.0921045120807378,3.0
33.614906311035156,-9.893136978149414,0.2837271690368652,-0.0,-0.0,-1.0,0.2121915043885289,2.0
33.526920318603516,-10.219001770019531,0.2888319492340088,-0.1414355043850537,0.9265206100672904,-0.3486481854533039,0.1914336229857318,4.0
33.35912322998047,-9.529410362243652,-0.2835867404937744,-0.3477670611692593,0.2031219083167656,-0.9153139141996322,0.0176642939102338,3.0
33.14200210571289,-9.79559326171875,-0.2536516189575195,0.0717311865494993,0.2499430417106813,-0.9655998719845676,0.0542081692336047,3.0
33.09070587158203,-9.660663604736328,-0.2389395236968994,-0.3883224849976783,-0.6965914531329649,-0.6032959431881937,0.0837857878330056,4.0
33.04145812988281,-10.308366775512695,-0.256772518157959,-0.8501046440669525,0.5265480037792313,-0.0083242928772542,0.0470868004243879,3.0
33.02409362792969,-10.088109016418455,-0.2438886165618896,-0.0,-0.0,-1.0,0.0260388530877003,2.0
31.98256492614746,-8.547537803649902,0.0002210140228271,0.210100962174025,0.7288225870528988,-0.6516710997850591,0.2579918530457963,6.0
32.065452575683594,-8.406742095947266,-0.0118546485900878,0.1068576786194873,0.6923954740431415,-0.7135614507837624,0.2622515612655786,4.0
31.96144676208496,-9.158466339111328,-0.0131592750549316,0.3718452864322274,-0.4898845060972045,-0.7885076116589067,0.1478975932945338,5.0
31.82825469970703,-8.833799362182617,0.0212569236755371,0.981633006778019,-0.1096458544253872,0.1561231136355928,0.2474141360345023,7.0
33.70039749145508,-9.420771598815918,0.326453685760498,0.9849205578144626,-0.1328883324221787,-0.1107798984495832,0.1283951896546932,5.0
33.4859619140625,-9.815099716186523,0.3455255031585693,0.8015624677606648,-0.3840305278516581,0.4582773875671917,0.1125377185695919,3.0
33.52566909790039,-10.203078269958496,0.3255615234375,-0.0947805288798335,0.9941727038209244,-0.0513545160881867,0.134759197447049,5.0
32.22763442993164,-10.30507469177246,-0.196707010269165,-0.0,-0.0,-1.0,0.0075317132124977,2.0
32.09339904785156,-9.908949851989746,-0.154876708984375,-0.6956685594770953,0.7170744124871264,-0.0430063054830993,0.0157792241711547,3.0
32.01892852783203,-9.650457382202148,-0.1309280395507812,-0.0,-0.0,-1.0,0.0533452262030199,1.0
32.0315055847168,-10.079853057861328,-0.1510512828826904,-0.701524660602742,-0.2313383192562742,-0.6740517284377292,0.0094571202613751,5.0
33.494022369384766,-10.238570213317873,0.2637803554534912,-0.0786499442435126,0.9965711928552408,0.0256913184086505,0.1463260965706606,5.0
33.605201721191406,-9.889289855957031,0.2595417499542236,-0.0,-0.0,-1.0,0.2426004766293118,2.0
31.956684112548828,-8.610907554626465,-0.0859818458557128,-0.0,-0.0,-1.0,0.1201460041506157,2.0
31.996414184570312,-8.436386108398438,-0.0890922546386718,-0.3590961125395328,-0.2016535945233983,-0.9112550739363748,0.2099509757733158,5.0
31.819297790527344,-9.286115646362305,-0.0811960697174072,-0.0,-0.0,-1.0,0.1321847711559645,1.0
31.81597900390625,-8.870067596435547,-0.0673987865447998,0.4599592363737307,-0.2631689769994468,-0.848044568651648,0.2358824373231,3.0
33.64794921875,-10.138392448425291,0.0436208248138427,0.8278791262481335,-0.0837543398576998,-0.554618213618727,0.1975054751267182,4.0
33.603912353515625,-9.99113655090332,0.0566713809967041,0.8004951930519855,-0.5013449455331752,-0.3284215149605791,0.245435864745888,6.0
33.68413162231445,-9.866819381713867,0.024101972579956,-0.0,-0.0,-1.0,0.1052150300039215,2.0
33.59465408325195,-10.100337982177734,0.0246462821960449,0.4987661529904663,0.2599934931163174,-0.8268226582334728,0.2089131185360989,4.0
33.696876525878906,-9.696680068969728,-0.0657582283020019,0.7867998813386506,-0.6138124393573999,-0.0646547447261454,0.0929582981130684,3.0
33.67227554321289,-9.427675247192385,-0.0473475456237793,0.6379128315499104,0.591706214315969,-0.4929005734261628,0.1148912233604437,6.0
33.568782806396484,-10.11190128326416,-0.0719566345214843,-0.0949242193747346,0.9627579301382851,-0.2531532352784416,0.2198793476864926,3.0
33.63716506958008,-9.83319091796875,-0.2187201976776123,-0.0,-0.0,-1.0,0.1630432298842249,1.0
33.41437911987305,-10.232812881469728,-0.2164456844329834,-0.0,-0.0,-1.0,0.1327032914207438,1.0
33.46042251586914,-9.930883407592772,-0.2018995285034179,-0.0,-0.0,-1.0,0.1800349517684656,2.0
31.936359405517575,-8.56222915649414,0.0870742797851562,0.0821298524301726,0.9821376059366254,-0.1692938579655865,0.1961516384773345,6.0
32.062381744384766,-8.43077278137207,0.0779058933258056,0.9492486158233554,-0.0707107258154638,-0.3064752169623078,0.1811662190608716,3.0
31.913387298583984,-9.05984592437744,0.0594444274902343,-0.0,-0.0,-1.0,0.1135668654309914,1.0
31.791839599609375,-8.844322204589844,0.0891988277435302,0.5615311968462998,0.6763145754507064,-0.4767402961794739,0.2570608430703604,10.0
33.44548416137695,-8.613177299499512,-0.2507386207580566,-0.0,-0.0,-1.0,0.200692154177124,1.0
33.197059631347656,-8.630746841430664,-0.2277798652648925,-0.0,-0.0,-1.0,0.1276585214431306,1.0
31.82368850708008,-10.275723457336426,-0.1830236911773681,0.6239443190386379,0.4246902784855767,-0.6559966875672879,0.0078458902011271,3.0
31.829360961914062,-10.06833267211914,-0.1721448898315429,-0.0,-0.0,-1.0,0.0071085126214077,2.0
31.718292236328125,-9.58149528503418,-0.1361610889434814,-0.0,-0.0,-1.0,0.0455513052741217,1.0
31.891773223876953,-8.617833137512207,-0.1038970947265625,0.7706681986314493,-0.6343740600414995,0.0603330718977659,0.1884978925818158,4.0
31.777528762817383,-8.462148666381836,-0.1823897361755371,-0.0906603618858362,-0.1901402750121888,-0.97756195435431,0.0927666829722105,4.0
32.09054183959961,-8.37741756439209,0.0423896312713623,-0.3914623262148192,0.918573247739185,0.0545933667432982,0.2411790303111166,6.0
31.91219139099121,-8.531091690063477,0.0472073554992675,0.3426664709533226,0.006131106352883,0.939437118289077,0.1543164739421902,5.0
33.4094352722168,-8.432743072509766,-0.3221919536590576,0.0150008954819039,-0.1126178141823817,-0.9935251386167956,0.0496113507104375,3.0
33.672996520996094,-8.388011932373047,-0.340181827545166,-0.0,-0.0,-1.0,0.094768328781198,2.0
32.91687774658203,-8.437583923339844,-0.2868869304656982,-0.0,-0.0,-1.0,0.0505763362987373,2.0
32.804649353027344,-8.410831451416016,-0.2787518501281738,-0.0,-0.0,-1.0,0.0429876738058527,1.0
33.08045959472656,-8.407493591308594,-0.2995579242706299,0.9542257524965874,-0.1570262551729221,-0.2545505224089903,0.0980706094051428,3.0
32.65115737915039,-8.892147064208984,-0.223778486251831,-0.0,-0.0,-1.0,0.0784386295063788,1.0
33.19844436645508,-8.938926696777344,-0.2693104743957519,0.198399675343746,-0.5571264294886574,-0.8063793836580375,0.0414906903290457,5.0
32.37907409667969,-8.890678405761719,-0.2019500732421875,-0.0,-0.0,-1.0,0.1287072386041926,1.0
31.79341697692871,-8.8876953125,-0.0741655826568603,-0.0,-0.0,-1.0,0.1886823135579861,2.0
32.003379821777344,-8.547979354858398,-0.0843575000762939,-0.0069109832626261,0.9875040513613962,-0.1574420110871715,0.2715090994551717,4.0
31.893892288208008,-8.70950698852539,-0.0785434246063232,-0.0,-0.0,-1.0,0.1388243450465035,2.0
32.123634338378906,-8.404605865478516,-0.0918123722076416,0.9724820669181206,0.1885117797266227,0.1369011995088471,0.1575316313035874,3.0
32.547523498535156,-8.633283615112305,-0.1401865482330322,0.058935582163375,-0.2297995543951214,-0.9714518834995728,0.1797025251678295,6.0
32.796730041503906,-8.575164794921875,-0.1626343727111816,-0.0,-0.0,-1.0,0.1235394501007887,1.0
33.155426025390625,-8.568475723266602,-0.1978003978729248,-0.0,-0.0,-1.0,0.2193705838995175,1.0
33.508148193359375,-8.537496566772461,-0.2317979335784912,0.7767614431830991,0.2527434667552987,-0.5768556148609651,0.0790826802717172,3.0
33.604248046875,-9.570220947265623,0.6117656230926514,-0.0,-0.0,-1.0,0.1486675173720293,1.0
31.833248138427734,-8.734633445739746,0.0542290210723876,-0.1013241832773734,0.3051165080556268,-0.9469093548989332,0.2292480510109437,6.0
32.08702087402344,-8.469103813171387,0.0403242111206054,-0.472950896279044,0.8512767028324757,-0.2272562978742666,0.2232759494606563,6.0
31.91290283203125,-8.668639183044434,0.0492587089538574,0.5750419295106716,0.7965490152980957,-0.1866452397793143,0.246010420042814,6.0
32.5642204284668,-8.687548637390137,-0.0129530429840087,-0.0,-0.0,-1.0,0.2143680442571996,2.0
33.54731750488281,-8.777182579040527,-0.1104876995086669,0.1933018238943679,0.9698627227623664,-0.1483263424853465,0.1907557800836163,3.0
32.03417205810547,-8.560068130493164,0.0257356166839599,-0.0700477283987383,0.9920058684032416,-0.1049651027709051,0.1751350614415787,5.0
31.899730682373047,-8.715349197387695,0.031435489654541,0.5965296421470452,-0.5851462074861146,-0.5493234947683697,0.2112678416224871,3.0
31.98969268798828,-9.192529678344728,0.003246784210205,0.5381609731070529,0.1275942852154352,-0.8331281206422166,0.148179010465809,4.0
32.223731994628906,-8.395593643188477,0.0153298377990722,-0.4297101924906675,0.6847284736411448,-0.5886391660896355,0.1779588106674555,6.0
32.61314392089844,-8.66716194152832,-0.0314416885375976,-0.0,-0.0,-1.0,0.1774014781664661,1.0
33.7031135559082,-9.773330688476562,0.4016590118408203,-0.0,-0.0,-1.0,0.0734430857995447,2.0
33.60238265991211,-9.473073959350586,0.4748921394348144,-0.0,-0.0,-1.0,0.1344057081309759,2.0
31.76829719543457,-8.505305290222168,-0.1513419151306152,-0.0,-0.0,-1.0,0.0878573113741335,2.0
32.974483489990234,-8.446938514709473,-0.2691190242767334,-0.0,-0.0,-1.0,0.0684331163314213,2.0
33.33254623413086,-8.486233711242676,-0.3098609447479248,-0.0,-0.0,-1.0,0.0622745884773956,2.0
33.68601989746094,-10.033345222473145,0.4939956665039062,-0.0,-0.0,-1.0,0.0955581680910784,1.0
32.07402038574219,-10.260456085205078,-0.1774544715881347,-0.0,-0.0,-1.0,0.0097485037421241,1.0
32.50825881958008,-9.85494613647461,-0.2130703926086425,-0.0,-0.0,-1.0,0.0149666722576911,1.0
32.64804458618164,-9.772335052490234,-0.2286701202392578,-0.0,-0.0,-1.0,0.0077716517187994,2.0
33.61375045776367,-8.415109634399414,-0.271979808807373,-0.0,-0.0,-1.0,0.0961798723481983,1.0
32.07913589477539,-9.922468185424805,-0.1495571136474609,0.0642653163525614,-0.4234045080615939,-0.9036584485673916,0.0201903153445361,3.0
33.16340637207031,-8.484640121459961,-0.2045350074768066,-0.0,-0.0,-1.0,0.1416418885062165,1.0
31.874950408935547,-9.122217178344728,-0.048987865447998,0.0642180388831566,0.703693524499606,-0.7075955533066353,0.1314701664197297,5.0
31.836193084716797,-8.850530624389648,-0.0198893547058105,0.9241390566161956,-0.265837665183614,0.274403607494968,0.2025731861575589,5.0
31.935516357421875,-8.41929817199707,0.0001206398010253,0.5278986894180505,0.8176012564876438,-0.2298937996130617,0.1410082723888273,3.0
31.767120361328125,-8.56245231628418,0.0154376029968261,-0.0,-0.0,-1.0,0.0996066966570101,1.0
33.51388168334961,-10.050895690917969,0.0803151130676269,-0.0,-0.0,-1.0,0.1735704161553974,2.0
33.52312469482422,-10.112349510192873,0.0307521820068359,-0.0,-0.0,-1.0,0.2594230948656796,1.0
33.585662841796875,-9.9847993850708,0.0358929634094238,0.6857861037386473,-0.193314431273972,-0.7016601389420563,0.2575780223183799,4.0
33.68349075317383,-9.385420799255373,0.0868644714355468,-0.0,-0.0,-1.0,0.0764660635813171,2.0
32.68981170654297,-9.95942211151123,-0.2079086303710937,-0.0,-0.0,-1.0,0.0194756593839741,2.0
31.91289329528809,-10.05089282989502,-0.1259374618530273,-0.0,-0.0,-1.0,0.0089912988590012,1.0
32.03019714355469,-9.73081111907959,-0.0905680656433105,-0.0,-0.0,-1.0,0.0617922481498657,1.0
33.46051025390625,-8.784735679626465,-0.1237468719482421,0.1734999339185931,-0.009519761504858,-0.9847878690718802,0.2560034105384151,4.0
31.884431838989254,-9.141636848449709,0.0189032554626464,-0.0,-0.0,-1.0,0.2067361256618531,1.0
31.818416595458984,-8.856612205505371,0.0711622238159179,-0.175191266652261,-0.9692991312707594,0.1725317773818132,0.2143690343055025,10.0
31.842605590820312,-8.636404991149902,0.102086067199707,0.6772663083416454,0.4078560379862807,0.6123428776946891,0.1456742714339159,3.0
31.975112915039062,-8.49587345123291,0.1071043014526367,-0.0,-0.0,-1.0,0.1309321193111479,1.0
32.152130126953125,-8.39306926727295,0.1006784439086914,0.6859378371302881,0.4903104885094889,0.5376661682220749,0.1619288298945495,5.0
33.06269073486328,-8.738255500793457,-0.1228113174438476,-0.0,-0.0,-1.0,0.2007640040476363,2.0
33.431785583496094,-8.691180229187012,-0.1553239822387695,0.2512467811555381,0.1374935955601335,-0.9581078050715,0.1173651310846141,4.0
31.94696617126465,-8.54423999786377,0.0413827896118164,-0.0534593848661706,-0.7271982618464681,-0.6843425912050237,0.209931095349593,8.0
31.848371505737305,-8.64290714263916,-0.0124425888061523,0.0078655342527294,0.2644532056680949,-0.9643664424806516,0.2178202113015497,3.0
32.921356201171875,-8.614676475524902,-0.1371121406555175,0.4640884931891298,-0.2407900674242251,-0.8524329967330453,0.1348834868451866,7.0
33.245506286621094,-8.741827964782715,-0.201789379119873,-0.0,-0.0,-1.0,0.1301188359127505,2.0
33.522403717041016,-8.60044002532959,-0.2082901000976562,-0.2238432704285703,-0.5567177245629498,-0.7999747280016369,0.1202271030012324,5.0
31.92557144165039,-8.485522270202637,0.0094952583312988,0.3113026378828513,0.6238643646142301,-0.716856974724848,0.2562610906984578,6.0
33.505859375,-10.08128261566162,-0.1095046997070312,-0.0,-0.0,-1.0,0.2271181534438159,1.0
33.56422805786133,-9.690966606140137,-0.0449423789978027,-0.0,-0.0,-1.0,0.085705290451752,1.0
33.277679443359375,-8.373724937438965,-0.405951976776123,-0.0,-0.0,-1.0,0.0281400269557159,1.0
31.789306640625,-8.425654411315918,-0.1938676834106445,0.0487648132177244,-0.3139551556694651,-0.9481846619833092,0.1060914014551136,3.0
33.51352310180664,-10.004379272460938,0.4120106697082519,-0.0,-0.0,-1.0,0.1601487976343433,1.0
32.10976791381836,-8.523357391357422,-0.001047134399414,-0.3821830933923991,0.1962511791015745,-0.9030069533653984,0.2016445600755097,3.0
33.68623733520508,-10.025861740112305,-0.1998915672302246,-0.0,-0.0,-1.0,0.0998693968298444,1.0
33.629188537597656,-9.32280158996582,-0.2410321235656738,-0.1444732333969277,-0.4087436530280178,-0.9011415598789948,0.0809988633961576,3.0
33.67811584472656,-9.67648983001709,-0.2242994308471679,-0.0,-0.0,-1.0,0.135243973177317,1.0
33.59196853637695,-9.040892601013184,-0.2547545433044433,-0.0,-0.0,-1.0,0.1893592541271438,1.0
33.54485321044922,-10.283121109008787,-0.2058463096618652,-0.9725983261268188,-0.2152075197107641,-0.0879671499779947,0.1174691022613822,3.0
33.54152297973633,-9.741060256958008,-0.2329177856445312,-0.0,-0.0,-1.0,0.1482559280471347,1.0
33.56116485595703,-9.94674301147461,-0.2262744903564453,-0.0,-0.0,-1.0,0.140336296490126,1.0
33.51338195800781,-9.46747589111328,-0.2414517402648925,-0.0,-0.0,-1.0,0.095488419896751,1.0
32.082149505615234,-8.825055122375488,0.011444091796875,-0.0,-0.0,-1.0,0.0983198111743254,1.0
31.956361770629883,-8.485660552978516,0.0187034606933593,0.3559736623602556,-0.3666115803620891,-0.8595805377335151,0.2501967085254575,9.0
32.020599365234375,-8.492194175720215,0.0061745643615722,-0.1122732332973536,0.9783195515070794,-0.1740275157092831,0.1943440624379553,4.0
33.37659454345703,-10.131057739257812,-0.2285652160644531,0.4535140325631804,0.2621361897077505,-0.8518272361892315,0.1475915615777863,3.0
33.52691650390625,-10.334569931030272,-0.235811710357666,-0.0,-0.0,-1.0,0.1730196535837707,1.0
33.238548278808594,-9.931325912475586,-0.2239365577697754,-0.4141135113888528,0.7130345641485256,0.5657664801088133,0.0667358189924913,3.0
33.12413024902344,-9.677597045898438,-0.2327909469604492,-0.0,-0.0,-1.0,0.0850673923187751,2.0
32.168643951416016,-9.37381649017334,-0.0498895645141601,-0.0,-0.0,-1.0,0.0621528173728583,1.0
32.032752990722656,-9.240838050842283,-0.036834716796875,-0.0,-0.0,-1.0,0.1052151272116812,2.0
31.95451545715332,-8.945993423461914,-0.0611815452575683,-0.0,-0.0,-1.0,0.1374448315660526,1.0
31.81792259216309,-8.759150505065918,-0.056227684020996,-0.0007467676017073,-0.3213025827973395,-0.9469762893683812,0.2374084748536271,3.0
32.01171112060547,-8.557271957397461,-0.1322946548461914,0.0005371488424816,0.997643351633858,-0.0686108913503058,0.2177357731458064,4.0
33.682533264160156,-10.20758819580078,-0.1236190795898437,0.1083903689455256,0.1170603369186451,-0.987192182627246,0.2150566938268336,4.0
33.48456573486328,-10.13335418701172,-0.2105398178100586,-0.0,-0.0,-1.0,0.1714264650378622,1.0
33.46086120605469,-9.79432487487793,-0.2213110923767089,-0.0,-0.0,-1.0,0.066663177308605,1.0
31.992206573486328,-9.23053741455078,0.0466480255126953,-0.0,-0.0,-1.0,0.1345083857462787,1.0
31.87781143188477,-9.012884140014648,0.0591335296630859,-0.0,-0.0,-1.0,0.0866529099745846,2.0
31.94015121459961,-8.594060897827148,0.0257182121276855,0.6850259652918653,0.7058952681332368,-0.180142436152768,0.2182929993381421,7.0
33.631263732910156,-8.463415145874023,-0.3222732543945312,-0.0,-0.0,-1.0,0.0937605150992325,2.0
32.12607955932617,-8.3858060836792,-0.0224666595458984,0.1360113641099267,0.9906736359496402,-0.0081643044576425,0.2073802131743999,3.0
32.70796203613281,-10.289005279541016,-0.1355867385864257,-0.0,-0.0,-1.0,0.0220460379085752,2.0
32.94359588623047,-9.951048851013184,-0.1609578132629394,-0.0,-0.0,-1.0,0.029129276094167,1.0
33.6969108581543,-8.543500900268555,-0.2372350692749023,-0.0,-0.0,-1.0,0.0955286512890366,1.0
31.802444458007812,-9.163423538208008,0.0338783264160156,-0.0,-0.0,-1.0,0.2005811922630461,2.0
31.84428024291992,-9.170331954956056,0.0273361206054687,-0.0,-0.0,-1.0,0.1983530396182952,2.0
31.743682861328125,-8.832483291625977,0.051764965057373,0.3944349576702387,-0.6683596136659155,-0.6306476757968944,0.2101295210254083,12.0
31.94421005249023,-8.621469497680664,0.0269088745117187,0.9335930871032132,-0.1752726846473067,0.3125434909410489,0.2201028641338412,6.0
33.63703536987305,-10.068349838256836,-0.1836867332458496,-0.0,-0.0,-1.0,0.147747818293828,2.0
32.03245544433594,-9.087471961975098,0.0111556053161621,-0.0,-0.0,-1.0,0.1466630657023823,1.0
31.976057052612305,-8.830013275146484,0.0182068347930908,-0.0,-0.0,-1.0,0.2411210897202191,1.0
32.07890701293945,-8.551619529724121,0.0058720111846923,0.2766798319438523,-0.885454183751885,-0.3733887505962182,0.1614767747805961,5.0
31.76565933227539,-8.625121116638184,-0.1499810218811035,-0.2593321296385519,0.2716456817402973,-0.9267985056790836,0.1699098531689342,4.0
31.951126098632812,-8.592680931091309,-0.1624290943145752,-0.0,-0.0,-1.0,0.1396944730943407,2.0
33.505027770996094,-10.150964736938477,-0.1635375022888183,-0.0,-0.0,-1.0,0.1226838523714653,1.0
0.0,0.0,0.0,0.0,0.0,0.0,0.0,0.0
0.0,0.0,0.0,0.0,0.0,0.0,0.0,0.0
0.0,0.0,0.0,0.0,0.0,0.0,0.0,0.0
0.0,0.0,0.0,0.0,0.0,0.0,0.0,0.0
0.0,0.0,0.0,0.0,0.0,0.0,0.0,0.0
0.0,0.0,0.0,0.0,0.0,0.0,0.0,0.0
0.0,0.0,0.0,0.0,0.0,0.0,0.0,0.0
0.0,0.0,0.0,0.0,0.0,0.0,0.0,0.0
0.0,0.0,0.0,0.0,0.0,0.0,0.0,0.0
0.0,0.0,0.0,0.0,0.0,0.0,0.0,0.0
0.0,0.0,0.0,0.0,0.0,0.0,0.0,0.0
0.0,0.0,0.0,0.0,0.0,0.0,0.0,0.0
0.0,0.0,0.0,0.0,0.0,0.0,0.0,0.0
0.0,0.0,0.0,0.0,0.0,0.0,0.0,0.0
0.0,0.0,0.0,0.0,0.0,0.0,0.0,0.0
0.0,0.0,0.0,0.0,0.0,0.0,0.0,0.0
0.0,0.0,0.0,0.0,0.0,0.0,0.0,0.0
0.0,0.0,0.0,0.0,0.0,0.0,0.0,0.0
0.0,0.0,0.0,0.0,0.0,0.0,0.0,0.0
0.0,0.0,0.0,0.0,0.0,0.0,0.0,0.0
0.0,0.0,0.0,0.0,0.0,0.0,0.0,0.0
0.0,0.0,0.0,0.0,0.0,0.0,0.0,0.0
0.0,0.0,0.0,0.0,0.0,0.0,0.0,0.0
0.0,0.0,0.0,0.0,0.0,0.0,0.0,0.0
0.0,0.0,0.0,0.0,0.0,0.0,0.0,0.0
0.0,0.0,0.0,0.0,0.0,0.0,0.0,0.0
0.0,0.0,0.0,0.0,0.0,0.0,0.0,0.0
0.0,0.0,0.0,0.0,0.0,0.0,0.0,0.0
0.0,0.0,0.0,0.0,0.0,0.0,0.0,0.0
0.0,0.0,0.0,0.0,0.0,0.0,0.0,0.0
0.0,0.0,0.0,0.0,0.0,0.0,0.0,0.0
0.0,0.0,0.0,0.0,0.0,0.0,0.0,0.0
0.0,0.0,0.0,0.0,0.0,0.0,0.0,0.0
0.0,0.0,0.0,0.0,0.0,0.0,0.0,0.0
0.0,0.0,0.0,0.0,0.0,0.0,0.0,0.0
0.0,0.0,0.0,0.0,0.0,0.0,0.0,0.0
0.0,0.0,0.0,0.0,0.0,0.0,0.0,0.0
0.0,0.0,0.0,0.0,0.0,0.0,0.0,0.0
0.0,0.0,0.0,0.0,0.0,0.0,0.0,0.0
0.0,0.0,0.0,0.0,0.0,0.0,0.0,0.0
0.0,0.0,0.0,0.0,0.0,0.0,0.0,0.0
0.0,0.0,0.0,0.0,0.0,0.0,0.0,0.0
0.0,0.0,0.0,0.0,0.0,0.0,0.0,0.0
0.0,0.0,0.0,0.0,0.0,0.0,0.0,0.0
0.0,0.0,0.0,0.0,0.0,0.0,0.0,0.0
0.0,0.0,0.0,0.0,0.0,0.0,0.0,0.0
0.0,0.0,0.0,0.0,0.0,0.0,0.0,0.0
0.0,0.0,0.0,0.0,0.0,0.0,0.0,0.0
0.0,0.0,0.0,0.0,0.0,0.0,0.0,0.0
0.0,0.0,0.0,0.0,0.0,0.0,0.0,0.0
0.0,0.0,0.0,0.0,0.0,0.0,0.0,0.0
