x,y,z,nx,ny,nz,curvature,density
19.006017684936523,-4.779290199279785,0.1670147180557251,-0.0,-0.0,-1.0,0.1933833654194198,1.0
19.3809757232666,-5.119636535644531,0.1229583024978637,-0.0,-0.0,-1.0,0.1417356790035556,1.0
19.422618865966797,-4.586872100830078,0.1688027381896972,-0.0,-0.0,-1.0,0.1727972995644021,2.0
19.657224655151367,-5.93387508392334,0.557881236076355,-0.0,-0.0,-1.0,0.1501275144640082,1.0
19.668176651000977,-5.3360748291015625,0.5901340246200562,-0.644977533298404,0.6928533211871372,-0.3224255834456374,0.1690035001617217,5.0
17.977706909179688,-5.699265480041504,0.0616219043731689,-0.4386464204234818,-0.5410422026661224,-0.7175393039993395,0.1749559374976622,3.0
18.07573127746582,-5.129350662231445,0.1105384826660156,-0.0,-0.0,-1.0,0.1976325291510531,2.0
18.133167266845703,-4.878084182739258,0.1322418451309204,-0.0,-0.0,-1.0,0.1806875141091637,2.0
18.573570251464844,-5.151704788208008,0.113652229309082,0.1653067692098672,-0.9603747626082236,-0.2243969415981289,0.1437810360529022,4.0
18.927011489868164,-4.8927764892578125,0.1384814977645874,-0.0,-0.0,-1.0,0.1681461351396879,1.0
19.140300750732425,-4.714970588684082,0.1550626754760742,-0.0,-0.0,-1.0,0.1920768994695898,1.0
19.676977157592773,-4.4429826736450195,0.1809117794036865,-0.0,-0.0,-1.0,0.1491397359969851,2.0
19.579179763793945,-5.348804473876953,0.5777194499969482,-0.0,-0.0,-1.0,0.1264095340285997,2.0
18.481674194335938,-4.798529624938965,-0.0648607015609741,-0.8697764695065358,-0.2922483769023633,0.3975924789161391,0.0624785626130918,3.0
18.434175491333008,-5.679376602172852,0.3169030547142029,-0.0,-0.0,-1.0,0.1114689153662638,1.0
18.52667236328125,-5.325230598449707,0.3423200845718384,-0.0,-0.0,-1.0,0.1792707917614125,1.0
19.178627014160156,-5.373761177062988,0.351482629776001,-0.0,-0.0,-1.0,0.1627037699819103,1.0
19.394685745239254,-5.634726524353027,0.3375786542892456,-0.0,-0.0,-1.0,0.1431007237399517,1.0
19.63910484313965,-6.026288986206055,0.3148707747459411,-0.0,-0.0,-1.0,0.0831973756526083,1.0
19.573936462402344,-5.468507766723633,0.3518146276473999,-0.0,-0.0,-1.0,0.210428325727648,2.0
19.498327255249023,-5.404010772705078,0.8014174103736877,-0.0,-0.0,-1.0,0.173602244564604,1.0
17.944976806640625,-5.187017917633057,0.173295259475708,-0.0,-0.0,-1.0,0.1708518475047075,1.0
18.212244033813477,-5.134149074554443,0.1880292892456054,-0.0,-0.0,-1.0,0.1471364784864987,2.0
18.42030906677246,-5.343681812286377,0.180438756942749,-0.0,-0.0,-1.0,0.2811492825798571,2.0
18.605255126953125,-4.421702861785889,0.2567262649536133,-0.0,-0.0,-1.0,0.1746638838597196,1.0
18.631996154785156,-5.1388068199157715,0.2038661241531372,0.1015570135481932,-0.7079955396509725,-0.6988765905605223,0.1832548329034492,4.0
18.76319122314453,-5.402401447296143,0.1916447877883911,-0.0,-0.0,-1.0,0.2070452221013487,2.0
18.803945541381836,-5.558105945587158,0.1843161582946777,-0.0,-0.0,-1.0,0.1832832801592266,1.0
18.95558738708496,-4.718018054962158,0.2476866245269775,-0.0,-0.0,-1.0,0.1304656216851033,1.0
19.42711067199707,-5.756462574005127,0.1881334781646728,-0.0,-0.0,-1.0,0.2182310326880247,1.0
19.38534927368164,-6.272393703460693,0.1463410854339599,-0.0,-0.0,-1.0,0.2167455851466621,1.0
19.6462345123291,-5.256353855133057,0.648591935634613,-0.0,-0.0,-1.0,0.1706737286309443,2.0
17.934791564941406,-5.536506652832031,-0.0400780439376831,-0.0,-0.0,-1.0,0.0605839700158762,1.0
18.1914119720459,-4.878252983093262,0.0395203828811645,-0.0,-0.0,-1.0,0.1360573183974553,1.0
18.199867248535156,-4.983360290527344,0.0276165008544921,-0.0,-0.0,-1.0,0.0738267022626304,2.0
18.10217666625977,-5.568985939025879,-0.0413151979446411,-0.0,-0.0,-1.0,0.0637750350291529,1.0
18.576114654541016,-5.1540021896362305,0.0129597187042236,-0.0,-0.0,-1.0,0.111055873419235,2.0
19.068859100341797,-4.689878463745117,0.072718858718872,-0.0,-0.0,-1.0,0.2121198453760574,2.0
19.09827423095703,-5.05074405670166,0.0302011966705322,-0.0,-0.0,-1.0,0.2204332255168826,1.0
19.571308135986328,-5.419020652770996,-0.011981725692749,-0.0,-0.0,-1.0,0.1687635793861683,1.0
19.61559295654297,-5.397771835327148,0.3769816756248474,-0.0,-0.0,-1.0,0.2241576691683359,2.0
19.668540954589844,-5.797916412353516,0.3406462669372558,-0.0,-0.0,-1.0,0.159104883414154,2.0
19.705650329589844,-5.432228088378906,0.3728381991386413,-0.0,-0.0,-1.0,0.1513531086303353,2.0
19.65839195251465,-5.277570724487305,0.766933023929596,0.3946975318756038,0.3901607016270027,-0.831858452645179,0.1381257522011943,8.0
18.10089683532715,-5.1011576652526855,0.1737984418869018,-0.0,-0.0,-1.0,0.1510354188671983,2.0
18.42854118347168,-5.152869701385498,0.1714844703674316,-0.5207967149480666,0.8050337559852426,0.2840623759380949,0.1944092958983089,3.0
18.562585830688477,-5.271768093109131,0.158262014389038,-0.7701801384749394,-0.5241657694300987,-0.3634182170124052,0.1486288097477676,4.0
18.60090446472168,-4.4043989181518555,-0.0760083198547363,-0.0,-0.0,-1.0,0.1927202854893606,2.0
18.730960845947266,-5.288370609283447,0.1572674512863159,-0.0,-0.0,-1.0,0.1703013013576736,1.0
19.602418899536133,-5.818755626678467,0.0887972116470336,-0.0,-0.0,-1.0,0.2272552203628893,2.0
18.427274703979492,-4.955702304840088,0.1950560808181762,-0.0,-0.0,-1.0,0.1663536047681832,1.0
18.805644989013672,-5.066140651702881,0.1847929954528808,-0.0,-0.0,-1.0,0.1409584853333539,2.0
18.938304901123047,-5.182551860809326,0.1712167263031005,-0.3256457875761773,0.2373858262770797,-0.915206419621628,0.1870009224295347,4.0
19.354068756103516,-4.706453800201416,0.2314709424972534,-0.0,-0.0,-1.0,0.2329080290190603,1.0
19.389312744140625,-4.779008388519287,0.2224413156509399,-0.0,-0.0,-1.0,0.187786318183066,1.0
19.35943603515625,-5.307987689971924,0.1557687520980835,-0.0,-0.0,-1.0,0.1556450018855945,2.0
19.654539108276367,-5.36929178237915,0.3204201459884643,-0.9490559417170514,0.2844967044115651,0.135478576426383,0.2142475491265382,5.0
19.64061737060547,-5.242183208465576,0.8499925136566162,0.9477787052708296,0.2427057815417954,0.2069043968632272,0.1481530202256904,7.0
18.16686248779297,-4.546413421630859,-0.0566917657852172,-0.0,-0.0,-1.0,0.1109034944881875,1.0
18.44900894165039,-4.5233473777771,-0.0376418828964233,-0.0,-0.0,-1.0,0.0547589969225964,2.0
18.363924026489254,-6.286848068237305,0.0600949525833129,0.8689778943060541,0.0973131058236102,-0.485188188894143,0.1042956315102359,3.0
19.598060607910156,-4.784718036651611,-0.0263822078704834,-0.0,-0.0,-1.0,0.1432074121974732,2.0
18.11573028564453,-5.042224407196045,0.2059557437896728,-0.0,-0.0,-1.0,0.139355020667438,2.0
18.465396881103516,-5.037890434265137,0.2167479991912841,-0.9266966820140968,0.3363365840688702,0.1676632391460555,0.2291995060829598,4.0
18.585243225097656,-5.242374897003174,0.1950677633285522,-0.6726754718890827,0.0332048657586347,-0.739192225614387,0.2116058477901516,3.0
18.892988204956055,-4.796207427978516,0.2575336694717407,-0.0,-0.0,-1.0,0.1264419513419333,1.0
18.86754035949707,-5.301836013793945,0.1942355632781982,-0.0,-0.0,-1.0,0.1667191658353627,1.0
19.392175674438477,-4.643011569976807,0.2877989411354065,-0.0,-0.0,-1.0,0.2440854394378282,1.0
19.39131546020508,-5.775383949279785,0.1418083906173706,-0.0,-0.0,-1.0,0.1490219251749205,1.0
19.646194458007812,-5.405493259429932,0.1931952238082885,-0.0,-0.0,-1.0,0.2445531009861898,2.0
19.608253479003903,-5.322940826416016,0.5173179507255554,-0.3495731654330369,0.6164806446622213,-0.7055141506489995,0.1721178633389523,3.0
19.640867233276367,-5.264687538146973,0.8325158357620239,-0.8005434962411867,0.4264849579841666,-0.4209996333005304,0.1481530202256904,9.0
18.02964782714844,-4.411757469177246,-0.055037498474121,-0.0,-0.0,-1.0,0.0760741658020914,2.0
18.112396240234375,-4.532357215881348,-0.066550612449646,-0.0,-0.0,-1.0,0.0941791044404197,1.0
18.07666015625,-5.111255168914795,0.1561782360076904,-0.1203567737821309,0.9236783624839816,-0.3637753835592332,0.1901733117367346,3.0
18.36554718017578,-4.624375343322754,-0.0613865852355957,-0.0,-0.0,-1.0,0.0596902842011284,1.0
18.45368003845215,-5.0565505027771,0.1805006265640258,-0.958678679958322,0.06310303493246,0.2774043899718997,0.2211286648952628,3.0
18.339553833007812,-6.170887470245361,0.0234628915786743,-0.0,-0.0,-1.0,0.0578504996080142,1.0
18.506376266479492,-4.6632399559021,-0.0572293996810913,-0.0,-0.0,-1.0,0.0324630589150251,1.0
18.61241149902344,-5.121029376983643,0.1786468029022216,0.8071518230141937,0.0554356684888882,-0.5877353326660341,0.1344269806473566,3.0
18.62688446044922,-5.283921718597412,0.1570712327957153,-0.0,-0.0,-1.0,0.199595425129196,2.0
19.135656356811523,-4.939014434814453,0.2242065668106079,-0.0,-0.0,-1.0,0.1991766736081272,2.0
18.992572784423828,-5.390968322753906,0.1559590101242065,-0.0,-0.0,-1.0,0.1874201559049359,1.0
19.33956527709961,-6.191502094268799,0.0501990318298339,-0.0,-0.0,-1.0,0.1834037380219486,1.0
19.625198364257812,-5.315600395202637,0.0449082851409912,-0.0,-0.0,-1.0,0.1716772099108103,2.0
19.55572509765625,-5.697350978851318,0.1285798549652099,-0.0,-0.0,-1.0,0.2324430323675085,1.0
18.281391143798828,-5.245180606842041,0.4577709436416626,-0.0971619812359609,0.9070039886465894,-0.4097600687981692,0.1617097787767206,3.0
19.63163185119629,-4.365659236907959,0.3221611976623535,-0.0,-0.0,-1.0,0.1544673442067842,1.0
19.654991149902344,-5.377046585083008,0.4623560905456543,-0.9815544830924589,0.1866338574338598,-0.0414560005361581,0.1505707053164702,4.0
19.598234176635746,-5.765762805938721,0.4162699580192566,-0.0,-0.0,-1.0,0.2476416072635217,1.0
19.64105987548828,-5.321011543273926,0.7494707107543945,0.858287127047239,-0.1490743787370645,-0.4910397510886005,0.1915729325484007,6.0
17.765106201171875,-4.658863067626953,0.0177481174468994,0.945363010489674,0.318063892897353,-0.0715830876176928,0.021903808142365,3.0
18.04450035095215,-4.809812068939209,0.0285930633544921,0.251611808533099,0.0629523266997447,-0.9657787025865664,0.0952405703702453,3.0
18.061052322387695,-5.16384744644165,-0.0164262056350708,-0.0,-0.0,-1.0,0.1688123083451378,1.0
18.0129337310791,-5.642345905303955,0.2182645797729492,-0.2109950977835092,-0.6930630495347525,-0.6893073901249835,0.1637289185837935,6.0
18.536340713500977,-5.035647392272949,0.0476475954055786,-0.0,-0.0,-1.0,0.2055606262536425,2.0
18.70585250854492,-5.477931499481201,-0.0010560750961303,-0.0,-0.0,-1.0,0.279243958520058,1.0
18.643787384033203,-5.734588623046875,-0.0450661182403564,-0.0,-0.0,-1.0,0.047599642970728,1.0
19.05200958251953,-4.7859320640563965,0.1317038536071777,-0.0,-0.0,-1.0,0.2266266109356499,1.0
18.86871337890625,-5.054477691650391,0.0759382247924804,-0.0,-0.0,-1.0,0.2028278818500072,1.0
18.84966278076172,-5.394711494445801,0.0238450765609741,-0.0,-0.0,-1.0,0.2065215637385273,2.0
18.97693634033203,-5.839717388153076,-0.0345768928527832,-0.0,-0.0,-1.0,0.0763313434310798,1.0
19.44734001159668,-5.076577663421631,-0.0056164264678955,-0.0,-0.0,-1.0,0.1278871890329826,2.0
19.50424575805664,-5.359680652618408,-0.048938512802124,-0.0,-0.0,-1.0,0.1935846488931688,1.0
18.240432739257812,-5.063719749450684,0.3008025884628296,-0.0,-0.0,-1.0,0.1608704641731561,2.0
18.529476165771484,-5.062620639801025,0.3212931156158447,-0.0,-0.0,-1.0,0.2062394882133134,1.0
18.622722625732425,-5.557361602783203,0.267962098121643,-0.0,-0.0,-1.0,0.2061838092432774,1.0
18.92413330078125,-5.148340702056885,0.3374391198158264,-0.0,-0.0,-1.0,0.1995211706912975,1.0
18.83527183532715,-5.363036155700684,0.3053613901138305,-0.0,-0.0,-1.0,0.1992546021876916,1.0
19.188396453857425,-6.329217433929443,0.196606159210205,-0.0,-0.0,-1.0,0.1880277503888762,1.0
19.27362823486328,-4.614597797393799,0.1766769886016845,-0.5291529239627557,0.369401503072897,-0.7638977108154927,0.1195949075191696,3.0
19.411731719970703,-5.288349628448486,0.3483874797821045,0.8369648383396295,0.5466299960468863,0.0261821848763325,0.0652548236389064,3.0
19.488874435424805,-5.724920272827148,0.2940456867218017,-0.0,-0.0,-1.0,0.2342645472208953,2.0
19.41557884216309,-6.111433982849121,0.237065315246582,-0.0,-0.0,-1.0,0.2125778573597796,1.0
19.51893424987793,-5.258177757263184,0.6144739389419556,-0.0,-0.0,-1.0,0.099473947859822,1.0
19.630661010742188,-5.302957534790039,0.7388136386871338,0.8591507546093622,-0.1699640392082365,-0.482671944730771,0.2220051687636109,7.0
17.761333465576172,-4.644881248474121,0.0300486087799072,0.945363010489674,0.318063892897353,-0.0715830876176928,0.0221513644754733,3.0
17.915903091430664,-5.098137855529785,-0.0026683807373046,-0.0,-0.0,-1.0,0.1030575720476803,1.0
18.12056350708008,-4.939798355102539,0.0567103624343872,-0.3162187466764081,-0.0023916479236836,-0.9486832897603974,0.1683825560081364,3.0
18.47873306274414,-5.31275749206543,0.064565896987915,-0.0,-0.0,-1.0,0.1442628528184396,1.0
18.519309997558594,-5.781566143035889,-0.0042896270751953,-0.0,-0.0,-1.0,0.0636306480340735,1.0
18.453269958496097,-5.138175964355469,0.0869569778442382,-0.0,-0.0,-1.0,0.1538437997596569,2.0
18.58406639099121,-5.454331874847412,0.0598639249801635,-0.8982696429244631,0.3010518358391911,-0.3201241020888769,0.2215172438414209,3.0
18.586101531982425,-5.778260231018066,0.0068989992141723,-0.0,-0.0,-1.0,0.0611106345966082,1.0
18.786357879638672,-6.103087902069092,-0.0178993940353393,-0.0,-0.0,-1.0,0.0174915866369821,1.0
19.10346794128418,-6.236911296844482,0.0058439970016479,-0.6593484645710295,0.004816547812062,-0.7518220554991721,0.1011335233468572,3.0
18.04568672180176,-5.591184616088867,0.244758129119873,-0.0,-0.0,-1.0,0.1689436027514811,1.0
18.228626251220703,-4.96056604385376,0.3523950576782226,-0.0,-0.0,-1.0,0.1377830023063991,1.0
18.35721015930176,-5.379674434661865,0.3170275688171386,-0.0,-0.0,-1.0,0.0950685915389354,1.0
18.50920867919922,-5.589732646942139,0.309679627418518,-0.0,-0.0,-1.0,0.1291921620650002,2.0
18.55486297607422,-5.013521671295166,0.257695198059082,-0.0,-0.0,-1.0,0.259659538686976,1.0
18.688817977905273,-5.195463180541992,0.2538895606994629,-0.0,-0.0,-1.0,0.2442656003035744,2.0
18.603290557861328,-5.608190536499023,0.3198992013931274,-0.0,-0.0,-1.0,0.1044456371052731,1.0
18.947021484375,-5.157862186431885,0.1683354377746582,-0.3285068304512343,0.2294349149098706,-0.9162111558844852,0.1839175018307359,6.0
19.347259521484375,-6.037854194641113,0.0784227848052978,-0.0,-0.0,-1.0,0.1536010507810527,1.0
19.42117691040039,-4.583207130432129,0.3392337560653686,-0.5647318318717761,0.8219153513205227,0.0743848999085824,0.1237955529289581,3.0
19.524717330932617,-5.361020565032959,0.227530837059021,-0.0,-0.0,-1.0,0.2113504625756372,1.0
19.56756019592285,-5.6457295417785645,0.3128873109817505,-0.0,-0.0,-1.0,0.1731212993762624,1.0
19.536415100097656,-5.850546836853027,0.2721407413482666,-0.0,-0.0,-1.0,0.1645931653532029,2.0
19.667160034179688,-5.3234543800354,0.6225534677505493,0.9994344967649028,-0.0049348819452109,0.0332615937151612,0.1567263609719003,3.0
17.948266983032227,-6.344424724578857,0.0350037813186645,-0.0,-0.0,-1.0,0.0697823382548153,2.0
17.93108558654785,-5.785819053649902,0.1124862432479858,-0.0,-0.0,-1.0,0.1070418679549336,1.0
17.989389419555664,-6.2394514083862305,0.0572940111160278,0.3124817340823266,-0.7882451825577437,-0.530117626606974,0.059205861603799,3.0
18.32510757446289,-5.643685340881348,0.1991914510726928,-0.0,-0.0,-1.0,0.1538619431785459,1.0
18.435264587402344,-4.98325252532959,0.3045581579208374,-0.0,-0.0,-1.0,0.1463203882379722,1.0
18.36603355407715,-5.350415229797363,0.2457251548767089,-0.0,-0.0,-1.0,0.1497815458701218,1.0
18.52901840209961,-5.542845249176025,0.2476571798324585,-0.0,-0.0,-1.0,0.1651759180687791,1.0
18.610008239746097,-4.9824347496032715,0.3357629776000976,-0.0,-0.0,-1.0,0.2154838184923979,1.0
18.648439407348633,-5.188835620880127,0.3160918951034546,-0.0,-0.0,-1.0,0.2172635429969458,2.0
18.70173454284668,-5.55224084854126,0.2754360437393188,-0.0,-0.0,-1.0,0.1235032856817088,1.0
19.646202087402344,-5.436519622802734,0.4465473890304565,-0.3894497618618963,0.8590268501935108,-0.3322675934127914,0.1407688575603726,6.0
19.58074951171875,-5.168159484863281,0.7066771984100342,-0.8279433570997639,0.2196863404700235,-0.5159919662603886,0.1663207719527256,6.0
19.64984703063965,-5.328824520111084,0.6949784755706787,-0.4844242258984117,0.2726747776008201,-0.8312530511360954,0.2305558114262987,6.0
19.660072326660156,-5.24600887298584,0.8256925344467163,0.1779403734851432,0.9808294299283092,0.0794408765716727,0.1481530202256904,9.0
18.01365089416504,-5.629446983337402,0.1965774297714233,-0.9889717733535868,-0.1106089616691559,-0.0984910610580118,0.1609249958485576,3.0
18.246356964111328,-4.99562931060791,0.2633203268051147,-0.0,-0.0,-1.0,0.1524241339073141,2.0
18.370737075805664,-5.287418365478516,0.2823073863983154,-0.0,-0.0,-1.0,0.133044909569275,1.0
18.508686065673828,-5.548041820526123,0.3021094799041748,-0.5615124281524074,-0.1546419086536165,-0.8128897053834265,0.1790064544236829,3.0
18.54897117614746,-4.971362113952637,0.3275434970855713,-0.0,-0.0,-1.0,0.1926278971370307,2.0
18.560190200805664,-5.249948978424072,0.3230865001678467,-0.0,-0.0,-1.0,0.2210157355852614,1.0
19.538169860839844,-5.266288757324219,0.5259623527526855,-0.3551322994226852,-0.2818139383196719,-0.8913259527667263,0.1323193557124908,5.0
19.69335174560547,-5.33036470413208,0.5554994344711304,-0.0,-0.0,-1.0,0.0937030458428701,2.0
19.669639587402344,-5.26746940612793,0.7746739387512207,0.1275804147117427,0.4577819327934705,-0.8798630233109321,0.1395504125246666,6.0
19.67988967895508,-5.286849498748779,0.7758177518844604,0.1275804147117427,0.4577819327934705,-0.8798630233109321,0.1570485464839568,6.0
17.908042907714844,-4.385473728179932,-0.0399131774902343,-0.0,-0.0,-1.0,0.0956530671534903,2.0
18.06021499633789,-4.725396156311035,0.0023635625839233,-0.0,-0.0,-1.0,0.0868356869435451,1.0
18.140560150146484,-5.101264476776123,0.024240493774414,-0.0,-0.0,-1.0,0.1922219360543357,2.0
18.11948013305664,-5.719268798828125,0.0143690109252929,-0.0,-0.0,-1.0,0.1690306828643092,2.0
18.14881134033203,-5.994003772735596,0.0145496129989624,-0.0,-0.0,-1.0,0.0320645249882776,1.0
18.258739471435547,-6.301948547363281,0.0296021699905395,-0.0,-0.0,-1.0,0.1029830828948533,1.0
18.447593688964844,-4.923826694488525,0.0946942567825317,-0.0,-0.0,-1.0,0.230453932834701,1.0
18.077163696289062,-5.0648193359375,0.2994447946548462,-0.0,-0.0,-1.0,0.1434186400854908,1.0
18.273656845092773,-5.330854892730713,0.337745189666748,-0.0,-0.0,-1.0,0.1919121419440792,1.0
18.508819580078125,-4.888027667999268,0.108582854270935,-0.0,-0.0,-1.0,0.2127650488692646,1.0
18.489013671875,-5.1258134841918945,0.2440600395202636,-0.0,-0.0,-1.0,0.2072588564086006,2.0
18.940643310546875,-4.800662040710449,0.2077372074127197,-0.0,-0.0,-1.0,0.1403108807316405,1.0
18.821346282958984,-5.123255252838135,0.1824177503585815,0.2748764038025994,0.9498617325193888,-0.1490156090072974,0.1374078774039903,3.0
19.19811248779297,-6.347203731536865,0.2422894239425659,-0.0,-0.0,-1.0,0.1838362788066672,1.0
19.4090518951416,-4.589122295379639,0.3125399351119995,-0.4291583182070166,0.903214249239757,-0.005211322671563,0.1401737761740431,3.0
19.37038230895996,-5.274136066436768,0.3096762895584106,0.9051343226439716,0.0287801540417653,-0.4241503986856209,0.1495670554222223,5.0
19.63347625732422,-5.262373447418213,0.7184733152389526,0.7518028425189707,-0.102427242260831,-0.6513840234632999,0.1509196167635582,5.0
19.663768768310547,-5.855592727661133,0.6013518571853638,-0.0,-0.0,-1.0,0.2037094438618265,2.0
18.04154396057129,-4.37933874130249,-0.0467085838317871,-0.0,-0.0,-1.0,0.1296054722692887,2.0
18.030502319335938,-4.681706428527832,-0.0322648286819458,-0.0,-0.0,-1.0,0.0628181918154227,1.0
17.999502182006836,-5.423862457275391,-0.0103975534439086,-0.0,-0.0,-1.0,0.0344536260043449,2.0
18.058603286743164,-6.022091388702393,0.0130155086517333,-0.0,-0.0,-1.0,0.0329341108675949,1.0
18.29136657714844,-4.923220634460449,0.0373613834381103,-0.0,-0.0,-1.0,0.085712571256963,2.0
18.446762084960938,-5.011273384094238,0.0760321617126464,-0.0,-0.0,-1.0,0.2328817090149057,1.0
18.09156036376953,-5.404520034790039,0.0098657608032226,-0.0,-0.0,-1.0,0.0555844881906872,1.0
18.18032455444336,-6.067714691162109,0.0410964488983154,-0.0,-0.0,-1.0,0.0396954293555801,1.0
18.216279983520508,-6.270937442779541,0.0498422384262084,-0.0,-0.0,-1.0,0.0597257227847547,1.0
18.55392837524414,-4.947533130645752,0.0972163677215576,-0.540131183780786,-0.8214551084783175,-0.1829475582303371,0.2014441031022478,6.0
18.618547439575195,-5.011169910430908,0.1144876480102539,0.4322068254327484,-0.0734430508335709,-0.8987788261489047,0.2568159551875587,3.0
18.034889221191406,-5.676569938659668,0.3002057075500488,-0.0,-0.0,-1.0,0.1806630586720598,2.0
17.736553192138672,-6.264843463897705,0.2479864358901977,-0.0,-0.0,-1.0,0.0795775185361641,1.0
18.393178939819336,-4.9705729484558105,0.3490808010101318,-0.0,-0.0,-1.0,0.1298630568778546,1.0
18.332096099853516,-5.330305576324463,0.349147081375122,-0.0,-0.0,-1.0,0.1139925057629904,1.0
18.655773162841797,-4.959738731384277,0.3979418277740478,-0.0,-0.0,-1.0,0.2277450071537819,1.0
18.756881713867188,-5.111757278442383,0.1496856212615966,-0.0,-0.0,-1.0,0.1856129393844463,2.0
19.113502502441406,-4.917754650115967,0.2206901311874389,-0.0,-0.0,-1.0,0.1818303292784332,2.0
19.598583221435547,-5.94754695892334,0.3620724678039551,-0.0,-0.0,-1.0,0.1923129721544693,2.0
19.62157440185547,-5.301422119140625,0.7096772193908691,0.9667680774933366,0.2538910831503915,0.0299800306297195,0.1968841811276192,6.0
19.634063720703125,-5.892212867736816,0.6076469421386719,-0.0,-0.0,-1.0,0.2593021124989674,2.0
18.66374969482422,-4.610791206359863,-0.0169891119003295,-0.0,-0.0,-1.0,0.1332146715148562,1.0
18.59259033203125,-4.766054630279541,-0.0193139314651489,-0.9155702703263188,-0.3994198770509608,-0.0468491399193886,0.1819403957856064,3.0
18.341716766357425,-5.748859882354736,-0.0090001821517944,-0.0,-0.0,-1.0,0.0821920996761496,1.0
18.392017364501953,-6.0175275802612305,0.0151432752609252,-0.0,-0.0,-1.0,0.0232584423037608,1.0
18.340978622436523,-6.226527214050293,0.0116244554519653,-0.0,-0.0,-1.0,0.1067789411145197,2.0
18.737083435058594,-5.514960289001465,0.0687314271926879,-0.0,-0.0,-1.0,0.1929334806598378,1.0
18.196304321289062,-4.707512378692627,0.1900402307510376,-0.0,-0.0,-1.0,0.1024401444608974,2.0
18.45773124694824,-5.2186689376831055,0.2730337381362915,-0.0,-0.0,-1.0,0.211245914301678,1.0
18.39423561096191,-5.590366363525391,0.2811664342880249,-0.0,-0.0,-1.0,0.215987760654491,1.0
19.14385414123535,-4.471673488616943,0.0746924877166748,-0.0,-0.0,-1.0,0.2307837645324235,1.0
19.04779815673828,-4.750774383544922,0.0802620649337768,-0.0,-0.0,-1.0,0.215716288345217,1.0
19.421218872070312,-4.583551406860352,0.276108980178833,-0.0,-0.0,-1.0,0.1409260281217805,2.0
19.642345428466797,-4.443084716796875,0.1788920164108276,-0.0,-0.0,-1.0,0.149139735996985,2.0
19.635807037353516,-5.946894645690918,0.3003545999526977,-0.0,-0.0,-1.0,0.1038542276193121,1.0
19.392160415649418,-6.257134437561035,0.2581866979598999,-0.0,-0.0,-1.0,0.2356999941084335,1.0
19.52265357971191,-5.16628360748291,0.7199869155883789,-0.0,-0.0,-1.0,0.1506294546036531,2.0
19.67297744750977,-5.390282154083252,0.6372150182723999,-0.0,-0.0,-1.0,0.1321212378626962,2.0
17.890403747558594,-4.445038318634033,-0.0422005653381347,-0.0,-0.0,-1.0,0.0297508522495459,1.0
17.916221618652344,-4.913402557373047,0.006980538368225,-0.0,-0.0,-1.0,0.0291862475055611,1.0
18.13529586791992,-4.935896873474121,0.0517898797988891,-0.3162187466764081,-0.0023916479236836,-0.9486832897603974,0.1797779530599758,3.0
17.803112030029297,-5.800314903259277,0.051009178161621,-0.0,-0.0,-1.0,0.1346971862682072,1.0
18.609066009521484,-5.256452560424805,0.1727563142776489,-0.6962018723114219,-0.0424275294940801,-0.7165911370726681,0.1705135895023229,3.0
18.50850486755371,-5.579888343811035,0.1792545318603515,-0.0,-0.0,-1.0,0.1491662060015439,1.0
19.00719833374023,-4.421831130981445,0.1639188528060913,-0.0,-0.0,-1.0,0.2161437837249657,1.0
18.723426818847656,-5.554373741149902,0.2203710079193115,-0.479838650730816,-0.7325273701838736,-0.4828649098830106,0.2290846853228811,3.0
17.99938201904297,-5.679436683654785,0.3818291425704956,-0.0,-0.0,-1.0,0.1806630586720597,1.0
19.362503051757812,-4.564873695373535,0.2452003955841064,-0.0,-0.0,-1.0,0.1561196355857058,1.0
18.75509262084961,-5.5806732177734375,0.2288011312484741,-0.0,-0.0,-1.0,0.18142686789569,2.0
19.42359161376953,-4.686235427856445,0.2703888416290283,-0.0,-0.0,-1.0,0.2646214208340691,1.0
19.56850814819336,-5.8907928466796875,0.4156116247177124,-0.0,-0.0,-1.0,0.1935587046075214,1.0
19.641265869140625,-5.31593132019043,0.7488476037979126,0.858287127047239,-0.1490743787370645,-0.4910397510886005,0.1915729325484007,6.0
19.65824317932129,-5.40238094329834,0.6363964080810547,-0.0,-0.0,-1.0,0.0996506819761493,2.0
18.53699493408203,-5.723794937133789,-0.0759171247482299,-0.0,-0.0,-1.0,0.0770581219628278,1.0
19.45763778686523,-4.599794387817383,-0.0460520982742309,-0.0,-0.0,-1.0,0.1710114259024533,1.0
18.60235595703125,-5.9920148849487305,-0.0304545164108276,-0.0,-0.0,-1.0,0.0203489851121153,1.0
18.034469604492188,-4.8523969650268555,0.02320396900177,-0.0,-0.0,-1.0,0.1068751747099201,2.0
18.27294921875,-5.058225154876709,0.2418525218963623,-0.0,-0.0,-1.0,0.1518864815697614,2.0
17.951107025146484,-5.63698148727417,0.2415370941162109,0.2387984171907727,0.3147663636164412,-0.918638912893888,0.1149639670330538,3.0
18.680904388427734,-5.227718353271484,0.1810454130172729,-0.0,-0.0,-1.0,0.1709430123565532,2.0
18.547101974487305,-5.525335311889648,0.190216064453125,-0.0,-0.0,-1.0,0.1574417413041584,1.0
19.686962127685547,-4.507167816162109,-0.0184330940246582,-0.0,-0.0,-1.0,0.1314606943177184,2.0
19.608152389526367,-4.6032538414001465,-0.0170073509216308,-0.0,-0.0,-1.0,0.1067106602327726,1.0
19.191219329833984,-5.8140482902526855,0.0761518478393554,-0.0,-0.0,-1.0,0.1718748347756508,1.0
18.278369903564453,-5.227717876434326,0.406964898109436,-0.0,-0.0,-1.0,0.1783979301722382,2.0
18.282751083374023,-5.29580020904541,0.4138597249984741,-0.0,-0.0,-1.0,0.1778935527070931,2.0
19.588871002197266,-5.344923496246338,0.609007716178894,-0.1053436227640636,0.9903356065667336,-0.090211459965147,0.1228270709807365,3.0
19.572261810302734,-5.969696998596191,0.424541711807251,-0.0,-0.0,-1.0,0.1696174129072488,2.0
19.598546981811523,-5.272607326507568,0.856083869934082,-0.5962505640891407,0.7438052392262356,-0.3020579926487362,0.1422212374262909,5.0
18.48500633239746,-4.520892143249512,-0.0575870275497436,-0.0,-0.0,-1.0,0.0304305548005012,2.0
18.308002471923828,-4.601052761077881,-0.0735863447189331,-0.0,-0.0,-1.0,0.0786055443110833,1.0
17.9198055267334,-5.393916130065918,-0.0279371738433837,-0.0,-0.0,-1.0,0.0335290649953436,1.0
18.63829040527344,-4.700536727905273,-0.0055469274520874,-0.0,-0.0,-1.0,0.1272484890532832,1.0
18.440887451171875,-5.353555679321289,0.0575488805770874,-0.0,-0.0,-1.0,0.1270947703899134,1.0
18.116918563842773,-5.526608467102051,0.0241080522537231,-0.0,-0.0,-1.0,0.0770751274350388,2.0
17.942073822021484,-6.019537925720215,0.0530066490173339,-0.0,-0.0,-1.0,0.0537651409634203,2.0
17.818910598754883,-6.2389326095581055,0.0546619892120361,-0.0,-0.0,-1.0,0.0744003306973567,2.0
19.305896759033203,-4.557129383087158,0.072944164276123,-0.0,-0.0,-1.0,0.2185508256884806,2.0
19.174833297729492,-4.561817646026611,0.0545402765274047,-0.0,-0.0,-1.0,0.2485128650254409,1.0
18.569238662719727,-5.46158504486084,0.0946495532989502,-0.0,-0.0,-1.0,0.2455366877489245,2.0
18.429706573486328,-5.520974636077881,0.0787779092788696,-0.0,-0.0,-1.0,0.1969438817465267,2.0
18.051485061645508,-6.343606948852539,0.110714316368103,-0.0,-0.0,-1.0,0.0600274774801667,1.0
19.673330307006836,-4.583122730255127,0.129691481590271,-0.0,-0.0,-1.0,0.119211017714819,1.0
18.605146408081055,-5.043204307556152,0.3408049345016479,-0.0,-0.0,-1.0,0.2401192554748657,2.0
18.17462730407715,-5.177189826965332,0.2965869903564453,-0.0,-0.0,-1.0,0.1426010345531741,1.0
17.99146842956543,-5.72182035446167,0.3294520378112793,-0.0,-0.0,-1.0,0.1340090216127888,1.0
19.56963539123535,-5.445626258850098,0.3892168998718261,-0.0,-0.0,-1.0,0.208601621063491,2.0
19.515113830566406,-5.841310024261475,0.3081629276275635,-0.0,-0.0,-1.0,0.1930577371139238,2.0
19.62596321105957,-5.382702827453613,0.7806764841079712,-0.0,-0.0,-1.0,0.1260964035475356,2.0
18.165693283081055,-5.124110221862793,0.1997818946838379,-0.0,-0.0,-1.0,0.2030391300478127,2.0
19.589031219482425,-4.541472434997559,-0.01498544216156,-0.0,-0.0,-1.0,0.116173203612299,1.0
18.66448974609375,-5.383968353271484,0.0025478601455688,-0.0,-0.0,-1.0,0.1791259002910764,1.0
18.488136291503903,-5.4011149406433105,-0.0226854085922241,-0.0,-0.0,-1.0,0.1155292255106714,1.0
18.270692825317383,-5.930699825286865,0.0223278999328613,0.5210602364958913,0.6047199432510362,-0.6023371316607578,0.0236592902379335,3.0
18.25611114501953,-6.152786731719971,0.0521708726882934,-0.0,-0.0,-1.0,0.0608331432341271,2.0
18.13993453979492,-6.289710998535156,0.0505787134170532,-0.0,-0.0,-1.0,0.0433210044630199,1.0
18.4239559173584,-5.106496334075928,0.2317180633544922,-0.0,-0.0,-1.0,0.2483722285511091,1.0
18.378185272216797,-5.249441146850586,0.2452598810195922,-0.0,-0.0,-1.0,0.1450014888787902,1.0
18.003995895385742,-5.663303375244141,0.2469253540039062,-0.995138783979802,0.0374344360050808,-0.091090414535133,0.1490839068505129,7.0
18.58254623413086,-5.267338752746582,0.2747576236724853,-0.0,-0.0,-1.0,0.2359084942614505,1.0
18.526037216186523,-5.472245216369629,0.2951723337173462,-0.0,-0.0,-1.0,0.1842673919795002,1.0
19.35457420349121,-5.832942485809326,0.3186646699905395,-0.0,-0.0,-1.0,0.2384794571134037,1.0
19.587007522583008,-6.057287693023682,0.2570806741714477,-0.0,-0.0,-1.0,0.186330468477592,1.0
19.66907501220703,-5.345365524291992,0.6924859285354614,-0.5235285335745449,0.0866703739032325,-0.8475884147513812,0.1887486040111514,5.0
17.73894691467285,-4.967906951904297,-0.0064191818237304,0.9746352333301896,0.1290830036791283,-0.1828216073460178,0.0344055218856751,3.0
17.962194442749023,-4.793878078460693,-0.0047488212585449,-0.0,-0.0,-1.0,0.0631499083183094,1.0
17.743579864501953,-4.996171474456787,-0.0016770362854003,0.9746352333301896,0.1290830036791283,-0.1828216073460178,0.0399316642919294,3.0
19.279563903808594,-4.416012287139893,0.0786435604095459,-0.0,-0.0,-1.0,0.2126488114322755,1.0
19.14538955688477,-4.636020660400391,0.1034079790115356,-0.0,-0.0,-1.0,0.2298307044519095,1.0
18.62579917907715,-4.9395751953125,0.0976641178131103,-0.0,-0.0,-1.0,0.2070829999328527,2.0
18.560527801513672,-4.9538187980651855,0.092422604560852,-0.4459792629835644,-0.8486492820646904,-0.2844237912688081,0.2134372428348993,5.0
18.16615104675293,-5.141627311706543,0.0744826793670654,-0.0,-0.0,-1.0,0.2206306392181657,1.0
19.230541229248047,-5.674227237701416,0.0006647109985351,-0.0,-0.0,-1.0,0.0692078989315076,1.0
18.369171142578125,-6.3156023025512695,-0.0120362043380737,-0.0,-0.0,-1.0,0.1020576389664785,2.0
19.310626983642575,-5.738823413848877,0.0239286422729492,-0.0,-0.0,-1.0,0.119753871333256,1.0
19.07120132446289,-4.688356876373291,0.1046994924545288,-0.8312736258484438,-0.5490124766084736,0.0870026407473466,0.2117703721759548,3.0
18.727195739746097,-4.9615397453308105,0.2705641984939575,-0.0,-0.0,-1.0,0.180686791633883,1.0
18.60576629638672,-5.13847017288208,0.1273697614669799,0.5341611841879434,-0.4086854317219884,-0.7400324636157163,0.1434431673543283,4.0
18.306190490722656,-5.257834434509277,0.4238812923431396,-0.6492309544433663,-0.0291599206174466,-0.7600321485451387,0.2173701803002946,5.0
18.000036239624023,-5.637295246124268,0.1276047229766845,-0.0,-0.0,-1.0,0.146260771863747,1.0
19.486373901367188,-4.498754024505615,0.2696596384048462,-0.0,-0.0,-1.0,0.1550502342216959,1.0
19.177221298217773,-4.904921054840088,0.1524960994720459,-0.0,-0.0,-1.0,0.2016364574340095,1.0
18.957523345947266,-5.129192352294922,0.1661992073059082,0.4379991579758704,-0.1366722466188542,-0.8885254271075104,0.1948317033260751,4.0
18.64145278930664,-5.471185684204102,0.1843920946121215,-0.0,-0.0,-1.0,0.2398595269446354,1.0
19.560596466064453,-5.339017391204834,0.2660484313964844,-0.0,-0.0,-1.0,0.2127697210016484,1.0
19.709293365478516,-5.421332836151123,0.2952586412429809,-0.0366383141116586,0.8133676348831159,0.5805951467793214,0.1558993400304572,3.0
19.59775733947754,-5.259307861328125,0.6847742795944214,0.339509592664199,0.8487779798193241,-0.4053506845471176,0.1310519770396317,6.0
18.08004570007324,-5.2930908203125,-0.0550702810287475,-0.0,-0.0,-1.0,0.0460632836654569,1.0
18.342578887939453,-5.1338725090026855,0.2655668258666992,-0.9483753564472897,0.1519754412134331,-0.2783660334010929,0.2063827056262297,4.0
18.038597106933594,-5.370498180389404,-0.0439239740371704,-0.0,-0.0,-1.0,0.0571037074839291,1.0
17.955461502075195,-5.654569149017334,0.0020538568496704,-0.0,-0.0,-1.0,0.1503601491918029,2.0
19.416719436645508,-4.562564849853516,0.2197273969650268,-0.0,-0.0,-1.0,0.1949349607804852,1.0
18.799312591552734,-5.118626117706299,-0.0316648483276367,-0.0,-0.0,-1.0,0.2306792585728651,2.0
18.54536819458008,-5.240275859832764,0.1363749504089355,-0.0,-0.0,-1.0,0.1891956503018056,2.0
18.089292526245117,-5.607147216796875,0.0058411359786987,-0.0,-0.0,-1.0,0.142728483875129,2.0
18.015525817871097,-5.660417556762695,0.0089491605758667,-0.7872759941451306,0.5845884861736249,0.1960938828113358,0.1782705608569036,3.0
19.54008102416992,-4.454921722412109,0.2043975591659546,-0.0,-0.0,-1.0,0.1509611034906191,1.0
19.090904235839844,-5.124189853668213,-0.0107024908065795,-0.0,-0.0,-1.0,0.1900818440806388,1.0
19.618408203125,-5.87728214263916,0.1790744066238403,-0.0,-0.0,-1.0,0.1668339370360472,1.0
19.67728614807129,-5.281325340270996,0.5097132921218872,-0.0,-0.0,-1.0,0.1245526513455634,1.0
19.623245239257812,-5.709423065185547,0.4332547187805176,-0.0,-0.0,-1.0,0.2076206243312753,1.0
19.701671600341797,-5.3540239334106445,0.6688343286514282,0.2650826572742157,0.9641462071759882,0.0123804685128253,0.1499720855231756,3.0
17.763877868652344,-4.8107194900512695,0.0315136909484863,-0.0,-0.0,-1.0,0.0196019324057271,1.0
18.20080947875977,-4.935439109802246,0.0782647132873535,-0.0,-0.0,-1.0,0.1707534123273752,1.0
18.01630210876465,-5.6677961349487305,0.2130234241485595,-0.254302027558269,-0.6229509979128145,-0.7397719466019118,0.1641379332338666,7.0
18.974380493164062,-4.60240364074707,0.0398197174072265,-0.0,-0.0,-1.0,0.1691030636598105,1.0
18.616464614868164,-5.027320861816406,0.1148058176040649,0.4322068254327484,-0.0734430508335709,-0.8987788261489047,0.2499621742102407,3.0
18.483192443847656,-5.237409591674805,0.151552677154541,-0.0,-0.0,-1.0,0.2134978890354182,2.0
19.320533752441406,-4.535223007202148,0.034393310546875,-0.0,-0.0,-1.0,0.2441435264392473,2.0
18.912811279296875,-5.126794815063477,0.1460871696472168,0.4056057408151151,-0.642269039004674,-0.6503648703257536,0.1843476338215171,4.0
18.685283660888672,-5.528560638427734,0.2191154956817627,-0.0,-0.0,-1.0,0.2192494818073481,2.0
19.593570709228516,-5.591848373413086,0.2624391317367553,-0.0,-0.0,-1.0,0.1456267773622884,1.0
19.48628807067871,-5.7112579345703125,0.2848480939865112,-0.0,-0.0,-1.0,0.2552075639015461,2.0
18.29004669189453,-5.22907829284668,0.4913610219955444,-0.0,-0.0,-1.0,0.1835796652684232,2.0
19.549758911132812,-5.296998977661133,0.5307471752166748,-0.3731022574308153,-0.1921734784233262,-0.907669576272505,0.1918880137231126,4.0
19.613357543945312,-5.860559463500977,0.4745607376098633,-0.0,-0.0,-1.0,0.1597218110343987,1.0
17.805557250976562,-4.390970230102539,-0.0117156505584716,-0.0,-0.0,-1.0,0.029750852249546,1.0
17.936370849609375,-4.527213096618652,0.019693374633789,-0.0,-0.0,-1.0,0.0321248879762845,1.0
18.660715103149418,-4.969356536865234,0.1291990280151367,-0.5238928147887505,0.4969423994293626,-0.691798070438266,0.2544642908252238,3.0
18.855384826660156,-4.978569984436035,0.1355867385864257,0.6274081162147144,-0.7401510761058849,-0.2419409850504957,0.1408802384867075,3.0
18.49537467956543,-5.202273368835449,0.1706657409667968,-0.0,-0.0,-1.0,0.2222606611087908,2.0
18.46695899963379,-5.460095405578613,0.2208462953567505,-0.0,-0.0,-1.0,0.2704543513846467,1.0
18.346942901611328,-5.555973052978516,0.2534680366516113,-0.0,-0.0,-1.0,0.2614288627961764,1.0
19.42352294921875,-5.885221481323242,0.2496819496154785,-0.0,-0.0,-1.0,0.2568279798822436,1.0
18.77364921569824,-5.124695777893066,0.0877497196197509,-0.0,-0.0,-1.0,0.2628339634646686,2.0
19.618751525878903,-5.359663009643555,0.6943330764770508,-0.0,-0.0,-1.0,0.2084428575347596,2.0
19.578550338745117,-5.30189323425293,0.6596088409423828,-0.378963292047659,-1.8415984174789644e-05,-0.9254117045624894,0.1436823752697478,3.0
19.67413330078125,-4.537504196166992,0.0062730312347412,-0.0,-0.0,-1.0,0.1337293208865804,2.0
19.627864837646484,-4.555412292480469,0.0503971576690673,-0.0,-0.0,-1.0,0.1583967465574785,1.0
19.68703842163086,-5.2916259765625,0.6850986480712891,-0.4650742189197186,0.7790522154080615,-0.4204564383666935,0.1301673163080356,5.0
17.879302978515625,-4.830432891845703,0.0709650516510009,-0.0,-0.0,-1.0,0.0385536023894322,2.0
18.04888916015625,-4.960163116455078,0.0968973636627197,-0.0,-0.0,-1.0,0.185622234196883,1.0
19.01580810546875,-5.093023300170898,0.1734936237335205,-0.0,-0.0,-1.0,0.1817919202988021,1.0
19.20119857788086,-4.434900283813477,0.0929388999938964,-0.0,-0.0,-1.0,0.2056755267850029,2.0
19.071807861328125,-4.647308349609375,0.0153131484985351,-0.0,-0.0,-1.0,0.2475470228885777,1.0
19.620323181152344,-5.272491455078125,0.8870811462402344,-0.4407054363874588,0.843722052385785,0.3064503494148088,0.1422212374262909,3.0
19.610313415527344,-5.302644729614258,0.8286800384521484,-0.4178156002701498,0.4937860842589288,-0.7626305967918732,0.1661638231046146,4.0
19.63391494750977,-5.735408782958984,0.5875809192657471,-0.0,-0.0,-1.0,0.2361481198791917,1.0
19.608020782470703,-5.226327896118164,0.6390271186828613,-0.2899570458132194,-0.6051968634643934,-0.7413917102558749,0.1342920653770728,3.0
19.555479049682617,-5.611213684082031,0.1448719501495361,-0.0,-0.0,-1.0,0.1689551857217493,1.0
18.915416717529297,-5.095365524291992,0.0146329402923583,-0.0,-0.0,-1.0,0.1914644582332909,2.0
19.671688079833984,-5.301248550415039,0.6837332248687744,-0.8065014696674409,0.4349427728578458,-0.4004749227641935,0.1701359852282787,7.0
19.599830627441406,-5.175329208374023,0.6618998050689697,-0.4121113423186202,0.8905375236527339,-0.1926321896745219,0.1910597358359088,4.0
19.087669372558594,-5.160983085632324,0.0543901920318603,-0.0,-0.0,-1.0,0.1729452521099872,1.0
19.116867065429688,-5.000736236572266,0.0264697074890136,-0.0,-0.0,-1.0,0.2323162377390376,1.0
18.888071060180664,-5.122312545776367,0.0311987400054931,-0.0,-0.0,-1.0,0.2027772641061401,2.0
18.84560775756836,-5.039237976074219,0.0121927261352539,-0.0,-0.0,-1.0,0.1876504952315683,1.0
19.685914993286133,-5.297762870788574,0.6773715019226074,-0.4650742189197186,0.7790522154080615,-0.4204564383666935,0.1363369723249277,5.0
19.31352424621582,-4.480424880981445,0.1070246696472168,-0.0,-0.0,-1.0,0.200464676344943,1.0
19.23020362854004,-4.396274566650391,0.0852134227752685,-0.0,-0.0,-1.0,0.2045204876149937,2.0
18.999372482299805,-4.947044372558594,0.1752457618713379,-0.0,-0.0,-1.0,0.1181433396935834,1.0
18.730985641479492,-5.316488265991211,0.226318359375,0.243126712852191,-0.0388277467517425,-0.969217110651618,0.2165914259032267,3.0
18.60523223876953,-5.068394660949707,0.1690626144409179,0.3385411737748416,0.0001017680576044,-0.9409515733035444,0.1806924642591112,3.0
17.755970001220703,-4.631987571716309,0.0165061950683593,0.945363010489674,0.318063892897353,-0.0715830876176928,0.0221513644754733,3.0
17.866050720214844,-4.393664360046387,-0.0192732810974121,-0.2307219189402152,0.79051952578562,-0.5673149702521724,0.029750852249546,4.0
19.706743240356445,-5.437564849853516,0.3178374767303467,0.5326301639005878,0.6575405365812385,0.5328654157061516,0.1452698256691789,3.0
19.524322509765625,-5.3817548751831055,0.295189619064331,-0.0,-0.0,-1.0,0.1900175057630798,1.0
18.76207733154297,-5.352097511291504,0.235544204711914,0.1916552089377074,-0.0859646226854295,-0.9776903213868876,0.2123495892339637,3.0
19.694433212280273,-5.252833366394043,0.797795295715332,-0.005825324938748,0.811309279136937,-0.5845881620214882,0.1302811476674107,5.0
19.68400001525879,-5.9822282791137695,0.1124379634857177,-0.0,-0.0,-1.0,0.1416466151361561,2.0
18.678672790527344,-5.124890327453613,0.3334567546844482,-0.0,-0.0,-1.0,0.2050131108787073,2.0
18.546485900878903,-4.961121559143066,0.2909011840820312,-0.0,-0.0,-1.0,0.2063643221262721,2.0
19.65166282653809,-5.179396629333496,0.8950846195220947,-0.4190620286239459,-0.5653218652248369,-0.7104915234288826,0.1399332687640958,3.0
19.694047927856445,-5.843823432922363,0.1515939235687255,0.5802600849741237,-0.4478672630523315,-0.6802302172587136,0.1519467417124496,3.0
19.58494758605957,-5.584195137023926,0.076291799545288,-0.0,-0.0,-1.0,0.14175297431613,1.0
18.687503814697266,-5.100747108459473,0.3272750377655029,-0.0,-0.0,-1.0,0.2213632676553094,2.0
18.53858757019043,-4.892661094665527,0.2679414749145508,-0.0,-0.0,-1.0,0.2007086931172459,1.0
18.393978118896484,-4.953545570373535,0.2664103507995605,-0.0,-0.0,-1.0,0.1773531497459059,1.0
19.57526397705078,-5.297369956970215,0.4492397308349609,-0.0,-0.0,-1.0,0.1756796239503842,2.0
19.606769561767575,-6.304040908813477,0.670339822769165,-0.0,-0.0,-1.0,0.232268562913753,1.0
19.66606903076172,-5.159537315368652,0.8707859516143799,-0.4190620286239459,-0.5653218652248369,-0.7104915234288826,0.1071452390271761,3.0
19.63950538635254,-4.385758399963379,0.1571347713470459,-0.0,-0.0,-1.0,0.1602994417379153,1.0
19.628894805908203,-5.7501630783081055,0.4935684204101562,-0.0,-0.0,-1.0,0.1849854936610478,1.0
19.616905212402344,-5.344034194946289,0.3927538394927978,-0.0,-0.0,-1.0,0.1582235797563213,2.0
19.02631187438965,-4.857449531555176,0.2334787845611572,-0.0,-0.0,-1.0,0.1961284982639243,1.0
18.9444580078125,-4.492424964904785,0.1376662254333496,-0.0,-0.0,-1.0,0.2309037151044711,1.0
19.384187698364254,-5.766510963439941,0.4824264049530029,-0.0,-0.0,-1.0,0.2236219086933916,1.0
18.68297958374023,-5.01011848449707,0.2445485591888427,-0.0,-0.0,-1.0,0.2312857837371642,2.0
18.481264114379883,-5.118427276611328,0.2539453506469726,-0.8189753393802897,-0.1039994030664756,-0.5643257194641726,0.18804010350843,3.0
18.152297973632812,-4.975771903991699,0.189918041229248,-0.0,-0.0,-1.0,0.1291631141866712,1.0
18.688467025756836,-4.906023025512695,0.3801841735839844,-0.0,-0.0,-1.0,0.2101438261427834,1.0
18.16038703918457,-4.5865631103515625,0.2637190818786621,-0.0,-0.0,-1.0,0.1111613072811451,1.0
19.57639503479004,-5.266486167907715,0.5162773132324219,-0.2397513497163801,-0.2371533980796839,-0.9414231546379306,0.2049152464668836,3.0
18.33236312866211,-5.174548149108887,0.4255266189575195,-0.0,-0.0,-1.0,0.1860857046032814,2.0
19.674049377441406,-5.171899795532227,0.87591552734375,-0.4190620286239459,-0.5653218652248369,-0.7104915234288826,0.1071452390271761,3.0
19.696224212646484,-5.2961225509643555,0.6659214496612549,-0.4616771242764528,0.785227422446378,-0.4126404342257821,0.1049813212732192,4.0
19.569433212280273,-5.193889617919922,0.6350679397583008,-0.0,-0.0,-1.0,0.1502597127201033,2.0
18.79785919189453,-5.047004699707031,0.1645443439483642,-0.0,-0.0,-1.0,0.1574065181973729,2.0
19.565372467041016,-5.20616340637207,0.705776572227478,0.5145627048532753,-0.0961090007276931,-0.8520494602739944,0.1211130851369424,5.0
19.55512237548828,-5.408805847167969,0.5096769332885742,-0.0,-0.0,-1.0,0.1131026036569109,1.0
19.675678253173828,-5.438657760620117,0.3502373695373535,-0.0306167259695309,0.9950796781004816,-0.09422871283398,0.1578315834982844,4.0
17.749340057373047,-4.983695983886719,0.0378394126892089,0.9746352333301896,0.1290830036791283,-0.1828216073460178,0.0385425129627067,3.0
17.853031158447266,-4.731781005859375,0.0479676723480224,-0.0,-0.0,-1.0,0.024690488716656,1.0
18.83867073059082,-4.76963996887207,-0.0476882457733154,-0.0,-0.0,-1.0,0.1157379511739396,1.0
18.738496780395508,-5.359331130981445,0.2933857440948486,-0.0,-0.0,-1.0,0.198786215869704,1.0
19.461833953857425,-6.089374542236328,0.1779983043670654,-0.0,-0.0,-1.0,0.1582794128127866,1.0
17.928359985351562,-6.132997512817383,0.1086792945861816,-0.0,-0.0,-1.0,0.0527748345591819,1.0
18.16905975341797,-6.23603630065918,0.0790529251098632,-0.0,-0.0,-1.0,0.0463451676480317,1.0
18.41205787658691,-6.339141845703125,0.0490984916687011,-0.0,-0.0,-1.0,0.1020576389664785,2.0
18.496891021728516,-5.286237716674805,0.1300640106201172,-0.0,-0.0,-1.0,0.1912072165268213,1.0
18.529685974121097,-4.986431121826172,0.1522784233093261,-0.0,-0.0,-1.0,0.2101194106175741,1.0
18.76705551147461,-5.067331314086914,0.1240277290344238,-0.0,-0.0,-1.0,0.2389407019888672,1.0
19.089290618896484,-4.712686538696289,0.1240077018737793,-0.0,-0.0,-1.0,0.2193530014717184,2.0
18.971752166748047,-4.985757827758789,0.112133502960205,-0.0,-0.0,-1.0,0.1595295088978061,1.0
18.663667678833008,-5.032306671142578,0.4271755218505859,-0.0,-0.0,-1.0,0.2064163726281905,2.0
19.578031539916992,-5.404848098754883,0.301274299621582,-0.0,-0.0,-1.0,0.2152567190510944,1.0
19.68781089782715,-5.902395248413086,0.2524333000183105,-0.0,-0.0,-1.0,0.1341419534184107,1.0
18.09998321533203,-6.1884613037109375,0.1239092350006103,-0.0,-0.0,-1.0,0.0417021943778874,1.0
19.423961639404297,-6.011037826538086,0.0518939495086669,-0.0,-0.0,-1.0,0.1436818175019443,1.0
19.60650634765625,-5.688632965087891,0.0700109004974365,-0.0,-0.0,-1.0,0.1663693718443596,1.0
18.429676055908203,-5.196220397949219,0.1995697021484375,-0.722711706816979,0.4544978207268422,-0.52069138631654,0.212741386106871,4.0
18.732622146606445,-5.144342422485352,0.1841945648193359,-0.0,-0.0,-1.0,0.2215367698567474,1.0
18.965919494628903,-5.112518310546875,0.1712381839752197,0.9222848972483012,-0.3839858767179145,0.0441068564835994,0.1988347267324672,4.0
19.44907569885254,-4.62169075012207,0.1844372749328613,-0.0,-0.0,-1.0,0.1727972995644022,2.0
18.908998489379883,-4.686594009399414,-0.0973298549652099,-0.0,-0.0,-1.0,0.1164336743622855,1.0
17.7918758392334,-4.583805084228516,0.0062251091003417,-0.0,-0.0,-1.0,0.0224250509627623,1.0
18.82779884338379,-4.628791809082031,-0.0835063457489013,-0.0,-0.0,-1.0,0.1211402404234897,1.0
18.025619506835938,-5.680898666381836,0.2442169189453125,-0.9567500564467905,-0.2843517189494491,-0.0614282461051668,0.1795386705235238,6.0
18.52212905883789,-5.210428237915039,0.2770841121673584,-0.0,-0.0,-1.0,0.2489690513800614,1.0
18.995521545410156,-5.165678024291992,0.2558352947235107,-0.0,-0.0,-1.0,0.1935823552407737,1.0
18.790935516357425,-5.459770202636719,0.2310428619384765,-0.6305166704695996,-0.6373718081386831,-0.4429513590112977,0.2108863697994332,3.0
19.450525283813477,-6.286918640136719,0.0896205902099609,-0.0,-0.0,-1.0,0.1927075222934006,1.0
19.6495304107666,-5.938676834106445,0.1204373836517334,-0.0,-0.0,-1.0,0.1543302241007476,2.0
18.04584312438965,-5.774416923522949,0.3589386940002441,-0.0,-0.0,-1.0,0.1806630586720598,1.0
18.667552947998047,-5.047865867614746,0.4091572761535644,-0.0,-0.0,-1.0,0.2087767552149105,2.0
18.877456665039062,-5.179109573364258,-0.0257518291473388,-0.0,-0.0,-1.0,0.2594819224314005,1.0
19.038816452026367,-5.097358703613281,-0.0111703872680664,-0.0,-0.0,-1.0,0.2172458746850574,1.0
18.067014694213867,-4.955522537231445,0.0117850303649902,0.3196663222485159,-0.3153444593203451,-0.8935162642034377,0.0988251814376989,4.0
18.42051696777344,-4.956691741943359,0.0137712955474853,-0.6487885139198122,-0.5739039421815262,-0.4997076438821256,0.1034503357777727,4.0
18.686124801635746,-4.975736618041992,0.0110797882080078,-0.0,-0.0,-1.0,0.190842780020862,2.0
19.65443420410156,-5.382110595703125,0.5463917255401611,0.6793162800013482,0.3975880568622575,-0.6168088267572248,0.1526133191558982,5.0
17.718839645385742,-5.052833557128906,0.0003209114074707,-0.0,-0.0,-1.0,0.0407376325381962,1.0
18.2785701751709,-4.853229522705078,0.0293085575103759,-0.0,-0.0,-1.0,0.0836787985372442,2.0
