x,y,z,nx,ny,nz,curvature,density
33.667999267578125,-12.713371276855469,-0.1623861789703369,-0.0,-0.0,-1.0,0.0265576053943612,2.0
31.92265510559082,-14.188989639282228,-0.0094530582427978,-0.0692383567967056,-0.9581793192094414,0.2776660623616492,0.0322349410016793,4.0
32.0946044921875,-14.18838882446289,-0.0215716361999511,-0.0,-0.0,-1.0,0.044059086221701,2.0
31.766769409179688,-14.027839660644531,0.010869026184082,-0.0,-0.0,-1.0,0.0296392685654054,2.0
32.33418655395508,-14.025951385498049,-0.0292966365814209,0.2763596890386033,-0.0737130676026208,-0.9582232025676992,0.0385210114754106,4.0
32.577476501464844,-13.876399993896484,-0.038304328918457,-0.0,-0.0,-1.0,0.0245705034486812,2.0
33.13771057128906,-13.819589614868164,-0.0765290260314941,-0.0,-0.0,-1.0,0.036750560508508,2.0
33.42371368408203,-13.781261444091797,-0.0959796905517578,-0.8456709793114189,0.146758857754482,-0.5131300346121492,0.0579324210582238,3.0
32.75,-13.678394317626951,-0.0396099090576171,-0.7507340144533723,0.0220317605291907,-0.6602371097346076,0.075299259081681,3.0
33.57640838623047,-13.554285049438477,-0.0948362350463867,-0.0,-0.0,-1.0,0.0175325129530999,2.0
33.65568542480469,-13.087383270263672,-0.0747344493865966,0.9086625815088448,-0.416669029096653,0.0268185226538309,0.0280512800715498,3.0
33.58619689941406,-14.320207595825195,0.067009687423706,-0.0,-0.0,-1.0,0.1558864738323294,2.0
32.7777099609375,-13.400218963623049,0.172785997390747,-0.8567059734614424,-0.5133929786631568,-0.0498249384831876,0.1499964429555509,12.0
33.60172653198242,-14.210390090942385,0.0864865779876709,-0.0,-0.0,-1.0,0.1543820273765926,2.0
33.613643646240234,-14.270557403564451,0.0737115144729614,-0.7430468301549784,-0.54365795638375,-0.3902786628260419,0.1810340469356733,3.0
32.771507263183594,-13.326467514038086,0.1475851535797119,-0.0,-0.0,-1.0,0.1881366392525987,2.0
33.62720489501953,-12.582592010498049,-0.1331572532653808,-0.0,-0.0,-1.0,0.0292807707104071,1.0
33.267555236816406,-12.537296295166016,-0.1245851516723632,-0.0,-0.0,-1.0,0.0390917622145914,1.0
31.934146881103516,-12.377853393554688,-0.1063783168792724,-0.0,-0.0,-1.0,0.0535395248345883,1.0
32.205135345458984,-12.36411476135254,-0.1071639060974121,-0.0,-0.0,-1.0,0.0320465399088331,1.0
31.77631950378418,-12.873712539672852,-0.0904877185821533,-0.0,-0.0,-1.0,0.0583302628844933,2.0
33.30635070800781,-13.064434051513672,-0.1272006034851074,-0.669625196893207,-0.3378100179642406,-0.6614276131586383,0.0439864584045908,3.0
32.228416442871094,-12.601570129394531,-0.0829677581787109,-0.6103681067995763,-0.0545325775003453,-0.790238553977892,0.0797225645714725,5.0
32.57875061035156,-13.146490097045898,-0.1087770462036132,-0.0,-0.0,-1.0,0.033136631449813,2.0
31.75225067138672,-12.83879280090332,-0.0835769176483154,-0.3354776709576467,-0.1354546229679504,-0.9322589647761202,0.0670871725889613,4.0
33.30393600463867,-12.885540008544922,-0.1051108837127685,-0.0,-0.0,-1.0,0.0472965140279386,1.0
32.2232780456543,-12.573400497436523,-0.0747988224029541,-0.875100920325925,-0.3583295731749639,-0.3252665003239146,0.1162272588344748,4.0
31.79083824157715,-13.185770988464355,-0.0373095273971557,-0.0,-0.0,-1.0,0.015508311212999,1.0
31.772539138793945,-12.900853157043455,-0.0282709598541259,-0.0,-0.0,-1.0,0.0612940310656776,2.0
32.219970703125,-13.38168239593506,-0.034157395362854,-0.0,-0.0,-1.0,0.0429094781075853,2.0
32.46114730834961,-13.540202140808104,-0.0343087911605834,-0.692148072729037,0.5924205356953736,-0.412272912406195,0.0852303224621977,3.0
33.37312698364258,-14.262145042419434,-0.0412404537200927,-0.0,-0.0,-1.0,0.0670136145997346,1.0
33.60218811035156,-14.315035820007324,-0.0388520956039428,-0.0,-0.0,-1.0,0.2403567858555557,2.0
32.89031982421875,-12.53102207183838,-0.1484040021896362,-0.0,-0.0,-1.0,0.0440728241487642,1.0
33.09650421142578,-12.61886501312256,-0.1497585773468017,-0.9628817870124848,-0.2203369676026333,-0.155917558175209,0.0816781726073538,3.0
31.88094139099121,-14.104004859924316,0.0046632289886474,-0.0,-0.0,-1.0,0.032713089982752,1.0
32.3200569152832,-12.52972412109375,-0.042046308517456,-0.0,-0.0,-1.0,0.0718192740768876,1.0
31.79833984375,-13.21955108642578,-0.0816543102264404,-0.0,-0.0,-1.0,0.0150066266417971,2.0
32.09124755859375,-13.37877082824707,-0.0810569524765014,-0.3982492543745513,0.122352063409279,-0.9090805816700768,0.0181031880039716,4.0
32.35746765136719,-13.47984504699707,-0.0789231061935424,-0.0,-0.0,-1.0,0.0555817015762864,2.0
33.266944885253906,-13.809602737426758,-0.0719646215438842,-0.0,-0.0,-1.0,0.043002684848665,1.0
33.118690490722656,-14.027473449707031,-0.0841057300567627,-0.0,-0.0,-1.0,0.0905868468271144,1.0
33.48930740356445,-14.157550811767578,-0.081516146659851,0.6205400151576635,0.6049784640522644,-0.4989300027269254,0.0656032175536038,3.0
31.881940841674805,-12.484079360961914,-0.0843766927719116,-0.0,-0.0,-1.0,0.0716062337331692,2.0
32.20744705200195,-12.561325073242188,-0.0751920938491821,-0.875100920325925,-0.3583295731749639,-0.3252665003239146,0.1103963514200641,4.0
32.460365295410156,-13.10710906982422,-0.0841124057769775,-0.0,-0.0,-1.0,0.0405906781933926,1.0
32.09996795654297,-13.147926330566406,-0.0981060266494751,-0.0,-0.0,-1.0,0.0269016920076905,1.0
33.30833435058594,-14.005189895629885,-0.0853921175003051,-0.0,-0.0,-1.0,0.0877328767466922,2.0
33.0324592590332,-13.93158721923828,-0.0920908451080322,-0.0,-0.0,-1.0,0.0598979310921628,2.0
33.502952575683594,-14.174222946166992,-0.0847609043121337,0.6205400151576635,0.6049784640522644,-0.4989300027269254,0.0888538171797662,3.0
33.39144515991211,-12.911251068115234,-0.1428310871124267,-0.0,-0.0,-1.0,0.0473882910823102,2.0
33.60124206542969,-13.904541969299316,0.1271727085113525,-0.0,-0.0,-1.0,0.1183624403611644,1.0
33.34394073486328,-14.339353561401367,0.0341100692749023,-0.0,-0.0,-1.0,0.0723590633341326,1.0
33.22781753540039,-12.63373565673828,-0.0815284252166748,-0.0,-0.0,-1.0,0.088772436610891,1.0
33.659149169921875,-12.948274612426758,-0.0947705507278442,0.3746932049002179,-0.0746199468986545,-0.9241411503263148,0.0404478782423625,5.0
32.99897003173828,-13.273170471191406,0.0634444952011108,-0.0,-0.0,-1.0,0.1596339506637929,1.0
33.23011779785156,-14.014348983764648,0.0363203287124633,-0.0,-0.0,-1.0,0.1564003649731301,1.0
31.723886489868164,-12.66175365447998,-0.0708870887756347,-0.0,-0.0,-1.0,0.0805412748429509,2.0
32.068641662597656,-13.040514945983888,-0.1047694683074951,-0.0,-0.0,-1.0,0.0437646771922365,1.0
33.21430587768555,-12.711958885192873,-0.1011395454406738,-0.942145288095974,-0.2850636633867842,0.1763546538514364,0.0768464977465642,3.0
33.33541488647461,-12.63552951812744,-0.1186708211898803,-0.0,-0.0,-1.0,0.0377120086297847,1.0
33.119651794433594,-13.965954780578612,-0.0653661489486694,-0.0,-0.0,-1.0,0.135823439580754,1.0
31.91314697265625,-13.09959602355957,-0.0622307062149047,-0.0,-0.0,-1.0,0.0284505657507858,2.0
32.151607513427734,-13.261192321777344,-0.0878053903579711,-0.0,-0.0,-1.0,0.0386997488956993,2.0
32.30322265625,-14.113932609558104,-0.0390492677688598,0.2318291733926777,-0.4880363332636915,-0.8414723832536622,0.0605668231787771,3.0
32.432098388671875,-14.057089805603027,-0.0497747659683227,-0.0,-0.0,-1.0,0.0411580893739364,1.0
33.25178527832031,-13.693808555603027,-0.1188560724258422,-0.0,-0.0,-1.0,0.0373036249950791,2.0
32.99717712402344,-12.808722496032717,-0.087783932685852,-0.9536273756778496,-0.0661553167990495,0.2936295326035776,0.0633015627731367,7.0
32.95854187011719,-12.933600425720217,-0.0854815244674682,-0.8483917405474749,-0.5221802728132057,0.0869437591524112,0.1031683034462045,3.0
33.1124382019043,-12.450438499450684,-0.0948827266693115,-0.0,-0.0,-1.0,0.1711568582875325,1.0
33.12664794921875,-12.761393547058104,-0.0989830493927002,-0.9195568665036196,0.3837540066520614,-0.084546032695415,0.0861110792801054,7.0
33.631282806396484,-12.911419868469238,-0.1458877325057983,-0.1757273612987283,0.6860651098229408,-0.7059989798679758,0.037243772702285,3.0
32.27764129638672,-13.916744232177734,-0.0383273363113403,-0.2184375036812642,-0.969574099964342,-0.1105039441098548,0.0676484684437394,4.0
33.039730072021484,-13.176382064819336,-0.07952880859375,-0.0,-0.0,-1.0,0.1602658713882269,2.0
33.10213851928711,-12.731849670410156,-0.0755615234375,-0.7448722679506312,-0.6670522063008361,0.0143756219785452,0.1493025015981447,5.0
33.648460388183594,-12.88083267211914,-0.1204397678375244,-0.3749218561796176,0.6249648461802925,-0.6847280794575855,0.0344352051479071,4.0
33.178138732910156,-12.363759994506836,-0.0742840766906738,-0.0,-0.0,-1.0,0.1583635544965866,2.0
33.620262145996094,-14.344769477844238,0.0148882865905761,-0.3338617999155872,-0.4574081657122728,-0.8242051131222486,0.1557660167564426,4.0
32.819915771484375,-13.3329439163208,0.0859919786453247,0.993532687579062,-0.0654195521383701,-0.0928066856963509,0.1604607525628494,12.0
33.44718933105469,-12.993154525756836,-0.1462162733078003,-0.1928704298642357,-0.4177139935859765,-0.8878716218274124,0.0398859481758203,3.0
32.52983856201172,-12.436155319213867,-0.0808677673339843,-0.0,-0.0,-1.0,0.0130424876839334,2.0
32.816287994384766,-12.496749877929688,-0.0954116582870483,-0.0,-0.0,-1.0,0.0439267959923165,1.0
33.45976257324219,-12.76600456237793,-0.1358150243759155,-0.0,-0.0,-1.0,0.0385465773824813,2.0
33.6458625793457,-12.683307647705078,-0.1401159763336181,0.8088378588307181,0.1811615793054,0.5594298886417426,0.0270516147887342,3.0
32.34428405761719,-14.241089820861816,-0.0440253019332885,-0.0,-0.0,-1.0,0.086564451411769,1.0
33.6239013671875,-14.29164981842041,0.0835636854171752,-0.7430468301549784,-0.54365795638375,-0.3902786628260419,0.1813978196338741,3.0
32.78504943847656,-13.40787410736084,0.0666605234146118,0.4291156044451548,-0.2073004191043165,-0.8791395419731979,0.1946278814044752,6.0
32.431331634521484,-13.93661403656006,-0.0467145442962646,-0.0,-0.0,-1.0,0.0272452219603608,2.0
32.58641815185547,-13.863572120666504,-0.0497968196868896,-0.0,-0.0,-1.0,0.0245705034486812,2.0
33.060142517089844,-13.911778450012209,-0.0728079080581665,-0.0,-0.0,-1.0,0.0624709892693239,2.0
33.454124450683594,-14.008919715881348,-0.0952632427215576,-0.0,-0.0,-1.0,0.0317881515191781,1.0
32.751861572265625,-13.56859302520752,-0.0427439212799072,-0.0,-0.0,-1.0,0.0947382682460939,1.0
33.414188385009766,-13.790749549865724,-0.082995057106018,-0.9358354239195812,0.1566241764455895,-0.3157228637428697,0.0591681803696801,4.0
33.63775634765625,-13.19686794281006,-0.0651217699050903,-0.0,-0.0,-1.0,0.0305947080436161,2.0
33.70066833496094,-14.296967506408691,0.1971993446350097,-0.4534233560240828,-0.4812995074220941,0.7501720098531456,0.1776695097729495,3.0
33.693946838378906,-14.260159492492676,0.1487993001937866,0.0962410444480204,-0.9727798262044254,0.2108010225146976,0.1985949617058263,6.0
32.81100082397461,-13.291497230529783,0.2092311382293701,0.2514266366252363,0.380400066319218,-0.8899890088869955,0.1506479440437513,3.0
32.039573669433594,-13.210983276367188,-0.0702162981033325,-0.0,-0.0,-1.0,0.028226283036015,2.0
32.43880844116211,-13.233644485473633,-0.0751988887786865,-0.0,-0.0,-1.0,0.0292692884428857,2.0
32.282466888427734,-13.192903518676758,-0.0712789297103881,-0.0,-0.0,-1.0,0.060748296776448,1.0
32.6810417175293,-13.212636947631836,-0.076446533203125,-0.5707407016241475,-0.5603167244634274,0.6002501310255182,0.0778400678450492,4.0
32.87758255004883,-13.203765869140623,-0.0781015157699585,-0.0,-0.0,-1.0,0.2406621250831295,1.0
32.183685302734375,-12.632341384887695,-0.0371454954147338,0.1147535656154871,0.9876568833252716,0.1066090990429205,0.2058689792917767,3.0
32.259620666503906,-12.654558181762695,-0.0391304492950439,-0.531500293694934,0.8469502145785052,0.0135193131342813,0.1901961279418063,5.0
33.13227462768555,-12.76131820678711,-0.054793357849121,0.3672458057546242,-0.6383241747879586,-0.6765151631980678,0.1427031921185755,7.0
32.82368087768555,-13.379079818725586,0.1716032028198242,-0.2004835812502743,-0.972880887730316,-0.1153651244446804,0.2298516283142168,9.0
32.14334487915039,-14.31574249267578,-0.0052850246429443,-0.0,-0.0,-1.0,0.0682597850876331,1.0
31.94149398803711,-14.185033798217772,0.000955581665039,-0.0692383567967056,-0.9581793192094414,0.2776660623616492,0.0322349410016793,4.0
32.400238037109375,-14.19496726989746,0.0020848512649536,-0.0,-0.0,-1.0,0.071595510519993,1.0
32.97150421142578,-13.92924690246582,0.0179477930068969,-0.0,-0.0,-1.0,0.0885047680998884,2.0
32.863101959228516,-13.314184188842772,0.0509952306747436,0.7326482034952732,-0.6432240130331289,0.2224623091058497,0.1949716707868998,6.0
31.96488571166992,-14.142122268676758,-0.0279433727264404,-0.0,-0.0,-1.0,0.0349466150395186,2.0
32.11248016357422,-14.222768783569336,-0.0300836563110351,-0.2572118745120434,-0.0020102220841363,-0.9663529430892076,0.0433198536959566,4.0
31.830764770507812,-13.986467361450195,-0.0216560363769531,-0.0,-0.0,-1.0,0.0197290492546545,1.0
32.327186584472656,-14.131641387939451,-0.0221763849258422,0.2318291733926777,-0.4880363332636915,-0.8414723832536622,0.0660133149683142,3.0
32.79420471191406,-13.71661376953125,0.0063997507095336,-0.0,-0.0,-1.0,0.0529083287094218,1.0
33.238426208496094,-14.24360466003418,-0.0163174867630004,-0.0,-0.0,-1.0,0.1025076688194848,2.0
31.857736587524418,-13.89135456085205,-0.040937066078186,-0.0,-0.0,-1.0,0.0184972637923441,2.0
32.0674934387207,-13.997612953186035,-0.0456912517547607,-0.0,-0.0,-1.0,0.0201298237160336,2.0
32.41257858276367,-13.99868106842041,-0.0438457727432251,-0.0,-0.0,-1.0,0.0340427326796976,1.0
32.615325927734375,-14.01492977142334,-0.0437660217285156,-0.0,-0.0,-1.0,0.0667745544906887,1.0
33.12181854248047,-14.153590202331545,-0.0496176481246948,-0.794669309811825,0.4919470852316381,0.3556525739753518,0.0998967217975747,3.0
33.24480438232422,-14.154276847839355,-0.0492373704910278,-0.5169934910388262,0.3420329559097125,-0.7846854065771527,0.1353412703064319,3.0
33.62239456176758,-14.322400093078612,-0.0578415393829345,-0.0,-0.0,-1.0,0.1988904825864949,2.0
32.9138298034668,-13.758816719055176,-0.0278047323226928,-0.0,-0.0,-1.0,0.0622063224120284,2.0
31.73378562927246,-13.839280128479004,-0.0291212797164917,-0.0,-0.0,-1.0,0.0154525363360137,1.0
31.999126434326172,-14.091586112976074,-0.0385290384292602,-0.0,-0.0,-1.0,0.035461731878031,2.0
32.33045959472656,-14.065106391906738,-0.0317275524139404,-0.2829501983842746,0.0862386676022915,-0.9552497461106604,0.0429991753799303,3.0
33.04850769042969,-14.31897258758545,-0.0350829362869262,-0.0,-0.0,-1.0,0.1426495243933736,1.0
33.202369689941406,-14.160840034484863,-0.0241398811340332,-0.0,-0.0,-1.0,0.0932134574624643,2.0
33.331298828125,-14.326804161071776,-0.0316312313079834,-0.0,-0.0,-1.0,0.0498519737093692,1.0
31.85529136657715,-12.45596694946289,-0.103384256362915,-0.5132217453916116,-0.7583004567626819,-0.4019749461480099,0.0716062337331693,3.0
32.151363372802734,-12.39590835571289,-0.1050857305526733,-0.0,-0.0,-1.0,0.0340368763228662,2.0
32.377479553222656,-12.431108474731444,-0.1135249137878418,-0.0,-0.0,-1.0,0.0165948652813639,1.0
33.324005126953125,-12.44705581665039,-0.1401141881942749,-0.0,-0.0,-1.0,0.0345529273258354,2.0
33.025421142578125,-14.356374740600586,0.1590563058853149,-0.0,-0.0,-1.0,0.1319948675773034,1.0
32.79793167114258,-13.453598022460938,0.2264713048934936,-0.1532751431648957,0.2195078087307356,-0.9634952269700208,0.1861390801722331,10.0
33.650997161865234,-14.269088745117188,0.1516261100769043,-0.4458531476376094,-0.4778866429740757,-0.7568614980355418,0.164419500932834,10.0
32.77264404296875,-13.38679313659668,0.1965391635894775,-0.3914621893763007,-0.9134826863611144,-0.1109357291732242,0.1956778056633187,10.0
32.791542053222656,-13.404534339904783,0.2044507265090942,-0.7455009588801446,-0.6348429328403769,-0.2029846568867054,0.2133367586817612,12.0
33.63100814819336,-14.247757911682127,0.1605863571166992,-0.2897920923232189,-0.7548416305190352,-0.5884170766236272,0.1475707189752906,5.0
33.15506362915039,-12.421272277832031,-0.1465311050415039,-0.0,-0.0,-1.0,0.1286591935487951,2.0
33.13570785522461,-12.530241012573242,-0.1584374904632568,-0.0,-0.0,-1.0,0.0597736424586161,2.0
33.5042839050293,-12.559669494628906,-0.1473149061203003,-0.0,-0.0,-1.0,0.0211406948430934,1.0
33.547454833984375,-12.621232986450195,-0.1521250009536743,-0.5443312437036847,0.6248010033373468,-0.5597563785761133,0.0295873129683612,3.0
32.80223846435547,-13.420469284057615,0.235592246055603,-0.2230290587896799,-0.3719333389993762,-0.9010680497477228,0.2171281950655314,11.0
33.532508850097656,-12.491146087646484,-0.1392202377319336,-0.0,-0.0,-1.0,0.0201318156906668,1.0
33.174583435058594,-12.506486892700195,-0.1573398113250732,-0.0,-0.0,-1.0,0.0381819567767473,2.0
33.48993682861328,-12.401805877685549,-0.1371018886566162,-0.0,-0.0,-1.0,0.0303680849247914,1.0
32.850196838378906,-13.392099380493164,0.2064372301101684,0.0013702211322812,-0.4837554111885475,-0.8752021621544636,0.2063577845382729,8.0
31.71758270263672,-12.641447067260742,-0.090472936630249,-0.0,-0.0,-1.0,0.080541274842951,2.0
32.21608352661133,-12.63205337524414,-0.0746870040893554,-0.4111381203341311,-0.4139234742474207,-0.8121778151827727,0.131981182225229,5.0
32.21815490722656,-12.79877471923828,-0.0935547351837158,-0.0,-0.0,-1.0,0.1463156234549772,1.0
33.044578552246094,-12.384889602661133,-0.0257513523101806,-0.0,-0.0,-1.0,0.1696856616233954,1.0
32.543216705322266,-12.819997787475586,-0.0875828266143798,-0.0,-0.0,-1.0,0.030457978838293,1.0
32.47620391845703,-13.15103530883789,-0.1273137331008911,-0.0,-0.0,-1.0,0.0343220798490897,1.0
33.133766174316406,-12.746625900268556,-0.0660512447357177,-0.5307897569155684,-0.828044450523012,0.1805674995993331,0.1465269591487542,6.0
33.07102584838867,-12.84006690979004,-0.0782971382141113,0.1322703188584967,-0.9490415122087976,-0.2860502942727202,0.107522443480672,4.0
33.47473907470703,-12.984701156616213,-0.0880868434906005,-0.0,-0.0,-1.0,0.0470755652417315,1.0
33.37226486206055,-13.145050048828123,-0.1088730096817016,-0.0,-0.0,-1.0,0.0389724786507195,1.0
33.699806213378906,-14.357820510864258,0.2068586349487304,-0.0,-0.0,-1.0,0.1914869440858399,2.0
31.71529006958008,-13.141229629516602,-0.0473564863204956,-0.0,-0.0,-1.0,0.0133422762875092,2.0
32.266021728515625,-13.364105224609377,-0.0484124422073364,-0.0,-0.0,-1.0,0.0419223983006994,2.0
32.051971435546875,-13.343057632446287,-0.0545977354049682,-0.5289816790423755,0.3004238314677189,-0.7936774563535017,0.0174321662225237,3.0
32.79047393798828,-13.412002563476562,-0.0346901416778564,0.9542591808557694,-0.2974535780609956,-0.0301792089224867,0.2158555398732467,3.0
32.48221206665039,-13.532577514648438,-0.0587172508239746,-0.822356785681594,0.4722883161961759,-0.3172901880424568,0.0861661732312004,4.0
32.87762451171875,-13.714244842529297,-0.0653494596481323,-0.0,-0.0,-1.0,0.0487185053501299,1.0
33.374847412109375,-13.97845458984375,-0.0804468393325805,-0.0,-0.0,-1.0,0.0668469390688514,2.0
33.16374969482422,-13.891471862792969,-0.0764843225479126,-0.0,-0.0,-1.0,0.0504357398229691,2.0
33.61676788330078,-14.116586685180664,-0.0901781320571899,-0.563210406579773,0.1270401102369076,-0.8164893436605534,0.1264509744848432,3.0
31.71274757385254,-12.587425231933594,-0.0849727392196655,-0.0,-0.0,-1.0,0.0675122804816896,1.0
32.277015686035156,-12.660944938659668,-0.0604722499847412,0.0050579199717452,0.9087408774012192,-0.4173301273400015,0.1901961279418063,4.0
32.00672912597656,-12.728190422058104,-0.0830351114273071,-0.0,-0.0,-1.0,0.109977644742479,1.0
32.52748107910156,-12.88307285308838,-0.0717911720275878,-0.0,-0.0,-1.0,0.045607135451445,1.0
32.295928955078125,-13.110793113708496,-0.1094082593917846,-0.0,-0.0,-1.0,0.0442714491371416,1.0
33.16233825683594,-12.814165115356444,-0.0328371524810791,-0.0,-0.0,-1.0,0.0898499278905042,2.0
32.943992614746094,-13.028472900390623,-0.0676021575927734,-0.0,-0.0,-1.0,0.1036239830002495,1.0
32.657779693603516,-13.21277141571045,-0.1024506092071533,-0.5707407016241475,-0.5603167244634274,0.6002501310255182,0.0521095245169729,4.0
33.17612838745117,-13.465011596679688,-0.1074625253677368,-0.0,-0.0,-1.0,0.0264358149451857,2.0
33.687259674072266,-13.652338027954102,-0.1085810661315918,-0.0,-0.0,-1.0,0.0332936741347308,2.0
33.46772003173828,-13.55312442779541,-0.1054263114929199,-0.0,-0.0,-1.0,0.0314399660963602,1.0
33.04863739013672,-14.356111526489258,0.2085065841674804,-0.0,-0.0,-1.0,0.1274771231986406,1.0
32.799034118652344,-13.383813858032228,-0.0418540239334106,0.940996075476837,0.2091349915226586,-0.2660619124527378,0.2066784511995765,5.0
32.257347106933594,-13.416521072387695,-0.0685791969299316,-0.0,-0.0,-1.0,0.0202259012975263,1.0
31.93466567993164,-13.320989608764648,-0.0732076168060302,-0.0,-0.0,-1.0,0.014868232366456,2.0
33.02324676513672,-13.747220039367676,-0.0740289688110351,0.9289639823692488,0.3217188969459979,-0.183092519804924,0.0406106941188879,3.0
32.78105926513672,-13.670066833496094,-0.0746484994888305,-0.7507340144533723,0.0220317605291907,-0.6602371097346076,0.0530293277280519,3.0
32.468040466308594,-13.560554504394531,-0.0751270055770874,-0.692148072729037,0.5924205356953736,-0.412272912406195,0.062001303108907,3.0
33.544044494628906,-14.026843070983888,-0.0884428024291992,-0.0,-0.0,-1.0,0.0508354971296473,1.0
33.23897933959961,-13.935500144958496,-0.0879185199737548,-0.0,-0.0,-1.0,0.0886592838723502,1.0
33.69032669067383,-14.137640953063965,-0.0969859361648559,-0.0,-0.0,-1.0,0.1159391105781449,1.0
33.003021240234375,-12.581831932067873,-0.161013126373291,-0.0,-0.0,-1.0,0.069459723575294,1.0
32.762088775634766,-12.476518630981444,-0.1446897983551025,-0.0,-0.0,-1.0,0.0207532432753184,1.0
32.31045150756836,-12.458080291748049,-0.144821286201477,-0.0,-0.0,-1.0,0.0338034295580191,2.0
32.075435638427734,-12.431158065795898,-0.1433213949203491,-0.0,-0.0,-1.0,0.0364056014708431,1.0
33.09782409667969,-12.613033294677734,-0.1661508083343505,-0.9628817870124848,-0.2203369676026333,-0.155917558175209,0.0724738124421232,3.0
32.496543884277344,-14.227434158325195,-0.0258617401123046,-0.0,-0.0,-1.0,0.0813194643373667,1.0
31.946441650390625,-14.192011833190918,-0.0162147283554077,-0.0692383567967056,-0.9581793192094414,0.2776660623616492,0.0351032963337256,4.0
32.559661865234375,-14.287078857421877,-0.0342463254928588,-0.0,-0.0,-1.0,0.0786380285956222,1.0
32.22618865966797,-12.709429740905762,-0.0445708036422729,-0.3712709310124838,0.6558319370048067,-0.6572992972684871,0.1647941915505713,6.0
31.967761993408203,-12.826783180236816,-0.0698072910308837,-0.0,-0.0,-1.0,0.0703220591787672,1.0
31.73027229309082,-12.838557243347168,-0.0809047222137451,-0.1173677772951834,-0.3315654085299037,-0.9361031912771082,0.0653753821449793,3.0
32.67250442504883,-13.316781044006348,-0.1079773902893066,-0.0,-0.0,-1.0,0.1034412418921525,2.0
32.46152114868164,-13.227657318115234,-0.1035195589065551,-0.5227117819903758,-0.6463738132488202,-0.555853655663633,0.0306315330856489,3.0
32.20279312133789,-13.188437461853027,-0.1075849533081054,-0.0,-0.0,-1.0,0.0622930029201991,1.0
33.106224060058594,-13.631471633911133,-0.1133531332015991,-0.0,-0.0,-1.0,0.0158491245767941,1.0
33.509891510009766,-13.792285919189451,-0.1215521097183227,-0.0,-0.0,-1.0,0.0451449450189609,1.0
33.22999954223633,-13.71721649169922,-0.1205847263336181,0.455599657208362,-0.3640349664730661,-0.8123469059069386,0.0345656749646439,3.0
32.235416412353516,-12.700557708740234,-0.0254402160644531,-0.9115206427734256,0.2408578783265385,0.3333430668934923,0.1848267550379305,4.0
31.73095703125,-12.859220504760742,-0.0736716985702514,-0.1173677772951834,-0.3315654085299037,-0.9361031912771082,0.0583302628844933,3.0
31.885366439819336,-13.128080368041992,-0.1008181571960449,-0.0,-0.0,-1.0,0.0123341365397167,2.0
31.768247604370117,-12.951372146606444,-0.0837538242340087,-0.0,-0.0,-1.0,0.0601416925303986,1.0
32.78982925415039,-13.355144500732422,-0.0880768299102783,-0.3139010418803704,-0.1860890093576207,-0.931040824294358,0.2353450499923304,3.0
32.51194381713867,-13.249408721923828,-0.0859781503677368,-0.0,-0.0,-1.0,0.0363646048701903,2.0
32.164283752441406,-13.272592544555664,-0.105745792388916,-0.0,-0.0,-1.0,0.0387382805322336,2.0
33.40849685668945,-13.59115982055664,-0.0969568490982055,-0.0,-0.0,-1.0,0.0354905239390115,2.0
32.93648147583008,-13.531692504882812,-0.1062092781066894,0.2026460877845293,0.3817961578318649,-0.9017573160060582,0.0766174814559391,3.0
33.03099822998047,-12.407278060913086,0.0490826368331909,-0.0,-0.0,-1.0,0.2304640528108035,2.0
31.7451171875,-13.1622314453125,-0.0866023302078247,-0.0,-0.0,-1.0,0.0134704030535741,2.0
32.6086311340332,-13.266669273376465,-0.0847262144088745,-0.0,-0.0,-1.0,0.0509724657072691,2.0
32.249053955078125,-13.297101020812988,-0.095249056816101,-0.0,-0.0,-1.0,0.0429748122560781,2.0
31.93175506591797,-13.320672988891602,-0.1053143739700317,-0.0,-0.0,-1.0,0.0144873812748459,2.0
33.70634841918945,-13.213111877441406,-0.0690366029739379,0.9741639604256306,0.1573582932152515,-0.1619967461532263,0.025955964728779,3.0
33.154354095458984,-13.430628776550291,-0.1036949157714843,-0.0,-0.0,-1.0,0.0468671787046857,2.0
32.80210494995117,-13.345990180969238,-0.0940452814102172,0.0280366490872424,-0.0995084253219347,-0.994641653862288,0.2179268788727288,4.0
33.66597366333008,-13.44297981262207,-0.1038011312484741,-0.0,-0.0,-1.0,0.0205764117092447,2.0
33.32908630371094,-13.581015586853027,-0.1253188848495483,-0.0,-0.0,-1.0,0.0296472091703507,2.0
32.80842208862305,-13.419323921203612,0.2169080972671508,-0.380589803535155,-0.3480041761792594,-0.8567639667999973,0.2037382795006232,13.0
31.804691314697266,-13.454594612121582,-0.0626205205917358,-0.0,-0.0,-1.0,0.0097238289133301,2.0
32.621490478515625,-13.391595840454102,-0.0706170797348022,-0.492118404279322,-0.8427768759417361,0.2180518597661139,0.1243313085197933,3.0
32.325679779052734,-13.390143394470217,-0.0627914667129516,-0.0,-0.0,-1.0,0.0469722661304495,2.0
32.06349563598633,-13.45180606842041,-0.0668321847915649,-0.0,-0.0,-1.0,0.0355931985906591,1.0
33.655860900878906,-13.222599029541016,-0.0800839662551879,-0.0,-0.0,-1.0,0.0308685954658731,2.0
33.39829635620117,-13.387889862060549,-0.0963609218597412,-0.0,-0.0,-1.0,0.0244663912331229,1.0
32.91463851928711,-13.498550415039062,-0.0970858335494995,-0.1158146824411762,0.1264585749654715,-0.9851878948448116,0.1557316879495978,4.0
33.34317398071289,-13.56415843963623,-0.1230477094650268,-0.0,-0.0,-1.0,0.0274848799428618,2.0
33.656314849853516,-14.244684219360352,0.0806578397750854,-0.5869488576055545,-0.8046282694625247,-0.0898019294741333,0.1638118164941529,4.0
33.010826110839844,-14.319761276245115,0.0963016748428344,-0.0,-0.0,-1.0,0.1380543186383413,1.0
32.81867599487305,-13.425943374633787,0.2168725728988647,-0.170312021450525,-0.1616563981324878,-0.9720396207420078,0.2037382795006231,13.0
32.16407775878906,-13.53429889678955,-0.0315152406692504,-0.0,-0.0,-1.0,0.0335202519736681,1.0
31.825422286987305,-13.72588348388672,-0.03523850440979,-0.0,-0.0,-1.0,0.0255883150836304,1.0
32.2579345703125,-13.529993057250977,-0.0404227972030639,-0.0,-0.0,-1.0,0.0364312112703382,1.0
32.03193664550781,-13.681052207946776,-0.0459028482437133,-0.0,-0.0,-1.0,0.021671652582615,2.0
33.12614440917969,-12.66944408416748,0.0173639059066772,-0.0,-0.0,-1.0,0.1494996337218019,1.0
33.679134368896484,-12.7781982421875,-0.0841412544250488,-0.0,-0.0,-1.0,0.0241993924713929,1.0
33.29562759399414,-12.930015563964844,-0.0554438829421997,-0.980188424788577,0.195676908175402,-0.0306789751687248,0.0370621450593444,3.0
32.95347213745117,-13.223102569580078,-0.0635184049606323,-0.0,-0.0,-1.0,0.2271436216677809,2.0
32.71907043457031,-13.381492614746094,0.0721997022628784,0.225436415108425,-0.9079559246639848,0.3532625958272836,0.1989301623196444,4.0
33.44912338256836,-13.115543365478516,-0.111895203590393,-0.0,-0.0,-1.0,0.044735976341874,2.0
33.18545150756836,-14.246223449707031,0.0186942815780639,-0.0,-0.0,-1.0,0.1596380589867604,1.0
33.101009368896484,-14.28726577758789,0.023516297340393,-0.811119064736766,0.1893844296511047,-0.5533709430628609,0.1397032217518979,5.0
33.548583984375,-14.335294723510742,0.1085836887359619,-0.0,-0.0,-1.0,0.1231687075246399,1.0
32.91081237792969,-12.488933563232422,-0.1120259761810302,-0.0,-0.0,-1.0,0.1024383188967653,1.0
32.5645866394043,-12.431331634521484,-0.1151788234710693,0.0539099536323738,-0.9948980995022274,-0.0852730233204538,0.0127231729681823,3.0
31.801149368286133,-13.117927551269531,-0.0510703325271606,-0.0,-0.0,-1.0,0.0110663780501932,1.0
33.43164825439453,-12.75522804260254,-0.1515395641326904,-0.0,-0.0,-1.0,0.0378508055007898,2.0
33.163063049316406,-12.667875289916992,-0.1413466930389404,-0.0,-0.0,-1.0,0.0774617037418274,2.0
32.39384841918945,-13.31536102294922,-0.0530803203582763,-0.0,-0.0,-1.0,0.0791221306999999,1.0
32.08525085449219,-13.334020614624023,-0.0733575820922851,-0.6492372968141186,-0.1149136908214862,-0.751854890312805,0.0420487681901784,5.0
31.838762283325195,-13.242759704589844,-0.0712623596191406,-0.0,-0.0,-1.0,0.0146856392031451,2.0
32.66116714477539,-13.411333084106444,-0.0573563575744628,-0.0,-0.0,-1.0,0.1866855072050345,2.0
33.15906524658203,-13.705381393432615,-0.0890799760818481,-0.0,-0.0,-1.0,0.0265216341532153,1.0
32.913475036621094,-13.602293014526367,-0.0804139375686645,-0.0,-0.0,-1.0,0.0348291437202077,1.0
33.602203369140625,-13.974325180053713,-0.1215300559997558,-0.4671382113334609,-0.3554373024655546,-0.8095963287516716,0.0821397480259569,3.0
33.41985321044922,-13.81325912475586,-0.0987689495086669,-0.8456709793114189,0.146758857754482,-0.5131300346121492,0.0525494646209751,3.0
33.67127227783203,-14.064870834350586,-0.1355832815170288,-0.0,-0.0,-1.0,0.1072652491274976,2.0
32.813819885253906,-13.429533004760742,0.2098003625869751,-0.3770952682041623,-0.3027888466671029,-0.8752817106692203,0.2037382795006232,12.0
31.83857154846191,-14.30610179901123,0.0330502986907959,-0.0,-0.0,-1.0,0.0322349410016793,1.0
32.342594146728516,-13.017210006713867,-0.1755951642990112,-0.0,-0.0,-1.0,0.0293257183608603,1.0
32.08695983886719,-12.715333938598633,-0.114005446434021,-0.0,-0.0,-1.0,0.0906369734408273,1.0
32.595760345458984,-13.781139373779297,-0.0551491975784301,-0.0,-0.0,-1.0,0.0587893406032809,2.0
31.90745735168457,-12.827045440673828,-0.1372144222259521,-0.0,-0.0,-1.0,0.0662371816998677,1.0
32.525299072265625,-13.853572845458984,-0.0667163133621215,-0.0,-0.0,-1.0,0.0184063588695601,2.0
32.250911712646484,-13.92306137084961,-0.078209638595581,-0.0,-0.0,-1.0,0.0665003461475946,2.0
31.968177795410156,-13.930644989013672,-0.0809673070907592,-0.0,-0.0,-1.0,0.0152095004068639,1.0
31.779512405395508,-13.888505935668944,-0.0762940645217895,-0.0,-0.0,-1.0,0.0189774199109918,1.0
31.787572860717773,-12.849287033081056,-0.0433942079544067,-0.0,-0.0,-1.0,0.0670871725889613,1.0
32.329219818115234,-13.24892234802246,-0.0990689992904663,-0.0,-0.0,-1.0,0.068155966372873,1.0
32.79194641113281,-13.37899684906006,0.1648474931716919,0.2600496641782588,-0.9278523753321224,-0.2673277796101879,0.2158619279140404,11.0
33.693904876708984,-14.287367820739746,0.0975379943847656,-0.9151900921127624,-0.3233923178722629,0.240508843995057,0.1461921364838477,4.0
32.40683364868164,-13.946648597717283,-0.057523488998413,-0.0,-0.0,-1.0,0.0241673714091675,2.0
33.010074615478516,-12.831767082214355,-0.0993036031723022,-0.6882638053392254,-0.2393301279964513,-0.6848459856735463,0.1195762262118775,7.0
33.20940399169922,-12.704825401306152,-0.1157963275909423,-0.942145288095974,-0.2850636633867842,0.1763546538514364,0.0778137585343662,3.0
33.64228057861328,-12.800375938415527,-0.1552395820617675,-0.0,-0.0,-1.0,0.028168208466623,2.0
32.310340881347656,-13.927573204040527,-0.0586482286453247,0.0633339206805823,-0.6735228512577712,-0.7364480859672511,0.0684579248836533,4.0
32.38353729248047,-13.870965003967283,-0.0635614395141601,-0.0,-0.0,-1.0,0.0709147955827545,2.0
33.027217864990234,-13.15555477142334,-0.1039912700653076,-0.2513998445459404,-0.7966500461482658,-0.5496788354432456,0.1485731823088843,3.0
33.00753402709961,-12.751410484313965,-0.0959334373474121,-0.471786455461968,-0.0266046017487153,-0.8813113726762096,0.1541006033599679,6.0
33.139835357666016,-12.373446464538574,-0.1009097099304199,-0.0,-0.0,-1.0,0.1704650247564398,2.0
33.578636169433594,-12.87573528289795,-0.145072340965271,-0.0,-0.0,-1.0,0.0349130239107726,2.0
33.049224853515625,-14.21286392211914,-0.0186245441436767,-0.4202997261295902,0.8745993272077333,0.2417108956236185,0.1369258355256253,3.0
32.73622131347656,-13.393491744995115,0.0196696519851684,0.2034027008651255,-0.8123238090470434,-0.5465870200947653,0.2188943371433918,4.0
32.80461502075195,-13.914934158325195,0.0060733556747436,-0.7528602434353537,-0.1579874911598875,-0.6389377172240378,0.0671376510971643,5.0
32.80937194824219,-13.347713470458984,0.0143176317214965,0.9997910602625792,-0.0193814325815774,-0.0064958363675412,0.1638107022463863,9.0
33.40814208984375,-13.765172958374023,-0.0416504144668579,-0.0,-0.0,-1.0,0.0553710618645389,2.0
33.707576751708984,-13.210077285766602,-0.0587023496627807,-0.0,-0.0,-1.0,0.025955964728779,2.0
32.92610168457031,-13.37210464477539,0.1912133693695068,-0.0,-0.0,-1.0,0.1868208821183839,2.0
32.055824279785156,-13.376535415649414,-0.0698376893997192,-0.503034871750659,0.1478678999259341,-0.851522754818855,0.0172332615640095,4.0
32.70175552368164,-12.436027526855469,-0.1024129390716552,-0.0,-0.0,-1.0,0.038366335485257,2.0
32.0819091796875,-13.313374519348145,-0.0871338844299316,-0.9837292041571762,-0.1775462160618663,-0.0274625936575923,0.0420487681901784,3.0
32.64716720581055,-12.391450881958008,-0.102353811264038,-0.0,-0.0,-1.0,0.0176652713001539,2.0
32.83451461791992,-13.429603576660156,0.216721773147583,-0.2402675311214131,-0.1046045962196283,-0.965054087571546,0.222243943360559,14.0
32.46222686767578,-14.361652374267578,0.0252830982208251,-0.0,-0.0,-1.0,0.1067105435350226,1.0
32.802886962890625,-13.427122116088867,0.0214593410491943,0.9343019335610838,0.3038386603300714,0.1864456098513656,0.2396965380982155,3.0
32.791385650634766,-13.893590927124023,0.0074454545974731,-0.7528602434353537,-0.1579874911598875,-0.6389377172240378,0.0674997735965182,5.0
32.699615478515625,-14.249748229980469,0.0050300359725952,-0.0,-0.0,-1.0,0.0534458804780521,1.0
33.073814392089844,-12.394619941711426,0.0259550809860229,0.2515157206464558,-0.9603062078689666,-0.1206309636702748,0.2330058903919249,3.0
32.881404876708984,-13.39499568939209,0.0144145488739013,-0.0,-0.0,-1.0,0.198980730073455,1.0
32.94233322143555,-13.921809196472168,-0.0089113712310791,-0.0,-0.0,-1.0,0.054156835794052,2.0
33.06843566894531,-14.017108917236328,-0.024938941001892,-0.0,-0.0,-1.0,0.1364064542556532,2.0
33.58894729614258,-13.238211631774902,-0.0542113780975341,-0.0,-0.0,-1.0,0.0334450048268563,1.0
33.46793746948242,-13.77651023864746,-0.0584514141082763,-0.0,-0.0,-1.0,0.0539949674906179,1.0
33.5555419921875,-14.107491493225098,-0.0780739784240722,-0.0,-0.0,-1.0,0.0847092142251444,2.0
32.764129638671875,-13.39617919921875,0.1520750522613525,-0.10957265119172,-0.9369895845531464,-0.3317293362814624,0.1273623424742014,8.0
33.64897918701172,-14.301481246948242,0.0034594535827636,0.0006272729667964,0.2984406045489651,-0.9544280025675446,0.1548867352621861,3.0
32.776180267333984,-14.094011306762695,0.011569857597351,-0.0,-0.0,-1.0,0.0492404448232852,2.0
32.81138610839844,-13.379878044128418,0.0652258396148681,0.8003659190259959,-0.5810676660726677,0.1475627429486721,0.1393319628904888,15.0
32.77891159057617,-13.462305068969728,0.0622364282608032,-0.0,-0.0,-1.0,0.1895908141458074,2.0
32.97401428222656,-14.07104778289795,-0.0081642866134643,-0.0,-0.0,-1.0,0.0874969507793365,1.0
33.20302200317383,-14.231693267822266,-0.0462667942047119,-0.0,-0.0,-1.0,0.1137353813523962,2.0
33.609046936035156,-14.082396507263184,-0.079532504081726,-0.563210406579773,0.1270401102369076,-0.8164893436605534,0.1203443844236357,3.0
33.513240814208984,-14.177855491638184,-0.0763696432113647,0.6205400151576635,0.6049784640522644,-0.4989300027269254,0.0910217524666219,3.0
32.07365036010742,-14.246628761291504,-0.0237572193145751,0.2803586041546351,-0.6447981900243751,-0.7110797052495273,0.0654208167125448,3.0
32.483673095703125,-13.811662673950195,-0.0610207319259643,-0.0,-0.0,-1.0,0.027428177748393,1.0
32.292152404785156,-14.019105911254885,-0.0435532331466674,0.3363163309696337,0.1197248744134018,-0.9341077453751354,0.0382759091607563,3.0
31.78470993041992,-14.051335334777832,0.0351284742355346,-0.0,-0.0,-1.0,0.0296392685654055,2.0
32.431785583496094,-13.811198234558104,-0.052531361579895,-0.0,-0.0,-1.0,0.0237470476359796,1.0
32.72524642944336,-13.334457397460938,-0.0707718133926391,-0.0,-0.0,-1.0,0.1586336981950911,1.0
32.57220458984375,-13.58518123626709,-0.0611199140548706,-0.0,-0.0,-1.0,0.0813773595496926,2.0
33.010345458984375,-12.801031112670898,-0.0868611335754394,-0.9536273756778496,-0.0661553167990495,0.2936295326035776,0.1178006059333506,7.0
32.94904708862305,-13.21579933166504,-0.1011396646499633,-0.0,-0.0,-1.0,0.1864404182732051,2.0
33.4113655090332,-12.377521514892578,-0.1324003934860229,-0.0,-0.0,-1.0,0.0214544253447303,1.0
33.27885818481445,-12.671496391296388,-0.1257200241088867,-0.0,-0.0,-1.0,0.0634126877001726,2.0
31.94880485534668,-13.092461585998535,-0.0964763164520263,-0.0,-0.0,-1.0,0.0263400573884906,2.0
32.13240051269531,-12.751341819763184,-0.0851002931594848,0.177888947781891,0.9792777919063972,-0.0968014903603384,0.107613005546967,3.0
32.079925537109375,-12.911545753479004,-0.0951747894287109,-0.0,-0.0,-1.0,0.0956434111282804,2.0
32.83467102050781,-13.42788314819336,0.1618596315383911,-0.5822393168985293,-0.4148530635173094,-0.6992097779263654,0.202781820576705,7.0
31.888996124267575,-14.03818702697754,-0.0198217630386352,-0.0,-0.0,-1.0,0.0328235248967358,1.0
32.34625244140625,-13.86887550354004,-0.0550445318222045,-0.2280231672636079,-0.3185074931928968,-0.9200860894345972,0.0592412713181409,3.0
32.143699645996094,-13.978471755981444,-0.0434795618057251,-0.2227034719302361,0.5510281263751867,-0.804220845000719,0.0689927900049177,3.0
32.59720993041992,-13.699453353881836,-0.0664712190628051,-0.0,-0.0,-1.0,0.0476865270240895,2.0
32.96003341674805,-13.509967803955078,-0.0917185544967651,0.2026460877845293,0.3817961578318649,-0.9017573160060582,0.1151374367604017,3.0
33.09584045410156,-12.387928009033203,0.0186070203781127,0.2515157206464558,-0.9603062078689666,-0.1206309636702748,0.2330058903919249,3.0
33.112911224365234,-12.844606399536133,-0.0351749658584594,-0.1471830133140792,-0.4312934068664457,-0.8901253607134911,0.1164763090986852,3.0
33.309879302978516,-13.1201171875,-0.0945296287536621,-0.2040390608775538,-0.6944877576260382,-0.6899672572983178,0.0342660921337168,4.0
33.24141311645508,-13.440912246704102,-0.1219756603240966,-0.0,-0.0,-1.0,0.0175240903088932,1.0
33.62656021118164,-12.980440139770508,-0.1239475011825561,0.1795904834459167,0.1172061907564543,-0.9767343380387647,0.0321153789235182,4.0
32.003089904785156,-12.934608459472656,-0.1030199527740478,-0.0,-0.0,-1.0,0.0541250911491727,1.0
32.225502014160156,-12.580589294433594,-0.0904498100280761,-0.875100920325925,-0.3583295731749639,-0.3252665003239146,0.0592892627719707,4.0
32.15751647949219,-12.75774383544922,-0.1037105321884155,0.177888947781891,0.9792777919063972,-0.0968014903603384,0.1064018026739182,3.0
32.418312072753906,-14.128708839416504,0.0180178880691528,-0.0,-0.0,-1.0,0.0777872757416473,2.0
32.87705612182617,-13.794971466064451,-0.0065581798553466,-0.0,-0.0,-1.0,0.0688756293760457,2.0
32.748443603515625,-14.087997436523438,-0.023198127746582,-0.0,-0.0,-1.0,0.051039888622053,2.0
32.60389709472656,-14.247095108032228,-0.022161841392517,-0.0,-0.0,-1.0,0.0719722741675234,2.0
32.94035720825195,-13.785648345947266,-0.014636754989624,-0.0,-0.0,-1.0,0.0610615695463793,2.0
33.1840705871582,-13.886104583740234,-0.0618759393692016,-0.0,-0.0,-1.0,0.0726505818740146,2.0
33.56106185913086,-13.749417304992676,-0.1023056507110595,-0.0,-0.0,-1.0,0.0378305059823496,1.0
33.48884582519531,-13.844627380371094,-0.1021832227706909,-0.0,-0.0,-1.0,0.0468420192632942,1.0
32.821781158447266,-13.32209014892578,0.056382417678833,0.7812002967004956,-0.6160294325133153,0.1011624174897988,0.1756593840781039,13.0
31.88536834716797,-12.458335876464844,-0.1373162269592285,-0.0,-0.0,-1.0,0.0648530081324283,2.0
31.97886085510254,-12.401674270629885,-0.1479181051254272,-0.0,-0.0,-1.0,0.0574212998927052,1.0
31.842144012451172,-13.912761688232422,-0.0452990531921386,-0.0,-0.0,-1.0,0.0195461270879426,2.0
32.31426239013672,-13.664596557617188,-0.0867317914962768,-0.0,-0.0,-1.0,0.0296065271101814,1.0
32.09215545654297,-13.861127853393556,-0.0778884887695312,-0.0,-0.0,-1.0,0.0387031746135235,1.0
33.046207427978516,-12.731666564941406,-0.0937061309814453,-0.0,-0.0,-1.0,0.0868026612904202,2.0
32.97457504272461,-12.976284980773926,-0.1109117269515991,-0.0,-0.0,-1.0,0.1006740766226506,2.0
32.68516540527344,-13.32532024383545,-0.1040848493576049,-0.0,-0.0,-1.0,0.1135858127177755,2.0
32.49929428100586,-13.517535209655762,-0.0975255966186523,-0.0,-0.0,-1.0,0.068891599109148,2.0
33.19956970214844,-12.671846389770508,-0.1150263547897338,0.614471596507982,0.0669993037553583,-0.7860888947067178,0.0947476816951126,4.0
33.08340835571289,-13.069714546203612,-0.1420161724090576,-0.0,-0.0,-1.0,0.0776478690159284,1.0
33.58920669555664,-12.60179328918457,-0.1802276372909546,-0.0,-0.0,-1.0,0.0273839130906521,1.0
33.659515380859375,-14.351909637451172,-0.0328561067581176,-0.0,-0.0,-1.0,0.1375072162564809,2.0
32.88590621948242,-13.373649597167969,0.1868859529495239,0.0867846119248569,-0.6911679867963139,-0.7174644556777586,0.1735920594821846,4.0
32.46007537841797,-14.252538681030272,0.0054727792739868,-0.0,-0.0,-1.0,0.0952293888220304,1.0
32.64238739013672,-14.25322151184082,-0.0252225399017334,-0.0,-0.0,-1.0,0.0683403319713123,2.0
33.05198669433594,-12.475154876708984,-0.17026948928833,-0.0,-0.0,-1.0,0.1349584636256201,1.0
32.13630676269531,-12.419814109802246,-0.082701563835144,-0.9247522726325396,0.118055574947351,-0.3617956819598649,0.0276516143087111,4.0
33.036006927490234,-14.246455192565918,0.0204068422317504,-0.0,-0.0,-1.0,0.1317140716057001,2.0
33.63993453979492,-14.234514236450195,-0.0865465402603149,-0.0,-0.0,-1.0,0.1315369812225606,1.0
32.95131301879883,-12.528486251831056,-0.0684094429016113,-0.0,-0.0,-1.0,0.1723147350536376,1.0
32.992164611816406,-12.71841526031494,-0.0741596221923828,-0.0,-0.0,-1.0,0.1175415387212668,2.0
32.80799865722656,-14.314020156860352,0.0191659927368164,-0.0,-0.0,-1.0,0.0490840284467919,1.0
32.71764373779297,-13.513420104980469,-0.0687494277954101,-0.0,-0.0,-1.0,0.1563956697324553,1.0
32.772422790527344,-13.799449920654297,-0.0409986972808837,-0.0,-0.0,-1.0,0.0801941426528664,2.0
32.84229278564453,-14.047767639160156,-0.0228698253631591,-0.0,-0.0,-1.0,0.0476919876365933,1.0
32.489051818847656,-14.321194648742676,0.0918111801147461,-0.0,-0.0,-1.0,0.1633174863232707,1.0
33.70541000366211,-14.257332801818848,0.225494384765625,-0.0,-0.0,-1.0,0.1648263908250233,2.0
31.987289428710938,-13.688031196594238,-0.034578800201416,-0.0,-0.0,-1.0,0.0201986217958587,2.0
32.158992767333984,-13.957892417907717,-0.033614158630371,-0.0,-0.0,-1.0,0.0689618824391306,2.0
32.25562286376953,-14.18962287902832,-0.0219111442565917,-0.0,-0.0,-1.0,0.0910075430134344,1.0
33.08185577392578,-14.238383293151855,0.170206069946289,-0.0,-0.0,-1.0,0.2057033624506164,1.0
31.744613647460938,-13.126619338989258,-0.0714664459228515,-0.6886809538498204,0.2753445035801183,-0.6707487966092218,0.0100082570847884,3.0
31.971942901611328,-13.390100479125977,-0.0799431800842285,-0.0,-0.0,-1.0,0.0150152461568541,2.0
33.14653778076172,-13.9752197265625,0.1218647956848144,-0.0,-0.0,-1.0,0.1544704227121892,1.0
33.2567024230957,-14.263628959655762,0.1366114616394043,-0.0,-0.0,-1.0,0.1201530395997251,1.0
32.77421188354492,-13.224175453186035,0.0926783084869384,-0.0,-0.0,-1.0,0.2304944779568286,2.0
32.829559326171875,-13.299989700317385,0.0925788879394531,0.969040211902906,0.0043992802147032,-0.2468637560452394,0.2149635114886026,5.0
33.08785629272461,-12.689355850219728,-0.0520722866058349,-0.0,-0.0,-1.0,0.1321184853346354,1.0
33.362327575683594,-12.745931625366213,-0.0988013744354248,-0.0,-0.0,-1.0,0.0330418891183725,1.0
33.651161193847656,-12.98934555053711,-0.1214444637298584,0.2759968497334982,0.3195403751352502,-0.9064875551245082,0.0322427144687441,6.0
33.351444244384766,-12.424267768859863,-0.1463091373443603,-0.0,-0.0,-1.0,0.0345529273258354,2.0
32.81614685058594,-13.879801750183104,-0.018904685974121,-0.7528602434353537,-0.1579874911598875,-0.6389377172240378,0.0909497693809827,5.0
33.138526916503906,-14.119421005249023,-0.0595481395721435,-0.0,-0.0,-1.0,0.0970468707817641,2.0
32.88698196411133,-13.53311824798584,-0.0879790782928466,-0.0,-0.0,-1.0,0.0775182824128811,2.0
32.757537841796875,-13.079998970031738,-0.1311662197113037,-0.0,-0.0,-1.0,0.0917159372532188,1.0
32.89326858520508,-13.320160865783691,-0.1228368282318115,-0.0,-0.0,-1.0,0.2123109498652156,2.0
32.138397216796875,-12.463245391845703,-0.1008381843566894,-0.999010648968209,-0.042094531106336,-0.0143448143611382,0.0359386262245167,3.0
32.343017578125,-12.71126937866211,-0.1012899875640869,-0.0,-0.0,-1.0,0.0958047507264405,2.0
32.664886474609375,-12.84348201751709,-0.1498477458953857,-0.0,-0.0,-1.0,0.0298775160754574,1.0
31.8300838470459,-13.973777770996094,0.0492196083068847,-0.0,-0.0,-1.0,0.0197290492546545,1.0
32.23411178588867,-14.114982604980469,-0.0401017665863037,-0.0,-0.0,-1.0,0.0532977135492655,2.0
32.095943450927734,-13.710901260375977,-0.0693004131317138,-0.0,-0.0,-1.0,0.0443104936106922,2.0
33.156272888183594,-14.01285171508789,0.0354056358337402,-0.0,-0.0,-1.0,0.1706818162596529,1.0
33.686668395996094,-13.898804664611816,-0.111849308013916,-0.0,-0.0,-1.0,0.0682736412791571,1.0
31.94997215270996,-13.3670072555542,-0.0909981727600097,-0.0,-0.0,-1.0,0.0146419133972789,2.0
32.83481216430664,-13.324009895324709,0.0111098289489746,0.390208328010647,-0.9193401123270736,0.0505095893626078,0.2289002400644199,8.0
33.53517150878906,-13.501876831054688,-0.1314368247985839,-0.0,-0.0,-1.0,0.0238700126971077,1.0
33.03013610839844,-12.89735984802246,-0.1041657924652099,-0.8354708074527569,-0.3928624277764485,0.3842494537872931,0.078268273113494,3.0
33.26971435546875,-13.11577320098877,-0.1262133121490478,0.3957736292372695,-0.9151585729960828,-0.0764723523381732,0.0329977908681761,3.0
33.45535659790039,-13.280168533325195,-0.1451644897460937,-0.0,-0.0,-1.0,0.0377359185474242,1.0
32.67687225341797,-12.401436805725098,-0.106532335281372,0.1009486965544194,0.1045849549816193,-0.9893792740175308,0.0350235371972346,4.0
32.85211944580078,-12.629429817199709,-0.1074850559234619,-0.0,-0.0,-1.0,0.0540999286623165,2.0
33.6492805480957,-13.398554801940918,-0.1432828903198242,-0.0,-0.0,-1.0,0.0260355253184833,1.0
33.37248229980469,-12.851319313049316,-0.1676909923553466,-0.0,-0.0,-1.0,0.0444596576458535,2.0
33.50752639770508,-13.08152961730957,-0.1608476638793945,-0.0,-0.0,-1.0,0.042445768032513,1.0
33.04766082763672,-12.393993377685549,-0.1737062931060791,-0.0,-0.0,-1.0,0.1385173921400594,1.0
33.101654052734375,-12.488420486450195,-0.1684386730194091,-0.0,-0.0,-1.0,0.0983976809363304,1.0
33.13348388671875,-14.106879234313965,0.1086916923522949,-0.0,-0.0,-1.0,0.1805946138223204,1.0
33.634422302246094,-14.304762840270996,0.0024237632751464,-0.527471557683708,0.0627157017414865,-0.8472546822471955,0.1548867352621861,4.0
33.47944641113281,-13.599065780639648,-0.0649411678314209,-0.0,-0.0,-1.0,0.0326696099241825,1.0
32.82756042480469,-13.339539527893066,0.0609581470489501,-0.3331449206412619,-0.0531984016330254,-0.9413736728391222,0.0981065350123531,11.0
33.4947395324707,-13.310462951660156,-0.1178357601165771,-0.0,-0.0,-1.0,0.0360091181496979,2.0
33.002037048339844,-12.785633087158203,-0.0861272811889648,-0.9539791150257408,0.0680275408777585,-0.2920549636229955,0.1033197504946288,7.0
33.20150375366211,-12.911806106567385,-0.1130146980285644,-0.0,-0.0,-1.0,0.0497556524414511,1.0
