x,y,z,nx,ny,nz,curvature,density
24.29537010192871,-20.142061233520508,0.9078822135925292,-0.0,-0.0,-1.0,0.2338770820158587,1.0
24.427595138549805,-19.728683471679688,0.9096617698669434,-0.0,-0.0,-1.0,0.2045243514899219,2.0
23.71695899963379,-20.864686965942383,0.5890998840332031,-0.0,-0.0,-1.0,0.1316752123981592,2.0
24.050077438354492,-20.82093811035156,0.555366039276123,-0.193830402720973,-0.0108803401034282,-0.9809747158720554,0.0729092768314451,3.0
24.126483917236328,-20.42030906677246,0.583608865737915,-0.0,-0.0,-1.0,0.2596554305808948,2.0
24.90458106994629,-20.28934860229492,0.5035734176635742,-0.0,-0.0,-1.0,0.10327662089112,1.0
24.630130767822266,-20.130964279174805,0.5504591464996338,-0.0,-0.0,-1.0,0.1559299610927511,1.0
24.955249786376953,-20.067203521728516,0.5170407295227051,-0.0,-0.0,-1.0,0.2172633258666292,1.0
23.04521751403809,-20.857114791870117,0.6648654937744141,-0.0,-0.0,-1.0,0.1636003295194724,2.0
23.21207618713379,-20.84193229675293,0.6478772163391113,-0.0,-0.0,-1.0,0.1744311406611819,2.0
22.921525955200195,-20.271833419799805,0.7349622249603271,-0.0,-0.0,-1.0,0.2067978221116395,1.0
23.230045318603516,-20.286701202392575,0.6988706588745117,-0.0,-0.0,-1.0,0.1673057710427881,1.0
24.251115798950195,-20.13171005249023,0.5953340530395508,-0.0,-0.0,-1.0,0.1813756489832951,1.0
23.777202606201172,-19.468704223632812,0.7110922336578369,-0.0,-0.0,-1.0,0.1596911787455389,1.0
24.031848907470703,-19.613929748535156,0.6678652763366699,-0.0,-0.0,-1.0,0.2150893470894566,2.0
24.42165756225586,-21.649822235107425,0.7509260177612305,-0.0,-0.0,-1.0,0.1679808436559334,2.0
24.810237884521484,-21.820945739746097,0.6973104476928711,-0.0,-0.0,-1.0,0.1374400447081785,1.0
24.24037170410156,-21.577306747436523,0.7751226425170898,-0.0,-0.0,-1.0,0.1778166427968605,2.0
24.55721664428711,-21.438308715820312,0.7588419914245605,-0.0,-0.0,-1.0,0.2183429111707448,1.0
24.700023651123047,-21.169620513916016,0.7713208198547363,0.7996434428354005,-0.1481065547808632,-0.5819233736165705,0.2267669347596776,3.0
24.769027709960938,-21.030519485473633,0.7780170440673828,-0.0,-0.0,-1.0,0.2605145133873702,2.0
25.14391708374023,-20.24171257019043,0.8148531913757324,-0.0,-0.0,-1.0,0.1569484195080608,2.0
23.30553436279297,-20.925920486450195,0.9269256591796876,-0.0,-0.0,-1.0,0.2062290006073786,1.0
23.40711212158203,-20.83300018310547,0.9269242286682128,-0.0,-0.0,-1.0,0.2287657252620819,2.0
24.330650329589844,-19.542238235473633,0.9622178077697754,0.3608662893839752,-0.4059254903698501,-0.8396427915811804,0.2110475371378313,3.0
23.633712768554688,-20.122936248779297,0.6151914596557617,-0.0,-0.0,-1.0,0.1049284955882633,1.0
23.803312301635746,-20.056228637695312,0.6040377616882324,-0.0,-0.0,-1.0,0.1103931770244677,2.0
23.319915771484375,-20.03171157836914,0.6585702896118164,-0.0,-0.0,-1.0,0.1607129120073877,1.0
23.766935348510746,-19.60337257385254,0.6561541557312012,-0.0,-0.0,-1.0,0.1251266073428238,1.0
24.130924224853516,-19.477519989013672,0.6289656162261963,-0.0,-0.0,-1.0,0.158481215251187,2.0
22.844213485717773,-20.005584716796875,0.711512565612793,-0.0,-0.0,-1.0,0.1541805361688167,1.0
23.85721969604492,-19.366315841674805,0.6710712909698486,-0.0,-0.0,-1.0,0.1301038021949012,1.0
23.32225799560547,-20.803611755371097,0.6637625694274902,-0.0,-0.0,-1.0,0.225641237076595,1.0
23.661745071411133,-20.728193283081055,0.6090126037597656,-0.0323421007247137,0.459631804857372,-0.887520474402854,0.150584735449956,6.0
23.842798233032227,-20.445220947265625,0.5919632911682129,-0.0,-0.0,-1.0,0.0863942009695956,1.0
24.090883255004883,-20.103315353393555,0.5651512145996094,-0.0,-0.0,-1.0,0.0455353265028116,2.0
23.138586044311523,-20.797348022460938,0.6956448554992676,-0.0,-0.0,-1.0,0.2799284570930199,1.0
23.292322158813477,-20.276838302612305,0.6969494819641113,-0.0,-0.0,-1.0,0.1555687102775014,1.0
23.80910301208496,-20.051118850708008,0.6177918910980225,-0.0,-0.0,-1.0,0.1103931770244676,2.0
24.23723793029785,-19.451509475708008,0.5698914527893066,-0.0,-0.0,-1.0,0.2106360983562885,1.0
23.771984100341797,-19.460914611816406,0.6532750129699707,-0.0,-0.0,-1.0,0.174351856244871,1.0
24.83946990966797,-20.074464797973633,0.5284969806671143,-0.3512422014187118,0.9271512193314352,-0.1304589300690842,0.2370406624126856,3.0
25.126514434814453,-19.668289184570312,0.5297636985778809,-0.0,-0.0,-1.0,0.1238187972597066,1.0
24.130420684814453,-20.302000045776367,0.5910983085632324,-0.0,-0.0,-1.0,0.1418095134244718,2.0
24.609458923339844,-19.4641170501709,0.6118810176849365,-0.0,-0.0,-1.0,0.1888853797048281,1.0
23.528888702392575,-20.46965980529785,0.642798900604248,-0.0,-0.0,-1.0,0.1445869945802696,1.0
23.76028823852539,-20.359573364257812,0.6277143955230713,-0.0,-0.0,-1.0,0.0287844165537541,1.0
24.05065536499023,-19.618017196655273,0.6650784015655518,-0.0,-0.0,-1.0,0.2245348910751558,2.0
22.930404663085938,-20.62502670288086,0.691962718963623,0.51296559360442,-0.7090694826108402,-0.4838251425960213,0.1830357588707949,3.0
23.20252990722656,-20.473447799682617,0.6781706809997559,-0.0,-0.0,-1.0,0.0728741203185818,1.0
22.835514068603516,-20.48261070251465,0.7166769504547119,-0.0,-0.0,-1.0,0.189381205831128,1.0
23.78356552124023,-19.565271377563477,0.7014460563659668,-0.0,-0.0,-1.0,0.1497225922574729,1.0
24.93645668029785,-21.767011642456055,0.6284799575805664,-0.0,-0.0,-1.0,0.1586590536673878,2.0
24.433570861816406,-21.562772750854492,0.695185661315918,-0.3123038686801498,0.4935652313911174,-0.8117017038107316,0.1816656913271721,4.0
24.616724014282227,-21.56431007385254,0.6781601905822754,-0.0,-0.0,-1.0,0.1915944811071122,2.0
24.756858825683594,-21.08387756347656,0.7123565673828125,0.0222323358158383,-0.997208397529294,0.0712820814877675,0.2544621154727407,5.0
24.15913772583008,-21.512474060058594,0.7252442836761475,-0.0,-0.0,-1.0,0.1137306339246388,2.0
24.5941219329834,-21.11047744750977,0.7250328063964844,-0.0,-0.0,-1.0,0.2315998827928114,1.0
23.51144790649414,-20.89158821105957,0.8461651802062988,-0.865302213694276,-0.1927708718976513,-0.4627001944278868,0.2098165228716446,5.0
24.277158737182617,-19.51947784423828,0.9096980094909668,-0.0,-0.0,-1.0,0.2349200731606554,2.0
23.306446075439453,-20.92841911315918,0.8607907295227051,-0.0,-0.0,-1.0,0.2136829741701169,1.0
25.051803588867188,-21.28244400024414,0.6499342918395996,-0.0,-0.0,-1.0,0.1763789781334548,1.0
24.492189407348633,-21.455148696899418,0.6709964275360107,-0.0,-0.0,-1.0,0.1773324429042967,1.0
24.650901794433594,-21.230396270751953,0.6845564842224121,-0.0,-0.0,-1.0,0.2088329353884847,1.0
24.000396728515625,-21.420101165771484,0.7090506553649902,-0.0,-0.0,-1.0,0.0983008533357542,1.0
24.220149993896484,-21.49485969543457,0.6855933666229248,-0.0,-0.0,-1.0,0.176913175599147,2.0
23.39108657836914,-20.90601921081543,0.8080596923828125,-0.1674248563890505,0.1302052684831686,-0.9772489475677792,0.2257992007065773,5.0
23.131519317626953,-20.858640670776367,0.8307733535766602,-0.3980430081140652,0.9112955539258712,-0.1053668690170019,0.208821581800731,3.0
24.23155403137207,-19.57122039794922,0.8958749771118164,-0.0,-0.0,-1.0,0.2012033731536939,2.0
24.853158950805664,-21.123926162719727,0.6503646373748779,0.6151546583187016,-0.3666648668302315,0.6979553150318221,0.1916825305925065,3.0
24.697237014770508,-21.070335388183594,0.64947509765625,0.5789258039623656,-0.8153732697539715,0.0033681563571481,0.2078359677013543,5.0
24.227468490600582,-20.972646713256836,0.6339538097381592,-0.0,-0.0,-1.0,0.0741832594270202,1.0
23.89269638061523,-20.808143615722656,0.6418991088867188,-0.0,-0.0,-1.0,0.0597113708973035,1.0
24.19990921020508,-19.56875991821289,0.9134931564331056,-0.0,-0.0,-1.0,0.2195982316427232,2.0
23.611026763916016,-20.627601623535156,0.6570262908935547,-0.0,-0.0,-1.0,0.1674510286999239,2.0
23.33032989501953,-20.35209083557129,0.6912877559661865,-0.0,-0.0,-1.0,0.1347709989230406,1.0
23.92969512939453,-19.507871627807617,0.9055662155151368,-0.0,-0.0,-1.0,0.1825404163489818,1.0
23.983341217041016,-19.41398811340332,0.9283890724182128,-0.9927554581718444,-0.102254962137253,-0.0630913860072897,0.1992134903185326,3.0
22.94255828857422,-20.27025032043457,0.6785783767700195,-0.0,-0.0,-1.0,0.165153344278594,1.0
23.14321517944336,-20.323673248291016,0.6829366683959961,-0.0,-0.0,-1.0,0.1571625642565645,2.0
23.170164108276367,-21.80101776123047,0.6139264106750488,-0.0,-0.0,-1.0,0.1447504369016451,1.0
23.719383239746097,-21.596195220947266,0.6004881858825684,-0.0,-0.0,-1.0,0.1005912356478741,1.0
24.12583923339844,-21.601394653320312,0.5864136219024658,-0.0,-0.0,-1.0,0.1695191959531812,1.0
23.17596435546875,-20.081153869628903,0.6583895683288574,-0.0,-0.0,-1.0,0.1960648969369511,2.0
22.743141174316406,-20.02130889892578,0.7788683176040649,-0.0,-0.0,-1.0,0.1623957402709868,1.0
24.571428298950195,-21.34772491455078,0.6751132011413574,-0.0,-0.0,-1.0,0.0918153961923485,1.0
25.07458114624023,-20.942813873291016,0.6636135578155518,-0.0,-0.0,-1.0,0.1879699504894613,1.0
23.8576717376709,-20.729442596435547,0.5486663579940796,-0.0,-0.0,-1.0,0.0842117398781754,2.0
25.124313354492188,-20.774574279785156,0.5144200325012207,-0.0,-0.0,-1.0,0.1021555099683699,1.0
23.448654174804688,-20.821924209594727,0.6118667125701904,0.2516384040976878,-0.7422686695716371,-0.6210598487710515,0.152368837930104,3.0
23.62590789794922,-20.754056930541992,0.6025443077087402,0.1043776938514188,0.3893430108378424,-0.9151597220911678,0.188491738718866,5.0
23.840869903564453,-20.8736629486084,0.5865541696548462,-0.0,-0.0,-1.0,0.1400484544491949,2.0
24.05356788635254,-20.97673988342285,0.5710740089416504,-0.0,-0.0,-1.0,0.0516469801898171,1.0
24.313865661621097,-21.301984786987305,0.5475151538848877,-0.0,-0.0,-1.0,0.0878983942737733,1.0
24.307781219482425,-19.48774147033691,0.5897805690765381,0.6565788777448109,-0.7341696785503541,-0.1729134477032768,0.1344332600144683,5.0
25.027667999267575,-21.022565841674805,0.5098556280136108,0.9460828732096548,-0.144555332551203,0.2898809287455373,0.2364353734272496,3.0
23.09517288208008,-21.190319061279297,0.9418476819992064,-0.0,-0.0,-1.0,0.1669007564682224,1.0
24.563697814941406,-21.647666931152344,0.8402855396270752,-0.0,-0.0,-1.0,0.1519973483307273,2.0
24.805837631225582,-21.087860107421875,0.8357335329055786,-0.0,-0.0,-1.0,0.206775756963795,1.0
24.711963653564453,-21.50533676147461,0.8336338996887207,-0.0,-0.0,-1.0,0.1269101446483298,2.0
25.182029724121097,-21.18373107910156,0.8099775314331055,-0.0,-0.0,-1.0,0.1790643134257123,1.0
23.589630126953125,-19.96152687072754,0.5237200260162354,-0.0,-0.0,-1.0,0.052712051935084,1.0
22.976154327392575,-20.750398635864254,0.6853253841400146,-0.0,-0.0,-1.0,0.1353631105557041,2.0
23.628381729125977,-20.820829391479492,0.6373796463012695,-0.0,-0.0,-1.0,0.1819307891759882,1.0
24.07872200012207,-21.12724876403809,0.5970550775527954,-0.0,-0.0,-1.0,0.0615874266802089,1.0
24.284717559814453,-21.43177604675293,0.5741221904754639,-0.0,-0.0,-1.0,0.1758983688975749,1.0
24.08199691772461,-19.40109062194824,0.6433103084564209,-0.4949661893908663,-0.4536799577739386,-0.7410688006346794,0.1413147022777139,3.0
24.70162010192871,-21.0624942779541,0.5540972948074341,-0.0,-0.0,-1.0,0.2486003233212897,2.0
24.82437515258789,-20.0741024017334,0.5717129707336426,-0.7789035674935543,0.5526007367052268,-0.2965495883299366,0.1764964278673013,4.0
25.015525817871097,-21.05864524841309,0.5314922332763672,0.9460828732096548,-0.144555332551203,0.2898809287455373,0.1395702106051948,3.0
23.13837623596191,-21.458524703979492,1.0291244983673096,-0.0,-0.0,-1.0,0.1582050339666665,2.0
24.58330345153809,-21.60417366027832,0.9286868572235109,0.3694479906688228,0.7708106976962066,-0.5189981218731496,0.2420285447978046,3.0
24.808059692382812,-21.10304069519043,0.923790693283081,-0.0,-0.0,-1.0,0.2403701729220335,2.0
22.72217559814453,-20.406179428100582,0.6078503131866455,-0.0,-0.0,-1.0,0.1743626695488035,1.0
22.873140335083008,-20.51157569885254,0.5922588109970093,-0.0,-0.0,-1.0,0.0522548226255971,1.0
22.99109649658203,-20.35884666442871,0.5881264209747314,-0.0,-0.0,-1.0,0.0574267043991637,1.0
23.31883430480957,-20.73764991760254,0.5488920211791992,-0.0,-0.0,-1.0,0.1468893769528764,1.0
23.475372314453125,-19.898771286010746,0.5650125741958618,-0.0,-0.0,-1.0,0.0484988766875193,1.0
23.67760467529297,-19.43345069885254,0.5644824504852295,-0.0,-0.0,-1.0,0.134919062589244,1.0
24.030658721923828,-19.951704025268555,0.5179485082626343,-0.0,-0.0,-1.0,0.0320945972764126,2.0
23.816577911376953,-19.45806312561035,0.5522961616516113,-0.0,-0.0,-1.0,0.1950932257502339,2.0
24.171079635620117,-19.9710750579834,0.5057393312454224,-0.0,-0.0,-1.0,0.0795784531498186,1.0
24.446910858154297,-20.014081954956055,0.4814499616622925,-0.0,-0.0,-1.0,0.1597712293750071,2.0
24.751230239868164,-19.787580490112305,0.4637525081634521,-0.0,-0.0,-1.0,0.1560241997819816,1.0
24.90334129333496,-19.49228858947754,0.460936427116394,-0.7608411938577719,0.4801820776868734,-0.4365155781840985,0.1170742423362668,3.0
23.026901245117188,-20.84423828125,0.7586460113525391,-0.0,-0.0,-1.0,0.2015405253146062,2.0
23.501991271972656,-21.379837036132812,0.7042605876922607,-0.0,-0.0,-1.0,0.1366959911596451,1.0
23.634620666503903,-21.327674865722656,0.6951512098312378,-0.0,-0.0,-1.0,0.0840272038095582,1.0
23.159744262695312,-20.80757522583008,0.7491686344146729,-0.0,-0.0,-1.0,0.2450204221343633,1.0
24.30139923095703,-21.115570068359375,0.6472337245941162,-0.0,-0.0,-1.0,0.0607505932883903,1.0
24.427515029907227,-21.029132843017575,0.6394460201263428,-0.0,-0.0,-1.0,0.1012333102128198,1.0
24.730802536010746,-21.180530548095703,0.6097453832626343,-0.0,-0.0,-1.0,0.1947774359967606,1.0
24.863948822021484,-21.13804626464844,0.5999257564544678,-0.0,-0.0,-1.0,0.1658171873888297,2.0
23.866283416748047,-19.56465530395508,0.7298554182052612,-0.0,-0.0,-1.0,0.1872016857326089,1.0
24.411073684692383,-20.044292449951172,0.6704974174499512,-0.0,-0.0,-1.0,0.1811891723026532,1.0
25.07732391357422,-20.748497009277344,0.5937261581420898,-0.0,-0.0,-1.0,0.1450805064124176,1.0
25.20322608947754,-20.28348922729492,0.5970054864883423,-0.0,-0.0,-1.0,0.1655345430561572,1.0
23.145000457763672,-19.73020362854004,0.6087372303009033,0.2393086441019616,-0.6974569926318925,-0.6754887980469826,0.0984616901047586,4.0
23.48036003112793,-20.029470443725582,0.5784823894500732,-0.0,-0.0,-1.0,0.1373176908997904,1.0
23.73796844482422,-20.06839942932129,0.5635578632354736,-0.0,-0.0,-1.0,0.0455707829236712,2.0
22.940954208374023,-19.499876022338867,0.6291413307189941,0.5194060304946121,-0.6113850633071125,-0.5970139695608372,0.0672046831447089,3.0
24.62509536743164,-19.923418045043945,0.522836446762085,-0.0,-0.0,-1.0,0.2615884452924387,1.0
25.068918228149418,-19.91899299621582,0.4984419345855713,-0.0,-0.0,-1.0,0.2306758286366494,1.0
24.057706832885746,-19.369009017944336,0.5779604911804199,0.5759550084013921,0.661055662243966,-0.4809170819512905,0.137231656747799,3.0
23.65010452270508,-19.96449279785156,0.5105187892913818,-0.0,-0.0,-1.0,0.0376762523029756,2.0
24.97097396850586,-20.101863861083984,0.459618330001831,-0.0,-0.0,-1.0,0.1179419485798532,1.0
23.412866592407227,-19.754657745361328,0.5290555953979492,-0.0,-0.0,-1.0,0.0610535208645306,1.0
24.59942626953125,-19.93640899658203,0.4814405441284179,-0.0,-0.0,-1.0,0.1550450276338272,1.0
22.942062377929688,-19.39120101928711,0.5623209476470947,-0.0,-0.0,-1.0,0.0495256849142711,1.0
23.129640579223633,-19.436546325683594,0.5545494556427002,-0.0,-0.0,-1.0,0.0672022940257327,1.0
24.26251220703125,-19.455101013183594,0.5188131332397461,0.7222872657374984,-0.6016972456774208,-0.3409714508542535,0.1873505272691234,3.0
23.843494415283203,-20.83142852783203,0.6271336078643799,-0.0,-0.0,-1.0,0.1340744330728113,1.0
24.80415153503418,-20.99108505249023,0.6073737144470215,-0.0,-0.0,-1.0,0.20841658503978,1.0
23.263622283935547,-20.406532287597656,0.6532642841339111,-0.0,-0.0,-1.0,0.1308327074002242,1.0
23.540084838867188,-20.68701934814453,0.63722825050354,-0.0,-0.0,-1.0,0.1195102883357367,1.0
24.120214462280273,-20.73263931274414,0.6287059783935547,-0.0,-0.0,-1.0,0.0847693185813508,1.0
24.385833740234375,-20.603107452392575,0.6317267417907715,-0.0,-0.0,-1.0,0.1264349234410925,1.0
23.40067481994629,-20.30813980102539,0.6567192077636719,-0.0,-0.0,-1.0,0.1297269376006929,1.0
24.695602416992188,-20.04039764404297,0.6548545360565186,-0.0,-0.0,-1.0,0.2122608650317014,1.0
22.98054313659668,-19.71649932861328,0.6885292530059814,-0.0,-0.0,-1.0,0.0480220534080029,1.0
24.59532928466797,-19.833526611328125,0.6661782264709473,-0.0,-0.0,-1.0,0.1405104599902006,2.0
22.88852310180664,-19.47652816772461,0.7006337642669678,-0.0,-0.0,-1.0,0.0868104977749444,1.0
24.07654571533203,-19.45433807373047,0.6906847953796387,-0.0,-0.0,-1.0,0.1474811272102061,1.0
24.053466796875,-21.17901611328125,0.6670874357223511,-0.0,-0.0,-1.0,0.0957864457260153,1.0
24.303438186645508,-21.36166763305664,0.6597753763198853,-0.0,-0.0,-1.0,0.1533759456124758,1.0
23.206336975097656,-20.7611083984375,0.6850391626358032,-0.0,-0.0,-1.0,0.2347600002985736,2.0
23.59149932861328,-20.82433700561523,0.6805833578109741,-0.0,-0.0,-1.0,0.1610117524486478,1.0
23.89407730102539,-20.95766830444336,0.6745373010635376,-0.0,-0.0,-1.0,0.1045615786155501,2.0
24.8613224029541,-21.08838653564453,0.6618400812149048,-0.0267935545701489,0.1285701572757239,-0.991338398374436,0.1796025220493694,4.0
25.19851303100586,-21.05407333374023,0.6591178178787231,-0.0,-0.0,-1.0,0.1657208386294696,2.0
22.743083953857425,-20.380535125732425,0.6981972455978394,-0.0,-0.0,-1.0,0.1948572205898687,2.0
22.980485916137695,-20.53875732421875,0.6925498247146606,-0.0,-0.0,-1.0,0.1977769415561377,1.0
24.79120826721191,-20.019859313964844,0.6922503709793091,-0.4692583082950487,0.2313549439264035,-0.8522156593356401,0.186433718646949,3.0
23.760475158691406,-21.738969802856445,0.784858226776123,-0.0,-0.0,-1.0,0.1772525955974433,1.0
24.144855499267575,-21.48238945007324,0.7793128490447998,-0.0,-0.0,-1.0,0.1721160555389831,1.0
24.49159049987793,-21.443830490112305,0.7703838348388672,-0.0,-0.0,-1.0,0.2258125699975294,1.0
22.886335372924805,-20.763246536254883,0.8255908489227295,-0.0,-0.0,-1.0,0.1602955427332491,2.0
23.17705535888672,-20.953882217407227,0.8148252964019775,-0.0,-0.0,-1.0,0.1760343753365825,1.0
23.528770446777344,-20.901029586791992,0.80682373046875,-0.1719573156845016,0.9176159167693336,-0.3583457979021884,0.1295356423775292,7.0
24.77635955810547,-20.9697322845459,0.7714328765869141,-0.0,-0.0,-1.0,0.2077151480749675,1.0
25.08386611938477,-21.13051414489746,0.7593414783477783,-0.0,-0.0,-1.0,0.2275476901969618,2.0
22.722171783447266,-20.328054428100582,0.8375933170318604,-0.0,-0.0,-1.0,0.1113077577921431,1.0
24.13878631591797,-21.292875289916992,0.7219178676605225,-0.0,-0.0,-1.0,0.1350115590024929,1.0
24.46669578552246,-21.361299514770508,0.714468240737915,-0.0,-0.0,-1.0,0.1996377807335019,1.0
23.137678146362305,-20.90291404724121,0.7465229034423828,-0.0,-0.0,-1.0,0.2610346185580972,1.0
23.43317413330078,-20.813840866088867,0.7434172630310059,-0.9750962529332872,-0.0340119310429661,0.2191585865582075,0.2447485575993369,5.0
23.675437927246097,-20.94658470153809,0.7368063926696777,-0.0,-0.0,-1.0,0.2476347363748976,2.0
24.796066284179688,-21.081384658813477,0.713604211807251,0.085396462343247,-0.9893188168111626,-0.118134342689242,0.2599376999844877,8.0
25.053234100341797,-21.098024368286133,0.7081344127655029,-0.0,-0.0,-1.0,0.2606488615070995,2.0
22.86711883544922,-20.639562606811523,0.7556917667388916,-0.4918769785325954,-0.0657725819985898,-0.8681768284438853,0.1591303024013118,3.0
24.182432174682617,-19.605932235717773,0.753798246383667,-0.0,-0.0,-1.0,0.2608851693265281,2.0
23.781494140625,-21.639312744140625,0.6933040618896484,-0.0,-0.0,-1.0,0.1086736228926986,1.0
24.24289321899414,-21.497119903564453,0.684267520904541,-0.0,-0.0,-1.0,0.1047992412669649,2.0
23.076549530029297,-21.1446533203125,0.7228429317474365,-0.0,-0.0,-1.0,0.2011564805137856,1.0
23.21327209472656,-21.15685272216797,0.7191677093505859,-0.0,-0.0,-1.0,0.1744353812202959,2.0
24.050395965576172,-21.41542053222656,0.6914141178131104,-0.7797842600469745,-0.5660812523395984,0.2673733785039651,0.0414226914079887,3.0
24.3854923248291,-21.452926635742188,0.6814024448394775,-0.0,-0.0,-1.0,0.1574290797163052,1.0
25.127220153808594,-21.190673828125,0.6666762828826904,0.4634538834155953,-0.8710709679837778,0.1626218517998376,0.2262676002834115,4.0
22.914081573486328,-20.736373901367188,0.7361726760864258,-0.0,-0.0,-1.0,0.1136568397944469,2.0
23.446598052978516,-20.80524444580078,0.7214643955230713,-0.8726451599539706,-0.1187974996764194,0.4736851051907165,0.1911509850257658,4.0
23.56979751586914,-20.862533569335938,0.71700119972229,-0.0,-0.0,-1.0,0.1641196365934064,1.0
24.814472198486328,-21.059574127197266,0.6788043975830078,0.8432503951357342,-0.5236768643104804,0.1212077261950369,0.1681414744868628,5.0
25.204025268554688,-20.22888565063477,0.6876580715179443,-0.0,-0.0,-1.0,0.1077136578718504,1.0
24.276203155517575,-21.4564208984375,0.663792610168457,-0.0,-0.0,-1.0,0.1388059746112322,2.0
23.076961517333984,-21.214920043945312,0.6833951473236084,-0.0,-0.0,-1.0,0.1393359475055326,1.0
23.74483108520508,-21.35995864868164,0.6726679801940918,-0.0,-0.0,-1.0,0.0728072176118287,2.0
24.03559112548828,-21.321868896484375,0.6697893142700195,-0.0,-0.0,-1.0,0.0723040990026681,1.0
24.928714752197266,-21.09732437133789,0.6622834205627441,0.3283989560042764,-0.8557189254770623,0.3998740380115749,0.2239846837937881,6.0
25.055105209350582,-21.145557403564453,0.6593756675720215,-0.0,-0.0,-1.0,0.2194519005806086,2.0
22.948387145996097,-20.70731735229492,0.6950802803039551,-0.0,-0.0,-1.0,0.1406155758431549,1.0
23.196298599243164,-20.80786895751953,0.690399169921875,-0.0,-0.0,-1.0,0.2607637695120179,2.0
23.57465362548828,-20.94494247436523,0.6833200454711914,0.2954059642471991,0.239613070181614,-0.9248356031670296,0.2160446036166628,3.0
24.739551544189453,-21.024131774902344,0.6665759086608887,-0.0,-0.0,-1.0,0.1838542389517841,2.0
22.7191162109375,-20.560157775878903,0.7003369331359863,-0.0,-0.0,-1.0,0.1666463970917517,1.0
24.8785343170166,-21.032846450805664,0.8312541246414185,-0.0,-0.0,-1.0,0.1984099069617778,1.0
25.06360244750977,-21.123666763305664,0.8253484964370728,-0.0,-0.0,-1.0,0.1797661228375917,1.0
24.336578369140625,-19.6182804107666,0.8691970109939575,-0.991530904013091,-0.0297162833905417,0.1264255072698369,0.2408666309240694,3.0
23.650127410888672,-20.913209915161133,0.7174620628356934,-0.0,-0.0,-1.0,0.2013085404515411,2.0
24.638668060302734,-20.98732566833496,0.5892362594604492,-0.0,-0.0,-1.0,0.1948202890618884,2.0
24.803686141967773,-20.94303321838379,0.5903418064117432,-0.0,-0.0,-1.0,0.2024077200420542,1.0
23.43250274658203,-19.97896385192871,0.6039516925811768,-0.0,-0.0,-1.0,0.0965328634543706,1.0
23.116764068603516,-19.480466842651367,0.6110656261444092,-0.0,-0.0,-1.0,0.0490876293542595,1.0
23.388675689697266,-19.71662712097168,0.6083981990814209,-0.0,-0.0,-1.0,0.0804390697913032,1.0
24.35755157470703,-19.46697425842285,0.6170144081115723,-0.0,-0.0,-1.0,0.167536575079129,2.0
25.12839126586914,-21.8247013092041,0.8523929119110107,-0.0,-0.0,-1.0,0.2115781268939474,2.0
23.43916130065918,-20.929990768432617,0.871513843536377,-0.8286902367202763,0.4592016419142628,0.3200099117648351,0.1761321616499653,3.0
24.72798728942871,-21.12259864807129,0.8643832206726074,-0.0,-0.0,-1.0,0.175958922220062,1.0
23.872838973999023,-21.58454132080078,0.7369122505187988,-0.0,-0.0,-1.0,0.123783110179272,2.0
24.253833770751953,-21.431407928466797,0.7376203536987305,-0.0,-0.0,-1.0,0.1557560629330044,2.0
24.782318115234375,-21.089599609375,0.7406213283538818,0.088613995883053,-0.9652204894791828,-0.2459613108259201,0.3006450124750845,5.0
25.027664184570312,-21.05619430541992,0.7396712303161621,-0.0,-0.0,-1.0,0.2594563495498548,1.0
22.770689010620117,-20.565109252929688,0.757673978805542,-0.0,-0.0,-1.0,0.2522337440763214,1.0
22.97825813293457,-20.783184051513672,0.7536752223968506,-0.0,-0.0,-1.0,0.1978071023248406,1.0
23.404537200927734,-20.870853424072266,0.7509350776672363,-0.9113030577115706,0.4029657451614119,0.0845301439254083,0.2346785076490977,3.0
25.20342254638672,-19.78076171875,0.7613184452056885,-0.0,-0.0,-1.0,0.103777515333151,1.0
25.04305076599121,-21.79734230041504,0.8604716062545776,-0.0,-0.0,-1.0,0.1570192684596177,1.0
24.77893829345703,-21.677953720092773,0.8669620752334595,-0.0,-0.0,-1.0,0.1869851074230757,2.0
22.77712631225586,-21.149812698364254,0.9042552709579468,-0.0,-0.0,-1.0,0.0861379054480571,1.0
23.23185157775879,-21.206533432006836,0.8976062536239624,-0.0,-0.0,-1.0,0.1888620241158092,1.0
24.89825439453125,-21.07264518737793,0.8761194944381714,-0.0,-0.0,-1.0,0.1807415417046839,1.0
24.92320442199707,-21.039562225341797,1.0209527015686035,-0.796094483544933,-0.2906720040695661,-0.5307950257109698,0.1859880915105363,3.0
25.096750259399418,-21.707365036010746,0.7871831655502319,-0.0,-0.0,-1.0,0.2429586878303839,1.0
25.044727325439453,-21.19102668762207,0.797606348991394,-0.0,-0.0,-1.0,0.2391497311016563,2.0
22.9510498046875,-20.813230514526367,0.8203438520431519,0.468212705204825,-0.8764064819779468,-0.1126434242724278,0.1413522335170179,3.0
23.504467010498047,-20.89898109436035,0.8153778314590454,-0.7313552547891546,-0.6188835665512953,0.2865355516249934,0.149041685369021,6.0
23.57140350341797,-21.081937789916992,0.8116856813430786,-0.5176969352332095,-0.3487278445572098,-0.7812674149615001,0.2450089019453845,3.0
24.961334228515625,-21.049924850463867,0.8010603189468384,0.2928568227762842,-0.3206088762230983,-0.9008023256188576,0.1793389862660012,3.0
23.420116424560547,-21.464479446411133,0.7542903423309326,-0.0,-0.0,-1.0,0.1562886521581258,1.0
25.070831298828125,-21.641206741333008,0.7498383522033691,-0.0,-0.0,-1.0,0.1892600647729768,1.0
25.0208797454834,-21.134187698364254,0.7583651542663574,0.9582646592954,-0.1176479619130789,-0.2605528733350866,0.233308839825348,3.0
22.91885757446289,-20.81765937805176,0.7634119987487793,-0.0,-0.0,-1.0,0.1624389665368463,1.0
23.40977478027344,-20.753095626831055,0.7649765014648438,-0.3714027436064975,0.6446406973366842,-0.6682053377359686,0.2305586531605165,3.0
24.926795959472656,-20.996919631958008,0.7607696056365967,-0.0,-0.0,-1.0,0.1590633441427674,1.0
22.838768005371097,-20.391286849975582,0.7693500518798828,-0.0,-0.0,-1.0,0.2124730262134668,2.0
24.44243049621582,-19.510900497436523,0.784343957901001,-0.0,-0.0,-1.0,0.1834313938774711,1.0
23.051815032958984,-20.643630981445312,0.5250613689422607,-0.0,-0.0,-1.0,0.0652868968378342,1.0
23.784038543701172,-20.9310302734375,0.5174260139465332,-0.0,-0.0,-1.0,0.148956970787106,1.0
23.89236640930176,-21.06116104125977,0.5142416954040527,-0.0,-0.0,-1.0,0.0846539918126328,1.0
24.2186222076416,-19.50539779663086,0.5487889051437378,-0.0,-0.0,-1.0,0.1949873866817573,2.0
22.967201232910156,-20.593002319335938,0.68404221534729,0.3284471458206999,-0.9128527969287356,-0.2425329741326332,0.1495663687715872,5.0
23.121070861816406,-20.90465545654297,0.6714553833007812,-0.0765337594203896,0.9955633730696096,-0.054737134298785,0.2707278923559722,3.0
24.146474838256836,-21.3056640625,0.638864278793335,-0.0,-0.0,-1.0,0.0830334496827779,2.0
22.89176368713379,-20.43340301513672,0.690375566482544,-0.0,-0.0,-1.0,0.1719936074111435,2.0
23.74890899658203,-20.954200744628903,0.6578488349914551,-0.0,-0.0,-1.0,0.1019971417618761,1.0
23.26749038696289,-21.336315155029297,1.0552722215652466,-0.0,-0.0,-1.0,0.1376818302633756,1.0
23.00252914428711,-20.9749698638916,0.7976309061050415,-0.0,-0.0,-1.0,0.2482862682784416,2.0
23.442089080810547,-21.410329818725582,0.7927818298339844,-0.0,-0.0,-1.0,0.1845229354440361,1.0
23.65884780883789,-20.890222549438477,0.8002511262893677,-0.0,-0.0,-1.0,0.2548744834290256,1.0
24.939586639404297,-21.443334579467773,0.7943384647369385,-0.0,-0.0,-1.0,0.1944463410968966,2.0
25.167959213256836,-21.129369735717773,0.7990366220474243,-0.0,-0.0,-1.0,0.1770779703849348,1.0
22.824865341186523,-20.547954559326172,0.850159227848053,-0.0,-0.0,-1.0,0.2000676183081287,2.0
22.92757225036621,-21.02442169189453,0.8406829237937927,-0.0,-0.0,-1.0,0.2257283806771506,1.0
23.497337341308594,-21.287769317626953,0.8327051997184753,-0.0,-0.0,-1.0,0.1827023057298763,1.0
23.450422286987305,-21.56796646118164,0.827631413936615,-0.0,-0.0,-1.0,0.2013893104560407,1.0
23.586734771728516,-20.933330535888672,0.8389531373977661,-0.0,-0.0,-1.0,0.2560184260129194,2.0
24.52534866333008,-19.541748046875,0.8603429794311523,-0.0,-0.0,-1.0,0.172244959459661,2.0
25.005956649780273,-21.07318115234375,0.8284846544265747,-0.0,-0.0,-1.0,0.1132984914682619,2.0
25.06177520751953,-21.3656005859375,0.8225265145301819,-0.0,-0.0,-1.0,0.2030335043464845,1.0
23.37571144104004,-21.399791717529297,1.068259358406067,-0.0,-0.0,-1.0,0.1922199558368139,1.0
22.74262809753418,-20.91962432861328,0.9055650234222412,-0.0,-0.0,-1.0,0.124588253922095,1.0
22.91183280944824,-20.953384399414062,0.9057869911193848,-0.0,-0.0,-1.0,0.1323308087004322,2.0
23.595752716064453,-20.848613739013672,0.9092629551887512,-0.7423771275979344,-0.2145523874091446,-0.6346995143187653,0.1570762342892058,3.0
23.453353881835938,-21.25511932373047,0.9042890667915344,-0.0,-0.0,-1.0,0.2018603407612319,1.0
24.830541610717773,-20.953292846679688,0.9119962453842164,-0.0,-0.0,-1.0,0.2395833179873644,1.0
25.054370880126953,-21.034988403320312,0.9117300510406494,-0.0,-0.0,-1.0,0.1301482456194424,2.0
23.205570220947266,-20.62527847290039,0.79305499792099,-0.0,-0.0,-1.0,0.1031053673602658,1.0
22.79732322692871,-20.77031707763672,0.7861328721046448,-0.0,-0.0,-1.0,0.1235814737758005,1.0
23.37828826904297,-20.981735229492188,0.7943810820579529,0.1076524755031625,-0.1439885647999056,-0.9837063778002582,0.2292257018741129,4.0
24.785789489746097,-20.948863983154297,0.8160508871078491,-0.0,-0.0,-1.0,0.1965460882669771,1.0
23.278602600097656,-21.432632446289062,0.7910930514335632,-0.0,-0.0,-1.0,0.2381039807730238,1.0
24.865419387817383,-21.207984924316406,0.816171407699585,-0.0,-0.0,-1.0,0.1779019079919344,1.0
25.00312232971191,-21.618873596191406,0.8164891004562378,-0.0,-0.0,-1.0,0.1919649538162856,2.0
23.792322158813477,-19.6448917388916,0.629518449306488,-0.0,-0.0,-1.0,0.0863247107925133,1.0
23.96832847595215,-19.885236740112305,0.6323139667510986,-0.0,-0.0,-1.0,0.0894282821653023,1.0
24.23202133178711,-20.44875144958496,0.6355035305023193,-0.0,-0.0,-1.0,0.2315755237663495,1.0
24.06636619567871,-20.65778160095215,0.6309523582458496,-0.0,-0.0,-1.0,0.0517463124666077,1.0
23.5089168548584,-20.78577423095703,0.6182701587677002,-0.0,-0.0,-1.0,0.1319153509926316,2.0
24.298757553100582,-20.934667587280273,0.6346892714500427,-0.0,-0.0,-1.0,0.1255187659411576,1.0
24.230798721313477,-21.368989944458008,0.631182074546814,-0.869773657232236,0.0253446720635879,-0.4927995868330757,0.1183588673940229,3.0
24.951181411743164,-21.733606338500977,0.6447739601135254,-0.0,-0.0,-1.0,0.1397957360582139,2.0
24.699546813964844,-21.709745407104492,0.6395504474639893,-0.0,-0.0,-1.0,0.1143762433406825,1.0
23.54826545715332,-21.197494506835938,1.0625360012054443,-0.0,-0.0,-1.0,0.1681033730404628,1.0
23.467180252075195,-21.06863784790039,1.0619115829467771,-0.0,-0.0,-1.0,0.1010181691781345,1.0
23.53974723815918,-21.44350814819336,1.062298059463501,-0.0,-0.0,-1.0,0.1484968157341538,2.0
24.183849334716797,-19.445087432861328,0.7069600224494934,-0.0,-0.0,-1.0,0.0812382773188596,1.0
24.578947067260746,-19.834400177001953,0.6804237961769104,-0.0997475973200247,-0.979542656705242,-0.174775857954463,0.1448302016191401,3.0
24.34796905517578,-20.14764404296875,0.6886434555053711,-0.0,-0.0,-1.0,0.2331865303640621,1.0
23.2338924407959,-20.740196228027344,0.741047739982605,-0.0,-0.0,-1.0,0.2139814872328348,1.0
24.714675903320312,-20.13267517089844,0.6691057682037354,-0.0,-0.0,-1.0,0.2887733861382363,2.0
23.42442321777344,-20.780773162841797,0.7301331162452698,-0.8875191854937953,-0.2817739831619772,-0.3645725137657308,0.2403105111701823,4.0
25.093820571899418,-20.201229095458984,0.647841215133667,-0.0,-0.0,-1.0,0.1832781879908166,1.0
23.887046813964844,-21.31335067749023,0.6978583931922913,-0.0,-0.0,-1.0,0.1058049491347094,1.0
24.96891975402832,-21.14009475708008,0.6418729424476624,-0.0,-0.0,-1.0,0.1704228508503832,2.0
24.523822784423828,-21.085426330566406,0.6665339469909668,-0.0,-0.0,-1.0,0.1418218451178076,1.0
24.14788055419922,-21.400634765625,0.6825711131095886,-0.0,-0.0,-1.0,0.0871262850659114,2.0
23.31083297729492,-19.982421875,0.6073036193847656,-0.4033518779900014,-0.5544249792832309,-0.7279561833439755,0.0792636278459653,3.0
23.849863052368164,-20.765239715576172,0.5675099492073059,-0.3391549552487287,-0.3792041067465582,-0.8609170469660695,0.091368941162823,3.0
24.800905227661133,-20.00051498413086,0.5326531529426575,-0.0,-0.0,-1.0,0.2216892344020523,1.0
24.033546447753903,-20.776622772216797,0.5581408739089966,-0.0,-0.0,-1.0,0.0685646187390712,2.0
25.102783203125,-20.548568725585938,0.5087538957595825,-0.0,-0.0,-1.0,0.1231656666582583,2.0
23.767541885375977,-21.71377182006836,1.0920625925064087,-0.0,-0.0,-1.0,0.1230952955371126,1.0
24.724937438964844,-20.388124465942383,1.0252217054367063,-0.0,-0.0,-1.0,0.1740620909085495,1.0
24.785419464111328,-21.53672790527344,1.0237072706222534,-0.0,-0.0,-1.0,0.155799557965607,1.0
25.06140899658203,-21.053035736083984,1.0040994882583618,-0.0,-0.0,-1.0,0.1155802142738522,1.0
22.759103775024418,-21.06974983215332,1.0505229234695437,-0.0,-0.0,-1.0,0.1823970559374363,1.0
23.21196937561035,-21.534425735473633,1.0215785503387451,-0.0,-0.0,-1.0,0.1476159929020313,2.0
23.75709342956543,-21.68889808654785,0.987462282180786,-0.0,-0.0,-1.0,0.0670526196852578,2.0
24.68218040466309,-21.627973556518555,0.9298808574676514,0.791130657746296,0.185079903719489,-0.5829731654313927,0.2522952115456695,3.0
24.896709442138672,-21.13886833190918,0.91740083694458,-0.0,-0.0,-1.0,0.1887145740906723,2.0
24.80176544189453,-21.643964767456055,0.9223570227622986,-0.0,-0.0,-1.0,0.1452735314745671,1.0
22.771169662475582,-20.411762237548828,0.8094024658203125,-0.0,-0.0,-1.0,0.1347204830447409,1.0
22.98143196105957,-20.84928321838379,0.7949039936065674,-0.0,-0.0,-1.0,0.1428116223778979,2.0
23.34722900390625,-21.09599494934082,0.7751706838607788,-0.0,-0.0,-1.0,0.1929004489304773,1.0
23.495609283447266,-20.90188789367676,0.77030348777771,0.4690734738624758,0.8112734630220572,-0.3490063671550815,0.1796141595893013,4.0
24.455299377441406,-21.696622848510746,0.7158623933792114,-0.0,-0.0,-1.0,0.135793828250811,2.0
24.568099975585938,-21.70856285095215,0.7102560997009277,-0.0,-0.0,-1.0,0.2311945923434057,1.0
24.359418869018555,-19.527915954589844,0.7436227798461914,-0.0,-0.0,-1.0,0.1519209011916691,2.0
24.93233871459961,-21.090147018432617,0.698955774307251,0.987060943424199,-0.1593168509914233,-0.0181338070108467,0.246367993312316,4.0
24.94399642944336,-21.163007736206055,0.6976016759872437,-0.0,-0.0,-1.0,0.167783102551055,1.0
22.870786666870117,-20.615171432495117,0.7517658472061157,-0.0,-0.0,-1.0,0.1912265654112963,2.0
23.230186462402344,-20.92116928100586,0.7180581092834473,-0.0,-0.0,-1.0,0.2442632703614761,1.0
23.396957397460938,-20.87812614440918,0.7038886547088623,-0.9113030577115706,0.4029657451614119,0.0845301439254083,0.2296319768382962,3.0
23.559934616088867,-20.90315055847168,0.6894463300704956,0.2954059642471991,0.239613070181614,-0.9248356031670296,0.1789867077990618,3.0
23.913837432861328,-20.95511245727539,0.6579478979110718,-0.0,-0.0,-1.0,0.0896252726439563,2.0
24.411375045776367,-21.223941802978516,0.6117690801620483,-0.0,-0.0,-1.0,0.0497003681421111,1.0
24.04364967346191,-19.38537216186523,0.6592999696731567,-0.0,-0.0,-1.0,0.1103209130747558,2.0
24.287166595458984,-19.581443786621097,0.6360904574394226,0.7036491338050619,0.0004796283384775,-0.7105474413802662,0.2354418059469288,3.0
24.59883499145508,-20.251054763793945,0.6029163599014282,-0.0,-0.0,-1.0,0.1915954384464225,2.0
24.39922142028809,-19.641942977905273,0.6256234645843506,-0.0,-0.0,-1.0,0.2023096426658513,1.0
24.80032730102539,-20.114784240722656,0.5859706997871399,-0.0,-0.0,-1.0,0.2109611344167606,2.0
25.166290283203125,-20.27587127685547,0.5517696738243103,-0.0,-0.0,-1.0,0.1871843597413437,1.0
23.305686950683594,-20.07923126220703,0.5867555737495422,-0.0,-0.0,-1.0,0.1015674185745826,1.0
23.437162399291992,-20.329944610595703,0.5737634897232056,-0.0,-0.0,-1.0,0.10464768435391,2.0
23.695331573486328,-20.195465087890625,0.5577080845832825,-0.0,-0.0,-1.0,0.0565240373334485,1.0
23.054786682128903,-19.59126663208008,0.5678212642669678,-0.0,-0.0,-1.0,0.0616733192834364,2.0
23.375707626342773,-19.965747833251953,0.5492401123046875,-0.0,-0.0,-1.0,0.0704128732749787,2.0
24.173553466796875,-19.562538146972656,0.5328950881958008,-0.0,-0.0,-1.0,0.141345248355046,2.0
24.720075607299805,-19.96051788330078,0.5042862892150879,-0.0,-0.0,-1.0,0.2172189408740255,2.0
25.17377281188965,-19.916675567626953,0.4884290695190429,-0.213381454002974,-0.9578877132325913,-0.1921444350628297,0.1814314143849718,5.0
24.272911071777344,-19.508068084716797,0.530766487121582,-0.0,-0.0,-1.0,0.1598776342205476,1.0
25.09306526184082,-20.181495666503903,0.5091278553009033,-0.0,-0.0,-1.0,0.1271256711055322,2.0
25.19385528564453,-19.932058334350582,0.5156588554382324,-0.311845495491287,-0.9072296774464754,-0.2822883265424872,0.1787064808606874,4.0
24.41909408569336,-21.585914611816406,0.6856377124786377,-0.7331451107681094,0.5947229307634401,-0.3298528189677345,0.1785967682952231,3.0
24.58226776123047,-21.617433547973633,0.6847953796386719,-0.0,-0.0,-1.0,0.203072819735277,2.0
23.20326042175293,-21.15839385986328,0.6932027339935303,-0.0,-0.0,-1.0,0.1488212091491272,2.0
24.820446014404297,-21.09853744506836,0.6942195892333984,0.4787828352106671,-0.8546587907016141,-0.2008117232237439,0.174209940074163,6.0
25.033510208129883,-21.189502716064453,0.6919167041778564,-0.0,-0.0,-1.0,0.2126938028400309,2.0
22.819664001464844,-20.650402069091797,0.7016592025756836,-0.0,-0.0,-1.0,0.1797629679455222,2.0
23.17304801940918,-20.858179092407227,0.698749303817749,-0.0,-0.0,-1.0,0.2438905792696674,1.0
23.59680938720703,-20.913787841796875,0.6984686851501465,-0.8922604812744109,-0.2880462878868345,0.3477075920807181,0.1999254751565937,4.0
24.928714752197266,-21.086244583129883,0.6941847801208496,0.987060943424199,-0.1593168509914233,-0.0181338070108467,0.1942083161015999,4.0
24.360824584960938,-19.600799560546875,0.7235255241394043,-0.0,-0.0,-1.0,0.201553052225556,2.0
24.22245407104492,-21.45489501953125,0.5215445756912231,-0.0,-0.0,-1.0,0.1867091691434468,1.0
24.42355155944824,-21.538402557373047,0.5498353242874146,-0.0,-0.0,-1.0,0.1275913325978886,1.0
25.157888412475582,-21.836181640625,0.65239417552948,-0.0,-0.0,-1.0,0.2208070588914713,1.0
24.07898712158203,-21.252296447753903,0.5027693510055542,-0.0,-0.0,-1.0,0.0917504962932037,1.0
24.674306869506836,-21.07242202758789,0.5909601449966431,0.7384790503934708,-0.5478935166396295,0.3930157586588834,0.2483393587089429,4.0
24.884300231933594,-21.128318786621097,0.6206101179122925,0.3136550066153013,-0.8778227348977843,0.3620052249923053,0.2261388877802575,4.0
23.55686378479004,-20.570358276367188,0.4333448410034179,-0.0,-0.0,-1.0,0.0516618159661658,1.0
23.77754592895508,-20.870227813720703,0.4626532793045044,-0.0,-0.0,-1.0,0.0970887236426796,1.0
23.49048614501953,-20.23417282104492,0.4269957542419433,-0.0,-0.0,-1.0,0.0839459971773816,1.0
23.41946792602539,-19.997772216796875,0.4189232587814331,-0.0,-0.0,-1.0,0.0545167032838968,1.0
23.281232833862305,-19.490169525146484,0.4036169052124023,-0.0,-0.0,-1.0,0.0684303828912932,1.0
23.360576629638672,-19.675922393798828,0.4134836196899414,-0.0,-0.0,-1.0,0.055860252689633,1.0
24.0041446685791,-19.369380950927734,0.5112794637680054,-0.0,-0.0,-1.0,0.1550154758248772,1.0
23.13562774658203,-21.350086212158203,0.9486095905303956,-0.0,-0.0,-1.0,0.2586579921738984,1.0
24.529830932617188,-21.674034118652344,0.9145718812942504,0.6875927709493178,-0.2955260033081064,-0.6632349227136457,0.2656922124913681,3.0
22.842594146728516,-21.153575897216797,0.9570087194442748,-0.0,-0.0,-1.0,0.1899263006944288,1.0
23.261310577392575,-21.28030014038086,0.946991205215454,-0.0,-0.0,-1.0,0.2000293432425074,2.0
24.742671966552734,-21.31245803833008,0.9146883487701416,-0.0,-0.0,-1.0,0.2081953507070426,1.0
23.563705444335938,-20.847991943359375,0.946536898612976,-0.7423771275979344,-0.2145523874091446,-0.6346995143187653,0.1615152826749435,3.0
24.325532913208008,-19.51792907714844,0.9482661485671996,-0.356070746585551,0.9166690069512884,0.1814705351315964,0.2445832585861983,4.0
23.164369583129883,-21.373310089111328,0.999281883239746,-0.0,-0.0,-1.0,0.1610438085154204,2.0
22.79945182800293,-21.02816390991211,1.002260684967041,-0.0,-0.0,-1.0,0.1992926953515389,1.0
24.766979217529297,-20.968257904052734,1.0006763935089111,-0.0,-0.0,-1.0,0.1784081938610905,1.0
23.130857467651367,-21.362146377563477,1.081995964050293,0.6241749883838268,-0.4576065513546954,-0.6332470513419798,0.1232913101537801,3.0
24.10285186767578,-21.04081344604492,0.5973811149597168,-0.0,-0.0,-1.0,0.0534837422674595,1.0
23.432228088378903,-20.576202392578125,0.6078344583511353,-0.0,-0.0,-1.0,0.1926976236018699,1.0
23.67436790466309,-20.756322860717773,0.6039056777954102,-0.0323421007247137,0.459631804857372,-0.887520474402854,0.1412427415126208,6.0
23.9664306640625,-20.747873306274418,0.6039310693740845,-0.0,-0.0,-1.0,0.0733336612945907,1.0
24.66382598876953,-20.95023727416992,0.5985440015792847,-0.0,-0.0,-1.0,0.1903077728737641,2.0
23.17975425720215,-20.310094833374023,0.6134563684463501,0.5757174120630864,-0.7648512902567447,-0.2890535681149339,0.0896130696712992,4.0
23.339336395263672,-20.35355567932129,0.6125997304916382,-0.0,-0.0,-1.0,0.0759096960088497,2.0
23.10747718811035,-19.88179397583008,0.6225154399871826,-0.0,-0.0,-1.0,0.0648723106172623,2.0
24.28235626220703,-20.18045425415039,0.6160861253738403,-0.0,-0.0,-1.0,0.1782301057557566,1.0
22.974103927612305,-19.473527908325195,0.6309994459152222,-0.0,-0.0,-1.0,0.0546238373687574,2.0
24.280990600585938,-19.54417610168457,0.629999577999115,0.9789766685751724,0.1929055876169314,0.066273046192424,0.1946239153556158,5.0
25.18989372253418,-19.8510799407959,0.6219844818115234,-0.0,-0.0,-1.0,0.0821304987911253,1.0
25.15946578979492,-21.82045555114746,0.8749665021896362,-0.0,-0.0,-1.0,0.2115781268939474,2.0
24.83742904663086,-21.18528175354004,0.8818110227584839,-0.0,-0.0,-1.0,0.2367535683532027,2.0
25.123275756835938,-21.225522994995117,0.8822489976882935,-0.0,-0.0,-1.0,0.2467827394693853,2.0
23.753398895263672,-21.475061416625977,0.7048317790031433,-0.0,-0.0,-1.0,0.0708779468087101,1.0
23.83620834350586,-21.565750122070312,0.7032435536384583,-0.0,-0.0,-1.0,0.100837504684703,1.0
23.13500213623047,-20.71390914916992,0.717947244644165,-0.0,-0.0,-1.0,0.144119006062335,2.0
23.352577209472656,-20.93091583251953,0.7143266201019287,-0.0,-0.0,-1.0,0.2580798335658905,2.0
24.163494110107425,-21.38192367553711,0.7069092392921448,-0.0,-0.0,-1.0,0.1355918019910608,2.0
24.444137573242188,-21.46198081970215,0.7056331038475037,-0.0,-0.0,-1.0,0.2050703454431689,1.0
22.79055976867676,-20.367815017700195,0.7236884236335754,-0.0,-0.0,-1.0,0.1949207705238612,2.0
22.999332427978516,-20.601137161254883,0.7197971343994141,-0.1306937963834437,-0.9856530547370718,-0.1068044347129919,0.2129532801225242,3.0
23.63705825805664,-20.856853485107425,0.7160485982894897,-0.0,-0.0,-1.0,0.1675668289664341,1.0
23.7445125579834,-20.89844512939453,0.7154073715209961,-0.0,-0.0,-1.0,0.1437081018537176,1.0
24.746864318847656,-21.164005279541016,0.7113377451896667,-0.0,-0.0,-1.0,0.2227625711774459,2.0
24.40976333618164,-19.61660385131836,0.7396288514137268,-0.0,-0.0,-1.0,0.1420823170389211,2.0
23.70666122436523,-20.74079132080078,0.6024060249328613,-0.1084207030759352,0.1302709003188461,-0.9855325685509522,0.1478403040893075,3.0
23.301355361938477,-19.88608169555664,0.6133735179901123,-0.0,-0.0,-1.0,0.0360351763521597,1.0
23.46065139770508,-20.19232177734375,0.6096278429031372,-0.0,-0.0,-1.0,0.164111138843892,1.0
24.67919158935547,-21.053695678710938,0.6067966818809509,0.910863901407608,0.1964207029838524,-0.3629681260824989,0.2504273773325978,4.0
25.14408493041992,-21.112499237060547,0.6103634834289551,0.8434402948787433,-0.251052761279701,0.4749536609277749,0.1840387571273558,3.0
23.077363967895508,-19.443618774414062,0.618777871131897,-0.0,-0.0,-1.0,0.0532283331891421,1.0
23.245113372802734,-19.60506820678711,0.6177689433097839,-0.0,-0.0,-1.0,0.0864339918765655,1.0
24.991498947143555,-20.589702606201172,0.6184104681015015,-0.0,-0.0,-1.0,0.2673082760701361,2.0
24.772228240966797,-19.965274810791016,0.6275594830513,-0.0,-0.0,-1.0,0.1431001055813958,1.0
24.98543357849121,-20.02471160888672,0.6286550760269165,-0.0,-0.0,-1.0,0.2009327045045466,1.0
24.423748016357425,-19.545625686645508,0.6315401196479797,-0.0,-0.0,-1.0,0.2227012426882672,1.0
24.90519142150879,-19.93253517150879,0.629516065120697,-0.0,-0.0,-1.0,0.1471347907412037,2.0
23.200119018554688,-19.893394470214844,0.6349051594734192,-0.0,-0.0,-1.0,0.0981655486837183,2.0
23.35236167907715,-20.332111358642575,0.6257074475288391,-0.0,-0.0,-1.0,0.1277805864804532,2.0
23.655929565429688,-20.740726470947266,0.6172888875007629,0.1043776938514188,0.3893430108378424,-0.9151597220911678,0.1795488416365566,5.0
23.137962341308594,-19.52991104125977,0.6425904035568237,-0.0,-0.0,-1.0,0.1081824090829552,1.0
24.675609588623047,-21.05746841430664,0.6113506555557251,0.910863901407608,0.1964207029838524,-0.3629681260824989,0.2552794299905356,4.0
25.15270614624023,-21.08218765258789,0.6110758185386658,0.8733912006958493,-0.2233594481269959,0.4327798140850221,0.186847041828839,4.0
24.201318740844727,-19.41318130493164,0.6466452479362488,-0.0,-0.0,-1.0,0.0792817900899215,1.0
24.866323471069336,-19.92914581298828,0.6361260414123535,-0.0006548717718371,0.178720802991654,-0.9838996116072922,0.1878718210549351,4.0
23.19372940063477,-19.381542205810547,0.5649958848953247,-0.0,-0.0,-1.0,0.0603325505431517,1.0
23.550846099853516,-19.75451278686523,0.5617085099220276,-0.0,-0.0,-1.0,0.05477410588177,2.0
24.243816375732425,-19.684383392333984,0.5708694458007812,-0.0,-0.0,-1.0,0.1997253251058581,1.0
24.720672607421875,-20.063396453857425,0.5684568881988525,-0.0,-0.0,-1.0,0.2212098325555664,2.0
24.820274353027344,-20.23548126220703,0.566053569316864,-0.0914940891869864,0.7844908483635263,0.6133538460609165,0.1578164476372919,3.0
24.957664489746097,-20.194499969482425,0.568342924118042,-0.0,-0.0,-1.0,0.1522132349310386,1.0
22.744964599609375,-20.913454055786133,0.8244585990905762,-0.0,-0.0,-1.0,0.0927455717080393,2.0
23.2386474609375,-20.795372009277344,0.8191498517990112,-0.0,-0.0,-1.0,0.161974422291604,1.0
23.40753936767578,-21.182884216308594,0.8039379119873047,-0.0,-0.0,-1.0,0.1558120942296736,1.0
23.28388214111328,-21.574308395385746,0.7940202951431274,-0.2385091825940806,0.9604551563009645,0.1436637134185008,0.1882972314437576,3.0
23.98348617553711,-19.367807388305664,0.8496222496032715,-0.6223892827339488,-0.6782950597566101,-0.3905731591490861,0.0815350191073248,5.0
24.267925262451172,-19.532262802124023,0.8392826318740845,-0.0,-0.0,-1.0,0.2098566641960419,2.0
24.849437713623047,-20.48297882080078,0.797839343547821,-0.0,-0.0,-1.0,0.1816084508431376,2.0
24.759754180908203,-21.026321411132812,0.78216552734375,-0.1911691918444341,0.4431758448815985,-0.8758136277787802,0.2205696296336833,3.0
24.859283447265625,-21.1572208404541,0.7758550047874451,0.8101597803960107,0.543748005245831,-0.2190416330743247,0.2451278539983487,3.0
24.95365524291992,-21.706703186035156,0.7559340596199036,-0.0,-0.0,-1.0,0.2244551397220947,1.0
25.11968994140625,-19.8305721282959,0.8133013844490051,-0.0,-0.0,-1.0,0.1445989488654813,2.0
22.761131286621097,-20.822555541992188,0.7870721817016602,-0.0,-0.0,-1.0,0.0915424138565137,1.0
22.865970611572266,-20.420759201049805,0.7968505620956421,0.1742122381442122,-0.5810312952868238,-0.7950174400465059,0.2284110116730042,3.0
