x,y,z,nx,ny,nz,curvature,density
19.700435638427734,13.10059928894043,-0.9720792770385742,-0.0,-0.0,-1.0,0.0690914602711964,1.0
19.333663940429688,12.64927101135254,-0.9530603885650636,0.5352771906428554,0.6479972331520187,-0.541828307681336,0.1526673998698438,5.0
19.368480682373047,13.07594871520996,-1.0097715854644775,-0.0174690619619269,-0.162722887482114,-0.9865171533043172,0.0569594909061579,4.0
18.85893440246582,10.97415542602539,-0.8353071212768555,-0.0,-0.0,-1.0,0.0596142151248251,1.0
20.079090118408203,11.210538864135742,-0.6072709560394287,-0.0,-0.0,-1.0,0.1601712920065458,1.0
19.208637237548828,11.010869979858398,-0.764472484588623,-0.0,-0.0,-1.0,0.2827145388137543,2.0
19.93478012084961,12.58473014831543,-1.033310055732727,-0.0,-0.0,-1.0,0.0873564711990221,2.0
18.86902236938477,12.972362518310549,-0.9293476343154908,-0.0,-0.0,-1.0,0.0600076538902974,1.0
18.584247589111328,12.85626983642578,-0.9603921175003052,-0.2194279115679927,0.1783897768130541,-0.9591811503326666,0.0341687848013004,4.0
18.486345291137695,12.649667739868164,-0.9478000402450562,-0.0,-0.0,-1.0,0.0514703675855144,1.0
20.198881149291992,10.973196983337402,-0.7028094530105591,-0.8649761348717392,0.4622069477981424,-0.1953996507404042,0.0975958563441569,6.0
19.28872299194336,11.10918426513672,-0.5958436727523804,-0.0,-0.0,-1.0,0.1402296820453494,1.0
19.85641098022461,12.819450378417969,-0.9772659540176392,-0.0,-0.0,-1.0,0.0648928428682862,2.0
19.524124145507812,12.573882102966309,-0.9727951288223268,-0.0,-0.0,-1.0,0.1001228079899899,1.0
18.065929412841797,12.888053894042969,-0.9235635995864868,-0.0,-0.0,-1.0,0.0250283013508567,2.0
20.20305824279785,12.101377487182615,-0.9507342576980592,-0.083310001549563,-0.9379900201258138,-0.3365028466241964,0.1191005239190016,3.0
19.7596435546875,12.887237548828123,-0.9572497606277466,-0.0,-0.0,-1.0,0.0718700280766295,1.0
19.379459381103516,12.655385971069336,-0.9726752042770386,-0.0,-0.0,-1.0,0.1235404906635816,2.0
19.15683364868164,11.072521209716797,-0.6856576204299927,-0.0,-0.0,-1.0,0.1468755466530594,2.0
18.122447967529297,12.836871147155762,-0.9255255460739136,-0.4045648329773863,0.9091617254369426,0.0987534957280037,0.0257307913948007,4.0
19.025989532470703,13.08377456665039,-0.9645962715148926,-0.0,-0.0,-1.0,0.0617996769732027,1.0
17.980777740478516,11.225858688354492,-0.8793966770172119,-0.0,-0.0,-1.0,0.0089083237624103,1.0
19.021738052368164,10.91800594329834,-0.9094438552856444,-0.0,-0.0,-1.0,0.1443517406050729,2.0
18.627410888671875,11.006109237670898,-0.9532780647277832,-0.0,-0.0,-1.0,0.0278515964627095,1.0
18.716615676879883,12.397968292236328,-0.9155545234680176,-0.0,-0.0,-1.0,0.0608202016800454,2.0
18.801570892333984,12.599722862243652,-1.013603925704956,-0.0,-0.0,-1.0,0.0437814709930927,2.0
18.519407272338867,12.543458938598633,-0.9914402961730956,-0.1195442247100407,0.7526905808560274,-0.6474303575127532,0.0386984707783774,3.0
19.083662033081055,12.73623275756836,-0.9377083778381348,-0.3538734341025719,0.8696823093204255,-0.3441311864558987,0.0915548680625849,3.0
19.69504165649414,12.66311264038086,-1.045455813407898,-0.0,-0.0,-1.0,0.0498177068486397,1.0
19.071746826171875,12.65822410583496,-0.9887596368789672,-0.6579974154492024,-0.0280578455183213,-0.7524972814349831,0.0846295124255911,5.0
20.169652938842773,12.050368309020996,-0.9987834692001344,0.2384982302137868,-0.0383754257453128,-0.9703844191266456,0.0505204409913239,3.0
19.90200424194336,11.936315536499023,-0.9890426397323608,-0.0,-0.0,-1.0,0.0275917770744136,2.0
18.162498474121097,12.92292022705078,-1.0081160068511963,-0.0,-0.0,-1.0,0.0174658582394087,1.0
17.93729591369629,11.58014678955078,-0.9422376155853271,-0.0,-0.0,-1.0,0.0085152207884812,2.0
18.371501922607425,10.921019554138184,-0.9091267585754396,-0.0,-0.0,-1.0,0.0060680276681171,1.0
19.365739822387695,11.551400184631348,-0.9688109159469604,-0.0,-0.0,-1.0,0.0446782359963787,2.0
20.15841293334961,10.744354248046877,-0.9936662912368774,-0.0,-0.0,-1.0,0.0923151733018089,1.0
19.111745834350582,11.016871452331545,-0.7208189964294434,-0.6415202956957263,0.3068409786421846,-0.703064950083827,0.1647329161150552,5.0
18.86313247680664,10.740484237670898,-0.9218450784683228,-0.0,-0.0,-1.0,0.0529093558366977,2.0
18.997718811035156,11.67330551147461,-0.9470863342285156,-0.1956729179252449,0.9109531288487916,-0.3631480500170934,0.0878878929618096,4.0
19.162334442138672,10.959794044494627,-0.822990894317627,-0.8110849788022131,0.4951466682822608,-0.3114015639819275,0.2725003228343327,4.0
19.535594940185547,11.401397705078123,-0.9053897857666016,-0.0,-0.0,-1.0,0.0178146983976034,1.0
19.332199096679688,11.042403221130373,-0.6132024526596069,-0.3452384934979968,0.0100181203234251,-0.9384615175234512,0.1321415231567719,4.0
19.580074310302734,13.077557563781738,-1.061728835105896,-0.0,-0.0,-1.0,0.105943221217939,1.0
19.27577781677246,12.655648231506348,-0.9426993131637572,-0.153774531891726,0.9059896790350443,-0.3943806471208465,0.1712103246334106,3.0
19.22374153137207,10.934391975402832,-0.7390336990356445,-0.0,-0.0,-1.0,0.1865921610911383,1.0
19.99974822998047,12.400629043579102,-0.9728822708129884,0.0813681801884439,-0.5920252874832682,-0.8018012710348961,0.0423312500268297,4.0
19.330791473388672,12.584131240844728,-0.9502804279327391,0.7782372726500442,-0.2263195422940959,-0.5857697604298228,0.1562759833977874,5.0
19.793607711791992,11.883983612060549,-0.8947508335113525,0.3163809814422197,-0.9391552078712156,-0.1337556358066162,0.0343132598108477,3.0
19.7115421295166,10.709829330444336,-0.8829565048217773,-0.0,-0.0,-1.0,0.0195677231207663,1.0
19.449350357055664,12.630495071411133,-0.9826841354370116,-0.0,-0.0,-1.0,0.0920345872454204,1.0
20.176219940185547,11.00176239013672,-0.8416140079498291,-0.6029005224315318,0.6035486129756134,0.5217662616794995,0.1717716973831486,9.0
18.704118728637695,12.3565092086792,-0.9776909351348876,0.0389624859284817,-0.9933218841339888,-0.1085981546379839,0.0580141391890007,3.0
19.233570098876953,11.091182708740234,-0.7122335433959961,-0.0395624325327232,-0.1646415803091694,-0.9855597211561524,0.1580649972780419,3.0
19.73197555541992,12.838735580444336,-1.0029349327087402,-0.0,-0.0,-1.0,0.0543808334152415,2.0
19.055400848388672,13.005821228027344,-0.9746663570404052,0.3061911606943155,0.9178251771772816,0.2526735388839902,0.031339251785475,3.0
20.044527053833008,12.555858612060549,-1.0181760787963867,0.1304161889170631,0.5579536716114681,-0.8195604419465542,0.0935303705603078,3.0
19.99612808227539,12.910052299499512,-1.0812911987304688,-0.0,-0.0,-1.0,0.0860901780560079,1.0
20.115997314453125,12.205229759216309,-0.9704930782318116,-0.6996578946192693,-0.3495118740310646,-0.6231534966669329,0.0560332232696827,3.0
20.00693130493164,11.876062393188477,-0.9505293369293212,-0.0,-0.0,-1.0,0.0205846960299165,1.0
19.70236587524414,11.54068374633789,-0.8848965167999268,-0.0,-0.0,-1.0,0.0380494620843697,1.0
20.04121971130371,11.183134078979492,-0.7131423950195312,-0.0,-0.0,-1.0,0.1469177773687114,1.0
20.147701263427734,11.083106994628906,-0.8923299312591553,-0.1770840732440709,0.290413712787688,-0.9403728550038856,0.2495774284794598,4.0
18.1641788482666,12.822469711303713,-0.9290826320648192,0.0789411097260801,-0.2250560300511543,-0.9711426695047586,0.0237933076658914,6.0
19.487289428710938,11.97502899169922,-0.8990042209625244,-0.0,-0.0,-1.0,0.0704978505148357,2.0
19.01287841796875,11.042798042297363,-0.9154040813446044,-0.0,-0.0,-1.0,0.1268662698317667,1.0
18.951566696166992,13.093954086303713,-0.9330711364746094,-0.0,-0.0,-1.0,0.0428074218600202,1.0
18.718746185302734,12.501535415649414,-0.930413007736206,-0.0,-0.0,-1.0,0.0559177027891062,2.0
19.441919326782227,11.88991641998291,-0.8640589714050293,-0.013817718856592,-0.000674805731048,-0.9999043030624608,0.0792051055179582,3.0
18.95271873474121,10.91334342956543,-0.8597478866577148,0.2049931297616761,0.629395883126109,-0.7495589630272042,0.1122993109714179,3.0
19.465740203857425,12.775218963623049,-1.028489351272583,-0.0,-0.0,-1.0,0.0892363152636385,2.0
18.00311851501465,12.917346954345703,-0.9428529739379884,-0.0,-0.0,-1.0,0.0222771257257214,2.0
19.38122940063477,12.087114334106444,-0.8978981971740723,-0.0,-0.0,-1.0,0.0425222326115389,1.0
18.71554946899414,11.944868087768556,-0.9308426380157472,-0.6420650215497371,-0.4229292566055478,-0.6394398736467833,0.0368471233288308,3.0
19.13644790649414,12.648635864257812,-0.9341092109680176,-0.5574565128734918,-0.5789913367221214,-0.5949884606071428,0.1022755854125992,3.0
19.531808853149418,12.987629890441896,-0.9720001220703124,-0.6313078371030643,-0.6188830916927593,-0.4673693760068821,0.1089343614316362,3.0
20.142009735107425,12.148846626281738,-0.9428603649139404,-0.0,-0.0,-1.0,0.0569510105788865,1.0
19.530715942382812,11.91006851196289,-0.8674585819244385,-0.0851147015739051,-0.8564045573853162,-0.5092413196762865,0.0851746571768485,6.0
19.04787826538086,10.94468116760254,-0.814208984375,0.7514161805792157,0.5924294894862994,0.2905185425248212,0.2608179774503235,4.0
18.826614379882812,12.767391204833984,-0.937631368637085,0.1263026359280935,-0.5483846101415438,-0.8266329073521829,0.0802990981941854,3.0
19.133121490478516,12.941181182861328,-0.9572887420654296,-0.0,-0.0,-1.0,0.0197363847767782,2.0
17.99851417541504,12.888250350952148,-0.9330337047576904,-0.0,-0.0,-1.0,0.0232204253888944,2.0
19.43128776550293,12.355984687805176,-0.9508869647979736,-0.0,-0.0,-1.0,0.0811403022942147,1.0
20.056121826171875,11.072062492370604,-0.7383444309234619,-0.0,-0.0,-1.0,0.0967283965574147,2.0
19.2738037109375,12.575868606567385,-0.9204497337341307,0.0093970126674966,0.992773900915488,-0.1196314248597419,0.1794932110311366,3.0
19.690214157104492,12.818756103515623,-0.9588491916656494,-0.0,-0.0,-1.0,0.07517878497973,2.0
19.065683364868164,10.855561256408691,-0.8133270740509033,-0.0,-0.0,-1.0,0.1673704936175653,2.0
20.098960876464844,11.10422706604004,-0.7589921951293945,-0.8120088536080096,0.3088243266418489,0.4952465617613257,0.1565563926995005,3.0
19.358245849609375,11.00916576385498,-0.6166326999664307,-0.0446019515544652,0.0679104516803971,-0.9966939532625338,0.1615004193336156,3.0
18.60508728027344,12.176457405090332,-0.9006199836730957,-0.0,-0.0,-1.0,0.0173383877403494,1.0
18.81329345703125,12.669445037841797,-0.9540896415710448,-0.0,-0.0,-1.0,0.0579728608547898,2.0
18.9755802154541,11.977974891662598,-0.9239249229431152,0.1599393038195052,-0.9361088626143004,0.3132405089203714,0.0215793169573545,3.0
20.130340576171875,11.10869598388672,-0.6880779266357422,-0.099235423081377,-0.6207487904210343,-0.7777038446585457,0.1541096433700712,5.0
20.015480041503903,11.089720726013184,-0.8609614372253418,-0.0,-0.0,-1.0,0.2057282714095536,2.0
20.143285751342773,12.192615509033203,-0.9066715240478516,-0.0,-0.0,-1.0,0.1092927682462932,2.0
19.31197166442871,12.669195175170898,-0.9256911277770996,-0.009693479539876,0.8442415562290205,-0.5358752011340062,0.1539330411252685,4.0
18.68270492553711,13.048335075378418,-0.9433431625366212,-0.0,-0.0,-1.0,0.1057325872631654,1.0
20.04420280456543,12.001630783081056,-0.765326976776123,-0.0,-0.0,-1.0,0.0899704102963313,1.0
19.443279266357425,11.1000394821167,-0.7249555587768555,-0.0,-0.0,-1.0,0.1703827231372732,1.0
18.70413589477539,11.156465530395508,-0.9025802612304688,-0.0,-0.0,-1.0,0.0291735458943271,2.0
17.980764389038086,12.840344429016112,-0.9431219100952148,-0.0,-0.0,-1.0,0.0198430385940109,2.0
19.95274353027344,12.88253402709961,-0.9669466018676758,-0.0,-0.0,-1.0,0.0394346483807922,1.0
18.20917510986328,12.10996437072754,-0.8912253379821777,-0.0,-0.0,-1.0,0.0406304720795218,1.0
19.134761810302734,10.93340015411377,-0.8876538276672363,0.8579942449966314,0.4393022979307988,-0.2661942271826725,0.1703996248327122,3.0
19.27939224243164,10.841825485229492,-0.909282684326172,-0.0,-0.0,-1.0,0.1185871325607915,1.0
19.22284507751465,11.292360305786133,-0.9380283355712892,-0.0,-0.0,-1.0,0.0719593275440269,1.0
19.11900520324707,11.615788459777832,-0.9463706016540528,-0.0,-0.0,-1.0,0.0904869861538437,1.0
19.073617935180664,12.026121139526367,-0.975311279296875,-0.0,-0.0,-1.0,0.0544281110910725,1.0
18.94907569885254,12.410324096679688,-0.986572265625,0.9366733875015246,0.293590457369577,-0.1909125676532094,0.0259189789832169,3.0
18.76974868774414,12.93784523010254,-1.0017461776733398,-0.0,-0.0,-1.0,0.1107834877828704,2.0
18.929168701171875,12.730130195617676,-1.0133881568908691,-0.0,-0.0,-1.0,0.0657142763683998,1.0
19.43100929260254,10.911701202392578,-0.8665640354156494,-0.0,-0.0,-1.0,0.0928581433763415,1.0
19.28584861755371,11.190746307373049,-0.8722960948944092,-0.0,-0.0,-1.0,0.0995724692769451,1.0
19.030662536621097,11.731826782226562,-0.8909561634063721,-0.3243759111150267,0.7864807013194196,0.5255743284640241,0.0464875215572554,3.0
19.209028244018555,11.544341087341309,-0.9017517566680908,-0.0,-0.0,-1.0,0.0990438768228263,2.0
19.01432991027832,11.985600471496582,-0.9209215641021729,0.5025585300817376,-0.8639787252523408,0.0312359753077067,0.0219265115453777,4.0
18.81127166748047,12.33425521850586,-0.9281303882598876,-0.0,-0.0,-1.0,0.043434054213463,2.0
18.62372779846191,12.810699462890623,-0.9573161602020264,-0.7914069092058423,-0.6106368836952726,0.0282435892227242,0.0430400948787651,3.0
18.743755340576172,12.607864379882812,-0.9521872997283936,-0.0,-0.0,-1.0,0.040269069906272,1.0
19.06931495666504,10.90475082397461,-0.7937495708465576,0.8089730057837536,0.1420225002007582,-0.5704316658022459,0.2497464676167163,3.0
20.157371520996097,10.929642677307127,-0.7287788391113281,-0.8633113311046867,0.2008550687537721,0.4629803310532439,0.1808408209102919,5.0
19.71425437927246,11.679993629455566,-0.7776198387145996,-0.0,-0.0,-1.0,0.0622853327074232,1.0
19.98248291015625,11.48035717010498,-0.7905244827270508,-0.0,-0.0,-1.0,0.0650117868943968,1.0
19.513851165771484,11.88665771484375,-0.7792797088623047,-0.0,-0.0,-1.0,0.0681535103433351,1.0
19.373699188232425,12.429790496826172,-0.8539490699768066,-0.0,-0.0,-1.0,0.0875413673724068,1.0
19.520477294921875,12.299476623535156,-0.8551144599914551,-0.0,-0.0,-1.0,0.0515733942414168,1.0
18.909624099731445,12.784097671508787,-0.8428459167480469,-0.0,-0.0,-1.0,0.0791088413706097,1.0
19.247379302978516,12.578195571899414,-0.860255241394043,-0.0,-0.0,-1.0,0.1222620334583252,2.0
18.75308609008789,13.063533782958984,-0.8709602355957031,-0.0,-0.0,-1.0,0.0670628181252107,1.0
19.329376220703125,11.21985149383545,-0.895026683807373,0.9772385333993888,0.2102075718433793,-0.0285941528834539,0.0552376374785942,3.0
19.53763198852539,11.19666862487793,-0.9394917488098145,-0.0,-0.0,-1.0,0.0165268749361929,2.0
19.351778030395508,11.562762260437012,-0.95350980758667,-0.0,-0.0,-1.0,0.048535241682599,2.0
19.19478988647461,11.956096649169922,-0.9800052642822266,-0.0,-0.0,-1.0,0.0767193861894914,1.0
18.9623966217041,12.363250732421877,-0.9936065673828124,-0.0,-0.0,-1.0,0.024841117229326,2.0
19.064441680908203,12.243639945983888,-0.9968719482421876,-0.0,-0.0,-1.0,0.016160120444848,2.0
18.60658836364746,12.930094718933104,-1.0089216232299805,-0.49612938587664,-0.4836411522211943,-0.7210734139793419,0.0689647251244307,3.0
18.783527374267575,12.76198959350586,-1.019695281982422,-0.0,-0.0,-1.0,0.0525488371323535,2.0
19.06996154785156,10.951309204101562,-0.8857550621032715,0.2579783531443188,-0.7240913007130313,-0.6396397091649766,0.1823597799395205,4.0
19.176023483276367,11.030095100402832,-0.9249444007873536,-0.1464682340772499,0.9043062011421156,-0.4009705113623785,0.1679194226925653,4.0
18.998336791992188,11.37769603729248,-0.949577808380127,-0.3678589484455674,0.3442770749265214,-0.8638015337614073,0.0848336758032549,3.0
19.114416122436523,11.1815185546875,-0.9390015602111816,-0.0,-0.0,-1.0,0.065583685482921,1.0
18.67119026184082,11.887807846069336,-0.9742097854614258,-0.0,-0.0,-1.0,0.0429914368508913,2.0
18.799842834472656,11.707491874694824,-0.9679431915283204,-0.0,-0.0,-1.0,0.0403157951132159,1.0
18.518821716308594,12.14216136932373,-0.9907636642456056,-0.0,-0.0,-1.0,0.0149195252445083,1.0
18.13686752319336,12.573075294494627,-0.9943170547485352,-0.0,-0.0,-1.0,0.0157601117624365,1.0
18.33493995666504,12.370532989501951,-0.9960174560546876,-0.0,-0.0,-1.0,0.0178437989686446,2.0
17.836732864379883,12.954623222351074,-1.0089836120605469,-0.0,-0.0,-1.0,0.0174798498537762,1.0
20.096803665161133,12.088956832885742,-0.9346747398376464,-0.0,-0.0,-1.0,0.1248151386277289,1.0
19.259735107421875,12.578763008117676,-0.8975353240966797,-0.0265156853393231,0.998482806748838,-0.048259745730247,0.1653898252590334,4.0
19.561559677124023,12.512395858764648,-0.9360980987548828,-0.0,-0.0,-1.0,0.0603389102547685,1.0
19.91825485229492,12.319880485534668,-0.9556970596313475,-0.0,-0.0,-1.0,0.0245703796557131,2.0
19.13698387145996,12.844233512878418,-0.9409241676330566,-0.0,-0.0,-1.0,0.0321467257243892,1.0
19.02007293701172,13.01424789428711,-0.9624652862548828,-0.0,-0.0,-1.0,0.0339719214283232,2.0
18.623294830322266,10.818167686462402,-0.8716320991516113,-0.0,-0.0,-1.0,0.0206118281916905,1.0
18.47983741760254,10.995887756347656,-0.8869929313659668,-0.0,-0.0,-1.0,0.0126726914776361,1.0
18.073421478271484,11.275006294250488,-0.8735003471374512,-0.0,-0.0,-1.0,0.0066135535850163,2.0
18.27783966064453,11.196344375610352,-0.8963336944580078,-0.0,-0.0,-1.0,0.0067831096004841,1.0
20.039560317993164,12.947657585144045,-1.0325431823730469,-0.0,-0.0,-1.0,0.0865489074660712,1.0
17.86869239807129,11.51386547088623,-0.8948860168457031,-0.0,-0.0,-1.0,0.0112024051999796,1.0
19.800840377807617,13.12862491607666,-1.0311102867126465,-0.0,-0.0,-1.0,0.0254995544682699,1.0
20.16145133972168,11.029909133911133,-0.6071815490722656,-0.0,-0.0,-1.0,0.1336015396932029,1.0
20.144439697265625,12.974664688110352,-1.0398006439208984,-0.0,-0.0,-1.0,0.0744404192384419,1.0
19.60867691040039,13.042624473571776,-0.9867477416992188,-0.3171767447246644,-0.1162072873658112,-0.9412198356223396,0.1112862485584385,5.0
19.900562286376953,13.070512771606444,-1.035597324371338,-0.0,-0.0,-1.0,0.0282698301357505,1.0
20.1862850189209,11.1368408203125,-0.7685694694519043,-0.0,-0.0,-1.0,0.1410890877127732,1.0
20.035327911376953,11.330825805664062,-0.7152364253997803,-0.0,-0.0,-1.0,0.1336554505188976,1.0
20.11918258666992,11.112424850463867,-0.8779857158660889,-0.264097673215178,0.1322338492704436,-0.9553882080648948,0.2173249495808708,6.0
19.15348243713379,11.120763778686523,-0.6624104976654053,-0.0,-0.0,-1.0,0.1174824251780349,1.0
20.03917694091797,10.665912628173828,-0.9319179058074952,0.8741208345992771,0.2486534292367234,-0.4172340334252239,0.074786939956419,3.0
20.131187438964844,10.90500259399414,-0.9128906726837158,-0.0,-0.0,-1.0,0.1341807827339395,2.0
19.1810302734375,11.0670166015625,-0.6982579231262207,-0.4072575080017527,-0.254376533198958,-0.8771738148929672,0.1564386803781191,4.0
20.175722122192383,10.96318244934082,-0.8278319835662842,0.7370601721160529,0.649642196725849,0.1862990040592466,0.145180402358087,10.0
19.213085174560547,11.112384796142578,-0.6310646533966064,-0.0,-0.0,-1.0,0.1260412342634651,2.0
20.042072296142575,11.238727569580078,-0.6904919147491455,-0.2042497343357368,0.9597937467268391,-0.1925565105828331,0.1495660087129965,3.0
20.04358291625977,12.458431243896484,-1.0141916275024414,-0.0,-0.0,-1.0,0.0943628749609456,2.0
20.17171859741211,12.568084716796877,-1.023357391357422,-0.0,-0.0,-1.0,0.0964909159746713,1.0
19.757728576660156,12.224173545837402,-0.993959903717041,-0.0,-0.0,-1.0,0.0219042873091955,1.0
19.3251953125,11.966405868530272,-0.9520471096038818,0.3738663230935679,0.8129405562335507,-0.4464881011708839,0.0848851377957626,3.0
18.90662002563477,11.57973861694336,-0.9395909309387208,-0.3674455567087497,0.1166002046148793,-0.922706971437176,0.0571837437960363,3.0
19.071687698364254,11.762411117553713,-0.9383461475372314,-0.0,-0.0,-1.0,0.0766134380233098,1.0
18.43341064453125,11.249798774719238,-0.9136497974395752,-0.0,-0.0,-1.0,0.0079232569699679,2.0
18.641843795776367,11.394030570983888,-0.9244146347045898,-0.0,-0.0,-1.0,0.0068563002699208,1.0
18.12789535522461,11.112922668457031,-0.8860633373260498,-0.0,-0.0,-1.0,0.009329470750933,2.0
17.842439651489258,10.929197311401367,-0.8728053569793701,-0.0,-0.0,-1.0,0.010666491640291,1.0
17.911907196044922,10.986590385437012,-0.8733606338500977,-0.0,-0.0,-1.0,0.0100971672907133,1.0
19.402652740478516,12.97380256652832,-1.0240576267242432,-0.0,-0.0,-1.0,0.0804832652513134,2.0
19.11758804321289,12.817398071289062,-1.0051615238189695,-0.0,-0.0,-1.0,0.0419185675005866,2.0
18.680034637451172,12.5564603805542,-0.9838507175445556,-0.0376386524233313,0.7125696401606499,-0.7005910645769601,0.04259511253082,6.0
18.88250732421875,12.647581100463867,-0.999032497406006,-0.0,-0.0,-1.0,0.0603713616520421,2.0
18.334487915039062,12.36390209197998,-0.9677729606628418,-0.6478478840651885,-0.7392345101281664,-0.1839169871105664,0.0178437989686446,3.0
17.963436126708984,12.174935340881348,-0.9496934413909912,-0.0,-0.0,-1.0,0.0349272535316658,1.0
18.04615592956543,12.24405574798584,-0.9475376605987548,-0.3156177910518022,0.8010568828971637,-0.5086189932893391,0.0343094729380444,3.0
18.366992950439453,13.014915466308594,-0.9997947216033936,-0.0,-0.0,-1.0,0.0089408040938963,2.0
19.854957580566406,12.12826156616211,-0.9116261005401612,-0.0,-0.0,-1.0,0.0252780295972522,1.0
19.983110427856445,12.227371215820312,-0.914341926574707,-0.0,-0.0,-1.0,0.0360670138666596,1.0
18.240211486816406,12.915216445922852,-0.974376916885376,-0.0,-0.0,-1.0,0.0186802092684755,1.0
18.544734954833984,13.051912307739258,-0.9856526851654052,-0.0,-0.0,-1.0,0.0474235681772958,1.0
17.90978240966797,12.85116195678711,-0.952361822128296,-0.0,-0.0,-1.0,0.0152234414878023,1.0
20.16954040527344,11.029794692993164,-0.769423246383667,-0.9936267240395112,0.1105052535798364,-0.0222378552420209,0.1387393636029187,6.0
19.921754837036133,10.811771392822266,-0.8197929859161377,-0.0,-0.0,-1.0,0.1163360874338845,1.0
17.968177795410156,10.836469650268556,-0.8543679714202881,-0.0,-0.0,-1.0,0.0127789449509521,2.0
18.27469253540039,10.955278396606444,-0.8605685234069824,-0.0,-0.0,-1.0,0.0092413970947201,2.0
18.69979476928711,11.05294418334961,-0.8784425258636475,-0.0,-0.0,-1.0,0.0332945842866903,1.0
18.904735565185547,11.156898498535156,-0.8802921772003174,-0.0,-0.0,-1.0,0.029523775422365,1.0
19.537973403930664,11.350591659545898,-0.9035484790802002,-0.7655638527035319,0.5684650182634808,0.3012631913201901,0.0224840191849298,3.0
19.77887535095215,11.406536102294922,-0.9152045249938964,-0.2216699863733606,0.0867766771402877,-0.9712529152829992,0.0125596592383354,3.0
20.123964309692383,11.451906204223633,-0.9366073608398438,-0.0,-0.0,-1.0,0.0784652469546972,1.0
17.74842071533203,10.863019943237305,-0.8361506462097168,-0.9400208766031236,-0.2238208510913433,0.2574198480440888,0.0088683503273755,3.0
18.566314697265625,11.124807357788086,-0.8598668575286865,-0.0,-0.0,-1.0,0.0173130867321199,1.0
18.990968704223633,11.396478652954102,-0.8568580150604248,-0.0,-0.0,-1.0,0.0896231400020041,2.0
19.308483123779297,11.480934143066406,-0.8700873851776123,-0.0,-0.0,-1.0,0.0533630367460531,1.0
18.066059112548828,12.247591018676758,-0.9543204307556152,-0.2384881002676146,-0.375589772523118,-0.8955756521962713,0.0350799686650419,3.0
18.51360321044922,12.419307708740234,-0.9737753868103028,-0.0,-0.0,-1.0,0.0312144992166484,1.0
18.820049285888672,12.506832122802734,-0.9920907020568848,-0.0,-0.0,-1.0,0.0327758125838346,2.0
18.9764404296875,12.736988067626951,-0.9779515266418456,-0.5144483933931994,0.0687252878578972,-0.8547629410216644,0.0710325158238602,3.0
19.363740921020508,12.679994583129885,-1.0246095657348633,-0.0,-0.0,-1.0,0.0812714176804169,2.0
19.58645248413086,12.833873748779297,-1.0282342433929443,-0.0,-0.0,-1.0,0.1135704186514996,1.0
19.95994758605957,12.83255386352539,-1.0681910514831543,-0.0,-0.0,-1.0,0.0887605136983965,1.0
20.191570281982425,11.229944229125977,-0.7366471290588379,-0.0,-0.0,-1.0,0.099019447980216,1.0
19.466442108154297,10.725105285644531,-0.8719561100006104,-0.0,-0.0,-1.0,0.0254442382098517,2.0
19.797409057617188,10.754135131835938,-0.894860029220581,-0.0,-0.0,-1.0,0.0251518424915044,2.0
20.14155960083008,10.639915466308594,-0.936737060546875,-0.0,-0.0,-1.0,0.1364459847775646,2.0
20.14122200012207,11.127496719360352,-0.8780620098114014,-0.3828765106085172,0.1378834634549487,-0.9134515466788116,0.1869990266600332,4.0
20.10306930541992,11.055438995361328,-0.8484358787536621,-0.0,-0.0,-1.0,0.2437167538286153,2.0
19.022720336914062,10.96164321899414,-0.7923636436462402,-0.3810460079198095,0.4644328863013209,-0.7994410759838406,0.2335587511568929,3.0
17.903398513793945,12.44088363647461,-0.94325852394104,-0.0,-0.0,-1.0,0.0347167569298245,2.0
18.320541381835938,12.61168098449707,-0.947479009628296,-0.0,-0.0,-1.0,0.0290476191541763,1.0
18.701168060302734,12.702037811279297,-0.9624178409576416,-0.7726469748902981,-0.6288791083914937,0.0867624297815061,0.0471614936902584,3.0
19.154117584228516,12.803577423095703,-0.9825806617736816,-0.0,-0.0,-1.0,0.0561462870452566,2.0
19.44715118408203,13.052778244018556,-0.9695816040039062,-0.0,-0.0,-1.0,0.0639910894326204,2.0
19.39217758178711,12.880014419555664,-0.9904341697692872,-0.0,-0.0,-1.0,0.0672105251653712,1.0
19.66547203063965,13.061782836914062,-0.9863526821136476,-0.0,-0.0,-1.0,0.0901040446601234,2.0
19.92724609375,12.966123580932615,-1.0224299430847168,-0.0,-0.0,-1.0,0.0297401088073124,2.0
19.156801223754883,10.91762351989746,-0.69464111328125,-0.0,-0.0,-1.0,0.130745225672468,1.0
20.1188907623291,11.03811264038086,-0.7716126441955566,-0.0,-0.0,-1.0,0.1405594678710592,1.0
18.668949127197266,10.78127670288086,-0.8670291900634766,-0.0,-0.0,-1.0,0.028050668847084,1.0
19.06277847290039,10.9755859375,-0.8832645416259766,0.2579783531443188,-0.7240913007130313,-0.6396397091649766,0.2518798346779807,4.0
19.44622802734375,11.297195434570312,-0.882826566696167,-0.3932738811942796,0.1570249297299493,-0.9059132551263904,0.0578921678133198,3.0
19.31622314453125,11.130334854125977,-0.8904664516448975,-0.0,-0.0,-1.0,0.0847025679382898,1.0
19.726715087890625,11.464784622192385,-0.8925611972808838,-0.0,-0.0,-1.0,0.0170028490819188,2.0
20.147785186767575,11.652070999145508,-0.917029619216919,-0.4603609802426432,-0.7900399903037747,-0.4048513080018934,0.0338741854183462,3.0
20.029203414916992,11.673898696899414,-0.900127649307251,-0.0,-0.0,-1.0,0.0363135407773113,2.0
17.987091064453125,10.890754699707031,-0.8286135196685791,-0.5514206412551507,-0.8045109381608964,-0.2206749346374283,0.0127154267232639,4.0
18.391761779785156,10.956212997436523,-0.8560335636138916,-0.0,-0.0,-1.0,0.0090247187956707,2.0
18.765554428100582,11.138063430786133,-0.8645360469818115,-0.0,-0.0,-1.0,0.0348354563301572,1.0
19.15293312072754,11.261255264282228,-0.8844244480133057,-0.0,-0.0,-1.0,0.0697893867253395,1.0
19.50533676147461,11.633716583251951,-0.8654229640960693,-0.0,-0.0,-1.0,0.0507559020070061,1.0
19.365039825439453,11.403865814208984,-0.8847615718841553,-0.0,-0.0,-1.0,0.0593109390981057,1.0
19.922443389892575,11.685422897338867,-0.9017596244812012,-0.0,-0.0,-1.0,0.0201110528666718,1.0
19.858484268188477,11.6064453125,-0.9064297676086426,-0.0,-0.0,-1.0,0.0520652920407013,2.0
18.07653427124023,12.344167709350586,-0.9681615829467772,-0.0,-0.0,-1.0,0.0360713126876877,1.0
18.46257972717285,12.515325546264648,-0.9814276695251464,-0.0,-0.0,-1.0,0.0331511494699637,2.0
18.88662338256836,12.756961822509766,-0.9888832569122314,-0.0,-0.0,-1.0,0.0900863945007829,1.0
18.80893898010254,12.64603042602539,-0.9990336894989014,-0.0,-0.0,-1.0,0.0544756135132805,2.0
19.200119018554688,12.828298568725586,-1.0144035816192627,-0.0,-0.0,-1.0,0.0313026359639393,1.0
19.530994415283203,13.044221878051758,-1.018570899963379,-0.4653145194394726,-0.4604031038412045,-0.7559837167374688,0.0866141072154574,3.0
19.95112419128418,13.135809898376465,-1.0577878952026367,-0.0,-0.0,-1.0,0.064315871276861,2.0
17.792224884033203,11.206161499023438,-0.8222692012786865,-0.0,-0.0,-1.0,0.0055929644510058,1.0
18.200796127319336,11.278553009033203,-0.8521051406860352,-0.0,-0.0,-1.0,0.0086836456478934,1.0
18.5687255859375,11.392448425292969,-0.8722093105316162,-0.0,-0.0,-1.0,0.0067819438872275,1.0
18.92888069152832,11.539052963256836,-0.8875162601470947,-0.0,-0.0,-1.0,0.0991479621070418,1.0
19.33483505249023,11.829816818237305,-0.8852708339691162,-0.8611511396084851,0.1704639652032925,-0.4789162257829422,0.0365567526496076,3.0
19.19334602355957,11.682172775268556,-0.8936901092529297,-0.0,-0.0,-1.0,0.08028406595097,1.0
19.61440086364746,12.023591995239258,-0.8863911628723145,-0.0,-0.0,-1.0,0.0596671498080938,2.0
20.067699432373047,12.142817497253418,-0.9235687255859376,-0.0,-0.0,-1.0,0.1207897202147636,1.0
17.827289581298828,11.432206153869627,-0.8836126327514648,0.0758535993798974,0.2758765438330833,-0.9581953684003208,0.0103727212455349,3.0
18.20095443725586,11.528115272521973,-0.9002456665039062,-0.9802144676439268,-0.0982718145807857,-0.1718203942508934,0.0063476572046643,3.0
18.57644271850586,11.60951328277588,-0.9217159748077391,-0.0,-0.0,-1.0,0.0106118561370595,2.0
19.082643508911133,11.84982204437256,-0.9284958839416504,-0.0,-0.0,-1.0,0.0328397894566459,1.0
18.886632919311523,11.734253883361816,-0.929753303527832,-0.0,-0.0,-1.0,0.0539757448244071,2.0
19.33265495300293,11.973810195922852,-0.932319402694702,-0.0,-0.0,-1.0,0.0848851377957627,2.0
19.692115783691406,12.099727630615234,-0.9492907524108888,-0.0,-0.0,-1.0,0.055653374703582,1.0
20.118633270263672,12.214052200317385,-0.978400945663452,-0.9069740344390892,0.2326593868571289,-0.3510950164279566,0.0560332232696827,4.0
17.894914627075195,11.992761611938477,-0.9320244789123536,0.4614722774918012,0.3276239760081072,-0.8244427617798397,0.0181540023650407,3.0
18.27309226989746,12.07800579071045,-0.9531309604644777,-0.0,-0.0,-1.0,0.042978888475677,2.0
18.573984146118164,12.20267105102539,-0.959151029586792,-0.0,-0.0,-1.0,0.0204895467472213,1.0
18.75843620300293,12.368906021118164,-0.9440350532531738,0.4512150494567591,0.68615990248804,-0.570604563039359,0.0588126835747894,4.0
19.01963233947754,12.430846214294434,-0.9618799686431884,0.7297482920730456,0.3473922370081941,-0.5888854420707949,0.0280997631473129,3.0
19.433610916137695,12.531014442443848,-0.9921398162841796,-0.0,-0.0,-1.0,0.0707137339502998,2.0
19.801082611083984,12.709704399108888,-1.0022737979888916,-0.0,-0.0,-1.0,0.066886408367931,2.0
20.204120635986328,11.003418922424316,-0.854478120803833,-0.5954739044013969,0.6363806157357709,0.490337170825053,0.1644125747522402,8.0
20.143760681152344,12.74839687347412,-1.0413453578948977,-0.0,-0.0,-1.0,0.0590460576771635,1.0
17.927589416503906,11.976824760437012,-0.9200682640075684,0.4392341433403458,0.2741848100959311,-0.8555092385455169,0.0181540023650407,4.0
17.931230545043945,11.93727684020996,-0.9301724433898926,-0.213973368632893,0.2232680787949825,-0.9509819990447188,0.0059368278389833,3.0
18.326736450195312,12.01516819000244,-0.9514930248260498,-0.0,-0.0,-1.0,0.0341141415484963,2.0
18.738866806030273,12.194783210754396,-0.953740119934082,0.6090839853516901,-0.4906494087809356,-0.6231210608308951,0.0252684033364073,3.0
18.582778930664062,12.106066703796388,-0.9572758674621582,-0.0,-0.0,-1.0,0.0157581428292691,1.0
19.062849044799805,12.30741024017334,-0.9651682376861572,0.461124194472289,-0.627210779392229,-0.6276711842091172,0.027059408946372,5.0
19.487775802612305,10.650238037109377,-0.875725269317627,-0.0,-0.0,-1.0,0.0222589364183471,1.0
19.43990898132324,12.520755767822266,-0.962224006652832,-0.0,-0.0,-1.0,0.0714721154454244,2.0
20.033782958984375,10.84426975250244,-0.9005386829376221,-0.0,-0.0,-1.0,0.1073943372997303,2.0
19.830507278442383,10.727566719055176,-0.8996169567108154,0.3567407999830485,0.2101633230727236,-0.910256765568092,0.0265702091628901,4.0
19.867530822753903,12.615324020385742,-0.997594118118286,-0.0,-0.0,-1.0,0.1180729342292363,1.0
20.19144821166992,11.050044059753418,-0.8790745735168457,-0.1269496611950014,0.985742170265538,-0.1104362136378361,0.1670542725004142,4.0
20.147876739501953,12.641658782958984,-1.031423807144165,-0.0,-0.0,-1.0,0.0949257025966019,1.0
17.859458923339844,10.830305099487305,-0.8635377883911133,-0.0,-0.0,-1.0,0.0119582702184571,1.0
18.258668899536133,10.886850357055664,-0.890692949295044,-0.0,-0.0,-1.0,0.0098843504734454,2.0
18.642709732055664,11.004926681518556,-0.9048779010772704,-0.786803837598661,-0.1205940498233007,-0.6053071916698455,0.0326970919515708,3.0
19.02733039855957,11.130029678344728,-0.9208290576934814,-0.0,-0.0,-1.0,0.0701592320317608,2.0
19.390806198120117,11.315478324890137,-0.923293113708496,-0.257423033843443,-0.0601194258573213,-0.9644267915614038,0.0649228046367997,3.0
19.728900909423828,11.493141174316406,-0.9273693561553956,-0.0,-0.0,-1.0,0.0180215347745937,2.0
20.133712768554688,11.673916816711426,-0.9436583518981934,-0.4603609802426432,-0.7900399903037747,-0.4048513080018934,0.0195212892373869,3.0
20.17192649841309,10.969537734985352,-0.7192473411560059,-0.7502589211229901,0.5591978383328712,0.3527170663282546,0.0917495304286356,8.0
19.27455139160156,11.03719711303711,-0.6035332679748535,-0.0,-0.0,-1.0,0.1278935038372552,2.0
19.32550811767578,11.067485809326172,-0.6028182506561279,-0.3876557629584746,0.2624255617405033,-0.8836604743849666,0.1321415231567718,3.0
20.070863723754883,11.134427070617676,-0.6946697235107422,-0.0,-0.0,-1.0,0.1846814213119585,2.0
18.329299926757812,12.961567878723145,-0.9930659532546996,-0.3203470406380228,-0.245204071590453,-0.915015156612132,0.012209642239303,4.0
18.804916381835938,12.796431541442873,-0.9602118730545044,0.2096775675650794,-0.4977312071679426,-0.8416049923040703,0.0877121748487033,3.0
18.84241104125977,12.630776405334473,-0.958576798439026,0.3221019066861539,0.2278413122235046,-0.9188790443542696,0.0538183484618122,4.0
19.00931167602539,12.12651252746582,-0.9503265619277954,-0.0,-0.0,-1.0,0.020303824288457,2.0
19.19205093383789,12.46828269958496,-0.934813380241394,-0.0,-0.0,-1.0,0.0669931178784433,1.0
19.162694931030273,11.972002983093262,-0.9406696557998656,-0.0,-0.0,-1.0,0.0621285479942579,1.0
19.409801483154297,11.869512557983398,-0.9239782094955444,-0.0,-0.0,-1.0,0.0808172388078081,1.0
19.73885154724121,11.666138648986816,-0.9024242162704468,-0.0,-0.0,-1.0,0.0422507810951647,1.0
19.731380462646484,11.338913917541504,-0.9060989618301392,-0.0,-0.0,-1.0,0.0189264894337532,2.0
19.79060935974121,11.01360034942627,-0.9053295850753784,-0.0,-0.0,-1.0,0.0549946116499748,1.0
19.927209854125977,10.91322898864746,-0.8967636823654175,-0.0,-0.0,-1.0,0.0497328954529337,1.0
19.737764358520508,13.102280616760254,-1.0245788097381592,-0.0,-0.0,-1.0,0.0478473296728479,1.0
20.12655258178711,12.219876289367676,-0.9905591011047364,-0.9069740344390892,0.2326593868571289,-0.3510950164279566,0.0541014968545435,4.0
19.943775177001953,12.560918807983398,-1.0062720775604248,-0.0,-0.0,-1.0,0.0907219193425978,2.0
19.78204345703125,12.856826782226562,-1.020329475402832,-0.0,-0.0,-1.0,0.0521967403021121,2.0
19.992115020751953,12.570239067077637,-0.8770086765289307,-0.0,-0.0,-1.0,0.157699949921217,1.0
19.25989151000977,12.482335090637209,-0.938683032989502,-0.0,-0.0,-1.0,0.135450544281813,2.0
19.01158332824707,12.82505989074707,-0.9540536403656006,-0.0,-0.0,-1.0,0.0810933645780941,2.0
18.726823806762695,13.123441696166992,-0.9732439517974854,-0.0,-0.0,-1.0,0.0836200731123939,2.0
20.13960075378418,11.549087524414062,-0.8812320232391357,-0.0,-0.0,-1.0,0.0386445481881593,1.0
19.806331634521484,11.82156467437744,-0.904132604598999,-0.0,-0.0,-1.0,0.0281761662749577,2.0
19.542789459228516,12.053977966308594,-0.9220640659332277,-0.0,-0.0,-1.0,0.0616677125391634,1.0
19.217674255371097,12.290959358215332,-0.945115327835083,-0.0,-0.0,-1.0,0.025946000043111,1.0
19.459529876708984,11.88029670715332,-0.8642958402633667,-0.0360735326232359,0.0201228614681618,-0.9991465211321174,0.085453889533987,4.0
18.110597610473633,12.22524070739746,-0.9568074941635132,-0.3017163012715854,-0.5117304782142953,-0.8044247579566173,0.0370634874447482,3.0
17.924291610717773,12.512781143188477,-0.9580203294754028,-0.9132976225135884,0.3858751491127314,-0.1303373392710415,0.0406283081180336,4.0
18.993236541748047,11.54083251953125,-0.919824242591858,-0.9598802955628616,0.1343810726880232,0.2461128714500116,0.0955315795419002,3.0
18.540395736694336,11.75875473022461,-0.9453288316726683,-0.0,-0.0,-1.0,0.0341377870067135,2.0
18.285125732421875,12.037198066711426,-0.9519675970077516,-0.0043684256195467,-0.0297836638120014,-0.9995468224288144,0.0290770924868781,3.0
19.50288963317871,11.104646682739258,-0.9017764329910278,-0.0,-0.0,-1.0,0.0424191063854201,2.0
19.01573944091797,11.308950424194336,-0.9302970170974731,-0.0,-0.0,-1.0,0.0441808013689676,1.0
18.97104263305664,11.399989128112791,-0.9290691614151,-0.3678589484455674,0.3442770749265214,-0.8638015337614073,0.0770609705916341,3.0
18.708879470825195,12.976202011108398,-0.9629786014556884,-0.7424779469079698,-0.3800973541254283,0.5515908807641536,0.1082776028552523,5.0
18.91997718811035,12.568548202514648,-0.9558331966400146,-0.0,-0.0,-1.0,0.0346354319001604,2.0
18.77511405944824,12.787503242492676,-0.9623565673828124,0.2315654376083219,-0.5865211849134996,-0.7761252139654603,0.0463708339561333,3.0
19.65199851989746,11.882204055786133,-0.9119198322296144,0.512795210857444,-0.7337983268140995,-0.4456243791429028,0.0435379371474491,3.0
19.238422393798828,12.08676052093506,-0.9418387413024902,-0.0,-0.0,-1.0,0.0692119787406207,1.0
18.958784103393555,12.301382064819336,-0.9599616527557372,-0.0,-0.0,-1.0,0.024928674731353,1.0
19.65074920654297,11.61617660522461,-0.9198825359344482,-0.7453826742953108,-0.6665062987542759,-0.0131917618704585,0.0588376137213391,3.0
20.181129455566406,11.04139232635498,-0.8914189338684082,-0.3600310475026795,0.9220141009373376,0.1423644706618764,0.1654230896875152,4.0
19.88650703430176,11.10662841796875,-0.914909601211548,-0.0,-0.0,-1.0,0.0646649906036863,1.0
18.360387802124023,12.835663795471191,-0.9328652620315552,-0.0,-0.0,-1.0,0.0190749246118099,1.0
19.457643508911133,12.013752937316896,-0.8653446435928345,-0.0,-0.0,-1.0,0.0742290452681657,2.0
18.675567626953125,12.424859046936035,-0.919453263282776,-0.0,-0.0,-1.0,0.0457830402313775,2.0
18.46483039855957,12.578449249267578,-0.9325772523880004,-0.0,-0.0,-1.0,0.0405271770913079,1.0
19.549962997436523,11.720218658447266,-0.8679500818252563,-0.0,-0.0,-1.0,0.0904900302106912,2.0
18.96918487548828,12.113539695739746,-0.9046858549118042,-0.0,-0.0,-1.0,0.0146555683927083,1.0
20.16985321044922,11.05422306060791,-0.8385392427444458,-0.0,-0.0,-1.0,0.1331901517441532,2.0
19.880186080932617,11.115900993347168,-0.8615962266921997,-0.0,-0.0,-1.0,0.0408744843637505,1.0
19.70311737060547,11.381396293640137,-0.8671084642410278,-0.0,-0.0,-1.0,0.0127226541514028,1.0
19.88245391845703,10.860525131225586,-0.8712171316146851,-0.0,-0.0,-1.0,0.052072305832859,1.0
17.77110481262207,11.10184383392334,-0.890058159828186,-0.0,-0.0,-1.0,0.0071004890957848,2.0
17.936439514160156,10.860919952392578,-0.8802491426467896,-0.0,-0.0,-1.0,0.0129623312866168,2.0
20.16585922241211,11.085203170776367,-0.6963111162185669,0.006248005742123,0.0765330526383658,-0.9970474684176778,0.1506831145496439,5.0
19.11880111694336,10.974078178405762,-0.7986987829208374,0.8959958037837077,0.2604686517708493,-0.3596492750537164,0.1924790334515606,3.0
17.943410873413086,11.289738655090332,-0.8958061933517456,-0.0,-0.0,-1.0,0.0115988699356935,1.0
17.766220092773438,11.425806045532228,-0.90703022480011,-0.0,-0.0,-1.0,0.0098234077514796,2.0
18.24432373046875,10.89096450805664,-0.8838597536087036,-0.0,-0.0,-1.0,0.0101102579369184,2.0
18.078765869140625,11.109469413757324,-0.8903645277023315,-0.0,-0.0,-1.0,0.0101135875749361,2.0
18.39805603027344,10.6378755569458,-0.8800989389419556,-0.0,-0.0,-1.0,0.0072391187645679,1.0
18.614727020263672,13.132673263549805,-0.97171151638031,-0.0,-0.0,-1.0,0.0947329472124529,2.0
19.90121078491211,12.652183532714844,-0.8560222387313843,-0.0,-0.0,-1.0,0.2498092278896387,1.0
19.22031021118164,12.521553993225098,-0.935207724571228,-0.0,-0.0,-1.0,0.1380828402084046,1.0
18.93948745727539,12.755194664001465,-0.9542471170425416,-0.0,-0.0,-1.0,0.0920769486192135,2.0
18.760705947875977,12.99624729156494,-0.9622560739517212,0.1779728593111843,-0.9592733832393124,-0.2193632548017206,0.1029632691234126,4.0
19.60837745666504,12.03543472290039,-0.917528748512268,-0.0,-0.0,-1.0,0.0570986138196767,2.0
19.350690841674805,12.181289672851562,-0.9378224611282348,0.3958515896470489,0.5111409829402568,-0.7629131107359292,0.0581655011115726,3.0
19.14486312866211,12.376083374023438,-0.950308918952942,-0.0,-0.0,-1.0,0.0331893964420659,1.0
20.01374626159668,11.597647666931152,-0.8967026472091675,-0.0,-0.0,-1.0,0.0365863992522508,1.0
19.800500869750977,11.814168930053713,-0.908232808113098,-0.0,-0.0,-1.0,0.0281242360751234,2.0
19.60283851623535,13.052255630493164,-0.9674776792526244,-0.7834868884174185,0.0378853088748377,-0.6202523672259941,0.0959607437199764,4.0
19.678226470947266,12.808396339416504,-0.9672747850418092,-0.0,-0.0,-1.0,0.0774487125222631,2.0
20.16596794128418,12.09937858581543,-0.9359797239303588,-0.083310001549563,-0.9379900201258138,-0.3365028466241964,0.1171686821423421,3.0
19.994897842407227,12.27191925048828,-0.9496282339096068,-0.0,-0.0,-1.0,0.0383935395972748,1.0
19.743650436401367,12.473731994628906,-0.9719446897506714,-0.3862158969728961,0.4031658810903508,-0.8296351928709765,0.0498068560078061,3.0
20.123889923095703,11.931756019592283,-0.9478591680526732,-0.0,-0.0,-1.0,0.0852503737040394,2.0
18.137922286987305,11.741689682006836,-0.9078755378723145,-0.0,-0.0,-1.0,0.0092971747653046,2.0
17.89413070678711,12.01072597503662,-0.9253244400024414,0.4614722774918012,0.3276239760081072,-0.8244427617798397,0.0173668045504989,3.0
18.465940475463867,11.219480514526367,-0.8912913799285889,-0.0,-0.0,-1.0,0.0092667277391202,2.0
18.268234252929688,11.456417083740234,-0.9040675163269044,-0.8409028291152083,-0.3093068897639339,0.4440852169692214,0.0093449313451999,3.0
18.88888359069824,10.798036575317385,-0.8616001605987549,-0.0,-0.0,-1.0,0.0654216494757683,2.0
18.57725524902344,11.037141799926758,-0.8862202167510986,0.1178952074981965,0.5557115669434999,-0.8229734955720973,0.0191255272149909,3.0
20.06153106689453,11.117435455322266,-0.7194201946258545,-0.9229361901874246,-0.0492096839692481,0.3817947037950739,0.1463061622240399,3.0
20.188575744628903,10.937945365905762,-0.7129151821136475,-0.7669801411982534,0.3352884064803101,0.5471043296185856,0.079266257254668,6.0
17.758968353271484,10.824825286865234,-0.8308432102203369,-0.0,-0.0,-1.0,0.0093294362076818,2.0
18.578136444091797,12.726659774780272,-0.9562904834747314,-0.0,-0.0,-1.0,0.0361200988035685,2.0
18.291118621826172,12.95094108581543,-0.9830389022827148,-0.138870186532163,-0.3684054616106425,-0.9192347290806476,0.0146250930179888,3.0
18.107879638671875,13.108580589294434,-0.9997856616973876,-0.0,-0.0,-1.0,0.0136322237298681,1.0
18.8399600982666,12.2205171585083,-0.9466326236724854,-0.0,-0.0,-1.0,0.0268845097442514,2.0
18.595932006835938,12.522425651550291,-0.9632420539855956,-0.0,-0.0,-1.0,0.052184893957441,2.0
19.079240798950195,11.964845657348633,-0.9290297031402588,0.0677261020691462,0.2797402640809619,-0.9576839560890816,0.0543683342996943,3.0
19.04780960083008,12.017045974731444,-0.9303627014160156,0.073201579829402,-0.3574736043602017,-0.9310500259901217,0.0309305897132298,3.0
19.527254104614254,11.916845321655272,-0.875136137008667,-0.0851147015739051,-0.8564045573853162,-0.5092413196762865,0.0861104944471878,6.0
19.534526824951172,11.71969985961914,-0.8845491409301758,-0.0,-0.0,-1.0,0.0736037515014268,2.0
20.175498962402344,10.977956771850586,-0.8464798927307129,-0.460710580527512,0.8243293997263913,0.3289784213846409,0.1562896780897218,10.0
19.763607025146484,11.156813621520996,-0.8870947360992432,-0.0,-0.0,-1.0,0.0463820160845239,2.0
19.617809295654297,11.423443794250488,-0.8901662826538086,-0.0,-0.0,-1.0,0.0180230089226337,2.0
19.85640335083008,10.680670738220217,-0.9037845134735109,0.1175266963077906,0.5629457796814618,-0.8180950585315913,0.0253212687310738,3.0
18.021547317504883,12.982122421264648,-0.9658758640289308,0.7280354505322102,0.653289370985094,-0.2077916757867407,0.0207132327365684,6.0
18.361984252929688,12.689666748046877,-0.9342250823974608,-0.7654105850020378,0.5849144176936025,-0.268368702238156,0.0383991803987422,3.0
18.163299560546875,12.861557006835938,-0.9525024890899658,-0.0,-0.0,-1.0,0.0235506180596832,2.0
19.265384674072266,11.84988784790039,-0.858417272567749,-0.0,-0.0,-1.0,0.0404369558222508,1.0
18.659767150878903,12.212000846862791,-0.9189603328704834,-0.0,-0.0,-1.0,0.0231646277830381,1.0
18.401691436767575,12.470369338989258,-0.9398937225341796,-0.0,-0.0,-1.0,0.0350572284460339,1.0
19.12393569946289,11.562564849853516,-0.8938522338867188,-0.0,-0.0,-1.0,0.1130630512518779,1.0
18.865589141845703,11.84046745300293,-0.912013292312622,-0.0,-0.0,-1.0,0.0323830956278629,1.0
18.734947204589844,12.001577377319336,-0.9203221797943116,-0.0,-0.0,-1.0,0.0309673025273756,1.0
19.96957778930664,10.982985496520996,-0.8189504146575928,-0.0,-0.0,-1.0,0.1530934242061615,1.0
19.490570068359375,11.132752418518066,-0.8719227313995361,0.2751777974310188,0.7540729072530523,-0.5963650143560927,0.0539016757238876,3.0
19.225330352783203,11.36447525024414,-0.8923604488372803,-0.0,-0.0,-1.0,0.0640651646488561,1.0
19.535659790039062,10.925056457519531,-0.8792498111724854,-0.9333233908736064,-0.3180837558586251,-0.1665237890124512,0.0575068270004314,3.0
19.8439998626709,12.684889793395996,-0.999561071395874,-0.0,-0.0,-1.0,0.095317044981766,2.0
19.73379135131836,12.905799865722656,-1.0026602745056152,-0.0,-0.0,-1.0,0.0457883794326683,1.0
19.983478546142575,12.425519943237305,-0.9949629306793212,-0.2141600154002984,-0.7228193332444097,-0.6570142306615975,0.0654915414536864,3.0
19.080711364746097,11.006292343139648,-0.7050919532775879,-0.3841356629894842,0.3589524404064719,-0.8506426617245737,0.1665901123570935,4.0
17.776020050048828,11.146023750305176,-0.854278564453125,-0.0,-0.0,-1.0,0.0058004426657675,2.0
18.057451248168945,10.780628204345703,-0.8433282375335693,0.0365018001732456,0.5468878486538185,-0.8364097677448004,0.0131863213293468,3.0
19.99606704711914,13.124780654907228,-1.0004957914352417,-0.0,-0.0,-1.0,0.0261935975332973,2.0
20.05560874938965,12.866170883178713,-1.0081619024276731,-0.0,-0.0,-1.0,0.1016908566060645,1.0
17.714845657348633,12.481725692749023,-0.9028388261795044,-0.0,-0.0,-1.0,0.025383686586063,1.0
20.064329147338867,11.248044967651367,-0.6676579713821411,-0.0,-0.0,-1.0,0.1556027344360383,2.0
18.2418270111084,11.798480987548828,-0.8734124898910522,-0.0,-0.0,-1.0,0.0117683383677397,1.0
17.97248077392578,12.04002571105957,-0.8945633172988892,-0.0,-0.0,-1.0,0.0229205245034985,1.0
17.803607940673828,12.234418869018556,-0.905492901802063,-0.0,-0.0,-1.0,0.0402182332943768,1.0
20.196020126342773,10.990333557128906,-0.6701592206954956,-0.0,-0.0,-1.0,0.0913005360419199,2.0
18.51702880859375,11.2967529296875,-0.8703795671463013,-0.0,-0.0,-1.0,0.0057637239348925,1.0
18.3361873626709,11.557586669921877,-0.876771092414856,-0.0,-0.0,-1.0,0.0088954105453881,1.0
19.146812438964844,10.920737266540527,-0.8136698007583618,-0.8110849788022131,0.4951466682822608,-0.3114015639819275,0.2454531100506144,4.0
18.935199737548828,10.942425727844238,-0.8401190042495728,0.2049931297616761,0.629395883126109,-0.7495589630272042,0.1053518315767776,3.0
18.71847915649414,11.099212646484377,-0.8575140237808228,-0.0,-0.0,-1.0,0.0365400575164978,1.0
19.504425048828125,12.935125350952148,-0.9577183723449708,-0.0,-0.0,-1.0,0.1131965292354603,1.0
19.677322387695312,12.57126522064209,-0.9458646774291992,-0.0,-0.0,-1.0,0.0413080479837845,1.0
19.51751708984375,12.663778305053713,-0.9693310260772704,-0.0,-0.0,-1.0,0.0576518235453089,2.0
19.94267463684082,12.003511428833008,-0.9324131011962892,-0.0,-0.0,-1.0,0.0815584975459003,1.0
19.711509704589844,12.183255195617676,-0.9619832038879396,-0.0,-0.0,-1.0,0.0359525918367872,1.0
