x,y,z,nx,ny,nz,curvature,density
18.940763473510746,15.662408828735352,-0.21768319606781,-0.1218934765113816,0.9903442295598572,0.0660324720229542,0.1340692568994401,6.0
19.196046829223633,16.46915054321289,0.0082862377166748,0.2028834005756106,0.890063765689706,-0.4081970342581335,0.1584569502379684,14.0
19.142446517944336,16.4899959564209,0.0001776218414306,-0.1025491617159052,-0.5038137852905176,-0.8577035263904452,0.1770295124192437,16.0
19.1761531829834,17.000930786132812,-1.1095366477966309,-0.0,-0.0,-1.0,0.0411623734935841,1.0
19.271690368652344,17.330677032470703,-1.1463816165924072,-0.0,-0.0,-1.0,0.0885664706635229,1.0
19.309249877929688,17.629941940307617,-1.1936023235321045,-0.0,-0.0,-1.0,0.0521073268007605,1.0
19.042207717895508,16.277523040771484,-1.0198488235473633,-0.8481267490988573,-0.5110452472684021,-0.1396917059362556,0.0954815927901587,3.0
18.899057388305664,16.49451446533203,-1.0930633544921875,-0.0,-0.0,-1.0,0.0692070615117883,2.0
18.39459991455078,16.04180908203125,-1.1563589572906494,-0.0,-0.0,-1.0,0.0332587603914001,1.0
18.46627426147461,17.242111206054688,-1.0142710208892822,0.3720143126334602,0.8923817930847426,0.2554605381790186,0.1567553013081373,3.0
17.934322357177734,16.12830352783203,-0.983617067337036,-0.0208159254849383,0.9911323423166156,0.131237865192119,0.1975153346876502,4.0
18.029083251953125,16.999309539794922,-1.078493356704712,-0.0,-0.0,-1.0,0.0690919874593022,2.0
18.186044692993164,17.083065032958984,-1.0543391704559326,-0.0,-0.0,-1.0,0.0636441895455356,1.0
17.860862731933594,15.807144165039062,-0.9618346691131592,-0.0,-0.0,-1.0,0.1219415148192541,2.0
17.890249252319336,15.987500190734863,-0.9767184257507324,-0.5489420697626278,0.8200058405020714,-0.162027854356014,0.1357913135528343,3.0
19.686073303222656,16.950584411621094,-0.6992137432098389,-0.0,-0.0,-1.0,0.1201423656933272,1.0
19.505157470703125,17.413192749023438,-0.8133077621459961,0.9944342143288644,-0.0496525874483745,0.0929258517949437,0.2265417404937292,5.0
19.158519744873047,16.78181266784668,-0.7888748645782471,-0.0,-0.0,-1.0,0.2703902845844413,1.0
17.869977951049805,15.706063270568848,-0.9475514888763428,-0.9406885675693976,0.322771626864345,-0.1045155286815254,0.1841934236507142,6.0
19.63887405395508,16.140884399414062,-0.204910397529602,0.0572942955208626,0.658349995885359,-0.7505282450504548,0.1625882291509463,10.0
19.09112548828125,15.698779106140137,-0.134577989578247,-0.1428751859336843,0.4101731683192081,-0.9007467198027412,0.168656848854365,8.0
19.382511138916016,16.339618682861328,-0.1476510763168335,-0.7796371588870605,-0.2208213025114235,-0.5860067003368398,0.2299006156191123,5.0
19.032691955566406,15.645845413208008,-0.1399323940277099,-0.0499447300210011,0.982488908791598,0.1795022786613706,0.1753831870121721,9.0
19.12714195251465,16.560501098632812,0.0550994873046875,0.0655134648433893,0.0007993823206525,-0.9978513651401794,0.1575677294112944,9.0
19.70885848999023,17.32501983642578,-1.0029726028442385,-0.0,-0.0,-1.0,0.1109333336184611,1.0
19.662914276123047,16.639575958251953,-0.901801586151123,-0.0,-0.0,-1.0,0.2077629944396785,2.0
19.395410537719727,17.38201904296875,-0.9715936183929444,-0.0,-0.0,-1.0,0.1200249360249694,1.0
19.15981674194336,15.987297058105469,-0.9644510746002196,-0.7695537094846409,-0.0096202852434028,-0.6385096227389724,0.1414508212166112,3.0
19.111902236938477,16.76926040649414,-0.960092067718506,-0.0,-0.0,-1.0,0.1235423636473251,1.0
19.12548065185547,17.12179946899414,-1.1426196098327637,-0.0,-0.0,-1.0,0.0666452334251935,1.0
18.962324142456055,16.034839630126953,-1.0344810485839844,-0.0,-0.0,-1.0,0.1478544213077522,1.0
18.65586853027344,16.33218002319336,-1.1714544296264648,-0.0,-0.0,-1.0,0.03867041227486,2.0
18.778575897216797,16.582958221435547,-1.1657447814941406,-0.0,-0.0,-1.0,0.0446133634864539,2.0
18.55577278137207,17.149717330932617,-1.0320830345153809,0.8111227964086792,0.3607122225374786,-0.4603981990171515,0.14645105215052,3.0
18.65692901611328,17.404565811157227,-1.0384182929992676,-0.2984002751861957,0.2310109109937362,-0.9260622197080748,0.0633679530006378,4.0
18.18514060974121,16.98410415649414,-1.110517501831055,-0.0,-0.0,-1.0,0.0486555723515412,1.0
18.02481460571289,15.821249961853027,-1.033063888549805,-0.0,-0.0,-1.0,0.1673631895930357,1.0
18.05445671081543,16.121826171875,-1.052940845489502,-0.0,-0.0,-1.0,0.1722785121935451,2.0
17.7976131439209,16.837434768676758,-1.203846454620361,-0.0,-0.0,-1.0,0.0207983100939818,2.0
19.507659912109375,16.9039306640625,-0.7371523380279541,-0.0,-0.0,-1.0,0.1099649249770331,1.0
17.874433517456055,15.84735870361328,-0.7945575714111328,0.1807690440252265,0.6494645857794985,-0.7385921097198851,0.1717052063172998,4.0
17.949291229248047,16.113601684570312,-0.796471118927002,-0.0,-0.0,-1.0,0.1800518526070988,2.0
19.294191360473633,16.407474517822266,-0.0024752616882324,0.4445265610278966,0.6026890094137418,-0.6626930620374673,0.1303276148152987,6.0
19.18206024169922,15.692216873168944,-0.2081940174102783,-0.0,-0.0,-1.0,0.1247497855698881,2.0
18.971311569213867,15.671060562133787,-0.2540981769561767,-0.4192753852030063,0.8972236655124957,-0.1385562896702706,0.1199474781761551,3.0
17.869625091552734,15.882818222045898,-0.7950800657272339,-0.0,-0.0,-1.0,0.1502807121148528,2.0
17.934326171875,16.140775680541992,-0.7969640493392944,-0.1355293552933816,-0.0925315627060808,-0.9864429551458768,0.1786528886868242,3.0
17.826589584350586,15.73207950592041,-0.7967013120651245,-0.3958015856655629,0.2818606165562243,-0.8740112685882095,0.1027053511655843,5.0
19.57866477966309,16.234439849853516,-0.1360970735549926,0.8474139719484816,-0.3499495135486583,-0.3992804754975579,0.166089944939973,3.0
19.337173461914062,16.44775390625,-0.0038660764694213,0.829006186215145,0.4534604144626052,-0.3272955785409004,0.0849541550519923,5.0
19.16482925415039,16.42023468017578,-0.0375788211822509,0.1487689253327489,0.2114075606837094,-0.966009653233912,0.1496714632857844,6.0
19.576248168945312,16.17389678955078,-0.1899471282958984,0.0621708300073913,-0.0312409335188664,-0.9975764592095496,0.1269459784004144,7.0
19.330171585083008,16.315414428710938,-0.0936771631240844,-0.9482049751567804,0.1569557437618743,-0.2761742558387479,0.2142702150358375,7.0
19.156394958496097,16.485733032226562,0.0342209339141845,-0.1837314627712294,0.785451400163744,-0.5910235592332664,0.1684758767105051,13.0
19.066015243530273,16.330738067626953,-0.1637053489685058,-0.9779125757510412,0.0999129765574808,0.1835875575941564,0.1886034554590945,4.0
18.923749923706055,15.64924144744873,-0.157047152519226,0.9549877424909826,-0.1593487639920709,-0.2502126757504027,0.1398374407120967,5.0
18.894577026367188,15.710942268371582,-0.159351110458374,0.5444980003740594,0.7894038385206912,-0.2834845803874517,0.286362270528683,9.0
19.325626373291016,16.33687400817871,-0.0210809707641601,-0.100865317767908,-0.961755007014088,-0.2546634919946532,0.2270472808106825,3.0
19.187274932861328,16.485780715942383,0.0119421482086181,0.1935053942801559,0.9810896895847236,0.0043224269840214,0.1659159772287966,13.0
19.12378692626953,16.12912940979004,-0.0829981565475463,0.6524489648244182,-0.0445772776313242,-0.7565204654327103,0.1059531852681275,7.0
18.93275451660156,15.687456130981444,-0.1474547386169433,0.7234630424557283,-0.0977676371578981,-0.6834052350730586,0.2413305242806884,8.0
19.08000946044922,16.05906105041504,-0.0306289196014404,0.896886169704495,-0.3967488961708819,-0.19541113576249,0.1199690153413109,6.0
19.114517211914062,16.405912399291992,-0.1045975685119628,-0.0900692026456497,0.7931932644852242,-0.6022723502785506,0.2130534877156749,7.0
19.015811920166016,16.502948760986328,0.0228631496429443,-0.0,-0.0,-1.0,0.1477226594724057,2.0
19.292171478271484,16.238401412963867,-0.040694236755371,-0.5076177783746537,-0.6080725891064918,-0.6103866950182554,0.2437326192418247,3.0
19.1381778717041,16.245651245117188,-0.0037283897399902,-0.0,-0.0,-1.0,0.1137798729694927,2.0
19.535268783569336,16.090286254882812,-0.1109519004821777,0.3465820866702558,0.5699366584567644,-0.7450188336857189,0.1644288741683361,3.0
19.561525344848633,15.721969604492188,-0.9516241550445556,0.4541257103444105,0.198255553625323,-0.8685992025444763,0.0863094183299604,5.0
19.056020736694336,15.847867012023926,-1.115403175354004,-0.0,-0.0,-1.0,0.2036479388386746,2.0
19.111900329589844,15.700740814208984,-1.1286582946777344,-0.0,-0.0,-1.0,0.1891536857989662,1.0
19.319107055664062,16.560178756713867,0.0961552858352661,-0.0,-0.0,-1.0,0.1304203763527956,2.0
18.78313446044922,17.001604080200195,-1.1336482763290403,-0.0,-0.0,-1.0,0.0263753920219245,1.0
18.897817611694336,16.834712982177734,-1.1454087495803833,-0.0,-0.0,-1.0,0.0162672103084849,1.0
18.6202449798584,17.143022537231445,-1.1006203889846802,-0.875685937350008,0.4526705814401369,-0.168117470317887,0.0853282425585167,3.0
18.686466217041016,17.122390747070312,-1.1209293603897097,-0.0,-0.0,-1.0,0.0503346790112862,1.0
18.867189407348633,16.792259216308594,-1.126259207725525,-0.0,-0.0,-1.0,0.0179196696754145,1.0
19.612550735473633,17.024154663085938,-0.8449339866638184,-0.0,-0.0,-1.0,0.152819577425552,1.0
19.220876693725582,15.638925552368164,-0.1897412538528442,-0.450351205210005,-0.4141543581489698,-0.7909867000096215,0.0972888888429417,4.0
19.384063720703125,16.30186653137207,-0.1432087421417236,-0.7509618797654968,-0.1075498106562289,-0.6515284286712907,0.1871277994095963,3.0
19.077049255371097,16.073802947998047,-0.0765912532806396,0.8145445394946924,-0.5040252724827213,0.2871858594675199,0.1364747709796089,6.0
19.150814056396484,16.512718200683594,0.0553703308105468,-0.0088856555477522,0.5936591377938015,-0.8046675544840904,0.1267932319910788,9.0
19.05438995361328,16.64301300048828,-0.7434195280075073,-0.0,-0.0,-1.0,0.172988504906778,2.0
19.404300689697266,16.904064178466797,-0.7706166505813599,-0.3801359280668544,-0.5402989307274471,-0.7507154864844129,0.1048585986728161,3.0
19.150787353515625,16.665382385253906,-0.7461422681808472,-0.0,-0.0,-1.0,0.1614492536321629,2.0
18.66755485534668,17.385059356689453,-1.0432453155517578,-0.1644127432893031,0.1516277823069579,-0.974667874445834,0.0433201401073471,3.0
18.33207130432129,17.174793243408203,-1.022836208343506,-0.0,-0.0,-1.0,0.2018523937555231,1.0
18.546066284179688,17.1826171875,-1.0234074592590332,-0.0,-0.0,-1.0,0.1445942926661177,2.0
17.938215255737305,15.82009220123291,-0.8916139602661133,-0.0,-0.0,-1.0,0.1227400739231012,2.0
17.76421356201172,15.689051628112791,-0.8796653747558594,-0.7975757494222494,0.030064774178131,-0.6024691139694672,0.0990028499699327,5.0
18.947437286376953,16.364139556884766,0.0499444007873535,-0.0,-0.0,-1.0,0.2186712957887457,1.0
19.10673141479492,16.383426666259766,-0.0531392097473144,-0.9989567123582118,-0.0061600167750685,-0.0452497627375389,0.1614675061238182,5.0
18.247642517089844,17.148557662963867,-0.9691212177276612,-0.0,-0.0,-1.0,0.1234987804415005,2.0
18.13844871520996,17.014619827270508,-0.9586236476898192,-0.0,-0.0,-1.0,0.0691790248295314,1.0
17.884363174438477,17.062963485717773,-1.1246895790100098,-0.0,-0.0,-1.0,0.086358325609645,1.0
18.49882125854492,16.802724838256836,-1.088817119598389,-0.0,-0.0,-1.0,0.0457860756490341,1.0
18.279361724853516,16.759653091430664,-1.0884466171264648,-0.0,-0.0,-1.0,0.0395854583301268,1.0
17.837284088134766,15.653371810913086,-0.9905338287353516,-0.6991157697707722,-0.6104980714797511,-0.3721951708140845,0.0637736783917913,4.0
18.3546199798584,16.11174964904785,-1.1202514171600342,-0.0,-0.0,-1.0,0.0312812000530153,1.0
19.046924591064453,16.02726173400879,-1.099060297012329,-0.0,-0.0,-1.0,0.1737779500583461,1.0
18.83108139038086,16.017141342163086,-1.101928472518921,-0.0,-0.0,-1.0,0.2209904862260413,1.0
18.186391830444336,15.878442764282228,-1.1005547046661377,-0.0,-0.0,-1.0,0.07005177376356,1.0
18.565101623535156,15.871620178222656,-1.145592212677002,-0.0,-0.0,-1.0,0.0286814653996011,2.0
18.33670425415039,15.900497436523438,-1.152601718902588,-0.0,-0.0,-1.0,0.047266297070692,1.0
18.15853500366211,15.707149505615234,-1.1366701126098633,-0.0,-0.0,-1.0,0.0628909072879117,1.0
18.482276916503903,17.1678409576416,-0.9020814895629884,0.0175201181669623,0.8926421538571393,0.4504253885125737,0.1850213804317347,3.0
18.32342529296875,17.230810165405273,-0.910609245300293,0.5328390217344499,0.6770313250617905,-0.5076525995226959,0.1296599355454696,4.0
17.78400421142578,15.746038436889648,-0.7868537902832031,-0.0883049356377017,0.3801292294327225,-0.9207084268501652,0.1011425509645802,3.0
19.439435958862305,16.22537612915039,-0.0977823734283447,0.9810962867318244,-0.1493742604226828,-0.1230341679542853,0.1500069238155374,3.0
19.150142669677734,16.152847290039062,-0.068235158920288,0.7782685985445879,-0.4947478389238027,0.3866814766699719,0.1430753487288956,6.0
19.089271545410156,16.410112380981445,0.0116434097290039,0.4612900706991042,0.8071094935231791,-0.3684911615482417,0.1565111800822851,3.0
18.889076232910156,15.926189422607422,-0.9174020290374756,-0.0,-0.0,-1.0,0.1793806252336624,2.0
18.561859130859375,17.318214416503906,-1.0716593265533447,-0.0,-0.0,-1.0,0.0777174021342713,1.0
18.220876693725582,17.120410919189453,-1.0649569034576416,-0.0,-0.0,-1.0,0.0726162546598082,1.0
17.91556167602539,17.343883514404297,-1.0998566150665283,-0.0,-0.0,-1.0,0.0378189400334588,1.0
17.74463653564453,15.718074798583984,-0.9417474269866944,0.0154814447240886,-0.8826780316407257,-0.4697231283725649,0.2166013793111885,5.0
19.245834350585938,16.05469512939453,-1.1119592189788818,-0.0,-0.0,-1.0,0.0665545615615595,1.0
19.09743881225586,16.18932342529297,-1.1326239109039309,-0.0,-0.0,-1.0,0.1262425634656803,1.0
18.83866500854492,16.186859130859375,-1.1425292491912842,-0.0,-0.0,-1.0,0.0323120258201217,1.0
18.559062957763672,16.42845916748047,-1.1803934574127195,-0.0,-0.0,-1.0,0.057428552304493,1.0
18.18483543395996,16.139862060546875,-1.1636927127838137,-0.0,-0.0,-1.0,0.0405526692300367,1.0
18.359310150146484,16.41616439819336,-1.187110185623169,-0.0,-0.0,-1.0,0.0494041426757582,1.0
17.91562271118164,16.16815185546875,-1.1779639720916748,-0.0,-0.0,-1.0,0.1538745414517762,2.0
18.0273494720459,16.385608673095703,-1.1973435878753662,-0.0,-0.0,-1.0,0.0613784050352896,2.0
19.333160400390625,16.21880340576172,-0.0552582740783691,-0.5600756463204651,-0.6295473120622044,-0.5385029733195228,0.1615349328621689,4.0
19.463626861572266,16.295028686523438,-0.0550415515899658,-0.0,-0.0,-1.0,0.1164489504878691,1.0
19.14441299438477,16.111957550048828,-0.0559420585632324,0.5058584983168672,0.1487092777171417,-0.8497015537242768,0.1243214630587789,8.0
19.488840103149418,16.37563133239746,-0.094597578048706,-0.0,-0.0,-1.0,0.1467714951410314,1.0
19.24811363220215,16.2124080657959,-0.0907220840454101,-0.0,-0.0,-1.0,0.1128515079611993,1.0
19.554141998291016,16.18842124938965,-0.1818172931671142,-0.2991945597685503,-0.3351971260076823,-0.89337870028398,0.1376027335306875,8.0
19.106813430786133,15.679193496704102,-0.1523230075836181,0.2772973239033846,0.7648612521247599,-0.5814580459105936,0.130077360304667,9.0
18.859783172607425,15.699647903442385,-0.1648948192596435,0.3042284307276367,0.054267505788481,-0.9510521014920776,0.2024572021286232,8.0
19.391433715820312,17.002561569213867,-0.7216391563415527,-0.7448875039982893,-0.6629484715083233,0.0751127852763829,0.1077083438023043,3.0
19.04414176940918,16.784582138061523,-0.7185473442077637,-0.7216260876494263,0.0714168997468027,-0.6885894394008216,0.1036047261361409,4.0
19.22574806213379,15.661628723144531,-0.2044012546539306,-0.450351205210005,-0.4141543581489698,-0.7909867000096215,0.1188274751753934,4.0
19.063566207885746,15.675071716308594,-0.213186502456665,0.9127744153845492,0.3919021721944355,0.115132767050383,0.133128319341045,6.0
19.16370010375977,16.741735458374023,-0.7552621364593506,-0.5036655526344654,0.4313301446956561,-0.7485154089036796,0.1948454915031492,3.0
18.05899429321289,17.130887985229492,-1.0981159210205078,-0.8764640244128197,-0.4078494052334907,-0.2558704292425604,0.0680055753576151,4.0
17.961750030517578,15.93014907836914,-0.9332833290100098,-0.0,-0.0,-1.0,0.1651693323911843,2.0
17.808147430419922,15.698600769042969,-0.9087862968444824,-0.0,-0.0,-1.0,0.0901605574184686,2.0
19.54008674621582,16.68427085876465,-0.8608925342559814,-0.989519894914291,-0.1197314745957924,-0.0807140109270229,0.1503834067058418,3.0
18.463970184326172,17.23460578918457,-0.9846975803375244,0.3720143126334602,0.8923817930847426,0.2554605381790186,0.149952842672749,3.0
18.26894760131836,17.324922561645508,-1.0063297748565674,-0.843317975202564,0.2960513211854966,0.4485180129321116,0.1236812191083743,3.0
17.74711799621582,15.816373825073242,-0.8125617504119873,-0.5995390084229052,-0.6153253801833102,-0.5117886808845469,0.1005657025258071,4.0
18.67630195617676,15.6790189743042,-1.118927001953125,-0.0,-0.0,-1.0,0.0571878893080659,1.0
18.36421012878418,15.65111255645752,-1.1173863410949707,-0.0,-0.0,-1.0,0.0374114615984324,2.0
19.412805557250977,15.828133583068848,-1.0315709114074707,0.5287436445135739,0.8313161199709099,-0.1712999330502357,0.1326436323957569,3.0
19.25464630126953,16.13311004638672,-1.088024616241455,-0.0,-0.0,-1.0,0.0715040093154622,2.0
19.07893943786621,15.871289253234863,-1.043169021606445,-0.0,-0.0,-1.0,0.2435410638570223,2.0
18.96047019958496,16.16482162475586,-1.0975847244262695,-0.0,-0.0,-1.0,0.078805013847224,2.0
18.648645401000977,16.334251403808594,-1.1329684257507324,-0.0,-0.0,-1.0,0.0407827143933628,2.0
18.445316314697266,16.382755279541016,-1.1453185081481934,-0.0,-0.0,-1.0,0.0368573817812827,1.0
18.19451141357422,16.435592651367188,-1.1598105430603027,-0.0,-0.0,-1.0,0.0595992646152418,2.0
19.695905685424805,16.12308120727539,-0.2141485214233398,0.9262993360606792,0.3049787348113628,0.2212634432670823,0.1670429846027075,7.0
19.062265396118164,15.682467460632324,-0.1611685752868652,0.8200254417905349,0.1688089970906628,-0.54686542889223,0.167502167969395,10.0
19.092697143554688,15.830387115478516,-1.1223556995391846,-0.0,-0.0,-1.0,0.1752474238852269,2.0
18.55187225341797,15.984369277954102,-1.1574819087982178,-0.0,-0.0,-1.0,0.0263446371121916,2.0
18.13307762145996,15.890560150146484,-1.145721673965454,-0.0,-0.0,-1.0,0.0889727483158334,2.0
18.84445571899414,16.898380279541016,-1.1334002017974854,-0.0,-0.0,-1.0,0.011129985437027,2.0
18.541683197021484,16.816238403320312,-1.1189663410186768,-0.0,-0.0,-1.0,0.0493602437894931,1.0
18.207963943481445,16.778671264648438,-1.1137850284576416,-0.0,-0.0,-1.0,0.0518906091998517,1.0
19.590572357177734,15.7429780960083,-0.9179165363311768,0.6025372659362555,0.5148862827804318,-0.6097876343142843,0.1187132852372873,4.0
19.2867374420166,15.808993339538574,-0.9289019107818604,-0.0,-0.0,-1.0,0.1655062906889407,2.0
19.029373168945312,15.884379386901855,-0.9424149990081788,-0.8519359662026238,-0.4667132987364237,0.2374527453472945,0.2061393037808806,4.0
18.887596130371097,15.959565162658691,-0.956493616104126,-0.0,-0.0,-1.0,0.187448665798231,2.0
17.71051788330078,15.698777198791504,-0.9131133556365968,0.0517378910615207,-0.8800744894722147,-0.4720085630671617,0.1842762684904313,4.0
19.66924476623535,16.152721405029297,-0.1846392154693603,0.1695203949362085,0.8068204689683282,-0.5659536788063128,0.1674916878402107,5.0
19.59940528869629,16.198047637939453,-0.1917083263397216,-0.0037136101313992,0.0056565866580676,-0.9999771058015136,0.1592477999768318,6.0
18.880247116088867,15.736422538757324,-0.1249420642852783,0.0893780492757413,0.0688296664440868,-0.9936166470650836,0.1782762425040745,6.0
19.5092830657959,15.93795680999756,-0.7345802783966064,0.6285427145507654,0.3875304175984969,-0.6743546777631851,0.1114239160497716,3.0
19.366130828857425,16.704421997070312,-0.8758299350738525,-0.0,-0.0,-1.0,0.1601195715126291,1.0
18.53388214111328,17.224246978759766,-0.9732873439788818,-0.0,-0.0,-1.0,0.1567704388018432,2.0
18.403987884521484,17.17742156982422,-0.9652035236358644,0.7949088015160529,0.1988986852702226,-0.5732009335914322,0.2116849930581149,5.0
18.279571533203125,17.340412139892578,-0.9965784549713136,-0.843317975202564,0.2960513211854966,0.4485180129321116,0.1600595932583407,3.0
17.821311950683594,16.199649810791016,-0.7858827114105225,0.2390746439461004,-0.5789904545448206,-0.7794955857270955,0.1287361069240892,5.0
19.30815696716309,16.43023681640625,-0.0386362075805664,-0.8419056186393998,0.5067335149283716,0.1855156978580184,0.1165108186766868,7.0
19.195940017700195,16.453243255615234,-0.0427334308624267,-0.634533170838527,0.7727988863794937,0.0122285042510933,0.1140478379910007,8.0
19.62142562866211,16.847896575927734,-0.7238831520080566,-0.0,-0.0,-1.0,0.1052851713361912,1.0
19.41613388061523,16.94509506225586,-0.7398197650909424,-0.8234195837503284,-0.1766445103164565,-0.5392373374234156,0.099621395049792,3.0
19.01165771484375,16.750524520874023,-0.7007765769958496,-0.2029983092272298,-0.9757512304439124,-0.0818609964395598,0.1318120537412068,4.0
19.128137588500977,16.577932357788086,0.0875992774963378,-0.4894506693110625,0.1093690568078136,-0.8651453356077938,0.2217784346587433,6.0
19.1190128326416,15.773760795593262,-1.1482923030853271,-0.0,-0.0,-1.0,0.121397598813675,1.0
18.866485595703125,15.87218952178955,-1.1648099422454834,-0.0,-0.0,-1.0,0.0951640920971358,1.0
18.64200210571289,15.952591896057127,-1.17859148979187,-0.0,-0.0,-1.0,0.0688115884324988,1.0
18.286178588867188,15.942917823791504,-1.171867609024048,-0.0,-0.0,-1.0,0.0404469069094234,1.0
18.02936363220215,15.90218448638916,-1.1603014469146729,-0.0,-0.0,-1.0,0.0975148392014919,1.0
17.802804946899414,15.69137477874756,-1.1121246814727783,-0.0,-0.0,-1.0,0.2576452913411249,2.0
19.19173812866211,15.667217254638672,-1.1254863739013672,-0.0,-0.0,-1.0,0.1438335304119059,2.0
19.035778045654297,15.803747177124023,-1.1493675708770752,-0.0,-0.0,-1.0,0.1455892642267438,1.0
18.799413681030273,15.914512634277344,-1.1660077571868896,-0.0,-0.0,-1.0,0.1367696371677703,1.0
18.45482635498047,16.00954818725586,-1.1773409843444824,-0.0,-0.0,-1.0,0.0372811638049535,2.0
18.117576599121097,15.867416381835938,-1.139115571975708,-0.0,-0.0,-1.0,0.0814113884458734,2.0
18.109413146972656,15.987510681152344,-1.164875030517578,-0.0,-0.0,-1.0,0.0699710165776337,2.0
17.78369140625,15.693248748779297,-1.0949368476867676,-0.621926662354975,-0.4471530565282816,-0.6428540819574973,0.2361876414900863,3.0
19.27898597717285,17.02783966064453,-0.6946496963500977,-0.0,-0.0,-1.0,0.0457031480055725,2.0
19.105039596557617,16.616857528686523,0.0799300670623779,-0.5855579217394163,-0.4766531096592719,-0.6556856970686197,0.2367824651811494,3.0
18.838762283325195,17.437522888183594,-1.0697836875915527,-0.0,-0.0,-1.0,0.0387203700265429,2.0
19.581335067749023,16.01378631591797,-0.8346724510192871,-0.0,-0.0,-1.0,0.0929538416107857,1.0
18.640682220458984,17.19790267944336,-1.0173354148864746,-0.0,-0.0,-1.0,0.0849362241072928,1.0
18.442075729370117,17.12857437133789,-0.9975297451019288,0.4404921187235953,-0.7281628430318842,-0.5251148135123609,0.1419608102927761,3.0
17.892698287963867,16.14028549194336,-0.79119873046875,-0.1122373314273576,0.6454392336425431,-0.7555203353378334,0.1132658469853888,3.0
19.680561065673828,16.10212516784668,-0.1936278343200683,-0.0996608481648641,0.8612614677510431,0.4982934873248685,0.1515503408835285,4.0
19.558513641357425,16.149629592895508,-0.1965482234954834,0.3596218240240542,0.2400809639160387,-0.901683577786996,0.1195381483617329,5.0
18.82596015930176,15.701210975646973,-0.1047456264495849,0.219688456574662,0.960340209061771,-0.1717080804942987,0.161819826058576,3.0
19.372493743896484,16.185651779174805,-1.0833072662353516,-0.0,-0.0,-1.0,0.0674736770411634,1.0
18.98913955688477,16.31678009033203,-1.0885543823242188,-0.0,-0.0,-1.0,0.0988992698350464,1.0
18.762683868408203,16.653423309326172,-1.1456661224365234,-0.0,-0.0,-1.0,0.0543403088513345,2.0
18.482257843017575,16.69969940185547,-1.1419246196746826,-0.0,-0.0,-1.0,0.0557867158755294,1.0
17.732463836669922,17.065139770507812,-1.1876215934753418,-0.0,-0.0,-1.0,0.0477343836012594,1.0
19.58224868774414,15.703203201293944,-0.9996633529663086,-0.0,-0.0,-1.0,0.0601664848757829,1.0
19.07303810119629,16.01835823059082,-1.03267502784729,-0.6235770618006576,-0.6687056720464458,-0.4049498390775948,0.1209686310408884,4.0
17.831798553466797,15.664294242858888,-0.8990840911865234,-0.1038077195221602,-0.3362816300648195,-0.9360227682319252,0.0894003334403332,3.0
17.750572204589844,15.693052291870115,-0.9016125202178956,-0.0100299273429537,-0.8437383703940028,-0.5366609384726707,0.1169470624315227,7.0
19.596832275390625,16.742504119873047,-0.8699278831481934,0.5742274345557694,0.4126148736827972,-0.7071151387286438,0.1460997822717927,3.0
19.6827449798584,16.815258026123047,-0.8888578414916992,-0.1376495718840865,0.9820612345489343,-0.1288732980735362,0.137511744303973,4.0
18.47242546081543,17.388795852661133,-0.9291577339172364,-0.3510797829788009,0.8919554109997994,0.2848833634520216,0.0654062155247646,6.0
18.674474716186523,15.711164474487305,-1.2129805088043213,-0.0,-0.0,-1.0,0.0257338190834327,1.0
18.3658390045166,15.777806282043455,-1.2048802375793457,-0.0,-0.0,-1.0,0.0353900274086616,1.0
18.166296005249023,15.814128875732422,-1.198927879333496,-0.0,-0.0,-1.0,0.0594896842776812,1.0
17.836307525634766,15.71686840057373,-1.155120611190796,-0.0,-0.0,-1.0,0.2020729562592105,1.0
19.559310913085938,15.874814987182615,-0.7076690196990967,-0.0,-0.0,-1.0,0.0747919174133918,1.0
19.528305053710938,15.93760585784912,-0.7170522212982178,-0.0,-0.0,-1.0,0.0980508272870664,2.0
19.21054458618164,16.70546531677246,-0.8391134738922119,-0.0,-0.0,-1.0,0.2152318733991837,1.0
19.528249740600582,16.164382934570312,-0.1456549167633056,0.633589793644822,-0.4004686981704268,-0.661958303199526,0.1815745126943575,3.0
19.110504150390625,16.36125946044922,-0.1564033031463623,-0.5003558516750595,0.8283258413551444,-0.2520323833117842,0.2449336378043851,4.0
19.1329345703125,16.0318660736084,-0.1065452098846435,0.3225353994181935,0.1777038575033478,-0.9297269788225876,0.1059127163624349,4.0
19.671043395996097,15.65399932861328,-0.9568486213684082,-0.0,-0.0,-1.0,0.0981800596296113,1.0
19.299043655395508,16.604848861694336,-1.1160826683044434,-0.0,-0.0,-1.0,0.0919706013974022,1.0
19.349515914916992,15.82476043701172,-0.961890697479248,-0.0,-0.0,-1.0,0.1509132938772739,1.0
19.217124938964844,16.138896942138672,-1.0139720439910889,-0.0,-0.0,-1.0,0.0920019001286759,1.0
19.123592376708984,16.757722854614258,-1.133190393447876,-0.0,-0.0,-1.0,0.0380058794747386,1.0
18.870262145996097,16.90594482421875,-1.1440811157226562,-0.0,-0.0,-1.0,0.014424376119863,2.0
19.045318603515625,15.861577987670898,-0.9427881240844728,-0.8051780065716959,-0.5659736582291811,0.1770937489690355,0.2108530578945218,3.0
18.87800407409668,16.068294525146484,-0.971088171005249,-0.0,-0.0,-1.0,0.1193079835046663,1.0
18.601024627685547,16.957717895507812,-1.134526252746582,-0.0,-0.0,-1.0,0.0605095622775332,1.0
17.826305389404297,17.374998092651367,-1.1705706119537354,0.2906863526970657,-0.9559766259465012,0.0401264875066376,0.0143399546916154,3.0
19.2176456451416,16.529451370239258,0.1051177978515625,-0.0,-0.0,-1.0,0.1760001559677282,1.0
19.495819091796875,15.814956665039062,-1.0579569339752195,-0.0,-0.0,-1.0,0.0850405667982493,1.0
19.425077438354492,16.044904708862305,-1.096095085144043,-0.0,-0.0,-1.0,0.0829716310446473,1.0
19.17546844482422,16.14457893371582,-1.0887119770050049,-0.0,-0.0,-1.0,0.085741467846441,1.0
18.887916564941406,16.486146926879883,-1.1283278465270996,-0.0,-0.0,-1.0,0.075475904237677,2.0
18.657453536987305,16.691123962402344,-1.147545576095581,-0.0,-0.0,-1.0,0.057526039828794,1.0
17.899436950683594,17.09447479248047,-1.161344051361084,-0.0,-0.0,-1.0,0.0822420564483576,1.0
17.759456634521484,17.242868423461914,-1.181175947189331,-0.0,-0.0,-1.0,0.050910557098007,2.0
19.24350357055664,16.99835205078125,-0.6699783802032471,-0.7823562850927765,-0.5616977019281223,0.269099117100923,0.0580582506096689,3.0
19.381546020507812,15.643916130065918,-1.010362148284912,-0.0,-0.0,-1.0,0.1402887986128621,1.0
19.229372024536133,16.480127334594727,0.0007245540618896,-0.3242712430366104,0.8810677143038531,-0.3443368173037488,0.1334121263376254,11.0
19.15686416625977,16.52782440185547,-0.0013542175292968,0.8519386917485342,-0.2232980437458038,-0.4736437998761231,0.1678957465790469,9.0
19.609432220458984,16.3387451171875,-1.0681731700897217,-0.0,-0.0,-1.0,0.1536224657293367,2.0
19.474510192871097,16.37325096130371,-1.0629115104675293,-0.0,-0.0,-1.0,0.0779661088210404,1.0
19.270936965942383,16.711885452270508,-1.1182048320770264,0.3778254107669677,0.6606886189995035,-0.6486435906592319,0.0857721124520004,3.0
19.00321578979492,16.85921287536621,-1.1271581649780271,-0.0,-0.0,-1.0,0.03251890347026,1.0
18.843036651611328,17.015417098999023,-1.1485319137573242,-0.0,-0.0,-1.0,0.0180521332118699,1.0
17.89295196533203,17.414379119873047,-1.1665315628051758,-0.0,-0.0,-1.0,0.0202639021583793,1.0
19.604625701904297,16.06597328186035,-1.009204387664795,-0.5884643988010032,-0.2814104946253141,-0.7579695144651337,0.1004129720882402,3.0
19.504240036010746,15.832977294921877,-0.9497332572937012,-0.0,-0.0,-1.0,0.1050875033710532,2.0
19.533954620361328,16.151561737060547,-1.0207231044769287,0.8301922629306401,-0.2535490181952227,-0.4964813208393058,0.0744040663860683,4.0
19.048248291015625,15.86662769317627,-0.9133296012878418,-0.8051780065716959,-0.5659736582291811,0.1770937489690355,0.1316366379476607,3.0
18.04311752319336,17.1337947845459,-1.1125059127807615,-0.8764640244128197,-0.4078494052334907,-0.2558704292425604,0.0682919614971861,4.0
18.02039909362793,17.201244354248047,-1.1263489723205566,-0.0,-0.0,-1.0,0.0480982467420734,2.0
17.711143493652344,15.838309288024902,-0.7915399074554443,-0.6446488435086739,-0.5217838078684532,-0.5587213316217899,0.1514501317531306,3.0
19.130455017089844,16.938430786132812,-0.5723881721496582,-0.0,-0.0,-1.0,0.1234745593349816,1.0
19.173362731933594,16.569345474243164,0.0602149963378906,-0.1737878047281006,0.9224219852991138,-0.3448702364145528,0.2222731786166726,6.0
19.329265594482425,16.056724548339844,-1.092205286026001,-0.0,-0.0,-1.0,0.0911322780623846,1.0
19.148757934570312,16.197574615478516,-1.103461980819702,-0.0,-0.0,-1.0,0.0669584634488907,1.0
19.129249572753903,16.093624114990234,-1.077648639678955,-0.0,-0.0,-1.0,0.1071677005886254,1.0
18.93425941467285,16.304445266723633,-1.1041929721832275,-0.0,-0.0,-1.0,0.1015036666489029,1.0
18.78013610839844,16.560670852661133,-1.146674871444702,-0.0,-0.0,-1.0,0.0446241181296341,2.0
18.615482330322266,16.592254638671875,-1.1367192268371582,-0.0,-0.0,-1.0,0.0756669021907707,1.0
17.865524291992188,17.0343017578125,-1.1678686141967771,-0.0,-0.0,-1.0,0.0608179724537146,1.0
17.716978073120117,17.117168426513672,-1.17433500289917,-0.0,-0.0,-1.0,0.0490387351503878,2.0
19.562992095947266,16.943225860595703,-0.7478153705596924,-0.0,-0.0,-1.0,0.089180530204447,1.0
19.50428009033203,17.365703582763672,-0.8275716304779053,0.8558073394764218,0.1342406360721781,-0.4995730670534846,0.2100150294479469,3.0
19.409955978393555,16.979482650756836,-0.7416508197784424,-0.815245272193614,-0.1758434845422357,-0.551773699182921,0.1085035884381933,3.0
19.37317276000977,17.020244598388672,-0.7466604709625244,0.2921248134826827,-0.9041269484651938,-0.3117972969843137,0.1103409504030897,4.0
19.31844711303711,16.349727630615234,-0.0667800903320312,0.4477390264203776,0.8318788769680615,-0.327883055790459,0.2304600708585784,6.0
19.626678466796875,15.807110786437988,-0.9668912887573242,-0.0,-0.0,-1.0,0.0902529067727914,2.0
19.53634452819824,16.271181106567383,-1.0584275722503662,-0.0,-0.0,-1.0,0.0727512640093028,1.0
19.589126586914062,15.70211696624756,-0.9389944076538086,0.5877104157559471,0.3543905776972446,-0.7273264642864202,0.0891801712881688,3.0
19.50066375732422,15.919090270996094,-0.975412368774414,-0.0,-0.0,-1.0,0.1435192454320233,1.0
19.374908447265625,16.210302352905273,-1.0247366428375244,-0.0,-0.0,-1.0,0.0950426052428622,1.0
19.302047729492188,16.687576293945312,-1.1248438358306885,0.3778254107669677,0.6606886189995035,-0.6486435906592319,0.1063170218176602,3.0
19.12600326538086,16.860248565673828,-1.1441600322723389,-0.0,-0.0,-1.0,0.0467761683028628,1.0
18.913589477539062,16.996959686279297,-1.152259349822998,-0.0,-0.0,-1.0,0.023995586946986,1.0
18.024188995361328,17.30572509765625,-1.1333436965942385,-0.0,-0.0,-1.0,0.0473686469616584,1.0
17.83456039428711,17.586624145507812,-1.184821367263794,-0.0,-0.0,-1.0,0.0203120507396182,1.0
19.23125457763672,17.024879455566406,-0.6502187252044678,-0.5336339777584097,0.3327424194039006,-0.7775070804249796,0.0565404171525316,3.0
17.72570037841797,16.115772247314453,-0.8123862743377686,-0.0,-0.0,-1.0,0.1615681411911186,2.0
19.261489868164062,16.497806549072266,-0.023432970046997,-0.0630437888935938,-0.4637705057553834,-0.883709453764831,0.1505488254433003,4.0
19.155881881713867,16.531269073486328,-0.0217359066009521,0.8495424044048338,-0.2289660407783389,-0.4752391558871662,0.1389812952051711,6.0
19.578235626220703,15.821590423583984,-0.9763054847717284,-0.0,-0.0,-1.0,0.1103889975392095,2.0
19.52112197875977,16.184425354003906,-1.0428097248077393,0.9658164267718552,0.0035628062114817,-0.2592025003535743,0.0661809832599248,4.0
19.437143325805664,16.52379035949707,-1.1019141674041748,-0.0,-0.0,-1.0,0.0466710624688143,1.0
19.310508728027344,16.68921661376953,-1.1182446479797363,0.3778254107669677,0.6606886189995035,-0.6486435906592319,0.0871450868497972,3.0
19.095355987548828,16.927011489868164,-1.1384143829345703,-0.0,-0.0,-1.0,0.0371059938291984,1.0
18.815608978271484,17.114925384521484,-1.1396028995513916,-0.0,-0.0,-1.0,0.0246212851178532,1.0
18.430620193481445,17.05048179626465,-1.0700671672821045,-0.0,-0.0,-1.0,0.0884413555739895,1.0
18.214431762695312,17.234914779663086,-1.08315110206604,-0.0,-0.0,-1.0,0.0668982206781377,2.0
18.034170150756836,17.571016311645508,-1.1383976936340332,-0.0,-0.0,-1.0,0.0370213992830572,1.0
19.543928146362305,15.73105812072754,-0.9519200325012208,-0.0,-0.0,-1.0,0.0863094183299604,2.0
19.194271087646484,16.978530883789062,-0.6439712047576904,-0.0,-0.0,-1.0,0.0778664156604805,2.0
17.802398681640625,16.227657318115234,-0.7921998500823975,0.0203961786745038,-0.0024399366514372,-0.9997889990416052,0.1431184446121167,5.0
17.768497467041016,16.255359649658203,-0.7937581539154053,-0.0,-0.0,-1.0,0.1480202710549633,2.0
19.373043060302734,16.30691909790039,-0.0383107662200927,-0.0,-0.0,-1.0,0.2128331408761816,2.0
19.298900604248047,16.39777183532715,-0.045469045639038,-0.1705795767443881,0.5166223667251757,-0.8390494253600221,0.1524357293363061,7.0
19.192703247070312,16.46467399597168,-0.0455896854400634,-0.4327952260715321,0.8931076839983353,-0.1226660387915933,0.1497691441306644,7.0
19.243972778320312,16.528656005859375,-0.0295464992523193,-0.0366576697734541,-0.2142499654132722,-0.976090757853588,0.234317231084482,3.0
19.57608413696289,17.384159088134766,-0.8659849166870117,-0.0078813819673689,0.7505145417634206,-0.6608069358140298,0.2742851233977301,4.0
19.50872039794922,17.41802215576172,-0.8610696792602539,0.9709028411953344,-0.2251542311665147,0.0815674269953568,0.2265417404937291,4.0
19.34083366394043,16.994579315185547,-0.7513868808746338,-0.0,-0.0,-1.0,0.1087258426927674,2.0
19.53225326538086,16.206289291381836,-0.16717529296875,0.4841698554515642,0.8256929906450311,0.2895006671351138,0.1872169165155592,7.0
19.08092498779297,15.950690269470217,-0.0591230392456054,-0.0,-0.0,-1.0,0.0760486535989701,1.0
19.11680603027344,16.106704711914062,-0.0890436172485351,-0.2829292821244701,-0.0310237448545927,-0.9586389041613788,0.1225164335813263,7.0
19.092830657958984,16.438121795654297,-0.1385676860809326,0.3604066020234857,0.7232550082257471,0.5890749309674107,0.2102212622788338,3.0
19.472301483154297,16.179609298706055,-0.1209299564361572,0.9009743588601694,-0.4226973556321939,0.0978373661647595,0.1653917716219456,4.0
19.27280616760254,16.30641746520996,-0.1081864833831787,-0.0,-0.0,-1.0,0.2257723690787262,2.0
19.15160369873047,16.308040618896484,-0.0892844200134277,-0.4946177099584343,0.8105310146848049,0.3136762586321998,0.1411778986675237,5.0
19.157020568847656,16.116758346557617,-0.0606355667114257,0.5885634207564662,0.2418394554611155,-0.771431641514475,0.1032396424922057,8.0
18.943344116210938,15.64260959625244,-0.0947566032409668,-0.0,-0.0,-1.0,0.1573392901405088,2.0
19.446561813354492,16.044944763183594,-0.2917671203613281,-0.0,-0.0,-1.0,0.1464498316762576,1.0
18.916362762451172,15.6649169921875,-0.1449456214904785,-0.4895766035539413,0.8261997725385926,-0.2787627756888728,0.1977461910367147,9.0
19.41306495666504,16.195884704589844,-0.0567717552185058,-0.0,-0.0,-1.0,0.1168819286767864,1.0
19.28590965270996,16.39033317565918,-0.0436732769012451,-0.1705795767443881,0.5166223667251757,-0.8390494253600221,0.1601571944150722,7.0
19.146167755126953,16.612089157104492,-0.03070068359375,-0.0,-0.0,-1.0,0.1411425968414019,2.0
19.237285614013672,16.099149703979492,-0.0163521766662597,-0.0,-0.0,-1.0,0.0352037565321699,1.0
18.933305740356445,15.667617797851562,-0.3725600242614746,-0.0,-0.0,-1.0,0.0959537077350899,1.0
19.56392288208008,17.407602310180664,-0.8346657752990723,0.93642084793362,0.0176027201979128,0.3504370696671721,0.2742851233977302,3.0
19.626678466796875,16.962749481201172,-0.8181734085083008,-0.0,-0.0,-1.0,0.1317529779071407,1.0
19.407501220703125,17.022846221923828,-0.7700715065002441,-0.5539344463624868,0.2915045498683362,-0.7798600685630361,0.155933415091644,3.0
19.224685668945312,17.09088706970215,-0.731426477432251,-0.0,-0.0,-1.0,0.051842788170407,1.0
19.016815185546875,16.380943298339844,-0.1652073860168457,-0.0,-0.0,-1.0,0.2291198014520744,1.0
19.29718780517578,15.668543815612791,-0.1922957897186279,-0.0,-0.0,-1.0,0.0871126257315266,1.0
18.927579879760746,15.752657890319824,-0.1190278530120849,0.149096656449173,-0.5458413075296884,-0.824516497124198,0.2046663519109888,3.0
19.112398147583008,16.835586547851562,-0.8413586616516113,-0.0,-0.0,-1.0,0.2253848171229771,2.0
18.890289306640625,15.716188430786133,-0.2412922382354736,0.3811610919649628,0.2287349535664276,-0.8957658974246796,0.1754695400504968,4.0
18.876184463500977,15.640911102294922,-0.2267992496490478,-0.3961171745788774,-0.36938575692244,-0.8406219998230372,0.1563343960450187,3.0
19.124317169189453,16.878517150878906,-0.4950542449951172,-0.0,-0.0,-1.0,0.1508658065801057,1.0
19.366840362548828,16.381624221801758,-0.0349490642547607,-0.9851825532765114,0.0611843978113363,0.1602242371928723,0.2006185491772705,4.0
19.16639709472656,16.473480224609375,0.0021717548370361,0.1557984091409281,0.8255076852695934,-0.5424609822558615,0.1608080277758009,15.0
19.08378028869629,16.42172622680664,-0.2523090839385986,-0.0,-0.0,-1.0,0.2481959475842821,1.0
18.858501434326172,15.642200469970703,-0.2190332412719726,-0.0,-0.0,-1.0,0.1560063019037761,2.0
19.627328872680664,16.53154945373535,-1.074270486831665,-0.0,-0.0,-1.0,0.1014700769265651,1.0
19.706527709960938,16.819435119628906,-1.0886099338531494,-0.0,-0.0,-1.0,0.103723087483728,2.0
19.427227020263672,15.639189720153809,-1.0498311519622805,-0.0,-0.0,-1.0,0.1104328585638937,1.0
19.424070358276367,16.04854965209961,-1.0364675521850586,-0.0246725562774368,-0.5997126629820103,-0.7998349747452674,0.113967474267751,3.0
19.460613250732425,16.27052116394043,-1.039527416229248,-0.0,-0.0,-1.0,0.0965849418934706,2.0
19.35755157470703,15.996646881103516,-1.022165060043335,-0.0,-0.0,-1.0,0.1592078226125814,2.0
19.041915893554688,15.947985649108888,-0.9480342864990234,-0.6622793221566508,0.0449157810161547,-0.7479095346761104,0.1743865028585164,4.0
19.185516357421875,17.06220054626465,-0.5163834095001221,-0.0,-0.0,-1.0,0.0600800199084116,1.0
19.165483474731445,16.48812484741211,0.0184798240661621,0.1898790615835663,0.0226395591257299,-0.9815464290265322,0.1820389156471077,15.0
19.103694915771484,16.57946014404297,0.031139850616455,0.1701066597176679,-0.6849454363666602,-0.7084585192657247,0.1665946833969715,3.0
19.57374382019043,15.638835906982422,-0.9364075660705566,-0.0,-0.0,-1.0,0.1530428278587801,1.0
19.571392059326172,15.85797119140625,-0.9297513961791992,-0.3047475097727988,0.3750490981117322,-0.8754810844860408,0.1078517479113906,4.0
19.001493453979492,15.721343994140623,-0.2370414733886718,-0.0,-0.0,-1.0,0.1648219037047797,2.0
18.80749130249023,15.670452117919922,-0.203101634979248,0.7858101353954455,-0.6184271345481841,0.007092979931868,0.1647996686694471,6.0
19.395160675048828,17.538301467895508,-1.1959640979766846,-0.0,-0.0,-1.0,0.0890721636483785,1.0
19.28446578979492,17.39786148071289,-1.172975778579712,-0.0,-0.0,-1.0,0.0467351469008557,1.0
18.83129119873047,15.944049835205078,-1.118532419204712,-0.0,-0.0,-1.0,0.1642429329886046,2.0
18.808326721191406,16.248750686645508,-1.1000466346740725,-0.0,-0.0,-1.0,0.0498950950408471,1.0
18.897035598754883,16.62649154663086,-1.105677604675293,-0.8684918691157414,-0.4257188458181427,0.2539396337618728,0.0269194112244489,3.0
18.8801212310791,16.891239166259766,-1.0927958488464355,-0.0,-0.0,-1.0,0.0155416680455635,1.0
18.307559967041016,17.37291145324707,-0.9464726448059082,0.2581268776574268,0.9130337356709852,0.3158162639217822,0.1877332844362459,5.0
19.44089698791504,15.85523796081543,-0.6502823829650879,-0.0,-0.0,-1.0,0.2674062726783284,2.0
19.173419952392575,16.90190887451172,-0.5713000297546387,-0.0,-0.0,-1.0,0.1262423898618964,1.0
19.182540893554688,16.356840133666992,0.0012850761413574,0.2654482480110828,0.9547912179771252,0.1338318261909507,0.1165689349356454,4.0
19.7091064453125,15.680376052856444,-0.9052646160125732,-0.0,-0.0,-1.0,0.1427269636215254,1.0
18.189844131469727,16.351011276245117,-1.155210018157959,-0.0,-0.0,-1.0,0.0591193325786708,1.0
18.169422149658203,16.683488845825195,-1.132169246673584,-0.0,-0.0,-1.0,0.0662344796633672,1.0
18.0550479888916,17.099224090576172,-1.0846049785614014,0.5822588904343264,-0.3793872957437168,-0.7190548409811706,0.0698226495700957,3.0
18.11928367614746,17.515230178833008,-1.0815200805664062,-0.0,-0.0,-1.0,0.0621980684000297,2.0
18.0319766998291,17.149328231811523,-1.0766880512237549,-0.3959662476295382,-0.881007908829401,0.258912717567579,0.0673272403292107,3.0
18.064544677734375,17.50348472595215,-1.0688292980194092,-0.0,-0.0,-1.0,0.0410784845453564,1.0
19.680330276489254,15.768671035766602,-0.8957128524780273,-0.0,-0.0,-1.0,0.1024328100971157,2.0
19.556095123291016,16.782400131225586,-0.8336775302886963,-0.0,-0.0,-1.0,0.0947703663891454,2.0
19.105356216430664,16.77715301513672,-0.7427570819854736,-0.0,-0.0,-1.0,0.1801561295020532,2.0
19.69248962402344,16.11227035522461,-0.2599637508392334,-0.8797799006877498,0.4744161746628967,0.0302757256573116,0.1903927229171458,4.0
18.884660720825195,15.767491340637209,-0.1366088390350341,0.4752990161766549,-0.1380079083043112,-0.8689330598308321,0.2058795468845698,7.0
19.6202392578125,16.32765007019043,-1.053744554519653,-0.0,-0.0,-1.0,0.1420347214230187,2.0
19.178363800048828,15.746624946594238,-0.9873178005218506,-0.0,-0.0,-1.0,0.2096771505684854,1.0
19.40920066833496,16.030048370361328,-1.022136688232422,-0.0,-0.0,-1.0,0.1387821861084365,2.0
19.54981231689453,16.361438751220703,-1.037651538848877,-0.0,-0.0,-1.0,0.0694938769140375,2.0
19.389808654785156,15.835153579711914,-1.0684864521026611,-0.0,-0.0,-1.0,0.1257325192912346,2.0
19.215560913085938,15.693264961242676,-1.0400714874267578,-0.0,-0.0,-1.0,0.1788267023797864,1.0
19.38374710083008,15.974961280822754,-1.059739112854004,-0.0,-0.0,-1.0,0.1683483285866622,2.0
19.38975524902344,16.07564926147461,-1.0557281970977783,-0.0,-0.0,-1.0,0.089118897998432,2.0
19.076337814331055,15.850648880004885,-1.0023150444030762,-0.0,-0.0,-1.0,0.2134398501133185,2.0
19.414777755737305,16.300628662109375,-1.0497000217437744,-0.0,-0.0,-1.0,0.0940633394101211,1.0
19.574365615844727,16.6129150390625,-1.068925857543945,-0.0,-0.0,-1.0,0.1776407181265366,1.0
18.787357330322266,15.780303001403809,-1.1298797130584717,-0.0,-0.0,-1.0,0.1486151618317007,1.0
18.764812469482425,15.936890602111816,-1.112184762954712,-0.3497698941519953,-0.1121938017870048,-0.930093313590352,0.1495287196294004,3.0
18.82302474975586,16.071941375732422,-1.113776922225952,-0.0,-0.0,-1.0,0.211135338193528,1.0
18.800708770751953,16.364139556884766,-1.0861499309539795,-0.0,-0.0,-1.0,0.0417559755581347,1.0
18.91563415527344,16.595596313476562,-1.0938637256622314,-0.0,-0.0,-1.0,0.1138422989928982,2.0
18.96158790588379,16.768421173095703,-1.091475009918213,-0.0,-0.0,-1.0,0.0774394285624398,1.0
19.37171173095703,17.31450653076172,-1.147075891494751,-0.0,-0.0,-1.0,0.0887910956785642,1.0
19.573589324951172,17.626859664916992,-1.1746795177459717,-0.0,-0.0,-1.0,0.1919546426878716,1.0
17.86008644104004,16.304431915283203,-0.8898606300354004,-0.0,-0.0,-1.0,0.1550945699551899,1.0
18.27431869506836,17.423198699951172,-0.8941357135772705,0.947138696962505,0.0672930783578564,0.3136876317633383,0.2513516849192804,3.0
18.406436920166016,17.529888153076172,-0.9164085388183594,-0.0,-0.0,-1.0,0.0826030237638184,1.0
19.500167846679688,15.894965171813965,-0.6405167579650879,-0.0,-0.0,-1.0,0.1715330005345393,2.0
19.141189575195312,16.55233383178711,0.0640809535980224,-0.2541251370278982,0.1971583370668124,-0.9468627170057976,0.1434171687953548,10.0
18.524879455566406,15.90666389465332,-1.151787281036377,-0.0,-0.0,-1.0,0.0351329964503172,1.0
18.583799362182617,16.181407928466797,-1.1390724182128906,-0.0,-0.0,-1.0,0.0695436012923577,2.0
18.64463806152344,16.484310150146484,-1.1253409385681152,-0.0,-0.0,-1.0,0.0653575530550165,1.0
17.814363479614258,16.279064178466797,-0.962393045425415,-0.4487986685646346,-0.3875327022607627,-0.8052317428995718,0.1666216724950086,4.0
18.627309799194336,16.794172286987305,-1.0947062969207764,-0.0,-0.0,-1.0,0.0584812672945957,1.0
19.154144287109375,17.4062442779541,-1.1668658256530762,-0.0,-0.0,-1.0,0.1045819007030719,1.0
19.36204719543457,17.599863052368164,-1.2016193866729736,-0.0,-0.0,-1.0,0.0797129041723681,1.0
18.276086807250977,17.263565063476562,-0.9761550426483154,-0.0,-0.0,-1.0,0.1458399430498833,2.0
18.627765655517575,17.564498901367188,-1.032880783081055,-0.0,-0.0,-1.0,0.0756000682829469,2.0
18.21421241760254,17.434188842773438,-0.948179006576538,-0.0,-0.0,-1.0,0.1120541653178603,2.0
18.36833381652832,17.518081665039062,-0.9767489433288574,-0.0,-0.0,-1.0,0.070022144499665,1.0
19.154478073120117,16.285890579223633,-0.04939866065979,-0.0,-0.0,-1.0,0.1791729640766384,2.0
19.36180305480957,16.38420867919922,-0.0794398784637451,-0.9933513512983866,-0.0318941288804442,0.1106158099759124,0.141475566475142,3.0
19.133726119995117,16.443994522094727,-0.0390906333923339,0.3267914317224552,0.2978788319405991,-0.896925616556073,0.1647740068645529,4.0
19.206195831298828,15.768807411193848,-1.0852031707763672,-0.0,-0.0,-1.0,0.1999381833486219,2.0
18.99697494506836,15.69129753112793,-1.0495390892028809,-0.0,-0.0,-1.0,0.1943815707868302,1.0
19.269256591796875,16.016550064086914,-1.074665069580078,-0.0,-0.0,-1.0,0.1241462550646563,2.0
18.737443923950195,15.999820709228516,-0.965308427810669,-0.0,-0.0,-1.0,0.2064514610778691,2.0
19.314971923828125,16.347583770751953,-1.053555250167847,-0.0,-0.0,-1.0,0.1145139657871165,1.0
19.493255615234375,16.60171127319336,-1.0693209171295166,-0.0,-0.0,-1.0,0.1772623776623168,2.0
19.700511932373047,16.827972412109375,-1.0952131748199463,-0.0,-0.0,-1.0,0.0874283354726216,2.0
17.786022186279297,16.107824325561523,-0.7607922554016113,0.0522506749335467,-0.0028677921907896,-0.9986298827578411,0.1122508637806219,4.0
19.260398864746097,15.6430025100708,-0.9591672420501708,-0.0,-0.0,-1.0,0.1971937518239261,1.0
19.523710250854492,15.818192481994627,-0.9914321899414062,-0.0,-0.0,-1.0,0.1037352291793584,2.0
19.01414680480957,15.888705253601074,-0.8832883834838867,-0.0,-0.0,-1.0,0.1055135900369761,2.0
19.584123611450195,16.031558990478516,-0.9805102348327636,-0.0,-0.0,-1.0,0.0906024187846944,2.0
19.159040451049805,16.648792266845703,-0.8296136856079102,-0.0,-0.0,-1.0,0.2707145037124233,1.0
