x,y,z,nx,ny,nz,curvature,density,label
18.60276222229004,24.97767639160156,-1.4736123085021973,-0.0,-0.0,-1.0,0.079776707021191,2.0,0.0
18.39208984375,24.70134925842285,-1.4611337184906006,-0.0,-0.0,-1.0,0.0327516542988893,1.0,0.0
18.202919006347656,24.398813247680664,-1.446103572845459,-0.0,-0.0,-1.0,0.0791287286600066,1.0,0.0
19.2567081451416,24.15555953979492,-1.3852601051330566,-0.0,-0.0,-1.0,0.1080434849353834,1.0,0.0
17.778915405273438,24.711069107055664,-1.3455020189285278,-0.0,-0.0,-1.0,0.1158508028145876,1.0,0.0
19.634531021118164,25.544200897216797,-1.546175837516785,-0.0,-0.0,-1.0,0.0987596151973558,2.0,0.0
19.53451919555664,25.481918334960938,-1.5459893941879272,-0.0,-0.0,-1.0,0.1021822887089866,1.0,0.0
18.92914581298828,25.33240127563477,-1.5617271661758425,-0.0,-0.0,-1.0,0.0888877384731724,2.0,0.0
19.875598907470703,25.489089965820312,-1.5319703817367554,-0.0,-0.0,-1.0,0.0565928534193544,1.0,0.0
19.29596710205078,25.198970794677734,-1.536117672920227,-0.0,-0.0,-1.0,0.143740200548161,1.0,0.0
19.21444320678711,25.108715057373047,-1.5332752466201782,-0.0,-0.0,-1.0,0.1049417707510931,2.0,0.0
18.424768447875977,24.404640197753903,-1.5194326639175415,-0.0,-0.0,-1.0,0.067817658095376,2.0,0.0
18.28359603881836,24.09776306152344,-1.5047672986984253,-0.0,-0.0,-1.0,0.0543271589107484,1.0,0.0
17.935832977294922,23.88473892211914,-1.506564974784851,-0.0,-0.0,-1.0,0.1159604538079153,1.0,0.0
19.96371841430664,25.410873413085938,-1.5863618850708008,-0.0,-0.0,-1.0,0.0797528562039568,1.0,0.0
19.58035659790039,25.15384292602539,-1.5810260772705078,-0.0,-0.0,-1.0,0.0615171211733626,1.0,0.0
19.33440399169922,25.107120513916016,-1.5868566036224363,-0.0,-0.0,-1.0,0.0347174863621509,2.0,0.0
18.440872192382812,24.03468132019043,-1.5421741008758545,0.2883527060542594,0.0210398687744617,-0.9572930799045498,0.1157431538545928,5.0,0.0
18.80409812927246,23.800378799438477,-1.509911060333252,-0.0,-0.0,-1.0,0.1520643982684423,2.0,0.0
18.292490005493164,23.646100997924805,-1.5197556018829346,-0.0,-0.0,-1.0,0.1368766495241817,1.0,0.0
17.947940826416016,23.53214454650879,-1.5260562896728516,-0.7209993267842278,-0.3682035790615214,-0.587014561269971,0.0669822450251371,3.0,0.0
19.661401748657227,25.1879940032959,-1.6460777521133425,0.1269484550099425,-0.8187160113616878,-0.5599894485707715,0.0514263114940986,3.0,0.0
19.59109115600586,25.079259872436523,-1.6363402605056765,-0.0,-0.0,-1.0,0.0444501426694758,1.0,0.0
18.407886505126953,24.060476303100582,-1.555103421211243,-0.1867535494986436,-0.6205538797063699,-0.7616009415245162,0.1046198944188716,3.0,0.0
18.040395736694336,23.778392791748047,-1.5348442792892456,-0.0,-0.0,-1.0,0.057259339863117,2.0,0.0
17.93692398071289,23.625591278076172,-1.5225483179092407,-0.0,-0.0,-1.0,0.0627330530636298,1.0,0.0
18.968826293945312,23.914670944213867,-1.5333541631698608,-0.0,-0.0,-1.0,0.2343928289379339,2.0,0.0
18.778602600097656,23.89958953857422,-1.5346380472183228,-0.0,-0.0,-1.0,0.1893990487078241,2.0,0.0
18.371273040771484,23.801902770996097,-1.531671404838562,0.1853428147994525,0.0219418676456373,-0.98242892640966,0.1305132915930802,3.0,0.0
18.28577423095703,23.725433349609375,-1.5259541273117063,-0.2140083460016849,0.6586040301525317,-0.7214160791862528,0.1419981996710792,4.0,0.0
17.88031578063965,23.51616096496582,-1.5135093927383425,-0.0,-0.0,-1.0,0.0751298398108935,2.0,0.0
17.902585983276367,24.949926376342773,-1.360915184020996,-0.0,-0.0,-1.0,0.1044541087043363,1.0,0.0
19.71010971069336,25.43251609802246,-1.4846141338348389,-0.0,-0.0,-1.0,0.0769255336496179,1.0,0.0
19.5257625579834,25.407115936279297,-1.49499249458313,-0.0,-0.0,-1.0,0.1050104282784019,2.0,0.0
18.80022621154785,24.39663314819336,-1.4851562976837158,-0.0,-0.0,-1.0,0.0485643099491899,1.0,0.0
18.60960578918457,24.15155792236328,-1.4844982624053955,-0.0,-0.0,-1.0,0.1073165623751143,1.0,0.0
18.259281158447266,23.868911743164062,-1.4933950901031494,-0.0,-0.0,-1.0,0.0803737013344339,2.0,0.0
18.590791702270508,23.97945976257324,-1.4762189388275146,-0.0,-0.0,-1.0,0.1265009783800789,1.0,0.0
18.4005126953125,23.858060836791992,-1.4828274250030518,-0.0,-0.0,-1.0,0.0930663620251949,1.0,0.0
18.38660430908203,23.779857635498047,-1.4795548915863037,-0.0,-0.0,-1.0,0.1391516364800235,1.0,0.0
17.864025115966797,23.2508487701416,-1.488314151763916,-0.0,-0.0,-1.0,0.0566145891534884,1.0,0.0
17.996797561645508,24.90494728088379,-1.3711711168289185,-0.6991552780042336,-0.7149136552633943,0.0089645276928322,0.1761369724429903,4.0,0.0
19.702342987060547,25.474807739257812,-1.098066806793213,-0.0,-0.0,-1.0,0.1822769135238183,1.0,0.0
19.73117446899414,25.16620445251465,-1.6646734476089478,-0.0,-0.0,-1.0,0.0462791224348229,1.0,0.0
18.63829803466797,23.67884063720703,-1.5977739095687866,-0.0,-0.0,-1.0,0.1475133292594403,2.0,0.0
18.36315536499023,24.01144027709961,-1.6346389055252075,-0.0,-0.0,-1.0,0.0760503130921062,1.0,0.0
18.037445068359375,23.601377487182617,-1.6179651021957395,-0.0,-0.0,-1.0,0.0394920778786313,1.0,0.0
18.67711639404297,24.95999336242676,-1.555155873298645,0.3781689802003449,-0.154825159605201,-0.9126978647764304,0.053047944710172,4.0,0.0
18.78082275390625,25.3264102935791,-1.57070791721344,-0.0,-0.0,-1.0,0.0710179780443981,2.0,0.0
19.159608840942383,24.03645896911621,-1.462649941444397,-0.0,-0.0,-1.0,0.1704188080008666,2.0,0.0
18.609283447265625,24.821260452270508,-1.5513252019882202,-0.0,-0.0,-1.0,0.0476787427371265,2.0,0.0
18.87510681152344,23.853994369506836,-1.4716225862503052,-0.0,-0.0,-1.0,0.2195724642802362,2.0,0.0
18.459915161132812,24.284513473510746,-1.528436541557312,-0.0,-0.0,-1.0,0.1097482798008948,1.0,0.0
18.16874313354492,23.95682716369629,-1.5289119482040403,-0.0,-0.0,-1.0,0.0727099489777928,2.0,0.0
17.928009033203125,23.830434799194336,-1.538392186164856,-0.0,-0.0,-1.0,0.111727275364764,2.0,0.0
18.657398223876953,23.820526123046875,-1.2226312160491943,-0.8158796630590661,-0.203664032579857,-0.541166644611376,0.1448239806471897,3.0,0.0
17.93706512451172,25.29830741882324,-1.2142152786254885,0.7111104789142929,-0.353822620186951,-0.6075618818049111,0.1859972860228713,3.0,0.0
18.651187896728516,25.24068832397461,-1.4227862358093262,-0.0,-0.0,-1.0,0.090498569960785,1.0,0.0
18.588199615478516,25.12235450744629,-1.4052588939666748,-0.1146816394208032,-0.1145475700811072,-0.986776051476864,0.0922777036015549,3.0,0.0
18.507570266723633,25.050199508666992,-1.468314528465271,-0.0,-0.0,-1.0,0.0726444075089755,2.0,0.0
18.61529541015625,25.35942840576172,-1.4901984930038452,-0.0,-0.0,-1.0,0.1101930618646424,2.0,0.0
18.104402542114254,24.84579086303711,-1.4704502820968628,-0.0,-0.0,-1.0,0.1165889965595151,1.0,0.0
17.79754638671875,24.70111083984375,-1.4732893705368042,-0.0,-0.0,-1.0,0.1647878904361887,2.0,0.0
19.662582397460938,25.62418556213379,-1.541018009185791,-0.0,-0.0,-1.0,0.0794570979808463,1.0,0.0
18.9355411529541,25.365711212158203,-1.5658326148986816,-0.0,-0.0,-1.0,0.089308378772199,2.0,0.0
19.968231201171875,25.59927749633789,-1.5195279121398926,-0.0,-0.0,-1.0,0.0568468123400531,2.0,0.0
20.06005096435547,25.625341415405273,-1.5160458087921145,-0.0,-0.0,-1.0,0.0549987151573916,1.0,0.0
18.881591796875,23.78424644470215,-1.4338300228118896,-0.0,-0.0,-1.0,0.2119376461618924,2.0,0.0
19.128978729248047,24.02933120727539,-1.4381814002990725,-0.0,-0.0,-1.0,0.1793874682371116,2.0,0.0
18.707515716552734,24.846330642700195,-1.53643536567688,-0.0,-0.0,-1.0,0.0352335841477454,1.0,0.0
18.892990112304688,25.188251495361328,-1.553389549255371,-0.0,-0.0,-1.0,0.0314507772381984,1.0,0.0
18.64971351623535,23.896129608154297,-1.4591562747955322,0.3836311206258825,-0.1825960135939247,-0.9052545824832574,0.1483884479991434,3.0,0.0
18.471635818481445,24.398508071899418,-1.5141656398773191,-0.0894568439157256,-0.8368983520970111,-0.5399987234558473,0.0942659162642342,4.0,0.0
18.65525245666504,24.708290100097656,-1.5281388759613037,0.0026299139251216,-0.6828571809458367,-0.7305471606839979,0.050283130521947,4.0,0.0
18.312828063964844,24.154531478881836,-1.504296064376831,0.0641751706956669,0.8943163452107217,-0.4428090131818901,0.1252994897145347,3.0,0.0
17.904918670654297,23.81240463256836,-1.5037992000579834,-0.8345807932354524,0.0121248448722473,-0.5507521109349535,0.0927308012017539,3.0,0.0
19.90996551513672,25.15081024169922,-1.6246917247772217,0.6017516232643726,0.3996980875635239,-0.691474094017089,0.0558137552863334,3.0,0.0
18.964319229125977,23.985410690307617,-1.5763380527496338,-0.0,-0.0,-1.0,0.157444192121137,1.0,0.0
18.954893112182617,24.377077102661133,-1.617588758468628,0.5354084699445188,-0.3429801263756301,-0.7718175971193103,0.0364418910122765,3.0,0.0
18.87632751464844,23.87645721435547,-1.5720999240875244,-0.0,-0.0,-1.0,0.1709150847496879,2.0,0.0
18.708078384399418,23.758150100708008,-1.57340407371521,-0.0,-0.0,-1.0,0.1951299653102218,2.0,0.0
18.25336265563965,23.613924026489254,-1.5956575870513916,-0.0,-0.0,-1.0,0.0839261390890089,1.0,0.0
18.493776321411133,25.38146591186523,-1.391465425491333,-0.0,-0.0,-1.0,0.1923071337636757,2.0,0.0
18.3796329498291,25.22139549255371,-1.3827741146087646,-0.0,-0.0,-1.0,0.0656501365640096,2.0,0.0
17.826135635375977,24.86582946777344,-1.382997751235962,-0.0,-0.0,-1.0,0.0970709774618678,2.0,0.0
17.85650634765625,25.456809997558594,-1.438701868057251,-0.0,-0.0,-1.0,0.1659753021160409,1.0,0.0
18.916154861450195,23.97460174560547,-1.226961374282837,0.3265417333764631,0.9111522870127732,-0.2513404190234585,0.1772593390058463,4.0,0.0
18.6728515625,23.75884437561035,-1.2209599018096924,-0.0,-0.0,-1.0,0.1448239806471897,2.0,0.0
19.926820755004883,25.015398025512695,-1.7372043132781982,-0.0,-0.0,-1.0,0.0453580220851079,1.0,0.0
18.913345336914062,23.85003662109375,-1.706956148147583,-0.0,-0.0,-1.0,0.1119735600529918,1.0,0.0
18.785070419311523,23.844491958618164,-1.350242257118225,-0.0,-0.0,-1.0,0.2159404476618206,2.0,0.0
18.5194091796875,25.02902603149414,-1.5052415132522583,-0.0,-0.0,-1.0,0.0668177387929005,2.0,0.0
18.608299255371097,25.36112403869629,-1.5344091653823853,-0.0,-0.0,-1.0,0.107017278086624,2.0,0.0
18.19760513305664,24.32417106628418,-1.4557634592056274,0.8732218943793966,0.1740526832612869,-0.4551803891052463,0.054420274343706,3.0,0.0
18.219709396362305,24.547954559326172,-1.4784866571426392,-0.0,-0.0,-1.0,0.0564188132990026,1.0,0.0
17.88994026184082,24.145706176757812,-1.464088797569275,-0.0,-0.0,-1.0,0.078641911329111,1.0,0.0
18.951799392700195,23.97067642211914,-1.2578068971633911,-0.1294545978193602,0.953840666618466,-0.2709787626517398,0.1849345310967807,3.0,0.0
18.7380313873291,23.798383712768555,-1.2406858205795288,-0.0,-0.0,-1.0,0.142101280635544,2.0,0.0
18.47879409790039,24.123449325561523,-1.2927626371383667,-0.0,-0.0,-1.0,0.2535940924070179,1.0,0.0
18.46960830688477,25.085405349731445,-1.4238959550857544,-0.0,-0.0,-1.0,0.0504261731844981,2.0,0.0
18.56337547302246,25.338464736938477,-1.4557009935379028,-0.0,-0.0,-1.0,0.1791163104027847,2.0,0.0
18.058168411254883,24.812103271484375,-1.3992503881454468,-0.0,-0.0,-1.0,0.1392944573910204,2.0,0.0
18.2784423828125,25.00435447692871,-1.4186102151870728,-0.0,-0.0,-1.0,0.0364071893912233,1.0,0.0
17.815210342407227,24.784099578857425,-1.4032381772994995,-0.8646472428114601,0.2954485917320973,-0.4063191789001108,0.0857830672958468,4.0,0.0
17.742368698120117,24.851484298706055,-1.414667725563049,-0.0,-0.0,-1.0,0.1703165908362138,1.0,0.0
19.940221786499023,25.003108978271484,-1.6266802549362185,-0.0,-0.0,-1.0,0.0461926417501242,2.0,0.0
19.08269691467285,24.554508209228516,-1.591375470161438,-0.0,-0.0,-1.0,0.0666403877916713,1.0,0.0
18.856674194335938,23.911697387695312,-1.5030521154403689,-0.0,-0.0,-1.0,0.2550437048800881,1.0,0.0
18.810123443603516,24.20639419555664,-1.549871802330017,-0.0,-0.0,-1.0,0.109852206265871,1.0,0.0
18.947587966918945,24.468456268310547,-1.5838710069656372,-0.0,-0.0,-1.0,0.0633164826283748,1.0,0.0
18.340065002441406,23.862987518310547,-1.5186244249343872,-0.0,-0.0,-1.0,0.0987439975993377,1.0,0.0
18.45576858520508,24.07825469970703,-1.5459364652633667,0.7506924972047881,-0.3071432202219806,-0.5849135123350382,0.1075551511205338,3.0,0.0
17.853208541870117,23.523975372314453,-1.4904688596725464,-0.0,-0.0,-1.0,0.0612491133187833,2.0,0.0
18.018693923950195,23.753597259521484,-1.5170599222183228,-0.814154713516555,0.4957331334985423,-0.3023255907304132,0.0584009934683205,3.0,0.0
17.955791473388672,25.35884475708008,-1.079586386680603,-0.0,-0.0,-1.0,0.281618752268926,1.0,0.0
19.998674392700195,24.86195373535156,-1.634718418121338,-0.0,-0.0,-1.0,0.02955285231133,1.0,0.0
18.930736541748047,23.943151473999023,-1.527301788330078,-0.5159029694571406,-0.5504835510447365,-0.6563626940453594,0.2311560976616271,3.0,0.0
19.04558753967285,24.36762237548828,-1.5920970439910889,-0.0,-0.0,-1.0,0.0229616741590927,1.0,0.0
18.68987274169922,23.909210205078125,-1.5333027839660645,-0.0,-0.0,-1.0,0.2392503814501928,2.0,0.0
18.911996841430664,24.228036880493164,-1.5751543045043943,-0.0,-0.0,-1.0,0.0807456459464684,1.0,0.0
18.248876571655273,23.68646240234375,-1.519181251525879,-0.8907353982206282,-0.0463560091028016,-0.4521521544533427,0.1182258986209513,4.0,0.0
18.354219436645508,23.81426239013672,-1.5346126556396484,-0.0,-0.0,-1.0,0.132155249812012,2.0,0.0
17.930198669433594,23.547130584716797,-1.513664484024048,-0.0,-0.0,-1.0,0.0669822450251371,2.0,0.0
18.10151100158691,23.7303466796875,-1.5340664386749268,-0.0,-0.0,-1.0,0.1026227346323365,1.0,0.0
17.91754150390625,25.24409866333008,-1.1466100215911863,-0.0,-0.0,-1.0,0.1711851131606176,1.0,0.0
19.806140899658203,25.41402816772461,-1.5517278909683228,-0.0,-0.0,-1.0,0.0478042139681754,1.0,0.0
19.98418426513672,25.58116912841797,-1.5698565244674685,-0.3236272680536244,-0.8655856795442438,-0.3821345610384873,0.0953267666126703,3.0,0.0
19.58401870727539,25.349458694458008,-1.553186535835266,-0.0,-0.0,-1.0,0.0445275824901584,2.0,0.0
18.97677230834961,25.31606674194336,-1.582128643989563,-0.0,-0.0,-1.0,0.0943482738190056,1.0,0.0
18.532758712768555,24.72564697265625,-1.5143085718154907,-0.1675036463763359,-0.5024541285692671,-0.8482230703855734,0.0429683799900053,3.0,0.0
18.75477409362793,25.010578155517575,-1.546249508857727,-0.0,-0.0,-1.0,0.0468493320964161,2.0,0.0
18.94037628173828,25.248958587646484,-1.57343590259552,-0.0,-0.0,-1.0,0.0312793728207108,1.0,0.0
18.448314666748047,24.633960723876953,-1.5050255060195925,-0.0,-0.0,-1.0,0.024346535675496,2.0,0.0
20.139991760253903,23.15929794311523,-1.165850043296814,-0.0,-0.0,-1.0,0.0881014449104086,2.0,0.0
18.87384033203125,23.940128326416016,-1.3673065900802612,-0.0,-0.0,-1.0,0.1702807655697727,1.0,0.0
18.534503936767575,24.23433303833008,-1.4358540773391724,-0.0,-0.0,-1.0,0.1735232701184453,1.0,0.0
18.210294723510746,24.27048683166504,-1.4628187417984009,-0.0,-0.0,-1.0,0.0575917773747263,2.0,0.0
18.295255661010746,24.489612579345703,-1.4919453859329224,-0.0,-0.0,-1.0,0.0613985243457534,1.0,0.0
17.710968017578125,23.95641708374023,-1.447621464729309,-0.0,-0.0,-1.0,0.0700761725493046,1.0,0.0
17.936569213867188,24.194965362548828,-1.469370722770691,-0.0,-0.0,-1.0,0.0469501300576224,2.0,0.0
20.09716796875,25.546173095703125,-1.551783323287964,-0.0,-0.0,-1.0,0.0508911363612753,1.0,0.0
19.699125289916992,25.294679641723633,-1.546771764755249,-0.0,-0.0,-1.0,0.0435198288685747,1.0,0.0
19.754941940307617,25.41307258605957,-1.5607504844665527,-0.0,-0.0,-1.0,0.1006282456414461,2.0,0.0
19.05283546447754,23.754348754882812,-1.3645086288452148,-0.0,-0.0,-1.0,0.2189737207167386,1.0,0.0
19.41609001159668,25.27655982971191,-1.569857835769653,-0.588351767115829,-0.5478557082450345,-0.5947237350863114,0.1161971952730257,5.0,0.0
19.472877502441406,25.429885864257812,-1.5890603065490725,-0.0,-0.0,-1.0,0.1354116490371012,1.0,0.0
18.831687927246097,23.86897850036621,-1.4046738147735596,-0.0,-0.0,-1.0,0.1783464984120807,1.0,0.0
18.80006980895996,24.790321350097656,-1.5518667697906494,-0.4785176521778305,0.4373319325129646,-0.7614208017638422,0.0278634335624308,3.0,0.0
18.96935272216797,25.011531829833984,-1.57013201713562,-0.0,-0.0,-1.0,0.0226949685027617,1.0,0.0
18.29010772705078,24.1560001373291,-1.5046226978302002,0.0641751706956669,0.8943163452107217,-0.4428090131818901,0.0528351337640058,3.0,0.0
18.46426010131836,24.337467193603516,-1.5148169994354248,-0.0,-0.0,-1.0,0.1125505884292679,2.0,0.0
17.805177688598633,23.79122543334961,-1.5001442432403564,-0.8436509972394667,-0.4998177057937968,-0.1960491158661,0.1590496719050794,3.0,0.0
18.01945686340332,23.993663787841797,-1.5081400871276855,-0.0,-0.0,-1.0,0.0795384487307799,2.0,0.0
19.938919067382812,24.599380493164062,-1.6358022689819336,-0.0,-0.0,-1.0,0.07968249967825,1.0,0.0
20.07638168334961,24.709747314453125,-1.6374220848083496,-0.0,-0.0,-1.0,0.0230128931516289,2.0,0.0
19.00318717956543,23.85948944091797,-1.6355173587799072,-0.5024644554704266,-0.8443360938752655,-0.1860807125101003,0.176527765042324,3.0,0.0
19.03301239013672,23.903873443603516,-1.6388404369354248,-0.0,-0.0,-1.0,0.1491411685516254,1.0,0.0
18.824668884277344,23.339086532592773,-1.5731170177459717,-0.0,-0.0,-1.0,0.1271347101313696,1.0,0.0
18.893381118774418,23.717609405517575,-1.6272122859954834,-0.0,-0.0,-1.0,0.1789471480904916,1.0,0.0
18.641456604003903,23.80245590209961,-1.1917965412139893,-0.7853160180609979,0.6012989470598985,-0.1473713949227457,0.1334773827083457,4.0,0.0
18.41461944580078,25.24304962158203,-1.420315504074097,-0.0,-0.0,-1.0,0.0750896704789675,2.0,0.0
18.476978302001953,25.52753448486328,-1.4522616863250732,-0.5004590011033974,-0.8282060424550607,-0.2522212113512976,0.1117148237903951,3.0,0.0
17.93204689025879,24.83868408203125,-1.4261515140533447,-0.9190438821533752,-0.1860167697769955,0.3474997899829373,0.0708407017185541,3.0,0.0
18.045747756958008,25.291156768798828,-1.4737615585327148,-0.0,-0.0,-1.0,0.1283127783949086,1.0,0.0
17.93219757080078,25.599102020263672,-1.530850172042847,-0.0,-0.0,-1.0,0.2206833347967291,1.0,0.0
17.711288452148438,24.746023178100582,-1.4423973560333252,-0.0,-0.0,-1.0,0.0913237191539546,1.0,0.0
20.04097557067871,24.550168991088867,-1.6366419792175293,-0.0,-0.0,-1.0,0.0735306556136796,2.0,0.0
19.882829666137695,24.43423080444336,-1.6400575637817385,0.2470381564954061,0.8857451079463299,0.3929729672439264,0.0861990270811906,3.0,0.0
19.411611557006836,25.544408798217773,-1.4232282638549805,-0.0,-0.0,-1.0,0.1830019551332437,1.0,0.0
19.009796142578125,23.301803588867188,-1.582676887512207,-0.0,-0.0,-1.0,0.044295616885598,1.0,0.0
18.978839874267575,23.655067443847656,-1.6504738330841064,-0.0,-0.0,-1.0,0.1784844129878284,1.0,0.0
18.534605026245117,25.226802825927734,-1.5058674812316897,-0.0,-0.0,-1.0,0.0764086587423592,2.0,0.0
18.349632263183594,24.860076904296875,-1.480884075164795,-0.0,-0.0,-1.0,0.0411520489489321,2.0,0.0
18.01560401916504,24.377429962158203,-1.464606761932373,-0.0,-0.0,-1.0,0.0634528527954475,2.0,0.0
18.1844482421875,24.6260929107666,-1.4729857444763184,-0.0,-0.0,-1.0,0.0522070462428037,2.0,0.0
17.82426643371582,24.159744262695312,-1.465043067932129,-0.0,-0.0,-1.0,0.0691863045962263,2.0,0.0
18.90142822265625,23.917604446411133,-1.256894826889038,-0.0,-0.0,-1.0,0.1639590063255453,2.0,0.0
18.6365909576416,23.768634796142575,-1.2772409915924072,-0.0,-0.0,-1.0,0.1219682870888676,2.0,0.0
20.10836410522461,25.161666870117188,-1.6364222764968872,0.1140144954871144,-0.2058491909957909,-0.9719191352088904,0.0645175806344152,3.0,0.0
19.663265228271484,25.023344039916992,-1.6614757776260376,-0.0,-0.0,-1.0,0.0345383748880532,2.0,0.0
19.617725372314453,24.962900161743164,-1.6546090841293335,-0.0,-0.0,-1.0,0.0277803158094096,1.0,0.0
20.078113555908203,25.122556686401367,-1.6316875219345093,-0.0,-0.0,-1.0,0.0855310582234721,2.0,0.0
19.890819549560547,25.022296905517575,-1.6331349611282349,-0.0,-0.0,-1.0,0.045377594416898,2.0,0.0
19.463245391845703,25.45889663696289,-1.3146430253982544,-0.0,-0.0,-1.0,0.2127076379871005,2.0,0.0
18.881622314453125,23.932559967041016,-1.5449568033218384,-0.0,-0.0,-1.0,0.2534258952715875,2.0,0.0
18.931848526000977,24.269123077392575,-1.605096697807312,-0.0,-0.0,-1.0,0.0725299968390237,1.0,0.0
18.40118408203125,25.26622009277344,-1.4073344469070437,-0.0,-0.0,-1.0,0.0893228520237329,2.0,0.0
18.681196212768555,23.799110412597656,-1.5484997034072876,-0.0,-0.0,-1.0,0.1534446183662398,1.0,0.0
18.53234100341797,23.85413360595703,-1.5817397832870483,-0.0,-0.0,-1.0,0.1479786103660413,1.0,0.0
18.011577606201172,24.89140510559082,-1.394943118095398,-0.6948863272788693,-0.7187649570422832,-0.0225816006715445,0.1588586894308499,3.0,0.0
17.967363357543945,25.14384078979492,-1.4425009489059448,-0.0,-0.0,-1.0,0.1805440108936735,1.0,0.0
17.924819946289062,25.541709899902344,-1.51417076587677,-0.0,-0.0,-1.0,0.2135868005978175,1.0,0.0
18.308834075927734,23.634122848510746,-1.5738555192947388,-0.0,-0.0,-1.0,0.141032014270745,1.0,0.0
17.806686401367188,24.744869232177734,-1.398506760597229,-0.9329312087063064,0.164051186682562,-0.320509856275643,0.1125289420241905,3.0,0.0
18.001876831054688,23.370450973510746,-1.5731409788131714,-0.0,-0.0,-1.0,0.0265550570958389,1.0,0.0
18.616193771362305,23.770580291748047,-1.1300336122512815,-0.0,-0.0,-1.0,0.108304803991577,1.0,0.0
20.179502487182617,25.344308853149418,-1.619061827659607,-0.0,-0.0,-1.0,0.1143338375537372,2.0,0.0
20.088573455810547,25.40369415283203,-1.643476128578186,-0.0,-0.0,-1.0,0.1276675509675803,1.0,0.0
19.869281768798828,25.202625274658203,-1.62492573261261,-0.2441987137044773,-0.4311609205379781,-0.8686007418980954,0.0461881591923508,3.0,0.0
19.680173873901367,25.191181182861328,-1.6464818716049194,0.6226767162343623,-0.7736933769650379,-0.1169284631731177,0.0507912511044758,4.0,0.0
19.236183166503903,24.864761352539062,-1.633604645729065,-0.0,-0.0,-1.0,0.0440258393090972,2.0,0.0
19.36462020874023,25.05349349975586,-1.6575981378555298,-0.0,-0.0,-1.0,0.0219731584460247,1.0,0.0
19.07316780090332,24.70601272583008,-1.6220799684524536,-0.0,-0.0,-1.0,0.0552845182904151,1.0,0.0
18.9132080078125,23.906896591186523,-1.4739116430282593,-0.0,-0.0,-1.0,0.2280268875187876,1.0,0.0
18.809555053710938,24.434337615966797,-1.602075219154358,-0.0,-0.0,-1.0,0.0559886157704808,1.0,0.0
18.599018096923828,23.937828063964844,-1.529373049736023,-0.0,-0.0,-1.0,0.1664860732463887,1.0,0.0
18.486244201660156,24.135177612304688,-1.5884186029434204,-0.0,-0.0,-1.0,0.048907845408393,1.0,0.0
18.195785522460938,23.816184997558594,-1.5691601037979126,-0.0,-0.0,-1.0,0.0707537291627351,2.0,0.0
17.907672882080078,23.50670051574707,-1.555058836936951,-0.0,-0.0,-1.0,0.0790895373395743,1.0,0.0
19.05119514465332,23.72884178161621,-1.415073037147522,-0.0,-0.0,-1.0,0.2564079731394733,1.0,0.0
18.500511169433594,25.287837982177734,-1.3942681550979614,-0.0,-0.0,-1.0,0.1400895345582131,1.0,0.0
18.67223358154297,23.7939453125,-1.1020959615707395,-0.0,-0.0,-1.0,0.1039050988668382,1.0,0.0
17.944732666015625,24.844104766845703,-1.3896993398666382,-0.0,-0.0,-1.0,0.0777296669347796,2.0,0.0
17.977907180786133,25.24393081665039,-1.4561668634414673,0.600015009325907,-0.7948102574677983,0.0908770774596337,0.1646338261047712,3.0,0.0
19.6044921875,25.51662826538086,-1.5565160512924194,0.6784811319787256,-0.5615460564175744,-0.4736342260339062,0.1018536281792005,3.0,0.0
19.131364822387695,25.30544662475586,-1.5820485353469849,-0.0,-0.0,-1.0,0.0691480660774792,2.0,0.0
19.54267311096191,25.411962509155273,-1.5417529344558716,-0.0,-0.0,-1.0,0.054910347162855,2.0,0.0
19.391368865966797,25.28415298461914,-1.5356494188308716,-0.7178413091433254,-0.5299214683696623,-0.4515385833440344,0.157330998937094,4.0,0.0
18.903236389160156,25.048656463623047,-1.5622669458389282,-0.0,-0.0,-1.0,0.0269113013325604,2.0,0.0
18.98192024230957,23.931835174560547,-1.3020883798599243,-0.0,-0.0,-1.0,0.2112567882915664,1.0,0.0
18.658384323120117,24.744583129882812,-1.5376733541488647,0.3115851824800467,-0.266499249269941,-0.9120815885640025,0.0532436043388027,3.0,0.0
17.991172790527344,25.43572235107422,-1.394241452217102,-0.0,-0.0,-1.0,0.1483925123840596,1.0,0.0
18.705223083496097,23.89292335510254,-1.344464898109436,-0.0,-0.0,-1.0,0.192409762489184,2.0,0.0
18.434879302978516,24.29562759399414,-1.4814285039901731,-0.0,-0.0,-1.0,0.1097482798008947,1.0,0.0
17.968849182128906,25.241615295410156,-1.3624402284622192,-0.0,-0.0,-1.0,0.1546996761458636,1.0,0.0
18.09151077270508,24.10301971435547,-1.5068360567092896,-0.0,-0.0,-1.0,0.0503597402604941,1.0,0.0
17.814098358154297,23.77427673339844,-1.495322346687317,-0.8436509972394667,-0.4998177057937968,-0.1960491158661,0.1410996539234856,3.0,0.0
18.673580169677734,23.917499542236328,-1.0031291246414185,-0.0,-0.0,-1.0,0.0779268836961667,1.0,0.0
18.458433151245117,25.411151885986328,-1.414775848388672,0.0284878687707739,-0.0628090356855182,-0.997618898362072,0.2110134929300039,3.0,0.0
17.984113693237305,25.248302459716797,-1.4589109420776367,0.600015009325907,-0.7948102574677983,0.0908770774596337,0.1469007045839399,3.0,0.0
17.900211334228516,24.87483024597168,-1.39243745803833,-0.0,-0.0,-1.0,0.0883447044754955,2.0,0.0
17.93610382080078,25.45894432067871,-1.1398777961730957,-0.0,-0.0,-1.0,0.2438051252700546,1.0,0.0
18.642271041870117,23.87773704528809,-1.0418665409088137,-0.0,-0.0,-1.0,0.1092728242646488,2.0,0.0
17.928752899169922,25.30293655395508,-1.1643548011779783,-0.0,-0.0,-1.0,0.2123013464288077,1.0,0.0
19.97477912902832,23.702625274658203,-1.4586158990859983,-0.0,-0.0,-1.0,0.0746243799452334,1.0,0.0
19.93910217285156,23.506492614746097,-1.4204610586166382,-0.0,-0.0,-1.0,0.1163632246382837,1.0,0.0
20.1265869140625,24.163196563720703,-1.5615874528884888,-0.0,-0.0,-1.0,0.064056984294529,1.0,0.0
17.715538024902344,25.341583251953125,-1.3573193550109863,-0.0,-0.0,-1.0,0.2523164017161351,1.0,0.0
17.753332138061523,24.93429183959961,-1.2878365516662598,-0.0,-0.0,-1.0,0.1011490621945614,1.0,0.0
18.045230865478516,25.527881622314453,-1.4399375915527344,-0.0,-0.0,-1.0,0.2443189252605286,1.0,0.0
18.119388580322266,25.477022171020508,-1.441606044769287,-0.0,-0.0,-1.0,0.2018292711354696,1.0,0.0
20.090843200683594,24.616352081298828,-1.600377082824707,-0.0,-0.0,-1.0,0.0187721961702951,1.0,0.0
17.81464958190918,23.38440322875977,-1.5396360158920288,-0.0,-0.0,-1.0,0.0603074764255415,2.0,0.0
17.86913299560547,24.85421562194824,-1.3564435243606567,-0.2715010876012518,0.3606008997350487,-0.8923307405562194,0.0890293994910614,5.0,0.0
18.041858673095703,24.385671615600582,-1.4282660484313965,-0.0,-0.0,-1.0,0.0777961127963098,2.0,0.0
18.706867218017575,23.808706283569336,-1.3471767902374268,-0.0,-0.0,-1.0,0.1630710857743114,2.0,0.0
18.950510025024418,23.757495880126953,-1.3497974872589111,-0.0,-0.0,-1.0,0.228978772451883,1.0,0.0
18.19178009033203,24.48572158813477,-1.45442795753479,-0.0,-0.0,-1.0,0.0553453060259228,1.0,0.0
18.427345275878903,24.430145263671875,-1.4546642303466797,-0.0,-0.0,-1.0,0.044632918938954,1.0,0.0
18.74273109436035,24.68814468383789,-1.5208971500396729,-0.0,-0.0,-1.0,0.0395981912256017,2.0,0.0
19.142030715942383,24.650936126708984,-1.5351040363311768,-0.0,-0.0,-1.0,0.075503410536247,1.0,0.0
19.222545623779297,24.65369033813477,-1.540205001831055,-0.0,-0.0,-1.0,0.0764398186124542,2.0,0.0
18.8222599029541,24.80483055114746,-1.557478666305542,-0.0,-0.0,-1.0,0.0087414954512669,2.0,0.0
19.39505195617676,25.02815818786621,-1.6232035160064695,-0.0,-0.0,-1.0,0.0209789982645459,1.0,0.0
19.523292541503903,25.14039421081543,-1.650160789489746,-0.0,-0.0,-1.0,0.0507694787734995,2.0,0.0
18.92499542236328,23.805728912353516,-1.3732268810272217,0.4979717845817878,0.5832310686013235,-0.6417675766027666,0.283239027751395,3.0,0.0
18.247848510742188,24.73597717285156,-1.5072015523910522,-0.2943952950837682,-0.5734375974754737,-0.7645264756920441,0.0338209948658831,3.0,0.0
18.020761489868164,24.59820556640625,-1.4922698736190796,-0.0,-0.0,-1.0,0.0931314621605745,1.0,0.0
20.07915496826172,25.317203521728516,-1.5844587087631226,-0.0,-0.0,-1.0,0.0633236909736563,1.0,0.0
18.097681045532227,23.917646408081055,-1.521379470825195,-0.0,-0.0,-1.0,0.0681867525596905,2.0,0.0
17.73268699645996,23.47542381286621,-1.48704195022583,-0.8776934112998138,-0.0466802432086947,-0.4769436346727699,0.0608430134977763,3.0,0.0
17.80065155029297,24.763187408447266,-1.3715646266937256,-0.9329312087063064,0.164051186682562,-0.320509856275643,0.1125289420241905,3.0,0.0
19.479612350463867,25.26590156555176,-1.630331039428711,-0.0,-0.0,-1.0,0.0808324820463022,1.0,0.0
19.20756149291992,24.64570426940918,-1.5777792930603027,0.879734639589162,0.250568003541483,-0.404082466222135,0.0844359272695118,3.0,0.0
18.79850196838379,24.05172538757324,-1.5366716384887695,-0.0,-0.0,-1.0,0.1009483989534208,1.0,0.0
18.91571044921875,24.63129997253418,-1.5936503410339355,-0.0,-0.0,-1.0,0.0583581708701852,1.0,0.0
18.43042755126953,24.1766300201416,-1.5730195045471191,-0.0,-0.0,-1.0,0.0770784052573285,1.0,0.0
18.23784828186035,23.7872257232666,-1.5419583320617676,-0.4540305182136707,0.4351442712321773,-0.7774996795783539,0.0914636705884282,3.0,0.0
17.891340255737305,23.61579704284668,-1.544851303100586,-0.0,-0.0,-1.0,0.0644471792306152,1.0,0.0
18.463285446166992,25.15945625305176,-1.4584901332855225,-0.7067780765745381,0.6964674875739352,-0.1240878286781058,0.0681487627956396,3.0,0.0
18.05714225769043,24.777666091918945,-1.4309256076812744,0.1562705783252836,0.414513117042363,-0.8965257286602016,0.1117070595059464,4.0,0.0
19.307342529296875,24.243642807006836,-1.6875638961791992,-0.0,-0.0,-1.0,0.030975736121972,1.0,0.0
19.037368774414062,23.841798782348633,-1.647545337677002,-0.5024644554704266,-0.8443360938752655,-0.1860807125101003,0.1581490237138711,3.0,0.0
19.982681274414062,25.557493209838867,-1.6273341178894043,-0.0,-0.0,-1.0,0.0930665879710805,1.0,0.0
19.71034240722656,25.36649513244629,-1.6145963668823242,-0.0,-0.0,-1.0,0.1060888994837407,1.0,0.0
19.43696975708008,25.30124855041504,-1.617732048034668,-0.0,-0.0,-1.0,0.0722248058010223,1.0,0.0
19.031253814697266,25.23476219177246,-1.626546859741211,-0.0,-0.0,-1.0,0.0243465815215276,1.0,0.0
19.591209411621097,25.51883125305176,-1.578155517578125,-0.0,-0.0,-1.0,0.1047734025726919,2.0,0.0
19.38433074951172,25.293439865112305,-1.5593280792236328,-0.5074789480085957,-0.8427220744282834,-0.1796792213901754,0.1504339202684049,3.0,0.0
19.139907836914062,25.43858528137207,-1.5922918319702148,-0.0,-0.0,-1.0,0.0583526478448376,1.0,0.0
18.88416290283203,25.29264259338379,-1.5871496200561523,0.5586637307453388,0.7513564524542634,-0.3512240272319703,0.0807811273077178,3.0,0.0
18.67955017089844,24.99808692932129,-1.5593714714050293,0.3525282296268812,-0.1251523120472947,-0.9273946010762376,0.0591398691078526,3.0,0.0
18.52476501464844,24.50019645690918,-1.5016083717346191,-0.0,-0.0,-1.0,0.0393238464468133,2.0,0.0
18.405567169189453,24.60373878479004,-1.5223898887634275,-0.5463227353207036,0.7112994626693914,-0.4422494129763654,0.0219865639318635,4.0,0.0
18.268409729003903,24.268999099731445,-1.4855661392211914,-0.0,-0.0,-1.0,0.0648989752712425,2.0,0.0
19.97109031677246,25.590595245361328,-1.49867582321167,-0.0,-0.0,-1.0,0.0568468123400531,2.0,0.0
19.768836975097656,25.55286026000977,-1.4959425926208496,-0.0,-0.0,-1.0,0.0653892595355501,1.0,0.0
19.64580345153809,25.496746063232425,-1.4899983406066897,-0.0,-0.0,-1.0,0.148304249903873,1.0,0.0
19.384294509887695,25.26524353027344,-1.4627699851989746,-0.0,-0.0,-1.0,0.1408948843425533,1.0,0.0
19.279478073120117,25.47307586669922,-1.491593837738037,-0.0,-0.0,-1.0,0.0806997722692594,2.0,0.0
18.63060760498047,24.89651870727539,-1.4252080917358398,-0.0,-0.0,-1.0,0.0554606245211645,1.0,0.0
18.508623123168945,24.880386352539062,-1.4251084327697754,-0.0,-0.0,-1.0,0.0461096137400717,1.0,0.0
18.192636489868164,24.73548889160156,-1.4115314483642578,-0.0,-0.0,-1.0,0.067553961372491,1.0,0.0
17.883630752563477,24.55588150024414,-1.393632888793945,-0.0,-0.0,-1.0,0.0560916538320376,1.0,0.0
19.89096450805664,24.90190887451172,-1.7023208141326904,-0.0,-0.0,-1.0,0.0312628976791094,1.0,0.0
19.49077033996582,24.516345977783203,-1.6531927585601809,-0.0,-0.0,-1.0,0.0490793992240866,2.0,0.0
19.65152931213379,24.880680084228516,-1.7034928798675537,-0.0,-0.0,-1.0,0.0152542574545887,1.0,0.0
19.306676864624023,24.489532470703125,-1.652867555618286,-0.0,-0.0,-1.0,0.054452407482124,2.0,0.0
18.76285171508789,24.22375106811523,-1.625399827957153,-0.0,-0.0,-1.0,0.0889511171747681,1.0,0.0
19.760831832885746,23.878829956054688,-1.554988145828247,-0.0,-0.0,-1.0,0.0691050205479923,2.0,0.0
18.954809188842773,23.843852996826172,-1.5654780864715576,-0.4476937875141243,-0.7271158698170859,0.5204544019233586,0.1939761226211069,4.0,0.0
18.67515563964844,23.90719223022461,-1.5809886455535889,-0.0,-0.0,-1.0,0.232695671562999,2.0,0.0
18.26448631286621,23.76527404785156,-1.5697996616363523,-0.4201315838797734,0.4592387444821717,-0.7826807955949295,0.1324434696128913,4.0,0.0
17.96924591064453,23.60137939453125,-1.5531585216522217,-0.0,-0.0,-1.0,0.0586904934062532,1.0,0.0
20.18819046020508,25.54745101928711,-1.5648260116577148,-0.0,-0.0,-1.0,0.0724667750270905,1.0,0.0
19.958669662475582,25.593578338623047,-1.5763568878173828,-0.3236272680536244,-0.8655856795442438,-0.3821345610384873,0.0930137659232361,3.0,0.0
19.71335220336914,25.498043060302734,-1.5680065155029297,-0.0,-0.0,-1.0,0.1018326687393192,1.0,0.0
19.28317070007324,25.35445022583008,-1.55743408203125,0.3361174121192624,-0.1044221879563092,-0.9360134037142132,0.1642777842194361,4.0,0.0
18.87130355834961,25.313899993896484,-1.562129020690918,0.5586637307453388,0.7513564524542634,-0.3512240272319703,0.0791098330954289,3.0,0.0
18.53859519958496,24.911224365234375,-1.5125999450683594,0.4489864774892395,0.3221709916592621,-0.8334368573353907,0.0558000587892141,3.0,0.0
18.240861892700195,24.721290588378903,-1.4934954643249512,-0.2943952950837682,-0.5734375974754737,-0.7645264756920441,0.0382622492672408,3.0,0.0
17.931970596313477,24.481346130371097,-1.46779203414917,-0.0,-0.0,-1.0,0.0746004433309367,2.0,0.0
20.074562072753903,24.85765838623047,-1.6756823062896729,-0.0,-0.0,-1.0,0.0326895389949654,2.0,0.0
19.67853355407715,24.83985710144043,-1.680638074874878,-0.0,-0.0,-1.0,0.0218209240823293,1.0,0.0
19.754207611083984,23.945573806762695,-1.5402376651763916,-0.0,-0.0,-1.0,0.0652023643534706,2.0,0.0
19.39925765991211,24.483247756958008,-1.6310484409332275,-0.0,-0.0,-1.0,0.0442330400129927,1.0,0.0
19.229488372802734,24.48332405090332,-1.6347758769989014,-0.0,-0.0,-1.0,0.0562058459976416,1.0,0.0
18.929533004760746,23.881114959716797,-1.5478641986846924,-0.6078133923039524,-0.0373531600218997,-0.7932008708847592,0.1952813703387401,3.0,0.0
18.695920944213867,24.154184341430664,-1.5960533618927002,-0.0,-0.0,-1.0,0.0921778218831117,2.0,0.0
18.434165954589844,23.826961517333984,-1.5516064167022705,-0.0,-0.0,-1.0,0.1298705886377808,2.0,0.0
18.090404510498047,23.650699615478516,-1.53330397605896,-0.0,-0.0,-1.0,0.0672787720362146,1.0,0.0
18.10467529296875,23.78178024291992,-1.55334734916687,0.1566414523855876,-0.1004696578341396,-0.9825320876435664,0.0781921736275982,3.0,0.0
17.74711799621582,23.441940307617188,-1.5103213787078855,-0.0,-0.0,-1.0,0.0642881951935278,2.0,0.0
20.108314514160156,25.479957580566406,-1.6080143451690674,-0.0,-0.0,-1.0,0.0819631421060473,1.0,0.0
19.901927947998047,25.274940490722656,-1.5788805484771729,0.3159865944394346,0.779878908967612,-0.540315981146269,0.0470409954248915,4.0,0.0
19.73483657836914,25.27694320678711,-1.5812866687774658,-0.0,-0.0,-1.0,0.0387744384750655,1.0,0.0
19.453462600708008,25.258087158203125,-1.582218885421753,-0.1861313624916217,-0.5129743085297077,-0.837981189935359,0.0843919904002946,4.0,0.0
19.04743766784668,25.2139892578125,-1.5816285610198977,-0.0,-0.0,-1.0,0.0392991483679542,1.0,0.0
18.695327758789062,24.957481384277344,-1.5478942394256592,0.3781689802003449,-0.154825159605201,-0.9126978647764304,0.0511855503563134,4.0,0.0
18.32087516784668,24.60874938964844,-1.5008232593536377,-0.0,-0.0,-1.0,0.0546957603670614,2.0,0.0
18.50125503540039,24.74260711669922,-1.5181338787078855,-0.0,-0.0,-1.0,0.0447822303813549,2.0,0.0
18.039461135864254,24.46773910522461,-1.484616994857788,-0.0,-0.0,-1.0,0.0791875104119837,2.0,0.0
17.733366012573242,24.18247985839844,-1.4468662738800049,-0.0,-0.0,-1.0,0.0725294918106332,2.0,0.0
18.511043548583984,25.346179962158203,-1.408512830734253,-0.5650600284920474,0.1179894634902969,-0.816569440222838,0.2421121696204732,3.0,0.0
18.016508102416992,24.885173797607425,-1.34832501411438,-0.7660599645770108,-0.6421077387883636,0.0291510284615077,0.1080799909885057,6.0,0.0
19.793624877929688,25.182111740112305,-1.6171483993530271,-0.0,-0.0,-1.0,0.0446178087658076,2.0,0.0
19.372875213623047,25.082077026367188,-1.5971026420593262,-0.0,-0.0,-1.0,0.0330563918711561,2.0,0.0
18.988685607910156,25.08112335205078,-1.5943670272827148,-0.0,-0.0,-1.0,0.0321913008921856,1.0,0.0
18.635021209716797,24.821094512939453,-1.550640106201172,-0.0,-0.0,-1.0,0.0456402147897106,2.0,0.0
18.756855010986328,24.92685890197754,-1.5682520866394043,-0.0,-0.0,-1.0,0.0462215999607398,1.0,0.0
18.73674774169922,23.80321502685547,-1.3862996101379397,-0.772899641785901,-0.3417322005982466,-0.5346449726701872,0.1735676665107824,5.0,0.0
18.34847640991211,24.611629486083984,-1.5159010887145996,-0.298753291186319,-0.6739903147722704,-0.6756356463350036,0.0297104581584034,3.0,0.0
18.030540466308594,24.45534896850586,-1.490184307098389,-0.0,-0.0,-1.0,0.0770415761812934,2.0,0.0
20.207355499267575,25.37647247314453,-1.641880989074707,-0.71656113137159,0.135012066133344,-0.6843331695934901,0.110426302860928,3.0,0.0
19.68599510192871,25.2369384765625,-1.6082220077514648,0.978142231175345,0.1731457269234535,-0.1151448341848936,0.0431790147920392,4.0,0.0
19.38635635375977,25.223371505737305,-1.6006417274475098,-0.0,-0.0,-1.0,0.0943836046169243,1.0,0.0
19.16255569458008,25.39751434326172,-1.626272678375244,-0.0,-0.0,-1.0,0.0460431922081209,1.0,0.0
18.85737419128418,25.303600311279297,-1.6063189506530762,0.5586637307453388,0.7513564524542634,-0.3512240272319703,0.0644335401210765,3.0,0.0
18.639507293701172,25.04184913635254,-1.5595636367797852,-0.0,-0.0,-1.0,0.075458420510357,1.0,0.0
18.505294799804688,24.901397705078125,-1.5343379974365234,-0.0,-0.0,-1.0,0.0518323609966827,2.0,0.0
18.745792388916016,23.74358367919922,-1.3430166244506836,-0.0,-0.0,-1.0,0.1847681143585442,2.0,0.0
18.201688766479492,24.78308868408203,-1.511274814605713,-0.0,-0.0,-1.0,0.0472285218257413,2.0,0.0
18.223308563232425,24.856077194213867,-1.5238051414489746,-0.0,-0.0,-1.0,0.0660188549744136,1.0,0.0
17.872133255004883,24.662513732910156,-1.4881534576416016,-0.0,-0.0,-1.0,0.1245122097998938,2.0,0.0
17.819671630859375,24.684268951416016,-1.4914493560791016,-0.0,-0.0,-1.0,0.1414781410938042,2.0,0.0
18.145578384399418,25.47508430480957,-1.2235665321350098,-0.0,-0.0,-1.0,0.1353239846495522,1.0,0.0
18.537187576293945,25.358497619628903,-1.4248244762420654,-0.6061771880983756,0.3258244631436822,-0.7255257651153937,0.2285821338131962,3.0,0.0
18.076919555664062,25.288612365722656,-1.4064993858337402,-0.0,-0.0,-1.0,0.1266670559376043,1.0,0.0
17.99793815612793,25.3173828125,-1.4107999801635742,-0.0,-0.0,-1.0,0.1161437564995653,1.0,0.0
18.011886596679688,24.892475128173828,-1.3346543312072754,-0.7612157135141178,-0.6448109983875315,0.069060943069635,0.1080799909885057,5.0,0.0
20.089189529418945,24.939512252807617,-1.6625783443450928,-0.0,-0.0,-1.0,0.0974845647205878,2.0,0.0
19.8275146484375,25.0224552154541,-1.668370008468628,-0.0,-0.0,-1.0,0.0475211115569123,1.0,0.0
19.34151840209961,24.5578556060791,-1.5624806880950928,-0.0,-0.0,-1.0,0.0655416105266473,2.0,0.0
19.19586944580078,24.883806228637695,-1.6196749210357666,-0.3729002337596465,-0.1160114955810958,-0.9205904347510018,0.0460649049413946,3.0,0.0
19.02154541015625,23.906455993652344,-1.4271206855773926,-0.0,-0.0,-1.0,0.1822526144083894,1.0,0.0
19.02257919311523,24.77692985534668,-1.593452215194702,-0.0,-0.0,-1.0,0.0388737525329864,2.0,0.0
18.754497528076172,23.779937744140625,-1.3936619758605957,-0.4975234736517078,-0.1745043453970478,-0.8497167919978316,0.1844754199733611,4.0,0.0
18.50622940063477,24.384654998779297,-1.501629114151001,-0.3377102033187509,-0.2713151883769285,-0.9012989998498834,0.1083750733523903,5.0,0.0
18.731555938720703,24.609935760498047,-1.5520079135894775,-0.0,-0.0,-1.0,0.0301183751191094,2.0,0.0
18.17624282836914,24.352977752685547,-1.4857299327850342,0.8732218943793966,0.1740526832612869,-0.4551803891052463,0.0690782094871409,3.0,0.0
17.746368408203125,24.213699340820312,-1.446763515472412,-0.0,-0.0,-1.0,0.0662533570409719,2.0,0.0
20.111995697021484,24.91820526123047,-1.6663358211517334,-0.0,-0.0,-1.0,0.0885770961096958,2.0,0.0
19.76422119140625,24.949371337890625,-1.6609704494476318,-0.0,-0.0,-1.0,0.0337020119427571,2.0,0.0
19.27323341369629,24.66786766052246,-1.5886662006378174,-0.0,-0.0,-1.0,0.0465022848714846,1.0,0.0
18.940616607666016,24.71183204650879,-1.5881803035736084,-0.0,-0.0,-1.0,0.0570154676342487,1.0,0.0
18.573421478271484,24.428316116333008,-1.5203158855438232,-0.0,-0.0,-1.0,0.0739679939651043,1.0,0.0
18.384979248046875,24.573280334472656,-1.5466601848602295,-0.5377963872320037,0.7169584931189374,-0.4435601030580042,0.0226718665146564,3.0,0.0
18.289426803588867,24.53927421569824,-1.53741717338562,-0.0,-0.0,-1.0,0.0473920151923328,1.0,0.0
19.142297744750977,23.893535614013672,-1.42745041847229,-0.0,-0.0,-1.0,0.2110969401708436,1.0,0.0
18.752574920654297,23.766016006469727,-1.389646291732788,-0.4975234736517078,-0.1745043453970478,-0.8497167919978316,0.172673455097497,4.0,0.0
18.576068878173828,24.276336669921875,-1.489292860031128,-0.0,-0.0,-1.0,0.1024210672531933,1.0,0.0
18.102436065673828,24.476377487182617,-1.5202462673187256,-0.0,-0.0,-1.0,0.0648097491265046,1.0,0.0
17.78982925415039,24.38822555541992,-1.4955122470855713,-0.0,-0.0,-1.0,0.0693460582610176,1.0,0.0
20.049095153808594,24.878284454345703,-1.6675307750701904,-0.0,-0.0,-1.0,0.0437111304145007,2.0,0.0
19.877151489257812,24.94506072998047,-1.670241117477417,-0.0,-0.0,-1.0,0.0414873488242621,1.0,0.0
19.698169708251953,24.99856758117676,-1.6702406406402588,-0.0,-0.0,-1.0,0.0301255080018517,2.0,0.0
19.318532943725582,24.98824691772461,-1.6463582515716553,-0.0,-0.0,-1.0,0.04373791025237,1.0,0.0
19.20132827758789,24.92467498779297,-1.6270363330841064,-0.0,-0.0,-1.0,0.0402031301974502,2.0,0.0
18.9753360748291,23.859296798706055,-1.4006927013397217,-0.0,-0.0,-1.0,0.2215926511747658,1.0,0.0
18.82117080688477,24.73874282836914,-1.5688354969024658,-0.0,-0.0,-1.0,0.0353383451619294,2.0,0.0
18.646326065063477,23.8497257232666,-1.3799891471862793,-0.0,-0.0,-1.0,0.1001272333929007,2.0,0.0
18.389263153076172,24.594770431518555,-1.517118215560913,0.0541442684165853,0.6641059976086744,-0.7456752792857091,0.0230168948321961,4.0,0.0
17.99795150756836,24.504241943359375,-1.4792749881744385,-0.0,-0.0,-1.0,0.0581310455999917,1.0,0.0
17.720958709716797,24.478174209594727,-1.460899829864502,-0.0,-0.0,-1.0,0.0637465215111059,1.0,0.0
18.46197509765625,23.354154586791992,-1.6257154941558838,-0.0,-0.0,-1.0,0.0740531709067207,1.0,0.0
17.867023468017578,23.316064834594727,-1.5558393001556396,-0.0,-0.0,-1.0,0.0566145891534884,2.0,0.0
19.923770904541016,23.672273635864254,-1.618013858795166,-0.0,-0.0,-1.0,0.0982067571882341,1.0,0.0
19.854759216308594,23.42754554748535,-1.5597119331359863,-0.0,-0.0,-1.0,0.0528687203077832,2.0,0.0
19.64611053466797,23.834991455078125,-1.6256847381591797,-0.0,-0.0,-1.0,0.0599899338967913,1.0,0.0
19.47030258178711,24.13614273071289,-1.6735105514526367,-0.0,-0.0,-1.0,0.0379261885493239,1.0,0.0
19.367542266845703,24.214168548583984,-1.6809544563293457,-0.0,-0.0,-1.0,0.0370000976541469,1.0,0.0
18.881216049194336,23.877765655517575,-1.564298152923584,-0.0,-0.0,-1.0,0.1709150847496879,2.0,0.0
18.75550842285156,24.10506820678711,-1.6029725074768066,-0.0,-0.0,-1.0,0.0775295586573807,1.0,0.0
18.434614181518555,24.067703247070312,-1.5675458908081057,0.3113034466850967,-0.3481384774426266,-0.8842453079354783,0.1073649923147548,4.0,0.0
18.07250213623047,24.01462173461914,-1.5260682106018066,-0.0,-0.0,-1.0,0.0776781431104519,1.0,0.0
17.749309539794922,23.89774513244629,-1.4743099212646484,-0.0,-0.0,-1.0,0.0829441579276996,1.0,0.0
20.011734008789062,23.427330017089844,-1.5440330505371094,-0.0,-0.0,-1.0,0.1176959430433122,1.0,0.0
20.01649475097656,23.77403259277344,-1.618480205535889,-0.0,-0.0,-1.0,0.091164831318459,2.0,0.0
19.74466323852539,23.829132080078125,-1.6013574600219729,-0.0,-0.0,-1.0,0.0590383999840766,1.0,0.0
19.594009399414062,24.088672637939453,-1.6421403884887695,-0.0,-0.0,-1.0,0.0338935164718173,1.0,0.0
19.45389175415039,24.25947380065918,-1.665311336517334,-0.0,-0.0,-1.0,0.034808441576517,1.0,0.0
19.152019500732425,24.11315155029297,-1.603090763092041,-0.0,-0.0,-1.0,0.2019289722877601,1.0,0.0
18.73560905456543,24.269535064697266,-1.597978115081787,-0.0,-0.0,-1.0,0.0909109593050881,1.0,0.0
18.993810653686523,23.74231338500977,-1.505568027496338,-0.0,-0.0,-1.0,0.193394097351989,2.0,0.0
18.811607360839844,23.904972076416016,-1.5237131118774414,-0.0,-0.0,-1.0,0.1691508896319338,2.0,0.0
18.289093017578125,24.144248962402344,-1.5285029411315918,0.0641751706956669,0.8943163452107217,-0.4428090131818901,0.0784422652824847,3.0,0.0
17.977298736572266,24.15676498413086,-1.503610610961914,-0.0,-0.0,-1.0,0.070131430286148,2.0,0.0
19.554443359375,23.510963439941406,-1.605213642120361,-0.0,-0.0,-1.0,0.0303368252951211,1.0,0.0
19.367475509643555,23.92256546020508,-1.6718344688415527,-0.0,-0.0,-1.0,0.1025359250898606,2.0,0.0
18.93204689025879,23.831974029541016,-1.5979018211364746,-0.0,-0.0,-1.0,0.196958254028847,2.0,0.0
18.75414276123047,23.97496795654297,-1.608834743499756,-0.0,-0.0,-1.0,0.1269943989537653,1.0,0.0
18.476394653320312,24.000709533691406,-1.5821771621704102,-0.3249866587078694,-0.6288263133310261,-0.7063718137952595,0.1377002484295628,3.0,0.0
17.847122192382812,25.630725860595703,-1.2589788436889648,-0.0,-0.0,-1.0,0.1600287828869459,1.0,0.0
18.17525863647461,23.97964859008789,-1.5429606437683103,-0.0,-0.0,-1.0,0.0682075800995251,2.0,0.0
20.168203353881836,24.111356735229492,-1.6351923942565918,-0.0,-0.0,-1.0,0.0655050860431726,1.0,0.0
19.927576065063477,24.43152236938477,-1.6620821952819824,0.2470381564954061,0.8857451079463299,0.3929729672439264,0.081666233415366,3.0,0.0
19.760469436645508,24.667762756347656,-1.684847354888916,-0.0,-0.0,-1.0,0.017238716896908,1.0,0.0
20.084461212158203,23.34231185913086,-1.476736068725586,-0.0,-0.0,-1.0,0.1073990725333336,1.0,0.0
20.131441116333008,23.62053680419922,-1.5361461639404297,-0.0,-0.0,-1.0,0.122227216733867,1.0,0.0
19.71285820007324,23.90839958190918,-1.5283842086791992,-0.0,-0.0,-1.0,0.0716285167335985,2.0,0.0
19.20310401916504,24.627132415771484,-1.5989999771118164,0.9669255055845066,0.053001276368239,-0.249491345247653,0.0810716451385601,3.0,0.0
18.889402389526367,24.7197265625,-1.5753059387207031,-0.0,-0.0,-1.0,0.0553025386446152,1.0,0.0
18.6285343170166,24.72142219543457,-1.5411033630371094,-0.1697861985315655,-0.5700810918791948,-0.8038533420158336,0.0529352275514382,5.0,0.0
19.20338249206543,23.99424743652344,-1.4714207649230957,-0.0,-0.0,-1.0,0.216006266561327,1.0,0.0
19.063804626464844,23.682937622070312,-1.3896830081939695,-0.0,-0.0,-1.0,0.2276432182623929,1.0,0.0
18.886966705322266,23.818191528320312,-1.391408920288086,0.4979717845817878,0.5832310686013235,-0.6417675766027666,0.2328691208474821,3.0,0.0
18.396385192871097,24.714405059814453,-1.5093202590942385,-0.0,-0.0,-1.0,0.0293444494453311,1.0,0.0
18.65993309020996,23.86046981811523,-1.3683180809020996,-0.0,-0.0,-1.0,0.1274744220169247,2.0,0.0
18.219331741333008,24.726634979248047,-1.489213466644287,-0.2943952950837682,-0.5734375974754737,-0.7645264756920441,0.0462325003347022,3.0,0.0
17.999465942382812,24.716753005981445,-1.459296703338623,-0.0,-0.0,-1.0,0.0875698809786088,2.0,0.0
17.714942932128906,25.18682098388672,-1.5263442993164062,-0.0,-0.0,-1.0,0.1024358805699538,1.0,0.0
19.969970703125,23.902477264404297,-1.6185057163238523,-0.0,-0.0,-1.0,0.0671490769569836,2.0,0.0
