x,y,z,nx,ny,nz,curvature,density,label
36.6953010559082,8.338336944580078,-1.3790889978408811,-0.0,-0.0,-1.0,0.1128752592784876,1.0,0.0
35.436405181884766,9.320845603942873,-1.1355496644973757,-0.4765073333676131,0.0524869168191577,-0.8776023500479615,0.181594592229885,5.0,0.0
35.60365676879883,9.17583179473877,-1.1662973165512085,-0.0,-0.0,-1.0,0.102809571513394,1.0,0.0
36.73098373413086,9.031893730163574,-1.4152520895004272,-0.0,-0.0,-1.0,0.0517286459721376,1.0,0.0
36.70264434814453,9.472084045410156,-1.4314080476760864,-0.0,-0.0,-1.0,0.136333247221571,2.0,0.0
35.774757385253906,10.10885524749756,-1.2595542669296265,-0.0,-0.0,-1.0,0.2136680621654328,2.0,0.0
36.27964782714844,10.397516250610352,-1.3949865102767944,-0.0,-0.0,-1.0,0.174505641550884,1.0,0.0
36.519737243652344,10.387683868408203,-1.4487742185592651,-0.0,-0.0,-1.0,0.0784384794819012,1.0,0.0
35.316951751708984,8.400096893310547,-0.680073618888855,-0.0373132113972455,-0.8710557823546872,0.4897647887319871,0.1748135684641794,9.0,0.0
35.5668830871582,9.95710277557373,-0.8052757978439331,-0.0,-0.0,-1.0,0.1580055387772763,2.0,0.0
35.81496047973633,9.994763374328612,-0.8551629781723022,-0.0,-0.0,-1.0,0.2417260422629816,2.0,0.0
35.56364822387695,10.257972717285156,-0.8247283697128296,-0.2143761002467275,0.7575262743524925,-0.6166010309013743,0.1211695318496374,5.0,0.0
36.28376007080078,10.559426307678224,-0.9838806390762328,-0.3724094529332682,0.2800490649428445,-0.8848071657658421,0.2303948852635404,7.0,0.0
35.84239196777344,10.093958854675291,-0.4652098417282104,-0.5995247039410484,0.7922381906410731,0.1137047872965652,0.1053541412178257,6.0,0.0
35.33452606201172,8.350329399108887,-1.2169523239135742,0.2791035055373286,0.7589559077211286,0.5882917331834371,0.1618119391717047,3.0,0.0
36.01023483276367,8.351603507995605,-1.4002702236175537,-0.0,-0.0,-1.0,0.0811110112934558,2.0,0.0
37.38823318481445,8.370355606079102,-1.3468890190124512,-0.6223463470950945,-0.6998293269869527,0.3506051017118565,0.0951908620226437,5.0,0.0
36.51411819458008,8.837749481201172,-1.1620230674743652,-0.0349422954771222,-0.9930438974071332,-0.1124404456111796,0.1895328510521664,3.0,0.0
37.42034149169922,8.446067810058594,-1.3576412200927734,-0.4349539860488542,-0.1608966034962322,-0.8859612367387125,0.0818739649599522,3.0,0.0
35.37564468383789,9.291630744934082,-1.268931865692139,-0.0,-0.0,-1.0,0.2051844503164108,1.0,0.0
35.772193908691406,9.271774291992188,-1.376325607299805,-0.0,-0.0,-1.0,0.1365382570305788,2.0,0.0
36.66802215576172,9.330975532531738,-1.2253715991973877,-0.5793668297567092,-0.8056404462547375,-0.1236023783595122,0.157909545141534,6.0,0.0
37.19408416748047,9.205650329589844,-1.3425960540771484,0.2362031976157954,-0.1688126705472821,-0.9569275477792284,0.0688271842891313,3.0,0.0
37.671382904052734,8.951095581054688,-1.4413964748382568,-0.0,-0.0,-1.0,0.0522721171802042,2.0,0.0
35.944522857666016,9.484087944030762,-1.4361672401428225,-0.0,-0.0,-1.0,0.1735779209543293,1.0,0.0
36.612548828125,9.517529487609863,-1.2240378856658936,-0.0,-0.0,-1.0,0.0990602752076515,1.0,0.0
37.344139099121094,9.477238655090332,-1.3947293758392334,0.7278245945305094,0.0640175847356031,-0.682768707866082,0.0505960078001479,3.0,0.0
35.66671371459961,10.05319595336914,-1.399914026260376,-0.0,-0.0,-1.0,0.2562177498765675,1.0,0.0
36.36703109741211,9.999335289001465,-1.1989591121673584,-0.0,-0.0,-1.0,0.0998276708341874,1.0,0.0
36.6202278137207,10.112174987792969,-1.2675716876983645,-0.0,-0.0,-1.0,0.251362930309525,2.0,0.0
35.4127311706543,10.36326789855957,-1.3558251857757568,-0.0,-0.0,-1.0,0.0449082949996133,1.0,0.0
36.356693267822266,10.452407836914062,-1.2326250076293943,-0.0,-0.0,-1.0,0.1782209783831217,2.0,0.0
36.748046875,10.24130916595459,-1.30804705619812,-0.0,-0.0,-1.0,0.2347123742935437,2.0,0.0
36.854591369628906,10.61352825164795,-1.3643851280212402,-0.0,-0.0,-1.0,0.1021333036978791,1.0,0.0
35.348785400390625,8.368986129760742,-0.8679609298706055,0.0288149796722017,0.5415668984378842,-0.8401636694495074,0.1981504054679853,10.0,0.0
35.46356201171875,8.386220932006836,-0.8954708576202393,-0.0,-0.0,-1.0,0.1703839591449138,2.0,0.0
35.771366119384766,8.721419334411621,-0.981353998184204,-0.2993919148333189,0.2599219594370098,-0.9180441472689992,0.0871744188202017,7.0,0.0
35.369232177734375,9.753067016601562,-0.9447245597839355,-0.0,-0.0,-1.0,0.2502422449773385,2.0,0.0
37.68114471435547,9.548198699951172,-1.0487587451934814,-0.0,-0.0,-1.0,0.1125575111650215,1.0,0.0
35.696834564208984,10.0255765914917,-1.0420546531677246,0.0749329456855656,0.8093790700689003,-0.5824865445529933,0.2158693234567482,4.0,0.0
36.345951080322266,9.87616729736328,-0.8033103942871094,0.3571384641062795,-0.8698977253301191,0.3401912181719156,0.073092607178986,5.0,0.0
36.15164566040039,10.453699111938477,-0.9949681758880616,-0.0,-0.0,-1.0,0.1456646786004365,2.0,0.0
35.54589080810547,9.980273246765137,-0.650337815284729,-0.6549313680531413,-0.3553585409992054,-0.6669221922225683,0.1271692279710848,4.0,0.0
35.84797286987305,10.049099922180176,-0.715979814529419,0.675351008579552,0.1137491467925122,-0.728671494443523,0.1152491182598957,3.0,0.0
35.61206817626953,10.382915496826172,-0.6946130990982056,-0.0,-0.0,-1.0,0.1767833669233279,2.0,0.0
35.877315521240234,10.139816284179688,-0.3689718246459961,0.0266747483160005,0.7664238329914453,-0.6417810888651824,0.1309772753992019,10.0,0.0
37.012733459472656,8.294950485229492,-1.333831548690796,0.3475188113383361,-0.8492759151195365,-0.3974431981602702,0.1736038368501106,3.0,0.0
37.071903228759766,8.364109992980957,-1.351773738861084,-0.0,-0.0,-1.0,0.1598969116728825,2.0,0.0
37.36665725708008,8.496599197387695,-1.4398329257965088,-0.9552965262113302,0.2954553024424667,-0.0107103345977611,0.0621414131218834,3.0,0.0
37.55995559692383,8.508862495422363,-1.4963455200195312,-0.0,-0.0,-1.0,0.062813633251725,1.0,0.0
37.048866271972656,9.107041358947754,-1.3618016242980957,-0.0,-0.0,-1.0,0.1177499055333962,1.0,0.0
37.434791564941406,8.876548767089844,-1.4681458473205566,-0.2815034970928383,-0.1067885020144203,-0.95359949505126,0.0428706298813907,3.0,0.0
37.12372589111328,9.306764602661133,-1.3913559913635254,-0.0,-0.0,-1.0,0.0970931669127674,1.0,0.0
37.14167022705078,9.595580101013184,-1.409048080444336,-0.0,-0.0,-1.0,0.0462260248623525,1.0,0.0
37.22549819946289,10.384756088256836,-1.4809162616729736,-0.0,-0.0,-1.0,0.0434396217328517,1.0,0.0
35.3716926574707,8.404989242553711,-0.8579552173614502,0.8035623461145986,0.2380151549635606,-0.5455605758433009,0.1619130753948282,9.0,0.0
35.5877571105957,8.321544647216797,-0.9206984043121338,-0.0,-0.0,-1.0,0.1713922283396682,2.0,0.0
35.79835510253906,8.712714195251465,-0.9852254390716552,0.1065436904426042,0.825627951187406,-0.554064010963496,0.0888601506607866,4.0,0.0
36.6556396484375,8.787485122680664,-1.237426996231079,-0.5736145675616138,0.5673105987129313,-0.5908680161161868,0.1636826142512164,3.0,0.0
35.492149353027344,9.54565715789795,-0.9206554889678956,0.8633984073757197,0.5007204460432217,-0.0618241462160818,0.1611970266275467,4.0,0.0
36.04408645629883,9.440502166748049,-1.078674077987671,0.6698335628384877,-0.7415587208515815,-0.0375986917866102,0.1787918352144773,5.0,0.0
36.66178512573242,9.36503791809082,-1.25744891166687,-0.6409966091143531,-0.603701700850467,-0.4739911428435704,0.1566820855170526,5.0,0.0
35.60687255859375,10.014458656311035,-0.9795305728912354,-0.1672698383116024,0.7143702722159748,-0.6794820934839153,0.236710561950603,6.0,0.0
35.79874038696289,9.99790382385254,-1.034982681274414,0.9645645808791512,0.2235459994173388,0.1401511878577216,0.2358261457988721,3.0,0.0
36.31836700439453,9.893807411193848,-1.1821520328521729,-0.0,-0.0,-1.0,0.1097999758700717,1.0,0.0
36.55421447753906,9.729988098144531,-1.2427067756652832,-0.0,-0.0,-1.0,0.1350111147075859,2.0,0.0
35.683990478515625,10.169880867004396,-1.01216459274292,-0.0,-0.0,-1.0,0.2517163305847695,2.0,0.0
36.09815979003906,10.371577262878418,-1.1482362747192385,-0.0,-0.0,-1.0,0.2590135635315999,2.0,0.0
36.266624450683594,10.402652740478516,-1.2000997066497805,-0.0,-0.0,-1.0,0.2077937076202761,1.0,0.0
36.76860427856445,10.266324043273926,-1.3381922245025637,0.4629700735721866,-0.6856567686302997,-0.5617236924040327,0.1894415983353707,4.0,0.0
36.304725646972656,10.472784042358398,-1.2165369987487793,0.9123442794109418,0.3995401672886192,0.0894179542883424,0.1714014919150436,5.0,0.0
36.7784423828125,10.589282989501951,-1.364759922027588,-0.0,-0.0,-1.0,0.1219775319635475,1.0,0.0
35.31249237060547,8.345909118652344,-0.8406996726989746,0.9878486052835916,-0.063468861728469,0.141869082714154,0.11467461616066,5.0,0.0
35.46971130371094,9.573797225952148,-0.915318727493286,0.9581229636465862,0.2641298645034062,0.1106155559154969,0.1961969835769329,6.0,0.0
35.567596435546875,9.979223251342772,-0.6835541725158691,-0.3607181422401327,0.8945336057692048,-0.26399251884925,0.1139688368028966,3.0,0.0
36.28887176513672,9.878340721130373,-0.863290548324585,-0.0,-0.0,-1.0,0.0785593105645297,2.0,0.0
35.61945724487305,10.417472839355469,-0.7255463600158691,-0.4924597750322925,0.6365708369547189,0.593515744958727,0.1446812148634782,3.0,0.0
35.856346130371094,10.105887413024902,-0.4774543046951294,-0.6604752626421695,0.7241894036864277,-0.198298096375263,0.1095560755710784,7.0,0.0
36.96879959106445,9.326042175292969,-1.1048184633255005,-0.0,-0.0,-1.0,0.1679376595487431,1.0,0.0
35.69314956665039,10.007481575012209,-0.7459123134613037,-0.0,-0.0,-1.0,0.1515982469733146,1.0,0.0
35.62081527709961,10.348797798156738,-0.7433232069015503,0.5690395235912115,-0.5119086610983199,-0.6435398536870989,0.1652864022070822,3.0,0.0
36.20008850097656,10.616876602172852,-0.9348047971725464,-0.0,-0.0,-1.0,0.1386923072335668,2.0,0.0
35.86302185058594,10.077391624450684,-0.5455632209777832,-0.567791636975401,0.5749276600330214,0.5891271872098154,0.1092860645556037,9.0,0.0
35.87190246582031,10.103322982788086,-0.3883181810379028,-0.9883314218022088,-0.0179603377153053,0.1512561633374867,0.1093550656769248,10.0,0.0
36.55957794189453,8.661064147949219,1.5046474933624268,-0.0,-0.0,-1.0,0.1047633766680093,1.0,2.0
35.55076217651367,8.859854698181152,-1.4106119871139526,-0.0,-0.0,-1.0,0.1186076961977847,1.0,0.0
35.50166702270508,8.360322952270508,-1.2889732122421265,-0.0,-0.0,-1.0,0.2094893178778712,1.0,0.0
35.68829345703125,8.23082160949707,-1.4487249851226809,-0.0,-0.0,-1.0,0.0727080397888714,1.0,0.0
36.03935241699219,8.202461242675781,-1.4335339069366455,-0.0,-0.0,-1.0,0.1102156336623664,1.0,0.0
35.40389633178711,8.347034454345703,-1.0849111080169678,-0.0374215195872202,0.1750820257792364,-0.9838424234199408,0.1698296819484621,7.0,0.0
35.263668060302734,8.259395599365234,-1.069596290588379,0.6621127591445354,0.7130790450592719,-0.2304885456489486,0.1998794991942565,4.0,0.0
35.32558059692383,8.398567199707031,-0.6998065710067749,-0.0583499683983162,-0.9770303877918444,0.2049558550498953,0.1748135684641794,11.0,0.0
35.603389739990234,10.286785125732422,-1.2676211595535278,-0.0,-0.0,-1.0,0.170054903922892,1.0,0.0
36.292537689208984,10.477102279663086,-1.299465298652649,0.9271768369755388,0.2023022961307186,0.3153044464581408,0.125392224355764,3.0,0.0
35.98635482788086,10.15278434753418,-1.237970232963562,-0.0,-0.0,-1.0,0.1976093610005851,2.0,0.0
35.89305114746094,9.941574096679688,-1.1979211568832395,-0.0,-0.0,-1.0,0.1861668561893742,1.0,0.0
35.669376373291016,9.694808959960938,-1.1526201963424685,-0.0,-0.0,-1.0,0.1399075209069827,1.0,0.0
35.33740234375,9.40549659729004,-1.1022051572799685,-0.0,-0.0,-1.0,0.155144236584733,2.0,0.0
36.343475341796875,9.813028335571287,-1.1704493761062622,-0.0,-0.0,-1.0,0.1889038397487181,1.0,0.0
35.49829864501953,9.104076385498049,-1.259960055351257,-0.0,-0.0,-1.0,0.1564520008847995,2.0,0.0
35.37109375,8.754837036132812,-1.4091452360153198,-0.0,-0.0,-1.0,0.1569394557859902,2.0,0.0
37.00763320922851,9.79159927368164,-1.1679319143295288,-0.0,-0.0,-1.0,0.0893671595973518,1.0,0.0
36.684688568115234,9.681034088134766,-1.1447893381118774,0.7191281444646503,0.6330677172992829,-0.2864960333971557,0.157948960674794,3.0,0.0
35.70515060424805,8.91048812866211,-1.436776041984558,-0.0,-0.0,-1.0,0.1344473144441567,2.0,0.0
35.39044189453125,8.497482299804688,-1.350161910057068,-0.0,-0.0,-1.0,0.1000979151856102,1.0,0.0
36.50021743774414,8.662113189697266,-1.3694747686386108,-0.0,-0.0,-1.0,0.0527159532023773,1.0,0.0
36.1396598815918,8.457643508911133,-1.325821042060852,-0.0,-0.0,-1.0,0.0437500306130054,1.0,0.0
37.50960540771485,9.20728874206543,-1.5002673864364624,-0.0,-0.0,-1.0,0.0888048418293368,1.0,0.0
37.241180419921875,9.017206192016602,-1.4531108140945437,-0.0,-0.0,-1.0,0.0659141601166442,1.0,0.0
36.90365219116211,8.911554336547852,-1.4264947175979614,-0.0,-0.0,-1.0,0.1157304065124424,2.0,0.0
36.659175872802734,8.571945190429688,-1.3480793237686155,-0.0,-0.0,-1.0,0.0557124198001785,1.0,0.0
36.369590759277344,8.242116928100586,-1.2735823392868042,-0.0,-0.0,-1.0,0.0448901407274332,1.0,0.0
37.47574234008789,8.926128387451172,-1.4346002340316772,-0.0,-0.0,-1.0,0.0582256811339283,1.0,0.0
36.17374420166016,10.622369766235352,-0.8394111394882202,-0.879714343878037,-0.4667369232678337,0.0908807880341655,0.2138139010743693,6.0,0.0
35.54323959350586,10.271507263183594,-0.7862809896469116,-0.150004019339271,0.9072158185407092,-0.3930117717977087,0.1089147704254293,6.0,0.0
35.33980178833008,10.093948364257812,-0.7602227926254272,-0.0,-0.0,-1.0,0.1363535964838382,2.0,0.0
35.76019287109375,10.05154800415039,-0.7502597570419312,0.9466418744527924,0.1883043875603132,-0.2615542375073267,0.2205342347657333,4.0,0.0
35.585426330566406,8.929536819458008,-1.0065053701400757,-0.0,-0.0,-1.0,0.1465213942511745,2.0,0.0
35.225440979003906,8.93375015258789,-1.014124035835266,-0.0,-0.0,-1.0,0.1764606036685541,1.0,0.0
35.70547866821289,8.728513717651367,-0.9659970998764038,0.0453625821419657,-0.5439938841616362,-0.8378620949393462,0.0525620461107503,3.0,0.0
35.55300521850586,8.44626235961914,-0.9142533540725708,0.8856891376887044,-0.0801768331359211,0.4573034296925116,0.1709658392381535,3.0,0.0
35.25142288208008,8.265567779541016,-0.8859888315200806,0.0282618597311913,-0.4596159406672486,-0.8876679865631601,0.179046135655601,3.0,0.0
35.483306884765625,8.184551239013672,-0.8654240369796753,-0.0,-0.0,-1.0,0.1460096944679438,1.0,0.0
35.446754455566406,10.537657737731934,-1.370632290840149,-0.0,-0.0,-1.0,0.0337691475950101,2.0,0.0
36.21803283691406,10.512808799743652,-1.3511914014816284,-0.0,-0.0,-1.0,0.0940400049704547,2.0,0.0
35.742897033691406,10.104158401489258,-1.2815128564834597,-0.0,-0.0,-1.0,0.2143620508455037,2.0,0.0
35.59158706665039,10.00863552093506,-1.2667328119277954,-0.0,-0.0,-1.0,0.1719972359501254,1.0,0.0
36.009132385253906,9.999403953552246,-1.256445050239563,0.95417001491494,-0.1189954778795101,0.274589983213973,0.2321810931730692,3.0,0.0
35.754390716552734,9.772787094116213,-1.2182639837265017,-0.0,-0.0,-1.0,0.1258022214162898,1.0,0.0
37.151424407958984,10.16977310180664,-1.278713345527649,-0.0,-0.0,-1.0,0.1856495058399321,1.0,0.0
36.62589645385742,9.68642234802246,-1.188568949699402,0.5677423243339956,-0.6403615000548794,-0.5173062945753678,0.1425851244741732,3.0,0.0
35.926177978515625,9.529966354370115,-1.16850745677948,-0.0,-0.0,-1.0,0.1838446904391698,1.0,0.0
35.462059020996094,9.361644744873049,-1.147307515144348,-0.5521069201199825,0.1089313970089758,-0.8266268199745882,0.1975443736193072,3.0,0.0
36.96041488647461,9.728535652160645,-1.1945534944534302,-0.0,-0.0,-1.0,0.1585094470663364,1.0,0.0
36.80595779418945,9.67040729522705,-1.184134840965271,-0.524168017000617,-0.7941854417745624,-0.3074367805370461,0.16457294513658,4.0,0.0
35.5926513671875,8.643528938293457,-1.4425824880599976,-0.0,-0.0,-1.0,0.0215371125472881,2.0,0.0
35.48408508300781,8.624581336975098,-1.441959261894226,-0.0,-0.0,-1.0,0.0462364665062468,1.0,0.0
35.77070999145508,8.500699996948242,-1.4049431085586548,-0.0,-0.0,-1.0,0.0222146832675239,1.0,0.0
35.369083404541016,8.244048118591309,-1.3604804277420044,-0.0,-0.0,-1.0,0.2020558381656221,1.0,0.0
36.3100471496582,8.235943794250488,-1.331917643547058,-0.0,-0.0,-1.0,0.0554502734491075,2.0,0.0
36.09476089477539,8.255098342895508,-1.3409394025802612,0.1693102842524667,-0.1983367652804414,-0.9653996867538548,0.0865543286929513,3.0,0.0
35.746944427490234,8.173883438110352,-1.3318005800247192,-0.0,-0.0,-1.0,0.1199719935956283,1.0,0.0
37.60223388671875,8.36565113067627,-1.353549599647522,-0.0,-0.0,-1.0,0.0913829443892941,2.0,0.0
37.34492111206055,8.324750900268555,-1.3432201147079468,-0.0,-0.0,-1.0,0.1357353690478919,1.0,0.0
36.93212127685547,8.231307983398438,-1.3229399919509888,-0.9492733705143198,0.0940928113556457,-0.3000443481946855,0.1200252714693899,3.0,0.0
36.56262969970703,8.149100303649902,-1.3079878091812134,-0.0,-0.0,-1.0,0.1139512500407432,2.0,0.0
35.458213806152344,10.170400619506836,-0.8166340589523315,-0.0,-0.0,-1.0,0.1075467503022395,1.0,0.0
36.406517028808594,9.973726272583008,-0.7724887132644653,0.5795407219217068,0.8142680960427858,-0.0331665403882124,0.0503533525779025,3.0,0.0
35.754722595214844,10.059892654418944,-0.7941421270370483,0.5246382324186747,-0.791482315227828,-0.3135450043713124,0.2005991022448421,4.0,0.0
36.2806282043457,9.885921478271484,-0.7600756883621216,-0.0,-0.0,-1.0,0.0700046167968903,1.0,0.0
35.593406677246094,8.936956405639648,-1.0633283853530884,-0.0,-0.0,-1.0,0.1930683069389549,1.0,0.0
36.53190231323242,8.841771125793457,-1.0278412103652954,-0.3773730635882798,0.6154228786972163,-0.6919857305277528,0.2321796776879345,3.0,0.0
35.40923309326172,8.350940704345703,-0.9576848745346068,0.9916381946580356,0.0402587744911261,-0.1226088168600642,0.2437152751665279,4.0,0.0
35.259124755859375,8.310020446777344,-0.9546033143997192,0.2681318235862416,0.4834222451809125,-0.8333116212105541,0.1976624462120027,5.0,0.0
35.75094985961914,10.138033866882324,-0.3299754858016968,-0.0,-0.0,-1.0,0.1029516131385091,2.0,0.0
37.53190231323242,10.564753532409668,-1.481348752975464,-0.0,-0.0,-1.0,0.0441560803864679,1.0,0.0
36.29796600341797,10.178967475891112,-1.3985071182250977,-0.0,-0.0,-1.0,0.0705389200825839,1.0,0.0
36.12816619873047,10.145980834960938,-1.3929181098937988,-0.0,-0.0,-1.0,0.1750350777584308,1.0,0.0
35.580345153808594,10.076024055480955,-1.384286642074585,-0.0,-0.0,-1.0,0.1826177511074345,1.0,0.0
37.26122283935547,10.150344848632812,-1.3967223167419434,-0.0,-0.0,-1.0,0.1654811398886839,1.0,0.0
36.08161544799805,9.921714782714844,-1.3492381572723389,-0.0,-0.0,-1.0,0.2071542682950679,1.0,0.0
35.7617301940918,9.911399841308594,-1.349977970123291,-0.0,-0.0,-1.0,0.1895818074638228,1.0,0.0
35.28798294067383,9.65463638305664,-1.3069195747375488,-0.0,-0.0,-1.0,0.2475010891518063,1.0,0.0
37.6375732421875,9.69055461883545,-1.3117940425872805,-0.0,-0.0,-1.0,0.1133859830897279,1.0,0.0
36.96731948852539,9.693900108337402,-1.304760456085205,-0.2698291623657892,0.9626569199720616,0.0219972172531097,0.0903169391866893,5.0,0.0
36.647727966308594,9.553525924682615,-1.2759084701538086,0.748074472805224,-0.5756521920445508,-0.3301653175781633,0.1581851029418843,3.0,0.0
35.74919891357422,9.366544723510742,-1.2439122200012207,-0.0,-0.0,-1.0,0.2091000937029075,1.0,0.0
35.52751922607422,9.16819190979004,-1.2083721160888672,-0.972874668242247,0.0168829188351113,0.2307159442781207,0.1558339910066214,3.0,0.0
35.59931945800781,8.944281578063965,-1.1636621952056885,-0.0,-0.0,-1.0,0.1567567667488149,2.0,0.0
37.33447265625,8.26386547088623,-1.4519155025482178,-0.0,-0.0,-1.0,0.1238173538087772,1.0,0.0
36.9501838684082,8.167848587036133,-1.4258949756622314,-0.0,-0.0,-1.0,0.1208957150703684,2.0,0.0
36.1490364074707,8.152677536010742,-1.424161672592163,-0.0,-0.0,-1.0,0.0597031047826634,1.0,0.0
35.72771453857422,8.156797409057617,-1.4311833381652832,-0.0,-0.0,-1.0,0.0970399245489262,1.0,0.0
36.929630279541016,8.144688606262207,-1.42024827003479,-0.0,-0.0,-1.0,0.1161557563056715,2.0,0.0
36.29275894165039,10.623272895812988,-0.9818477630615234,-0.0,-0.0,-1.0,0.1125097886443736,2.0,0.0
35.63285446166992,9.99427890777588,-0.884788990020752,0.589263446162077,-0.7780374688659538,-0.2177757747267882,0.2397341056365968,4.0,0.0
35.494693756103516,9.886234283447266,-0.8689067363739014,0.4372037743004277,-0.6925424224143331,-0.5737925172864734,0.1826177040683274,3.0,0.0
36.18590545654297,9.860668182373049,-0.8602476119995117,-0.0,-0.0,-1.0,0.1063596687879281,2.0,0.0
35.485191345214844,9.582711219787598,-0.8208131790161133,-0.0844832624952845,0.9733125480899693,-0.2133664971094661,0.1324189311786812,5.0,0.0
36.43302154541016,8.93209171295166,-1.1542000770568848,-0.0,-0.0,-1.0,0.1197173552630379,1.0,0.0
35.50578689575195,8.3429536819458,-1.0482842922210691,0.5029685337673566,0.0326471538365672,-0.8636879166610394,0.2257706865760698,3.0,0.0
35.34230041503906,8.28420352935791,-1.040034532546997,0.5681002688473425,0.5857531193266017,-0.5780617334980175,0.1633451612941521,7.0,0.0
35.41178512573242,8.173449516296387,-1.0171356201171875,-0.0,-0.0,-1.0,0.1833422763376323,2.0,0.0
35.80934143066406,10.081512451171877,-0.4171587228775024,0.3004699696918211,0.9232320542703948,0.2395002531962395,0.094652041470453,4.0,0.0
35.7738037109375,8.858264923095703,-1.442928910255432,-0.0,-0.0,-1.0,0.1202685729979064,1.0,0.0
35.705814361572266,8.728958129882812,-1.4114121198654177,-0.0,-0.0,-1.0,0.0617560881498166,1.0,0.0
35.39783477783203,8.674659729003906,-1.3863550424575806,-0.0,-0.0,-1.0,0.1467280450548816,2.0,0.0
36.31706237792969,10.530510902404783,-1.3253873586654663,-0.0,-0.0,-1.0,0.1163281251406596,1.0,0.0
36.386661529541016,10.447933197021484,-1.3141003847122192,-0.0,-0.0,-1.0,0.2286469189581473,2.0,0.0
37.14623260498047,9.910926818847656,-1.2625654935836792,-0.0,-0.0,-1.0,0.1728730971750066,1.0,0.0
36.442474365234375,9.782010078430176,-1.1949139833450315,-0.0,-0.0,-1.0,0.1982747504113081,1.0,0.0
36.05417251586914,9.858448028564451,-1.187867283821106,-0.0,-0.0,-1.0,0.2069642530338025,2.0,0.0
35.819313049316406,9.98927879333496,-1.2000430822372437,-0.0,-0.0,-1.0,0.1575931063439231,1.0,0.0
36.87158966064453,9.648448944091797,-1.19645893573761,-0.5767085381799731,0.5265490758056569,-0.624622552233368,0.1729486346279104,5.0,0.0
36.59790802001953,9.655318260192873,-1.1807831525802612,-0.0,-0.0,-1.0,0.1215925365414428,2.0,0.0
35.350624084472656,9.436824798583984,-1.077557921409607,-0.0,-0.0,-1.0,0.1593000361157245,2.0,0.0
35.615234375,9.12737274169922,-1.032132267951965,-0.0,-0.0,-1.0,0.1436235821570441,1.0,0.0
35.218570709228516,8.851573944091797,-0.9649120569229126,-0.0,-0.0,-1.0,0.200176353116352,2.0,0.0
36.56526947021485,8.786009788513184,-1.0191293954849243,-0.0,-0.0,-1.0,0.2344478611874178,2.0,0.0
35.908843994140625,8.521551132202148,-1.3753358125686646,-0.0,-0.0,-1.0,0.0408415358630659,2.0,0.0
37.37955093383789,8.240580558776855,-1.407542109489441,-0.0,-0.0,-1.0,0.0897591405552763,2.0,0.0
37.00468826293945,8.17613697052002,-1.3654459714889526,-0.0,-0.0,-1.0,0.0943054506170876,2.0,0.0
36.2203369140625,8.261618614196777,-1.3346086740493774,-0.0,-0.0,-1.0,0.0743608684508904,1.0,0.0
35.95368957519531,8.289202690124512,-1.3264209032058716,-0.0,-0.0,-1.0,0.1172061741625459,2.0,0.0
35.302757263183594,8.184065818786621,-1.2746542692184448,-0.0,-0.0,-1.0,0.185185275956081,2.0,0.0
36.32471466064453,10.626739501953123,-0.8325484991073608,-0.0,-0.0,-1.0,0.1393095674266474,1.0,0.0
36.17863082885742,10.61227321624756,-0.8226028680801392,-0.7451394459890938,0.3770734435114233,0.5500752896008905,0.1771657422465077,5.0,0.0
35.55620574951172,10.271827697753906,-0.7416585683822632,-0.0,-0.0,-1.0,0.1887748168161429,2.0,0.0
35.30611801147461,10.038755416870115,-0.6962121725082397,-0.0,-0.0,-1.0,0.213290740206043,1.0,0.0
35.66069793701172,9.995858192443848,-0.7058066129684448,-0.0,-0.0,-1.0,0.0920759867240383,1.0,0.0
35.6927604675293,8.606934547424316,-0.9400991201400756,-0.0,-0.0,-1.0,0.0425082933673084,1.0,0.0
35.4296875,8.273383140563965,-0.8673683404922485,0.2796640580913567,0.7132542015945027,-0.6426946853052876,0.1358757165952966,5.0,0.0
37.31828308105469,9.998617172241213,-1.4393503665924072,-0.0,-0.0,-1.0,0.0850212690909307,1.0,0.0
37.53954315185547,9.45433521270752,-1.3293852806091309,-0.0,-0.0,-1.0,0.1074092177678616,2.0,0.0
37.27412414550781,9.530367851257324,-1.3455862998962402,-0.0,-0.0,-1.0,0.1083372362669649,2.0,0.0
36.87583541870117,9.656797409057615,-1.37461519241333,-0.0,-0.0,-1.0,0.0971598584874986,1.0,0.0
36.449954986572266,9.612997055053713,-1.3727359771728516,-0.0,-0.0,-1.0,0.106317538318072,1.0,0.0
36.099571228027344,9.80078125,-1.4186794757843018,-0.0,-0.0,-1.0,0.1577176025513615,1.0,0.0
35.99578094482422,9.272287368774414,-1.314800262451172,-0.0,-0.0,-1.0,0.190483308352215,1.0,0.0
35.70467758178711,9.501595497131348,-1.3699147701263428,-0.0,-0.0,-1.0,0.1594542677088906,1.0,0.0
36.5739860534668,8.931451797485352,-1.2326669692993164,-0.0,-0.0,-1.0,0.1616549692946218,1.0,0.0
36.41847610473633,8.904760360717773,-1.230196237564087,-0.0,-0.0,-1.0,0.1322806963304452,1.0,0.0
36.01140213012695,9.037249565124512,-1.2667121887207031,-0.0,-0.0,-1.0,0.1213368738361608,2.0,0.0
35.48649597167969,9.122669219970703,-1.301072120666504,-0.0,-0.0,-1.0,0.0890590677318146,2.0,0.0
37.02146911621094,10.595025062561035,-1.05104398727417,-0.0,-0.0,-1.0,0.1352048015958515,1.0,0.0
36.22297286987305,10.564796447753906,-1.0610663890838623,-0.8287828398353643,0.5378161240552152,0.1545083204900455,0.169946575504846,3.0,0.0
36.135738372802734,9.919710159301758,-0.9561159610748292,-0.0,-0.0,-1.0,0.2069066590062317,2.0,0.0
35.73141098022461,10.08703327178955,-0.995363712310791,-0.0,-0.0,-1.0,0.2582482950092836,2.0,0.0
35.52572250366211,10.10621452331543,-1.0052108764648438,0.5562220705128753,-0.3127498735241777,-0.769938000676016,0.2337010001408972,3.0,0.0
35.9547233581543,9.772769927978516,-0.9365646839141846,-0.0,-0.0,-1.0,0.2114677913475309,1.0,0.0
35.57769012451172,9.978070259094238,-0.9822092056274414,-0.5096287546617617,0.4962579187260726,-0.7028560382635752,0.2283239173349674,4.0,0.0
35.304595947265625,9.846421241760254,-0.9700760841369628,-0.2096015508704886,-0.3963867480863006,-0.893837085723262,0.2319707397199008,3.0,0.0
35.41264343261719,9.559593200683594,-0.9185731410980223,-0.0,-0.0,-1.0,0.1665461561717014,2.0,0.0
35.81046676635742,8.320127487182617,-1.1277964115142822,-0.0,-0.0,-1.0,0.0770417928313863,1.0,0.0
35.29817199707031,8.311684608459473,-1.144906997680664,0.3873786203162211,0.6145316492220588,0.6872326073654514,0.1652493033255374,4.0,0.0
35.80164337158203,10.126886367797852,-0.5122135877609253,-0.0,-0.0,-1.0,0.0980913459801317,2.0,0.0
35.299903869628906,8.456006050109863,-0.7399947643280029,-0.0,-0.0,-1.0,0.1516059031292236,2.0,0.0
36.05205535888672,10.594965934753418,-1.3027849197387695,-0.0,-0.0,-1.0,0.1383789554729527,1.0,0.0
35.83220672607422,10.544897079467772,-1.2949209213256836,-0.0,-0.0,-1.0,0.1478689607059156,1.0,0.0
35.928409576416016,10.415813446044922,-1.2709665298461914,-0.0,-0.0,-1.0,0.1443267334672701,1.0,0.0
37.700984954833984,9.329896926879885,-1.5673775672912598,-0.0,-0.0,-1.0,0.0907366606078042,1.0,0.0
37.30618667602539,9.24940299987793,-1.5395982265472412,-0.0,-0.0,-1.0,0.0857645595423421,1.0,0.0
36.9586296081543,9.05815887451172,-1.491710186004639,-0.0,-0.0,-1.0,0.1005381882210679,1.0,0.0
35.76066207885742,9.07336711883545,-1.491274118423462,-0.0,-0.0,-1.0,0.1235903229535404,1.0,0.0
35.344032287597656,8.971663475036621,-1.475064039230347,-0.0,-0.0,-1.0,0.1204208246679404,1.0,0.0
37.42761993408203,8.913237571716309,-1.470137357711792,-0.0,-0.0,-1.0,0.050163586682492,2.0,0.0
37.017364501953125,8.970767974853516,-1.4739677906036377,-0.0,-0.0,-1.0,0.143689038087021,1.0,0.0
36.58035659790039,8.78240966796875,-1.4275963306427002,-0.0,-0.0,-1.0,0.1183910087915505,1.0,0.0
36.21126937866211,8.616067886352539,-1.3899660110473633,-0.0,-0.0,-1.0,0.0536368020307219,1.0,0.0
35.851932525634766,8.756171226501465,-1.421641826629639,-0.0,-0.0,-1.0,0.1126389999373528,2.0,0.0
37.69976806640625,8.516400337219238,-1.392723560333252,-0.0,-0.0,-1.0,0.0897953808599279,2.0,0.0
36.02033233642578,8.512733459472656,-1.367808818817139,-0.0,-0.0,-1.0,0.0481478692442159,2.0,0.0
35.93577194213867,8.495597839355469,-1.3645222187042236,-0.0,-0.0,-1.0,0.0565291508447465,2.0,0.0
35.69441223144531,10.215810775756836,-1.2365937232971191,-0.0,-0.0,-1.0,0.1411540997263932,1.0,0.0
35.702659606933594,9.834877014160156,-1.167715311050415,-0.0,-0.0,-1.0,0.2086150882632024,1.0,0.0
35.34793472290039,9.959920883178713,-1.1948292255401611,-0.0,-0.0,-1.0,0.2083631113393819,1.0,0.0
37.28556823730469,9.425240516662598,-1.1003377437591553,-0.0,-0.0,-1.0,0.2111745421166019,1.0,0.0
35.484527587890625,9.496606826782228,-1.1090655326843262,0.3714595926650185,0.2049127507066054,-0.905554269834222,0.1426432299383986,3.0,0.0
37.16289138793945,8.232492446899414,-1.3170623779296875,-0.0,-0.0,-1.0,0.0960873855297382,1.0,0.0
35.81462097167969,8.374504089355469,-1.339104413986206,-0.0,-0.0,-1.0,0.1269733040180828,2.0,0.0
35.93061447143555,10.484124183654783,-0.7768526077270508,-0.0,-0.0,-1.0,0.128240363940992,1.0,0.0
35.511932373046875,9.996623039245604,-0.7097179889678955,0.6568577742842313,-0.7296195322113601,-0.1902451118374433,0.1094050357259562,3.0,0.0
35.28355026245117,8.280651092529297,-0.8927757740020752,0.0282618597311913,-0.4596159406672486,-0.8876679865631601,0.219405230517982,3.0,0.0
36.38239288330078,10.508829116821287,-1.2943493127822876,-0.0,-0.0,-1.0,0.211892374540494,1.0,0.0
36.358612060546875,10.387834548950195,-1.272907853126526,-0.0,-0.0,-1.0,0.2147285457480768,1.0,0.0
35.62163543701172,8.728620529174805,-1.4448553323745728,-0.0,-0.0,-1.0,0.0233932693427736,1.0,0.0
36.09282684326172,8.420835494995117,-1.379846692085266,-0.0,-0.0,-1.0,0.0658862953470088,1.0,0.0
35.823822021484375,8.394187927246094,-1.3732975721359253,-0.0,-0.0,-1.0,0.1185154581319113,2.0,0.0
35.392398834228516,8.181514739990234,-1.3296724557876587,-0.0,-0.0,-1.0,0.1691474693802249,2.0,0.0
37.400733947753906,8.28152847290039,-1.372846007347107,-0.0,-0.0,-1.0,0.0794722468029835,1.0,0.0
36.99407196044922,8.204254150390625,-1.34622323513031,-0.0,-0.0,-1.0,0.0959729218246166,2.0,0.0
36.61812973022461,8.13969612121582,-1.325567603111267,-0.0,-0.0,-1.0,0.118998761583564,2.0,0.0
36.064598083496094,10.099990844726562,-1.2215410470962524,-0.0,-0.0,-1.0,0.2108490462829882,1.0,0.0
35.878292083740234,9.855066299438477,-1.1784852743148804,-0.0,-0.0,-1.0,0.1776909370561362,1.0,0.0
36.612396240234375,9.723672866821287,-1.15774667263031,-0.0,-0.0,-1.0,0.1556147272249664,1.0,0.0
36.07039642333984,9.84865951538086,-1.177303671836853,-0.0,-0.0,-1.0,0.147202271476341,2.0,0.0
35.71971893310547,9.567129135131836,-1.1282087564468384,-0.0,-0.0,-1.0,0.1518615067610807,1.0,0.0
36.96891784667969,9.657537460327148,-1.1500910520553589,-0.0,-0.0,-1.0,0.2103089236540361,1.0,0.0
36.7777214050293,9.677270889282228,-1.1511698961257937,0.7609712494471389,0.2447129667716605,0.6008646448316564,0.1477014209276682,3.0,0.0
35.69854736328125,8.98777961730957,-1.0259729623794556,-0.0,-0.0,-1.0,0.0998686127485585,1.0,0.0
35.293365478515625,8.954383850097656,-1.0228840112686155,-0.8609761261954072,-0.1702369160939258,-0.4793114879912439,0.2188692225448718,4.0,0.0
35.73378372192383,8.761564254760742,-0.985923171043396,0.420942367180339,-0.7869407802480883,-0.4511449123010728,0.0688751588396518,6.0,0.0
35.634124755859375,8.497472763061523,-0.9397023916244508,-0.0146821947040349,-0.2606038445891717,-0.9653341749591258,0.1646118193688738,3.0,0.0
35.41346740722656,8.357549667358398,-0.9164336919784546,0.84163931289461,0.4342047821700195,0.3211066398114092,0.3072395935695258,5.0,0.0
35.401371002197266,10.100845336914062,-0.7169593572616577,0.377698241170436,-0.8783365316265667,-0.2930340864591909,0.2097695980790781,5.0,0.0
35.45271301269531,8.256267547607422,-0.89824378490448,0.7642386695439848,0.5995880851272825,0.2375571176518161,0.1693493320034053,3.0,0.0
36.441497802734375,10.36709976196289,-1.2549318075180054,-0.0,-0.0,-1.0,0.1702010991497211,1.0,0.0
36.15034484863281,9.899588584899902,-1.1681846380233765,-0.344739344421717,-0.6775369112116062,-0.6496910945622703,0.2151216381410244,4.0,0.0
37.145999908447266,9.71330738067627,-1.1782082319259644,-0.0,-0.0,-1.0,0.1390697554842744,1.0,0.0
35.8258171081543,8.700769424438477,-1.440085530281067,-0.0,-0.0,-1.0,0.0656413069431634,2.0,0.0
35.5919075012207,8.651585578918457,-1.4223395586013794,-0.0,-0.0,-1.0,0.0215371125472881,2.0,0.0
36.331783294677734,8.422294616699219,-1.4050201177597046,-0.0,-0.0,-1.0,0.0458937428760287,1.0,0.0
36.099796295166016,8.314302444458008,-1.3736385107040403,-0.3602075980749983,0.8929389842061924,-0.2700193637016687,0.0819413943123757,3.0,0.0
35.5157585144043,8.312470436096191,-1.3519853353500366,-0.0,-0.0,-1.0,0.2371055871205195,1.0,0.0
36.23686981201172,8.163870811462402,-1.3495663404464722,0.9994486545483092,-0.0331577313706055,0.0017180721547842,0.0697994435695466,3.0,0.0
37.446781158447266,8.25210189819336,-1.4328163862228394,-0.0,-0.0,-1.0,0.0667756925975833,1.0,0.0
37.08000564575195,8.17579174041748,-1.395288348197937,-0.0,-0.0,-1.0,0.1170726677239669,1.0,0.0
35.22044372558594,9.773900032043455,-1.12167489528656,-0.0,-0.0,-1.0,0.1757998378426895,1.0,0.0
36.51253890991211,9.811605453491213,-1.1669152975082395,0.7250112927113913,-0.4523275225791058,-0.5193827468817244,0.157740916382705,4.0,0.0
36.17145538330078,9.857203483581545,-1.1619218587875366,-0.0,-0.0,-1.0,0.2174766941010063,2.0,0.0
36.013248443603516,9.803847312927246,-1.1479254961013794,-0.0,-0.0,-1.0,0.2164455358780567,2.0,0.0
35.54610061645508,9.423757553100586,-1.071837306022644,-0.8051448721685902,-0.5463536514176204,-0.2307366949647538,0.1509372810451528,4.0,0.0
37.06053924560547,9.649986267089844,-1.1639755964279177,-0.0,-0.0,-1.0,0.2167462229502587,1.0,0.0
36.78238296508789,9.67356300354004,-1.155563473701477,-0.2875970305146369,0.8721280545942994,-0.3958290090793317,0.1477014209276683,4.0,0.0
35.29952621459961,8.907756805419922,-0.98060142993927,-0.0,-0.0,-1.0,0.1304824139359964,2.0,0.0
35.7739372253418,8.766352653503418,-0.9701584577560424,-0.1161106850928018,-0.0032574237106589,-0.9932309389049706,0.0914694291435894,6.0,0.0
35.59859085083008,8.422101974487305,-0.9084409475326538,-0.0,-0.0,-1.0,0.1887630321911373,2.0,0.0
35.3846435546875,8.289069175720215,-0.8807374238967896,0.3393494841507512,-0.3193050003653619,-0.884808591927257,0.2009667179278869,6.0,0.0
36.63759231567383,8.814484596252441,-1.0096827745437622,-0.0,-0.0,-1.0,0.2249231844349516,2.0,0.0
35.59952926635742,8.22480583190918,-0.876001238822937,-0.0,-0.0,-1.0,0.2113765870314302,2.0,0.0
35.290706634521484,8.201929092407227,-0.8640462160110474,-0.0,-0.0,-1.0,0.1731221542886109,2.0,0.0
35.67354202270508,10.295058250427246,-0.6890636682510376,-0.0,-0.0,-1.0,0.2371106682731079,2.0,0.0
35.905052185058594,10.065693855285645,-0.6652661561965942,-0.0,-0.0,-1.0,0.0709554418901389,2.0,0.0
36.34569549560547,9.729711532592772,-1.3767545223236084,0.0697377818587881,0.9845633079326016,0.1605357731293234,0.1473649315541493,3.0,0.0
36.61412048339844,9.54465675354004,-1.347886085510254,-0.1693252785860987,-0.9769363447101472,-0.1300935371804299,0.2018752451291243,3.0,0.0
36.32471466064453,10.575475692749023,-0.9077482223510742,-0.0,-0.0,-1.0,0.2169058553266865,1.0,0.0
36.15094757080078,10.484220504760742,-0.8969385623931885,-0.0,-0.0,-1.0,0.2109280784589514,1.0,0.0
35.44731140136719,9.430526733398438,-1.3280701637268066,-0.0,-0.0,-1.0,0.2147749570338087,1.0,0.0
35.866905212402344,9.09788417816162,-1.2707490921020508,-0.0,-0.0,-1.0,0.1714356456608145,1.0,0.0
35.676265716552734,8.954878807067871,-1.2471089363098145,-0.0,-0.0,-1.0,0.1716283216868998,1.0,0.0
35.36799621582031,8.19694995880127,-1.121333360671997,0.3815118308400144,-0.8697231791150831,0.3130979313873746,0.2384370871733884,3.0,0.0
35.596736907958984,10.025823593139648,-0.841928243637085,0.1473252648745327,0.8186842778230751,-0.5550237108223022,0.1592350504108549,4.0,0.0
35.845924377441406,9.860621452331545,-0.8171854019165039,-0.0,-0.0,-1.0,0.1512582102290369,2.0,0.0
36.285552978515625,9.79002857208252,-0.8047521114349365,-0.0,-0.0,-1.0,0.052427482498515,1.0,0.0
35.56452941894531,9.046259880065918,-1.488085150718689,-0.0,-0.0,-1.0,0.1328941245442678,1.0,0.0
35.62440490722656,8.849428176879883,-1.472237229347229,-0.0,-0.0,-1.0,0.0837888427390914,1.0,0.0
35.78659439086914,8.517457008361816,-1.4571670293807983,-0.0,-0.0,-1.0,0.0253486990075311,1.0,0.0
35.936622619628906,8.182266235351562,-1.4398077726364136,-0.0,-0.0,-1.0,0.1217055801857297,2.0,0.0
35.98390579223633,10.319788932800291,-1.114193081855774,-0.0,-0.0,-1.0,0.1987394479688733,1.0,0.0
35.732784271240234,9.940836906433104,-1.0317713022232056,-0.0,-0.0,-1.0,0.1813594831386291,1.0,0.0
35.4150505065918,9.900324821472168,-0.9726907014846802,-0.0,-0.0,-1.0,0.2006493991117869,1.0,0.0
36.87881088256836,9.804247856140137,-1.2203294038772583,-0.0,-0.0,-1.0,0.0709993189725382,1.0,0.0
35.8857421875,9.717877388000488,-1.0356522798538208,-0.0,-0.0,-1.0,0.1886699327493998,1.0,0.0
35.423828125,9.52139377593994,-0.9353333711624146,-0.3791252726501519,0.2764518450011682,-0.8830845967592222,0.1424277617027879,3.0,0.0
36.892704010009766,9.65687656402588,-1.2080127000808716,-0.4685178208035531,0.6621746631976779,-0.584821141041029,0.1856805442170043,6.0,0.0
35.932735443115234,9.460882186889648,-1.0176934003829956,0.8107943802772826,-0.5089103831743265,0.2891758890504835,0.2451728140694064,3.0,0.0
35.245357513427734,8.340670585632324,-0.7835131883621216,-0.0,-0.0,-1.0,0.0868081579273335,2.0,0.0
35.69739532470703,10.035983085632324,-0.4287570714950561,-0.0,-0.0,-1.0,0.1562686678517419,2.0,0.0
36.5583381652832,10.567855834960938,-1.251059651374817,-0.0,-0.0,-1.0,0.1568826378598728,1.0,0.0
37.222957611083984,9.804950714111328,-1.2032550573349,0.8840257887025152,-0.4671706768692207,0.0158102366348556,0.1549843913054652,3.0,0.0
36.842010498046875,9.803302764892578,-1.1773518323898315,-0.5250723674938432,0.7002530418964915,0.4836782879240306,0.0655137995643767,3.0,0.0
36.63504409790039,9.962127685546877,-1.1827720403671265,-0.0,-0.0,-1.0,0.0812154813561335,1.0,0.0
35.51889419555664,9.978227615356444,-1.1125777959823608,-0.0,-0.0,-1.0,0.1842871588910518,2.0,0.0
36.96248626708984,9.531261444091797,-1.152636170387268,-0.0,-0.0,-1.0,0.095421131831277,1.0,0.0
36.249881744384766,9.594999313354492,-1.112939715385437,-0.0,-0.0,-1.0,0.1372045181926569,1.0,0.0
35.6894645690918,9.52614402770996,-1.0683318376541138,-0.0,-0.0,-1.0,0.1762069264188149,1.0,0.0
36.70903396606445,8.997163772583008,-1.071158766746521,-0.0,-0.0,-1.0,0.1520494514643586,1.0,0.0
35.835365295410156,9.20466423034668,-1.0386172533035278,-0.0,-0.0,-1.0,0.1270080098531666,1.0,0.0
35.591556549072266,8.483589172363281,-0.9353069067001344,-0.2568862666235347,0.913583598220602,0.3152371410264346,0.1951988853520212,4.0,0.0
35.48329162597656,8.399404525756836,-0.9180749654769896,-0.0,-0.0,-1.0,0.145358043717401,2.0,0.0
36.09501647949219,10.223514556884766,-0.5766170024871826,-0.0,-0.0,-1.0,0.0563474225102983,1.0,0.0
37.446014404296875,10.164716720581056,-1.295996904373169,-0.0,-0.0,-1.0,0.1119917834476377,1.0,0.0
36.06113052368164,10.381223678588867,-1.2666451930999756,-0.0,-0.0,-1.0,0.229379323702708,2.0,0.0
35.95809555053711,10.474748611450195,-1.275533676147461,-0.0,-0.0,-1.0,0.1642919323983111,1.0,0.0
37.63861846923828,9.492902755737305,-1.2163352966308594,-0.0,-0.0,-1.0,0.1182401235762983,1.0,0.0
36.0517463684082,10.34694480895996,-1.2616205215454102,-0.0,-0.0,-1.0,0.2236597413720919,2.0,0.0
35.63287353515625,10.394655227661133,-1.2530136108398438,-0.0,-0.0,-1.0,0.0921629118710389,1.0,0.0
37.1425895690918,9.497228622436523,-1.1930391788482666,-0.0,-0.0,-1.0,0.1799677609346819,2.0,0.0
36.41502380371094,9.597640991210938,-1.1745164394378662,-0.0,-0.0,-1.0,0.1777473578055586,1.0,0.0
36.7782096862793,9.16302490234375,-1.1318247318267822,-0.0,-0.0,-1.0,0.2186414631866306,1.0,0.0
37.58137130737305,8.578693389892578,-1.0931684970855713,-0.0,-0.0,-1.0,0.1436357218175676,1.0,0.0
36.4948844909668,9.20279312133789,-1.1247403621673584,-0.0,-0.0,-1.0,0.0917894018032872,1.0,0.0
35.27141571044922,9.402423858642578,-1.1049330234527588,-0.0,-0.0,-1.0,0.144460782267924,1.0,0.0
36.2857666015625,8.733261108398438,-1.052720069885254,-0.0,-0.0,-1.0,0.1073663442343009,1.0,0.0
36.23954391479492,8.760358810424805,-1.054415225982666,-0.0,-0.0,-1.0,0.1127987537290763,1.0,0.0
36.62063980102539,8.366800308227539,-1.0183703899383545,-0.0,-0.0,-1.0,0.1120820706786304,1.0,0.0
35.81745910644531,8.482810974121094,-0.9997344017028807,-0.0,-0.0,-1.0,0.0513432276851876,1.0,0.0
35.77250671386719,8.520601272583008,-1.003082275390625,-0.0,-0.0,-1.0,0.0576460838894915,1.0,0.0
36.60341262817383,9.897102355957031,-0.6231251955032349,-0.0,-0.0,-1.0,0.0733543136454129,1.0,0.0
36.481422424316406,8.192134857177734,-1.498477339744568,-0.0,-0.0,-1.0,0.1129994401925864,1.0,0.0
37.19509506225586,10.21670150756836,-1.2550843954086304,-0.0,-0.0,-1.0,0.174754884038262,1.0,0.0
36.913475036621094,9.57842254638672,-1.1586097478866575,-0.0,-0.0,-1.0,0.1392036457944196,1.0,0.0
36.652217864990234,9.78594207763672,-1.1840351819992063,-0.0,-0.0,-1.0,0.145350719901576,2.0,0.0
35.833614349365234,10.411834716796877,-1.2644895315170288,-0.0,-0.0,-1.0,0.0953555716114848,1.0,0.0
35.777767181396484,10.550823211669922,-1.2842789888381958,-0.0,-0.0,-1.0,0.1367969163035016,1.0,0.0
36.18476486206055,9.597917556762695,-1.150082230567932,-0.0,-0.0,-1.0,0.1024786326776236,1.0,0.0
35.585655212402344,10.41169548034668,-1.2624338865280151,-0.0,-0.0,-1.0,0.0831094712718084,1.0,0.0
36.119850158691406,9.581838607788086,-1.1469181776046753,-0.0,-0.0,-1.0,0.1937455359982002,1.0,0.0
35.3873405456543,9.725719451904297,-1.1605631113052368,-0.0,-0.0,-1.0,0.2011413470310342,2.0,0.0
35.422950744628906,9.631441116333008,-1.147037148475647,-0.0,-0.0,-1.0,0.1228026311672105,2.0,0.0
36.25081253051758,9.226648330688477,-1.097305178642273,-0.0,-0.0,-1.0,0.1578184145177506,1.0,0.0
36.04353332519531,8.743303298950195,-1.0245574712753296,-0.0,-0.0,-1.0,0.0642683467594735,1.0,0.0
36.01752471923828,8.846206665039062,-1.039080023765564,-0.0,-0.0,-1.0,0.0307512442479546,1.0,0.0
35.57627868652344,8.484683990478516,-0.981242060661316,-0.0,-0.0,-1.0,0.2077339013185739,2.0,0.0
36.68412780761719,9.873001098632812,-0.5973981618881226,-0.0,-0.0,-1.0,0.094261586937722,1.0,0.0
37.66300964355469,8.363475799560547,-1.430876851081848,-0.0,-0.0,-1.0,0.124660048740285,1.0,0.0
37.383270263671875,8.344110488891602,-1.426679015159607,-0.0,-0.0,-1.0,0.0932680190184552,1.0,0.0
36.290889739990234,10.4974365234375,-1.2465134859085083,-0.0,-0.0,-1.0,0.1542182838396252,2.0,0.0
35.82501220703125,10.037046432495115,-1.184038519859314,-0.0,-0.0,-1.0,0.1978677626690181,2.0,0.0
37.06464767456055,8.234142303466797,-1.4056445360183716,-0.0,-0.0,-1.0,0.1814634384509245,1.0,0.0
36.8468017578125,8.20077133178711,-1.3997350931167605,-0.0,-0.0,-1.0,0.1552461657160412,2.0,0.0
36.56391525268555,8.13819694519043,-1.3888322114944458,-0.0,-0.0,-1.0,0.1401427466075786,1.0,0.0
36.329647064208984,8.252840042114258,-1.4126466512680054,-0.0,-0.0,-1.0,0.1137811148823507,1.0,0.0
35.88188552856445,8.5606689453125,-1.4778703451156616,-0.0,-0.0,-1.0,0.0332004945285569,1.0,0.0
35.746307373046875,8.774650573730469,-1.5219680070877075,-0.0,-0.0,-1.0,0.051388203827023,1.0,0.0
36.05449676513672,9.498598098754885,-1.0894464254379272,-0.0,-0.0,-1.0,0.1786092545337782,1.0,0.0
35.95991897583008,9.817619323730469,-1.1442030668258667,-0.847265396700336,-0.4476200184717568,0.2859679468359466,0.1911434864416392,3.0,0.0
35.57508850097656,10.014030456542969,-1.1877044439315796,-0.0,-0.0,-1.0,0.1037481542733559,1.0,0.0
35.456790924072266,9.759443283081056,-1.1494041681289673,-0.0,-0.0,-1.0,0.2686921847657276,2.0,0.0
35.62793731689453,8.47346305847168,-0.9331265687942504,-0.0568265631095124,-0.0917645831021149,-0.9941579366545616,0.1646118193688737,4.0,0.0
35.305625915527344,8.987398147583008,-1.0266700983047483,-0.0,-0.0,-1.0,0.2094923536153271,2.0,0.0
35.38086700439453,8.389842987060547,-0.92619788646698,0.0597995954042984,0.3685433594229729,-0.9276851840008616,0.2379188348074013,6.0,0.0
35.861595153808594,10.096426010131836,-0.6095056533813477,-0.6257726964786297,0.4828862495815156,-0.6125597132581955,0.091941743916663,3.0,0.0
37.68190383911133,8.283424377441406,-1.4752403497695925,-0.0,-0.0,-1.0,0.0923461211094768,1.0,0.0
37.40388107299805,8.224259376525879,-1.4476832151412964,-0.6555705593056114,-0.7494302527118314,-0.0926365915392402,0.0661003974723602,3.0,0.0
37.16108703613281,8.166206359863281,-1.4230245351791382,-0.0,-0.0,-1.0,0.104554853102297,2.0,0.0
36.04464340209961,8.553497314453125,-1.4352737665176392,-0.0,-0.0,-1.0,0.0373412282069513,1.0,0.0
35.913700103759766,8.633079528808594,-1.4442325830459597,-0.0,-0.0,-1.0,0.0257795280356666,1.0,0.0
36.442771911621094,10.50642204284668,-1.220844864845276,-0.0,-0.0,-1.0,0.1885748911202439,2.0,0.0
36.10729217529297,10.296429634094238,-1.180278182029724,-0.0,-0.0,-1.0,0.2264647339575461,1.0,0.0
35.95336151123047,10.00358772277832,-1.131496548652649,-0.0,-0.0,-1.0,0.1759176149210127,2.0,0.0
35.698394775390625,10.113136291503906,-1.1428178548812866,-0.1274220755495715,-0.0581912074236276,-0.9901400901090814,0.2239268412056325,3.0,0.0
35.40922927856445,9.819140434265137,-1.0912338495254517,0.9536775476250304,0.2902459201046044,0.0790976675922833,0.2916788501333048,8.0,0.0
35.95689392089844,8.258071899414062,-1.3769441843032837,-0.0,-0.0,-1.0,0.1243598877784054,1.0,0.0
35.613677978515625,8.2506103515625,-0.8535784482955933,-0.0,-0.0,-1.0,0.1796831895955987,2.0,0.0
35.533348083496094,8.430152893066406,-0.8790065050125122,-0.0,-0.0,-1.0,0.1516076980957245,2.0,0.0
35.57075500488281,10.054410934448242,-0.5705054998397827,-0.0,-0.0,-1.0,0.0769055677151168,2.0,0.0
36.65243911743164,10.413885116577148,-1.3409316539764404,-0.0,-0.0,-1.0,0.1412068341183929,1.0,0.0
36.838138580322266,9.559444427490234,-1.2245275974273682,-0.0,-0.0,-1.0,0.2173347178710198,1.0,0.0
36.58533477783203,9.689138412475586,-1.2304956912994385,-0.5748061329532209,0.2251499199871362,-0.7867054232996935,0.1280052819482141,3.0,0.0
36.02606201171875,10.191033363342283,-1.277268648147583,-0.0,-0.0,-1.0,0.1851934451108739,1.0,0.0
36.63423156738281,9.376511573791504,-1.1870148181915283,-0.2448330456246375,-0.8156778542943488,0.5241435087682875,0.0889496845030391,3.0,0.0
35.274410247802734,10.534598350524902,-1.2946407794952393,-0.0,-0.0,-1.0,0.0960808857327296,2.0,0.0
36.02564239501953,8.944976806640625,-1.092193841934204,-0.0,-0.0,-1.0,0.1660984336619609,1.0,0.0
35.42509841918945,9.353534698486328,-1.123690128326416,-0.5274829233961509,0.4101919058697789,-0.7439787402099396,0.1797899400696958,6.0,0.0
35.32736587524414,8.293967247009277,-0.961003303527832,0.7720657080378114,-0.2724388067054107,0.5741878081891019,0.1926113681460186,3.0,0.0
36.28742599487305,10.636815071105955,-0.7749228477478027,-0.0,-0.0,-1.0,0.0802672296065816,1.0,0.0
36.47955322265625,9.89292812347412,-0.6940432786941528,-0.0,-0.0,-1.0,0.077684743709092,1.0,0.0
35.65067672729492,10.314223289489746,-0.7171342372894287,0.3048260629560151,0.8837449168534258,0.3550718142551826,0.2323800361271469,3.0,0.0
35.387115478515625,10.081748008728027,-0.681689977645874,-0.0,-0.0,-1.0,0.205773198018937,2.0,0.0
36.098358154296875,8.181907653808594,-1.4458589553833008,-0.0,-0.0,-1.0,0.0813382790225315,1.0,0.0
35.93523406982422,8.16777229309082,-1.426114797592163,-0.0,-0.0,-1.0,0.1217055801857297,2.0,0.0
37.663185119628906,9.597017288208008,-1.2672264575958252,-0.0,-0.0,-1.0,0.0814031867589137,1.0,0.0
37.023311614990234,9.703336715698242,-1.2253375053405762,-0.0,-0.0,-1.0,0.1181975660676855,2.0,0.0
36.89896774291992,9.66990089416504,-1.210275411605835,-0.4685178208035531,0.6621746631976779,-0.584821141041029,0.1584279806773563,6.0,0.0
36.67387390136719,9.672269821166992,-1.191301345825195,0.980103629616296,0.1045672318790215,-0.1687085333648581,0.1564074423946775,5.0,0.0
35.985416412353516,9.940130233764648,-1.1683390140533447,-0.0,-0.0,-1.0,0.1862230881346165,2.0,0.0
