x,y,z,nx,ny,nz,curvature,density,label
23.478002548217773,-14.973353385925291,0.4747005701065063,-0.0,-0.0,-1.0,0.2099405850945445,2.0,1.0
23.42207908630371,-15.497282028198242,0.3686233758926391,-0.0,-0.0,-1.0,0.0592969375683191,1.0,1.0
23.358627319335938,-15.770103454589844,0.596739649772644,0.6138089414285287,-0.665484510550696,-0.4246986574495967,0.1319139797724884,4.0,1.0
23.369762420654297,-15.97978687286377,0.2705315351486206,-0.0,-0.0,-1.0,0.0806236106370856,1.0,1.0
24.23430824279785,-15.039295196533203,0.4646604061126709,-0.9456637853537142,0.3251392036152755,0.0021221081284061,0.125486772573078,4.0,1.0
23.686031341552734,-16.146190643310547,0.2382198572158813,-0.0,-0.0,-1.0,0.0512621314909487,1.0,1.0
23.470699310302734,-16.372268676757812,0.4952225685119629,-0.8932516250128105,0.4392541884995749,-0.0956937422068602,0.2030282701443426,6.0,1.0
24.71323585510254,-14.412956237792969,0.3611804246902466,0.4600086410307693,0.4039458956108902,-0.7907083935283227,0.0168516284600553,3.0,1.0
24.715370178222656,-15.011311531066896,0.4646894931793213,-0.0,-0.0,-1.0,0.1101008704240211,1.0,1.0
24.347389221191406,-15.12331199645996,0.4464447498321533,-0.1748144025163036,0.973629029165685,0.1465825304691993,0.1627240517820484,5.0,1.0
24.23538589477539,-16.28691864013672,0.2062596082687378,-0.0,-0.0,-1.0,0.0370424924056061,1.0,1.0
24.080318450927734,-16.759735107421875,0.422282338142395,-0.0,-0.0,-1.0,0.1122571403699788,1.0,1.0
24.96979331970215,-14.381776809692385,0.3653556108474731,-0.0,-0.0,-1.0,0.0173487306091141,1.0,1.0
25.002731323242188,-15.039027214050291,0.4522436857223511,-0.9086604188663362,-0.3927309230473962,-0.141769761472587,0.1236351604496722,5.0,1.0
24.553630828857425,-16.108951568603516,0.2382586002349853,-0.0,-0.0,-1.0,0.0152741849666868,2.0,1.0
24.323022842407227,-16.282821655273438,0.2059627771377563,-0.0,-0.0,-1.0,0.0225064658441991,2.0,1.0
24.84370231628418,-16.105098724365234,0.2326880693435669,-0.0,-0.0,-1.0,0.011877215891688,1.0,1.0
24.91981506347656,-16.8172664642334,0.3913021087646484,0.4957855325151044,-0.8662158639685533,-0.0621834604853012,0.1107940568811206,3.0,1.0
23.400341033935547,-14.789558410644531,0.7600247859954834,-0.1330430451531225,0.7420692487076281,-0.6569876545711346,0.2519582032131781,7.0,1.0
23.3651123046875,-15.099853515625,0.7084423303604126,-0.0,-0.0,-1.0,0.1539784577174763,2.0,1.0
23.734983444213867,-16.06793212890625,0.243609070777893,-0.0,-0.0,-1.0,0.0359579521839722,1.0,1.0
23.54922103881836,-16.015756607055664,0.2481337785720825,-0.0,-0.0,-1.0,0.0755688384856478,1.0,1.0
23.90680694580078,-16.216787338256836,0.2148257493972778,-0.0,-0.0,-1.0,0.0397780964937149,1.0,1.0
24.286684036254883,-16.27035903930664,0.2114017009735107,-0.0,-0.0,-1.0,0.0357397120217985,2.0,1.0
24.172136306762695,-16.309310913085938,0.2003332376480102,-0.0,-0.0,-1.0,0.0516307282680926,1.0,1.0
24.751110076904297,-16.24588394165039,0.2215044498443603,-0.0,-0.0,-1.0,0.0138142758238422,1.0,1.0
22.97405242919922,-14.676424026489258,0.5112189054489136,-0.0,-0.0,-1.0,0.1666337985140089,2.0,1.0
22.720991134643555,-14.849682807922363,0.5684279203414917,-0.0,-0.0,-1.0,0.1487925646608235,1.0,1.0
23.456546783447266,-14.445887565612791,0.3906725645065307,-0.0,-0.0,-1.0,0.0318034290717865,1.0,1.0
23.231870651245117,-14.855270385742188,0.4902693033218384,-0.0,-0.0,-1.0,0.1073693826165989,1.0,1.0
23.243417739868164,-14.964559555053713,0.4672789573669433,-0.0,-0.0,-1.0,0.0697623924776804,1.0,1.0
23.053119659423828,-15.5078763961792,0.3360291719436645,-0.0,-0.0,-1.0,0.0271190195295005,2.0,1.0
23.83537483215332,-14.582845687866213,0.3803139925003052,-0.0,-0.0,-1.0,0.0126943154258237,1.0,1.0
23.41596412658691,-15.03142261505127,0.4628782272338867,0.1445923230577986,0.9842991116382724,0.1012339811568057,0.1602203014231824,3.0,1.0
23.302698135375977,-15.7742280960083,0.4158416986465454,-0.0,-0.0,-1.0,0.165332397828544,1.0,1.0
23.22866439819336,-16.046016693115234,0.3590801954269409,-0.0,-0.0,-1.0,0.0925089108295581,2.0,1.0
23.009248733520508,-16.177818298339844,0.4506665468215942,-0.0,-0.0,-1.0,0.1293702265008443,2.0,1.0
24.22694969177246,-14.678339958190918,0.3736017942428589,-0.2047318755529855,0.911102543453907,-0.3577387516671603,0.0100442171165825,3.0,1.0
24.136558532714844,-15.122722625732422,0.4732069969177246,0.4858705405161426,-0.2857168233315325,-0.8260119337660258,0.1887115136976201,5.0,1.0
23.63966178894043,-16.000619888305664,0.25537109375,-0.0,-0.0,-1.0,0.0504714808670483,1.0,1.0
23.410118103027344,-16.1402587890625,0.3474608659744262,-0.0,-0.0,-1.0,0.0991312008707415,1.0,1.0
23.34566879272461,-16.358051300048828,0.4299962520599365,-0.0,-0.0,-1.0,0.2056012818669862,1.0,1.0
24.78166961669922,-14.711475372314451,0.3784589767456054,-0.0,-0.0,-1.0,0.0157447647983106,1.0,1.0
24.547773361206055,-14.735288619995115,0.3681389093399048,-0.0,-0.0,-1.0,0.0146608246283632,2.0,1.0
24.323827743530273,-15.138912200927734,0.4743944406509399,0.0808394322002682,0.9948866341873696,-0.0605439618530644,0.2134532607139349,5.0,1.0
23.778932571411133,-16.483354568481445,0.4185129404067993,-0.0,-0.0,-1.0,0.0585299331290797,2.0,1.0
23.58823585510254,-16.51274299621582,0.4080842733383178,-0.0,-0.0,-1.0,0.0959844875369634,2.0,1.0
25.10574722290039,-14.71875286102295,0.3771427869796753,-0.0,-0.0,-1.0,0.0329740854439201,1.0,1.0
24.98155975341797,-15.146319389343262,0.4789712429046631,-0.0,-0.0,-1.0,0.1778358919052229,2.0,1.0
24.519962310791016,-16.139339447021484,0.245108962059021,-0.0,-0.0,-1.0,0.0150351468976543,2.0,1.0
24.163307189941406,-16.604724884033203,0.4019083976745605,-0.0,-0.0,-1.0,0.1410081830693646,2.0,1.0
25.163848876953125,-15.167852401733398,0.4729700088500976,-0.1435619757790883,-0.4557993109685623,-0.8784286807880239,0.1553192189474205,5.0,1.0
24.90714454650879,-16.1193904876709,0.2512142658233642,-0.0,-0.0,-1.0,0.0124123714796879,1.0,1.0
24.61514663696289,-16.154279708862305,0.24246346950531,-0.0,-0.0,-1.0,0.0160749313460498,1.0,1.0
24.537832260131836,-16.735149383544922,0.379360556602478,-0.0,-0.0,-1.0,0.1135041454492669,1.0,1.0
24.899810791015625,-16.847740173339844,0.3564693927764892,-0.849774841480557,-0.1808944624289449,-0.4951362562459321,0.1107940568811207,3.0,1.0
22.940744400024418,-14.88458251953125,0.6865239143371582,-0.0,-0.0,-1.0,0.0587518438471282,1.0,1.0
23.39929962158203,-14.839576721191406,0.7191892862319946,0.7628838330594584,-0.5936800446433753,-0.256031759453292,0.2311110707056812,3.0,1.0
23.31336212158203,-15.013177871704102,0.682722806930542,-0.0,-0.0,-1.0,0.2110749678493967,1.0,1.0
23.49687385559082,-15.00024700164795,0.6934002637863159,-0.3801938527356666,0.2057988267329387,-0.901720287704206,0.2197727117679607,3.0,1.0
22.96088981628418,-14.725102424621582,0.5532305240631104,-0.2998494860714005,0.8566511145561287,0.4198084725591656,0.159345176583711,3.0,1.0
23.28316116333008,-14.94036102294922,0.5124285221099854,-0.0,-0.0,-1.0,0.265703329866729,1.0,1.0
23.065479278564453,-14.909236907958984,0.5098425149917603,-0.8578796477853067,-0.3107973151131357,0.409203542059725,0.1169064122661371,3.0,1.0
22.926389694213867,-15.61614227294922,0.3067904710769653,-0.0,-0.0,-1.0,0.0206074008784744,1.0,1.0
22.721399307250977,-16.061046600341797,0.3992714881896972,-0.0,-0.0,-1.0,0.1160041760057073,1.0,1.0
23.472736358642575,-15.00388240814209,0.5035918951034546,-0.9359361621826808,-0.1430835934356802,-0.3217927681106085,0.1562414948098181,3.0,1.0
23.4016170501709,-15.55411434173584,0.3452411890029907,-0.0,-0.0,-1.0,0.1216538151759325,1.0,1.0
23.16619110107422,-15.733394622802734,0.2851672172546386,-0.0,-0.0,-1.0,0.0665820598313815,1.0,1.0
22.96963882446289,-16.10775375366211,0.3971338272094726,-0.0,-0.0,-1.0,0.1315602985013244,2.0,1.0
24.124004364013672,-15.101581573486328,0.4891048669815063,0.4858705405161426,-0.2857168233315325,-0.8260119337660258,0.1791108294528439,5.0,1.0
23.53822326660156,-15.933143615722656,0.2406700849533081,-0.0,-0.0,-1.0,0.0424688789833076,1.0,1.0
23.266836166381836,-16.343523025512695,0.3473712205886841,-0.0,-0.0,-1.0,0.1316931782578524,1.0,1.0
23.356544494628903,-16.495071411132812,0.3114254474639892,-0.0,-0.0,-1.0,0.1820822588108835,2.0,1.0
24.368070602416992,-15.141858100891112,0.4763356447219848,0.0349045119572899,0.8598499763586832,0.5093522290134749,0.1952344278577997,3.0,1.0
23.929105758666992,-16.027847290039062,0.2187745571136474,-0.0,-0.0,-1.0,0.0363624947761772,1.0,1.0
23.65728759765625,-16.580890655517578,0.2930134534835815,-0.0,-0.0,-1.0,0.0655703099007928,1.0,1.0
23.527448654174805,-16.586822509765625,0.2907086610794067,-0.0,-0.0,-1.0,0.1110337909050456,2.0,1.0
25.119781494140625,-15.09967803955078,0.4646313190460205,-0.6957944948367205,-0.1949880589105145,-0.6912667197523849,0.1451562692900762,5.0,1.0
24.98561668395996,-15.193571090698242,0.4435098171234131,0.589497982095646,-0.7309222920488383,-0.3438673175677417,0.1642166618670977,3.0,1.0
24.513927459716797,-15.99717140197754,0.2227765321731567,-0.0,-0.0,-1.0,0.0134811272019918,1.0,1.0
24.197973251342773,-16.104461669921875,0.1963297128677368,-0.0,-0.0,-1.0,0.0202641844369426,1.0,1.0
24.01760482788086,-16.69287872314453,0.2640943527221679,-0.0,-0.0,-1.0,0.0984709530984193,2.0,1.0
24.891233444213867,-15.82929801940918,0.2605575323104858,-0.0,-0.0,-1.0,0.0083291397552202,2.0,1.0
24.753665924072266,-15.94980239868164,0.2302606105804443,-0.0,-0.0,-1.0,0.0132881311723249,1.0,1.0
24.56538200378418,-16.667469024658203,0.2610210180282593,-0.0,-0.0,-1.0,0.1007350929367236,1.0,1.0
24.329864501953125,-16.739429473876953,0.2481982707977295,0.921908978463056,0.262908718804717,0.2845397002276951,0.1246012713222938,3.0,1.0
24.91234016418457,-16.829320907592773,0.3282365798950195,-0.849774841480557,-0.1808944624289449,-0.4951362562459321,0.1277845117561122,3.0,1.0
22.797441482543945,-14.92374038696289,0.6742255687713623,-0.3681949637893046,-0.690731835444279,-0.6223519905519465,0.1196106491706948,5.0,1.0
23.358169555664062,-14.889771461486816,0.7086261510848999,-0.0,-0.0,-1.0,0.241459365929096,1.0,1.0
23.51410865783691,-15.007747650146484,0.6844216585159302,0.0354497866515655,0.7993944422306615,-0.5997598172244353,0.1921707037624374,3.0,1.0
23.356534957885746,-15.83505630493164,0.6838973760604858,-0.0,-0.0,-1.0,0.1679999889194954,1.0,1.0
23.47332191467285,-16.366769790649414,0.5714694261550903,-0.8710948316337849,0.4565499817730087,-0.1809859343815793,0.1361533108958208,4.0,1.0
23.367084503173828,-16.039684295654297,0.4393221139907837,-0.0,-0.0,-1.0,0.0856602594654986,1.0,1.0
23.164520263671875,-16.273529052734375,0.465018630027771,-0.0,-0.0,-1.0,0.1697187753265617,2.0,1.0
22.760406494140625,-16.810028076171875,0.4160016775131225,-0.0,-0.0,-1.0,0.0228300722814935,2.0,1.0
23.46791076660156,-16.388120651245117,0.5388033390045166,-0.8987844118764778,0.4379180832128393,-0.0203551802508994,0.1866367247198407,6.0,1.0
23.441789627075195,-16.46807098388672,0.3168947696685791,-0.0,-0.0,-1.0,0.1759672547751288,2.0,1.0
23.83890724182129,-16.618898391723633,0.2761731147766113,0.2482752434209502,-0.3133459431473443,-0.9166099079855996,0.082999172115267,3.0,1.0
23.60921859741211,-16.815263748168945,0.3295575380325317,-0.0,-0.0,-1.0,0.0919844346322479,1.0,1.0
24.484804153442383,-16.629892349243164,0.2619054317474365,-0.0,-0.0,-1.0,0.1019486693329965,1.0,1.0
24.208324432373047,-16.696186065673828,0.2496041059494018,-0.0,-0.0,-1.0,0.1142816366882399,2.0,1.0
25.088138580322266,-16.65760040283203,0.2245643138885498,-0.0,-0.0,-1.0,0.0775257737366415,1.0,1.0
24.85310173034668,-16.782394409179688,0.3081398010253906,-0.0,-0.0,-1.0,0.1096374264837037,1.0,1.0
22.739727020263672,-14.962776184082031,0.709513783454895,-0.3530160505040207,-0.2315540751376211,-0.9065111021789548,0.0894105371100789,6.0,1.0
23.360515594482425,-14.95037841796875,0.751449465751648,-0.0,-0.0,-1.0,0.1360168051929931,1.0,1.0
23.54378890991211,-14.990824699401855,0.7466998100280762,-0.0,-0.0,-1.0,0.2284568483030463,2.0,1.0
23.41802024841309,-16.502248764038086,0.5259566307067871,-0.0,-0.0,-1.0,0.1490199308833502,1.0,1.0
23.18182373046875,-16.78124237060547,0.443105936050415,-0.0,-0.0,-1.0,0.0517622254807936,1.0,1.0
23.336681365966797,-15.89158058166504,0.7030036449432373,-0.0,-0.0,-1.0,0.1628271201029865,1.0,1.0
22.858722686767575,-15.57685661315918,0.3370189666748047,-0.0,-0.0,-1.0,0.0184425240797088,1.0,1.0
22.764347076416016,-15.834043502807615,0.3434524536132812,-0.0,-0.0,-1.0,0.050186128344558,1.0,1.0
22.94315719604492,-15.467945098876951,0.3411974906921386,-0.0,-0.0,-1.0,0.0169047321893234,1.0,1.0
24.215200424194336,-16.8428955078125,0.271331787109375,-0.0,-0.0,-1.0,0.1070905374314903,1.0,1.0
24.555553436279297,-16.018898010253906,0.2550325393676758,-0.0,-0.0,-1.0,0.0135637041165833,1.0,1.0
24.47051429748535,-16.323089599609375,0.2705378532409668,-0.0,-0.0,-1.0,0.0227024109267507,1.0,1.0
24.478580474853516,-16.710350036621094,0.3111379146575928,-0.0,-0.0,-1.0,0.1369489579739118,1.0,1.0
24.814189910888672,-15.80294418334961,0.2807364463806152,-0.0,-0.0,-1.0,0.0078763891504485,1.0,1.0
24.619102478027344,-16.280590057373047,0.2953100204467773,-0.0,-0.0,-1.0,0.0157701587263175,1.0,1.0
25.111656188964844,-15.708885192871094,0.326425552368164,-0.0,-0.0,-1.0,0.0074429427108344,2.0,1.0
22.76070213317871,-15.940187454223633,0.3517875671386719,-0.0,-0.0,-1.0,0.0898738924558051,1.0,1.0
22.848657608032227,-16.331748962402344,0.3980777263641357,-0.0,-0.0,-1.0,0.1210879735691655,1.0,1.0
23.138031005859375,-15.349149703979492,0.3621082305908203,-0.0,-0.0,-1.0,0.0255680763742904,2.0,1.0
23.17316436767578,-15.796783447265623,0.4074959754943847,-0.0,-0.0,-1.0,0.150424395931675,1.0,1.0
23.067304611206055,-16.262592315673828,0.4289636611938476,-0.0,-0.0,-1.0,0.0955900335152119,2.0,1.0
23.561098098754883,-15.040029525756836,0.4009561538696289,-0.0,-0.0,-1.0,0.0483919455738297,1.0,1.0
23.43581771850586,-15.215288162231444,0.3975958824157715,-0.0,-0.0,-1.0,0.0680276111956897,1.0,1.0
23.774120330810547,-14.772351264953612,0.4081363677978515,-0.0,-0.0,-1.0,0.0088672929403158,1.0,1.0
23.97995376586914,-14.475884437561035,0.4099807739257812,-0.0,-0.0,-1.0,0.0083897216455714,1.0,1.0
24.16840362548828,-15.151376724243164,0.5077037811279297,-0.0,-0.0,-1.0,0.1343007591555157,2.0,1.0
24.974943161010746,-16.77605628967285,0.4159307479858398,-0.0,-0.0,-1.0,0.1374485960255299,2.0,1.0
22.72051429748535,-15.075604438781738,0.7355401515960693,0.2007440297742333,0.8005853000928019,-0.5645927840358219,0.0709080311365344,3.0,1.0
23.34840965270996,-14.912514686584473,0.8036264181137085,-0.0,-0.0,-1.0,0.1340747454771683,1.0,1.0
22.90116500854492,-15.672096252441406,0.330057144165039,-0.0,-0.0,-1.0,0.0191944544848643,1.0,1.0
22.84973526000977,-15.88953971862793,0.341958999633789,-0.0,-0.0,-1.0,0.0843451196678192,1.0,1.0
23.223209381103516,-15.375943183898926,0.3526046276092529,-0.0,-0.0,-1.0,0.0438534238920074,1.0,1.0
23.041688919067383,-15.537009239196776,0.3395330905914306,-0.0,-0.0,-1.0,0.0245965788934211,2.0,1.0
24.44186019897461,-16.49610710144043,0.2538502216339111,-0.0,-0.0,-1.0,0.0552712970904261,1.0,1.0
24.93053817749023,-15.850940704345703,0.2710778713226318,-0.0,-0.0,-1.0,0.0081384471501774,2.0,1.0
24.703777313232425,-16.056699752807617,0.2533929347991943,-0.0,-0.0,-1.0,0.0134206475252224,1.0,1.0
24.602306365966797,-16.42621612548828,0.276726484298706,-0.033579735029997,-0.382308027872164,-0.9234245898934096,0.0483054597471776,4.0,1.0
24.567638397216797,-16.773347854614258,0.3081557750701904,-0.0,-0.0,-1.0,0.1135041454492669,2.0,1.0
25.18683433532715,-15.7763090133667,0.3090107440948486,-0.0,-0.0,-1.0,0.0075522727854168,1.0,1.0
24.99972152709961,-16.852022171020508,0.4000020027160644,0.2971069627790093,0.1569131031577379,-0.9418629044216794,0.1374485960255298,4.0,1.0
22.746055603027344,-15.02258586883545,0.7156190872192383,-0.4029500167274497,0.2122012131884816,-0.8902819380065424,0.074834192277917,3.0,1.0
22.804462432861328,-16.394819259643555,0.3794021606445312,-0.0,-0.0,-1.0,0.0784646697099271,1.0,1.0
22.798301696777344,-16.767742156982422,0.4096806049346924,-0.9676401534722424,-0.2145001419695448,-0.1328992945175444,0.0281327723779622,3.0,1.0
22.931793212890625,-16.018680572509766,0.3669395446777344,-0.0,-0.0,-1.0,0.1247399036748982,1.0,1.0
23.08501434326172,-16.296993255615234,0.4165663719177246,-0.0,-0.0,-1.0,0.1070854310129642,2.0,1.0
23.711589813232425,-14.979978561401367,0.3881673812866211,-0.0,-0.0,-1.0,0.0398507003265261,1.0,1.0
23.550212860107425,-15.186100006103516,0.3845107555389404,-0.0,-0.0,-1.0,0.0784664211912936,1.0,1.0
23.401336669921875,-15.399839401245115,0.382897138595581,-0.0,-0.0,-1.0,0.0643682136543938,1.0,1.0
24.140968322753903,-14.490028381347656,0.3999261856079101,-0.0,-0.0,-1.0,0.0082013833203541,1.0,1.0
23.953325271606445,-14.769582748413086,0.402451753616333,-0.0,-0.0,-1.0,0.0267982543749116,1.0,1.0
24.101184844970703,-15.09663200378418,0.4600381851196289,0.6363308632377843,0.668002850418332,-0.3858176049949508,0.1631988875262637,3.0,1.0
24.30257225036621,-15.12795066833496,0.4940335750579834,-0.5640848567005512,0.2907950910717283,-0.7728172419464409,0.2331280475469884,3.0,1.0
23.3555908203125,-14.82956314086914,0.7752182483673096,0.8187855527949299,-0.2229129521315611,-0.5290557950786412,0.2154026763827322,3.0,1.0
24.980213165283203,-16.46874237060547,0.2570691108703613,-0.0,-0.0,-1.0,0.0457627207233305,1.0,1.0
24.830585479736328,-16.72946548461914,0.2608377933502197,-0.0,-0.0,-1.0,0.1434428157290252,1.0,1.0
23.02489471435547,-14.866954803466797,0.6339242458343506,-0.0,-0.0,-1.0,0.1071060464728227,2.0,1.0
22.898754119873047,-15.081676483154297,0.6374402046203613,-0.8579598688757609,0.0095102409282124,0.5136286778560706,0.0878227638593785,3.0,1.0
23.333011627197266,-15.739995956420898,0.304847240447998,-0.0,-0.0,-1.0,0.2202345455755404,2.0,1.0
23.272266387939453,-15.973705291748049,0.3192975521087646,-0.0,-0.0,-1.0,0.0794081988376871,1.0,1.0
23.74028968811035,-15.381324768066406,0.3305709362030029,-0.0,-0.0,-1.0,0.038750202814101,1.0,1.0
23.47084045410156,-15.609795570373535,0.3129787445068359,-0.0,-0.0,-1.0,0.0876345952130625,1.0,1.0
23.27492904663086,-16.145368576049805,0.3371732234954834,-0.0,-0.0,-1.0,0.1244749616190025,2.0,1.0
23.24720001220703,-16.467248916625977,0.3643913269042969,-0.0,-0.0,-1.0,0.2158668936343379,1.0,1.0
23.174972534179688,-16.819297790527344,0.3859593868255615,-0.0,-0.0,-1.0,0.0494861935915492,1.0,1.0
24.323978424072266,-15.18632984161377,0.3988587856292724,-0.0,-0.0,-1.0,0.2190630844173149,2.0,1.0
24.05840301513672,-15.258718490600586,0.3663492202758789,-0.0,-0.0,-1.0,0.1485336675110989,1.0,1.0
23.709732055664062,-16.466407775878906,0.4399416446685791,0.174144873891146,-0.1099226446018072,-0.9785655701592928,0.0605415802818824,3.0,1.0
24.497604370117188,-15.093610763549805,0.4143941402435303,-0.0,-0.0,-1.0,0.1506182491129215,2.0,1.0
25.04722023010254,-14.493101119995115,0.4225873947143554,-0.0,-0.0,-1.0,0.0197937030440762,1.0,1.0
25.031261444091797,-14.868082046508787,0.4671320915222168,-0.0,-0.0,-1.0,0.0601022428806785,1.0,1.0
24.858308792114254,-15.09037971496582,0.4684875011444092,-0.0,-0.0,-1.0,0.1376610625956103,2.0,1.0
25.172285079956055,-15.17302131652832,0.5253794193267822,0.5993302421852916,0.5919061435049131,-0.5389344840361029,0.1811334007905979,3.0,1.0
23.096702575683594,-15.367742538452148,0.3588457107543945,-0.4070610514222438,0.9123836704582756,-0.0430968478673614,0.0179217434982699,3.0,1.0
22.92723846435547,-15.517004013061523,0.3539595603942871,-0.0,-0.0,-1.0,0.0200351059166626,1.0,1.0
23.281715393066406,-15.30238914489746,0.375540018081665,-0.0,-0.0,-1.0,0.0449852556644063,1.0,1.0
24.231666564941406,-16.641586303710938,0.2601900100708008,-0.0,-0.0,-1.0,0.1103855743681107,2.0,1.0
24.98278427124023,-15.862678527832031,0.2718122005462646,-0.0,-0.0,-1.0,0.0079528072125747,1.0,1.0
24.753520965576172,-16.032060623168945,0.2602035999298095,-0.0,-0.0,-1.0,0.0134759184938853,1.0,1.0
24.580055236816406,-16.341888427734375,0.2767317295074463,-0.0,-0.0,-1.0,0.0312330898855589,1.0,1.0
24.32303810119629,-16.76276206970215,0.2918746471405029,0.9550702324178376,0.1721657636744517,0.241246349128293,0.1368856082419758,3.0,1.0
25.03575134277344,-16.794593811035156,0.4161801338195801,0.0774610429734237,0.2175865342435065,-0.9729624283277176,0.1303223962439247,3.0,1.0
24.730045318603516,-16.823408126831055,0.3690135478973388,-0.0,-0.0,-1.0,0.1052508513325011,1.0,1.0
22.755762100219727,-15.072591781616213,0.7523446083068848,-0.0,-0.0,-1.0,0.0793172284274328,2.0,1.0
23.646312713623047,-15.045454978942873,0.3912005424499511,-0.0,-0.0,-1.0,0.0642315712684098,2.0,1.0
23.54230499267578,-15.236130714416504,0.4018728733062744,-0.0,-0.0,-1.0,0.0604165174788295,1.0,1.0
22.9332275390625,-16.240093231201172,0.4394540786743164,-0.0,-0.0,-1.0,0.1189096453374723,1.0,1.0
24.2862548828125,-14.442054748535156,0.3924081325531006,-0.0,-0.0,-1.0,0.0071476865990307,2.0,1.0
24.065174102783203,-14.767681121826172,0.4087307453155517,-0.0,-0.0,-1.0,0.0413562957966688,2.0,1.0
23.845348358154297,-14.97109603881836,0.4074769020080566,-0.0,-0.0,-1.0,0.0390192783480592,1.0,1.0
23.27329444885254,-16.330398559570312,0.4972066879272461,-0.0,-0.0,-1.0,0.1327275828717695,2.0,1.0
24.235942840576172,-15.154533386230469,0.4818007946014404,-0.4340514700311013,0.5343315691423598,-0.7253199952998011,0.1439869118948452,3.0,1.0
23.544113159179688,-15.007259368896484,0.8265690803527832,-0.0,-0.0,-1.0,0.1720958059931673,1.0,1.0
23.336097717285156,-15.699451446533203,0.2879800796508789,-0.0,-0.0,-1.0,0.1342341931378676,2.0,1.0
25.09945297241211,-16.330615997314453,0.240941047668457,-0.0,-0.0,-1.0,0.0194625005826408,1.0,1.0
24.82581329345703,-16.499710083007812,0.219728946685791,-0.0,-0.0,-1.0,0.0395752052522795,1.0,1.0
23.06384658813477,-14.791239738464355,0.6004238128662109,-0.9991366712981072,0.0267286224085401,-0.0318039747748599,0.1951807920697056,3.0,1.0
22.993186950683594,-15.008984565734863,0.616950511932373,-0.0,-0.0,-1.0,0.0529805855944792,1.0,1.0
22.758045196533203,-15.13039779663086,0.6033756732940674,-0.0,-0.0,-1.0,0.1257363953540945,1.0,1.0
23.914121627807617,-15.278139114379885,0.3150639533996582,-0.0,-0.0,-1.0,0.0689734166265493,1.0,1.0
23.57231712341309,-15.495065689086914,0.2956564426422119,-0.0,-0.0,-1.0,0.0491216101192396,1.0,1.0
23.285659790039062,-15.89569091796875,0.3054289817810058,-0.0,-0.0,-1.0,0.0742748426405212,1.0,1.0
23.231792449951172,-16.063724517822266,0.3184256553649902,-0.0,-0.0,-1.0,0.0954636991038087,2.0,1.0
24.645244598388672,-15.01809310913086,0.3788197040557861,-0.0,-0.0,-1.0,0.1167830151811181,1.0,1.0
24.411178588867188,-15.166114807128906,0.368373155593872,-0.0,-0.0,-1.0,0.1599890899181205,1.0,1.0
23.207977294921875,-16.34784698486328,0.3494153022766113,-0.0,-0.0,-1.0,0.129201967935789,1.0,1.0
23.11558532714844,-16.68352508544922,0.374697208404541,-0.0,-0.0,-1.0,0.0524077832801461,1.0,1.0
25.180309295654297,-14.749727249145508,0.4087753295898437,-0.0,-0.0,-1.0,0.0414630160586497,1.0,1.0
25.050220489501953,-15.109626770019531,0.4459950923919678,-0.0,-0.0,-1.0,0.1058438630369271,2.0,1.0
23.69817543029785,-16.45116424560547,0.4361727237701416,0.1815321898787334,-0.1225350514478334,-0.9757208746380844,0.062143434146805,4.0,1.0
23.55099868774414,-15.012282371520996,0.6805579662322998,-0.0,-0.0,-1.0,0.1907063827164521,2.0,1.0
23.88758850097656,-14.605395317077637,0.3989856243133545,-0.0,-0.0,-1.0,0.0110182194131099,2.0,1.0
23.623010635375977,-14.878066062927246,0.402212381362915,-0.0,-0.0,-1.0,0.1143311198968829,2.0,1.0
23.239749908447266,-15.126205444335938,0.3844971656799316,-0.0,-0.0,-1.0,0.0564999066088292,2.0,1.0
22.905725479125977,-15.340307235717772,0.3664126396179199,-0.0,-0.0,-1.0,0.0415822116528067,1.0,1.0
23.509323120117188,-15.06623077392578,0.4121150970458984,-0.0,-0.0,-1.0,0.0747454871581604,1.0,1.0
24.553497314453125,-15.760249137878418,0.2305912971496582,-0.0,-0.0,-1.0,0.0072536991933297,1.0,1.0
24.321998596191406,-15.896390914916992,0.2148404121398925,-0.0,-0.0,-1.0,0.0079979464592037,1.0,1.0
25.094417572021484,-15.67603588104248,0.2999053001403808,-0.0,-0.0,-1.0,0.0132020949353003,2.0,1.0
24.68844985961914,-15.744417190551758,0.2489628791809082,-0.0,-0.0,-1.0,0.0079246978606701,1.0,1.0
24.327259063720703,-15.985756874084473,0.228849172592163,-0.0,-0.0,-1.0,0.0091889376722065,1.0,1.0
24.06943130493164,-16.315465927124023,0.2347621917724609,-0.0,-0.0,-1.0,0.0384103982131507,1.0,1.0
23.97152328491211,-16.57868766784668,0.2554550170898437,-0.0,-0.0,-1.0,0.0767141696477161,1.0,1.0
24.397958755493164,-16.652381896972656,0.3369655609130859,-0.0,-0.0,-1.0,0.152806764309351,2.0,1.0
24.000587463378903,-16.71753692626953,0.2793107032775879,-0.3406213138404121,-0.3121966145142963,-0.8868542126209037,0.1115838232107844,3.0,1.0
24.68613624572754,-16.726070404052734,0.3949956893920898,0.7580054811154227,-0.2006117810279848,-0.620630811281358,0.105274606915976,3.0,1.0
24.58740997314453,-16.74434471130371,0.381310224533081,-0.0,-0.0,-1.0,0.1047535595540209,1.0,1.0
24.199716567993164,-14.412430763244627,0.4103391170501709,-0.9018611481017526,-0.2345455330230691,-0.3628151905357787,0.0080934172048721,3.0,1.0
24.078350067138672,-14.963876724243164,0.4710350036621094,-0.0,-0.0,-1.0,0.1092023086036516,1.0,1.0
24.50798988342285,-15.128219604492188,0.5464253425598145,-0.0,-0.0,-1.0,0.1498495478328824,1.0,1.0
22.92420959472656,-16.146102905273438,0.4635336399078369,-0.0,-0.0,-1.0,0.1484637279544415,1.0,1.0
24.918664932250977,-16.78754425048828,0.4419317245483398,-0.0,-0.0,-1.0,0.1227841061781663,1.0,1.0
23.47278213500977,-14.821891784667969,0.8276194334030151,-0.0,-0.0,-1.0,0.1655367495028848,1.0,1.0
23.137351989746097,-14.444595336914062,0.4630904197692871,-0.0,-0.0,-1.0,0.0669494213172068,2.0,1.0
22.786392211914062,-15.170331001281738,0.51328444480896,-0.0,-0.0,-1.0,0.0438514501156327,1.0,1.0
24.890588760375977,-15.184015274047852,0.3476979732513428,-0.0,-0.0,-1.0,0.1715289841291974,2.0,1.0
24.61174201965332,-15.24034023284912,0.320056676864624,-0.0,-0.0,-1.0,0.0710196679063263,1.0,1.0
24.227142333984375,-15.362322807312012,0.2872741222381592,-0.0,-0.0,-1.0,0.110208548085607,1.0,1.0
23.8754825592041,-15.557636260986328,0.2679395675659179,-0.0,-0.0,-1.0,0.1295103924821287,1.0,1.0
23.698657989501953,-15.696571350097656,0.2633829116821289,-0.0,-0.0,-1.0,0.1096675768440278,1.0,1.0
25.14448928833008,-15.266039848327637,0.3936400413513183,-0.0,-0.0,-1.0,0.1540585344863477,1.0,1.0
23.568004608154297,-15.85744285583496,0.2676708698272705,-0.0,-0.0,-1.0,0.0434719680280172,1.0,1.0
23.787124633789062,-16.45676040649414,0.3847002983093261,-0.0,-0.0,-1.0,0.0585299331290797,2.0,1.0
23.36774444580078,-16.523609161376953,0.3304245471954345,-0.0,-0.0,-1.0,0.1811218415764659,2.0,1.0
24.18308448791504,-16.547565460205078,0.4561445713043213,-0.0,-0.0,-1.0,0.1097463170357748,1.0,1.0
24.002695083618164,-16.526039123535156,0.4264402389526367,-0.8548824090888291,0.3323464709260765,-0.398399159001952,0.0591654270995539,4.0,1.0
23.172712326049805,-14.894570350646973,0.5239381790161133,-0.0,-0.0,-1.0,0.1156458310763901,1.0,1.0
22.95779800415039,-15.14044952392578,0.5296974182128906,-0.0,-0.0,-1.0,0.0557623731183521,1.0,1.0
24.911264419555664,-14.479004859924316,0.3877110481262207,-0.0,-0.0,-1.0,0.0156249905543142,1.0,1.0
24.751314163208008,-14.776385307312012,0.4110262393951416,-0.0,-0.0,-1.0,0.0157344897541036,2.0,1.0
24.465003967285156,-14.849382400512695,0.3821034431457519,-0.0,-0.0,-1.0,0.0785025330202419,2.0,1.0
23.991718292236328,-15.048491477966309,0.3421680927276611,-0.0,-0.0,-1.0,0.1042527913090815,1.0,1.0
23.700593948364254,-15.16783046722412,0.3146116733551025,-0.0,-0.0,-1.0,0.0408660543442329,1.0,1.0
23.47876739501953,-15.311822891235352,0.299659252166748,-0.0,-0.0,-1.0,0.0544771812939227,1.0,1.0
25.20004653930664,-15.073256492614746,0.5157489776611328,-0.2418866519563159,0.3192292932623931,-0.9162878946753346,0.1421355481282015,4.0,1.0
24.36906623840332,-15.123766899108888,0.407820463180542,-0.5629166770559583,0.7599874252188349,-0.324875250213868,0.1478195322556043,3.0,1.0
24.26021194458008,-15.204052925109863,0.4033088684082031,-0.0,-0.0,-1.0,0.1634925145061506,2.0,1.0
23.323654174804688,-15.489866256713867,0.2980268001556396,-0.0,-0.0,-1.0,0.053129057072763,1.0,1.0
23.303943634033203,-15.918457984924316,0.3485331535339355,-0.0,-0.0,-1.0,0.0896814364130437,1.0,1.0
23.25146484375,-16.128870010375977,0.365276575088501,-0.0,-0.0,-1.0,0.1101924473444371,2.0,1.0
25.18754196166992,-16.005779266357422,0.2883985042572021,-0.0,-0.0,-1.0,0.0064174910219595,1.0,1.0
24.787769317626953,-16.082366943359375,0.2328498363494873,-0.0,-0.0,-1.0,0.0151286969152771,1.0,1.0
23.482986450195312,-16.301162719726562,0.4245264530181885,-0.0,-0.0,-1.0,0.1611312665543667,2.0,1.0
23.129995346069336,-16.445148468017578,0.3817982673645019,-0.0,-0.0,-1.0,0.1203033884299343,1.0,1.0
23.051284790039062,-16.675710678100586,0.3943898677825928,-0.0,-0.0,-1.0,0.042133795654108,1.0,1.0
24.846036911010746,-16.457653045654297,0.3039119243621826,-0.0,-0.0,-1.0,0.0377882040682575,1.0,1.0
24.49595642089844,-16.50737190246582,0.2479658126831054,-0.0,-0.0,-1.0,0.067782645015399,1.0,1.0
23.0194091796875,-16.7467098236084,0.3966538906097412,-0.0,-0.0,-1.0,0.0372404696359357,1.0,1.0
24.942588806152344,-16.80311393737793,0.3757312297821045,0.0809569445738763,-0.793656349614629,-0.6029556964169459,0.1374485960255298,3.0,1.0
24.73175048828125,-16.740520477294922,0.3276293277740478,-0.0,-0.0,-1.0,0.1469565574989401,1.0,1.0
23.04987335205078,-14.611165046691896,0.587238073348999,-0.4043901608071397,0.5363613765249887,0.740800291316489,0.1858160752159102,4.0,1.0
23.415447235107425,-14.873006820678713,0.6621658802032471,-0.0,-0.0,-1.0,0.2178450289840396,2.0,1.0
23.065494537353516,-14.839699745178224,0.6135358810424805,-0.5681829066558889,0.1144174642519359,-0.8149090921435483,0.2320497737031112,3.0,1.0
22.872753143310547,-15.014537811279297,0.6064088344573975,-0.0,-0.0,-1.0,0.1169733373467468,2.0,1.0
23.59672737121582,-14.946073532104492,0.6930956840515137,-0.0,-0.0,-1.0,0.163397567859473,1.0,1.0
24.1135196685791,-15.667375564575195,0.2197194099426269,-0.0,-0.0,-1.0,0.0870264508729433,1.0,1.0
23.884050369262695,-14.511789321899414,0.3925442695617676,-0.0,-0.0,-1.0,0.010522913341019,2.0,1.0
23.825653076171875,-14.67038345336914,0.4108352661132812,-0.0,-0.0,-1.0,0.0095525981445006,1.0,1.0
23.55603790283203,-14.82622241973877,0.4009222984313965,-0.0,-0.0,-1.0,0.0934901296015282,1.0,1.0
23.191566467285156,-15.061864852905272,0.3885314464569092,-0.0,-0.0,-1.0,0.0510116002459605,2.0,1.0
22.884578704833984,-15.236470222473145,0.3716678619384765,-0.6375642749818258,-0.0245079210011116,-0.7700072448198798,0.0725329179745793,3.0,1.0
24.414962768554688,-15.013850212097168,0.5387866497039795,-0.0,-0.0,-1.0,0.1766427327691502,1.0,1.0
22.722427368164062,-15.37396240234375,0.3683853149414062,-0.0,-0.0,-1.0,0.0526032390850913,1.0,1.0
24.907760620117188,-15.436135292053224,0.2913353443145752,-0.0,-0.0,-1.0,0.0474375943302618,1.0,1.0
24.56776237487793,-15.52933120727539,0.2614521980285644,-0.0,-0.0,-1.0,0.0160169058879255,1.0,1.0
24.202533721923828,-15.640294075012209,0.2281520366668701,-0.0,-0.0,-1.0,0.0810722600908443,1.0,1.0
23.989412307739254,-15.773626327514648,0.2198951244354248,-0.0,-0.0,-1.0,0.0989829456993127,1.0,1.0
25.12523651123047,-15.509435653686523,0.3354413509368896,-0.0,-0.0,-1.0,0.0339987381809709,2.0,1.0
23.88775634765625,-15.90878677368164,0.2280952930450439,-0.0,-0.0,-1.0,0.0713459303819993,1.0,1.0
23.70413398742676,-16.242374420166016,0.256861925125122,-0.0,-0.0,-1.0,0.065228783862942,1.0,1.0
24.123197555541992,-16.54046058654785,0.3784101009368896,-0.0,-0.0,-1.0,0.1547873490994666,2.0,1.0
23.628440856933594,-16.52922821044922,0.2929384708404541,-0.0,-0.0,-1.0,0.0547990417251487,1.0,1.0
23.421409606933594,-14.77172565460205,0.795833945274353,0.4108025062775505,0.6963666472636653,-0.5884851683898623,0.2482018626861097,3.0,1.0
24.485013961791992,-14.532947540283203,0.3961799144744873,-0.0,-0.0,-1.0,0.0058298518488271,1.0,1.0
24.251251220703125,-14.663209915161133,0.3982279300689697,-0.0,-0.0,-1.0,0.0089487011269673,2.0,1.0
24.175575256347656,-14.818751335144045,0.4221329689025879,-0.0,-0.0,-1.0,0.0591989632964564,1.0,1.0
23.75132751464844,-14.893720626831056,0.386531114578247,-0.0,-0.0,-1.0,0.0330315548613054,1.0,1.0
23.41996955871582,-15.116082191467283,0.3889198303222656,-0.0,-0.0,-1.0,0.0836039174659748,1.0,1.0
23.038631439208984,-15.273625373840332,0.3677883148193359,-0.0,-0.0,-1.0,0.0409446744982127,1.0,1.0
22.74654197692871,-15.472404479980469,0.3639769554138183,-0.0,-0.0,-1.0,0.0236613797092229,1.0,1.0
22.76014518737793,-16.101238250732422,0.4833242893218994,-0.0,-0.0,-1.0,0.1289216739799817,1.0,1.0
23.461238861083984,-14.852703094482422,0.7589454650878906,-0.0,-0.0,-1.0,0.1976555055122658,2.0,1.0
22.903827667236328,-14.914351463317873,0.7059741020202637,-0.0,-0.0,-1.0,0.0894892274007273,2.0,1.0
24.406349182128903,-14.399984359741213,0.3688380718231201,-0.0,-0.0,-1.0,0.0058796808116921,1.0,1.0
24.208438873291016,-14.5720796585083,0.3894040584564209,-0.0,-0.0,-1.0,0.0082109959546457,2.0,1.0
23.81457138061523,-14.739697456359863,0.3877897262573242,-0.0,-0.0,-1.0,0.0094984180365308,1.0,1.0
23.48326110839844,-14.953256607055664,0.3986856937408447,-0.0,-0.0,-1.0,0.1099486372992331,2.0,1.0
23.097671508789062,-15.100074768066406,0.3852796554565429,-0.0,-0.0,-1.0,0.0459605353436203,2.0,1.0
22.87234878540039,-15.211069107055664,0.3809857368469238,-0.6375642749818258,-0.0245079210011116,-0.7700072448198798,0.1128120591300533,3.0,1.0
23.480871200561523,-14.902019500732422,0.79952073097229,-0.0,-0.0,-1.0,0.1332008911044794,2.0,1.0
24.67538070678711,-14.3876953125,0.352062463760376,0.4600086410307693,0.4039458956108902,-0.7907083935283227,0.0085071858122985,3.0,1.0
24.902074813842773,-14.412403106689451,0.3709440231323242,-0.0,-0.0,-1.0,0.018781658749418,1.0,1.0
24.43290138244629,-14.535283088684082,0.3715889453887939,-0.0,-0.0,-1.0,0.0064320758392685,1.0,1.0
24.09150505065918,-14.741616249084473,0.395848274230957,-0.0,-0.0,-1.0,0.0408817002791882,2.0,1.0
23.69273376464844,-14.820734024047852,0.3823850154876709,-0.0,-0.0,-1.0,0.0314465708886114,1.0,1.0
23.340167999267575,-15.030228614807127,0.3989381790161133,-0.0,-0.0,-1.0,0.0992511261775144,2.0,1.0
22.953609466552734,-15.15952205657959,0.3901419639587402,-0.0,-0.0,-1.0,0.115247330007178,2.0,1.0
23.356462478637695,-14.800159454345703,0.7641782760620117,0.1860691453406952,-0.5988967158740872,-0.7789101340125291,0.1836323499508783,4.0,1.0
23.708396911621097,-14.501011848449709,0.3996436595916748,-0.0,-0.0,-1.0,0.0169539343463625,1.0,1.0
23.38817024230957,-14.743318557739258,0.4336106777191162,-0.0,-0.0,-1.0,0.1341751374807802,1.0,1.0
24.17898178100586,-14.885533332824709,0.5146477222442627,-0.0,-0.0,-1.0,0.0741291677531544,2.0,1.0
23.351070404052734,-14.920716285705566,0.471083402633667,-0.0,-0.0,-1.0,0.1610962067843928,2.0,1.0
22.992780685424805,-15.045646667480469,0.4718503952026367,-0.0,-0.0,-1.0,0.060153114963633,1.0,1.0
24.563220977783203,-15.072587966918944,0.5765109062194824,-0.0,-0.0,-1.0,0.1302435047234568,1.0,1.0
24.04360008239746,-15.188779830932615,0.2796070575714111,-0.0,-0.0,-1.0,0.1459484955422601,1.0,1.0
23.773826599121097,-15.13664436340332,0.2819111347198486,-0.0,-0.0,-1.0,0.0329142530256997,1.0,1.0
23.365802764892575,-15.1771879196167,0.3140163421630859,-0.0,-0.0,-1.0,0.057576198645089,1.0,1.0
22.94608688354492,-15.18815803527832,0.3347620964050293,-0.0,-0.0,-1.0,0.0606595876125794,1.0,1.0
24.891809463500977,-15.382413864135742,0.2688760757446289,-0.0,-0.0,-1.0,0.0629485252165837,1.0,1.0
24.62752914428711,-15.322187423706056,0.273895263671875,-0.0,-0.0,-1.0,0.0581627794742356,1.0,1.0
24.237804412841797,-15.216646194458008,0.2741544246673584,-0.0,-0.0,-1.0,0.1587195402950722,1.0,1.0
25.116701126098633,-15.557756423950195,0.2962977886199951,-0.0,-0.0,-1.0,0.02402466669344,1.0,1.0
23.023651123046875,-14.809566497802734,0.6585972309112549,0.04664556705354,0.4766629397156632,-0.8778477276702809,0.1642112514255153,5.0,1.0
24.85662841796875,-15.100720405578612,0.3601155281066894,-0.0,-0.0,-1.0,0.1616220342737947,2.0,1.0
24.471691131591797,-15.070568084716797,0.3616576194763183,-0.0,-0.0,-1.0,0.1491606772178261,1.0,1.0
24.061599731445312,-15.060263633728027,0.3648231029510498,-0.0,-0.0,-1.0,0.1355587584949638,1.0,1.0
23.626420974731445,-15.057535171508787,0.3659162521362304,-0.0,-0.0,-1.0,0.05767994292715,2.0,1.0
23.270322799682617,-15.114669799804688,0.3783981800079345,-0.0,-0.0,-1.0,0.0546107662164096,2.0,1.0
22.853384017944336,-15.212820053100586,0.3967442512512207,-0.4284569280325154,0.1477282269115092,-0.8914039666697258,0.1057185681748299,4.0,1.0
23.525070190429688,-14.856073379516602,0.7358934879302979,-0.0,-0.0,-1.0,0.1412104944613435,2.0,1.0
24.89025497436523,-14.834135055541992,0.4028174877166748,-0.0,-0.0,-1.0,0.0345633549526102,2.0,1.0
24.51834487915039,-14.754077911376951,0.3765432834625244,-0.0,-0.0,-1.0,0.014212266840925,2.0,1.0
24.04465675354004,-14.800464630126951,0.3747179508209228,-0.0,-0.0,-1.0,0.0549407891366185,1.0,1.0
23.832305908203125,-14.815157890319824,0.3708322048187256,-0.0,-0.0,-1.0,0.0182745801908599,2.0,1.0
25.147531509399418,-15.132723808288574,0.4789831638336181,0.15342834354508,-0.0985624597529906,-0.9832320097130955,0.1435344493859406,6.0,1.0
24.330242156982425,-14.97275733947754,0.4258103370666504,-0.0,-0.0,-1.0,0.1519928682251628,2.0,1.0
24.23405647277832,-14.977463722229004,0.4242663383483886,-0.0,-0.0,-1.0,0.1614796169568767,2.0,1.0
23.60933494567871,-14.925334930419922,0.3884525299072265,-0.0,-0.0,-1.0,0.078920329383507,2.0,1.0
23.21408462524414,-15.064595222473145,0.4030361175537109,-0.0,-0.0,-1.0,0.047002116749006,2.0,1.0
22.811717987060547,-15.199050903320312,0.4119956493377685,-0.270588950495896,0.2194428855020971,-0.9373507560524196,0.0692185939371254,3.0,1.0
23.41431427001953,-14.794187545776367,0.7643013000488281,0.8311557867239451,0.3932509583059994,-0.3931077994478275,0.2482018626861098,5.0,1.0
23.593156814575195,-14.983936309814451,0.8112256526947021,-0.4163610957300985,-0.6862779011498618,-0.5963774646612432,0.2045772464722547,3.0,1.0
23.35077857971191,-15.745972633361816,0.5763375759124756,-0.0,-0.0,-1.0,0.1500801507156734,2.0,1.0
25.206863403320312,-15.174978256225586,0.4412126541137695,-0.0,-0.0,-1.0,0.1186225353449823,2.0,1.0
24.90912437438965,-15.019786834716797,0.4066548347473144,-0.0,-0.0,-1.0,0.1620994589358413,1.0,1.0
24.526945114135746,-14.85599136352539,0.367872953414917,-0.0,-0.0,-1.0,0.0548297649668372,2.0,1.0
24.11852264404297,-14.877168655395508,0.3718278408050537,-0.0,-0.0,-1.0,0.0965152036467917,1.0,1.0
23.878456115722656,-14.83242416381836,0.3579916954040527,-0.0,-0.0,-1.0,0.0255582726109895,2.0,1.0
23.61627197265625,-14.939929008483888,0.3803036212921142,-0.0,-0.0,-1.0,0.078920329383507,2.0,1.0
23.33670425415039,-15.032498359680176,0.3969411849975586,-0.0,-0.0,-1.0,0.0992511261775144,2.0,1.0
23.123302459716797,-15.11025047302246,0.4097604751586914,-0.0,-0.0,-1.0,0.0494147710856763,2.0,1.0
22.770360946655273,-15.209485054016112,0.4214916229248047,-0.0,-0.0,-1.0,0.0674112352980891,2.0,1.0
23.41874885559082,-14.829838752746582,0.7545609474182129,0.589699490126269,0.5366729302629979,-0.6035202376621233,0.2146317965594536,6.0,1.0
24.992586135864254,-15.195429801940918,0.3334701061248779,-0.0,-0.0,-1.0,0.1421054361554056,1.0,1.0
24.81334686279297,-15.156343460083008,0.3261077404022217,-0.0,-0.0,-1.0,0.1260788582068208,1.0,1.0
24.5613956451416,-15.111017227172852,0.3168399333953857,-0.0,-0.0,-1.0,0.1064356425514469,1.0,1.0
24.143152236938477,-15.106030464172363,0.3168466091156006,-0.0,-0.0,-1.0,0.1979710668505738,1.0,1.0
23.952056884765625,-15.09623908996582,0.3132128715515136,-0.0,-0.0,-1.0,0.0829014871509506,1.0,1.0
23.668922424316406,-15.12011432647705,0.316568374633789,-0.0,-0.0,-1.0,0.0377147380971977,1.0,1.0
25.07731056213379,-15.245573043823242,0.3450584411621094,-0.0,-0.0,-1.0,0.1234455798619523,2.0,1.0
24.91785049438477,-15.206377983093262,0.3377714157104492,-0.0,-0.0,-1.0,0.152076400139546,2.0,1.0
24.33761978149414,-15.202333450317385,0.3425586223602295,-0.0,-0.0,-1.0,0.1629913364503423,1.0,1.0
24.24500274658203,-15.237715721130373,0.352165937423706,-0.0,-0.0,-1.0,0.1842486290623448,1.0,1.0
23.541912078857425,-15.156498908996582,0.3243069648742676,-0.0,-0.0,-1.0,0.0810804554820388,1.0,1.0
23.387380599975582,-14.923541069030762,0.6548247337341309,-0.0,-0.0,-1.0,0.1972352984104682,1.0,1.0
23.3275146484375,-15.22243309020996,0.337430477142334,-0.0,-0.0,-1.0,0.0482157459218403,1.0,1.0
22.994836807250977,-15.111964225769045,0.4960787296295166,-0.0,-0.0,-1.0,0.0641448473084856,1.0,1.0
22.76451110839844,-15.043444633483888,0.6656656265258789,-0.9887845822230172,0.1148877677303383,-0.0954245816547983,0.0947003971107194,3.0,1.0
22.766311645507812,-15.34677028656006,0.3533504009246826,-0.0,-0.0,-1.0,0.0526032390850913,1.0,1.0
25.018226623535156,-14.73924446105957,0.3828434944152832,-0.0,-0.0,-1.0,0.0205150231487855,2.0,1.0
24.68921661376953,-14.644452095031738,0.3629908561706543,-0.1896403560968102,0.9701838817337316,-0.1509296888075476,0.0191319050297611,3.0,1.0
24.811607360839844,-14.829439163208008,0.4096333980560303,-0.0,-0.0,-1.0,0.0168178196024393,1.0,1.0
24.526281356811523,-14.679584503173828,0.3732311725616455,-0.0,-0.0,-1.0,0.0138372843745156,1.0,1.0
24.153358459472656,-14.65721321105957,0.3680667877197265,-0.0,-0.0,-1.0,0.0092612720192749,1.0,1.0
23.879289627075195,-14.672359466552734,0.369908332824707,-0.0,-0.0,-1.0,0.0075760612945646,1.0,1.0
23.60426139831543,-14.710248947143556,0.3762650489807129,-0.0,-0.0,-1.0,0.0480974195429691,1.0,1.0
25.15201759338379,-15.070504188537598,0.4657948017120361,-0.4044240739791823,0.0266432426276513,-0.9141834093924288,0.1039680729241087,5.0,1.0
24.942554473876953,-14.951221466064451,0.4392001628875732,-0.3231600903710592,0.0162111792817409,-0.946205450025344,0.0927035082705706,4.0,1.0
24.447439193725582,-14.823036193847656,0.4112255573272705,-0.9047976931814096,-0.1732061034519466,-0.3890254235144453,0.0567138600579957,3.0,1.0
24.226261138916016,-14.87392520904541,0.4248719215393066,-0.0,-0.0,-1.0,0.0903682780856325,2.0,1.0
23.475933074951172,-14.934864044189451,0.4327068328857422,-0.0,-0.0,-1.0,0.116581602807758,2.0,1.0
23.393049240112305,-14.824283599853516,0.595301628112793,-0.0,-0.0,-1.0,0.1970022739210797,1.0,1.0
23.084781646728516,-14.997675895690918,0.4389779567718506,-0.0,-0.0,-1.0,0.061753718608477,1.0,1.0
23.402603149414062,-15.709364891052246,0.6341867446899414,-0.0,-0.0,-1.0,0.1617785105090905,1.0,1.0
22.78730201721191,-15.10444164276123,0.4567091464996338,-0.0,-0.0,-1.0,0.0722316821396167,1.0,1.0
23.64874839782715,-14.906458854675291,0.8094663619995117,-0.0,-0.0,-1.0,0.1351487470756227,1.0,1.0
25.137357711791992,-15.100780487060549,0.3297724723815918,-0.0,-0.0,-1.0,0.111313170312092,1.0,1.0
24.846843719482425,-15.023755073547363,0.3118321895599365,-0.0,-0.0,-1.0,0.1424371196716035,1.0,1.0
24.61168098449707,-14.998126983642578,0.3060729503631592,-0.0,-0.0,-1.0,0.0338229672187675,1.0,1.0
24.294790267944336,-15.0534086227417,0.3231368064880371,-0.0,-0.0,-1.0,0.1451163017705611,1.0,1.0
24.02161026000977,-14.97010612487793,0.2960810661315918,-0.0,-0.0,-1.0,0.0683347170044324,1.0,1.0
23.6491756439209,-15.023509979248049,0.3061890602111816,-0.0,-0.0,-1.0,0.0553081294290307,1.0,1.0
23.315282821655273,-15.097328186035156,0.3200130462646484,-0.0,-0.0,-1.0,0.0683045582228005,1.0,1.0
23.10095596313477,-15.10416030883789,0.3149154186248779,-0.0,-0.0,-1.0,0.0500387373194951,1.0,1.0
22.81875228881836,-15.208520889282228,0.3348901271820068,-0.0,-0.0,-1.0,0.0848618409511467,1.0,1.0
23.601165771484375,-14.852657318115234,0.615546703338623,-0.0,-0.0,-1.0,0.1439445583207228,1.0,1.0
23.507991790771484,-14.727131843566896,0.579805850982666,-0.0,-0.0,-1.0,0.1408783851658423,1.0,1.0
22.99981689453125,-14.866474151611328,0.5998122692108154,-0.0,-0.0,-1.0,0.1552198677191442,2.0,1.0
22.817445755004883,-14.910621643066406,0.6040017604827881,-0.4059864173833521,0.8740926829648117,-0.2667152235767726,0.155798217011093,3.0,1.0
23.474008560180664,-14.81935214996338,0.6421153545379639,-0.0,-0.0,-1.0,0.2007348749529927,1.0,1.0
22.963329315185547,-14.864087104797363,0.6423614025115967,-0.2526076323347035,0.5229552616332054,-0.814068288546115,0.1141659649149974,3.0,1.0
22.80968856811523,-14.900896072387695,0.6476826667785645,-0.7189180659896034,0.6950770813059406,-0.0049664310105729,0.101606265104699,5.0,1.0
22.720474243164062,-14.886032104492188,0.6399061679840088,-0.52882546585812,0.7403853360998703,-0.4149375624696138,0.1290952881569194,3.0,1.0
24.10797882080078,-16.5960750579834,0.360004186630249,-0.0,-0.0,-1.0,0.1544771307784069,1.0,1.0
24.25579833984375,-16.628679275512695,0.3464400768280029,-0.0,-0.0,-1.0,0.1240948376776871,1.0,1.0
24.519886016845703,-16.82233238220215,0.3172533512115478,-0.0,-0.0,-1.0,0.1036943372463279,2.0,1.0
22.809467315673828,-14.754266738891602,0.5350065231323242,-0.0,-0.0,-1.0,0.1509931925740307,2.0,1.0
23.040363311767575,-14.641054153442385,0.5200290679931641,-0.0,-0.0,-1.0,0.1608019437570637,2.0,1.0
23.50403213500977,-14.903322219848633,0.4718949794769287,0.326817438911097,-0.5689778667248374,-0.7546221231854023,0.1441335867713419,4.0,1.0
24.214996337890625,-15.067880630493164,0.4062590599060058,0.1801710841842259,0.5435658189223878,-0.8198015497198787,0.182708065886007,3.0,1.0
24.455028533935547,-14.974493026733398,0.3893227577209472,-0.0,-0.0,-1.0,0.1118640082595349,2.0,1.0
24.345943450927734,-15.057744979858398,0.3955624103546142,-0.0,-0.0,-1.0,0.1341908769988622,1.0,1.0
24.755325317382812,-14.659761428833008,0.3750765323638916,-0.0311419951730728,-0.2850067797507724,-0.9580194735143616,0.013053966694463,4.0,1.0
25.00592041015625,-14.591299057006836,0.3561205863952636,-0.0,-0.0,-1.0,0.0200043525569132,1.0,1.0
24.32980728149414,-16.8052978515625,0.2954318523406982,-0.0,-0.0,-1.0,0.1310506896090106,2.0,1.0
22.951587677001953,-14.374030113220217,0.5102486610412598,-0.0,-0.0,-1.0,0.0746855595269323,1.0,1.0
23.50027847290039,-14.527968406677246,0.4658458232879638,-0.0,-0.0,-1.0,0.0671351001349291,2.0,1.0
23.91060447692871,-14.411782264709473,0.4437434673309326,-0.0,-0.0,-1.0,0.007989257538014,1.0,1.0
24.19866180419922,-14.428074836730955,0.4230742454528808,-0.0,-0.0,-1.0,0.0080934172048721,2.0,1.0
24.643112182617188,-14.382113456726074,0.3942642211914062,-0.0,-0.0,-1.0,0.0082300179704823,1.0,1.0
23.481704711914062,-14.877445220947266,0.4382691383361816,-0.0,-0.0,-1.0,0.1281070551754133,2.0,1.0
24.350181579589844,-14.620622634887695,0.3860256671905517,-0.0,-0.0,-1.0,0.0077526543016385,2.0,1.0
24.281761169433594,-14.934280395507812,0.3756487369537353,-0.0,-0.0,-1.0,0.0819691047376797,2.0,1.0
24.564502716064453,-16.579673767089844,0.2726955413818359,-0.0,-0.0,-1.0,0.0837198273187999,1.0,1.0
24.713138580322266,-14.529733657836914,0.3629593849182129,-0.0,-0.0,-1.0,0.0177149223932957,1.0,1.0
24.636886596679688,-16.431373596191406,0.2746281623840332,-0.0,-0.0,-1.0,0.0483054597471775,2.0,1.0
22.973033905029297,-14.614248275756836,0.4889707565307617,-0.0,-0.0,-1.0,0.1535109304244467,1.0,1.0
22.840761184692383,-14.750072479248049,0.4918422698974609,-0.0,-0.0,-1.0,0.2229746720795402,1.0,1.0
23.0694637298584,-14.568517684936523,0.4841759204864502,-0.0,-0.0,-1.0,0.1104030299530159,2.0,1.0
22.83666229248047,-14.7556791305542,0.6472809314727783,-0.6178928003040896,0.5961672242110927,-0.5126335222250017,0.1563409934518374,4.0,1.0
24.214832305908203,-16.75178337097168,0.4309883117675781,-0.0,-0.0,-1.0,0.1063720535851978,1.0,1.0
24.498340606689453,-16.802614212036133,0.4205965995788574,-0.0,-0.0,-1.0,0.1082055440402251,1.0,1.0
22.80446434020996,-14.775960922241213,0.6624593734741211,-0.6244870337626932,0.6271878539957817,-0.4654582048502739,0.1619405121642065,6.0,1.0
22.775310516357425,-14.956583976745604,0.7111551761627197,0.1352758173374168,-0.5815833231420677,-0.802160390125767,0.1063014064272499,5.0,1.0
24.28017807006836,-16.562923431396484,0.3381824493408203,-0.0,-0.0,-1.0,0.1350533155053979,1.0,1.0
