x,y,z,nx,ny,nz,curvature,density,label
32.528560638427734,-26.39152717590332,1.002475023269653,-0.8015132343130549,-0.5667730151463891,-0.190643343767614,0.135624319797128,5.0,2.0
32.440914154052734,-26.74835968017578,1.0008325576782229,-0.0,-0.0,-1.0,0.1824065035713566,2.0,2.0
30.218421936035156,-24.416662216186523,0.9610116481781006,-0.0,-0.0,-1.0,0.20801458229734,1.0,1.0
30.61648178100586,-24.49793815612793,0.9331241250038148,-0.0,-0.0,-1.0,0.0981178824334163,2.0,1.0
30.98402214050293,-24.489112854003903,0.9093126058578492,-0.0,-0.0,-1.0,0.1022599291697383,2.0,1.0
31.316638946533203,-24.42352294921875,0.8890717625617981,-0.0,-0.0,-1.0,0.052059176285128,2.0,1.0
31.59255599975586,-24.407169342041016,0.8713093996047974,-0.0,-0.0,-1.0,0.0262085257865907,1.0,1.0
31.84137535095215,-24.66628646850586,0.8486483097076416,-0.0,-0.0,-1.0,0.0549422405763346,1.0,1.0
30.323505401611328,-24.791318893432617,0.9839434623718262,-0.0,-0.0,-1.0,0.0761107397276461,2.0,1.0
30.273828506469727,-24.9404296875,0.9871257543563844,-0.3115098560515007,-0.3022126815070053,-0.9009046035619528,0.0743421555421445,3.0,1.0
30.737977981567383,-24.53120803833008,0.9436327815055848,-0.0,-0.0,-1.0,0.0908726373112906,2.0,1.0
31.131080627441406,-24.60814094543457,0.9006571769714355,-0.0,-0.0,-1.0,0.0324625667449385,1.0,1.0
31.24287796020508,-24.789382934570312,0.8863096833229065,-0.0,-0.0,-1.0,0.0322270202218203,1.0,1.0
31.38039779663086,-24.548019409179688,0.874687671661377,0.4889340721312562,0.3381779366523952,-0.804101458940771,0.0235861885273281,3.0,1.0
31.67223739624023,-24.69895362854004,0.841223955154419,-0.0,-0.0,-1.0,0.0307556111968257,2.0,1.0
31.90667152404785,-24.659446716308594,0.8162932991981506,-0.9721644418236312,0.2337353276914084,0.0162509889772036,0.0584085710141942,3.0,1.0
32.62705993652344,-26.70162582397461,1.3009586334228516,-0.0,-0.0,-1.0,0.1536921404960565,2.0,2.0
32.57722854614258,-26.848161697387695,1.254495620727539,-0.0,-0.0,-1.0,0.1241242913023222,1.0,2.0
30.794919967651367,-24.633464813232425,1.048528790473938,-0.0,-0.0,-1.0,0.1095502498177696,1.0,2.0
30.368053436279297,-25.226890563964844,1.051444172859192,-0.7918079387870993,-0.5947725740760865,0.1388732270836666,0.1507908755270006,5.0,2.0
30.91961669921875,-24.632301330566406,1.0419654846191406,-0.0,-0.0,-1.0,0.0875214563148697,2.0,2.0
31.24294090270996,-25.045982360839844,1.0112416744232178,-0.0,-0.0,-1.0,0.0792186773544529,1.0,2.0
31.600807189941406,-25.335865020751953,0.9826815128326416,-0.0,-0.0,-1.0,0.0902386481363106,2.0,1.0
32.43845748901367,-26.735008239746097,0.8921936750411987,-0.0,-0.0,-1.0,0.1902219207948896,1.0,1.0
31.939781188964844,-24.68876266479492,0.7851235866546631,-0.0,-0.0,-1.0,0.065102083326345,1.0,1.0
31.899545669555664,-24.73613166809082,0.7842340469360352,-0.0,-0.0,-1.0,0.0509545579873372,1.0,1.0
32.131256103515625,-24.687240600585938,0.7775654792785645,-0.0541248933193819,-0.9638774613615412,-0.2607886795901924,0.0519271013773729,4.0,1.0
32.66952896118164,-26.712146759033203,1.3101658821105957,-0.0,-0.0,-1.0,0.1585638289212986,2.0,2.0
30.421857833862305,-24.37349510192871,1.052631378173828,-0.0,-0.0,-1.0,0.1310523629290445,1.0,2.0
30.469383239746097,-24.758888244628903,1.0348984003067017,-0.0,-0.0,-1.0,0.0762819980723807,2.0,2.0
30.332050323486328,-25.293533325195312,1.0192009210586548,-0.0,-0.0,-1.0,0.1546451197330096,2.0,2.0
31.14681053161621,-24.929302215576172,0.9979743957519532,-0.0,-0.0,-1.0,0.0487085086956781,2.0,1.0
31.32500648498535,-25.13062286376953,0.9818975925445556,-0.0,-0.0,-1.0,0.1038313680507242,1.0,1.0
31.521892547607425,-25.30849838256836,0.9659180641174316,-0.0,-0.0,-1.0,0.0949302101479798,2.0,1.0
32.02977752685547,-25.308425903320312,0.943047046661377,-0.0,-0.0,-1.0,0.0537039423342958,1.0,1.0
32.66145706176758,-24.835878372192383,0.9330636262893676,0.6930015876588339,-0.7084155290604952,-0.1337768204446268,0.1832073147285632,4.0,1.0
32.519081115722656,-26.18320083618164,0.8858619928359985,-0.0,-0.0,-1.0,0.1732714694742291,2.0,1.0
32.706634521484375,-26.18278694152832,0.8773604035377502,-0.0,-0.0,-1.0,0.1203346235876142,1.0,1.0
32.48841857910156,-26.419349670410156,0.8777915239334106,-0.0,-0.0,-1.0,0.1597114068279091,1.0,1.0
30.402324676513672,-25.31749725341797,1.0673713684082031,-0.0,-0.0,-1.0,0.1572399445715236,1.0,2.0
30.286882400512695,-25.7303466796875,1.0545623302459717,-0.3702265683718078,-0.4642131344829621,-0.8046356031429002,0.0477409590994497,4.0,2.0
30.329113006591797,-25.78540802001953,1.050765037536621,0.1138572840819447,0.050476539535203,-0.9922140080738804,0.0628003815760489,3.0,2.0
30.23372459411621,-24.669723510742188,0.9085880517959596,-0.0,-0.0,-1.0,0.0925075615885661,1.0,1.0
30.422222137451172,-24.4660701751709,0.9257627725601196,-0.0,-0.0,-1.0,0.1976618009088616,2.0,1.0
30.741191864013672,-24.579914093017575,0.8858015537261963,-0.0,-0.0,-1.0,0.0858591648406555,1.0,1.0
31.10016441345215,-24.56450653076172,0.8469586372375488,-0.0,-0.0,-1.0,0.0663595592119198,1.0,1.0
32.07832336425781,-24.69815444946289,0.7324237823486328,-0.0,-0.0,-1.0,0.0578840625933277,1.0,1.0
32.35218811035156,-24.621318817138672,0.7047879695892334,-0.0,-0.0,-1.0,0.0170012638394416,1.0,1.0
32.16631317138672,-24.71350860595703,0.7219183444976807,-0.0,-0.0,-1.0,0.0332741597530714,1.0,1.0
30.322830200195312,-24.661230087280273,0.8471007347106934,-0.0,-0.0,-1.0,0.1302174614678204,1.0,1.0
30.723562240600582,-24.97129249572754,1.2038357257843018,-0.1779735111609883,0.4575070769031282,-0.8712133515440317,0.1625359656883704,3.0,2.0
31.97422790527344,-26.845956802368164,0.9887969493865968,-0.0,-0.0,-1.0,0.044397560398055,2.0,1.0
32.64260482788086,-24.852577209472656,0.9266077280044556,0.6133518621693298,-0.123024053194358,-0.7801695812507992,0.2365237937246387,5.0,1.0
32.58213424682617,-26.168386459350582,0.9142067432403564,-0.6517024759748742,-0.7333052104937277,-0.1937713886799796,0.1729962982113692,3.0,1.0
32.55030059814453,-24.45928955078125,0.7291320562362671,-0.0,-0.0,-1.0,0.05894144644825,1.0,1.0
30.530696868896484,-24.4204044342041,1.0483272075653076,-0.0,-0.0,-1.0,0.1147841102746314,1.0,2.0
30.468215942382812,-24.727523803710938,1.042283296585083,-0.9766900365152064,0.0140827831803549,-0.21419208152922,0.0784440435145903,3.0,2.0
30.44778823852539,-25.11603355407715,1.0250470638275146,0.4180090719299318,-0.185493775661486,-0.8893033649858318,0.0777790231494439,3.0,2.0
30.818986892700195,-24.563241958618164,0.9971697330474854,-0.0,-0.0,-1.0,0.1482792500451069,2.0,1.0
31.303442001342773,-24.542049407958984,0.9232321977615356,-0.0,-0.0,-1.0,0.0327689717648845,1.0,1.0
31.418655395507812,-24.672048568725582,0.8993719816207886,-0.0,-0.0,-1.0,0.03052994718636,1.0,1.0
31.476940155029297,-24.439634323120117,0.9007854461669922,-0.0,-0.0,-1.0,0.0268968140328721,1.0,1.0
32.29519271850586,-26.81014633178711,1.1724072694778442,-0.0,-0.0,-1.0,0.1497635910169393,2.0,2.0
32.03846740722656,-24.62598419189453,0.8040239810943604,-0.0,-0.0,-1.0,0.0603361725780941,1.0,1.0
32.63652038574219,-26.513397216796875,1.1375232934951782,-0.0,-0.0,-1.0,0.096985937407637,2.0,2.0
32.434913635253906,-24.48410415649414,0.7467106580734253,-0.0,-0.0,-1.0,0.0510165012139114,1.0,1.0
32.506534576416016,-25.580276489257812,0.8119134902954102,-0.0,-0.0,-1.0,0.0315771853665491,1.0,1.0
30.30191421508789,-26.46489906311035,1.135368585586548,-0.0,-0.0,-1.0,0.0320758227082712,1.0,2.0
30.283674240112305,-26.62281036376953,1.1328322887420654,-0.0,-0.0,-1.0,0.0278558347842185,2.0,2.0
30.58327865600586,-25.864730834960938,1.1116037368774414,0.6159595613478146,0.3534085000071807,-0.7040569940756801,0.0355685184640256,4.0,2.0
30.583375930786133,-26.220367431640625,1.1008543968200684,-0.0,-0.0,-1.0,0.0406913373595837,2.0,2.0
30.58382797241211,-24.86983108520508,1.138124704360962,-0.9934142310682555,-0.0763127900943613,0.0854665055976893,0.138433543682746,3.0,2.0
30.666118621826172,-25.893293380737305,1.09802508354187,-0.0,-0.0,-1.0,0.0409821053710912,2.0,2.0
30.97650909423828,-26.03964614868164,1.0458303689956665,-0.0432505060663779,-0.1355724906644702,-0.989822960685412,0.0462320680467733,4.0,2.0
30.90947723388672,-25.112041473388672,1.0804452896118164,-0.0,-0.0,-1.0,0.1315296678709687,1.0,2.0
31.151264190673828,-25.484817504882812,1.0329675674438477,-0.0,-0.0,-1.0,0.0298825244370331,2.0,2.0
31.214763641357425,-25.87250518798828,1.0131986141204834,-0.0,-0.0,-1.0,0.0322313608597337,1.0,2.0
31.367847442626953,-25.05181884765625,1.0081539154052734,-0.0,-0.0,-1.0,0.1061278905807984,1.0,2.0
31.546062469482425,-25.301496505737305,0.9740259647369384,-0.0,-0.0,-1.0,0.0962207910554923,2.0,1.0
31.650405883789062,-25.66768264770508,0.9491140842437744,-0.0,-0.0,-1.0,0.0386580717577693,1.0,1.0
32.32076644897461,-26.85014533996582,1.3092801570892334,-0.0,-0.0,-1.0,0.1535245981962596,2.0,2.0
31.786781311035156,-25.258819580078125,0.9358584880828856,0.3768577558769888,0.5125049206411109,-0.7715678441679701,0.102058029844978,4.0,1.0
31.893104553222656,-25.71279525756836,0.9091184139251708,-0.0,-0.0,-1.0,0.0430261623834583,2.0,1.0
31.92656707763672,-25.80553817749023,0.9016836881637572,-0.0,-0.0,-1.0,0.0583140720056465,1.0,1.0
32.215576171875,-25.223609924316406,0.8662619590759277,-0.0,-0.0,-1.0,0.0680481769446803,1.0,1.0
30.25118064880371,-24.43510055541992,0.8598355054855347,-0.0,-0.0,-1.0,0.2298020319162429,2.0,1.0
30.25874900817871,-24.64908790588379,0.8449671268463135,-0.0,-0.0,-1.0,0.1040277319816963,1.0,1.0
32.09486389160156,-25.93245506286621,0.9019230604171752,-0.0,-0.0,-1.0,0.062125690973933,1.0,1.0
32.324195861816406,-25.735286712646484,0.8738601207733154,-0.0,-0.0,-1.0,0.047070270907935,2.0,1.0
32.625953674316406,-25.86276626586914,0.8233826160430908,-0.0,-0.0,-1.0,0.0245806957299216,1.0,1.0
30.227066040039062,-26.05584716796875,1.165937066078186,-0.0,-0.0,-1.0,0.0610930425834192,1.0,2.0
30.348480224609375,-26.416908264160156,1.1314653158187866,-0.0,-0.0,-1.0,0.0336922465900169,1.0,2.0
30.463533401489254,-26.60465431213379,1.1065168380737305,-0.0,-0.0,-1.0,0.0186553363729689,1.0,2.0
30.241931915283203,-25.734155654907227,1.1792902946472168,-0.0,-0.0,-1.0,0.0492848064293342,1.0,2.0
30.615901947021484,-26.099096298217773,1.1100420951843262,-0.0,-0.0,-1.0,0.0501258164824574,1.0,2.0
30.71228408813477,-25.903995513916016,1.105466365814209,0.2610072824619439,0.9177420812307348,-0.2993737978516323,0.0542072620894597,3.0,2.0
31.17081069946289,-26.097251892089844,1.031508207321167,-0.0,-0.0,-1.0,0.0302214375043571,1.0,2.0
30.79110336303711,-25.03351402282715,1.130274534225464,-0.0,-0.0,-1.0,0.2168172214838916,1.0,2.0
31.146312713623047,-25.472675323486328,1.0605506896972656,-0.0,-0.0,-1.0,0.0300981656999678,2.0,2.0
31.53840446472168,-25.9561767578125,0.9839475154876708,-0.0,-0.0,-1.0,0.0428900805356099,1.0,1.0
31.562828063964844,-26.136165618896484,0.9731458425521852,-0.0,-0.0,-1.0,0.0352050574559714,2.0,1.0
32.293556213378906,-26.8431396484375,1.3191370964050293,-0.0,-0.0,-1.0,0.1318620871407314,2.0,2.0
31.796215057373047,-25.57969665527344,0.9596303701400756,-0.0,-0.0,-1.0,0.0333010002847197,1.0,1.0
32.14759826660156,-25.26179313659668,0.9163436889648438,-0.0,-0.0,-1.0,0.052661573250081,1.0,1.0
32.48011016845703,-26.734886169433594,1.0041849613189695,-0.0,-0.0,-1.0,0.2156744216915197,2.0,2.0
30.282001495361328,-25.00204849243164,0.9925427436828612,-0.0,-0.0,-1.0,0.0375007929707344,2.0,1.0
32.56515121459961,-26.23990249633789,1.011986255645752,-0.0,-0.0,-1.0,0.144752783147487,1.0,2.0
32.58030319213867,-26.45705795288086,1.0015685558319092,-0.8327088908302577,-0.5410144491359141,0.1178951608778145,0.1151043539628025,3.0,2.0
30.447107315063477,-24.719879150390625,0.9859373569488524,-0.0,-0.0,-1.0,0.0960703590164154,1.0,1.0
30.74875259399414,-24.372879028320312,0.9588102102279664,-0.0,-0.0,-1.0,0.0951628294281197,2.0,1.0
31.21225357055664,-24.48104476928711,0.8750872611999512,-0.0,-0.0,-1.0,0.0540153793596052,1.0,1.0
31.751388549804688,-24.416337966918945,0.7864874601364136,-0.0,-0.0,-1.0,0.0274926060187356,1.0,1.0
30.449556350708008,-24.516521453857425,0.9988799095153807,0.2687724074356122,0.3684274197934784,-0.8899565322787316,0.1788996117628425,3.0,1.0
32.503536224365234,-26.78780746459961,1.086934208869934,-0.0,-0.0,-1.0,0.1754621181501287,1.0,2.0
32.59197235107422,-26.521949768066406,1.0883028507232666,-0.2412848736208767,0.4552606251886546,-0.8570410567263348,0.0947584504913937,3.0,2.0
30.21291160583496,-25.269847869873047,1.065209984779358,-0.0,-0.0,-1.0,0.129158549281612,1.0,2.0
30.57638931274414,-25.292293548583984,1.012118577957153,-0.0,-0.0,-1.0,0.0622251835718406,2.0,2.0
30.59586524963379,-24.935468673706055,1.0363421440124512,-0.0,-0.0,-1.0,0.1827752398797823,1.0,2.0
30.603046417236328,-25.041210174560547,1.0273431539535522,-0.0,-0.0,-1.0,0.1295300641894816,1.0,2.0
31.608963012695312,-25.156505584716797,0.8682916164398193,-0.0,-0.0,-1.0,0.0804339146035752,1.0,1.0
30.86354637145996,-24.65170669555664,1.0167789459228516,-0.0,-0.0,-1.0,0.1128934817853149,1.0,2.0
31.489444732666016,-24.748767852783203,0.913738250732422,-0.0,-0.0,-1.0,0.0276134202999946,2.0,1.0
31.68291664123535,-25.094009399414062,0.8610165119171143,-0.0,-0.0,-1.0,0.0473213744884705,1.0,1.0
31.414350509643555,-24.456195831298828,0.9440836906433104,-0.0,-0.0,-1.0,0.0313529369534794,1.0,1.0
31.780269622802734,-24.696285247802734,0.8710047006607056,-0.0,-0.0,-1.0,0.0405161458306743,2.0,1.0
32.099578857421875,-24.703563690185547,0.8193950653076172,-0.6930805806862332,-0.3572406826448153,-0.6261137303550373,0.0712327657654307,3.0,1.0
32.61214828491211,-24.794591903686523,0.7305046319961548,-0.0,-0.0,-1.0,0.1982298628193524,2.0,1.0
32.64576721191406,-24.476892471313477,0.7420072555541992,-0.0,-0.0,-1.0,0.0883116231039979,2.0,1.0
30.615110397338867,-24.66521453857422,1.0533175468444824,-0.0,-0.0,-1.0,0.0709598485647916,2.0,2.0
31.503931045532227,-24.87945556640625,0.8375405073165894,-0.0,-0.0,-1.0,0.0315986234373516,1.0,1.0
32.20153045654297,-24.57943344116211,0.746403694152832,-0.0,-0.0,-1.0,0.0421211675463858,2.0,1.0
32.41000747680664,-24.44048118591309,0.7212255001068115,-0.0,-0.0,-1.0,0.0149810508765996,1.0,1.0
32.521358489990234,-26.26190185546875,0.9881677627563475,-0.8680993584605006,-0.3652628429510804,0.3361347339977849,0.1762419004297705,3.0,1.0
30.395593643188477,-25.126419067382812,0.9845975637435912,-0.0,-0.0,-1.0,0.0623933453842986,1.0,1.0
30.28345489501953,-24.86380386352539,1.0266366004943848,-0.0,-0.0,-1.0,0.0724921543159235,2.0,2.0
30.51118850708008,-24.705875396728516,1.0076591968536377,-0.0,-0.0,-1.0,0.0898175018522688,2.0,2.0
31.330854415893555,-24.689050674438477,0.8816268444061279,0.3152406528377546,-0.9209519111796124,-0.2290652922051818,0.0260650155388077,3.0,1.0
32.678428649902344,-24.843280792236328,1.046084761619568,0.6145641373585881,-0.4098764452255695,-0.6740268694361863,0.1576567675997772,4.0,2.0
30.889814376831055,-24.52342414855957,0.9660913944244384,0.5056552574113795,-0.8622757715257676,0.0281647739538883,0.126725128658823,3.0,1.0
31.41313934326172,-24.49471092224121,0.8846698999404907,-0.87436975987786,0.2036276352983488,-0.4404694190905154,0.0316272153742796,3.0,1.0
32.68581008911133,-24.770715713500977,1.048678636550903,-0.0,-0.0,-1.0,0.1839229562388457,2.0,2.0
32.45655822753906,-26.00408363342285,0.7470917701721191,-0.0,-0.0,-1.0,0.1242152353276474,1.0,1.0
32.41189956665039,-25.66014862060547,0.7888889312744141,-0.0,-0.0,-1.0,0.0362148909304783,1.0,1.0
32.39044189453125,-25.335834503173828,0.8248072862625122,-0.0,-0.0,-1.0,0.0410600782719978,2.0,1.0
30.231910705566406,-24.738637924194336,0.8655222654342651,-0.0,-0.0,-1.0,0.0839581132383124,2.0,1.0
32.65306854248047,-24.885313034057617,0.8293207883834839,0.599672951627853,0.1880028000422486,-0.777847863185477,0.1565469989254527,3.0,1.0
32.547027587890625,-26.540023803710938,1.091355323791504,-0.2412848736208767,0.4552606251886546,-0.8570410567263348,0.1477365214767769,3.0,2.0
30.31036376953125,-25.78133773803711,1.0488206148147583,0.1138572840819447,0.050476539535203,-0.9922140080738804,0.0628003815760487,3.0,2.0
30.445323944091797,-25.43511199951172,1.0745368003845217,-0.0,-0.0,-1.0,0.1243613010345775,1.0,2.0
30.731761932373047,-25.409069061279297,1.042558193206787,-0.0,-0.0,-1.0,0.0968739530058908,1.0,2.0
31.12790870666504,-25.33940887451172,0.9998855590820312,-0.0,-0.0,-1.0,0.036889616817312,2.0,1.0
30.585384368896484,-24.912437438964844,1.118172287940979,-0.0,-0.0,-1.0,0.1406936118062729,2.0,2.0
30.83126640319824,-25.137466430664062,1.0611047744750977,-0.0,-0.0,-1.0,0.1559236715855665,2.0,2.0
31.310075759887695,-25.304819107055664,0.9796056747436525,-0.0,-0.0,-1.0,0.0712927507251711,1.0,1.0
31.607887268066406,-25.272750854492188,0.9426087141036988,-0.0,-0.0,-1.0,0.0586372630880113,2.0,1.0
32.156982421875,-25.242773056030273,0.8682682514190674,-0.0798650970270549,0.5403020882444374,-0.8376725014679419,0.057678836833564,3.0,1.0
32.56071853637695,-26.42438316345215,1.0131824016571045,-0.779636576896558,-0.6201468062389265,0.0870904511222479,0.1353709703095552,4.0,2.0
32.567535400390625,-26.1954345703125,1.0349664688110352,-0.0,-0.0,-1.0,0.1491375612230093,1.0,2.0
30.365650177001953,-25.4754638671875,1.0367481708526611,0.1761361679583268,-0.616402553270179,-0.7674789525836916,0.0632464222388844,3.0,2.0
30.62593650817871,-25.37955093383789,1.020635008811951,-0.0,-0.0,-1.0,0.0696938143842317,2.0,2.0
31.585430145263672,-25.381553649902344,0.8975046873092651,-0.0,-0.0,-1.0,0.0906017076936717,1.0,1.0
31.815824508666992,-25.43992042541504,0.8576664924621582,-0.0,-0.0,-1.0,0.1133595407685662,1.0,1.0
32.19686508178711,-25.56283187866211,0.7873857021331787,-0.0,-0.0,-1.0,0.0323742034715145,1.0,1.0
32.61509323120117,-25.56621360778809,0.7246396541595459,-0.0,-0.0,-1.0,0.0329907990759626,1.0,1.0
30.228818893432617,-24.806642532348633,0.849207878112793,-0.6094802197596032,0.2974597825703829,-0.7348819901691473,0.082231518457788,3.0,1.0
30.735803604125977,-25.182233810424805,1.0353095531463623,-0.8307050690831661,-0.5290394998396142,0.1733386737256972,0.1455684333671959,3.0,2.0
31.07575035095215,-25.213586807250977,0.9879540205001832,-0.0,-0.0,-1.0,0.0380304407659602,1.0,1.0
31.43667221069336,-25.27040672302246,0.9324281215667723,-0.9454765612962892,0.1119779079010897,-0.3058349557873321,0.0753337930992066,3.0,1.0
31.77486038208008,-25.288543701171875,0.8833152055740356,0.5474586877710987,0.8284463548833824,-0.1181762339236766,0.1232635295479234,4.0,1.0
32.253684997558594,-25.30970764160156,0.810920000076294,-0.0,-0.0,-1.0,0.061930967758053,1.0,1.0
32.70131301879883,-25.363235473632812,0.7359778881072998,-0.0,-0.0,-1.0,0.072793452770785,1.0,1.0
30.32918930053711,-24.56521987915039,0.8776359558105469,-0.0,-0.0,-1.0,0.1899022429828357,1.0,1.0
32.14729690551758,-24.911710739135746,0.8762609958648682,-0.0,-0.0,-1.0,0.0720179981854637,1.0,1.0
30.843048095703125,-26.37895965576172,1.208337903022766,-0.0,-0.0,-1.0,0.0748781185557348,2.0,2.0
30.35615921020508,-25.1942195892334,1.0787532329559326,-0.7543034903889028,-0.048901018190737,-0.6547021725998993,0.1315724175120409,6.0,2.0
30.634815216064453,-24.9954776763916,1.0740368366241455,-0.0,-0.0,-1.0,0.1961314612001646,1.0,2.0
32.700225830078125,-26.776931762695312,0.750800371170044,-0.0,-0.0,-1.0,0.172093602605397,1.0,1.0
30.344770431518555,-26.50132179260254,1.0359344482421875,-0.0,-0.0,-1.0,0.0297768384760646,1.0,2.0
32.157169342041016,-26.72881317138672,0.8230918645858765,-0.0,-0.0,-1.0,0.0595266250452844,1.0,1.0
30.479257583618164,-26.11834716796875,1.0832946300506592,0.2695162050804829,0.9480762854264728,-0.1688560695117473,0.0647341062477061,3.0,2.0
30.85598945617676,-26.137149810791016,1.046586513519287,-0.0,-0.0,-1.0,0.0450565152137627,2.0,2.0
31.37821578979492,-26.303138732910156,0.9701123237609864,0.6960362040392347,0.0806140501362316,-0.7134668721021923,0.0210788280061696,3.0,1.0
31.7005558013916,-26.278026580810547,0.9389058351516724,-0.0,-0.0,-1.0,0.0272388569419291,1.0,1.0
32.171592712402344,-26.51620864868164,0.8512275218963623,-0.0,-0.0,-1.0,0.0752855898120768,1.0,1.0
32.43714904785156,-26.53466796875,0.8165665864944458,-0.0,-0.0,-1.0,0.1953706921792416,1.0,1.0
30.322338104248047,-25.9636173248291,1.1204313039779663,0.8400741206358691,-0.5227963735229693,-0.1447736981260852,0.0658232714669743,4.0,2.0
30.576919555664062,-25.955835342407227,1.0996253490447998,0.1371636149843939,-0.4071569353514928,-0.9030002063784892,0.0420434969257946,3.0,2.0
30.939525604248047,-26.052467346191406,1.05131196975708,-0.1692492963281332,0.0678347073889317,-0.983236049057341,0.0351476134062482,3.0,2.0
32.633052825927734,-26.064064025878903,0.8553719520568848,-0.0,-0.0,-1.0,0.1082530466840112,2.0,1.0
30.27224349975586,-24.95479202270508,0.9924917221069336,-0.7524101431624453,-0.1560562128066377,-0.6399417433725648,0.0569409731187029,3.0,1.0
31.18372344970703,-24.938247680664062,0.8907158374786377,-0.0,-0.0,-1.0,0.0558405049761365,1.0,1.0
31.386877059936523,-25.08604621887207,0.8384780883789062,-0.0,-0.0,-1.0,0.1113549565679479,1.0,1.0
32.10676956176758,-25.024873733520508,0.7469832897186279,-0.0,-0.0,-1.0,0.0710498063397757,1.0,1.0
30.4692325592041,-24.621028900146484,1.0332119464874268,-0.0,-0.0,-1.0,0.1121865816952958,2.0,2.0
30.70033836364746,-24.671798706054688,0.9972528219223022,-0.0,-0.0,-1.0,0.0859466863704709,2.0,1.0
31.071870803833008,-24.79892349243164,0.9294416904449464,-0.0,-0.0,-1.0,0.04675965992888,1.0,1.0
31.514171600341797,-24.74556541442871,0.879439115524292,-0.0,-0.0,-1.0,0.0276134202999946,2.0,1.0
31.91328239440918,-24.806650161743164,0.811707615852356,-0.0,-0.0,-1.0,0.0844055154538233,1.0,1.0
32.261131286621094,-24.916528701782227,0.7407991886138916,-0.0,-0.0,-1.0,0.0847348548655289,1.0,1.0
32.66655731201172,-24.860933303833008,0.8456122875213623,0.6026127004086117,0.1852916974552134,-0.7762247871334738,0.1680360753122143,3.0,1.0
32.67805480957031,-24.484107971191406,0.740287184715271,-0.0,-0.0,-1.0,0.0829383965637676,2.0,1.0
32.37377166748047,-26.74271774291992,1.1662445068359375,-0.0,-0.0,-1.0,0.1776870285143392,2.0,2.0
30.683292388916016,-25.055034637451172,1.2244489192962646,-0.8587739143381448,0.3675603646853491,-0.3569408107301742,0.175666878104651,3.0,2.0
30.30938148498535,-26.522613525390625,1.1264880895614624,-0.0,-0.0,-1.0,0.0305800319370791,1.0,2.0
30.70218849182129,-26.432586669921875,1.117013692855835,-0.0,-0.0,-1.0,0.0480241495478256,2.0,2.0
31.122529983520508,-26.520065307617188,1.073650360107422,-0.0,-0.0,-1.0,0.0467427321754048,1.0,2.0
31.959304809570312,-26.81295394897461,0.9583172798156738,-0.0,-0.0,-1.0,0.0594769925355582,2.0,1.0
32.53960418701172,-26.64690589904785,0.925323486328125,-0.0,-0.0,-1.0,0.1268477631042525,1.0,1.0
30.53117561340332,-26.215885162353516,1.1622076034545898,-0.746266359903629,0.0730580898845154,-0.6616260541866631,0.0410743778882438,3.0,2.0
30.811233520507812,-26.342697143554688,1.1238001585006714,-0.0,-0.0,-1.0,0.0743184918043112,2.0,2.0
32.55427551269531,-26.307872772216797,0.9731433391571044,-0.733667380086562,-0.6672057174208966,0.1287194858511595,0.1735737251762806,3.0,1.0
32.18626403808594,-25.849781036376953,0.7569931745529175,-0.0,-0.0,-1.0,0.0662353668350234,1.0,1.0
30.339797973632812,-25.3674373626709,1.021796464920044,-0.0,-0.0,-1.0,0.0982785399334744,2.0,2.0
30.618192672729492,-25.291736602783203,1.0160504579544067,-0.0,-0.0,-1.0,0.0499259877508104,2.0,2.0
31.057323455810547,-25.267478942871097,0.983717441558838,-0.0,-0.0,-1.0,0.1009176799521137,1.0,1.0
31.431739807128903,-25.27594566345215,0.945648431777954,-0.9454765612962892,0.1119779079010897,-0.3058349557873321,0.0753337930992066,3.0,1.0
31.756162643432617,-25.381921768188477,0.8914545774459839,-0.0,-0.0,-1.0,0.1417073905096649,1.0,1.0
32.31039047241211,-25.556652069091797,0.7943768501281738,-0.0,-0.0,-1.0,0.0303683234810918,1.0,1.0
32.58711624145508,-25.54149055480957,0.761211633682251,-0.0,-0.0,-1.0,0.0331937633444896,1.0,1.0
30.724687576293945,-25.095867156982425,1.0453619956970217,-0.0,-0.0,-1.0,0.1534084792370544,2.0,2.0
30.848892211914062,-25.157625198364254,1.023186445236206,-0.7271086362066694,-0.6570906416163795,-0.1988590451899323,0.1281894399214657,4.0,2.0
31.752635955810547,-25.26789093017578,0.9127476215362548,-0.3281273368669889,0.9445813445962532,-0.0099264415231477,0.131804709184039,5.0,1.0
32.11713790893555,-25.23798179626465,0.8751574754714966,-0.0798650970270549,0.5403020882444374,-0.8376725014679419,0.0624362761831979,3.0,1.0
32.62730407714844,-25.27520179748535,0.8021851778030396,-0.0,-0.0,-1.0,0.0918449503301124,1.0,1.0
32.696109771728516,-24.773487091064453,0.8782087564468384,-0.0,-0.0,-1.0,0.1553607990723428,2.0,1.0
32.236698150634766,-26.809722900390625,1.2835049629211426,0.5339252450788211,0.5811361880712365,-0.6141698165666828,0.1489268278771496,3.0,2.0
30.431018829345703,-26.115375518798828,1.1842877864837646,-0.0,-0.0,-1.0,0.0536531369752822,1.0,2.0
30.53518295288086,-24.84258270263672,1.1091344356536863,-0.3347007385244764,-0.1553262631198781,-0.9294348646443088,0.0881986944603041,4.0,2.0
31.87220001220703,-26.56542205810547,0.8065245151519775,-0.0,-0.0,-1.0,0.0408922402967224,1.0,1.0
32.60321044921875,-26.756258010864254,0.703127384185791,-0.0,-0.0,-1.0,0.207276056485093,1.0,1.0
32.27610778808594,-26.49637222290039,0.7831640243530273,-0.0,-0.0,-1.0,0.0784158826077313,1.0,1.0
32.66378402709961,-26.494827270507812,0.7443752288818359,-0.0,-0.0,-1.0,0.0793872092976944,1.0,1.0
32.36564636230469,-26.73843002319336,1.0690600872039795,-0.0,-0.0,-1.0,0.1864378043116586,1.0,2.0
32.64621353149414,-26.737375259399418,1.0440099239349363,-0.0,-0.0,-1.0,0.0905988327573803,1.0,2.0
31.576099395751953,-26.12049674987793,0.9141016006469728,-0.0,-0.0,-1.0,0.0317657972695515,1.0,1.0
31.873268127441406,-26.293542861938477,0.8572041988372803,-0.0,-0.0,-1.0,0.0424194045384652,1.0,1.0
32.3317985534668,-26.36632919311523,0.8017427921295166,-0.0,-0.0,-1.0,0.1075867656220545,2.0,1.0
32.60808563232422,-26.369781494140625,0.9389936923980712,-0.0,-0.0,-1.0,0.1518326048660493,1.0,1.0
30.35741424560547,-25.840984344482425,1.0393409729003906,-0.0,-0.0,-1.0,0.0521075536748749,1.0,2.0
30.706361770629883,-25.77616500854492,1.0358530282974243,-0.0,-0.0,-1.0,0.0341063454896429,1.0,2.0
31.1405086517334,-25.90422821044922,0.986111044883728,-0.0,-0.0,-1.0,0.0333349143444276,2.0,1.0
31.417387008666992,-25.950912475585938,0.9581944942474364,-0.0,-0.0,-1.0,0.0371014440286559,2.0,1.0
31.926204681396484,-25.96618270874023,0.9140188694000244,-0.0,-0.0,-1.0,0.0549601969377624,2.0,1.0
32.6358642578125,-24.81052589416504,1.0507581233978271,-0.660173494825731,-0.7510339753267656,-0.0109052571934497,0.1975677926763544,4.0,2.0
30.637928009033203,-24.996362686157227,1.1896740198135376,-0.0,-0.0,-1.0,0.1368030358173127,1.0,2.0
30.740514755249023,-25.005386352539062,1.1824686527252195,-0.9135837247259682,-0.3958108262752442,-0.0932661123835147,0.1815239483784489,3.0,2.0
31.43979835510254,-26.611404418945312,0.9516022205352784,-0.0,-0.0,-1.0,0.0102540530158465,1.0,1.0
31.584888458251953,-26.671899795532227,0.933606743812561,-0.0,-0.0,-1.0,0.0255308209862906,1.0,1.0
32.16339874267578,-26.76861572265625,1.0474131107330322,-0.0,-0.0,-1.0,0.0814895858077788,1.0,2.0
32.54532241821289,-26.714935302734375,1.193272590637207,-0.0,-0.0,-1.0,0.1576255714352547,2.0,2.0
30.579206466674805,-26.05976104736328,1.0811601877212524,-0.0,-0.0,-1.0,0.0521987799052007,2.0,2.0
30.95025634765625,-26.18641662597656,1.049321174621582,-0.0,-0.0,-1.0,0.0179333756219079,1.0,2.0
31.283397674560547,-26.30311584472656,1.016374111175537,-0.0,-0.0,-1.0,0.0192412800582481,1.0,2.0
32.63642120361328,-26.29111099243164,0.9390509128570556,-0.0,-0.0,-1.0,0.1496702244527428,1.0,1.0
30.61028289794922,-25.905139923095703,1.1102354526519775,0.6865177321981739,0.4155307645527413,-0.596680473191214,0.043185232685597,5.0,2.0
32.52454376220703,-26.15929794311523,0.9723719358444214,-0.2916741506806258,0.0087981303387079,-0.9564772776847754,0.1094801679283625,4.0,1.0
31.55026054382324,-26.788471221923828,0.9310901165008544,-0.0,-0.0,-1.0,0.0211013295074429,1.0,1.0
31.719730377197266,-25.908782958984375,0.8222962617874146,-0.0,-0.0,-1.0,0.0603588631050315,1.0,1.0
31.956623077392575,-25.95283889770508,0.8087818622589111,-0.0,-0.0,-1.0,0.0628623484833239,1.0,1.0
32.25846862792969,-26.13333511352539,0.7590318918228149,-0.0,-0.0,-1.0,0.0877262199381088,1.0,1.0
31.916284561157227,-25.71537399291992,0.8667937517166138,-0.0,-0.0,-1.0,0.0711733065418603,2.0,1.0
32.401336669921875,-25.840835571289062,0.8256845474243164,-0.0,-0.0,-1.0,0.0444552740946907,2.0,1.0
31.82443046569824,-26.724884033203125,0.9410111904144288,-0.0,-0.0,-1.0,0.0426376386735811,1.0,1.0
32.469146728515625,-26.82137680053711,1.223432540893555,-0.0,-0.0,-1.0,0.1748286755897276,1.0,2.0
30.257984161376953,-25.93374252319336,1.086841702461243,-0.0,-0.0,-1.0,0.0726872281507544,2.0,2.0
30.77568817138672,-26.105388641357425,1.0653620958328247,-0.0,-0.0,-1.0,0.0480020754589682,1.0,2.0
31.078563690185547,-26.26313018798828,1.0372910499572754,-0.5190749429371782,0.529274761370613,-0.6711403955886175,0.0113171089657146,4.0,2.0
31.434574127197266,-26.43973731994629,1.0024492740631104,-0.0,-0.0,-1.0,0.0132007822130719,1.0,2.0
32.39999008178711,-26.480472564697266,0.979361057281494,-0.0,-0.0,-1.0,0.1920688741503249,1.0,1.0
32.500030517578125,-26.4554443359375,0.981480836868286,-0.3386013537624583,-0.896637057294858,0.2852912734659935,0.1351919218972577,3.0,1.0
30.31017303466797,-25.876617431640625,1.099740505218506,-0.0,-0.0,-1.0,0.0761014794897494,2.0,2.0
30.61012077331543,-25.936607360839844,1.095998764038086,-0.1523145435495765,0.2582443847504318,-0.95399691695946,0.0510785768786932,4.0,2.0
32.35272979736328,-26.301307678222656,1.0173059701919556,-0.0,-0.0,-1.0,0.1042411824334195,1.0,2.0
30.693471908569336,-25.211259841918945,1.242915391921997,-0.0,-0.0,-1.0,0.1178908272981155,1.0,2.0
31.371562957763672,-25.512882232666016,0.9176247119903564,-0.0,-0.0,-1.0,0.0400151692310259,1.0,1.0
31.567279815673828,-25.469005584716797,0.928613305091858,-0.0,-0.0,-1.0,0.0895502786501903,1.0,1.0
30.215734481811523,-24.92426490783691,1.023686408996582,-0.0,-0.0,-1.0,0.0683833042146845,2.0,2.0
30.60030174255371,-25.01847267150879,1.1506860256195068,-0.0,-0.0,-1.0,0.1409144872158308,1.0,2.0
30.92613220214844,-25.042236328125,1.022815465927124,-0.0,-0.0,-1.0,0.1054281008596823,1.0,2.0
31.21205711364746,-25.16909408569336,0.9982858896255492,-0.0,-0.0,-1.0,0.0757295560213517,1.0,1.0
31.57723045349121,-25.354034423828125,0.9563175439834596,-0.0,-0.0,-1.0,0.1017901188374869,2.0,1.0
30.45926284790039,-24.714649200439453,1.0839548110961914,-0.658325744806592,-0.7473969347601919,0.0894708647321315,0.0824914928673704,3.0,2.0
32.642356872558594,-24.97737693786621,1.0251665115356443,-0.0,-0.0,-1.0,0.1712819335900369,1.0,2.0
32.03245544433594,-26.65977478027344,0.7880594730377197,-0.0,-0.0,-1.0,0.0730835771361862,1.0,1.0
32.28560256958008,-26.60153579711914,0.8061486482620239,-0.0,-0.0,-1.0,0.0956437437117696,1.0,1.0
31.35036849975586,-25.22230529785156,0.823178768157959,-0.0,-0.0,-1.0,0.1212147699451093,1.0,1.0
31.6956729888916,-25.39927864074707,0.793883204460144,-0.0,-0.0,-1.0,0.1379868885857946,1.0,1.0
32.06670379638672,-25.564647674560547,0.7637795209884644,-0.0,-0.0,-1.0,0.0415645020720756,1.0,1.0
32.34086608886719,-25.68208694458008,0.7398216724395752,-0.0,-0.0,-1.0,0.0409539119777756,1.0,1.0
31.3997802734375,-25.168663024902344,0.8394010066986084,0.59564600646208,0.3106797993375567,-0.7407320009756235,0.1140462318648039,4.0,1.0
31.748210906982425,-25.3375186920166,0.8116931915283203,-0.0,-0.0,-1.0,0.1327833048834402,1.0,1.0
32.01704788208008,-25.42688369750977,0.7979545593261719,-0.0,-0.0,-1.0,0.0603970421692886,1.0,1.0
32.34996032714844,-25.582361221313477,0.7658449411392212,-0.0,-0.0,-1.0,0.0335015432895259,1.0,1.0
31.642860412597656,-24.553312301635746,0.7711336612701416,-0.0,-0.0,-1.0,0.0235107006621,1.0,1.0
31.985321044921875,-24.736785888671875,0.7326786518096924,-0.0,-0.0,-1.0,0.0679219521890406,1.0,1.0
32.394527435302734,-24.973039627075195,0.674548864364624,-0.0,-0.0,-1.0,0.1496267366118275,1.0,1.0
32.69770812988281,-25.04904556274414,0.6564358472824097,-0.0,-0.0,-1.0,0.1045534392802675,2.0,1.0
32.120704650878906,-24.66261100769043,0.7596533298492432,-0.0541248933193819,-0.9638774613615412,-0.2607886795901924,0.0554923212276452,4.0,1.0
30.25649642944336,-26.69974708557129,1.0206583738327026,-0.0,-0.0,-1.0,0.0278558347842185,1.0,2.0
30.493860244750977,-26.270933151245117,1.1064927577972412,-0.0,-0.0,-1.0,0.0458168328348929,1.0,2.0
30.695051193237305,-26.395984649658203,1.0968059301376345,-0.0,-0.0,-1.0,0.0576079959494786,2.0,2.0
30.40204620361328,-25.99307632446289,1.1462558507919312,-0.0,-0.0,-1.0,0.0637333448016965,2.0,2.0
31.6626033782959,-26.250743865966797,0.8686394691467285,-0.0,-0.0,-1.0,0.0339224619588699,1.0,1.0
31.89366912841797,-26.445877075195312,0.8322486877441406,-0.0,-0.0,-1.0,0.0417967180256578,1.0,1.0
32.399654388427734,-26.83965301513672,1.0642273426055908,-0.0,-0.0,-1.0,0.1249635677739981,1.0,2.0
30.81658935546875,-25.49027442932129,0.9970695972442628,-0.0,-0.0,-1.0,0.0590394716256114,1.0,1.0
31.09242820739746,-25.688005447387695,0.9687937498092652,-0.0,-0.0,-1.0,0.0317222291691699,2.0,1.0
31.438335418701172,-25.96127700805664,0.9242347478866576,-0.0,-0.0,-1.0,0.0433821128074126,2.0,1.0
31.74527359008789,-26.116382598876953,0.9008874893188475,-0.0,-0.0,-1.0,0.0536201780372168,1.0,1.0
31.96015357971191,-26.21428108215332,0.8852977752685547,-0.0,-0.0,-1.0,0.0834527931698665,1.0,1.0
32.50950622558594,-26.527549743652344,0.9763062000274658,-0.0,-0.0,-1.0,0.1469375007072174,1.0,1.0
30.513994216918945,-25.00968360900879,1.0715274810791016,-0.0,-0.0,-1.0,0.0651234154320834,1.0,2.0
30.73693466186523,-25.281829833984375,1.031765699386597,-0.0,-0.0,-1.0,0.0983025216123623,1.0,2.0
32.39812088012695,-26.04178237915039,0.9324251413345336,-0.8055436248525032,-0.5151250017445818,-0.2928236688471994,0.1287136597539878,4.0,1.0
32.681640625,-26.07500457763672,0.927809715270996,-0.0,-0.0,-1.0,0.1346140258891211,2.0,1.0
30.305477142333984,-24.575395584106445,1.0255519151687622,-0.0,-0.0,-1.0,0.1718180196468095,1.0,2.0
30.75066566467285,-24.5557861328125,0.9440473318099976,-0.0,-0.0,-1.0,0.106104561755833,2.0,1.0
31.04282569885254,-24.864665985107425,0.8958081007003784,-0.0,-0.0,-1.0,0.046163670579354,1.0,1.0
31.20811653137207,-25.04502868652344,0.8605514764785767,-0.0,-0.0,-1.0,0.0774432791710614,1.0,1.0
32.49713897705078,-24.943708419799805,0.9340113401412964,-0.0,-0.0,-1.0,0.2372899347245021,1.0,1.0
32.57123565673828,-24.833518981933594,0.9636067152023317,-0.0,-0.0,-1.0,0.1544910344810914,1.0,1.0
30.454429626464844,-25.14090156555176,1.300666570663452,-0.0,-0.0,-1.0,0.0847402436697348,1.0,2.0
32.285892486572266,-26.33192443847656,0.7354851961135864,-0.0,-0.0,-1.0,0.084720164598975,1.0,1.0
32.35737228393555,-26.241117477416992,0.7596206665039062,-0.0,-0.0,-1.0,0.1071858996287637,1.0,1.0
32.673702239990234,-26.403520584106445,0.725115180015564,-0.0,-0.0,-1.0,0.1324549747095881,1.0,1.0
31.44353485107422,-26.69020652770996,0.9185941219329834,-0.0,-0.0,-1.0,0.0106308651277973,2.0,1.0
30.40495491027832,-25.467235565185547,1.099465250968933,-0.0,-0.0,-1.0,0.0662680886961517,1.0,2.0
30.603588104248047,-25.76190948486328,1.056923747062683,-0.0,-0.0,-1.0,0.0330444903439826,1.0,2.0
30.898273468017575,-26.009769439697266,1.027679204940796,-0.0,-0.0,-1.0,0.0483764785569052,2.0,2.0
31.227312088012695,-26.23321533203125,1.0016696453094482,-0.0,-0.0,-1.0,0.0376178429196744,1.0,2.0
31.51741600036621,-26.53227996826172,0.9543148279190063,-0.0,-0.0,-1.0,0.0162198458409081,1.0,1.0
32.03480529785156,-26.784515380859375,0.9205107688903807,0.2154314503055072,0.3179395740379288,-0.923311278756978,0.0547415124711633,3.0,1.0
30.228784561157227,-24.80995178222656,0.958909034729004,-0.0,-0.0,-1.0,0.0874955489264387,1.0,1.0
30.516891479492188,-25.277612686157227,1.1456890106201172,-0.0,-0.0,-1.0,0.1268627578295607,1.0,2.0
31.710411071777344,-25.825538635253903,0.8380197286605835,-0.0,-0.0,-1.0,0.0620729161220601,1.0,1.0
31.834985733032227,-25.930683135986328,0.8180994987487793,-0.0,-0.0,-1.0,0.0700302269389275,1.0,1.0
32.456329345703125,-26.531103134155273,0.9830937385559082,-0.0,-0.0,-1.0,0.1501345679870638,1.0,1.0
30.52171516418457,-24.71977996826172,1.010380744934082,-0.0,-0.0,-1.0,0.0898175018522688,2.0,2.0
30.787248611450195,-24.87125015258789,1.0009948015213013,-0.0,-0.0,-1.0,0.0906875971357849,1.0,2.0
31.09649085998535,-25.12739944458008,0.9670367240905762,-0.0,-0.0,-1.0,0.0463052426653827,1.0,1.0
31.38539695739746,-25.33723258972168,0.9374072551727296,-0.0,-0.0,-1.0,0.06540848761958,2.0,1.0
31.62236595153809,-25.64262008666992,0.8777744770050049,-0.0,-0.0,-1.0,0.051654915809009,2.0,1.0
32.04471969604492,-25.86815071105957,0.841526985168457,-0.0,-0.0,-1.0,0.0522293944418375,1.0,1.0
32.59304428100586,-26.333110809326172,1.0267415046691897,-0.0,-0.0,-1.0,0.1326739858130525,1.0,2.0
32.55371856689453,-24.85585021972656,1.105377435684204,-0.0,-0.0,-1.0,0.1736494204070894,1.0,2.0
30.70087623596191,-25.02878189086914,1.2091772556304932,-0.3564101085712964,0.9079335277922368,-0.2205188055902275,0.1879700241032384,4.0,2.0
32.37611770629883,-26.751235961914062,1.2320611476898191,-0.0,-0.0,-1.0,0.1639191449360427,1.0,2.0
31.821378707885746,-26.54669761657715,0.7744655609130859,-0.0,-0.0,-1.0,0.0391588691316567,1.0,1.0
32.066795349121094,-26.599422454833984,0.7721638679504395,-0.0,-0.0,-1.0,0.0654153109109941,1.0,1.0
30.243091583251953,-25.97500991821289,1.0657556056976318,-0.0,-0.0,-1.0,0.0659822510291357,2.0,2.0
30.50035285949707,-25.98218536376953,1.0865206718444824,-0.0,-0.0,-1.0,0.0607812050332671,1.0,2.0
30.719154357910156,-26.127063751220703,1.0749956369400024,-0.0,-0.0,-1.0,0.0275621460783416,1.0,2.0
31.06791877746582,-26.38780212402344,1.046983242034912,-0.0,-0.0,-1.0,0.058183775951741,1.0,2.0
31.203025817871097,-26.849933624267575,0.9613726139068604,-0.0,-0.0,-1.0,0.0085057123922503,1.0,1.0
30.437963485717773,-25.070510864257812,1.010933756828308,-0.0,-0.0,-1.0,0.0600116365720623,2.0,2.0
30.65582847595215,-25.129535675048828,1.0210328102111816,-0.0,-0.0,-1.0,0.0998366353290753,2.0,2.0
31.046188354492188,-26.21409797668457,1.0807206630706787,-0.0180135710615349,0.1075732894632477,-0.994033952464234,0.0269779665169501,3.0,2.0
30.634607315063477,-24.888607025146484,1.0728631019592283,-0.0,-0.0,-1.0,0.2032584965646597,2.0,2.0
30.881988525390625,-25.18832015991211,1.0302023887634275,-0.6020508131150997,-0.7254105340599751,-0.3336380906045784,0.0896787004228902,3.0,2.0
31.121318817138672,-25.33092880249023,1.018754959106445,-0.0,-0.0,-1.0,0.0366917039173254,2.0,2.0
31.30875587463379,-25.785724639892575,0.9266464710235596,-0.0,-0.0,-1.0,0.0277683935378787,1.0,1.0
31.588895797729492,-25.857192993164062,0.9284744262695312,-0.0,-0.0,-1.0,0.040258994960314,1.0,1.0
31.973480224609375,-26.36520195007324,0.825664758682251,-0.0,-0.0,-1.0,0.0447624692995199,2.0,1.0
32.191741943359375,-26.59673309326172,0.9180729389190674,-0.0,-0.0,-1.0,0.0931081701174783,1.0,1.0
31.812101364135746,-25.863037109375,0.9399466514587402,-0.0,-0.0,-1.0,0.0686000925478588,1.0,1.0
31.984575271606445,-26.095197677612305,0.8921247720718384,-0.0,-0.0,-1.0,0.038773434358878,1.0,1.0
32.499183654785156,-26.463207244873047,0.9560778141021729,-0.0,-0.0,-1.0,0.1143367008361071,2.0,1.0
32.684539794921875,-26.504199981689453,1.0858310461044312,-0.0,-0.0,-1.0,0.1624096540495703,1.0,2.0
32.45075988769531,-26.02021026611328,0.9277896881103516,-0.0,-0.0,-1.0,0.0953147639200814,1.0,1.0
32.657962799072266,-26.36981773376465,0.8461810350418091,-0.0,-0.0,-1.0,0.116578585494855,1.0,1.0
32.24561309814453,-26.806427001953125,1.2943737506866455,0.5339252450788211,0.5811361880712365,-0.6141698165666828,0.1489268278771496,3.0,2.0
30.33403778076172,-25.988380432128903,1.043460488319397,-0.0,-0.0,-1.0,0.0672454666452664,2.0,2.0
30.5935001373291,-26.0487060546875,1.0602219104766846,-0.0,-0.0,-1.0,0.0424278183886187,2.0,2.0
30.8273983001709,-26.343793869018555,1.1496155261993408,-0.0,-0.0,-1.0,0.0775770257245018,2.0,2.0
31.04160499572754,-26.648670196533203,0.9746508598327636,-0.0,-0.0,-1.0,0.0338549681707991,1.0,1.0
31.052711486816406,-26.29863548278809,1.0527029037475586,0.2173562829539601,-0.1709762227626615,-0.961001236997253,0.0336812936934199,4.0,2.0
31.15966796875,-26.49118423461914,1.01962411403656,0.3260280690918953,-0.7464685874257858,-0.5800778793841063,0.015322585789731,4.0,2.0
32.39683151245117,-26.590700149536133,1.0735032558441162,-0.0,-0.0,-1.0,0.1479561227073846,1.0,2.0
32.57863998413086,-26.507287979125977,1.0998446941375732,-0.2412848736208767,0.4552606251886546,-0.8570410567263348,0.0947584504913937,3.0,2.0
32.66128921508789,-26.598474502563477,1.0806268453598022,-0.0,-0.0,-1.0,0.1488886128726211,1.0,2.0
32.27299499511719,-26.856510162353516,1.2566903829574585,-0.0,-0.0,-1.0,0.1460051211941755,2.0,2.0
30.284400939941406,-25.700300216674805,1.0381957292556765,-0.3677998946452071,-0.4680602849498084,-0.8035190148040547,0.0459867924559016,3.0,2.0
30.446636199951172,-25.810640335083008,1.0485169887542725,-0.0,-0.0,-1.0,0.0304697435083269,1.0,2.0
30.68956756591797,-25.938386917114254,1.0682942867279053,-0.0,-0.0,-1.0,0.0328416356844939,1.0,2.0
30.88439178466797,-26.187843322753903,1.0517815351486206,-0.0,-0.0,-1.0,0.0205801134119815,2.0,2.0
31.089521408081055,-26.72413444519043,0.9718434810638428,-0.0,-0.0,-1.0,0.0145793943309439,1.0,1.0
31.080747604370117,-26.33395004272461,1.053614616394043,-0.0,-0.0,-1.0,0.0362755275083904,2.0,2.0
31.157251358032227,-26.504064559936523,1.0293797254562378,0.3260280690918953,-0.7464685874257858,-0.5800778793841063,0.015322585789731,4.0,2.0
30.26479721069336,-26.577465057373047,1.1187870502471924,-0.0,-0.0,-1.0,0.0278558347842184,2.0,2.0
30.3072509765625,-26.579326629638672,1.125067114830017,0.1514206946935709,0.1658335371577816,-0.9744593430062928,0.0278558347842185,3.0,2.0
30.672645568847656,-25.07526206970215,1.2292351722717283,-0.0,-0.0,-1.0,0.2129366224276088,2.0,2.0
30.676063537597656,-25.82289123535156,1.0887274742126465,-0.0,-0.0,-1.0,0.0321642919970294,1.0,2.0
30.903636932373047,-26.384729385375977,1.2477556467056274,-0.0,-0.0,-1.0,0.0653290134796223,2.0,2.0
32.2974739074707,-26.75580787658691,1.2349836826324463,-0.0,-0.0,-1.0,0.1489268278771496,1.0,2.0
32.51485061645508,-26.60247039794922,1.1810944080352783,-0.0,-0.0,-1.0,0.1461413593002718,2.0,2.0
32.48139190673828,-26.680007934570312,1.1591850519180298,-0.0,-0.0,-1.0,0.2194524441049204,1.0,2.0
30.25615119934082,-26.221765518188477,1.0486207008361816,-0.0,-0.0,-1.0,0.052464646402154,2.0,2.0
30.59366226196289,-26.376510620117188,1.0820558071136477,-0.0,-0.0,-1.0,0.0248442492519805,1.0,2.0
30.590415954589844,-26.738506317138672,1.01094388961792,-0.0,-0.0,-1.0,0.0180985223526204,1.0,2.0
30.580333709716797,-25.95912742614746,1.1588014364242554,-0.0,-0.0,-1.0,0.0359977273190431,2.0,2.0
30.674001693725582,-26.216880798339844,1.127297043800354,-0.0,-0.0,-1.0,0.0338999421562407,1.0,2.0
32.274051666259766,-26.82728385925293,1.2330652475357056,-0.0,-0.0,-1.0,0.1460051211941755,2.0,2.0
32.43546676635742,-26.769222259521484,1.263979196548462,-0.0,-0.0,-1.0,0.1291023539173432,1.0,2.0
30.918325424194336,-26.375900268554688,1.244646668434143,-0.0,-0.0,-1.0,0.0653290134796223,2.0,2.0
32.59173583984375,-24.824085235595703,0.8669493198394775,-0.0,-0.0,-1.0,0.1943455990732817,1.0,1.0
32.676185607910156,-24.985645294189453,0.9383280277252196,-0.0,-0.0,-1.0,0.1769717391486416,1.0,1.0
32.595848083496094,-24.75979232788086,0.9514169692993164,-0.0,-0.0,-1.0,0.1518757220125892,2.0,1.0
32.53180694580078,-26.37283706665039,0.9711685180664062,-0.946975302664515,-0.222994726160402,-0.2313247246796097,0.1202458309122559,3.0,1.0
32.50202941894531,-26.18968963623047,0.9806842803955078,-0.7867707928102285,0.6095017060245015,0.09746481382523,0.1822542310912261,3.0,1.0
32.42790222167969,-26.602380752563477,0.9890236854553224,-0.0,-0.0,-1.0,0.1865661267244966,1.0,1.0
32.60643768310547,-26.23678398132324,0.8880767822265625,-0.7192480461178925,-0.1859461136948275,-0.6694074177639389,0.1881648278786796,3.0,1.0
32.67150115966797,-24.76033592224121,0.9141674041748048,-0.61743253129615,0.5015611369215459,-0.6059814314211244,0.1600092785789578,3.0,1.0
32.6748161315918,-25.11564826965332,0.9088571071624756,-0.0,-0.0,-1.0,0.0820501537679767,1.0,1.0
32.58154296875,-24.87240982055664,0.9323806762695312,-0.0,-0.0,-1.0,0.240762841840878,1.0,1.0
32.475189208984375,-26.1553897857666,0.9190707206726074,-0.0,-0.0,-1.0,0.0980591180045295,1.0,1.0
32.36113357543945,-25.952247619628903,0.9515960216522216,-0.0,-0.0,-1.0,0.0733809185784186,2.0,1.0
32.53663635253906,-26.404815673828125,0.8946459293365479,-0.0,-0.0,-1.0,0.155391968037599,1.0,1.0
32.6373176574707,-24.836639404296875,0.9917118549346924,0.3102408659969383,0.2575305018506301,-0.9151112750272684,0.1850561844290617,4.0,1.0
32.229366302490234,-24.407167434692383,0.7049212455749512,-0.0,-0.0,-1.0,0.0311155935201946,1.0,1.0
32.46303939819336,-26.563804626464844,0.9368422031402588,-0.0,-0.0,-1.0,0.1567182270804197,1.0,1.0
32.49368667602539,-26.19632148742676,0.9548113346099854,-0.2715533632503891,0.949717070892048,-0.1558725638578864,0.1879713626177772,3.0,1.0
32.00748825073242,-24.509490966796875,0.7525050640106201,-0.0,-0.0,-1.0,0.0545191088341653,2.0,1.0
31.837909698486328,-24.85323143005371,0.7773854732513428,-0.0,-0.0,-1.0,0.0623079127912694,1.0,1.0
31.662538528442383,-24.695070266723633,0.8242588043212891,-0.0,-0.0,-1.0,0.0249989140486711,2.0,1.0
31.40685272216797,-25.129451751708984,0.8612000942230225,0.5857333567946124,0.310554812942955,-0.74864687463188,0.1274060008825041,3.0,1.0
31.113292694091797,-24.586570739746097,0.9546060562133788,-0.0,-0.0,-1.0,0.0356437159690951,1.0,1.0
30.74075508117676,-25.19940948486328,1.006617784500122,-0.8307050690831661,-0.5290394998396142,0.1733386737256972,0.0796180930366542,3.0,2.0
30.860675811767575,-24.91492462158203,0.9959375858306884,-0.0,-0.0,-1.0,0.0861772489486939,1.0,1.0
30.892314910888672,-24.520591735839844,1.007913589477539,0.5056552574113795,-0.8622757715257676,0.0281647739538883,0.1185334438242948,3.0,2.0
30.705951690673828,-25.329832077026367,1.0059866905212402,-0.0,-0.0,-1.0,0.0436335257504181,1.0,2.0
30.693763732910156,-24.90464782714844,1.03430438041687,-0.0,-0.0,-1.0,0.1786412240477759,1.0,2.0
30.774656295776367,-24.68518829345703,1.027343511581421,-0.0,-0.0,-1.0,0.1013112306906223,1.0,2.0
30.474504470825195,-25.661602020263672,1.0333497524261477,-0.0,-0.0,-1.0,0.0288993806318111,1.0,2.0
30.458213806152344,-25.489959716796875,1.049652338027954,-0.0,-0.0,-1.0,0.0583186824431334,1.0,2.0
30.536327362060547,-25.13154029846191,1.0563983917236328,-0.0,-0.0,-1.0,0.0876350770535473,2.0,2.0
30.311307907104492,-25.861711502075195,1.0525665283203125,-0.0,-0.0,-1.0,0.0796859942652275,2.0,2.0
31.99841690063477,-24.47259521484375,0.7278642654418945,-0.0,-0.0,-1.0,0.0442073212422919,2.0,1.0
32.69859313964844,-24.751096725463867,0.9721477031707764,-0.0,-0.0,-1.0,0.1530169503847979,1.0,1.0
32.541038513183594,-26.258934020996097,0.9182031154632568,-0.6330815652498392,0.7562631464106158,0.1651477675354078,0.1843878936246203,3.0,1.0
32.62019348144531,-26.007007598876953,0.9205648899078368,-0.0,-0.0,-1.0,0.0835359594111878,2.0,1.0
32.62049102783203,-24.869165420532227,0.9818038940429688,-0.0,-0.0,-1.0,0.1350605529422796,2.0,1.0
32.433223724365234,-26.63286018371582,0.9103069305419922,-0.0,-0.0,-1.0,0.1672783789299912,2.0,1.0
32.50416564941406,-26.353784561157227,0.9181525707244872,-0.0,-0.0,-1.0,0.1443988106881233,1.0,1.0
32.399070739746094,-26.046510696411133,0.9577581882476808,-0.0,-0.0,-1.0,0.081976062021093,2.0,1.0
31.863380432128903,-26.856277465820312,0.990877628326416,-0.0,-0.0,-1.0,0.0623013820386488,1.0,1.0
31.4276123046875,-24.500194549560547,0.8534047603607178,-0.0,-0.0,-1.0,0.0294196117732731,2.0,1.0
31.350889205932617,-24.517602920532227,0.8695371150970459,-0.0,-0.0,-1.0,0.0287369356294508,2.0,1.0
30.690338134765625,-24.947757720947266,0.9870681762695312,-0.0,-0.0,-1.0,0.1232235079118714,1.0,1.0
