x,y,z,nx,ny,nz,curvature,density,label
44.89095687866211,22.500886917114254,-2.30322265625,0.1090860804834451,-0.3976243589411936,-0.9110406666122892,0.1230452719629607,3.0,0.0
44.492286682128906,22.822093963623047,-2.2601776123046875,-0.0,-0.0,-1.0,0.0216077662390156,2.0,0.0
44.93345260620117,22.79129981994629,-2.341872215270996,-0.0,-0.0,-1.0,0.2341344488332005,2.0,0.0
43.16925811767578,20.673669815063477,-1.7871379852294922,-0.0,-0.0,-1.0,0.2030083694542171,2.0,0.0
42.802452087402344,22.508867263793945,-1.9015636444091797,-0.958728114314845,-0.0786541023802249,0.2732287228698017,0.1465196528933524,3.0,0.0
42.95928955078125,20.772274017333984,-2.141300916671753,-0.0,-0.0,-1.0,0.1734178593813485,2.0,0.0
43.00636291503906,20.64969062805176,-2.1387221813201904,-0.0,-0.0,-1.0,0.1651456117267078,1.0,0.0
43.09080505371094,21.273948669433594,-2.2267215251922607,-0.0,-0.0,-1.0,0.0485178971256932,1.0,0.0
43.56719970703125,21.255870819091797,-2.3322947025299072,-0.0,-0.0,-1.0,0.0340782642546854,2.0,0.0
43.285179138183594,21.65271759033203,-2.314112424850464,-0.0,-0.0,-1.0,0.0532707819033292,1.0,0.0
43.44445037841797,21.439449310302734,-2.325308084487915,-0.0,-0.0,-1.0,0.0336178060628201,1.0,0.0
42.962181091308594,22.197471618652344,-2.306802988052368,-0.0,-0.0,-1.0,0.0280443140858823,1.0,0.0
43.15597152709961,22.048282623291016,-2.332033395767212,-0.0,-0.0,-1.0,0.0258492338748138,1.0,0.0
42.827247619628906,22.363306045532227,-2.2972757816314697,-0.0,-0.0,-1.0,0.1059739562381116,1.0,0.0
42.843849182128906,20.74606704711914,-2.112250566482544,-0.0,-0.0,-1.0,0.1277807929097703,1.0,0.0
44.544532775878906,21.75736427307129,-1.8669383525848389,-0.4590215076375896,0.4367991940606886,-0.7736315140905565,0.2088311871438758,3.0,0.0
44.40581512451172,21.86381149291992,-1.8517773151397705,-0.0,-0.0,-1.0,0.2482296137332312,2.0,0.0
44.668113708496094,21.93181610107422,-1.9087283611297607,-0.0,-0.0,-1.0,0.1917603305201974,1.0,0.0
44.97845458984375,22.76876449584961,-2.0578744411468506,-0.4592747004648126,-0.4571928564754524,-0.7616045177785994,0.2450713823596355,3.0,0.0
42.76484680175781,22.648178100585938,-1.629103422164917,-0.0,-0.0,-1.0,0.0832407105213805,2.0,0.0
43.02693939208984,22.952016830444336,-1.7131965160369873,-0.0,-0.0,-1.0,0.2524777609978274,1.0,0.0
43.968143463134766,21.25680923461914,-2.2898108959198,0.9987227725437462,0.0477427306220976,-0.0165364831593254,0.1559931453597353,4.0,0.0
43.88542175292969,21.568601608276367,-2.3067758083343506,-0.0,-0.0,-1.0,0.0307244808648475,1.0,0.0
44.19375228881836,21.623077392578125,-2.3838422298431396,-0.0,-0.0,-1.0,0.0358171206323696,2.0,0.0
43.63761901855469,22.017242431640625,-2.3035480976104736,-0.0,-0.0,-1.0,0.016086662394906,1.0,0.0
43.96808624267578,21.79344367980957,-2.3521173000335693,-0.0,-0.0,-1.0,0.021980828921319,1.0,0.0
43.52138137817383,22.26885986328125,-2.308066129684448,-0.0,-0.0,-1.0,0.0207431897459814,2.0,0.0
42.97688674926758,20.76540756225586,-2.005889654159546,-0.0,-0.0,-1.0,0.171512633470517,1.0,0.0
43.7679328918457,20.74549865722656,-2.1867597103118896,-0.0,-0.0,-1.0,0.1153078317974483,1.0,0.0
43.301116943359375,21.281068801879883,-2.1390106678009033,-0.0,-0.0,-1.0,0.0469090982884859,1.0,0.0
43.422096252441406,21.73689079284668,-2.2203938961029053,-0.0,-0.0,-1.0,0.0474430210414741,1.0,0.0
42.72227478027344,22.470888137817383,-2.152702569961548,-0.5765241534787989,-0.8061396105956499,-0.133262255287264,0.0733211274933438,3.0,0.0
43.1171989440918,22.403060913085938,-2.2332828044891357,-0.0,-0.0,-1.0,0.0363370482477263,1.0,0.0
43.37068557739258,22.355955123901367,-2.28475022315979,-0.0,-0.0,-1.0,0.027178908168313,2.0,0.0
44.65198516845703,21.81243133544922,-1.7991769313812256,0.6231544335698652,-0.7714221726091723,0.1287881342716172,0.2212212083924689,5.0,0.0
45.07698822021485,21.686626434326172,-2.3989298343658447,-0.0,-0.0,-1.0,0.1026967955389707,1.0,0.0
44.6234130859375,22.09556770324707,-2.346237897872925,-0.0,-0.0,-1.0,0.1705228173266672,1.0,0.0
44.69712829589844,22.35877799987793,-2.397691011428833,-0.0,-0.0,-1.0,0.1937730612280845,2.0,0.0
44.79045867919922,22.423648834228516,-2.4275496006011963,-0.0,-0.0,-1.0,0.18263702779246,1.0,0.0
43.222015380859375,20.67438316345215,-1.8448989391326904,-0.0,-0.0,-1.0,0.1706977807869491,1.0,0.0
43.864261627197266,20.74397087097168,-2.002822160720825,-0.0,-0.0,-1.0,0.1455524016429416,2.0,0.0
44.01155853271485,20.93893241882324,-2.0603177547454834,-0.0,-0.0,-1.0,0.0899136490508241,1.0,0.0
44.0350341796875,21.13663101196289,-2.0896952152252197,0.4678291350386305,-0.6362629171031606,-0.6134373649594422,0.135602144388852,4.0,0.0
44.57086181640625,21.67560577392578,-2.2805049419403076,-0.0,-0.0,-1.0,0.2053841432910606,2.0,0.0
44.467796325683594,21.878732681274418,-2.282508134841919,-0.5266740366148093,0.7514850622715746,-0.3973470275949604,0.1231751899986623,3.0,0.0
44.26766204833984,22.52019500732422,-2.320935010910034,-0.0,-0.0,-1.0,0.0178661506959862,1.0,0.0
44.39552307128906,22.496383666992188,-2.346916437149048,-0.0,-0.0,-1.0,0.0352663780513119,2.0,0.0
43.97954559326172,22.652769088745117,-2.273355722427368,-0.0,-0.0,-1.0,0.0226738449533133,1.0,0.0
44.138938903808594,22.57655143737793,-2.299225091934204,-0.0,-0.0,-1.0,0.0234711218534276,1.0,0.0
44.73201751708984,21.75292205810547,-1.6506054401397705,-0.0,-0.0,-1.0,0.1431166814997549,2.0,0.0
43.83707427978515,20.70197868347168,-2.0917611122131348,-0.0,-0.0,-1.0,0.1480143066187063,1.0,0.0
43.985145568847656,21.00678253173828,-2.1715898513793945,-0.0,-0.0,-1.0,0.1369303723229434,1.0,0.0
44.04161834716797,21.12373733520508,-2.2025299072265625,0.4556149908458755,0.3635245248082824,-0.8125668587749719,0.1047483887161843,3.0,0.0
44.53901672363281,21.559234619140625,-2.389357566833496,-0.0,-0.0,-1.0,0.1887462710412106,1.0,0.0
44.26100158691406,21.904247283935547,-2.3724684715270996,-0.0,-0.0,-1.0,0.080372360959024,2.0,0.0
44.44941711425781,21.699146270751953,-2.3878707885742188,-0.0,-0.0,-1.0,0.0926290120576096,1.0,0.0
43.54329299926758,22.46824073791504,-2.285853385925293,-0.0,-0.0,-1.0,0.0211187145189261,1.0,0.0
43.881046295166016,22.313220977783203,-2.343106269836426,-0.0,-0.0,-1.0,0.0174392884479017,1.0,0.0
44.09555435180664,22.14294052124023,-2.36856460571289,-0.0,-0.0,-1.0,0.023216012817351,1.0,0.0
43.45513916015625,22.552505493164062,-2.278285503387451,-0.0,-0.0,-1.0,0.0198095139729289,1.0,0.0
43.08366394042969,20.859704971313477,-1.9258370399475095,-0.0,-0.0,-1.0,0.1740901340064827,2.0,0.0
44.60784912109375,21.788135528564453,-1.800886631011963,-0.3422934433148156,-0.7466632504879817,-0.5703763573592517,0.2520679330942736,4.0,0.0
45.07210922241211,22.795879364013672,-2.0411362648010254,-0.0,-0.0,-1.0,0.1703422311401541,2.0,0.0
42.8795051574707,20.795822143554688,-2.2503037452697754,-0.0,-0.0,-1.0,0.2061971325749725,1.0,0.0
44.60367965698242,21.663976669311523,-2.173614978790283,-0.1765077934407723,0.977385021246444,-0.1164625222883227,0.1970801754619346,4.0,0.0
44.51337432861328,21.96945571899414,-2.1933836936950684,0.6944088501766574,0.4919530887926407,-0.5251461770057103,0.1834707344470322,5.0,0.0
44.698184967041016,22.31693649291992,-2.2756099700927734,-0.0,-0.0,-1.0,0.1650536360452974,1.0,0.0
44.223609924316406,22.85070037841797,-2.250998020172119,-0.3371178437653498,0.0847137499769631,-0.9376433970224726,0.0387982377678205,4.0,0.0
44.665672302246094,22.811046600341797,-2.3344411849975586,-0.0,-0.0,-1.0,0.0860687327718891,1.0,0.0
44.8914680480957,22.676475524902344,-2.362032890319824,-0.0,-0.0,-1.0,0.1733023412283941,1.0,0.0
43.89216995239258,20.799814224243164,-1.9229384660720823,-0.0,-0.0,-1.0,0.1490284698072427,2.0,0.0
43.91829681396485,21.14493179321289,-1.9690648317337036,-0.0,-0.0,-1.0,0.1885594678912662,2.0,0.0
44.02500915527344,21.12268447875977,-1.988547921180725,-0.0,-0.0,-1.0,0.1529098381123487,1.0,0.0
44.20811462402344,21.41493225097656,-2.0615859031677246,-0.0,-0.0,-1.0,0.1238617142383338,1.0,0.0
44.472774505615234,21.83127212524414,-2.167586326599121,0.1309031673039218,-0.8143736262907861,-0.565384787195231,0.1924420616983539,6.0,0.0
44.65214157104492,21.76712226867676,-1.5941563844680786,-0.0,-0.0,-1.0,0.1488362121383513,1.0,0.0
43.549705505371094,21.27264976501465,-2.2946712970733643,-0.0,-0.0,-1.0,0.0646203644343354,2.0,0.0
43.74249267578125,21.2779541015625,-2.338658094406128,-0.0,-0.0,-1.0,0.0675465108182623,1.0,0.0
43.28594970703125,21.815540313720703,-2.302928924560547,-0.0,-0.0,-1.0,0.0492541006223286,2.0,0.0
43.41284942626953,21.618816375732425,-2.306403398513794,-0.0,-0.0,-1.0,0.0469607753884028,1.0,0.0
43.84513854980469,21.45496940612793,-2.3829352855682373,-0.0,-0.0,-1.0,0.0308310411667226,1.0,0.0
43.267486572265625,22.02779960632324,-2.326275587081909,-0.0,-0.0,-1.0,0.0245023674630245,1.0,0.0
42.92707061767578,22.51308822631836,-2.316509246826172,-0.0,-0.0,-1.0,0.134200464493545,2.0,0.0
43.08028793334961,20.638992309570312,-2.114461660385132,-0.0,-0.0,-1.0,0.1330941827224084,1.0,0.0
43.0607795715332,20.834184646606445,-2.13257360458374,-0.0,-0.0,-1.0,0.2341592695915004,1.0,0.0
43.56956100463867,20.662128448486328,-2.2281641960144043,-0.0,-0.0,-1.0,0.1075030807641991,1.0,0.0
44.22378921508789,21.43526077270508,-1.9125206470489504,-0.0,-0.0,-1.0,0.1628661439823662,1.0,0.0
44.40507507324219,21.43926239013672,-1.947498798370361,-0.0,-0.0,-1.0,0.167385391585336,1.0,0.0
44.61317825317383,21.71839141845703,-2.0169413089752197,0.0828087273233166,0.8631997253878447,-0.4980250483353645,0.1539149994815423,4.0,0.0
42.98945617675781,22.141246795654297,-2.2799787521362305,-0.0,-0.0,-1.0,0.0345288396523077,1.0,0.0
44.43059539794922,22.0471248626709,-2.0183722972869873,0.0800795980052866,0.060777912440045,-0.9949338185742516,0.213387725613597,3.0,0.0
44.62273406982422,21.982669830322266,-2.047569274902344,-0.0,-0.0,-1.0,0.2696640025116693,1.0,0.0
42.783992767333984,22.397647857666016,-2.269636869430542,-0.0,-0.0,-1.0,0.1402951535039043,1.0,0.0
44.773582458496094,22.461849212646484,-2.1295716762542725,-0.0,-0.0,-1.0,0.1194715263326559,1.0,0.0
44.92805480957031,22.818359375,-2.1995174884796143,-0.0,-0.0,-1.0,0.2107454267420737,2.0,0.0
44.99713897705078,22.927888870239254,-2.225133895874023,-0.0,-0.0,-1.0,0.1746677962763388,1.0,0.0
45.14778137207031,23.12295150756836,-2.276078701019287,-0.0,-0.0,-1.0,0.2116799469881879,1.0,0.0
43.884544372558594,20.83169937133789,-1.784822702407837,-0.0,-0.0,-1.0,0.1343145177335483,1.0,0.0
43.97237014770508,21.23174476623535,-1.8430349826812744,-0.0,-0.0,-1.0,0.1851590532562178,1.0,0.0
44.122100830078125,21.2359619140625,-1.8720719814300537,-0.0,-0.0,-1.0,0.218242492439964,2.0,0.0
42.85681915283203,22.462757110595703,-1.772794246673584,-0.0,-0.0,-1.0,0.2143955433406339,2.0,0.0
42.99156951904297,22.611080169677734,-1.815654754638672,-0.0,-0.0,-1.0,0.1049079588074144,1.0,0.0
43.01696014404297,22.851703643798828,-1.8499081134796145,-0.0,-0.0,-1.0,0.1959674731689045,2.0,0.0
43.151100158691406,20.788009643554688,-2.022733211517334,-0.0,-0.0,-1.0,0.189945731234568,1.0,0.0
43.8249397277832,20.76470947265625,-2.17378568649292,-0.0,-0.0,-1.0,0.1425930990171348,1.0,0.0
42.72345352172851,21.177738189697266,-1.9807612895965576,-0.0,-0.0,-1.0,0.1320462931402774,1.0,0.0
43.56856155395508,21.37432861328125,-2.1998977661132812,-0.0,-0.0,-1.0,0.0329085740412139,1.0,0.0
43.98678970336914,21.127309799194336,-2.2601799964904785,0.5097757660149208,-0.7825674169734239,-0.357375021896388,0.1138989017220301,4.0,0.0
44.04106521606445,21.353578567504883,-2.30407190322876,-0.0,-0.0,-1.0,0.1613634729051948,1.0,0.0
43.75910186767578,21.661956787109375,-2.284446954727173,-0.0,-0.0,-1.0,0.0231294064544877,1.0,0.0
44.18930435180664,21.62625503540039,-2.376401662826538,-0.0,-0.0,-1.0,0.0358171206323696,2.0,0.0
43.61872863769531,22.08863639831543,-2.3165977001190186,-0.0,-0.0,-1.0,0.0208613081291186,2.0,0.0
43.73202896118164,21.95122718811035,-2.3211846351623535,-0.0,-0.0,-1.0,0.0118699905171953,1.0,0.0
44.056514739990234,21.84087371826172,-2.377490520477295,-0.0,-0.0,-1.0,0.0210465404474284,1.0,0.0
43.17334747314453,22.45877265930176,-2.2755117416381836,-0.0040456435648579,0.8243428026272177,-0.566076475862449,0.0254967148058058,3.0,0.0
43.456512451171875,22.35754776000977,-2.321946144104004,-0.0,-0.0,-1.0,0.02745085275868,2.0,0.0
44.9648323059082,22.784414291381836,-2.1590166091918945,-0.0,-0.0,-1.0,0.2340272046549321,1.0,0.0
45.20813751220703,23.005952835083008,-2.2351269721984863,-0.0,-0.0,-1.0,0.0681835310697338,2.0,0.0
43.86552429199219,20.949871063232425,-1.710094928741455,-0.0,-0.0,-1.0,0.1037776999794427,1.0,0.0
44.63589859008789,21.714977264404297,-1.955061912536621,-0.8217456215600956,0.1117002412422577,-0.5587997759065703,0.190152010781817,5.0,0.0
45.08861541748047,21.615617752075195,-2.029872179031372,-0.0,-0.0,-1.0,0.1382564199277583,1.0,0.0
44.28407287597656,22.20452308654785,-1.9517910480499268,-0.0,-0.0,-1.0,0.1799867270935904,1.0,0.0
44.56219100952149,21.99815368652344,-1.9775466918945312,0.8651912046344133,0.4632734114264382,-0.1918904001990792,0.1967929148045425,3.0,0.0
44.61710357666016,22.239707946777344,-2.0198001861572266,-0.0,-0.0,-1.0,0.1789180601852275,1.0,0.0
43.40538024902344,21.325939178466797,-2.291128158569336,-0.0,-0.0,-1.0,0.0336498422419891,1.0,0.0
43.65719985961914,21.33967399597168,-2.356485605239868,-0.0,-0.0,-1.0,0.0279383485951813,1.0,0.0
43.317176818847656,21.69053649902344,-2.330374002456665,-0.0,-0.0,-1.0,0.0526580621238548,2.0,0.0
42.95547866821289,22.03815269470215,-2.302424430847168,-0.0,-0.0,-1.0,0.0289001071801343,1.0,0.0
43.174415588378906,21.885499954223633,-2.328745603561402,-0.0,-0.0,-1.0,0.0324062797760895,2.0,0.0
42.79065704345703,22.43601417541504,-2.3350718021392822,-0.0,-0.0,-1.0,0.1183448717754921,1.0,0.0
45.099491119384766,22.59973907470703,-2.390626907348633,-0.0,-0.0,-1.0,0.2097615288988963,1.0,0.0
43.848655700683594,20.658016204833984,-1.8351263999938965,-0.0,-0.0,-1.0,0.1330040551653265,1.0,0.0
43.00415802001953,20.763906478881836,-2.0993430614471436,-0.0,-0.0,-1.0,0.1966527721451885,2.0,0.0
43.15543746948242,20.713369369506836,-2.1297667026519775,-0.0,-0.0,-1.0,0.2090944534105332,1.0,0.0
44.08161163330078,21.224834442138672,-1.965806007385254,-0.0,-0.0,-1.0,0.1748713409819723,1.0,0.0
44.58086013793945,21.73697280883789,-2.1489078998565674,0.9448357857977628,-0.3246208243712323,0.0436652981263811,0.2286201337202402,5.0,0.0
44.52928161621094,21.99226951599121,-2.1757261753082275,0.5765298881899144,-0.7120990571175911,0.4006597320370026,0.2295744480272841,3.0,0.0
42.854034423828125,22.564695358276367,-1.9127423763275144,-0.0,-0.0,-1.0,0.2769475124142732,1.0,0.0
44.6648063659668,22.28072738647461,-2.2486050128936768,-0.0,-0.0,-1.0,0.1676581093596773,2.0,0.0
44.186920166015625,22.76668357849121,-2.223632574081421,-0.0,-0.0,-1.0,0.0364133283114542,2.0,0.0
44.55070495605469,22.82085227966309,-2.308892011642456,-0.0,-0.0,-1.0,0.0509261929901784,1.0,0.0
44.90679168701172,22.72814559936523,-2.3695931434631348,-0.0,-0.0,-1.0,0.2100000974634325,2.0,0.0
42.79283142089844,22.429283142089844,-1.8774449825286863,-0.4664181845939271,0.1438244864459285,-0.8727935575946183,0.0829346073790752,4.0,0.0
42.80588150024414,20.80693626403809,-2.260190725326538,-0.0,-0.0,-1.0,0.1720274158082145,1.0,0.0
44.24674224853515,21.377748489379883,-2.324742078781128,-0.0,-0.0,-1.0,0.0722921107938834,1.0,0.0
44.29492950439453,21.66107940673828,-2.3838088512420654,-0.0,-0.0,-1.0,0.0747581181270243,2.0,0.0
44.000244140625,21.936620712280273,-2.354698419570923,-0.0,-0.0,-1.0,0.0142583426579129,1.0,0.0
44.19709396362305,21.782142639160156,-2.3787386417388916,-0.0,-0.0,-1.0,0.0368640456403307,1.0,0.0
43.688838958740234,22.31944274902344,-2.343271017074585,-0.0,-0.0,-1.0,0.0161353173258977,2.0,0.0
43.80967330932617,22.205856323242188,-2.353280544281006,-0.0,-0.0,-1.0,0.0117522397504204,1.0,0.0
43.15920639038086,20.83573341369629,-1.95320987701416,-0.0,-0.0,-1.0,0.1720347036901573,2.0,0.0
43.982933044433594,20.89215850830078,-2.178349494934082,0.3576774791041026,-0.0947044842973992,-0.9290306139173768,0.1067719783131367,3.0,0.0
43.994049072265625,21.099838256835938,-2.2139861583709717,0.7063282164137268,-0.5022550367242016,-0.498838980817432,0.1350081436015223,4.0,0.0
44.91858673095703,21.258468627929688,-2.0072195529937744,-0.0,-0.0,-1.0,0.1793333541419405,1.0,0.0
44.665504455566406,21.707366943359375,-2.01413631439209,-0.054879905654421,0.9006037222408079,-0.4311625348303857,0.1839026550173649,3.0,0.0
43.72565078735352,22.086505889892575,-2.310823917388916,-0.0,-0.0,-1.0,0.0162869805105701,1.0,0.0
44.51124572753906,22.044198989868164,-2.030027151107788,0.9433542411063692,0.130182377067756,0.3051808062241385,0.1922382945669482,3.0,0.0
44.66920471191406,21.93272399902344,-2.048502206802368,-0.0,-0.0,-1.0,0.2084947224764519,1.0,0.0
45.15782165527344,21.787105560302734,-2.137331247329712,-0.0,-0.0,-1.0,0.1360285037271191,2.0,0.0
42.756874084472656,22.443178176879883,-2.1347622871398926,-0.1227375075178532,-0.6135897541137674,-0.78002763918653,0.0722422028820821,4.0,0.0
43.31023406982422,22.50457000732422,-2.2827818393707275,-0.0,-0.0,-1.0,0.0231548414193759,1.0,0.0
43.47840881347656,22.39341735839844,-2.3039979934692383,-0.0,-0.0,-1.0,0.0284066518897511,2.0,0.0
44.34414291381836,22.31407928466797,-2.0345470905303955,-0.0,-0.0,-1.0,0.1464143651595918,1.0,0.0
44.829715728759766,22.472488403320312,-2.1669294834136963,-0.0,-0.0,-1.0,0.1050539303116192,1.0,0.0
44.95294570922851,22.803937911987305,-2.2463181018829346,-0.0,-0.0,-1.0,0.1910104210373999,1.0,0.0
44.34549331665039,21.318397521972656,-1.88480544090271,-0.0,-0.0,-1.0,0.1299467834286463,1.0,0.0
42.806758880615234,22.631649017333984,-1.752937078475952,-0.0,-0.0,-1.0,0.1660809878792888,2.0,0.0
43.945838928222656,20.89511489868164,-2.19293212890625,-0.0,-0.0,-1.0,0.1090654586892317,2.0,0.0
44.02709197998047,21.17462730407715,-2.268036365509033,-0.0,-0.0,-1.0,0.1418486413727088,2.0,0.0
44.08747863769531,21.261180877685547,-2.3011202812194824,-0.0,-0.0,-1.0,0.1134210339958946,1.0,0.0
44.05567932128906,21.774089813232425,-2.392615795135498,-0.0,-0.0,-1.0,0.0300741400456931,1.0,0.0
44.17253494262695,21.679916381835938,-2.4059271812438965,-0.0,-0.0,-1.0,0.0382047215208138,1.0,0.0
43.603363037109375,22.0490665435791,-2.327024221420288,-0.0,-0.0,-1.0,0.018469962414442,2.0,0.0
43.81062316894531,21.857702255249023,-2.343000888824463,-0.0,-0.0,-1.0,0.0173775503794524,1.0,0.0
45.19518280029297,21.83952522277832,-2.2548093795776367,-0.0,-0.0,-1.0,0.1410161720505449,1.0,0.0
43.18929290771485,22.440330505371097,-2.302481889724731,-0.0040456435648579,0.8243428026272177,-0.566076475862449,0.0189145286134848,3.0,0.0
43.45744323730469,22.298023223876953,-2.3413681983947754,-0.0,-0.0,-1.0,0.0246622765314089,1.0,0.0
44.74892807006836,22.348989486694336,-2.2377748489379883,-0.0,-0.0,-1.0,0.1853199812377933,2.0,0.0
44.478546142578125,22.805089950561523,-2.2597973346710205,-0.0,-0.0,-1.0,0.0217812928321421,2.0,0.0
44.88621520996094,22.781986236572266,-2.3509323596954346,0.2561635076019618,-0.4869096725149922,-0.8350444468316662,0.1765436885301562,3.0,0.0
45.061241149902344,22.682861328125,-2.3736824989318848,-0.0,-0.0,-1.0,0.2176454709069129,1.0,0.0
43.139503479003906,20.82813262939453,-1.9548563957214355,-0.0,-0.0,-1.0,0.1885269830631664,2.0,0.0
43.43952941894531,20.891742706298828,-2.0504093170166016,-0.0,-0.0,-1.0,0.178109245802134,1.0,0.0
43.901065826416016,20.92881774902344,-1.781982421875,-0.0,-0.0,-1.0,0.1546566930591295,1.0,0.0
44.14369583129883,21.238872528076172,-1.8942480087280271,-0.0,-0.0,-1.0,0.2132417343220879,2.0,0.0
44.85795974731445,21.30000114440918,-2.0804121494293213,-0.0,-0.0,-1.0,0.1566549485341749,1.0,0.0
44.62937545776367,21.734886169433594,-2.098766326904297,-0.0,-0.0,-1.0,0.1297513400577423,2.0,0.0
44.49263000488281,21.95208740234375,-2.104299306869507,0.7961853342936261,-0.530290398106882,0.2913434521855457,0.1395675616425691,3.0,0.0
44.5767707824707,21.892051696777344,-2.113800525665283,-0.0,-0.0,-1.0,0.1609474687701991,2.0,0.0
42.784088134765625,22.574920654296875,-1.8265619277954104,-0.8533045785704139,-0.3967017344089047,-0.3383770531636784,0.1847675933358397,3.0,0.0
44.66111755371094,22.297643661499023,-2.207451820373535,-0.0,-0.0,-1.0,0.1846164317112605,2.0,0.0
42.7152099609375,22.89697265625,-1.8783328533172607,-0.0,-0.0,-1.0,0.1164805221087519,1.0,0.0
42.951515197753906,22.912214279174805,-1.933607816696167,-0.0,-0.0,-1.0,0.1747482287592238,1.0,0.0
44.666133880615234,21.72473526000977,-1.670182704925537,-0.0,-0.0,-1.0,0.1645216763416117,2.0,0.0
45.00958633422851,20.748035430908203,-2.279407501220703,-0.0,-0.0,-1.0,0.1730277850665705,1.0,0.0
44.438236236572266,21.817262649536133,-2.327108860015869,-0.0,-0.0,-1.0,0.1245099147992037,1.0,0.0
44.52408981323242,21.717247009277344,-2.330193519592285,0.3519503700169675,-0.6417159330056175,-0.6814188127514896,0.1536644193563401,4.0,0.0
44.27735900878906,22.041595458984375,-2.330923557281494,-0.0,-0.0,-1.0,0.0832119444605782,1.0,0.0
43.9011116027832,22.458255767822266,-2.3218932151794434,-0.0,-0.0,-1.0,0.0150023942786168,1.0,0.0
44.103851318359375,22.262815475463867,-2.331954002380371,-0.0,-0.0,-1.0,0.01728449623534,1.0,0.0
43.89361953735352,20.84657096862793,-1.9739054441452024,-0.0,-0.0,-1.0,0.1461486395246915,1.0,0.0
44.25681686401367,20.727584838867188,-2.055457592010498,-0.0,-0.0,-1.0,0.1553630634505657,1.0,0.0
43.946781158447266,21.12830924987793,-2.04561710357666,-0.0,-0.0,-1.0,0.2492570622691277,2.0,0.0
44.03850555419922,21.12101936340332,-2.070204257965088,0.5003226835674297,-0.6539370308753891,-0.567488829808804,0.0948262636500238,4.0,0.0
44.897705078125,21.379547119140625,-1.958401799201965,-0.0,-0.0,-1.0,0.1334675276673629,1.0,0.0
44.5712890625,21.768733978271484,-1.9481524229049685,0.3959033839466355,0.5613411114692968,-0.7267438800251553,0.2009658855087938,3.0,0.0
45.080223083496094,21.720186233520508,-2.0662007331848145,-0.0,-0.0,-1.0,0.1451280719005999,1.0,0.0
44.31966018676758,22.081645965576172,-1.9466949701309204,-0.0,-0.0,-1.0,0.1830332338175141,1.0,0.0
44.56281661987305,21.992393493652344,-1.9886325597763064,0.8651912046344133,0.4632734114264382,-0.1918904001990792,0.2045284461518698,3.0,0.0
45.11973571777344,21.85742950439453,-2.1012563705444336,-0.0,-0.0,-1.0,0.1210671862705085,1.0,0.0
42.98888397216797,22.602153778076172,-2.116940975189209,-0.0,-0.0,-1.0,0.1465256280726263,1.0,0.0
43.46267318725586,22.637474060058594,-2.247847557067871,-0.0,-0.0,-1.0,0.0151295736676179,2.0,0.0
44.12278366088867,22.42060089111328,-1.9666897058486936,-0.0,-0.0,-1.0,0.0994947692949498,1.0,0.0
44.62415313720703,22.281370162963867,-2.0596799850463867,-0.0,-0.0,-1.0,0.1560417806568147,2.0,0.0
44.93562698364258,22.557437896728516,-2.1895861625671387,-0.0,-0.0,-1.0,0.1383356618359927,2.0,0.0
43.273582458496094,22.727441787719727,-2.220353603363037,-0.0,-0.0,-1.0,0.0663163226743326,1.0,0.0
43.48088073730469,22.71044158935547,-2.269937515258789,-0.0,-0.0,-1.0,0.016137921044188,2.0,0.0
44.823760986328125,22.772815704345703,-2.205495834350586,-0.0,-0.0,-1.0,0.1483824749330587,2.0,0.0
44.963134765625,22.919527053833008,-2.268437385559082,-0.0,-0.0,-1.0,0.1947284633241791,2.0,0.0
42.87866973876953,22.764812469482425,-1.752205491065979,-0.0,-0.0,-1.0,0.1277907418395256,2.0,0.0
42.984153747558594,22.904491424560547,-1.806815266609192,-0.0,-0.0,-1.0,0.2336690039500728,1.0,0.0
44.92723846435547,22.791908264160156,-2.106816053390503,-0.7004838325190975,0.5241232104329,0.4843730593921043,0.2044867608934784,3.0,0.0
45.014923095703125,22.78780746459961,-2.125750780105591,-0.9706322645510612,-0.2383785142503637,-0.0323834982092411,0.225302245435173,3.0,0.0
44.63123321533203,21.769840240478516,-1.7958521842956543,0.5550794967264422,-0.530372521321362,-0.6407743291839499,0.26265500398453,6.0,0.0
44.37122344970703,22.21951675415039,-1.8412754535675049,-0.0,-0.0,-1.0,0.2385809549368919,1.0,0.0
44.61747360229492,22.12731552124023,-1.8760502338409424,-0.0,-0.0,-1.0,0.2024098467716942,1.0,0.0
44.62882995605469,22.310333251953125,-1.9222047328948977,-0.0,-0.0,-1.0,0.1966262742698115,2.0,0.0
43.14174270629883,22.64044952392578,-2.2632477283477783,0.2834333687281815,0.6258286219529458,-0.7266388796616047,0.0804563007791725,3.0,0.0
42.93762969970703,22.522449493408203,-2.2709286212921143,-0.0,-0.0,-1.0,0.1557497754843767,2.0,0.0
43.39292526245117,22.753433227539062,-2.248006820678711,-0.0,-0.0,-1.0,0.0166318842154488,1.0,0.0
42.915260314941406,22.63397979736328,-1.8145875930786133,-0.0,-0.0,-1.0,0.110200526328869,1.0,0.0
42.78167724609375,20.797948837280273,-1.9299051761627195,-0.0,-0.0,-1.0,0.1442901577962442,1.0,0.0
43.067195892333984,20.82192039489746,-1.8811790943145752,-0.0,-0.0,-1.0,0.1748928960804996,1.0,0.0
44.21561050415039,21.624427795410156,-1.8566901683807373,-0.0,-0.0,-1.0,0.0892066061753274,1.0,0.0
44.029109954833984,21.437667846679688,-1.844801425933838,-0.0,-0.0,-1.0,0.1267277116905593,1.0,0.0
44.58844375610352,21.93716812133789,-1.870798110961914,-0.0,-0.0,-1.0,0.1298408982641994,1.0,0.0
44.501365661621094,21.756336212158203,-1.8419063091278076,-0.0,-0.0,-1.0,0.2173997660474554,2.0,0.0
43.09590530395508,22.29485321044922,-2.2537245750427246,-0.0,-0.0,-1.0,0.0233050150432754,1.0,0.0
42.86907577514648,22.219009399414062,-2.2745440006256104,-0.0,-0.0,-1.0,0.0931492287311358,2.0,0.0
43.422481536865234,22.616609573364254,-2.274956226348877,-0.0,-0.0,-1.0,0.0178219681796566,1.0,0.0
43.342926025390625,22.445091247558594,-2.2477610111236572,-0.0,-0.0,-1.0,0.0245244201050501,1.0,0.0
44.945953369140625,22.809659957885746,-2.098959684371948,-0.7004838325190975,0.5241232104329,0.4843730593921043,0.2069038339320164,3.0,0.0
44.785423278808594,22.663721084594727,-2.084470272064209,-0.0,-0.0,-1.0,0.1855487684663026,1.0,0.0
42.72825622558594,22.594079971313477,-1.888552188873291,-0.1473781651487534,-0.4228058900887878,-0.8941559459868368,0.1345804909820032,3.0,0.0
42.920562744140625,20.672183990478516,-1.928393602371216,-0.0,-0.0,-1.0,0.1755433161084218,1.0,0.0
43.17435836791992,20.66662979125977,-1.8805489540100095,-0.0,-0.0,-1.0,0.186393226559243,1.0,0.0
44.00958251953125,21.423095703125,-1.904212236404419,-0.0,-0.0,-1.0,0.1693435719322908,1.0,0.0
43.92696762084961,21.15287971496582,-1.8562119007110596,-0.0,-0.0,-1.0,0.1600667900437481,1.0,0.0
43.84133529663086,20.896682739257812,-1.8128302097320557,-0.0,-0.0,-1.0,0.1504198542852808,1.0,0.0
44.72225189208984,22.087308883666992,-1.952193260192871,-0.0,-0.0,-1.0,0.2578642929152556,1.0,0.0
44.50334167480469,21.772918701171875,-1.909008741378784,-0.0,-0.0,-1.0,0.2609297415731367,1.0,0.0
44.266414642333984,21.578208923339844,-1.8992247581481936,-0.0,-0.0,-1.0,0.1091861649432971,1.0,0.0
44.8843994140625,22.103424072265625,-1.9328930377960205,-0.0,-0.0,-1.0,0.2118658684925134,1.0,0.0
44.56315612792969,21.943408966064453,-1.50596284866333,-0.0,-0.0,-1.0,0.1750448094778826,1.0,0.0
42.828636169433594,22.98588180541992,-2.253009080886841,-0.0,-0.0,-1.0,0.1976951052782932,1.0,0.0
43.0760498046875,22.76245880126953,-2.1671907901763916,-0.0,-0.0,-1.0,0.0896781402235599,1.0,0.0
42.8014030456543,22.632041931152344,-2.1797447204589844,-0.0,-0.0,-1.0,0.1423293990537082,1.0,0.0
44.47867584228515,21.780031204223633,-1.7472200393676758,-0.0,-0.0,-1.0,0.177080764187058,2.0,0.0
44.667869567871094,21.747480392456055,-1.7141995429992676,0.4730218096427796,-0.790194484289521,-0.3896704307497395,0.1948858322698255,3.0,0.0
42.92346954345703,22.761341094970703,-2.1312508583068848,-0.0,-0.0,-1.0,0.2596777498634823,1.0,0.0
42.755958557128906,22.67362594604492,-2.136809825897217,-0.0,-0.0,-1.0,0.1111929854944558,2.0,0.0
43.03085708618164,22.72201919555664,-2.107534408569336,-0.0,-0.0,-1.0,0.1805196346917591,1.0,0.0
42.78323745727539,22.55164337158203,-2.106996536254883,-0.0,-0.0,-1.0,0.137121467372583,1.0,0.0
43.412715911865234,23.087291717529297,-1.6360512971878052,-0.0,-0.0,-1.0,0.133019901591241,2.0,0.0
42.73176956176758,22.38850975036621,-1.5892754793167114,-0.0,-0.0,-1.0,0.0409818199391514,2.0,0.0
44.33094787597656,21.839859008789062,-1.7375932931900024,-0.0,-0.0,-1.0,0.1829146054736677,1.0,0.0
44.761966705322266,21.739734649658203,-1.6603833436965942,-0.0,-0.0,-1.0,0.1450314334980871,2.0,0.0
44.58182907104492,21.688453674316406,-1.6715315580368042,-0.0,-0.0,-1.0,0.1833447196997519,1.0,0.0
43.71204376220703,22.60244369506836,-2.27663516998291,-0.0,-0.0,-1.0,0.0156726735197592,2.0,0.0
43.39380645751953,22.36056137084961,-2.2616400718688965,0.6142539635844569,0.3817417261280951,-0.6906267608147889,0.0250724428686703,3.0,0.0
43.03770446777344,22.219911575317383,-2.279275894165039,-0.0,-0.0,-1.0,0.0257412875649133,2.0,0.0
42.71912384033203,22.14606475830078,-2.3096423149108887,0.2574758569367337,-0.9197334080996568,0.296304979911046,0.1148080016205241,3.0,0.0
45.20738220214844,22.987701416015625,-2.1950130462646484,-0.0,-0.0,-1.0,0.0632871271867265,2.0,0.0
45.06666564941406,22.758615493774418,-2.151050567626953,-0.0,-0.0,-1.0,0.1621034582775614,1.0,0.0
43.514923095703125,22.37660217285156,-2.248321533203125,-0.0,-0.0,-1.0,0.0236724860032853,1.0,0.0
43.05400848388672,22.182861328125,-2.267890453338623,-0.0,-0.0,-1.0,0.0263599406207738,2.0,0.0
44.87552261352539,22.091524124145508,-2.0025181770324707,-0.0,-0.0,-1.0,0.2251262106311855,1.0,0.0
42.84908676147461,22.62525177001953,-1.9047809839248655,-0.0,-0.0,-1.0,0.2119821933541407,1.0,0.0
42.90388870239258,22.51791000366211,-1.8756121397018433,-0.0,-0.0,-1.0,0.1797660780873944,1.0,0.0
44.93610382080078,21.90037727355957,-1.947092890739441,-0.0,-0.0,-1.0,0.1403847565997728,1.0,0.0
44.611820220947266,21.741729736328125,-1.946930766105652,-0.2784715250190005,-0.246255749417447,-0.928338147246166,0.1144293612300168,6.0,0.0
44.40359878540039,21.56530380249023,-1.9298969507217407,-0.0,-0.0,-1.0,0.1871872368950081,1.0,0.0
44.203495025634766,21.308181762695312,-1.893874764442444,-0.0,-0.0,-1.0,0.1771408603051235,1.0,0.0
44.02154541015625,21.05921936035156,-1.8594907522201536,-0.0,-0.0,-1.0,0.1679175714003534,1.0,0.0
43.21596145629883,20.78738021850586,-1.917523980140686,-0.0,-0.0,-1.0,0.1875491015946054,1.0,0.0
45.08551788330078,22.806493759155273,-2.149289846420288,-0.0,-0.0,-1.0,0.1622886322910686,1.0,0.0
43.62445831298828,22.55911636352539,-2.257488489151001,-0.0,-0.0,-1.0,0.0251736658837572,2.0,0.0
44.97206497192383,22.67379379272461,-2.1264488697052,-0.0,-0.0,-1.0,0.1709826144988833,1.0,0.0
44.814456939697266,22.610754013061523,-2.127063512802124,-0.0,-0.0,-1.0,0.1636976820537777,1.0,0.0
43.38066101074219,22.40109634399414,-2.2509262561798096,-0.0,-0.0,-1.0,0.0271242634041664,2.0,0.0
43.16937255859375,22.283039093017575,-2.2514498233795166,-0.0,-0.0,-1.0,0.0189618268729235,1.0,0.0
42.82569122314453,22.21203994750977,-2.283757448196411,-0.0,-0.0,-1.0,0.1155268289888881,2.0,0.0
42.98408508300781,22.70251846313477,-1.8898472785949707,-0.0,-0.0,-1.0,0.1703166842557978,1.0,0.0
42.76234436035156,22.59572982788086,-1.8949508666992188,-0.1473781651487534,-0.4228058900887878,-0.8941559459868368,0.1448247771700538,3.0,0.0
44.87972640991211,21.980045318603516,-1.9568474292755127,-0.0,-0.0,-1.0,0.211126931322976,1.0,0.0
44.379539489746094,21.827239990234375,-1.977123498916626,-0.0,-0.0,-1.0,0.1399588552542352,1.0,0.0
44.72037887573242,21.803966522216797,-1.930002212524414,-0.0,-0.0,-1.0,0.1568475276027905,1.0,0.0
44.48164367675781,21.697513580322266,-1.931811809539795,-0.0,-0.0,-1.0,0.1953017437957695,2.0,0.0
44.13978576660156,21.45226669311523,-1.9138493537902832,-0.0,-0.0,-1.0,0.1385151837437801,1.0,0.0
44.082427978515625,21.19881248474121,-1.85841965675354,-0.0,-0.0,-1.0,0.2194644522620831,1.0,0.0
43.85920715332031,21.0755615234375,-1.858938694000244,-0.0,-0.0,-1.0,0.1790196612591631,1.0,0.0
43.78107833862305,20.710418701171875,-1.7819278240203855,-0.0,-0.0,-1.0,0.1760092615761915,2.0,0.0
42.92655563354492,20.74637031555176,-1.9210824966430664,-0.0,-0.0,-1.0,0.1596200378877368,1.0,0.0
45.105438232421875,22.928876876831055,-2.1298322677612305,-0.0,-0.0,-1.0,0.064599963238531,1.0,0.0
45.02190017700195,22.754444122314453,-2.0892839431762695,-0.9916941771580392,-0.1065697685719568,-0.0720107173784541,0.2603814604833113,4.0,0.0
43.7279167175293,22.95960235595703,-2.260774612426758,-0.0,-0.0,-1.0,0.0809672465692578,1.0,0.0
43.41568756103515,22.807392120361328,-2.2540688514709473,-0.0,-0.0,-1.0,0.0208559652936983,1.0,0.0
43.226051330566406,22.62683486938477,-2.2285571098327637,-0.0,-0.0,-1.0,0.0474589158652651,1.0,0.0
42.98104095458984,22.638965606689453,-2.2599759101867676,-0.0,-0.0,-1.0,0.0927196013988328,1.0,0.0
43.03803634643555,22.825115203857425,-1.820477843284607,-0.0,-0.0,-1.0,0.1417112439907984,2.0,0.0
42.76065444946289,22.778697967529297,-1.8382080793380735,-0.0,-0.0,-1.0,0.1739848477722964,1.0,0.0
44.86410903930664,22.238067626953125,-1.963403582572937,-0.0,-0.0,-1.0,0.1818899507392081,1.0,0.0
42.76124954223633,22.678590774536133,-1.8161951303482056,-0.0,-0.0,-1.0,0.1988135427172996,1.0,0.0
44.801246643066406,21.894554138183594,-1.8774179220199585,-0.0,-0.0,-1.0,0.1605245711529955,1.0,0.0
44.45085525512695,21.80074119567871,-1.885036826133728,-0.0,-0.0,-1.0,0.2006406448433238,1.0,0.0
44.61423873901367,21.70946502685547,-1.8453372716903689,0.0125321430887851,0.2903390996552866,-0.9568417594361986,0.1642188771768188,5.0,0.0
42.80767059326172,22.52012634277344,-1.6499557495117188,-0.0,-0.0,-1.0,0.0594418201127045,1.0,0.0
42.80702590942383,23.03534889221191,-2.11281681060791,-0.0,-0.0,-1.0,0.2322765269643704,1.0,0.0
42.90595245361328,22.937793731689453,-1.6252145767211914,-0.0,-0.0,-1.0,0.1911537766531751,1.0,0.0
42.83080291748047,22.903255462646484,-1.6270742416381836,-0.0,-0.0,-1.0,0.1549647050245341,1.0,0.0
43.01953125,22.830974578857425,-1.61511492729187,-0.0,-0.0,-1.0,0.1594421775201431,1.0,0.0
42.72026824951172,22.467308044433594,-1.5665132999420166,-0.0,-0.0,-1.0,0.0483064286718398,1.0,0.0
44.59930419921875,21.730146408081055,-1.6152458190917969,-0.0,-0.0,-1.0,0.1325524805211491,2.0,0.0
42.95110321044922,22.942134857177734,-1.69416344165802,-0.0,-0.0,-1.0,0.2156164341769027,1.0,0.0
44.400123596191406,22.286853790283203,-1.6260260343551636,-0.0,-0.0,-1.0,0.1848589996309148,1.0,0.0
44.51103210449219,22.122936248779297,-1.626613736152649,-0.0,-0.0,-1.0,0.1742466309813555,1.0,0.0
42.77692794799805,22.339271545410156,-1.5351498126983645,-0.0,-0.0,-1.0,0.0409818199391514,1.0,0.0
44.721160888671875,21.53215217590332,-1.6299927234649658,-0.0,-0.0,-1.0,0.1543765019986387,1.0,0.0
43.50279235839844,23.007465362548828,-1.6519196033477783,-0.0,-0.0,-1.0,0.0840105123766125,1.0,0.0
44.72831726074219,21.30292510986328,-1.7403409481048584,-0.0,-0.0,-1.0,0.1670536694943609,1.0,0.0
44.776466369628906,21.187231063842773,-1.7296710014343262,-0.0,-0.0,-1.0,0.1086229390627597,1.0,0.0
43.21908950805664,22.404220581054688,-1.7677083015441897,-0.0,-0.0,-1.0,0.2293810368782881,1.0,0.0
43.65965270996094,22.8631534576416,-1.8572962284088137,-0.0,-0.0,-1.0,0.1016054072677218,1.0,0.0
43.85838317871094,21.21936416625977,-1.863580584526062,-0.0,-0.0,-1.0,0.2178684385215842,1.0,0.0
44.539772033691406,21.88577651977539,-1.9953311681747437,0.5323171337980894,-0.6970144476874203,0.4804261949352756,0.1624436315825411,4.0,0.0
44.31292724609375,22.197006225585938,-2.0036325454711914,-0.0,-0.0,-1.0,0.1805755387594033,1.0,0.0
44.928565979003906,22.809720993041992,-2.1241707801818848,-0.7981538895795822,0.4834848715860555,0.3594339264682729,0.2102978730719588,4.0,0.0
44.46461486816406,21.893733978271484,-2.249919891357422,0.9849242985803556,0.0606710753193727,0.1619973662921262,0.1321997807914782,4.0,0.0
44.20502853393555,22.49955177307129,-2.3013916015625,-0.0,-0.0,-1.0,0.0178064943871806,1.0,0.0
44.72700881958008,22.437259674072266,-2.345731735229492,0.7244450795949122,-0.4870942184283635,-0.487768950451321,0.2218486191116747,3.0,0.0
43.979862213134766,22.591968536376953,-2.291017532348633,0.8289157013391552,0.0109258931506697,-0.5592668280278,0.0222748302572804,3.0,0.0
44.49775695800781,22.487747192382812,-2.329166889190674,-0.0,-0.0,-1.0,0.0743016281702584,1.0,0.0
44.66594696044922,22.49642562866211,-2.347179412841797,-0.0,-0.0,-1.0,0.2026486209019864,1.0,0.0
43.06597137451172,20.745826721191406,-1.962384581565857,0.0482620226558688,-0.065409306865105,-0.9966907242191988,0.2132760036806555,3.0,0.0
43.25333404541016,20.63888931274414,-1.968267798423767,-0.0,-0.0,-1.0,0.1284952899526791,1.0,0.0
43.52684783935547,22.530181884765625,-2.238058090209961,-0.0,-0.0,-1.0,0.0167103732515246,1.0,0.0
43.37297821044922,22.622146606445312,-2.2350339889526367,-0.0,-0.0,-1.0,0.0169691066029297,1.0,0.0
43.50954055786133,22.61876678466797,-2.248014450073242,-0.0,-0.0,-1.0,0.0142046399748091,2.0,0.0
43.069580078125,20.754070281982425,-2.0643186569213867,-0.0,-0.0,-1.0,0.1929396787887196,1.0,0.0
43.24225616455078,21.33567237854004,-2.1624722480773926,-0.0,-0.0,-1.0,0.0339349867595093,1.0,0.0
43.36939239501953,21.774871826171875,-2.23685884475708,-0.0,-0.0,-1.0,0.0507070782656747,2.0,0.0
43.63901138305664,21.958763122558594,-2.2913153171539307,-0.0,-0.0,-1.0,0.0157890973393393,1.0,0.0
44.05110931396485,22.05476951599121,-2.348865509033203,-0.0,-0.0,-1.0,0.0171239819645621,1.0,0.0
44.29305648803711,21.91497802734375,-2.3558058738708496,-0.0,-0.0,-1.0,0.1211193905117907,2.0,0.0
42.823768615722656,22.56821060180664,-2.291316270828247,-0.0,-0.0,-1.0,0.1572793625400238,1.0,0.0
43.15753173828125,22.349843978881836,-2.295069932937622,-0.0,-0.0,-1.0,0.0226806078885327,1.0,0.0
43.53470993041992,22.29920768737793,-2.327767848968506,-0.0,-0.0,-1.0,0.0212369388137158,2.0,0.0
44.59296417236328,21.810955047607425,-1.583230972290039,-0.0,-0.0,-1.0,0.1451441224666852,2.0,0.0
44.508731842041016,21.835826873779297,-2.1406140327453613,0.6875789444067072,0.4463985925567247,-0.5726809685784341,0.2634304077345252,4.0,0.0
44.44159698486328,22.05695152282715,-2.1847620010375977,-0.4202677465113596,-0.5400310767692669,-0.7292060458921678,0.2125100510297473,4.0,0.0
44.52357482910156,22.11520004272461,-2.2010865211486816,-0.0,-0.0,-1.0,0.225956196073294,1.0,0.0
43.99004364013672,22.75350570678711,-2.3175415992736816,-0.0,-0.0,-1.0,0.0366994266666102,1.0,0.0
44.20066833496094,22.729907989501953,-2.3209567070007324,-0.0,-0.0,-1.0,0.0311856902251371,1.0,0.0
44.76702880859375,22.511722564697266,-2.297691345214844,-0.0,-0.0,-1.0,0.1404978392879239,1.0,0.0
44.055686950683594,22.98886489868164,-2.3726730346679688,-0.0,-0.0,-1.0,0.0399395330569058,1.0,0.0
44.49897003173828,22.81513214111328,-2.352257251739502,-0.0,-0.0,-1.0,0.0426508786296908,1.0,0.0
44.93218231201172,22.855308532714844,-2.379694938659668,-0.0,-0.0,-1.0,0.1606769898894326,1.0,0.0
43.156158447265625,20.661012649536133,-1.826499342918396,-0.0,-0.0,-1.0,0.1863932265592429,2.0,0.0
43.36469650268555,22.716007232666016,-2.284534454345703,-0.0,-0.0,-1.0,0.0169775729944506,1.0,0.0
43.96414566040039,21.19596290588379,-2.138000726699829,-0.0,-0.0,-1.0,0.1299612471807016,2.0,0.0
44.43206787109375,21.92395782470703,-2.286714553833008,0.8522331705846279,0.0167398807817864,-0.5228942525469982,0.1869770941953628,6.0,0.0
43.009315490722656,22.57498550415039,-2.197853326797486,-0.0,-0.0,-1.0,0.0761580664706789,1.0,0.0
44.17572784423828,22.44534683227539,-2.3211803436279297,-0.0,-0.0,-1.0,0.017763840767178,1.0,0.0
44.38446807861328,22.33847427368164,-2.333139181137085,-0.0,-0.0,-1.0,0.1103091589307981,1.0,0.0
44.66287612915039,22.367307662963867,-2.370901346206665,-0.0,-0.0,-1.0,0.1770622831659254,2.0,0.0
43.29646301269531,22.635997772216797,-2.2399942874908447,-0.0,-0.0,-1.0,0.0219572705980813,2.0,0.0
43.56486892700195,22.587316513061523,-2.2657034397125244,-0.0,-0.0,-1.0,0.0186704415683746,1.0,0.0
43.96795654296875,22.550371170043945,-2.309476137161255,-0.0,-0.0,-1.0,0.021186452887451,2.0,0.0
44.71563720703125,22.499340057373047,-2.3940672874450684,-0.0,-0.0,-1.0,0.1770812918862136,1.0,0.0
43.028167724609375,20.724220275878903,-1.962797164916992,-0.0,-0.0,-1.0,0.1904139200379754,2.0,0.0
42.778953552246094,22.468048095703125,-2.156473159790039,-0.2603052079443171,0.7509974420943801,0.6068311467655263,0.1177940703519315,5.0,0.0
44.62455749511719,21.8135986328125,-1.5659046173095703,0.2577191241615381,-0.9075892046486932,-0.331455409740982,0.1462376902946072,3.0,0.0
42.71057891845703,22.470104217529297,-1.456484079360962,-0.0,-0.0,-1.0,0.0391370112872721,1.0,0.0
44.482444763183594,21.76829719543457,-2.0876550674438477,-0.0,-0.0,-1.0,0.2649127667974943,1.0,0.0
44.42144012451172,21.98221206665039,-2.1045002937316895,-0.0,-0.0,-1.0,0.1516020516981958,2.0,0.0
44.62393951416016,22.414325714111328,-2.180177688598633,-0.0,-0.0,-1.0,0.2019108935620963,2.0,0.0
44.784080505371094,22.872182846069336,-2.2538609504699707,-0.0,-0.0,-1.0,0.2281139332438274,1.0,0.0
44.842132568359375,22.776100158691406,-2.2498531341552734,-0.6570090413249562,-0.6813871837338851,-0.3225687918265911,0.1722599464111028,3.0,0.0
43.953487396240234,21.192523956298828,-1.9543524980545044,-0.0,-0.0,-1.0,0.1866322321611321,1.0,0.0
42.90111541748047,20.74429702758789,-2.190614700317383,-0.0,-0.0,-1.0,0.1816030363528146,1.0,0.0
43.070556640625,21.17169952392578,-2.2800445556640625,-0.0,-0.0,-1.0,0.0648733468151144,1.0,0.0
42.725311279296875,21.598587036132812,-2.30000638961792,-0.0,-0.0,-1.0,0.0212709410457187,1.0,0.0
45.01660919189453,22.775386810302734,-2.0848584175109863,-0.5853824912607113,-0.6220100760705083,-0.5200296185720228,0.1868558213811229,5.0,0.0
44.46742248535156,21.85712432861328,-1.9042283296585083,-0.0,-0.0,-1.0,0.2259528177323471,2.0,0.0
44.6538200378418,21.757240295410156,-1.912622094154358,-0.0,-0.0,-1.0,0.2161605035417038,2.0,0.0
42.8218994140625,22.526092529296875,-1.8123961687088013,-0.0,-0.0,-1.0,0.2184476783070477,2.0,0.0
44.212310791015625,22.154682159423828,-1.9140936136245728,-0.0,-0.0,-1.0,0.1540698176017585,1.0,0.0
44.37774658203125,22.08089828491211,-1.9230118989944456,-0.0,-0.0,-1.0,0.1677757381645284,2.0,0.0
42.76655578613281,22.604736328125,-1.8173044919967651,-0.0,-0.0,-1.0,0.1682532504699642,2.0,0.0
42.8943977355957,20.763996124267575,-2.0960261821746826,-0.0,-0.0,-1.0,0.1474178860465106,1.0,0.0
43.17893981933594,20.932788848876953,-2.162428140640259,-0.0,-0.0,-1.0,0.1882160073721681,2.0,0.0
43.19317626953125,21.8488826751709,-2.310288190841675,-0.0,-0.0,-1.0,0.0344536131111478,2.0,0.0
43.34496307373047,21.66305923461914,-2.301265001296997,-0.0,-0.0,-1.0,0.050030686403622,2.0,0.0
42.72639465332031,22.152122497558594,-2.297157049179077,0.2574758569367337,-0.9197334080996568,0.296304979911046,0.1149113053412971,3.0,0.0
43.012351989746094,21.91773223876953,-2.296962261199951,-0.0,-0.0,-1.0,0.0230601764155243,1.0,0.0
44.40630340576172,21.85080337524414,-1.8350529670715332,-0.0,-0.0,-1.0,0.2446232834178438,2.0,0.0
44.602073669433594,21.840145111083984,-1.8563125133514404,-0.0,-0.0,-1.0,0.2171150056050013,1.0,0.0
44.441986083984375,22.320846557617188,-1.901061534881592,-0.0,-0.0,-1.0,0.2614527353617585,1.0,0.0
42.86823654174805,22.79574203491211,-1.792243719100952,-0.0,-0.0,-1.0,0.1876235066881406,2.0,0.0
44.37520980834961,22.8411865234375,-2.282590627670288,-0.0,-0.0,-1.0,0.0347201334775978,1.0,0.0
44.834075927734375,22.726863861083984,-2.320788860321045,-0.0,-0.0,-1.0,0.178448740357252,2.0,0.0
43.964725494384766,21.01825714111328,-1.9437341690063477,-0.0,-0.0,-1.0,0.1123925887276358,2.0,0.0
43.906532287597656,21.154296875,-1.9573850631713867,-0.0,-0.0,-1.0,0.2258936540508997,2.0,0.0
44.02646255493164,21.19867897033691,-1.9795598983764648,-0.0,-0.0,-1.0,0.1806587327971824,2.0,0.0
44.46417999267578,21.8048152923584,-2.1294984817504883,0.9771571399180484,0.1695950646318595,0.1280680989149699,0.2142451170889512,4.0,0.0
45.20516204833984,21.69052505493164,-2.2073614597320557,-0.0,-0.0,-1.0,0.1199296816874703,2.0,0.0
42.72039794921875,22.38540267944336,-2.01214599609375,-0.7444691785174936,0.6270167514600867,0.2293809835752044,0.0756157161406323,3.0,0.0
44.426063537597656,22.025524139404297,-2.1592297554016113,0.0842773904531551,-0.4728378216805031,-0.8771098653229495,0.1994915808643241,4.0,0.0
44.5074348449707,21.93493270874023,-2.1552834510803223,0.0516071719565875,-0.4399207509727531,-0.8965525264401475,0.2063635669701053,3.0,0.0
44.236812591552734,22.765554428100582,-2.2535643577575684,-0.0,-0.0,-1.0,0.0402097253450202,2.0,0.0
44.6143913269043,21.798133850097656,-1.531463623046875,0.8476944325119413,0.3433429800012924,0.4043881145287159,0.1422654760524612,3.0,0.0
43.9583854675293,20.690223693847656,-1.8488538265228271,-0.0,-0.0,-1.0,0.120895975421591,1.0,0.0
43.63966751098633,20.920310974121097,-1.8451604843139648,-0.0,-0.0,-1.0,0.2577057336883839,1.0,0.0
43.98956298828125,21.041399002075195,-1.9092121124267576,-0.0,-0.0,-1.0,0.1149737751759051,2.0,0.0
43.941314697265625,21.341339111328125,-1.9516737461090088,-0.0,-0.0,-1.0,0.1819199319471338,1.0,0.0
44.42335510253906,21.968727111816406,-2.11452579498291,-0.0,-0.0,-1.0,0.1417511843512146,2.0,0.0
45.19263458251953,21.80301284790039,-2.186263084411621,-0.0,-0.0,-1.0,0.1342373848220869,1.0,0.0
44.415958404541016,22.094562530517575,-2.134174346923828,-0.0,-0.0,-1.0,0.2009534476301078,2.0,0.0
42.8284797668457,22.581729888916016,-2.027284860610962,-0.0,-0.0,-1.0,0.1389649908656368,1.0,0.0
44.83951187133789,22.722576141357425,-2.289918899536133,-0.0,-0.0,-1.0,0.1807640359241994,2.0,0.0
44.18632125854492,22.873546600341797,-2.2352466583251953,-0.3618016279722746,0.0512547519519742,-0.9308450635841355,0.0420569619045622,3.0,0.0
44.46398162841797,22.868946075439453,-2.268022060394287,-0.0,-0.0,-1.0,0.0461921654909119,1.0,0.0
43.732948303222656,20.707355499267575,-1.8225791454315183,-0.0,-0.0,-1.0,0.215041620217235,1.0,0.0
44.61997604370117,21.763526916503903,-1.5137877464294434,-0.0,-0.0,-1.0,0.134563895661191,2.0,0.0
44.67295837402344,22.17101287841797,-1.5742828845977783,-0.0,-0.0,-1.0,0.097600111788792,1.0,0.0
42.76105117797851,22.519847869873047,-1.437319278717041,-0.0,-0.0,-1.0,0.0640386332267972,1.0,0.0
43.82441329956055,20.66912269592285,-2.0324058532714844,-0.0,-0.0,-1.0,0.1214060085583537,2.0,0.0
44.859474182128906,21.043270111083984,-2.2490744590759277,-0.0,-0.0,-1.0,0.1185043371707047,1.0,0.0
44.356971740722656,21.93075942993164,-2.334484100341797,-0.0,-0.0,-1.0,0.1620687398217923,1.0,0.0
42.78832244873047,22.51775360107422,-2.238801956176758,-0.0,-0.0,-1.0,0.1315438355509914,1.0,0.0
43.18445587158203,22.45801544189453,-2.276693820953369,-0.0040456435648579,0.8243428026272177,-0.566076475862449,0.0254967148058058,3.0,0.0
43.67580032348633,22.38685607910156,-2.3266406059265137,-0.0,-0.0,-1.0,0.0187739958278695,1.0,0.0
44.00764465332031,22.18111801147461,-2.3325061798095703,-0.0,-0.0,-1.0,0.0159698319221408,1.0,0.0
44.36861038208008,22.12580108642578,-2.3715696334838867,-0.0,-0.0,-1.0,0.1377012205776085,2.0,0.0
42.896385192871094,22.605005264282227,-2.268937110900879,-0.0,-0.0,-1.0,0.1310280055359556,2.0,0.0
43.249900817871094,22.55147361755371,-2.302887439727783,-0.0,-0.0,-1.0,0.0286630780657791,1.0,0.0
43.08538055419922,20.836658477783203,-1.959610104560852,-0.0,-0.0,-1.0,0.2507663623961772,2.0,0.0
44.32724380493164,21.66714096069336,-1.7179867029190063,-0.0,-0.0,-1.0,0.1921537718817552,1.0,0.0
44.72823715209961,21.767234802246097,-1.780758023262024,-0.0,-0.0,-1.0,0.1864195003661538,1.0,0.0
44.71663665771485,22.06218719482422,-1.8238908052444456,-0.0,-0.0,-1.0,0.2338035847653178,1.0,0.0
42.909969329833984,22.771869659423828,-1.7352615594863892,-0.0,-0.0,-1.0,0.1173695383365284,2.0,0.0
44.84054183959961,20.974910736083984,-2.1473028659820557,-0.0,-0.0,-1.0,0.1727406558533693,1.0,0.0
44.380157470703125,21.936260223388672,-2.2740304470062256,0.761151915378836,0.2642146335267598,-0.5923161226452047,0.1810363418270415,4.0,0.0
44.456504821777344,21.94701385498047,-2.285808563232422,0.6683718396737813,-0.303712493028427,-0.678997647646546,0.183762613853047,4.0,0.0
43.25328063964844,22.492115020751953,-2.252047538757324,-0.0,-0.0,-1.0,0.0218028629171839,1.0,0.0
43.45606994628906,22.419479370117188,-2.260197877883911,-0.0,-0.0,-1.0,0.0257904392968749,1.0,0.0
43.90281677246094,22.378522872924805,-2.3041558265686035,-0.0,-0.0,-1.0,0.0182204938516389,1.0,0.0
