x,y,z,nx,ny,nz,curvature,density
14.234546661376951,-6.764806747436523,0.3710331916809082,-0.0,-0.0,-1.0,0.2235135539000884,1.0
14.228069305419922,-6.36848258972168,0.4021899700164795,-0.0,-0.0,-1.0,0.067902488010932,2.0
15.469839096069336,-6.411981582641602,0.4207096099853515,-0.0,-0.0,-1.0,0.1039495057034553,1.0
14.516844749450684,-7.4050445556640625,0.2716996669769287,-0.0,-0.0,-1.0,0.0757758672052357,1.0
14.420068740844728,-7.089740753173828,0.2911598682403564,-0.0,-0.0,-1.0,0.152508370949514,1.0
14.61045265197754,-6.553518295288086,0.3353500366210937,-0.0,-0.0,-1.0,0.131872564351023,2.0
14.050890922546388,-7.269281387329102,0.9125744104385376,-0.0,-0.0,-1.0,0.1200176487564496,1.0
14.68692398071289,-8.109899520874023,0.6742649078369141,-0.0,-0.0,-1.0,0.2002377789417961,2.0
14.865745544433594,-8.108078002929688,0.6754739284515381,0.4121094885103776,-0.3063513432189494,-0.8580877717271471,0.1344888482386102,3.0
15.529699325561523,-7.25697135925293,0.9483072757720948,-0.4753039012101176,-0.8716708534506515,0.1194827382472255,0.068765176844227,4.0
14.698379516601562,-8.242254257202148,0.8398640155792236,-0.0,-0.0,-1.0,0.1392608012951277,1.0
14.485790252685549,-7.575370788574219,0.664142370223999,-0.0,-0.0,-1.0,0.1220908669577337,1.0
14.905208587646484,-8.238058090209961,0.3793448209762573,-0.0,-0.0,-1.0,0.2339016349112142,2.0
14.122817993164062,-7.199789047241211,0.664687991142273,-0.0,-0.0,-1.0,0.1343950793030276,1.0
14.763011932373049,-7.986139297485352,0.6583661437034607,-0.8717098538622976,-0.4717296261052144,-0.1326389480281212,0.1967021157960002,5.0
14.82082748413086,-8.116172790527344,0.6567913293838501,-0.2022705421674532,-0.6224994691311588,0.7560297869149798,0.1314864652296379,3.0
15.661922454833984,-7.810371398925781,0.6704341769218445,-0.0,-0.0,-1.0,0.0931444012934099,1.0
14.858299255371094,-8.002710342407227,0.6628061532974243,-0.0,-0.0,-1.0,0.1751177568639337,1.0
13.948955535888672,-7.130756378173828,0.4124261140823364,-0.0,-0.0,-1.0,0.1785562103809424,1.0
15.411018371582031,-7.738649368286133,0.451187252998352,-0.0,-0.0,-1.0,0.1087196783023908,2.0
14.67007827758789,-7.994277954101563,0.4320214986801147,-0.0,-0.0,-1.0,0.1405515856175437,2.0
14.053112030029297,-8.17561149597168,0.4160359501838684,-0.0,-0.0,-1.0,0.0959348241780778,1.0
14.473817825317385,-6.449686050415039,0.3638352751731872,-0.0,-0.0,-1.0,0.1739798430358519,1.0
15.329845428466797,-7.832204818725586,0.3567692041397095,-0.0,-0.0,-1.0,0.1660957432727897,1.0
15.574455261230469,-7.966094970703125,0.3593745827674866,-0.0,-0.0,-1.0,0.1840787639513813,1.0
15.083368301391602,-8.317005157470703,0.3436757326126098,-0.0,-0.0,-1.0,0.1201575898651326,2.0
14.136995315551758,-7.314432144165039,0.6417087912559509,-0.0,-0.0,-1.0,0.2314811058592489,1.0
14.890357971191406,-8.197017669677734,0.6547706127166748,-0.0,-0.0,-1.0,0.2041898471680885,1.0
14.761817932128906,-7.915505409240723,0.6630327701568604,-0.8506172381446764,0.2667876258160577,-0.4530724852411079,0.1838022588487177,3.0
14.771102905273438,-8.21805477142334,0.661241352558136,0.122782655391907,-0.978563707522514,0.165340526957864,0.1715074441715942,3.0
15.555524826049805,-7.222831726074219,0.5373363494873047,-0.0,-0.0,-1.0,0.1372186596537645,1.0
14.164817810058594,-7.300525665283203,0.5259809494018555,-0.0,-0.0,-1.0,0.199702993893715,1.0
14.856443405151367,-8.165853500366211,0.5059550404548645,-0.0,-0.0,-1.0,0.2129291331515227,1.0
15.68109893798828,-6.993135452270508,0.5292419791221619,-0.0,-0.0,-1.0,0.1006579960406967,1.0
14.444707870483398,-6.485464096069336,0.5129250884056091,-0.0,-0.0,-1.0,0.2458024973042679,1.0
15.511343002319336,-7.307342529296875,0.5207220911979675,-0.160029243964581,-0.7086029711978946,-0.6872208308001443,0.1233750371896622,6.0
14.813196182250977,-8.13587760925293,0.4932003617286682,-0.0,-0.0,-1.0,0.2156315474834925,1.0
14.017295837402344,-8.24267578125,0.475402295589447,-0.0,-0.0,-1.0,0.0925524120871726,1.0
14.04928207397461,-7.303937911987305,0.8251319527626038,-0.0,-0.0,-1.0,0.2244575892176129,2.0
15.636817932128906,-7.327239990234375,0.7883606553077698,-0.0,-0.0,-1.0,0.1173368806255993,1.0
13.91948127746582,-7.381288528442383,0.7747489809989929,-0.0,-0.0,-1.0,0.1233334878248206,1.0
14.779556274414062,-7.19215202331543,0.5862970352172852,-0.0,-0.0,-1.0,0.093712265015947,1.0
14.948880195617676,-8.150203704833984,0.5505543351173401,-0.0,-0.0,-1.0,0.2270557644245239,1.0
14.475001335144045,-6.368162155151367,0.4809359312057495,-0.0,-0.0,-1.0,0.1114015598016123,1.0
14.123541831970217,-6.463733673095703,0.4809937477111816,-0.0,-0.0,-1.0,0.2158075134221505,2.0
15.409381866455078,-7.346700668334961,0.4327716827392578,-0.0,-0.0,-1.0,0.1043007422660761,2.0
14.624652862548828,-8.00253677368164,0.415086567401886,0.157344023106659,0.6532385823561279,-0.7406228547067447,0.1607648152121666,3.0
14.049246788024902,-8.12136459350586,0.4164388179779053,-0.0,-0.0,-1.0,0.106832368145101,1.0
14.818710327148438,-8.259492874145508,0.4030352234840393,0.448662656838019,0.1397660463921,-0.8827045217030278,0.1935444086692856,3.0
14.374189376831056,-8.33087158203125,0.4048000574111938,-0.0,-0.0,-1.0,0.1899604143090958,1.0
14.089995384216309,-8.261289596557617,0.4105055332183838,-0.0,-0.0,-1.0,0.0659856450437196,1.0
13.99375057220459,-7.239501953125,0.942223846912384,-0.0,-0.0,-1.0,0.0875559355972675,1.0
15.68955421447754,-7.834880828857422,0.8928789496421814,-0.0,-0.0,-1.0,0.0527162008054215,1.0
14.556594848632812,-6.369661331176758,0.3678887486457824,-0.0,-0.0,-1.0,0.1475684417825593,1.0
14.402580261230469,-6.527233123779297,0.362032413482666,-0.0,-0.0,-1.0,0.1622670073740945,1.0
14.77732753753662,-7.221452713012695,0.3302600383758545,-0.0,-0.0,-1.0,0.1124267150754732,1.0
14.805275917053224,-7.636592864990234,0.3123408555984497,-0.0,-0.0,-1.0,0.0854276720486444,2.0
14.660085678100586,-7.943060874938965,0.5356289744377136,-0.0,-0.0,-1.0,0.1520327871797153,2.0
14.704279899597168,-8.06985092163086,0.4543191194534302,-0.1797961075224569,-0.0980503148822197,-0.9788051366187606,0.1428543000756975,5.0
15.573789596557615,-7.152793884277344,0.4601085782051086,-0.0,-0.0,-1.0,0.0909074715881385,2.0
15.311710357666016,-7.533781051635742,0.4530984163284302,-0.0,-0.0,-1.0,0.1872178585306182,1.0
14.846132278442385,-8.012041091918945,0.4506410360336303,-0.0,-0.0,-1.0,0.1536885742671463,1.0
15.53620719909668,-7.083059310913086,0.4260878562927246,-0.0,-0.0,-1.0,0.1220674128113206,1.0
14.5466890335083,-8.202498435974121,0.5723661184310913,-0.0,-0.0,-1.0,0.1822582734378488,1.0
14.80502700805664,-8.042981147766113,0.5613771677017212,-0.0,-0.0,-1.0,0.2494154442328524,2.0
15.578615188598633,-8.035212516784668,0.500741720199585,-0.0,-0.0,-1.0,0.1692696849077425,1.0
15.680146217346191,-6.943066596984863,0.553094744682312,-0.0,-0.0,-1.0,0.1282914944763828,1.0
15.531362533569336,-7.31148624420166,0.544649600982666,-0.2969860377658296,-0.9519534489604848,0.0747256608160171,0.1630532519114379,4.0
14.048280715942385,-6.588169097900391,0.3717831373214721,-0.0,-0.0,-1.0,0.1235603462949561,1.0
14.281719207763672,-6.391496658325195,0.375377893447876,-0.6756386226804859,0.5594164862583292,-0.4801725173776612,0.1147667220283368,6.0
14.412076950073242,-6.74077033996582,0.3477954864501953,0.7449533653781611,0.6549980640749175,0.1265781160780273,0.1535486472612093,5.0
14.105935096740724,-7.180543899536133,1.003407001495361,-0.0,-0.0,-1.0,0.0568074763003152,1.0
14.39344596862793,-6.386125564575195,0.2869952917098999,-0.0,-0.0,-1.0,0.0986851984484556,1.0
14.40731716156006,-6.79203987121582,0.2586636543273926,-0.0,-0.0,-1.0,0.155423562277466,1.0
14.544610977172852,-8.083984375,0.5586286783218384,-0.0,-0.0,-1.0,0.2447084918583248,1.0
14.723677635192873,-8.131940841674805,0.5531967282295227,-0.5522517936366044,-0.716685092775496,0.4258878188191491,0.2346296228197011,5.0
14.019775390625,-6.494972229003906,0.2521973848342895,-0.0,-0.0,-1.0,0.1292659062419499,1.0
14.514960289001465,-8.188638687133789,0.8069825172424316,-0.0,-0.0,-1.0,0.2414882476190757,1.0
14.677444458007812,-8.121479034423828,0.8002411127090454,-0.0,-0.0,-1.0,0.1549058930861022,2.0
14.670808792114258,-8.092055320739746,0.6061596870422363,-0.5316087191005544,-0.1137120333057104,-0.8393221927589839,0.220611899433866,4.0
15.401750564575195,-7.257527351379395,0.6160042881965637,-0.0,-0.0,-1.0,0.1889556390554937,1.0
13.723388671875,-6.8338727951049805,0.2033467292785644,-0.0,-0.0,-1.0,0.0408137235070248,1.0
14.701309204101562,-8.040162086486816,0.6368390321731567,-0.6465172168069794,-0.1359110831061327,-0.7506954548024619,0.2329611188810911,4.0
14.616896629333496,-7.887528419494629,0.6391631364822388,-0.9990431880304532,-0.0080360498581671,-0.042989886631921,0.0899950295189843,4.0
14.819687843322754,-7.955260276794434,0.6408796310424805,-0.0,-0.0,-1.0,0.2163581997640925,2.0
14.174276351928713,-7.249846458435059,0.6461198329925537,-0.0,-0.0,-1.0,0.1957162306102101,1.0
14.317350387573242,-6.430327415466309,0.6676394939422607,-0.0,-0.0,-1.0,0.1820313653103489,2.0
13.950385093688965,-7.926496505737305,0.5188109874725342,-0.0,-0.0,-1.0,0.1589101846271892,1.0
14.803985595703123,-8.031469345092773,0.5576450824737549,-0.0,-0.0,-1.0,0.1937236717851938,2.0
15.467743873596191,-7.837379455566406,0.5902804136276245,-0.5750290192697152,-0.8171930572074377,-0.0392063036981452,0.1303327008358456,5.0
15.535199165344238,-7.858766555786133,0.5928957462310791,-0.056784642510806,-0.8819107104838849,0.4679839774059891,0.1232890953724169,6.0
14.078076362609863,-7.242267608642578,0.5336405038833618,-0.0,-0.0,-1.0,0.1980741778520945,1.0
15.551671981811523,-7.233331680297852,0.6032072305679321,-0.2398156946097864,0.0498179491717099,-0.9695393775185984,0.1493098529928599,7.0
14.691478729248049,-7.092918395996094,0.5654100179672241,-0.0,-0.0,-1.0,0.1721667721480394,1.0
14.416573524475098,-6.373298645019531,0.5609800219535828,-0.0,-0.0,-1.0,0.1061323614261184,1.0
14.701090812683104,-8.045249938964844,0.7190256118774414,-0.1798932523010782,-0.7687753802172277,-0.6136960424741208,0.1696623662238741,7.0
14.770052909851074,-8.143667221069336,0.7212541103363037,-0.0,-0.0,-1.0,0.1380269962696377,1.0
15.59857177734375,-7.2690887451171875,0.760048508644104,-0.0,-0.0,-1.0,0.108362605594652,1.0
15.45390510559082,-7.869399070739746,0.6372254490852356,0.574589956627028,-0.7740793936189921,-0.2657959256982767,0.0907079062974338,5.0
15.503893852233888,-7.272055625915527,0.6070815920829773,-0.269456750196755,0.2029997355547448,-0.941373553451608,0.1979030848764675,7.0
15.68186855316162,-6.761244773864746,0.6014719009399414,-0.0,-0.0,-1.0,0.1242100923557339,1.0
13.985833168029783,-7.170348167419434,1.1296614408493042,-0.0,-0.0,-1.0,0.1113178963843016,1.0
14.716486930847168,-8.028998374938965,0.5434554815292358,-0.6889089934047365,-0.6937383015767451,-0.2100751478197408,0.2569709710830654,7.0
15.475753784179688,-7.891280174255371,0.5665940046310425,0.172978615003009,-0.6108948475593641,-0.7725839009305475,0.1087794020282654,4.0
13.992178916931152,-7.573927879333496,0.5305099487304688,-0.0,-0.0,-1.0,0.1197199615872797,2.0
14.179628372192385,-7.099997520446777,0.5441584587097168,-0.0,-0.0,-1.0,0.1049554608510581,2.0
14.70838737487793,-7.160977363586426,0.5590841770172119,-0.0,-0.0,-1.0,0.1123907496967038,1.0
15.459572792053224,-7.276183128356934,0.5783007144927979,0.694872742645943,-0.7179790715156785,0.0407176177248816,0.1732581628220833,5.0
15.608095169067385,-6.958331108093262,0.5884710550308228,-0.0,-0.0,-1.0,0.1863626055647376,2.0
14.045683860778809,-7.749110221862793,0.3429465293884277,-0.0,-0.0,-1.0,0.0262350281212931,1.0
14.318077087402344,-7.7942399978637695,0.3488935232162475,-0.0,-0.0,-1.0,0.0470649918236422,2.0
13.981501579284668,-7.577454566955566,0.3459850549697876,-0.0,-0.0,-1.0,0.1995469655480466,2.0
14.31026840209961,-7.685715675354004,0.3517829179763794,-0.0,-0.0,-1.0,0.0444054437639353,1.0
14.507319450378418,-6.738852500915527,0.3834770917892456,0.0055962325679272,0.6759287749334378,-0.7369457058685043,0.2513631051187085,4.0
15.602009773254396,-6.380026817321777,0.4229551553726196,-0.0,-0.0,-1.0,0.1222975059120464,1.0
14.265517234802246,-7.817072868347168,0.34488046169281,-0.0,-0.0,-1.0,0.0272722615609918,2.0
14.195198059082031,-7.6495256423950195,0.3448201417922973,-0.0,-0.0,-1.0,0.0500244454248011,2.0
14.487186431884766,-6.758917808532715,0.3705936670303345,0.0055962325679272,0.6759287749334378,-0.7369457058685043,0.218247706232501,4.0
13.970056533813477,-7.775856971740723,0.3447145223617553,-0.0,-0.0,-1.0,0.0502003705746337,1.0
14.240619659423828,-7.745905876159668,0.355000376701355,-0.0,-0.0,-1.0,0.0501788675296132,2.0
13.98353385925293,-7.581114768981934,0.3482313156127929,-0.0,-0.0,-1.0,0.1995469655480466,2.0
14.709171295166016,-7.152365684509277,0.3814465999603271,-0.0,-0.0,-1.0,0.2628919931752073,2.0
15.488407135009766,-7.912463188171387,0.9762608408927916,-0.0,-0.0,-1.0,0.0831953272370498,1.0
15.474428176879885,-7.341679573059082,0.9736076593399048,-0.0,-0.0,-1.0,0.1001069660577624,1.0
15.103010177612305,-7.296491622924805,0.8994824290275574,-0.0,-0.0,-1.0,0.1094463770128061,1.0
13.766107559204102,-6.623629570007324,0.8972926735877991,-0.0,-0.0,-1.0,0.0388303170828339,1.0
15.23196029663086,-6.726165771484375,0.90787672996521,-0.0,-0.0,-1.0,0.1227406189636582,1.0
14.802955627441406,-8.332647323608398,0.675828754901886,-0.0,-0.0,-1.0,0.1684388173036966,2.0
14.76125144958496,-8.114946365356445,0.6780359745025635,-0.0,-0.0,-1.0,0.2403619216548019,2.0
14.701059341430664,-8.34578800201416,0.8160414695739746,-0.0,-0.0,-1.0,0.104426536534079,1.0
15.632440567016602,-7.418785095214844,0.8383275270462036,-0.0,-0.0,-1.0,0.0889131711010912,1.0
14.840274810791016,-8.14621639251709,0.6372570395469666,-0.6010523505275585,0.1242618196052808,-0.7894903876005591,0.2380123502884675,3.0
15.007564544677734,-8.203547477722168,0.6393841505050659,-0.0,-0.0,-1.0,0.1163891783113603,1.0
15.583620071411133,-7.9018096923828125,0.653901994228363,-0.6951905068762337,-0.3403550318768874,0.6331418572683756,0.2016036827986103,3.0
15.556951522827148,-7.352544784545898,0.6613349914550781,-0.0,-0.0,-1.0,0.152756144406217,2.0
14.631025314331056,-8.084579467773438,0.7625446915626526,-0.5854941361708358,-0.640442536258836,0.4970211004171921,0.1989695430877253,3.0
15.474313735961914,-7.792215824127197,0.7754454612731934,-0.0,-0.0,-1.0,0.1263862143280643,1.0
15.524391174316406,-7.546911716461182,0.2740329504013061,-0.7839927976119616,0.2067227262021206,-0.5853383703159503,0.1970689273346311,3.0
15.67538070678711,-6.395688056945801,0.2840559482574463,0.6465097792292797,0.7377818599024161,-0.19417268747133,0.203843206381803,3.0
14.083322525024414,-7.989126682281494,0.347316026687622,-0.0,-0.0,-1.0,0.0497861133148262,1.0
14.641693115234377,-7.918510913848877,0.3676694631576538,-0.0,-0.0,-1.0,0.25285024962936,2.0
15.545108795166016,-7.269003868103027,0.6370905637741089,0.9262533721769044,-0.3577667326226857,0.1185649845418146,0.2109509243073745,9.0
14.87070655822754,-7.978634834289551,0.6079100966453552,-0.0,-0.0,-1.0,0.2273333632180578,1.0
14.755388259887695,-8.18728256225586,0.6011288166046143,-0.4442450716612657,-0.865137659878693,-0.2327727341513523,0.1960367223530211,3.0
15.55467414855957,-7.870105743408203,0.6257743835449219,-0.3237496835162254,-0.9407728908449324,0.1006603709232838,0.1323729346089852,6.0
14.610815048217772,-8.129003524780273,0.7339394092559814,0.3091253686022293,-0.1682108600701074,-0.9360270364904056,0.2313286836055681,3.0
14.566455841064451,-7.930701732635498,0.4766066074371338,0.8902572403067247,0.1743683142424393,-0.4207585258431545,0.1745165496357286,3.0
15.582256317138672,-6.896823883056641,0.5201064944267273,-0.382098921232205,0.0973495715237327,-0.9189795837325936,0.1828112296849714,3.0
15.523462295532228,-7.313057899475098,0.5144331455230713,-0.0699044784593313,-0.8014735661780008,-0.5939305402227159,0.119511113424489,5.0
15.65629768371582,-7.814819812774658,0.948673129081726,-0.0,-0.0,-1.0,0.0799384274678928,1.0
15.172203063964844,-7.37713623046875,0.2610672116279602,-0.0,-0.0,-1.0,0.0840773004724831,1.0
15.563478469848633,-7.768734455108643,1.0420498847961426,-0.0446844293676756,0.528660098069719,-0.8476566536522911,0.10235970257764,3.0
15.40156364440918,-7.262855529785156,0.4546568393707275,-0.0,-0.0,-1.0,0.1534604195662421,2.0
14.985523223876951,-7.564326286315918,0.4320354461669922,-0.0,-0.0,-1.0,0.0962264850433384,1.0
14.515989303588867,-7.726570129394531,0.4111291170120239,-0.0,-0.0,-1.0,0.1771009735525623,1.0
14.156198501586914,-7.641388893127441,0.400702953338623,-0.0,-0.0,-1.0,0.1070983900734762,1.0
15.34017562866211,-7.114418029785156,0.2749155759811401,-0.0,-0.0,-1.0,0.2149772454383207,1.0
14.524837493896484,-7.367879867553711,0.2321565151214599,-0.0,-0.0,-1.0,0.0899472114345015,1.0
15.486692428588867,-7.514077663421631,1.0012015104293823,-0.0,-0.0,-1.0,0.0419925377465229,1.0
15.526714324951172,-7.312256813049316,0.6401842832565308,0.5028976878746739,-0.4147341809395238,-0.7583465399741267,0.1854836402692587,4.0
14.747188568115234,-8.177062034606934,0.578791618347168,-0.4936007489911484,-0.7738103545830972,-0.3969582292072538,0.2381497682617608,5.0
14.585176467895508,-7.155348300933838,0.6211802959442139,-0.0,-0.0,-1.0,0.1663073653036234,1.0
15.44996452331543,-7.1630964279174805,0.6460636854171753,-0.0,-0.0,-1.0,0.2242345075947648,1.0
14.710992813110352,-8.162622451782227,0.6045181155204773,0.1494998743179074,-0.7574912617230719,0.6354972667070397,0.2275488415683421,3.0
15.66254425048828,-6.428810119628906,0.3748713135719299,-0.0,-0.0,-1.0,0.2118625916908029,2.0
15.40156364440918,-7.263202667236328,0.3346171379089355,-0.0,-0.0,-1.0,0.1624316102828202,1.0
14.626060485839844,-7.595087051391602,0.2891771793365478,-0.0,-0.0,-1.0,0.0312508455215468,1.0
15.35346794128418,-7.612080097198486,0.3198974132537842,-0.0,-0.0,-1.0,0.1186495369922376,2.0
13.84736442565918,-7.153396129608154,0.9920042753219604,-0.0,-0.0,-1.0,0.069251625695275,1.0
14.019014358520508,-7.110770225524902,0.9297304749488832,-0.0,-0.0,-1.0,0.064627179084344,1.0
15.51225471496582,-7.200810432434082,0.9438074827194214,0.4669653109055101,-0.487552010313589,-0.7377238207148379,0.068765176844227,3.0
15.450031280517578,-7.783424377441406,0.9158904552459716,-0.0,-0.0,-1.0,0.1479650447418008,1.0
13.986724853515623,-6.407280921936035,0.5874220132827759,-0.0,-0.0,-1.0,0.2069516848865701,2.0
14.35194206237793,-6.456923484802246,0.6065171957015991,-0.0,-0.0,-1.0,0.1963825614809171,1.0
14.337635040283203,-7.153661251068115,0.6552549600601196,-0.0,-0.0,-1.0,0.1843191655278257,1.0
15.397172927856444,-7.3801469802856445,0.7145947217941284,-0.0,-0.0,-1.0,0.1662672044436878,2.0
15.511625289916992,-7.847169876098633,0.7487219572067261,-0.398072546795363,-0.5760401108884464,0.7139440021006406,0.103306377178079,4.0
13.920783996582031,-7.248099327087402,0.6319258213043213,-0.0,-0.0,-1.0,0.107097800692155,1.0
14.650323867797852,-7.920880317687988,0.616911768913269,0.4308855938626534,0.4839639798396685,-0.7616537738496255,0.1262406010565142,3.0
14.645998001098633,-8.077860832214355,0.6081660985946655,-0.2690028576654703,-0.3261454157737131,-0.906237623550028,0.2118763858310129,4.0
15.491167068481444,-7.863698005676269,0.6456263661384583,0.0909189789499232,-0.9822374706365918,-0.1641441151675372,0.1243099176376524,7.0
14.770668029785156,-8.129986763000488,0.609107494354248,-0.0,-0.0,-1.0,0.1504730524924221,1.0
14.621198654174805,-8.210521697998047,0.6001531481742859,-0.0,-0.0,-1.0,0.2053536973804485,2.0
15.23663330078125,-6.936124324798584,0.6623555421829224,-0.0,-0.0,-1.0,0.1976180292589621,1.0
15.408164978027344,-6.530549049377441,1.229952692985535,-0.0,-0.0,-1.0,0.1072690362361007,1.0
13.84976577758789,-6.78431510925293,1.2209104299545288,-0.0,-0.0,-1.0,0.1333137494476113,1.0
15.294174194335938,-6.86580753326416,1.2335716485977173,-0.0,-0.0,-1.0,0.0965248167828409,1.0
15.492366790771484,-6.7097344398498535,0.5524995923042297,-0.0,-0.0,-1.0,0.1509701480740186,2.0
15.33012580871582,-6.55032205581665,0.5354476571083069,-0.0,-0.0,-1.0,0.1604835000051719,1.0
15.637842178344728,-6.888627529144287,0.5700069665908813,-0.6526925079502973,-0.4292053877188563,-0.6243198100482298,0.1491392535097455,4.0
15.224756240844728,-7.560596466064453,0.5978778600692749,-0.0,-0.0,-1.0,0.2042505537614003,1.0
13.782276153564451,-7.841312885284424,0.5609337091445923,-0.0,-0.0,-1.0,0.161821726012332,1.0
15.61253547668457,-6.443600654602051,1.0881726741790771,-0.0,-0.0,-1.0,0.1167678941598281,1.0
13.769174575805664,-7.461225509643555,1.151714324951172,-0.0,-0.0,-1.0,0.0894385896093239,1.0
15.308679580688477,-8.016287803649902,1.1926259994506836,-0.0,-0.0,-1.0,0.0887656790629358,1.0
14.308160781860352,-6.369213104248047,0.3500615358352661,-0.2153917243090024,-0.6869965373513427,-0.6940044400192694,0.1288383016665122,4.0
14.053129196166992,-6.523530006408691,0.3405485153198242,-0.0,-0.0,-1.0,0.1243233236021132,1.0
15.45067024230957,-7.284187316894531,0.4181770086288452,-0.0,-0.0,-1.0,0.123515972313111,2.0
14.312097549438477,-6.81965970993042,0.357522189617157,-0.0,-0.0,-1.0,0.2109600110957859,2.0
13.835945129394531,-7.327362060546875,0.3424792289733886,-0.0,-0.0,-1.0,0.1608545079025996,2.0
15.56128215789795,-7.26197624206543,0.9818146228790284,-0.8275200970035116,-0.554292944649714,0.0892738515291447,0.1029395977298075,5.0
15.5653715133667,-7.765984058380127,0.9898284077644348,-0.95997827547587,0.2746437433849084,0.0548864722304069,0.1010464050673237,5.0
15.409791946411133,-7.119914531707764,0.5947039127349854,-0.0,-0.0,-1.0,0.223760221560072,1.0
14.346590042114258,-6.402481555938721,0.5343508720397949,-0.0,-0.0,-1.0,0.1193496179295565,2.0
14.765539169311523,-8.010506629943848,0.5919284820556641,-0.5821798290297334,0.6717458531309329,-0.4580656672053751,0.1699731872710466,4.0
14.62484359741211,-8.234024047851562,0.5919403433799744,-0.0,-0.0,-1.0,0.1567050831378116,2.0
15.337279319763184,-6.493533611297607,0.5284784436225891,-0.0,-0.0,-1.0,0.1619668024073373,2.0
15.486988067626951,-7.229998588562012,0.5709608793258667,0.9390009174413014,-0.3439094293939698,0.0018924635553451,0.1795392196096448,4.0
14.330102920532228,-6.391870498657227,0.4755846261978149,-0.0,-0.0,-1.0,0.1142777359718763,1.0
14.020341873168944,-6.468289852142334,0.464423656463623,-0.0,-0.0,-1.0,0.160057477662756,1.0
14.705337524414062,-8.111259460449219,0.5765736103057861,-0.4800107243193546,-0.8764327279953915,0.0381494146346288,0.2046930925183195,5.0
13.88335418701172,-7.14632511138916,1.0795423984527588,-0.2658487268068743,-0.8977089843972205,-0.3513446083088158,0.1113178963843016,5.0
15.495597839355469,-7.279545783996582,0.5037933588027954,-0.1514829387171546,-0.3688445024250844,-0.9170641484151514,0.1677464165495455,5.0
14.661700248718262,-7.186363220214844,0.4579159617424011,-0.0,-0.0,-1.0,0.2022536908146948,2.0
14.299643516540527,-6.834318161010742,0.4362657070159912,-0.0,-0.0,-1.0,0.2196710909880935,2.0
14.549154281616213,-7.893975257873535,0.4552192687988281,0.2817164479522522,-0.3802820036054745,-0.880920791380798,0.2276002661452576,3.0
13.90469455718994,-7.974427223205566,0.4205654263496399,-0.0,-0.0,-1.0,0.1259292550380355,1.0
15.552083969116213,-7.287137985229492,1.013842225074768,-0.9606882720652152,0.2671514141922936,-0.0755524044052116,0.0991336420751552,6.0
15.556336402893066,-7.804762840270996,1.0199564695358276,-0.7491900622305501,0.6591298206471906,-0.0652849920623935,0.10235970257764,8.0
14.020624160766602,-7.176856994628906,0.9819579720497132,-0.0,-0.0,-1.0,0.0660101946860055,2.0
15.235301971435549,-7.774171829223633,0.3099927902221679,-0.0,-0.0,-1.0,0.0924628589566531,1.0
14.93036937713623,-7.523890495300293,0.2746151685714721,-0.0,-0.0,-1.0,0.0849501437954301,1.0
13.714426040649414,-7.217720031738281,0.7072353363037109,-0.0,-0.0,-1.0,0.1726613983271801,1.0
15.551902770996094,-7.032403945922852,0.7762527465820312,-0.0,-0.0,-1.0,0.0666061198030457,1.0
15.665547370910645,-7.784695148468018,0.8241005539894104,-0.0,-0.0,-1.0,0.0903794397107529,2.0
15.398561477661133,-7.790339469909668,0.8130111694335938,-0.0,-0.0,-1.0,0.1074722757652405,1.0
14.628887176513672,-7.80025577545166,0.78058260679245,-0.0,-0.0,-1.0,0.1858401088694291,1.0
14.639471054077148,-8.195622444152832,0.8031455874443054,-0.0,-0.0,-1.0,0.1795933281402093,2.0
15.469198226928713,-7.83796501159668,0.5500377416610718,0.6080651843030281,0.3498593748798063,-0.7126395648904399,0.1034657201324323,4.0
15.477900505065918,-7.254846096038818,0.5539917945861816,0.8546670275367166,-0.4758813916447884,0.207560047041266,0.1631603647831962,4.0
15.116284370422363,-8.284536361694336,0.52826988697052,-0.0,-0.0,-1.0,0.1246948027121733,2.0
14.724900245666504,-8.020118713378906,0.5088937282562256,-0.7068623072613717,-0.6243430883394336,-0.332477648295202,0.1864461070515788,3.0
13.951173782348633,-8.31088924407959,0.4654744267463684,-0.0,-0.0,-1.0,0.0925524120871726,2.0
13.754889488220217,-8.172073364257812,0.4556727409362793,-0.0,-0.0,-1.0,0.0982050410184452,1.0
15.611608505249023,-7.771200656890869,1.0379745960235596,-0.0,-0.0,-1.0,0.1021910692217213,2.0
15.553566932678224,-7.258447170257568,1.0307347774505615,-0.8607476216228578,-0.2886092694159218,-0.4193068345231227,0.1029395977298075,5.0
15.67988395690918,-6.873082637786865,0.7673373222351074,-0.0,-0.0,-1.0,0.1183566982447262,1.0
15.485563278198242,-7.280566692352295,0.7654877305030823,0.639384064398264,0.1206191718705769,-0.7593675220674193,0.1040792347897262,4.0
14.668293952941896,-8.037174224853516,0.7368729114532471,-0.1426820296158434,-0.7883461385364532,-0.5984581892491463,0.1905466112614472,8.0
14.056384086608888,-7.522310256958008,0.6919402480125427,-0.0,-0.0,-1.0,0.2046093302379395,1.0
14.241161346435549,-7.16747522354126,0.6942769289016724,-0.0,-0.0,-1.0,0.1781372022773481,2.0
14.258334159851074,-6.523849010467529,0.607585072517395,-0.0,-0.0,-1.0,0.2313126539274698,1.0
15.550067901611328,-8.00711441040039,0.6493697762489319,-0.0,-0.0,-1.0,0.1967774168154604,1.0
15.47896671295166,-7.931826114654541,0.6442883610725403,-0.0,-0.0,-1.0,0.2300131938465631,1.0
15.594744682312012,-7.363194942474365,0.6465678215026855,-0.0,-0.0,-1.0,0.1619168615098463,2.0
14.817046165466309,-8.251049041748047,0.6056597828865051,-0.0,-0.0,-1.0,0.2365172367297958,2.0
15.561190605163574,-7.929819583892822,0.2741559743881225,-0.0,-0.0,-1.0,0.182431765804841,1.0
15.39830493927002,-7.953517913818359,0.5009565353393555,-0.6891925794985099,0.3791722955726211,-0.6174479400195447,0.177700443589827,3.0
15.7075777053833,-6.949336051940918,0.6994478702545166,-0.0,-0.0,-1.0,0.123204912170464,1.0
15.616973876953123,-7.905550956726074,0.6885133385658264,-0.0,-0.0,-1.0,0.1446055044528742,2.0
14.839512825012209,-8.049376487731934,0.6521781086921692,-0.0,-0.0,-1.0,0.1660788630275031,2.0
14.149438858032228,-7.107522964477539,0.295907974243164,-0.0,-0.0,-1.0,0.1438431256031503,1.0
14.682870864868164,-7.494380950927734,0.6960666179656982,-0.0,-0.0,-1.0,0.1049180015273721,1.0
13.71280002593994,-7.088432312011719,0.3719524145126343,-0.0,-0.0,-1.0,0.0809290529942146,1.0
14.305960655212402,-7.243927001953125,0.2988806366920471,-0.0,-0.0,-1.0,0.2026074037744263,1.0
14.18284797668457,-7.626867294311523,0.2977639436721802,-0.5379344437042597,0.0539989353323183,-0.841255400731291,0.0531317488746067,3.0
13.919134140014648,-7.714441299438477,0.3241049647331238,-0.0,-0.0,-1.0,0.0900646714109011,1.0
13.767596244812012,-7.720539093017578,0.8033668994903564,-0.0,-0.0,-1.0,0.1255015805163074,1.0
14.98184585571289,-7.721529006958008,0.6859639883041382,-0.0,-0.0,-1.0,0.0746775356233715,1.0
14.807360649108888,-8.20864486694336,0.6900084614753723,-0.0,-0.0,-1.0,0.1768393951517359,2.0
14.589085578918455,-7.974001884460449,0.4326984882354736,-0.0,-0.0,-1.0,0.1871792027742995,2.0
14.973587989807127,-8.313464164733887,0.4056417942047119,-0.0,-0.0,-1.0,0.1781902610549386,2.0
14.332852363586426,-7.535088539123535,0.4575898051261902,-0.0,-0.0,-1.0,0.2188118263949815,1.0
14.790756225585938,-7.130345344543457,0.4517386555671692,-0.0,-0.0,-1.0,0.1064389350811287,1.0
15.526803970336914,-6.552872657775879,0.4395821690559387,-0.0,-0.0,-1.0,0.1709702204688617,1.0
15.575516700744627,-6.664681434631348,0.4338843822479248,-0.0,-0.0,-1.0,0.1569742883286719,1.0
13.71169662475586,-7.916613578796387,0.3662263751029968,-0.0,-0.0,-1.0,0.0920926761493657,2.0
13.965123176574709,-6.460871696472168,0.3871303200721741,-0.0,-0.0,-1.0,0.1099725616354114,2.0
13.827425956726074,-7.816365242004395,0.3532065153121948,-0.0,-0.0,-1.0,0.0836188073019108,1.0
14.477394104003906,-6.627394676208496,0.3044719696044922,-0.0,-0.0,-1.0,0.1921582287313524,2.0
14.807524681091309,-7.381911277770996,0.2250034809112548,-0.0,-0.0,-1.0,0.0390900473363372,2.0
15.516973495483398,-7.228339195251465,0.8983055353164673,-0.998444059187478,0.0557550152520938,-0.0009159407572825,0.0795945273503908,4.0
13.71652889251709,-7.379060745239258,0.5425136089324951,-0.0,-0.0,-1.0,0.1838502161488197,1.0
14.725866317749023,-8.245485305786133,0.387863278388977,-0.0,-0.0,-1.0,0.161272099138502,1.0
14.88497543334961,-8.310615539550781,0.3654729127883911,-0.0,-0.0,-1.0,0.1501082640193904,1.0
15.227052688598633,-6.558923721313477,0.3790973424911499,-0.0,-0.0,-1.0,0.1590993968163313,1.0
15.43195629119873,-6.423473358154297,0.3568861484527588,-0.0,-0.0,-1.0,0.172425911661954,1.0
15.481477737426758,-7.809112548828125,1.084781527519226,-0.0,-0.0,-1.0,0.1066187606053539,1.0
14.703675270080566,-8.1929292678833,0.7057856321334839,-0.261229597408662,-0.9589853461725116,-0.1100281930420406,0.1903484532352901,6.0
14.562732696533203,-7.255297660827637,0.7415703535079956,-0.0,-0.0,-1.0,0.1224538684857458,1.0
15.33579444885254,-7.294045448303223,0.6570593118667603,-0.0,-0.0,-1.0,0.1750424482767337,1.0
13.881192207336426,-7.17628288269043,0.3415055274963379,-0.0,-0.0,-1.0,0.1697960033219421,1.0
13.89939022064209,-6.474357604980469,0.3732529878616333,-0.0,-0.0,-1.0,0.104545896865147,1.0
14.54611587524414,-7.070346832275391,0.320167064666748,-0.0,-0.0,-1.0,0.1416905597818508,1.0
14.362558364868164,-6.645984649658203,0.3471436500549316,-0.0,-0.0,-1.0,0.1386543670068947,2.0
14.91639232635498,-7.342744827270508,0.2924792170524597,-0.0,-0.0,-1.0,0.0282400519833687,1.0
15.603142738342283,-6.401317596435547,0.307049036026001,-0.0,-0.0,-1.0,0.2045861012323356,2.0
13.964101791381836,-7.580543518066406,0.6905995607376099,-0.0,-0.0,-1.0,0.2407253294185505,1.0
14.66380214691162,-8.161611557006836,0.6419345140457153,0.5445138762917014,-0.8340268829395232,-0.0889033017382851,0.2219047606247783,6.0
14.741435050964355,-8.045957565307617,0.641340970993042,0.4977192314424918,-0.1050790267214628,-0.8609494554243966,0.1795591837255873,7.0
14.810644149780272,-8.217823028564453,0.6332494020462036,-0.5261380272992755,0.4653109335206423,-0.7118037028393258,0.2425297805775184,4.0
13.719772338867188,-8.147292137145996,0.4224495887756347,-0.0,-0.0,-1.0,0.0982050410184452,1.0
14.00156593322754,-8.207013130187988,0.4051907062530517,-0.0,-0.0,-1.0,0.101369970567882,1.0
14.282955169677734,-8.318160057067871,0.3852721452713012,-0.0,-0.0,-1.0,0.0868733561618957,1.0
14.56873893737793,-7.975861549377441,0.3853240609169006,-0.0,-0.0,-1.0,0.2205717577822307,1.0
14.836947441101074,-8.2340726852417,0.3588069677352905,-0.0,-0.0,-1.0,0.180481286766277,1.0
14.595230102539062,-7.198439598083496,0.4191644787788391,-0.0,-0.0,-1.0,0.1658972332843489,2.0
15.117535591125488,-7.752606391906738,0.364906370639801,-0.0,-0.0,-1.0,0.1407262851558454,1.0
14.666345596313477,-7.173962593078613,0.4163937568664551,-0.9634231500409464,0.1563349138693587,-0.2176585138942194,0.212717769701454,4.0
15.682927131652832,-6.544161796569824,0.387199342250824,0.6271914828588798,0.0828799036020502,-0.7744428742058348,0.1368182708252294,3.0
15.687104225158691,-6.463099479675293,0.3906302452087402,0.9350078746581614,0.3488265413624947,-0.0638773697666702,0.2118625916908029,4.0
13.803945541381836,-7.1716814041137695,1.1582272052764893,-0.0,-0.0,-1.0,0.1086815306808093,1.0
14.219438552856444,-7.716541290283203,0.3280848264694214,-0.0,-0.0,-1.0,0.0511526832691383,2.0
14.49854564666748,-7.712057113647461,0.312393307685852,-0.0,-0.0,-1.0,0.048015011162256,1.0
14.747776985168455,-7.642507553100586,0.3017429709434509,-0.0,-0.0,-1.0,0.0526543534363404,2.0
14.466153144836426,-6.755292892456055,0.367493212223053,0.1227211380360437,0.7542580060373549,-0.6450072732982876,0.2327175362997631,6.0
14.019527435302734,-7.518017768859863,0.8013135194778442,-0.0,-0.0,-1.0,0.1451521689038613,1.0
15.473877906799316,-7.227118492126465,0.729913592338562,-0.6644133451936901,-0.715930494236783,-0.2144724554585174,0.139382108893154,3.0
14.736682891845703,-8.026371955871582,0.6051763296127319,-0.7717010349787164,0.6191938573465238,-0.1451774074610449,0.1943568792303111,9.0
15.504745483398438,-7.889100074768066,0.5810832977294922,0.0449494166949916,-0.8855773955946324,0.4623118280453225,0.1164850030643929,8.0
14.545232772827148,-7.849337577819824,0.5281752347946167,-0.0,-0.0,-1.0,0.1390822573962338,2.0
14.637582778930664,-8.06336498260498,0.5144323110580444,-0.0,-0.0,-1.0,0.2650205349498127,1.0
15.468225479125977,-7.869881629943848,0.5001471042633057,-0.0,-0.0,-1.0,0.132487517875711,2.0
15.65638542175293,-7.888794898986816,0.4931775331497192,-0.0,-0.0,-1.0,0.1393665629996563,1.0
15.537044525146484,-7.033219337463379,0.5427030920982361,-0.0,-0.0,-1.0,0.1171734397300514,2.0
14.637202262878418,-7.992103576660156,0.6262837052345276,0.6361799132889907,0.3776336723263929,-0.6728060102681122,0.1790513858889588,3.0
14.785365104675291,-8.081012725830078,0.6182219982147217,-0.0,-0.0,-1.0,0.1943850784226347,2.0
14.04973030090332,-7.230637550354004,0.676212728023529,-0.0,-0.0,-1.0,0.1202253418886577,2.0
15.47688102722168,-7.860137939453125,0.6105709671974182,-0.4594199304444477,-0.8871628834304919,-0.0433052626560993,0.1224265552374329,8.0
15.539422035217283,-7.868663787841797,0.6083731055259705,-0.1691420225962026,-0.9384305877818998,0.3012291621131389,0.1374444279672544,7.0
13.80483055114746,-8.273953437805176,0.4221616983413696,-0.0,-0.0,-1.0,0.0999683472161312,1.0
13.820632934570312,-7.859963417053223,0.441805362701416,-0.0,-0.0,-1.0,0.1738796937043496,1.0
14.008596420288086,-7.220580101013184,0.4733254909515381,-0.0,-0.0,-1.0,0.1684461308652534,1.0
14.475956916809082,-7.89729118347168,0.4447671175003052,-0.0,-0.0,-1.0,0.2338483351345407,1.0
14.623686790466309,-8.140264511108398,0.4340059757232666,-0.0,-0.0,-1.0,0.247700003160047,1.0
14.077119827270508,-7.22313404083252,0.4737740755081177,-0.0,-0.0,-1.0,0.1425210035106248,1.0
13.985450744628906,-6.444525718688965,0.5091720819473267,-0.0,-0.0,-1.0,0.1423395489841175,1.0
15.252540588378906,-7.158657073974609,0.4849241971969604,-0.0,-0.0,-1.0,0.149093129827863,1.0
15.464122772216797,-7.267202377319336,1.0662956237792969,-0.0,-0.0,-1.0,0.2044507314136228,2.0
13.84548282623291,-7.308162689208984,0.6901684999465942,-0.0,-0.0,-1.0,0.2307329635321016,2.0
14.53989315032959,-8.159157752990723,0.6693934202194214,-0.0,-0.0,-1.0,0.1446830168378648,2.0
14.656082153320312,-8.199898719787598,0.6691571474075317,-0.906284334045655,0.349253099158973,0.2380566709657097,0.1760143603989747,5.0
15.22921371459961,-7.910209655761719,0.6840204000473022,-0.0,-0.0,-1.0,0.1399442353398559,1.0
15.3360013961792,-7.260924339294434,0.7064367532730103,-0.0,-0.0,-1.0,0.1410355099284214,1.0
13.860528945922852,-7.8921122550964355,0.3832184076309204,-0.0,-0.0,-1.0,0.1191168726645368,2.0
14.215662002563477,-7.854658603668213,0.3956982493400574,-0.0,-0.0,-1.0,0.0349507164116121,1.0
14.299742698669434,-7.0840582847595215,0.4282987117767334,-0.0,-0.0,-1.0,0.2244737934946232,2.0
15.002880096435549,-6.558376789093018,0.470735490322113,-0.0,-0.0,-1.0,0.1270400460239109,1.0
15.571337699890137,-6.754622936248779,0.48007732629776,-0.0,-0.0,-1.0,0.1652121033131213,1.0
15.187045097351074,-7.225975513458252,0.994795858860016,-0.0,-0.0,-1.0,0.0516601507283419,1.0
14.442672729492188,-6.728786468505859,0.2665519714355469,-0.0,-0.0,-1.0,0.2020222389686067,1.0
14.513949394226074,-6.844203948974609,0.2582778334617615,-0.0,-0.0,-1.0,0.1257659649583946,1.0
15.586864471435549,-6.375348091125488,0.3026434779167175,-0.0,-0.0,-1.0,0.1910458649620831,2.0
14.025079727172852,-7.231631278991699,0.7639778852462769,-0.2522488905123038,0.6388488211055695,-0.726803055171988,0.154681570412935,4.0
14.683666229248049,-8.163951873779297,0.7076635360717773,-0.4111099119219184,-0.9114365733537296,0.0164928188240881,0.2147246109268765,7.0
15.667731285095217,-6.9253034591674805,0.7560703754425049,-0.0,-0.0,-1.0,0.1187327935245776,2.0
15.550272941589355,-7.275664329528809,0.7398488521575928,-0.0,-0.0,-1.0,0.12774080426332,1.0
13.730670928955078,-7.338776111602783,0.3426972031593323,-0.0,-0.0,-1.0,0.1306355842726113,1.0
13.954520225524902,-7.471310138702393,0.3347406983375549,-0.7748059975709108,0.0969092734095893,-0.6247273476128378,0.1494958334325298,5.0
14.203866958618164,-7.121337413787842,0.363851249217987,-0.0,-0.0,-1.0,0.2848374649121684,1.0
14.141569137573242,-7.619509220123291,0.3246316909790039,-0.5379344437042597,0.0539989353323183,-0.841255400731291,0.0240832988591171,3.0
14.569746971130373,-7.299615383148193,0.3528550267219543,-0.0,-0.0,-1.0,0.1454366399165421,1.0
14.416498184204102,-7.7153754234313965,0.318952202796936,-0.0,-0.0,-1.0,0.0522849003597275,1.0
15.302285194396973,-6.510156154632568,0.4199333786964416,-0.0,-0.0,-1.0,0.1517472391564961,1.0
14.604059219360352,-8.088899612426758,0.8105119466781616,-0.0,-0.0,-1.0,0.1134493600160857,1.0
15.551742553710938,-6.424304485321045,0.428199827671051,-0.0,-0.0,-1.0,0.1246293447402328,1.0
15.51284885406494,-7.245843410491943,0.839256763458252,-0.7473935046483838,-0.5293598562694478,0.40147365016872,0.0977861621279538,4.0
14.33001708984375,-7.191298484802246,0.2971171140670776,-0.0,-0.0,-1.0,0.1859208475312027,1.0
14.455214500427246,-6.712044715881348,0.3377392292022705,-0.0,-0.0,-1.0,0.2465260829835493,2.0
13.913432121276855,-7.1873931884765625,0.7754988670349121,-0.0,-0.0,-1.0,0.1642514841370987,2.0
14.65837287902832,-8.046375274658203,0.7236796617507935,-0.0631359940048904,-0.8307141572087335,-0.5531074355620235,0.21701868864908,7.0
15.47170066833496,-7.235668182373047,0.7651981711387634,-0.8559514057263514,-0.3997450949070069,-0.3279497676975409,0.116899705778963,5.0
13.95431137084961,-8.199666976928711,0.5366693735122681,-0.0,-0.0,-1.0,0.1118928284349912,1.0
13.999176025390623,-7.248522281646728,0.6063109040260315,-0.0,-0.0,-1.0,0.1989449084106559,2.0
14.622981071472168,-7.041745662689209,0.6243324279785156,-0.0,-0.0,-1.0,0.17923591981996,2.0
14.579788208007812,-7.933085918426514,0.5580213069915771,-0.0,-0.0,-1.0,0.141658126166032,1.0
14.750653266906738,-8.154439926147461,0.541293740272522,-0.6831947799730955,-0.5956268885093412,-0.4224612435504528,0.2795952212627742,3.0
15.295126914978027,-6.51161527633667,0.6658265590667725,-0.0,-0.0,-1.0,0.109262153676142,2.0
15.434956550598145,-7.202945232391357,0.6147010326385498,-0.0,-0.0,-1.0,0.1852095593284602,1.0
15.48975944519043,-7.877586841583252,0.5624943971633911,0.2597348928962921,-0.310079925943259,-0.9145426315591716,0.1266752477849938,5.0
15.508727073669434,-7.278225421905518,0.6090412139892578,0.3600212792303656,0.076411877396378,-0.9298096060452872,0.2202229031494122,9.0
15.492368698120115,-7.261127948760986,1.035463809967041,-0.0721922721171518,-0.9639625486863596,-0.256055620084116,0.061199956677254,3.0
15.434514999389648,-7.805542469024658,1.008372783660889,-0.0,-0.0,-1.0,0.0827771063156768,2.0
15.557051658630373,-7.803649425506592,1.0053925514221191,-0.3108682488454793,0.916735509869613,0.2509122093558728,0.1066187606053539,7.0
13.842120170593262,-6.897421836853027,0.2074688673019409,-0.0,-0.0,-1.0,0.0374032583756555,2.0
13.913785934448242,-7.97991943359375,0.5886170864105225,-0.0,-0.0,-1.0,0.1538637216816197,1.0
14.543805122375488,-6.500310897827148,0.276812195777893,-0.0,-0.0,-1.0,0.2528592060764595,1.0
15.689045906066896,-7.718513488769531,0.2292523384094238,-0.0,-0.0,-1.0,0.1579574334331265,2.0
14.059943199157717,-7.210143566131592,0.6389603614807129,-0.0,-0.0,-1.0,0.1030488137056162,2.0
14.1767578125,-7.177778720855713,0.6437719464302063,-0.0,-0.0,-1.0,0.172185610376101,1.0
14.556862831115724,-7.867373466491699,0.6093556880950928,-0.0,-0.0,-1.0,0.1139439141141733,1.0
14.752031326293944,-7.070613861083984,0.6640194058418274,-0.0,-0.0,-1.0,0.0978103497307693,1.0
14.63210678100586,-8.030176162719727,0.6000961661338806,-0.0,-0.0,-1.0,0.1636049091101593,2.0
14.754593849182127,-8.184410095214844,0.5919689536094666,-0.4442450716612657,-0.865137659878693,-0.2327727341513523,0.2042151943128349,3.0
15.37216567993164,-7.84533166885376,0.6259077787399292,-0.502324607340435,0.0540879022104865,-0.8629857980840396,0.0899322586602286,5.0
15.308051109313965,-6.509612560272217,0.7112187743186951,-0.0,-0.0,-1.0,0.1155746183875136,2.0
15.609222412109377,-6.911088943481445,0.6928774118423462,-0.0,-0.0,-1.0,0.1217579848253267,2.0
15.63913345336914,-7.291362285614014,0.6683883666992188,-0.3686555995144601,-0.5844156311333222,-0.7228771811543607,0.1903365240545374,3.0
15.488736152648926,-7.849835872650147,0.6275203227996826,-0.0422317263718994,-0.900523673953595,-0.4327511917219504,0.1229203135624821,7.0
15.546963691711426,-7.817643165588379,1.0456809997558594,0.0673016140216586,0.9295817543495634,0.3624199976966883,0.1023597025776401,4.0
14.118616104125977,-6.473104476928711,0.4025037288665771,-0.0,-0.0,-1.0,0.1509524421133938,2.0
14.060384750366213,-7.362063884735107,0.3273123502731323,-0.0,-0.0,-1.0,0.1107917551799226,2.0
14.290847778320312,-7.6227707862854,0.325850248336792,-0.0,-0.0,-1.0,0.0478891879389861,2.0
14.48437786102295,-6.787086009979248,0.4124975204467773,-0.0,-0.0,-1.0,0.2253224793910304,1.0
14.568075180053713,-7.213974475860596,0.385145902633667,-0.0,-0.0,-1.0,0.2132213849317694,2.0
14.597222328186035,-7.727768898010254,0.3432017564773559,-0.0,-0.0,-1.0,0.0862657847590066,1.0
15.208625793457031,-7.767679691314697,0.3911306858062744,-0.0,-0.0,-1.0,0.1112416526357098,2.0
15.1932373046875,-7.931673049926758,0.3744540214538574,-0.0,-0.0,-1.0,0.0783011976823515,1.0
15.263285636901855,-8.249958992004395,0.3495140075683594,-0.0,-0.0,-1.0,0.2094826671810351,2.0
15.41919231414795,-7.249202728271484,0.4562220573425293,-0.0,-0.0,-1.0,0.1534604195662422,2.0
15.326353073120115,-8.033923149108887,0.3755331039428711,-0.0,-0.0,-1.0,0.1382217843034531,1.0
15.594888687133787,-6.815976142883301,0.5096025466918945,-0.0,-0.0,-1.0,0.1792856347009412,2.0
15.618700981140137,-6.913273334503174,0.5032107830047607,-0.382098921232205,0.0973495715237327,-0.9189795837325936,0.1828112296849715,3.0
13.95024871826172,-7.200212001800537,0.7707207202911377,-0.2824421283131273,-0.5078436519914911,-0.8138312289940075,0.1642514841370987,3.0
14.048920631408691,-7.345827579498291,0.7674136161804199,-0.0,-0.0,-1.0,0.2644255479728806,1.0
14.677602767944336,-8.06067180633545,0.7551792860031128,-0.2241204494634502,-0.6137583690565299,-0.7570143251916501,0.1807879544774076,7.0
15.517598152160645,-7.22052526473999,0.8612067103385925,-0.9819738272316804,-0.1332379777091906,-0.134071040601359,0.0860222300389458,5.0
13.939836502075195,-8.353883743286133,0.4574753046035766,-0.0,-0.0,-1.0,0.0925524120871726,2.0
15.531018257141112,-7.5850300788879395,0.2516945600509643,-0.0,-0.0,-1.0,0.1663397427147181,2.0
15.693971633911133,-7.72806978225708,0.2528461217880249,-0.0,-0.0,-1.0,0.1566081096011399,2.0
13.960410118103027,-7.243283271789551,0.550236701965332,0.0225248143577504,-0.2436808727946045,-0.9695938659934938,0.2018095530615119,3.0
14.193227767944336,-6.390088081359863,0.6313093900680542,-0.0,-0.0,-1.0,0.1080336967505497,1.0
14.550952911376951,-7.854556560516357,0.5467482805252075,-0.0,-0.0,-1.0,0.1381262989945645,2.0
14.614401817321776,-7.104188919067383,0.6134146451950073,-0.0,-0.0,-1.0,0.17923591981996,2.0
14.737615585327148,-8.052847862243652,0.5433207750320435,-0.9735440755558292,-0.2240037485749697,0.0451027003017229,0.1965412782365678,8.0
15.403557777404783,-7.856765270233154,0.6097922325134277,-0.502324607340435,0.0540879022104865,-0.8629857980840396,0.0896543457968157,5.0
15.10440158843994,-8.329081535339355,0.5446416139602661,-0.0,-0.0,-1.0,0.1006709577696625,2.0
15.546015739440918,-7.243524074554443,0.6745562553405762,-0.7057941955138929,-0.7081759620136983,0.0184759412444925,0.1516079017218465,4.0
15.654102325439451,-7.311301231384277,0.6768742799758911,-0.3686555995144601,-0.5844156311333222,-0.7228771811543607,0.1903365240545374,3.0
15.501169204711914,-7.862418651580811,0.6163381338119507,-0.3112821636244865,-0.9456955854359176,0.0936123618774532,0.1225395386190013,9.0
14.105246543884276,-7.116704940795898,0.99660462141037,-0.0,-0.0,-1.0,0.0537287884489385,2.0
15.522890090942385,-7.268369674682617,1.0541212558746338,-0.243668184121252,-0.9698400547263972,-0.0060070205052552,0.0991336420751552,5.0
15.510208129882812,-7.802403926849365,1.0160655975341797,0.358207477426019,0.7878686642550522,0.5009494695086999,0.1066187606053539,5.0
13.732938766479492,-7.123146057128906,0.2488480806350708,-0.0,-0.0,-1.0,0.0545106043156768,1.0
14.29844093322754,-6.418359756469727,0.3428734540939331,-0.0,-0.0,-1.0,0.200657200660197,2.0
14.249735832214355,-7.109637260437012,0.3118962049484253,-0.0,-0.0,-1.0,0.2086283076334761,1.0
14.239964485168455,-7.373857498168945,0.2987717390060425,-0.0,-0.0,-1.0,0.1107973382243911,1.0
14.308652877807615,-7.653278350830078,0.2933814525604248,-0.0,-0.0,-1.0,0.0493480935959232,2.0
14.427264213562012,-6.753353595733643,0.3475362062454223,0.153057563711056,0.984565336204138,0.0848792138044956,0.1646760412363686,5.0
14.495720863342283,-6.768990516662598,0.3553134202957153,0.0055962325679272,0.6759287749334378,-0.7369457058685043,0.1887859333316977,4.0
14.66118621826172,-7.206663131713867,0.356805682182312,-0.0,-0.0,-1.0,0.1931109482632336,2.0
14.683195114135742,-7.8296051025390625,0.326960802078247,-0.0,-0.0,-1.0,0.1393401761726902,1.0
14.854410171508787,-8.105008125305176,0.3295536041259765,-0.0,-0.0,-1.0,0.2125917546902661,1.0
15.05840015411377,-8.296343803405762,0.3397420644760132,-0.0,-0.0,-1.0,0.1427807807761674,2.0
15.082438468933104,-7.657321929931641,0.3824415206909179,-0.0,-0.0,-1.0,0.1241769156359173,1.0
15.266663551330566,-7.880570411682129,0.3898025751113891,-0.0,-0.0,-1.0,0.1615960077853114,1.0
15.384110450744627,-7.215653419494629,0.4412930011749267,-0.0,-0.0,-1.0,0.1664072246681512,1.0
15.52016830444336,-7.907868385314941,0.4162040948867798,-0.0,-0.0,-1.0,0.1422610764206315,2.0
13.8322114944458,-7.239426612854004,0.6873918771743774,-0.0,-0.0,-1.0,0.1612997775624257,1.0
14.231677055358888,-7.156327247619629,0.7247329950332642,-0.7743709732821428,-0.6327317710688128,0.0003187760817744,0.1467459434129938,4.0
14.23125171661377,-7.418997764587402,0.7162348031997681,-0.0,-0.0,-1.0,0.2683482125531395,1.0
14.629960060119627,-7.8201189041137695,0.7344506978988647,-0.0,-0.0,-1.0,0.1746499467433889,1.0
14.664998054504396,-8.16092300415039,0.7221347093582153,-0.9487593712962652,-0.172331374005558,0.2648727107704234,0.2355918399507439,5.0
14.69998550415039,-8.031787872314453,0.7308986186981201,-0.1798932523010782,-0.7687753802172277,-0.6136960424741208,0.1436354202512665,7.0
15.383493423461914,-7.85303783416748,0.7939964532852173,-0.0,-0.0,-1.0,0.0499236479193619,2.0
15.350223541259766,-6.507794380187988,0.4693914651870727,-0.0,-0.0,-1.0,0.1663374812178207,1.0
15.612764358520508,-6.843000888824463,0.4866286516189575,-0.0,-0.0,-1.0,0.1548482443236174,2.0
15.535276412963867,-7.248821258544922,0.8327088356018066,-0.6053495894405507,-0.5540557241344182,0.5714666474240141,0.1000796426087997,5.0
15.50736141204834,-7.833957672119141,0.804755687713623,-0.0,-0.0,-1.0,0.0671486457082521,1.0
13.856501579284668,-7.157702445983887,1.1185553073883057,-0.3963078343459063,-0.9057607881459324,-0.1501249316180278,0.107267590256189,5.0
15.075980186462402,-7.680602550506592,0.2924494743347168,-0.0,-0.0,-1.0,0.1029455630386341,1.0
15.357282638549805,-8.042991638183594,0.3104784488677978,-0.0,-0.0,-1.0,0.1121655001263903,1.0
