x,y,z,nx,ny,nz,curvature,density,label
8.866510391235352,2.023231506347656,0.0226237773895263,-0.0,-0.0,-1.0,0.0450188207883705,1.0,1.0
9.184563636779783,2.225168228149414,0.0488009452819824,-0.8066369586215456,0.5515810963371106,-0.212356095154659,0.1091422361351864,3.0,1.0
8.013922691345215,1.0012683868408203,0.6182465553283691,-0.0,-0.0,-1.0,0.2361689745892917,2.0,1.0
9.663954734802246,3.025175094604492,0.1564114093780517,-0.2285934966215106,0.0019375515488963,-0.973520035333812,0.1841245157014808,4.0,1.0
9.778026580810549,2.510507583618164,0.0836110115051269,-0.0,-0.0,-1.0,0.1408546723247267,2.0,1.0
9.756450653076172,3.00506591796875,0.152909517288208,-0.0,-0.0,-1.0,0.1827154108959537,1.0,1.0
9.893455505371094,2.4586143493652344,0.0750625133514404,-0.0,-0.0,-1.0,0.0742123628624816,2.0,1.0
9.039556503295898,1.7553138732910156,0.6779264211654663,-0.0,-0.0,-1.0,0.1881255646001634,2.0,1.0
9.27741813659668,1.7096710205078125,0.6677953004837036,0.4099377845561109,0.480578756289662,-0.7752387192318954,0.2313871168235357,3.0,1.0
9.52264404296875,2.709413528442383,0.7691171169281006,-0.0,-0.0,-1.0,0.1157955797738159,1.0,1.0
9.882360458374023,0.8409824371337891,0.5574694871902466,-0.0,-0.0,-1.0,0.1833283716440778,1.0,1.0
9.099489212036133,1.7941322326660156,1.367729663848877,0.399321767831272,-0.9061356300086704,-0.1395003432429394,0.2033361599863844,5.0,2.0
9.327319145202637,1.7292938232421875,1.3545316457748413,-0.0,-0.0,-1.0,0.2439218087823755,1.0,2.0
7.763279914855957,2.146869659423828,-0.0384306907653808,-0.0,-0.0,-1.0,0.0757220160141917,2.0,0.0
8.23119068145752,2.2492408752441406,-0.0157489776611328,-0.0,-0.0,-1.0,0.045777879057308,1.0,0.0
8.334182739257812,1.9722671508789065,-0.0499329566955566,-0.0,-0.0,-1.0,0.072741402655955,1.0,0.0
8.479571342468262,2.2488059997558594,-0.0113029479980468,-0.0,-0.0,-1.0,0.0277456784487165,2.0,0.0
8.792498588562012,2.095979690551758,-0.026609182357788,0.8186711929327671,-0.5714472869792903,0.05679327483117,0.0392269522001738,4.0,0.0
9.107833862304688,2.175434112548828,-0.0120491981506347,-0.0,-0.0,-1.0,0.0857677001647034,2.0,0.0
9.715412139892578,3.0526065826416016,0.1116690635681152,-0.0,-0.0,-1.0,0.1922533882919392,2.0,1.0
9.873605728149414,2.5338611602783203,0.0430197715759277,-0.0,-0.0,-1.0,0.068995389945898,1.0,1.0
9.004029273986816,1.755289077758789,0.6165516376495361,-0.0,-0.0,-1.0,0.1473127867020501,2.0,1.0
9.282356262207031,1.782510757446289,0.617864727973938,-0.8061704689669281,-0.5845448872086823,0.0916321439443195,0.2007511448808595,7.0,1.0
9.34671688079834,1.7041263580322266,0.6094012260437012,-0.0,-0.0,-1.0,0.1515770053157411,1.0,1.0
9.561643600463867,2.7502880096435547,0.7152063846588135,-0.0,-0.0,-1.0,0.1348693597567567,1.0,1.0
9.937908172607422,0.8664207458496094,0.5160084962844849,-0.0,-0.0,-1.0,0.1595312849041329,1.0,1.0
9.818784713745115,2.5546646118164062,0.6935889720916748,-0.0,-0.0,-1.0,0.140472466667894,1.0,1.0
9.013089179992676,1.790998458862305,1.3004138469696045,-0.0,-0.0,-1.0,0.1685253795851721,2.0,2.0
9.280420303344728,1.7980670928955078,1.2954987287521362,-0.0,-0.0,-1.0,0.2324752007206608,1.0,2.0
9.423698425292969,1.7189979553222656,1.286853313446045,-0.0,-0.0,-1.0,0.2110232204669431,1.0,2.0
7.883150100708008,1.525472640991211,0.0864627361297607,-0.0,-0.0,-1.0,0.1653575355026734,1.0,1.0
8.068182945251465,1.107269287109375,0.0430724620819091,-0.0,-0.0,-1.0,0.2164735386035547,2.0,1.0
8.265291213989258,0.8563671112060547,0.0183022022247314,-0.0,-0.0,-1.0,0.065844352264387,1.0,1.0
7.879558563232422,1.7480792999267578,0.1119308471679687,-0.0,-0.0,-1.0,0.1845757483103107,2.0,1.0
8.098602294921875,1.444742202758789,0.0830562114715576,-0.0,-0.0,-1.0,0.1944744143418923,1.0,1.0
9.010361671447754,1.2900142669677734,0.0850405693054199,0.0061382861131091,-0.4210557112190566,-0.9070140073303212,0.085089827341975,3.0,1.0
8.987195014953613,1.6844024658203125,0.1316864490509033,-0.0,-0.0,-1.0,0.2119870304904199,1.0,1.0
9.44479751586914,1.259195327758789,0.0884985923767089,-0.0,-0.0,-1.0,0.055463321135088,2.0,1.0
9.823473930358888,2.344514846801758,0.2260482311248779,-0.0,-0.0,-1.0,0.1446673966895612,1.0,1.0
9.81509780883789,2.5007591247558594,0.2447569370269775,-0.0,-0.0,-1.0,0.1881085154182044,2.0,1.0
9.109298706054688,1.8021888732910156,0.8208920955657959,-0.0,-0.0,-1.0,0.2477105663588257,1.0,1.0
9.285837173461914,1.7929821014404297,0.8206653594970703,-0.0,-0.0,-1.0,0.235648811116346,1.0,1.0
9.343708992004396,1.7618446350097656,0.8180457353591919,-0.0,-0.0,-1.0,0.2397498206988327,1.0,1.0
9.893943786621094,2.7218189239501953,0.9042222499847412,-0.0,-0.0,-1.0,0.2030193278381625,1.0,1.0
9.04861831665039,1.7178058624267578,1.485889554023743,0.3254296933606829,0.4399161058795301,-0.8370001998010285,0.1682360546260967,3.0,2.0
9.30913257598877,1.719919204711914,1.4827070236206057,-0.0,-0.0,-1.0,0.237217083227595,2.0,2.0
7.731139183044434,1.4500350952148438,0.1780128479003906,-0.0,-0.0,-1.0,0.1431216399621951,1.0,1.0
8.083552360534668,1.0530433654785156,0.1459414958953857,-0.0,-0.0,-1.0,0.1364025071917111,2.0,1.0
7.930761337280273,1.5179710388183594,0.1917676925659179,-0.0,-0.0,-1.0,0.2105368264935394,2.0,1.0
8.233580589294434,1.19232177734375,0.1654248237609863,-0.0,-0.0,-1.0,0.1786141776669592,1.0,1.0
9.381414413452148,1.0882301330566406,0.1810696125030517,-0.0,-0.0,-1.0,0.0982985206568898,2.0,1.0
9.442689895629885,1.0612125396728516,0.179117202758789,-0.0,-0.0,-1.0,0.1106333381492006,1.0,1.0
9.056082725524902,1.59619140625,0.2317554950714111,-0.0,-0.0,-1.0,0.1669471437157649,1.0,1.0
9.427578926086426,1.4608650207519531,0.2246482372283935,-0.0,-0.0,-1.0,0.1304280681318131,1.0,1.0
9.724679946899414,1.105670928955078,0.1891305446624755,-0.0,-0.0,-1.0,0.1470057078073962,2.0,1.0
10.011658668518066,0.951274871826172,0.1754162311553955,-0.0,-0.0,-1.0,0.1092672829046753,2.0,1.0
9.829033851623535,2.482537269592285,0.3493721485137939,-0.0,-0.0,-1.0,0.1705217330141512,1.0,1.0
9.209566116333008,1.7733268737792969,0.9203053712844848,-0.0,-0.0,-1.0,0.1728654338128321,2.0,1.0
9.235725402832031,1.6740589141845703,1.5766067504882812,-0.0,-0.0,-1.0,0.2399263374690737,2.0,2.0
8.008344650268555,1.6884193420410156,-0.0666453838348388,-0.0,-0.0,-1.0,0.0655439959559201,2.0,0.0
8.116609573364258,1.6026954650878906,-0.0709073543548584,-0.0,-0.0,-1.0,0.0524282827230524,1.0,0.0
7.751536369323731,2.164668083190918,-0.0266947746276855,-0.0,-0.0,-1.0,0.1043853819328559,2.0,0.0
7.939172744750977,1.9371366500854492,-0.0419368743896484,-0.0,-0.0,-1.0,0.1541567419576249,2.0,0.0
8.199058532714844,1.6042747497558594,-0.0665411949157714,-0.0,-0.0,-1.0,0.0593772526138313,2.0,0.0
8.68822956085205,2.022863388061523,0.0064399242401123,-0.0780343968234372,0.636911454279735,-0.7669774653271602,0.056398569696459,3.0,1.0
8.905360221862793,1.886434555053711,0.0008082389831542,-0.0,-0.0,-1.0,0.049768769351469,1.0,1.0
9.45669651031494,2.467456817626953,0.0952286720275878,-0.0,-0.0,-1.0,0.1791436697401673,1.0,1.0
9.610283851623535,2.5420351028442383,0.1110444068908691,-0.0,-0.0,-1.0,0.1899155666196809,1.0,1.0
8.943493843078613,1.7673625946044922,0.655561089515686,-0.0,-0.0,-1.0,0.1389419839087487,1.0,1.0
9.220056533813477,1.6583576202392578,0.6530346870422363,-0.0,-0.0,-1.0,0.1479304048138675,2.0,1.0
9.649426460266112,2.5276575088500977,0.7421828508377075,-0.0,-0.0,-1.0,0.0936210628715516,1.0,1.0
8.773999214172363,1.7199592590332031,1.314275860786438,-0.7336958640487617,-0.6729751816987916,0.0937805091435275,0.1160154758148209,3.0,2.0
9.04289436340332,1.7817926406860352,1.3201743364334106,0.5903037386590789,0.3522448991273297,-0.7262678756243393,0.21494000878524,3.0,2.0
9.27381420135498,1.7252922058105469,1.3184880018234253,-0.0,-0.0,-1.0,0.2214683340326634,1.0,2.0
8.620903015136719,2.675067901611328,-0.0296082496643066,-0.0,-0.0,-1.0,0.0211284618097616,1.0,0.0
8.854765892028809,2.5965442657470703,-0.0205388069152832,-0.0,-0.0,-1.0,0.0265025748941757,1.0,0.0
8.661452293395996,3.047466278076172,0.0126328468322753,-0.0,-0.0,-1.0,0.0411620337224778,1.0,1.0
8.939181327819824,2.829129219055176,0.0107636451721191,-0.0,-0.0,-1.0,0.0211049713974218,2.0,1.0
9.375533103942873,2.4947662353515625,0.0054812431335449,-0.0,-0.0,-1.0,0.133851522727583,1.0,1.0
7.872379302978516,1.004446029663086,0.4460879564285278,-0.6880916843357668,-0.1560588064691694,0.7086434102363373,0.1261044525254574,4.0,1.0
8.032697677612305,1.1032476425170898,0.4621839523315429,-0.0,-0.0,-1.0,0.1512735451601485,1.0,1.0
9.718335151672363,0.8645381927490234,0.5161325931549072,0.9807958391868912,-0.1313747608953063,-0.1441533698301338,0.1588551976575863,8.0,1.0
8.859969139099121,1.7120208740234375,0.5526734590530396,-0.0,-0.0,-1.0,0.0964421953393299,2.0,1.0
9.191089630126951,1.6468801498413086,0.5626206398010254,-0.0,-0.0,-1.0,0.2441560333972289,2.0,1.0
9.58912181854248,3.03778076171875,0.08050537109375,0.0360565108470653,-0.2593967750867688,-0.965097529320286,0.2581640916982478,4.0,1.0
9.079843521118164,1.764116287231445,0.5674176216125488,-0.0,-0.0,-1.0,0.2414938727104851,2.0,1.0
9.142938613891602,1.741413116455078,0.5684257745742798,-0.0,-0.0,-1.0,0.1442470479080927,2.0,1.0
9.48256015777588,2.6367359161376953,0.6591914892196655,-0.0,-0.0,-1.0,0.1042665264591542,2.0,1.0
8.983800888061523,1.8794403076171875,1.230635404586792,-0.0,-0.0,-1.0,0.1666906660297194,1.0,2.0
9.243293762207031,1.716753005981445,1.2284610271453855,0.9552124200910908,-0.2305581948267861,0.1855051247322703,0.2458635715112643,4.0,2.0
9.061342239379885,1.9011449813842771,1.2339624166488647,-0.0,-0.0,-1.0,0.2197871663893574,2.0,2.0
7.899800300598144,1.1331872940063477,0.1979670524597168,-0.0,-0.0,-1.0,0.213184070712728,2.0,1.0
8.042778015136719,1.3066654205322266,0.2217731475830078,-0.0,-0.0,-1.0,0.2774681471972972,1.0,1.0
8.73262882232666,1.2959260940551758,0.2755694389343261,-0.0,-0.0,-1.0,0.1449433096337896,1.0,1.0
9.23944854736328,1.1264705657958984,0.3006618022918701,-0.0,-0.0,-1.0,0.1032741704741003,2.0,1.0
9.734817504882812,1.0170583724975586,0.3272297382354736,-0.1885222325634805,0.6803608120845297,-0.708215033170689,0.1969261489248374,5.0,1.0
9.880437850952148,0.8186836242675781,0.3211631774902344,-0.4755135524964448,0.2960549422483083,-0.8283950341247599,0.0938272543881742,6.0,1.0
8.874547004699707,1.6905851364135742,0.315671443939209,-0.0,-0.0,-1.0,0.1710776850723102,1.0,1.0
9.590505599975586,1.148305892944336,0.3275895118713379,-0.7021205382813039,0.6983011480091265,0.1392919825858896,0.1972715185795208,5.0,1.0
9.120912551879885,1.6867542266845703,0.3344054222106933,-0.0,-0.0,-1.0,0.2049168703763315,2.0,1.0
9.242300033569336,1.6772375106811523,0.3429040908813476,-0.0,-0.0,-1.0,0.2344781512490865,1.0,1.0
9.198695182800291,1.7008390426635742,1.012656569480896,-0.0,-0.0,-1.0,0.1386772134469588,1.0,2.0
9.207571029663086,1.5984153747558594,1.0082889795303345,-0.0,-0.0,-1.0,0.1524342543852284,2.0,2.0
9.05547046661377,1.8411178588867188,1.0112873315811155,-0.0,-0.0,-1.0,0.2082945286176293,2.0,2.0
9.052794456481934,1.7568626403808594,1.6768383979797363,-0.3352423053416893,0.524061122601724,-0.7829256264081603,0.2054314716135589,4.0,2.0
9.77691650390625,1.3796453475952148,0.043649673461914,-0.0,-0.0,-1.0,0.0226920794982153,2.0,1.0
9.948976516723633,1.2354240417480469,0.0475397109985351,-0.0,-0.0,-1.0,0.055764269053845,2.0,1.0
8.286818504333496,2.4702377319335938,-0.02201509475708,-0.0,-0.0,-1.0,0.061566870706638,1.0,0.0
8.455143928527832,2.2621994018554688,-0.0189330577850341,-0.0,-0.0,-1.0,0.0252939607893026,2.0,0.0
8.802103996276855,2.097139358520508,0.0047965049743652,0.8746716321378284,-0.4139175381559667,-0.2522336368136714,0.0437473038049665,3.0,1.0
8.3185453414917,2.749152183532715,0.0003199577331542,0.6865206043816703,0.0271988812341282,-0.726601459273953,0.0743279928466697,3.0,1.0
7.845450401306152,1.063462257385254,0.5744956731796265,-0.0,-0.0,-1.0,0.1401436658168408,1.0,1.0
9.584565162658691,3.075662612915039,0.1550436019897461,-0.0,-0.0,-1.0,0.1328975046698884,2.0,1.0
9.210959434509276,1.679549217224121,0.7073796987533569,-0.0,-0.0,-1.0,0.2432155694761516,2.0,1.0
8.916345596313477,1.8192386627197263,0.6921862363815308,-0.0,-0.0,-1.0,0.2888424442670347,1.0,1.0
9.161535263061523,1.7762632369995115,0.708504319190979,-0.0,-0.0,-1.0,0.2309070946163645,2.0,1.0
9.662667274475098,2.6145009994506836,0.7869089841842651,-0.0,-0.0,-1.0,0.1539022963002587,1.0,1.0
8.725829124450684,1.7716588973999023,1.3734686374664309,-0.0,-0.0,-1.0,0.0822661706024885,2.0,2.0
8.907772064208984,1.8288640975952148,1.3843004703521729,-0.0,-0.0,-1.0,0.1322501827768504,2.0,2.0
9.26947784423828,1.680037498474121,1.3996564149856567,-0.0,-0.0,-1.0,0.181205768876493,2.0,2.0
9.075658798217772,1.8092470169067385,1.3926405906677246,0.8881571852411145,-0.3197679847771139,0.3300382556858582,0.1548067860440191,4.0,2.0
9.177882194519045,1.777151107788086,1.397207260131836,-0.3036285755910289,-0.6045546719225764,-0.7364260565332741,0.2435221126196578,3.0,2.0
9.35122776031494,0.981863021850586,0.4426040649414062,-0.0,-0.0,-1.0,0.0959713247212455,1.0,1.0
9.659218788146973,0.7514896392822266,0.4488053321838379,-0.0,-0.0,-1.0,0.194400144560358,1.0,1.0
9.226364135742188,1.057708740234375,0.4386696815490722,0.903556349469042,0.2586646513208187,0.3415823787774448,0.1856878785087079,4.0,1.0
9.22120475769043,1.6890878677368164,0.4769405126571655,0.2679712477303244,-0.3317087405951355,-0.904522372195758,0.1880773756384307,3.0,1.0
9.34083366394043,1.6898937225341797,1.1975104808807373,0.6722609270139207,0.296549464996824,-0.6783241561528538,0.2106632264425127,5.0,2.0
9.823341369628906,0.912841796875,0.5277771949768066,0.5525484343521003,-0.7390828186430584,-0.3852879635826617,0.1900635193958717,3.0,1.0
9.84832000732422,0.7160129547119141,0.4411919116973877,0.0102861804437867,0.8464296863709584,0.532401146243919,0.199245065203929,3.0,1.0
9.157878875732422,1.5061254501342771,0.6497713327407837,-0.0,-0.0,-1.0,0.1545027516434289,2.0,1.0
9.286148071289062,1.3766632080078125,0.2993003129959106,-0.0,-0.0,-1.0,0.1353619402890996,1.0,1.0
9.071441650390623,1.5015497207641602,1.8152596950531008,-0.0,-0.0,-1.0,0.1401718826264093,1.0,2.0
9.169490814208984,1.5439386367797852,1.1989721059799194,0.3984054998920696,-0.6565947839351421,-0.640434498887212,0.2039383931469796,3.0,2.0
9.234882354736328,1.3260021209716797,1.1968201398849487,-0.0,-0.0,-1.0,0.1555305647742366,1.0,2.0
9.080127716064451,1.719686508178711,0.7507433891296387,-0.0,-0.0,-1.0,0.1238224029558629,2.0,1.0
9.264984130859377,1.5333681106567385,0.7556385397911072,0.0810083112819596,0.9923057495079792,0.0936320083980496,0.2426931870730455,4.0,1.0
9.099987030029297,1.7277488708496094,0.7305247187614441,-0.0,-0.0,-1.0,0.1944392342573461,2.0,1.0
9.256290435791016,1.5344247817993164,0.7354016304016113,0.0810083112819596,0.9923057495079792,0.0936320083980496,0.2348078074328713,4.0,1.0
9.20095443725586,1.871196746826172,0.9645231366157532,-0.7022003208380162,-0.4962358349810142,-0.5105533326653372,0.120553919376775,5.0,1.0
9.24799346923828,1.728851318359375,0.9647017121315002,-0.7706204107308527,0.3771575260186612,0.513708461223382,0.1965970380935195,4.0,1.0
9.196422576904297,1.5542888641357422,0.9639130234718324,-0.0,-0.0,-1.0,0.1658609004217615,2.0,1.0
9.120773315429688,1.8092899322509768,0.7367679476737976,-0.0,-0.0,-1.0,0.2588920915561179,2.0,1.0
9.111480712890623,1.5633554458618164,0.7336405515670776,-0.0,-0.0,-1.0,0.2295257050474243,1.0,1.0
8.943599700927734,1.9495182037353516,0.5059396028518677,-0.0,-0.0,-1.0,0.1849741537816275,1.0,1.0
9.876163482666016,0.9105949401855468,0.5315662026405334,-0.0,-0.0,-1.0,0.1885566920842269,1.0,1.0
9.182498931884766,1.7398500442504885,0.2560833692550659,-0.5085009534268464,-0.8465473311225404,0.1574306086289823,0.2341475173984314,3.0,1.0
8.89822769165039,1.814199447631836,0.2477996349334716,-0.0,-0.0,-1.0,0.1879974569958753,1.0,1.0
9.89642333984375,1.0397958755493164,0.2793213129043579,-0.0,-0.0,-1.0,0.1680646850937671,1.0,1.0
9.941734313964844,0.9048500061035156,0.2812080383300781,0.1853597205575632,0.1065215698194005,-0.9768802020504014,0.1997313253639288,3.0,1.0
9.91598892211914,0.6774320602416992,0.2815413475036621,-0.0,-0.0,-1.0,0.1085599977362728,2.0,1.0
8.925762176513672,1.9337701797485352,1.6941368579864502,-0.0,-0.0,-1.0,0.2339948859572647,1.0,2.0
9.298053741455078,0.6724491119384766,0.8141902685165405,-0.0,-0.0,-1.0,0.1484617160470219,1.0,1.0
9.076446533203123,1.232746124267578,0.368257999420166,-0.0,-0.0,-1.0,0.1572166596811323,1.0,1.0
8.858440399169922,1.3913259506225586,0.38319993019104,-0.0,-0.0,-1.0,0.1495799606032946,1.0,1.0
9.206790924072266,0.896296501159668,1.2609639167785645,-0.0,-0.0,-1.0,0.1124707634172259,1.0,2.0
8.961708068847656,1.1218557357788086,1.2673686742782593,-0.0,-0.0,-1.0,0.1372932006939552,1.0,2.0
9.051044464111328,1.6951837539672852,0.7984811663627625,-0.0,-0.0,-1.0,0.2420662174409326,2.0,1.0
9.07266616821289,1.4850454330444336,0.7997328042984009,-0.0,-0.0,-1.0,0.2191119344700551,1.0,1.0
9.102203369140623,1.4883079528808594,0.7077540159225464,-0.0,-0.0,-1.0,0.1619526380700001,2.0,1.0
8.975841522216797,1.665207862854004,0.7080009579658508,-0.0,-0.0,-1.0,0.1936973603637405,2.0,1.0
8.928848266601562,1.6001272201538086,1.6379964351654053,-0.0,-0.0,-1.0,0.179677478850952,1.0,2.0
8.86867904663086,1.7452917098999023,1.73391592502594,-0.0,-0.0,-1.0,0.1276825062528099,1.0,2.0
9.647705078125,2.500491142272949,0.3652131557464599,-0.4374479630616243,-0.1443030853146051,-0.887589938643922,0.2710978591329899,4.0,1.0
9.831588745117188,0.7806634902954102,0.320813238620758,-0.5876447335186689,0.6849052081638489,-0.4307882577297197,0.2209903072316928,5.0,1.0
9.582592010498049,1.025284767150879,0.3228279948234558,-0.7044011285680383,0.6892575779437692,-0.1695377283060132,0.1428286268839173,3.0,1.0
8.872722625732422,1.7068986892700195,1.6065905094146729,-0.0,-0.0,-1.0,0.2031495048471313,1.0,2.0
8.8446044921875,1.5630197525024414,1.6045531034469604,-0.0,-0.0,-1.0,0.1051992990712161,1.0,2.0
9.631818771362305,2.4710159301757812,0.1966786384582519,-0.6155441848698158,-0.0297477427002796,-0.7875407470583299,0.2327969834687135,3.0,1.0
9.67593765258789,1.1241512298583984,0.1497422456741333,-0.0,-0.0,-1.0,0.0925411210306491,2.0,1.0
10.052776336669922,0.7814559936523438,0.145965576171875,-0.0,-0.0,-1.0,0.1142606025249524,2.0,1.0
9.908620834350586,0.8765583038330078,0.1461182832717895,-0.0,-0.0,-1.0,0.1822118906477375,2.0,1.0
9.391149520874023,1.1319465637207031,0.1435307264328003,-0.0,-0.0,-1.0,0.0826694606941168,2.0,1.0
9.028379440307615,1.1097211837768557,0.134456992149353,-0.0,-0.0,-1.0,0.1201121179949707,2.0,1.0
8.787128448486328,1.8025312423706057,1.3355227708816528,-0.0,-0.0,-1.0,0.1471806677232302,2.0,2.0
8.647727966308594,1.8757753372192385,1.3385443687438965,-0.0,-0.0,-1.0,0.1475126558024546,2.0,2.0
9.063335418701172,1.4678239822387695,1.325248956680298,-0.0507060965702445,-0.8692512393262871,-0.4917633320005899,0.2295689794560349,3.0,2.0
8.956436157226562,1.678628921508789,1.331066370010376,-0.0,-0.0,-1.0,0.1744232728346081,2.0,2.0
9.760944366455078,2.5172224044799805,0.8090144991874695,-0.0,-0.0,-1.0,0.1601279369020813,2.0,1.0
8.951147079467773,1.7673397064208984,0.7810847759246826,-0.0,-0.0,-1.0,0.1382040030719769,2.0,1.0
9.06520652770996,1.5631256103515625,0.7746877074241638,-0.0,-0.0,-1.0,0.2079759050899804,1.0,1.0
9.095748901367188,1.6502227783203125,0.5693587064743042,-0.0,-0.0,-1.0,0.1978068490117638,1.0,1.0
8.875741958618164,1.7937345504760742,0.5687088370323181,-0.0,-0.0,-1.0,0.2051424136645403,1.0,1.0
7.985347747802734,1.0324392318725586,0.5375450849533081,0.3340580428485012,-0.9383119587829626,-0.089307849672404,0.2164271127615369,3.0,1.0
8.889806747436523,1.7331247329711914,1.68715238571167,-0.0,-0.0,-1.0,0.1657189265260035,2.0,2.0
8.970367431640625,1.8464670181274416,0.8903132081031799,0.9220421282424356,0.2387840017038645,0.3046645930797483,0.1763174694064798,3.0,1.0
8.826948165893555,1.900578498840332,0.8899297118186951,-0.1400477586521898,-0.3502805089654681,-0.9261156463074096,0.2112841586115759,3.0,1.0
9.05412483215332,1.7057743072509766,0.8888981342315674,-0.0,-0.0,-1.0,0.1949225498645087,2.0,1.0
9.029878616333008,1.6692581176757812,0.924543023109436,-0.0,-0.0,-1.0,0.2216916689171964,2.0,1.0
8.901153564453125,1.836528778076172,0.9277291297912598,-0.0,-0.0,-1.0,0.196010769384252,2.0,1.0
9.63947868347168,1.1098718643188477,0.2641217708587646,0.1971575558278755,-0.1557060289707174,-0.9679279574028992,0.227751975476234,3.0,1.0
9.140985488891602,1.5389795303344729,0.2678029537200928,-0.0,-0.0,-1.0,0.1709223709381293,2.0,1.0
8.936361312866211,1.6627378463745115,0.2675358057022095,-0.0,-0.0,-1.0,0.1281950622139429,2.0,1.0
9.850282669067385,0.9361515045166016,0.2627534866333008,0.609107389063412,-0.6827133740743685,-0.4035971226958191,0.1177548065039896,6.0,1.0
9.673856735229492,1.011988639831543,0.2615957260131836,0.7706514433500464,0.5300557884533901,0.353747387254726,0.135445936237076,5.0,1.0
9.28847312927246,1.0912885665893557,0.2561652660369873,-0.2202252747016614,-0.9308359121894416,-0.2916253297658278,0.1407280297678878,3.0,1.0
8.804706573486328,1.1233177185058594,0.2470731735229492,0.0966544671416664,-0.8816802828059648,-0.4618417400936759,0.2051509413642624,4.0,1.0
8.920936584472656,1.796979904174805,1.3042128086090088,-0.1231658750036771,-0.9569340155019768,-0.262882972460829,0.2203275559790929,3.0,2.0
8.713014602661133,1.8646955490112305,1.3073911666870115,-0.0,-0.0,-1.0,0.145133698049416,2.0,2.0
9.026424407958984,1.508291244506836,1.2984225749969482,-0.0,-0.0,-1.0,0.2692528726234126,2.0,2.0
9.649736404418944,1.3829574584960938,0.1242022514343261,-0.6486642835079106,-0.7561950799522157,-0.0860444557030329,0.1037988168622511,3.0,1.0
9.64531135559082,1.4943466186523438,0.1280477046966552,-0.7501194039995982,-0.5244588018430981,-0.4028198665813165,0.0584402550154973,4.0,1.0
9.002643585205078,1.633928298950195,0.1147799491882324,-0.0,-0.0,-1.0,0.2332830765095417,2.0,1.0
10.096187591552734,0.897709846496582,0.119377851486206,-0.4188886547435053,0.8735219635744277,-0.2479751481101528,0.1204496346542873,3.0,1.0
9.744295120239258,1.0889854431152344,0.1163516044616699,-0.0,-0.0,-1.0,0.0642027696427953,2.0,1.0
9.032642364501951,1.370586395263672,0.1062934398651123,-0.0,-0.0,-1.0,0.0896920852252295,1.0,1.0
8.745813369750977,1.211713790893555,0.0925226211547851,0.5434340219991298,-0.4490185664021374,-0.70926848989647,0.105864237415069,3.0,1.0
9.088531494140623,1.601719856262207,1.117224931716919,-0.0,-0.0,-1.0,0.2152462290023838,2.0,2.0
8.790618896484375,1.8927364349365232,1.1232481002807615,-0.0,-0.0,-1.0,0.1716779369233519,1.0,2.0
9.101675033569336,1.445512771606445,1.1143313646316528,-0.0,-0.0,-1.0,0.2690788651252586,1.0,2.0
9.111875534057615,1.6469030380249023,0.3907328844070434,-0.0,-0.0,-1.0,0.1151970262273028,1.0,1.0
8.818952560424805,1.7561445236206057,0.3870505690574646,-0.0,-0.0,-1.0,0.1991020316162581,1.0,1.0
8.95916748046875,1.610147476196289,1.3691513538360596,-0.0,-0.0,-1.0,0.2093237826350718,2.0,2.0
8.717826843261719,1.8062162399291992,1.3727773427963257,0.4392887550999681,-0.2446638549589875,-0.8643870589726155,0.0888324099025106,4.0,2.0
9.950931549072266,1.2964115142822266,0.0094643831253051,-0.0,-0.0,-1.0,0.0371719526553336,1.0,1.0
9.906072616577148,1.4405241012573242,0.0134574174880981,-0.0,-0.0,-1.0,0.0283747993937141,1.0,1.0
9.031892776489258,1.8053598403930664,0.9502711892127992,-0.0,-0.0,-1.0,0.2435407620033957,1.0,1.0
8.821441650390625,1.8917388916015625,0.9512113332748412,-0.0,-0.0,-1.0,0.2511105526786525,1.0,1.0
9.074478149414062,1.610966682434082,0.9467179179191588,-0.0,-0.0,-1.0,0.2514995835646609,1.0,1.0
9.11520004272461,1.6360454559326172,0.1737220287322998,-0.0,-0.0,-1.0,0.1774374147612492,2.0,1.0
9.913494110107422,0.9695024490356444,0.1965737342834472,-0.0,-0.0,-1.0,0.1932395708615207,1.0,1.0
9.633907318115234,1.162519454956055,0.1880671977996826,-0.0,-0.0,-1.0,0.1340180427287102,2.0,1.0
9.991676330566406,0.7429933547973633,0.1964309215545654,-0.0,-0.0,-1.0,0.1320340377943433,1.0,1.0
9.788686752319336,0.991724967956543,0.1918675899505615,-0.0,-0.0,-1.0,0.1010567906871614,2.0,1.0
8.92552375793457,1.1756324768066406,0.1595960855484008,-0.0,-0.0,-1.0,0.0615831083921128,2.0,1.0
9.036853790283203,1.7566261291503906,1.093913435935974,-0.0,-0.0,-1.0,0.2164420660268785,1.0,2.0
8.818056106567383,1.9439153671264648,1.090367555618286,-0.0,-0.0,-1.0,0.1813922562216505,2.0,2.0
9.890737533569336,1.2966785430908203,0.0331145524978637,-0.0,-0.0,-1.0,0.0407016886373596,1.0,1.0
9.926475524902344,1.2131881713867188,0.0313915014266967,-0.6851385106271606,0.7269391804441374,-0.0463103572735299,0.0585865725262703,3.0,1.0
8.957504272460938,1.8634090423583984,0.9159640073776244,0.9220421282424356,0.2387840017038645,0.3046645930797483,0.1687590432704394,3.0,1.0
9.035812377929688,1.6373214721679688,0.9130960702896118,-0.0,-0.0,-1.0,0.237222876229424,2.0,1.0
9.19093894958496,1.5749759674072266,0.2518359422683716,-0.0,-0.0,-1.0,0.1679849511336935,1.0,1.0
9.130046844482422,1.6319475173950195,0.2522035837173462,-0.0,-0.0,-1.0,0.2033448896221515,1.0,1.0
9.645042419433594,1.0635404586791992,0.2459268569946289,0.9795263104993168,0.1484291401472415,-0.1360036668430188,0.2496318552387685,7.0,1.0
9.218778610229492,1.0569686889648438,0.2346502542495727,-0.2037955236354685,-0.743332284658534,-0.6371220441410498,0.1057942411960859,3.0,1.0
9.976064682006836,0.7772884368896484,0.244450569152832,-0.0,-0.0,-1.0,0.1118818062370021,1.0,1.0
9.821229934692385,0.9289207458496094,0.2457786798477172,0.609107389063412,-0.6827133740743685,-0.4035971226958191,0.0877850599616688,6.0,1.0
9.29975700378418,1.0095434188842771,0.2351059913635254,-0.0,-0.0,-1.0,0.1103245655586476,2.0,1.0
8.72297477722168,1.0000429153442385,0.2197710275650024,-0.0,-0.0,-1.0,0.2380896129177978,1.0,1.0
8.68130111694336,1.0802745819091797,0.221453309059143,0.8592169903842207,0.4595120292623033,-0.2249330086899683,0.187543596305684,3.0,1.0
8.859262466430664,1.9034299850463867,1.121833086013794,-0.0,-0.0,-1.0,0.1769132120455622,1.0,2.0
9.1138916015625,1.5525970458984375,1.1166914701461792,0.9177858217022294,-0.3849994768649326,-0.0971832716885566,0.1932319610128706,3.0,2.0
8.691043853759766,1.882783889770508,1.1218602657318115,-0.0,-0.0,-1.0,0.1483883908818264,1.0,2.0
9.141176223754885,1.5873050689697266,0.2800105810165405,-0.0,-0.0,-1.0,0.1979584637277147,2.0,1.0
9.659395217895508,1.021890640258789,0.2673485279083252,0.7819369212087198,0.5163260476116784,0.3492593074040133,0.1842461353520149,5.0,1.0
9.315078735351562,1.0828628540039062,0.262967586517334,0.2353012856732295,0.4958733332019551,-0.8359084533486355,0.1343045543553357,5.0,1.0
8.758014678955078,1.111659049987793,0.2529256343841553,-0.1628147301451236,0.1636312358800019,-0.9729934132830264,0.2209995996297607,3.0,1.0
9.939441680908203,0.7301177978515625,0.2608983516693115,-0.0,-0.0,-1.0,0.1132747103091572,1.0,1.0
9.827962875366213,0.9104032516479492,0.266122817993164,0.6311273388068221,-0.5932791113150597,-0.4996980871364542,0.0890424236845623,5.0,1.0
9.105541229248049,1.5328435897827148,1.1160866022109983,0.9177858217022294,-0.3849994768649326,-0.0971832716885566,0.1394449141736901,3.0,2.0
9.54281234741211,1.2302312850952148,0.1708741188049316,-0.0,-0.0,-1.0,0.1805592077399411,2.0,1.0
10.07245635986328,0.8960514068603516,0.1536234617233276,-0.0,-0.0,-1.0,0.116621837922639,2.0,1.0
9.73406982421875,1.0427122116088867,0.1604863405227661,-0.0,-0.0,-1.0,0.0991370995865329,2.0,1.0
9.253377914428713,1.1329975128173828,0.16273033618927,-0.0,-0.0,-1.0,0.0809138009953406,2.0,1.0
9.011190414428713,1.1367425918579102,0.161213994026184,-0.0,-0.0,-1.0,0.1067718878943676,2.0,1.0
8.94485092163086,1.8086633682250977,1.01401948928833,-0.0,-0.0,-1.0,0.1644896553278407,1.0,2.0
9.017593383789062,1.5264663696289062,1.0015292167663574,-0.0,-0.0,-1.0,0.2417990890980959,1.0,2.0
9.68653964996338,1.4762754440307615,0.0963497161865234,-0.4508790789694715,-0.6685405939560178,-0.5914064003547611,0.0466513562325283,5.0,1.0
9.64955234527588,1.3870086669921875,0.0899860858917236,-0.6486642835079106,-0.7561950799522157,-0.0860444557030329,0.0566218535669531,3.0,1.0
9.952310562133787,1.0352964401245115,0.069048523902893,-0.0,-0.0,-1.0,0.0639545331728707,1.0,1.0
9.727306365966797,1.1936101913452148,0.0776776075363159,-0.0,-0.0,-1.0,0.0557249637666725,2.0,1.0
8.859392166137695,1.8691930770874023,0.8968942761421204,-0.0,-0.0,-1.0,0.1485959343361954,2.0,1.0
8.731176376342773,1.8602027893066408,0.8985962867736816,-0.0,-0.0,-1.0,0.1179290103886298,2.0,1.0
9.021530151367188,1.7055540084838867,0.8871378898620605,0.0096771166081331,-0.977749381245947,-0.2095530980141329,0.1752848891252671,4.0,1.0
8.853206634521484,1.8288249969482424,1.6775511503219604,-0.0,-0.0,-1.0,0.2236945476406507,2.0,2.0
8.924421310424805,1.7355060577392578,1.6726408004760742,-0.0,-0.0,-1.0,0.1991805094833381,2.0,2.0
9.5787935256958,2.5531206130981445,0.5824626684188843,-0.0,-0.0,-1.0,0.1498433118104785,2.0,1.0
8.924132347106934,1.7633180618286133,0.5429433584213257,-0.0,-0.0,-1.0,0.1219898386589857,1.0,1.0
9.121294021606444,1.622349739074707,0.5353628993034363,-0.0,-0.0,-1.0,0.2820087219847124,2.0,1.0
7.861572265625,1.1810016632080078,0.51472008228302,-0.0,-0.0,-1.0,0.232401399647448,2.0,1.0
9.804966926574709,0.8201227188110352,0.4923730492591858,0.9452384491685524,0.16367534005014,-0.2823732587779882,0.2101387152412086,4.0,1.0
8.874128341674805,1.8057136535644531,1.2943512201309204,-0.1231658750036771,-0.9569340155019768,-0.262882972460829,0.1624803930314506,3.0,2.0
8.604533195495605,1.864335060119629,1.3033034801483154,-0.0,-0.0,-1.0,0.1457284990167135,1.0,2.0
9.065533638000488,1.526503562927246,1.2815080881118774,-0.0,-0.0,-1.0,0.2177784333370112,2.0,2.0
7.8799333572387695,1.763397216796875,-0.0248430967330932,-0.0,-0.0,-1.0,0.1296450073732281,2.0,0.0
9.912784576416016,1.197646141052246,-0.0100228786468505,-0.0,-0.0,-1.0,0.0585865725262704,2.0,0.0
9.838294982910156,1.3213720321655271,-0.003713846206665,-0.0,-0.0,-1.0,0.0413302493913488,2.0,0.0
9.757560729980469,2.5035486221313477,0.7445897459983826,-0.7684407467262323,0.3579097866645102,0.530470926046466,0.1468014867177308,3.0,1.0
8.786685943603516,1.8465490341186523,0.7188446521759033,-0.0,-0.0,-1.0,0.1261333096359796,2.0,1.0
8.998636245727539,1.6953105926513672,0.7130855321884155,-0.0,-0.0,-1.0,0.2235734509443892,2.0,1.0
8.964911460876465,1.5891838073730469,1.4243230819702148,-0.0,-0.0,-1.0,0.1725085088898966,2.0,2.0
8.789889335632324,1.719395637512207,1.4304559230804443,-0.0,-0.0,-1.0,0.1548438924610311,1.0,2.0
8.739468574523926,3.0693235397338867,0.0144063234329223,-0.0,-0.0,-1.0,0.0408221045207396,2.0,1.0
8.300800323486328,2.793299674987793,-0.0147936344146728,-0.0,-0.0,-1.0,0.0631729217979035,2.0,0.0
8.105679512023926,2.0879383087158203,-0.080234408378601,-0.0,-0.0,-1.0,0.076515125918422,1.0,0.0
8.49144458770752,2.217167854309082,-0.0650757551193237,-0.0,-0.0,-1.0,0.0373233975267138,1.0,0.0
8.360218048095703,1.9993486404418943,-0.08610200881958,-0.0,-0.0,-1.0,0.0675893857519577,1.0,0.0
9.638551712036133,2.5582685470581055,0.6154671907424927,-0.0,-0.0,-1.0,0.1704096168843421,1.0,1.0
9.820688247680664,2.471893310546875,0.6062700748443604,-0.0,-0.0,-1.0,0.080290570747328,2.0,1.0
9.149917602539062,1.6886310577392578,0.5648036003112793,-0.0,-0.0,-1.0,0.2584628258814477,2.0,1.0
8.883454322814941,1.7366962432861328,0.5729292631149292,-0.0,-0.0,-1.0,0.1375012436978835,2.0,1.0
9.182916641235352,1.6264114379882812,0.5599157810211182,-0.0,-0.0,-1.0,0.2427328619410944,2.0,1.0
9.19684600830078,1.5440378189086914,0.5539820194244385,-0.0,-0.0,-1.0,0.1872712382073648,1.0,1.0
8.92642593383789,1.161478042602539,0.5326417684555054,-0.0,-0.0,-1.0,0.1249116679967931,1.0,1.0
9.93090534210205,0.7547788619995117,0.4842848777770996,-0.0,-0.0,-1.0,0.2177716367839386,1.0,1.0
8.685489654541016,1.840864181518555,1.263582706451416,-0.0,-0.0,-1.0,0.1113519744750325,1.0,2.0
8.97791576385498,1.736027717590332,1.2466148138046265,-0.0,-0.0,-1.0,0.1835454141464123,1.0,2.0
9.174826622009276,1.4710454940795898,1.2266944646835327,0.6970888835537027,-0.6589294257768296,0.2826289091216068,0.2754587116735511,3.0,2.0
7.718020439147949,1.5954904556274414,0.0881812572479248,-0.0,-0.0,-1.0,0.1597125103524355,1.0,1.0
9.570812225341797,1.6623163223266602,0.0968437194824218,-0.0,-0.0,-1.0,0.0528006443046235,2.0,1.0
9.604198455810549,1.37469482421875,0.0713802576065063,-0.0,-0.0,-1.0,0.2323696281725186,1.0,1.0
10.013514518737791,1.2979822158813477,0.0643055438995361,-0.0,-0.0,-1.0,0.0475391796521258,1.0,1.0
9.767440795898438,1.2686452865600586,0.06190025806427,-0.3706006804782684,0.8675231363694693,0.3317510263627279,0.047804885786058,3.0,1.0
10.152896881103516,0.7474250793457031,0.0146853923797607,-0.0,-0.0,-1.0,0.0967327321141958,1.0,1.0
8.708670616149902,2.130687713623047,0.7758866548538208,-0.0,-0.0,-1.0,0.1328809116567109,1.0,1.0
9.691061973571776,2.7478418350219727,0.7916139960289001,-0.0,-0.0,-1.0,0.1376905463418289,1.0,1.0
8.928495407104492,1.991811752319336,0.7621784210205078,-0.0,-0.0,-1.0,0.1647791436867465,2.0,1.0
8.641311645507812,2.051982879638672,1.414121389389038,-0.0,-0.0,-1.0,0.1633921304383717,1.0,2.0
8.895505905151367,1.8738508224487305,1.395202398300171,-0.0,-0.0,-1.0,0.093233112844396,2.0,2.0
8.072032928466797,3.0327682495117188,0.0782113075256347,-0.0,-0.0,-1.0,0.1070211239568391,1.0,1.0
8.344292640686035,2.8735580444335938,0.0677809715270996,-0.0,-0.0,-1.0,0.0854250037014316,1.0,1.0
8.238883972167969,2.38616943359375,0.0214810371398925,-0.0,-0.0,-1.0,0.0519885735215144,1.0,1.0
7.958461761474609,2.299581527709961,0.0096857547760009,-0.0,-0.0,-1.0,0.0720884751261079,1.0,1.0
8.340641975402832,2.360182762145996,0.0204066038131713,-0.0,-0.0,-1.0,0.0386372221768992,1.0,1.0
8.219608306884766,2.12322998046875,-0.0032064914703369,-0.0,-0.0,-1.0,0.0636294934065409,2.0,0.0
7.844620704650879,1.391855239868164,0.5671105980873108,-0.0,-0.0,-1.0,0.1983042267419425,1.0,1.0
8.74319839477539,1.987894058227539,0.5965874195098877,-0.0,-0.0,-1.0,0.1731993150234403,1.0,1.0
8.804611206054688,1.8378286361694336,0.5851211547851562,-0.0,-0.0,-1.0,0.1664192435743606,1.0,1.0
9.719181060791016,2.616905212402344,0.6271637678146362,-0.0,-0.0,-1.0,0.1126512776284063,2.0,1.0
9.05767822265625,1.7931013107299805,0.5782637000083923,-0.0,-0.0,-1.0,0.2337581891749706,2.0,1.0
9.798123359680176,0.9073400497436525,0.5021653771400452,0.3534952853106248,-0.8875801903692527,-0.2953683952748519,0.1604849733080541,4.0,1.0
8.591724395751953,2.0553789138793945,1.2102572917938232,-0.0,-0.0,-1.0,0.1914533130095252,2.0,2.0
8.886741638183594,2.002126693725586,1.1962733268737793,-0.0,-0.0,-1.0,0.1854304745245005,2.0,2.0
9.06736660003662,1.7587165832519531,1.17792546749115,-0.0,-0.0,-1.0,0.2392357241580111,1.0,2.0
8.868026733398438,1.8556499481201172,0.4659385681152344,-0.0,-0.0,-1.0,0.207454183520518,1.0,1.0
9.699069023132324,2.5972232818603516,0.5200179815292358,-0.0,-0.0,-1.0,0.0976788868528635,1.0,1.0
9.080153465270996,1.7731142044067385,0.4627571105957031,-0.0,-0.0,-1.0,0.180926222220625,1.0,1.0
9.397553443908691,1.1223134994506836,0.4233911037445068,-0.5537262936031025,-0.7586727747856717,-0.3432241433401508,0.0767970501880143,3.0,1.0
9.69186305999756,1.032374382019043,0.4191125631332397,-0.6067118158800082,0.7367945560461541,-0.2983865859121917,0.1160869710421658,4.0,1.0
9.8719482421875,0.7512216567993164,0.4011107683181762,-0.4945068149172864,-0.2138362038374797,-0.8424589532604758,0.1868355632375779,5.0,1.0
8.895727157592773,1.9530763626098633,1.0394465923309326,-0.0,-0.0,-1.0,0.1898776191088504,1.0,2.0
8.999725341796875,1.670435905456543,1.027066946029663,-0.0,-0.0,-1.0,0.1845691241676837,1.0,2.0
8.86906623840332,1.8774213790893557,1.6061469316482544,-0.0,-0.0,-1.0,0.1947066915100993,1.0,2.0
7.741872787475586,1.7904462814331057,0.0889761447906494,-0.0,-0.0,-1.0,0.2119323454524733,2.0,1.0
9.659079551696776,1.6399002075195312,0.0688722133636474,0.4092113416991734,0.2044628193695262,-0.8892362078324448,0.0890379447406891,7.0,1.0
9.72170352935791,1.4719324111938477,0.0488357543945312,-0.0,-0.0,-1.0,0.0443389371497205,2.0,1.0
9.819165229797363,1.3277273178100586,0.0311449766159057,-0.0,-0.0,-1.0,0.0342055386484139,2.0,1.0
8.760247230529785,1.9069318771362305,0.6376069784164429,-0.0,-0.0,-1.0,0.1613727195418082,1.0,1.0
9.581979751586914,2.6488561630249023,0.6805861592292786,-0.0,-0.0,-1.0,0.1420863240566492,2.0,1.0
9.026394844055176,1.7617244720458984,0.6174988746643066,-0.0,-0.0,-1.0,0.2261140006081281,2.0,1.0
8.779889106750488,1.2703609466552734,0.5806190371513367,-0.0,-0.0,-1.0,0.1349258374979005,2.0,1.0
9.755173683166504,0.8885765075683594,0.515788197517395,0.4399345646004756,-0.8149515863171425,-0.3772419526364517,0.2000277416191612,9.0,1.0
8.561592102050781,2.029770851135254,1.1896991729736328,-0.0,-0.0,-1.0,0.1950278778673172,2.0,2.0
8.870482444763184,2.0254440307617188,1.173246145248413,-0.0,-0.0,-1.0,0.1573060368241659,2.0,2.0
8.813246726989746,1.926987648010254,1.169914722442627,-0.0,-0.0,-1.0,0.2682843286040191,1.0,2.0
9.025452613830566,1.6710796356201172,1.142194747924805,-0.0,-0.0,-1.0,0.2088150354947375,1.0,2.0
8.855718612670898,1.9570741653442385,1.699697971343994,-0.0,-0.0,-1.0,0.185990544192898,1.0,2.0
8.858738899230957,1.8706235885620115,1.6959543228149414,-0.0,-0.0,-1.0,0.2331740539862451,2.0,2.0
8.795674324035645,1.114877700805664,0.1837078332901001,0.7908618205335527,-0.4830947565807904,0.3757087129499419,0.1790461133479851,3.0,1.0
9.124177932739258,1.1511602401733398,0.1971303224563598,-0.0,-0.0,-1.0,0.1459356830347989,2.0,1.0
9.26003646850586,1.1080608367919922,0.1984602212905883,0.8817542536413064,-0.2935784284625827,-0.3692169315279336,0.1307574821284061,3.0,1.0
9.560422897338867,1.1947307586669922,0.2137950658798217,-0.2853315584215573,-0.2655040962402413,-0.9209199078358432,0.1303372802882574,4.0,1.0
9.636655807495115,1.0855789184570312,0.2080618143081665,-0.0,-0.0,-1.0,0.174081703908873,2.0,1.0
9.913853645324709,0.8892488479614258,0.2010180950164795,0.4876960161759087,-0.7396547494010585,-0.463749336920933,0.227237762319667,6.0,1.0
8.753759384155273,1.915933609008789,0.7380071878433228,-0.0,-0.0,-1.0,0.2128244127307527,2.0,1.0
8.762743949890137,1.8801050186157229,0.736742377281189,-0.7234531749501881,-0.1576898277358284,-0.6721230704886844,0.1827670948492524,3.0,1.0
8.99018383026123,1.7578210830688477,0.7347244024276733,-0.0,-0.0,-1.0,0.1581396797239778,2.0,1.0
8.762276649475098,1.9819564819335935,1.2423057556152344,-0.0,-0.0,-1.0,0.2370529212428034,1.0,2.0
8.64415454864502,1.9462594985961912,1.2432594299316406,-0.0,-0.0,-1.0,0.1550897551347675,1.0,2.0
9.003150939941406,1.6732244491577148,1.2339307069778442,-0.0,-0.0,-1.0,0.1652560845589247,1.0,2.0
8.838769912719727,1.8400764465332031,1.7420209646224976,-0.0,-0.0,-1.0,0.2021337114890025,1.0,2.0
7.814619064331055,1.1722078323364258,0.3515326976776123,-0.0,-0.0,-1.0,0.1944215442822728,1.0,1.0
8.760887145996094,1.729806900024414,0.4120799303054809,-0.0,-0.0,-1.0,0.1804043535378999,1.0,1.0
8.740762710571289,1.1511459350585938,0.3756495714187622,0.1321955867808144,-0.9883146491805046,-0.0758846562283329,0.1966409199741534,4.0,1.0
9.003863334655762,1.693105697631836,0.4165565371513366,-0.0,-0.0,-1.0,0.2217942366235598,2.0,1.0
9.24963665008545,1.0388145446777344,0.3808820247650146,0.7870201608891593,0.5896180202042348,0.181520953623652,0.1777226499462114,7.0,1.0
9.74217128753662,2.2243032455444336,0.4693564176559448,-0.0,-0.0,-1.0,0.1737014545641062,2.0,1.0
9.536211013793944,1.0383844375610352,0.3873428106307983,-0.3247795402593984,0.525999300080327,-0.7860298890906753,0.1241386244012697,5.0,1.0
9.681846618652344,0.937016487121582,0.3836358785629272,-0.0,-0.0,-1.0,0.1352244720128977,2.0,1.0
9.81903076171875,0.7449264526367188,0.3731374144554138,0.6335555383624027,0.7044379895460974,0.3199601517292092,0.1227524413503905,4.0,1.0
8.765825271606445,1.881742477416992,0.9234484434127808,-0.0,-0.0,-1.0,0.1376014804074872,2.0,1.0
8.959051132202148,1.670877456665039,0.9157798290252686,-0.0,-0.0,-1.0,0.1272568178078765,2.0,1.0
9.715730667114258,2.616459846496582,0.952825367450714,-0.0,-0.0,-1.0,0.2020126625829844,2.0,1.0
8.596725463867188,1.8738021850585935,1.4285972118377686,-0.0,-0.0,-1.0,0.1764334264671296,1.0,2.0
8.663716316223145,1.834623336791992,1.4264137744903564,-0.0,-0.0,-1.0,0.1875885117899243,1.0,2.0
8.877667427062988,1.6862688064575195,1.418930172920227,-0.0,-0.0,-1.0,0.1243632738468721,2.0,2.0
8.674592971801758,1.7882261276245115,0.3370757699012756,-0.0,-0.0,-1.0,0.1691656406782674,2.0,1.0
8.686915397644043,1.190168380737305,0.2981060743331909,0.0721780788678678,-0.818081935184049,-0.5705543552164553,0.1846452984685375,3.0,1.0
8.996432304382324,1.7035627365112305,0.3418965935707092,-0.0,-0.0,-1.0,0.2228890926035599,2.0,1.0
9.077140808105469,1.6122522354125977,0.3383291959762573,-0.0,-0.0,-1.0,0.1824595387763385,1.0,1.0
9.204339981079102,1.0799064636230469,0.3056271076202392,0.3533002684766297,-0.837997605588381,-0.4158592710551028,0.175415997501579,5.0,1.0
9.56000518798828,2.360095977783203,0.4029347896575928,-0.0,-0.0,-1.0,0.0842086918904256,1.0,1.0
9.586624145507812,1.026773452758789,0.312127411365509,-0.0,-0.0,-1.0,0.1368081952472001,2.0,1.0
9.598503112792969,2.516537666320801,0.4143506288528442,0.1030743541449389,-0.5483454600698193,-0.829875252033956,0.1548751969045377,3.0,1.0
9.669111251831056,2.3735389709472656,0.407254695892334,-0.0,-0.0,-1.0,0.1398720497922889,1.0,1.0
9.86086082458496,0.7446880340576172,0.2984349727630615,-0.0,-0.0,-1.0,0.2104502490872971,2.0,1.0
8.745930671691895,1.9002294540405271,0.8501979112625122,0.5680085162679614,0.5494311303421454,0.6127738232480407,0.2222273126374044,3.0,1.0
8.951570510864258,1.7484674453735352,0.8450725078582764,-0.0,-0.0,-1.0,0.1296127196652255,2.0,1.0
9.68185329437256,2.574397087097168,0.8841642737388611,-0.0,-0.0,-1.0,0.1808900203962647,1.0,1.0
8.720534324645996,1.8394889831542969,1.3520091772079468,0.0929324707600007,-0.6640510805329181,-0.7418892898010494,0.1589578558362972,4.0,2.0
8.922327995300293,1.676497459411621,1.3448083400726318,-0.4055507396352216,0.5640419084313872,-0.7192950181353983,0.1277511053020639,4.0,2.0
8.996419906616211,1.5440130233764648,1.3406591415405271,-0.0,-0.0,-1.0,0.1926993517398653,1.0,2.0
8.66491985321045,1.8041448593139648,0.3581734299659729,-0.0,-0.0,-1.0,0.199967457768502,2.0,1.0
8.701617240905762,1.0966291427612305,0.332123339176178,-0.0,-0.0,-1.0,0.174453103321883,2.0,1.0
8.923661231994629,1.6992454528808594,0.3674615621566772,-0.0,-0.0,-1.0,0.1163450968075106,1.0,1.0
9.247784614562988,1.0692052841186523,0.3573036193847656,0.9453879345569326,-0.1558981945513414,-0.2862471067623372,0.1699758737797209,7.0,1.0
9.581822395324709,1.036423683166504,0.3713110089302063,-0.3152541588186081,0.8653747075584766,-0.3895400247287214,0.1274597718693778,4.0,1.0
9.809368133544922,0.7716207504272461,0.3692253828048706,-0.8174368134237465,0.1483413178204298,-0.5565895341155175,0.1547653708692958,4.0,1.0
9.522281646728516,2.58939266204834,0.4326995015144348,-0.0,-0.0,-1.0,0.1052404321476765,1.0,1.0
9.621458053588867,2.490880966186523,0.4341545701026916,0.1030743541449389,-0.5483454600698193,-0.829875252033956,0.2072416934415795,3.0,1.0
8.628988265991211,1.915755271911621,0.8676159381866455,-0.0,-0.0,-1.0,0.2384315710182026,1.0,1.0
8.7088041305542,1.916852951049805,0.8697071075439453,-0.0,-0.0,-1.0,0.1877879036080803,2.0,1.0
8.940943717956543,1.7532119750976562,0.8730356097221375,0.3439614849069493,-0.8954342434291411,0.2826446755116532,0.1350877549491111,3.0,1.0
9.695064544677734,2.62039566040039,0.9056770205497742,-0.4935073383989525,-0.6721870291617067,0.5519194730874611,0.1956898302750743,5.0,1.0
8.653848648071289,1.8787164688110352,1.3740028142929075,-0.0,-0.0,-1.0,0.1796163388707053,2.0,2.0
8.747501373291016,1.8244552612304688,1.374317646026611,0.0929324707600007,-0.6640510805329181,-0.7418892898010494,0.1572349671034288,4.0,2.0
8.896920204162598,1.6904230117797852,1.3750379085540771,-0.8017813091518511,-0.378038546765017,-0.4628537452095829,0.1098748111535222,5.0,2.0
8.96934700012207,1.488398551940918,1.3762348890304563,-0.0,-0.0,-1.0,0.2210722631455142,2.0,2.0
7.819209098815918,1.1954641342163086,0.2302000522613525,-0.0,-0.0,-1.0,0.2143591669169693,2.0,1.0
8.740357398986816,1.15472412109375,0.2631226778030395,-0.4151337185390898,0.0449414803754495,-0.908649689965044,0.1822702464782442,3.0,1.0
8.843639373779297,1.7594270706176758,0.3026922941207886,-0.0,-0.0,-1.0,0.2411947363383326,1.0,1.0
9.085704803466797,1.6583518981933594,0.3060512542724609,-0.0,-0.0,-1.0,0.2029445744124784,1.0,1.0
9.350749969482422,1.1123113632202148,0.2815395593643188,0.0891279159256242,0.4518355207526845,-0.8876378072101848,0.0931277884181162,3.0,1.0
9.646838188171388,1.0357532501220703,0.2860684394836426,0.8793751388512088,0.3841994936757084,0.2812296467830991,0.2263226150883191,6.0,1.0
9.84858226776123,0.9234409332275392,0.2846193313598633,0.7150695188304826,0.2023065604590629,-0.6691394763685413,0.1232051975663201,8.0,1.0
9.887389183044434,0.7861261367797852,0.2763391733169555,-0.8173685856168512,0.1507188239434539,-0.5560507453064066,0.1251044733155574,3.0,1.0
9.645831108093262,2.4550600051879883,0.3739442825317383,-0.4083703571628998,-0.1560028545580168,-0.8993868804693538,0.2300987197270559,3.0,1.0
8.913727760314941,1.8315963745117188,0.8133244514465332,-0.0,-0.0,-1.0,0.2233977538496427,1.0,1.0
8.592391014099121,1.9209871292114256,1.3215324878692627,-0.0,-0.0,-1.0,0.1817282242633264,1.0,2.0
8.693145751953125,1.895237922668457,1.3198800086975098,-0.0,-0.0,-1.0,0.1532496389283063,2.0,2.0
8.882057189941406,1.7987337112426758,1.3160444498062134,-0.0775773302541857,-0.8567372497697148,-0.5098853230753543,0.1700637401703588,4.0,2.0
9.024389266967772,1.587785720825195,1.3112152814865112,-0.0,-0.0,-1.0,0.2129967548251438,1.0,2.0
9.017653465270996,1.4705753326416016,0.0199065208435058,-0.0,-0.0,-1.0,0.0767430480325354,1.0,1.0
9.257027626037598,1.4693498611450195,0.0336053371429443,-0.0,-0.0,-1.0,0.1569197782256897,1.0,1.0
9.784063339233398,1.2040433883666992,0.0454555749893188,-0.0,-0.0,-1.0,0.0542986341240854,1.0,1.0
9.953207969665527,1.0932989120483398,0.0468286275863647,-0.0,-0.0,-1.0,0.0629010924080812,1.0,1.0
8.167654037475586,3.100240707397461,0.0524841547012329,-0.0,-0.0,-1.0,0.0924985095248102,1.0,1.0
8.27637004852295,2.790929794311523,0.0455414056777954,-0.0,-0.0,-1.0,0.0751920435743177,1.0,1.0
9.637473106384276,1.6561737060546875,0.0669567584991455,-0.0993978235960632,-0.5221747008390331,-0.8470263599605576,0.075106943970615,5.0,1.0
9.685758590698242,1.5053482055664062,0.059998869895935,-0.3315170696629907,-0.3641881336783981,-0.8703237534446068,0.043350630241978,5.0,1.0
8.726229667663574,1.236867904663086,0.5173741579055786,-0.0,-0.0,-1.0,0.1609492130489744,1.0,1.0
8.778061866760254,1.735797882080078,0.5380635261535645,-0.0,-0.0,-1.0,0.1720848198205833,1.0,1.0
9.748847007751465,0.8359394073486328,0.5292055606842041,0.2381817684480422,-0.4439469117507687,-0.8638174487274027,0.1478373565376777,11.0,1.0
8.750130653381348,1.8827486038208008,0.5424987077713013,-0.0,-0.0,-1.0,0.1771008680379991,1.0,1.0
9.01826000213623,1.7576055526733398,0.5466088056564331,-0.0,-0.0,-1.0,0.2334227991556784,2.0,1.0
9.740047454833984,0.8960838317871094,0.5317038297653198,0.3649459182034579,-0.4408689151126297,-0.820029924133289,0.1648685622042395,6.0,1.0
9.72878646850586,2.571904182434082,0.5999120473861694,-0.0,-0.0,-1.0,0.1514422156811563,2.0,1.0
8.842164039611816,1.938924789428711,1.0562841892242432,-0.0,-0.0,-1.0,0.1897420773758832,2.0,2.0
8.980918884277344,1.7594919204711914,1.0541343688964844,-0.0,-0.0,-1.0,0.1524857728684193,2.0,2.0
8.865657806396484,1.7993927001953125,1.5647646188735962,-0.0,-0.0,-1.0,0.2151938764804649,1.0,2.0
8.818561553955078,1.6666889190673828,1.5665409564971924,-0.0,-0.0,-1.0,0.0913555657932633,1.0,2.0
8.852465629577637,1.853297233581543,1.564778447151184,-0.0,-0.0,-1.0,0.1518363383877755,1.0,2.0
8.626858711242676,1.251235008239746,0.3260195255279541,-0.0,-0.0,-1.0,0.170110294937773,1.0,1.0
