x,y,z,nx,ny,nz,curvature,density
18.06328582763672,4.941366672515869,0.0212042331695556,-0.0,-0.0,-1.0,0.2309379292451981,2.0
17.758502960205078,4.84263277053833,0.2908810377120971,-0.0,-0.0,-1.0,0.2597573328554962,2.0
18.031457901000977,4.935464859008789,0.2888504266738891,-0.0,-0.0,-1.0,0.195835504026257,1.0
18.335268020629883,4.638610363006592,0.2257776260375976,-0.0,-0.0,-1.0,0.0729627119942722,1.0
17.946474075317383,4.8366289138793945,0.5481685400009155,-0.0,-0.0,-1.0,0.1926476273348299,2.0
18.272993087768555,4.735936164855957,0.5139410495758057,-0.0,-0.0,-1.0,0.1592421518774279,2.0
18.396284103393555,4.427354335784912,0.4696036577224731,-0.0,-0.0,-1.0,0.139584983482003,1.0
17.81305503845215,4.697579383850098,0.0522295236587524,-0.0,-0.0,-1.0,0.2096441066475992,1.0
18.471235275268555,3.841286182403565,-0.1491984128952026,-0.5270627845747615,-0.8104867731355156,-0.2555699741532194,0.2646649884013072,5.0
18.119997024536133,4.868292331695557,0.0721238851547241,-0.6143646329177667,-0.458568356279918,-0.6420834528615048,0.1678938938992745,3.0
18.32981300354004,4.665199279785156,0.0217111110687255,-0.0,-0.0,-1.0,0.1735255441567838,1.0
17.75216293334961,4.836593151092529,0.3224895596504211,-0.0,-0.0,-1.0,0.2379463417155065,2.0
17.79498291015625,4.666914463043213,0.5390315651893616,-0.0,-0.0,-1.0,0.1130786661979026,1.0
18.26708984375,4.729678153991699,0.518137514591217,-0.0,-0.0,-1.0,0.1592421518774279,2.0
18.135005950927734,4.37541389465332,0.7331565618515015,-0.0,-0.0,-1.0,0.1707123225590711,1.0
18.371326446533203,4.386170387268066,-0.334488034248352,-0.0,-0.0,-1.0,0.1398660491888366,2.0
18.62225341796875,3.7803831100463863,-0.4882433414459228,-0.0,-0.0,-1.0,0.1098738211612152,1.0
18.77735137939453,3.7697463035583496,-0.495941162109375,0.2479007188649603,-0.3952268683746285,-0.8845003991525501,0.260249802273956,7.0
19.704635620117188,3.857860565185547,-0.5225681066513062,-0.8425723864800782,0.4766151065223638,0.2508182883602026,0.0754985301157624,8.0
18.122163772583008,4.953243732452393,-0.1951369047164917,-0.6309126928867049,0.7245993742397153,-0.2773173647751963,0.1291393939225006,3.0
18.272388458251953,3.6648759841918945,-0.2277648448944091,-0.0,-0.0,-1.0,0.1592864892683843,1.0
18.46509552001953,3.853578567504883,-0.1937917470932006,-0.183327254789398,-0.6772153942582623,-0.7125801200082765,0.2800856505325899,5.0
17.874053955078125,4.5064191818237305,-0.0489907264709472,-0.0,-0.0,-1.0,0.1379758886584978,1.0
18.139110565185547,4.881638050079346,0.0249397754669189,-0.0,-0.0,-1.0,0.2004996477632961,2.0
18.36307907104492,3.928376674652099,0.0908992290496826,-0.0,-0.0,-1.0,0.1665282715838418,1.0
17.91646957397461,4.702382564544678,0.2326818704605102,-0.0,-0.0,-1.0,0.1006820566823582,1.0
18.14352035522461,4.847249984741211,0.2531132698059082,-0.0,-0.0,-1.0,0.1538613199744314,1.0
17.814754486083984,4.724999904632568,0.4775197505950928,-0.0,-0.0,-1.0,0.0826184062457655,1.0
18.143539428710938,4.799717903137207,0.4793653488159179,-0.0,-0.0,-1.0,0.1433305242860608,1.0
18.44599723815918,3.723609447479248,0.3231493234634399,0.2431659401198438,-0.5156912376759681,-0.8215429830202797,0.212793813365667,3.0
17.793861389160156,4.697321891784668,0.7130992412567139,-0.0,-0.0,-1.0,0.2099749344346709,1.0
18.250511169433594,4.803308010101318,0.7080318927764893,-0.0,-0.0,-1.0,0.2032411875695571,1.0
18.367076873779297,3.802053928375244,0.6022999286651611,-0.0,-0.0,-1.0,0.2001519418591668,1.0
17.90921401977539,4.720732688903809,0.9472942352294922,-0.0,-0.0,-1.0,0.1782217619020247,2.0
18.144062042236328,4.549821853637695,1.164505958557129,-0.0,-0.0,-1.0,0.2298037727360507,2.0
18.48639678955078,4.036314010620117,-0.4523117542266845,-0.0,-0.0,-1.0,0.2119118578625042,1.0
18.787700653076172,3.813943862915039,-0.5152190923690796,0.1613906572098438,0.0012508888211386,-0.986889806940234,0.2343850591061726,7.0
18.061933517456055,5.067263126373291,-0.1957460641860962,-0.0,-0.0,-1.0,0.2014083032732711,1.0
18.185182571411133,4.628419876098633,-0.3027480840682983,-0.0,-0.0,-1.0,0.1684653919728688,1.0
18.797101974487305,3.7711257934570312,-0.2506029605865478,0.7550798720548081,0.6386432390557601,0.1482875585680123,0.2300729464535656,5.0
18.091014862060547,5.0501837730407715,0.033638596534729,-0.0,-0.0,-1.0,0.0992843148001784,2.0
18.257678985595703,4.691843032836914,-0.0425512790679931,-0.0,-0.0,-1.0,0.1862131462836331,1.0
18.06034278869629,5.1465911865234375,0.2807545661926269,-0.0,-0.0,-1.0,0.168108766948513,1.0
18.263795852661133,5.064505100250244,0.2636871337890625,-0.0,-0.0,-1.0,0.1249438949642361,2.0
18.346925735473633,4.7080078125,0.1999170780181884,-0.0,-0.0,-1.0,0.2081505169482143,1.0
18.563018798828125,5.0026726722717285,0.2463001012802124,-0.0,-0.0,-1.0,0.1396998774615066,2.0
17.95187759399414,5.040014266967773,0.4926026463508606,-0.0,-0.0,-1.0,0.0912021148817923,1.0
18.56776237487793,4.970128536224365,0.467382550239563,0.0217435401597872,0.7026137610833029,-0.7112391448716077,0.1403634382258304,5.0
18.22664451599121,5.137386798858643,0.5003348588943481,-0.0060640462872375,0.1037314118421492,-0.994586859726118,0.182408724742836,3.0
17.9183406829834,5.048817157745361,0.7214749455451965,-0.0,-0.0,-1.0,0.1314615732369278,1.0
18.43494415283203,5.243416786193848,0.7258485555648804,-0.0,-0.0,-1.0,0.18499777844788,1.0
18.34434509277344,5.178643226623535,0.9397821426391602,-0.0,-0.0,-1.0,0.1645095769091969,1.0
18.55002212524414,4.990352153778076,0.9177484512329102,-0.0,-0.0,-1.0,0.1484242070681609,2.0
18.23788070678711,5.0523576736450195,1.1570899486541748,-0.0,-0.0,-1.0,0.139721369123443,1.0
18.3908748626709,5.050744533538818,1.1496145725250244,-0.0,-0.0,-1.0,0.1665353361633701,2.0
18.327665328979492,5.046798229217529,-0.0667800903320312,-0.0,-0.0,-1.0,0.0859000747308802,1.0
18.609403610229492,4.896055221557617,-0.0965008735656738,-0.0,-0.0,-1.0,0.2116965811926526,1.0
18.34371757507324,5.08920431137085,0.1700459718704223,-0.0,-0.0,-1.0,0.1329052448439335,2.0
18.589187622070312,4.884315490722656,0.1337156295776367,-0.0,-0.0,-1.0,0.2117301896443001,1.0
18.2674560546875,5.1176042556762695,0.3984452486038208,-0.0,-0.0,-1.0,0.1970611069579942,1.0
18.193586349487305,4.984694957733154,0.6056990027427673,-0.0,-0.0,-1.0,0.1553603742193521,1.0
18.44892692565918,5.194262504577637,0.8440309762954712,0.4061423119371506,-0.8297876713942313,-0.3827542852228895,0.1776713976700256,3.0
18.729148864746097,5.067814350128174,0.8290735483169556,-0.0,-0.0,-1.0,0.1574871958807947,1.0
18.35672950744629,5.0579423904418945,1.055149793624878,-0.0,-0.0,-1.0,0.1251350099718763,1.0
18.58662223815918,4.865320682525635,1.0412570238113403,-0.0,-0.0,-1.0,0.1068681692521303,1.0
18.56734085083008,5.041014671325684,1.926926851272583,-0.0,-0.0,-1.0,0.221105931616085,1.0
18.280561447143555,3.663893699645996,-0.2851594686508178,-0.0,-0.0,-1.0,0.1382566713669685,1.0
18.207691192626953,3.952155113220215,0.044338583946228,-0.0,-0.0,-1.0,0.1447429760970883,2.0
18.61717414855957,4.906764507293701,0.2025936841964721,-0.0,-0.0,-1.0,0.1724471517882275,1.0
18.586994171142575,4.99830436706543,0.4432902336120605,-0.0,-0.0,-1.0,0.1893111785330831,2.0
18.885473251342773,5.095183372497559,0.4438328742980957,-0.0,-0.0,-1.0,0.209071232544994,1.0
18.56414222717285,5.036639213562012,0.6696509122848511,-0.0,-0.0,-1.0,0.1805332068603559,2.0
19.091047286987305,4.956533432006836,0.6321166157722473,-0.0,-0.0,-1.0,0.1517169563156849,1.0
18.50265121459961,4.903923988342285,0.8813376426696777,-0.0,-0.0,-1.0,0.128192222686533,1.0
18.863357543945312,5.174976348876953,0.8813929557800293,-0.0,-0.0,-1.0,0.2352613593047193,1.0
18.79737091064453,4.85175895690918,1.0827715396881104,0.7612283246344246,-0.1039329686968951,-0.6401010668575059,0.1562723676531337,3.0
18.901819229125977,4.8706374168396,1.738886475563049,-0.0,-0.0,-1.0,0.1963273480247714,1.0
18.235088348388672,3.977175235748291,0.0316318273544311,-0.715074652816353,0.6063025363897457,-0.3479446439693144,0.2319551535567935,3.0
18.407394409179688,3.7045459747314458,-0.0172686576843261,-0.0,-0.0,-1.0,0.198280424160937,2.0
17.889558792114258,3.715933322906494,0.2460660934448242,-0.0,-0.0,-1.0,0.1046329571207216,1.0
18.83369255065918,4.514081954956055,0.1299275159835815,-0.0,-0.0,-1.0,0.1768110483808625,1.0
19.26654624938965,4.56450080871582,0.1333732604980468,-0.0,-0.0,-1.0,0.1004321326586865,1.0
18.960838317871097,4.780141353607178,0.3954859972000122,-0.0,-0.0,-1.0,0.1390143138026837,2.0
18.182952880859375,3.640136241912842,0.7560676336288452,-0.0,-0.0,-1.0,0.1077224078353657,2.0
18.985912322998047,4.919227600097656,0.6261587738990784,-0.0,-0.0,-1.0,0.1179244022680373,2.0
19.37178611755371,4.541346073150635,0.5699492692947388,-0.0,-0.0,-1.0,0.0957052178647858,2.0
18.98287773132324,4.872368812561035,0.8311123251914978,-0.0,-0.0,-1.0,0.0785356576915836,1.0
19.379413604736328,4.525753021240234,0.7871910333633423,-0.0,-0.0,-1.0,0.0631485878015938,1.0
18.977643966674805,4.643568515777588,1.0297017097473145,-0.0,-0.0,-1.0,0.0797039441023189,1.0
18.25597381591797,3.953890323638916,-0.1262590885162353,0.5292259589040607,0.8300238388702729,0.1760122476679762,0.1571878619723909,3.0
18.046850204467773,3.8284850120544434,0.0947017669677734,-0.0,-0.0,-1.0,0.1913675773415881,2.0
17.948888778686523,3.803347110748291,0.3448106050491333,-0.0,-0.0,-1.0,0.1166033939221274,1.0
18.92851829528809,4.785881996154785,0.0768790245056152,-0.0,-0.0,-1.0,0.2354142251406142,1.0
19.192049026489254,4.668180465698242,0.0746169090270996,-0.0,-0.0,-1.0,0.132989749927784,1.0
18.310277938842773,3.955105781555176,0.3815637826919555,-0.0,-0.0,-1.0,0.2125356265883978,2.0
18.91164779663086,4.704331874847412,0.2799842357635498,-0.0,-0.0,-1.0,0.1569407001102339,1.0
18.045055389404297,3.7236151695251465,0.6010045409202576,-0.0,-0.0,-1.0,0.1143202413955301,2.0
18.99390983581543,4.873538970947266,0.5199488401412964,-0.0,-0.0,-1.0,0.1123348323197798,1.0
19.310544967651367,4.7369561195373535,0.5170890688896179,-0.0,-0.0,-1.0,0.103271661940874,2.0
19.130014419555664,4.9261603355407715,0.7366131544113159,-0.0,-0.0,-1.0,0.2004591617979797,2.0
19.338119506835938,4.638630390167236,0.926663100719452,-0.0,-0.0,-1.0,0.1523312276580237,1.0
18.94289207458496,4.672708034515381,1.5628761053085327,-0.0,-0.0,-1.0,0.2271055589007256,2.0
18.9074649810791,4.757363796234131,0.2450493574142456,-0.0,-0.0,-1.0,0.1894913753455409,1.0
19.29267311096191,4.572502136230469,0.2645376920700073,-0.0,-0.0,-1.0,0.1129994847374085,1.0
17.901559829711914,3.645313262939453,0.5425823926925659,-0.0,-0.0,-1.0,0.1254998954486191,2.0
18.927810668945312,4.842526912689209,0.4795377850532532,-0.0,-0.0,-1.0,0.173806980149608,1.0
19.269874572753903,4.715517997741699,0.4997445940971374,-0.0,-0.0,-1.0,0.1267799608547237,2.0
19.123064041137695,4.9307756423950195,0.7201456427574158,-0.0,-0.0,-1.0,0.2004591617979798,2.0
19.04502868652344,4.823807239532471,0.923855721950531,-0.0,-0.0,-1.0,0.0759435547239907,1.0
19.305416107177734,4.722058296203613,0.9345480799674988,-0.0,-0.0,-1.0,0.1533210094877069,2.0
19.145639419555664,4.757513999938965,1.1429853439331057,-0.0,-0.0,-1.0,0.1034695475104199,2.0
18.44542121887207,4.500955104827881,-0.3461109399795532,-0.7853392344179128,-0.5776348348565992,0.222666307384112,0.1794102253607988,5.0
19.17188262939453,4.414251804351807,0.0052626132965087,-0.0,-0.0,-1.0,0.1918597653415835,1.0
19.27135467529297,4.724212169647217,-0.1888037919998169,-0.0,-0.0,-1.0,0.081433915494696,1.0
19.132427215576172,4.881455898284912,-0.1854666471481323,0.1520834424119069,-0.9864312929321744,-0.0618379403627175,0.0888283869429367,3.0
19.00105857849121,4.846251964569092,0.0374864339828491,-0.0,-0.0,-1.0,0.1566603899597351,1.0
19.36819648742676,4.717384338378906,0.3071351051330566,-0.0,-0.0,-1.0,0.2311758819112847,1.0
19.119792938232425,4.885739326477051,0.2984536290168762,-0.0,-0.0,-1.0,0.147510851677323,1.0
19.39162254333496,4.564337253570557,0.5357969999313354,-0.0,-0.0,-1.0,0.1018645943574957,2.0
19.131107330322266,4.98276948928833,0.544562041759491,-0.0,-0.0,-1.0,0.2472025994344535,1.0
19.297643661499023,4.939450740814209,0.786613941192627,-0.0,-0.0,-1.0,0.2195996387223263,1.0
19.060287475585938,4.8101067543029785,1.007326602935791,-0.0,-0.0,-1.0,0.0800572924287671,1.0
19.25482177734375,4.712871551513672,1.0125582218170166,-0.0,-0.0,-1.0,0.1766374182384536,1.0
19.09647750854492,4.932989597320557,-0.44093918800354,-0.0,-0.0,-1.0,0.1942320966315089,2.0
19.33289337158203,4.696593761444092,-0.4217941761016845,-0.0,-0.0,-1.0,0.1417388138518499,2.0
19.111980438232425,4.882523059844971,0.1042758226394653,-0.0,-0.0,-1.0,0.1578863805564416,1.0
19.368717193603516,4.721505165100098,0.3965245485305786,-0.0,-0.0,-1.0,0.1339706533438643,1.0
19.403459548950195,4.365464687347412,0.6548253297805786,-0.0,-0.0,-1.0,0.0588311106914767,1.0
19.26199531555176,4.99126672744751,0.6567478179931641,-0.3243761411547977,-0.3351042716191044,-0.8845819612631451,0.2999967730690065,3.0
19.405229568481445,4.615747928619385,0.9257879257202148,-0.0,-0.0,-1.0,0.1124560579977528,1.0
19.117084503173828,4.828518867492676,1.171947002410889,-0.0,-0.0,-1.0,0.0909223277175045,2.0
18.91120719909668,3.653000831604004,-0.4041935205459595,-0.0,-0.0,-1.0,0.1796829089887819,2.0
19.293964385986328,4.5366339683532715,0.4830151796340942,-0.0,-0.0,-1.0,0.10297213147743,1.0
18.37942695617676,3.678500652313232,0.326995849609375,0.4042627981491211,-0.6708198955513675,-0.6217493528465434,0.1024066096342964,4.0
18.04357528686523,4.4673357009887695,-0.5553466081619263,0.4442731299441735,0.8396337273992035,-0.3124685421339682,0.0883367946859463,3.0
18.236631393432617,5.126816272735596,-0.5257031917572021,0.24599238295519,0.2665552498699307,-0.931899161011966,0.1109989018185079,3.0
18.41926383972168,4.288018226623535,0.5584985613822937,-0.0,-0.0,-1.0,0.1929266489304384,1.0
18.118154525756836,4.537950038909912,-0.0394345521926879,-0.0,-0.0,-1.0,0.1543077173060683,1.0
18.09842300415039,4.6038031578063965,0.653939962387085,-0.0,-0.0,-1.0,0.1706637417541637,1.0
18.761913299560547,3.849396944046021,-0.3174170255661011,0.8326883673505495,0.1701585407517045,-0.5269498589888103,0.2146760533964304,8.0
18.814912796020508,3.8684544563293457,-0.2274545431137085,0.8862936899825504,0.4630990707437833,0.0047692529141868,0.2354813652538689,3.0
18.79172706604004,4.1452836990356445,-0.2640843391418457,-0.0,-0.0,-1.0,0.1038882214249711,1.0
19.54667854309082,4.640220642089844,-0.6140145063400269,-0.0,-0.0,-1.0,0.0378520829780318,2.0
18.643430709838867,4.856942176818848,-0.5879921913146973,-0.0,-0.0,-1.0,0.0715286399625453,1.0
18.20992660522461,3.784568548202514,-0.1031404733657836,-0.0,-0.0,-1.0,0.2387817139741492,2.0
18.235153198242188,3.688725233078003,0.0059808492660522,-0.6364072403359805,0.765759303934217,-0.0927281666276499,0.1947037621933408,3.0
18.242074966430664,3.715303659439087,-0.1349196434020996,0.1101987388784736,-0.9782716131488178,-0.1756157420529377,0.207449605321622,3.0
18.234207153320312,3.746440887451172,-0.0510060787200927,-0.9314677122039392,0.3099457377110549,0.1905296323313233,0.2631154692252206,3.0
18.04220199584961,3.905158519744873,-0.4155158996582031,-0.3148722569493062,-0.1902002167382268,-0.9298813576776244,0.2851129861608794,4.0
18.591936111450195,5.153429985046387,-0.5340195894241333,0.3781050661702557,0.6442836802617832,-0.6647819930508938,0.0714872276618334,4.0
18.71286392211914,3.828414916992187,-0.437105655670166,-0.0068781955541017,-0.7937644481493469,-0.6081863951783879,0.2459240310871035,5.0
18.165189743041992,3.861539840698242,0.0101276636123657,-0.0,-0.0,-1.0,0.2456909176717658,2.0
18.305095672607425,5.2561750411987305,-0.6226744651794434,-0.0,-0.0,-1.0,0.0540377401157905,1.0
18.24738883972168,3.7414159774780273,-0.4357149600982666,-0.0,-0.0,-1.0,0.2305980984945116,1.0
17.739336013793945,5.374703407287598,0.8543071746826172,-0.0,-0.0,-1.0,0.121498894760061,2.0
18.35384750366211,5.26437520980835,-0.5484652519226074,-0.0,-0.0,-1.0,0.0379824781379663,1.0
18.190820693969727,3.8631396293640137,-0.3251497745513916,-0.0,-0.0,-1.0,0.1464788076979082,2.0
17.74489974975586,5.375339984893799,0.3518518209457397,-0.0,-0.0,-1.0,0.1226744146756623,2.0
17.726856231689453,5.397531032562256,0.8176476359367371,-0.0,-0.0,-1.0,0.0971908350536359,2.0
18.967838287353516,3.649144411087036,-0.5946292877197266,-0.0,-0.0,-1.0,0.1081969480950344,2.0
17.7720890045166,5.444151878356934,0.3507126569747925,-0.0,-0.0,-1.0,0.2073013355598261,1.0
18.94708251953125,5.327442169189453,-0.6051832437515259,-0.0,-0.0,-1.0,0.0175795495540681,1.0
18.813901901245117,3.810791492462158,-0.4532753229141235,0.3977780160991108,-0.8849037659800612,0.242317921051169,0.2165060997782464,3.0
18.63644790649414,4.385354995727539,-0.5389403104782104,-0.0,-0.0,-1.0,0.075575217448251,1.0
18.180288314819336,3.954100608825683,-0.1577516794204712,-0.0019203243946676,0.8520675181007167,0.5234283685012724,0.2037180487788897,5.0
17.783124923706055,5.327776908874512,0.5420543551445007,-0.0,-0.0,-1.0,0.1733163837711707,2.0
17.759599685668945,5.4283647537231445,0.9662507176399232,-0.0,-0.0,-1.0,0.1345277601111374,1.0
19.49486541748047,4.709843635559082,-0.6103494167327881,0.0980478243924034,0.3088634331580128,-0.9460391132451984,0.0329930285328391,5.0
19.19927978515625,4.105234146118164,-0.6085571050643921,-0.0,-0.0,-1.0,0.0328628817021954,1.0
18.11526107788086,3.896060943603515,-0.0457241535186767,0.0451535392569371,0.5431058563324689,-0.8384492749772928,0.1511185872242063,4.0
19.698328018188477,5.16801643371582,-0.6244403123855591,0.1814303332749751,-0.4184742040991437,-0.8899226790408927,0.0191555634525011,3.0
18.15633773803711,5.311989784240723,-0.5441234111785889,0.2171254423756003,0.975861700864716,-0.0234623753832266,0.1411824522264697,4.0
17.94594383239746,5.098412036895752,-0.5564495325088501,-0.0,-0.0,-1.0,0.1065733353145868,1.0
18.414888381958008,4.473964691162109,-0.4316682815551758,-0.4564924552825926,-0.5264243674763339,-0.7172809934727202,0.1430254147542983,5.0
18.135997772216797,3.865511417388916,-0.0809770822525024,0.5167574108512283,0.362669306993418,-0.7755209552908603,0.1120106833936553,7.0
18.78525161743164,3.8837170600891113,-0.0029863119125366,0.6700257438661372,0.3493186174632168,-0.6550129815890802,0.0385362460733848,5.0
18.50638961791992,4.505484580993652,-0.5948363542556763,-0.3367983033625585,0.1854963376147007,-0.9231240499432536,0.1791207204059746,3.0
18.753721237182617,4.609560966491699,-0.555608868598938,-0.1728585623537158,-0.0864865787238425,-0.9811421859861346,0.0660452222684843,3.0
18.48636054992676,3.766148090362549,-0.547640323638916,-0.0,-0.0,-1.0,0.0967890890997402,1.0
18.15918731689453,3.802158832550049,0.0318783521652221,-0.0,-0.0,-1.0,0.2525745290940193,1.0
19.517013549804688,4.9681596755981445,-0.6241519451141357,-0.0,-0.0,-1.0,0.0191466670559348,1.0
19.52353858947754,4.743400573730469,-0.603920578956604,-0.412788009751754,0.4330365974493904,-0.8013022926927392,0.0345451991061394,4.0
19.64513397216797,3.973353862762451,-0.5197538137435913,-0.5969134503357485,-0.0939913326891722,-0.796781000142188,0.0617311894629636,4.0
18.376060485839844,4.521039962768555,-0.551875114440918,0.907605740071705,-0.0190006969213429,-0.4193933644031535,0.2239789085395025,3.0
18.145957946777344,4.174526691436768,-0.5800005197525024,-0.0,-0.0,-1.0,0.1060949380719216,2.0
18.485830307006836,5.01248025894165,-0.589867115020752,-0.0,-0.0,-1.0,0.0379047131092703,2.0
18.82712173461914,3.6739797592163086,-0.6056307554244995,-0.0,-0.0,-1.0,0.0977972160577798,1.0
18.450212478637695,4.583354949951172,-0.5072250366210938,-0.0,-0.0,-1.0,0.1779497484468526,2.0
18.232805252075195,4.750102996826172,-0.5345983505249023,-0.3988982595680864,0.8280817120981944,-0.3939046288152434,0.2234428458626251,4.0
18.095943450927734,4.003246307373047,-0.3051779270172119,-0.0,-0.0,-1.0,0.1645825667849606,1.0
17.89063262939453,5.373246669769287,0.6465361714363098,-0.0,-0.0,-1.0,0.1869089614375924,1.0
17.877477645874023,5.0147504806518555,0.6761375069618225,-0.0,-0.0,-1.0,0.2222132211230561,2.0
17.767091751098633,5.248199462890625,0.7759312391281128,-0.0,-0.0,-1.0,0.1790853144087557,2.0
19.378923416137695,5.032794952392578,-0.6764974594116211,-0.0133124000117997,-0.9319169925714904,0.3624272326446153,0.0266565267006324,3.0
18.601171493530273,3.880081176757813,-0.5474082231521606,-0.0,-0.0,-1.0,0.1000537641572871,1.0
17.709705352783203,5.391727447509766,0.2005424499511718,-0.0,-0.0,-1.0,0.0797488306503771,1.0
17.74401092529297,5.3650054931640625,0.9444304704666138,-0.0,-0.0,-1.0,0.1420392669201474,2.0
17.903108596801758,3.763120651245117,-0.0240066051483154,-0.0,-0.0,-1.0,0.110117148890452,2.0
18.734338760375977,5.234228134155273,-0.5649645328521729,-0.0,-0.0,-1.0,0.0243840949830839,1.0
18.17738914489746,3.6736888885498047,-0.3601887226104736,-0.0,-0.0,-1.0,0.1371677835412563,2.0
18.848953247070312,4.71303653717041,-0.6425672769546509,-0.0,-0.0,-1.0,0.0605372260591872,1.0
17.91843605041504,5.12769889831543,0.3309410214424133,-0.0,-0.0,-1.0,0.1196101650756717,2.0
17.791229248046875,5.1632890701293945,1.246032953262329,-0.0,-0.0,-1.0,0.1655531560219361,1.0
18.27914810180664,4.807226181030273,-0.4623862504959106,-0.65761760563366,-0.5401393622661322,-0.5251557427005709,0.2332042116678618,3.0
18.23334503173828,3.879112243652344,-0.055978775024414,-0.0,-0.0,-1.0,0.1702770606600607,2.0
17.913633346557617,5.269623756408691,0.5242474675178528,-0.0,-0.0,-1.0,0.2617315928264617,1.0
17.900821685791016,5.295192718505859,0.9945726990699768,-0.0,-0.0,-1.0,0.1497645980906506,1.0
19.46412467956543,4.609814643859863,-0.647205114364624,-0.274400132471599,-0.1757242416300639,-0.9454234808820372,0.0379435701302315,3.0
17.924137115478516,5.326663017272949,-0.5946893692016602,0.3840695210905593,-0.4376689471240641,-0.8129800094052629,0.0532665628574286,5.0
18.81719017028809,4.832802772521973,-0.6345300674438477,-0.0,-0.0,-1.0,0.0343140586143713,1.0
18.198205947875977,3.998066902160645,-0.2335045337677002,-0.0,-0.0,-1.0,0.1964573508848948,1.0
17.899137496948242,4.960161209106445,-0.5417294502258301,-0.0,-0.0,-1.0,0.1042920958782738,1.0
18.864633560180664,4.8260087966918945,-0.6831221580505371,-0.0,-0.0,-1.0,0.0327839095002008,1.0
17.759571075439453,5.570202827453613,-0.611186146736145,-0.5765627619400812,-0.8140727383245037,0.0697205727233345,0.0851612579737375,3.0
17.797086715698242,5.345829963684082,0.9011642932891846,-0.0,-0.0,-1.0,0.1424204094134785,1.0
18.831932067871097,3.836193084716797,-0.2576190233230591,0.2201980070339592,0.6650804229131432,-0.7135691058026177,0.2036727046045187,5.0
17.817291259765625,5.159889221191406,-0.054083228111267,-0.1847672941614227,0.077269526926438,-0.9797399998044536,0.0858400632073131,3.0
17.938350677490234,5.184558868408203,0.3253214359283447,-0.0,-0.0,-1.0,0.1936661006000005,1.0
17.856395721435547,5.307343482971191,0.716937780380249,-0.0,-0.0,-1.0,0.2232330323015862,1.0
18.77087783813477,3.8705434799194336,-0.3935215473175049,0.9702575838392422,-0.1781008166645951,0.1639521884753001,0.2362426922053521,7.0
17.859577178955078,5.220242500305176,0.2337255477905273,-0.0,-0.0,-1.0,0.0860384414156734,1.0
17.890716552734375,5.262763023376465,0.5941081643104553,-0.0,-0.0,-1.0,0.2552231854607255,2.0
17.733516693115234,5.266592025756836,0.9783353209495544,-0.8710980009393074,0.2462942208776869,-0.4248851956961975,0.1331224315000866,3.0
18.470966339111328,4.469353675842285,-0.5262942314147949,-0.5445227896026149,0.6108716269202955,-0.5747441056915137,0.2061517732235335,5.0
17.901199340820312,5.223947525024414,0.3626081943511963,-0.0,-0.0,-1.0,0.160679038911051,1.0
17.78635597229004,5.332339286804199,0.7305914163589478,-0.0,-0.0,-1.0,0.2080928943718929,1.0
17.953472137451172,5.151274681091309,1.0614895820617676,-0.0,-0.0,-1.0,0.1497957332132168,2.0
18.333396911621097,4.740573883056641,-0.5707906484603882,-0.1022369183016058,0.8095321156390421,-0.5781049786026473,0.0933773073525967,4.0
19.283550262451172,5.41352653503418,-0.6914907693862915,-0.0258618822844611,0.4698592140930113,-0.8823624436571414,0.0337388498705786,3.0
17.728675842285156,5.0934343338012695,-0.0696135759353637,-0.0,-0.0,-1.0,0.0792592897836602,2.0
17.745372772216797,5.236034393310547,0.2799815535545349,-0.0,-0.0,-1.0,0.1384968955903949,2.0
17.878870010375977,5.193792343139648,0.5992269515991211,-0.0,-0.0,-1.0,0.1767320747962112,1.0
18.410531997680664,4.453632354736328,-0.4251312017440796,-0.0,-0.0,-1.0,0.1496896522769699,2.0
17.790847778320312,5.180066108703613,-0.260800838470459,0.1338559693998559,0.5572727546603581,-0.8194691308214613,0.0700770850894439,3.0
17.780759811401367,5.143250465393066,0.0671354532241821,-0.0,-0.0,-1.0,0.0959579274199112,2.0
17.876508712768555,5.188065528869629,0.3927457332611084,-0.0,-0.0,-1.0,0.1450325736874663,1.0
17.80876922607422,5.245251655578613,1.0484460592269895,-0.0,-0.0,-1.0,0.1405906304379579,2.0
18.847522735595703,4.446093559265137,-0.6190459728240967,-0.0,-0.0,-1.0,0.038016493685944,1.0
17.84815216064453,5.0795440673828125,-0.3902084827423095,-0.0,-0.0,-1.0,0.1305387858399549,1.0
17.804853439331055,5.0858964920043945,-0.0803753137588501,-0.0,-0.0,-1.0,0.0871329183736054,2.0
17.7507381439209,5.219316005706787,0.2374549508094787,-0.9878931315846604,-0.1383120782037561,-0.0702632876458997,0.0929328640835035,3.0
17.83303451538086,5.269249439239502,0.81650310754776,-0.0,-0.0,-1.0,0.1368117575821056,2.0
18.69563865661621,3.8492431640625,-0.3199557065963745,-0.0,-0.0,-1.0,0.1767108560252027,2.0
17.825529098510742,5.121877670288086,-0.3140978813171386,-0.0,-0.0,-1.0,0.1299179811424424,2.0
17.789487838745117,5.115938663482666,-0.0352594852447509,-0.4759026864591716,-0.5533627850745393,-0.6835980259739582,0.0905931302795793,4.0
17.896549224853516,4.955075740814209,0.2090669870376587,-0.0,-0.0,-1.0,0.2099769413975656,1.0
17.8314151763916,5.204733848571777,0.5109096169471741,-0.9772086216781084,0.1002750695911099,-0.1871048372877347,0.095027840988778,3.0
17.743091583251953,5.3260602951049805,0.7889924645423889,-0.0,-0.0,-1.0,0.1198929804504367,2.0
17.90888786315918,5.128159523010254,1.0348618030548096,0.0074722782767315,0.2304421436271818,-0.973057338237508,0.1827212980639687,3.0
18.36396217346191,4.421294212341309,-0.6234415769577026,-0.0,-0.0,-1.0,0.162557411215868,2.0
18.12000846862793,3.9458298683166504,-0.4130581617355346,0.3968267053800807,-0.4750727419634547,-0.7853880924361635,0.1956915577245978,5.0
18.76622200012207,3.813909530639648,-0.508476734161377,0.3175777561247743,0.0795489782737502,-0.9448895855444468,0.2639799824095319,6.0
18.159927368164062,4.768113136291504,-0.5198209285736084,0.8967095777886911,-0.1919670708709749,-0.3988239922613042,0.1964124412475428,3.0
18.15072250366211,3.8384580612182617,-0.142872929573059,0.5797049262095397,0.3909669375243901,-0.7149035265622847,0.201208566507833,4.0
18.81674575805664,3.8049726486206055,-0.2160637378692627,0.7652590067105314,-0.0769864275702124,0.6391022943304047,0.2542894544538361,6.0
17.79573631286621,5.148718357086182,-0.1440092325210571,-0.0,-0.0,-1.0,0.0746514302584466,1.0
17.81549644470215,5.097968578338623,0.0916749238967895,-0.0,-0.0,-1.0,0.0979973870837862,1.0
17.816627502441406,5.256828784942627,0.3563247919082641,-0.0,-0.0,-1.0,0.1647171619545073,2.0
17.716880798339844,5.280719757080078,0.6032847762107849,-0.9360109665125114,0.3503704435458891,-0.0335264501218269,0.1243418313300899,3.0
17.828065872192383,5.150780200958252,1.0592200756072998,-0.0,-0.0,-1.0,0.162911973763419,2.0
18.01456069946289,4.095433712005615,-0.5541204214096069,-0.0,-0.0,-1.0,0.0580750225805629,1.0
18.44754409790039,4.461486339569092,-0.4931972026824951,-0.6974696131192892,0.4168593647610423,-0.5828931366779414,0.2109860095158571,7.0
18.101608276367188,3.9191627502441406,-0.3319483995437622,0.3758131985588512,0.8789569476868343,-0.2935968731134735,0.2556223674061306,6.0
18.80050277709961,3.8441224098205566,-0.402469277381897,-0.1582050315779894,-0.2914740202896745,-0.9434055668054864,0.2194344677570544,8.0
17.803834915161133,5.158097267150879,-0.2736191749572754,0.1338559693998559,0.5572727546603581,-0.8194691308214613,0.0700770850894439,3.0
18.117496490478516,3.8603835105896,-0.075204849243164,-0.4954767529442527,0.2506397349714165,-0.831674522000811,0.1759575458318203,7.0
17.773286819458008,5.152939796447754,-0.0463325977325439,-0.1265727035875615,-0.2432043470450885,-0.9616813382222342,0.0862888235547201,5.0
17.826419830322266,5.096761226654053,0.1642459630966186,-0.0,-0.0,-1.0,0.1312432332289964,2.0
17.9223690032959,5.027029514312744,0.3713732361793518,-0.0,-0.0,-1.0,0.1609822060212956,1.0
17.915658950805664,5.095727920532227,0.6022096872329712,-0.4370736243840951,0.6394508053156498,-0.6325103275432884,0.1491323098537103,3.0
17.921483993530273,5.153104782104492,1.040866136550903,0.3227722775332632,0.3551134312863483,-0.877332609547842,0.1616752146511565,4.0
18.135986328125,3.916952610015869,-0.3157404661178589,0.37872510121049,0.8478530239593178,-0.3710964126425166,0.256998545096228,6.0
17.763513565063477,3.756391048431397,-0.0831795930862426,0.1879749356497948,-0.0103720823918796,-0.9821190576881764,0.0842663578086187,5.0
18.14290428161621,3.8575053215026855,-0.0778394937515258,-0.3416083193767336,0.6310629383622396,0.6964648763277445,0.1510594447479789,7.0
17.78603172302246,5.140695571899414,0.1879531145095825,-0.0,-0.0,-1.0,0.1330869824050011,1.0
17.950725555419922,4.983242034912109,0.3618463277816772,-0.0,-0.0,-1.0,0.1741396110325166,1.0
17.907495498657227,5.025580406188965,0.5761700868606567,-0.0,-0.0,-1.0,0.1566718405152259,2.0
17.92293930053711,5.0491180419921875,0.7818347215652466,-0.0,-0.0,-1.0,0.1296137352849495,1.0
17.718881607055664,5.263747692108154,1.006691336631775,-0.0,-0.0,-1.0,0.1427233911898598,2.0
17.93424415588379,5.153932094573975,0.989344835281372,-0.0,-0.0,-1.0,0.1933649730187402,1.0
17.753313064575195,5.101280212402344,1.1967662572860718,-0.0,-0.0,-1.0,0.1948690697666033,1.0
17.71600914001465,3.796642303466797,-0.1208648681640625,0.8467238846263533,-0.5315647402280145,0.0223067287960746,0.1118985621501259,5.0
17.8341064453125,5.107131481170654,0.1618185043334961,-0.0,-0.0,-1.0,0.1398446987515287,2.0
17.926830291748047,4.893797874450684,0.5177674293518066,-0.0,-0.0,-1.0,0.1855007912030895,1.0
17.960790634155273,4.964718818664551,0.7213991284370422,-0.0,-0.0,-1.0,0.1131554013644422,1.0
17.93906021118164,5.047267436981201,0.920112371444702,-0.0,-0.0,-1.0,0.1265321763442813,2.0
17.75486946105957,4.968463897705078,1.110522985458374,-0.0,-0.0,-1.0,0.1120016610121175,1.0
17.71123504638672,5.0343217849731445,0.1432046890258789,-0.0,-0.0,-1.0,0.078523304458727,1.0
17.768518447875977,5.109441757202148,0.3539031744003296,-0.0,-0.0,-1.0,0.1447579530614922,1.0
17.852853775024414,5.029966831207275,0.5368636846542358,-0.0,-0.0,-1.0,0.1371371340306644,1.0
17.864906311035156,5.170362949371338,0.7391968965530396,-0.0,-0.0,-1.0,0.1279962393873067,2.0
17.829803466796875,5.144737720489502,0.9191020727157592,-0.0,-0.0,-1.0,0.1435218430614404,2.0
17.89453125,5.062420845031738,0.5831366777420044,0.3468001473483523,0.2906735405423716,-0.8917614875221529,0.1517061850133704,3.0
17.82118797302246,4.913509845733643,0.7549824714660645,-0.0,-0.0,-1.0,0.209254725157508,1.0
17.840909957885742,5.007972717285156,0.9521414041519164,-0.0,-0.0,-1.0,0.1706970096745974,1.0
17.778902053833008,4.787707328796387,1.1335878372192385,-0.0,-0.0,-1.0,0.2041942494101426,1.0
17.72246551513672,3.782142639160156,-0.1481046676635742,0.9430015123936571,0.0264808594003716,0.3317331935587584,0.1525268376116732,4.0
17.804813385009766,4.701674461364746,-0.2233657836914062,-0.0,-0.0,-1.0,0.1616208117731622,1.0
17.790054321289062,4.643435955047607,-0.0185021162033081,-0.0,-0.0,-1.0,0.2070522460944282,1.0
18.869285583496097,3.769049644470215,0.023100733757019,0.549703989099192,0.758279313134209,0.350482535429581,0.1616492233309222,3.0
17.723594665527344,4.790627956390381,0.2004003524780273,-0.0,-0.0,-1.0,0.1985684666740318,1.0
17.763078689575195,4.998486042022705,0.6344857811927795,-0.0,-0.0,-1.0,0.1809028858297338,2.0
17.777484893798828,4.750039577484131,1.2327313423156738,-0.0,-0.0,-1.0,0.1389966330948398,1.0
17.806243896484375,4.05424690246582,-0.4738940000534057,-0.0,-0.0,-1.0,0.1493377932989674,1.0
17.73469352722168,3.720775842666626,-0.2988333702087402,-0.0,-0.0,-1.0,0.0883269839442027,1.0
18.548973083496097,4.652822494506836,-0.2142766714096069,-0.0,-0.0,-1.0,0.092077104372599,2.0
17.71169662475586,3.6543972492218018,-0.075106143951416,-0.0,-0.0,-1.0,0.1032639062237074,2.0
17.823684692382812,4.608880996704102,-0.1781178712844848,-0.0,-0.0,-1.0,0.125255058641257,1.0
17.712337493896484,4.694835662841797,0.4606624245643616,-0.0,-0.0,-1.0,0.1016991397372865,2.0
17.75949478149414,3.963346004486084,-0.4285540580749511,-0.0,-0.0,-1.0,0.1706541108375449,2.0
17.781082153320312,4.688527584075928,-0.3760639429092407,-0.0,-0.0,-1.0,0.1420561608931665,2.0
18.114362716674805,3.865386724472046,-0.346484899520874,0.251474486645626,-0.5845609229510241,-0.7713942636064686,0.2453375735664889,5.0
18.806814193725582,3.6879758834838863,-0.1912405490875244,-0.0,-0.0,-1.0,0.1623720124628024,2.0
18.027183532714844,3.835471153259278,-0.1501957178115844,0.6485200479590976,-0.5600709057064321,0.5155020154919929,0.1839370301783743,3.0
18.79718017578125,3.725044488906861,0.0063449144363403,-0.0383577513588369,0.859537012343844,-0.5096320312948476,0.124204062822122,4.0
18.84481430053711,3.729215621948242,0.2080485820770263,-0.5265273203799187,-0.2399737605408849,-0.8155866447811714,0.1633196602205248,3.0
18.760208129882812,3.827298641204834,0.1084921360015869,-0.0,-0.0,-1.0,0.1561429619538832,1.0
17.715356826782227,4.9566779136657715,0.7074432373046875,-0.0,-0.0,-1.0,0.1696758249313671,2.0
17.767253875732422,4.554931163787842,1.374496579170227,-0.0,-0.0,-1.0,0.1463937676204425,1.0
18.060609817504883,3.644192695617676,0.0447776317596435,-0.0,-0.0,-1.0,0.1301580677401598,1.0
18.82785987854004,3.9706106185913086,0.1668866872787475,-0.5280629910380938,0.2687099989686746,-0.8055708621531423,0.1075237335482103,6.0
18.158496856689453,3.8379390239715576,-0.0522010326385498,-0.4472036352125498,0.6562670436637903,0.6077190765917008,0.2209926221393486,7.0
18.169269561767575,3.871382474899292,-0.1772918701171875,-0.1815010969488318,0.9475857565643392,0.2629421718986133,0.1791728968294021,4.0
18.804851531982425,3.913166046142578,0.1615127325057983,-0.0,-0.0,-1.0,0.0648245613452007,2.0
17.748920440673828,4.6202287673950195,0.1003085374832153,-0.0,-0.0,-1.0,0.1591731886352013,1.0
17.739187240600586,4.90040397644043,0.6395018100738525,-0.0,-0.0,-1.0,0.1455394398072816,1.0
18.82978630065918,3.827228546142578,-0.316584825515747,0.7221007540011393,0.6204925969181557,-0.3058748735034463,0.1323215911077166,8.0
17.711284637451172,4.7052507400512695,0.4171279668807983,-0.0,-0.0,-1.0,0.1172284634972097,2.0
18.81847381591797,4.928195953369141,0.5242812633514404,-0.0,-0.0,-1.0,0.1969606528095112,1.0
18.19008445739746,5.0006103515625,1.1429274082183838,-0.0,-0.0,-1.0,0.1162043273668268,1.0
18.306377410888672,5.083841323852539,0.8216965198516846,0.3521175240367779,0.8289461480190478,-0.4345820209702559,0.0630681536110152,4.0
18.283601760864254,5.116037368774414,0.8382363319396973,0.5866334244283953,0.3504468158841641,0.7301015371714168,0.1158523374559938,4.0
18.55838394165039,5.030729293823242,-0.0059683322906494,0.2463364186112534,0.037275922641522,-0.9684672810461922,0.1560298491170961,3.0
18.088022232055664,5.238651275634766,0.7892484664916992,-0.0,-0.0,-1.0,0.1284061453757011,2.0
18.568038940429688,5.1470489501953125,0.5350890159606934,-0.0,-0.0,-1.0,0.2392031906514222,1.0
18.344797134399418,5.091300964355469,0.8440690040588379,0.4802257490703615,-0.6237451413957119,-0.6167051390373305,0.0950193151630148,3.0
18.617023468017575,5.074121475219727,0.0672168731689453,-0.0,-0.0,-1.0,0.1245639048018818,1.0
18.16327667236328,5.192659378051758,0.7666223049163818,0.7205339627750459,0.5789118493973966,0.3816960559332185,0.1263589324185126,3.0
19.52741813659668,4.808620452880859,-0.6406269073486328,-0.0,-0.0,-1.0,0.0338501891179228,1.0
18.41318130493164,5.135005950927734,-0.0381736755371093,-0.349319960250755,-0.0813385433775399,-0.933466446494801,0.0958475219017174,3.0
18.46772003173828,4.988649368286133,0.6860318183898926,0.3380452461850682,-0.4876299092948473,-0.8049487456309101,0.1009360556574083,4.0
18.544618606567383,5.0063018798828125,0.1962835788726806,-0.0,-0.0,-1.0,0.1641139361778132,2.0
18.65247344970703,5.0653076171875,0.857374906539917,-0.0,-0.0,-1.0,0.184774347782051,1.0
18.544586181640625,5.0596466064453125,0.773195743560791,-0.0,-0.0,-1.0,0.1434125629666335,1.0
18.483903884887695,4.981471061706543,0.5374929904937744,-0.0,-0.0,-1.0,0.1671529967318069,1.0
18.091161727905273,4.948825836181641,0.5233416557312012,-0.0,-0.0,-1.0,0.2138957491583301,2.0
18.19205665588379,5.194766998291016,1.0633137226104736,-0.0,-0.0,-1.0,0.0974316411472415,2.0
18.577457427978516,4.972055435180664,0.129587173461914,-0.0,-0.0,-1.0,0.1340427473003719,2.0
17.722108840942383,3.6881790161132817,-0.1028313636779785,0.8788569078969832,0.0200754209364933,0.4766628923211625,0.0837202853145177,4.0
18.12262725830078,5.1442718505859375,0.6379249095916748,-0.9358182438766076,0.2660680705331177,-0.2311968777265074,0.2345012403620876,4.0
18.55259704589844,4.980974197387695,0.1760876178741455,-0.0,-0.0,-1.0,0.1539848691067816,2.0
18.157943725585938,4.961647987365723,0.1830337047576904,-0.0,-0.0,-1.0,0.191000047505436,1.0
18.539993286132812,4.991574287414551,0.6786024570465088,0.031668207316134,0.4097529308070117,-0.9116466751655744,0.1068008014662507,3.0
18.130352020263672,5.174344062805176,0.6457076072692871,-0.9358182438766076,0.2660680705331177,-0.2311968777265074,0.1505787740486818,4.0
18.37678337097168,4.977943420410156,1.1782302856445312,-0.2228061175922451,-0.5282990437988498,-0.8193030906109725,0.1912643036655296,3.0
18.754165649414062,4.97438907623291,0.4186084270477295,-0.0,-0.0,-1.0,0.2119395414239344,1.0
18.342424392700195,5.211917877197266,0.3742175102233886,-0.0,-0.0,-1.0,0.1260541122495772,1.0
18.818111419677734,5.089847564697266,0.874131441116333,-0.0,-0.0,-1.0,0.1926680547258181,1.0
18.43974876403809,5.092385292053223,0.8760359287261963,0.0161247123103322,0.9363975612348052,-0.3505703937391439,0.2162920746065206,3.0
18.84880828857422,4.933178424835205,0.4655714035034179,-0.0,-0.0,-1.0,0.1996422919695874,1.0
18.38905143737793,5.055400371551514,0.4512960910797119,-0.0,-0.0,-1.0,0.1892672407652032,1.0
18.8095760345459,5.001745700836182,0.9049880504608154,-0.0,-0.0,-1.0,0.2311153109339896,2.0
18.48832893371582,5.137551784515381,0.8852517604827881,-0.0,-0.0,-1.0,0.1574337313655187,1.0
18.721656799316406,5.011898040771484,0.2119219303131103,-0.0,-0.0,-1.0,0.0910782372891502,1.0
18.42657470703125,5.148221969604492,0.1952857971191406,-0.0,-0.0,-1.0,0.1209230740796469,1.0
18.92543029785156,5.0102434158325195,0.6319544315338135,-0.0,-0.0,-1.0,0.1558246460094084,1.0
18.298141479492188,5.303363800048828,0.5977027416229248,-0.0,-0.0,-1.0,0.2155738372022404,1.0
18.55702781677246,4.893614768981934,1.0914502143859863,-0.0,-0.0,-1.0,0.1165215201453142,1.0
18.83168601989746,4.865262031555176,0.4730648994445801,-0.0,-0.0,-1.0,0.1733020080573254,1.0
18.44778060913086,5.198625564575195,0.42134690284729,-0.0,-0.0,-1.0,0.1533949422626306,1.0
18.899131774902344,5.019748687744141,0.8373250961303711,-0.0,-0.0,-1.0,0.125870934446777,1.0
18.3929500579834,5.199409484863281,0.8285887241363525,-0.0,-0.0,-1.0,0.2327458778562836,2.0
18.87702178955078,4.972316741943359,0.6476051807403564,-0.0,-0.0,-1.0,0.1606867934209653,1.0
18.485157012939453,5.009788513183594,0.6756794452667236,0.0828412079733939,-0.7846682155629402,-0.6143558624663561,0.1558154712744323,4.0
18.564651489257812,4.964397430419922,1.0511958599090576,-0.0,-0.0,-1.0,0.1754940398534888,1.0
18.62216567993164,4.947065830230713,0.638922929763794,-0.0,-0.0,-1.0,0.1302311765742463,2.0
18.66375160217285,4.90972375869751,0.9424062967300416,-0.0,-0.0,-1.0,0.0712155062016542,1.0
18.56724548339844,4.958743572235107,0.7309563159942627,-0.0,-0.0,-1.0,0.1159708811785857,1.0
18.709712982177734,4.931850433349609,1.009913682937622,-0.0,-0.0,-1.0,0.0990103682851815,2.0
18.499813079833984,5.0814433097839355,1.0307762622833252,-0.0,-0.0,-1.0,0.1519403107693199,1.0
18.67606735229492,5.094903469085693,0.5346980094909668,-0.0,-0.0,-1.0,0.1687065844051924,2.0
18.45795249938965,5.508380889892578,0.5389084815979004,-0.0,-0.0,-1.0,0.1529850547139093,1.0
18.696535110473633,4.200220108032227,0.6041730642318726,-0.0,-0.0,-1.0,0.1154324632138188,2.0
18.15768814086914,4.684179306030273,0.6854840517044067,-0.0,-0.0,-1.0,0.211014826900846,1.0
18.013423919677734,4.254203796386719,0.7528795003890991,-0.0,-0.0,-1.0,0.2007537160131888,2.0
18.53038024902344,5.5736308097839355,0.8280501365661621,-0.0,-0.0,-1.0,0.1145987558278693,1.0
18.42853355407715,5.161343574523926,0.8840948343276978,0.5242191107531167,-0.7477584876452773,-0.4074942552670643,0.0972994547026719,3.0
18.702835083007812,5.174072265625,1.141059398651123,-0.0,-0.0,-1.0,0.2131607827539841,1.0
18.245330810546875,4.346120834350586,0.9810655117034912,-0.0,-0.0,-1.0,0.1806390598152719,2.0
18.18332290649414,4.553310394287109,0.9779783487319946,-0.0,-0.0,-1.0,0.1181137560041325,1.0
19.110645294189453,4.383656978607178,0.3099567890167236,-0.0,-0.0,-1.0,0.1598384328002467,1.0
19.121734619140625,3.911761999130249,0.3273770809173584,-0.0,-0.0,-1.0,0.1425998222965968,1.0
18.694969177246097,5.146896839141846,0.3630671501159668,-0.0,-0.0,-1.0,0.1567404220546012,1.0
18.7326602935791,5.440547943115234,0.3311424255371094,-0.0,-0.0,-1.0,0.171243134102367,1.0
19.1377010345459,4.358010292053223,0.6370971202850342,-0.0,-0.0,-1.0,0.0907673214174871,2.0
19.16529083251953,3.948752880096435,0.6472065448760986,-0.0,-0.0,-1.0,0.2083604162251963,1.0
18.694169998168945,4.968319416046143,0.6962242126464844,-0.0,-0.0,-1.0,0.139214853714331,2.0
18.68785858154297,5.462405681610107,0.6641883850097656,-0.0,-0.0,-1.0,0.2448865595497871,1.0
19.24829864501953,4.118372917175293,0.9545040130615234,-0.0,-0.0,-1.0,0.093332125791252,1.0
18.753612518310547,5.167763710021973,0.9906222820281982,-0.0,-0.0,-1.0,0.2060191324544143,1.0
18.706937789916992,5.34559965133667,0.9878180027008056,-0.0,-0.0,-1.0,0.180039859465829,2.0
19.239177703857425,5.158824920654297,0.4174416065216064,-0.0,-0.0,-1.0,0.2439157419960267,2.0
19.233901977539062,5.514791488647461,0.3919095993041992,-0.0,-0.0,-1.0,0.2001299077604096,1.0
19.25341796875,5.07066011428833,0.7604169845581055,-0.0,-0.0,-1.0,0.2178864220571229,1.0
19.30865478515625,5.636579513549805,0.7114222049713135,-0.0,-0.0,-1.0,0.1839270574559006,1.0
19.086650848388672,3.7695255279541016,0.8511826992034912,-0.0,-0.0,-1.0,0.2247590306892027,2.0
19.42857360839844,4.9364776611328125,0.27490234375,-0.0,-0.0,-1.0,0.2243946438254594,1.0
19.027942657470703,3.8175978660583496,0.4080331325531006,-0.2748105238237627,-0.914355165395618,-0.2973782229923056,0.1774184396190687,3.0
19.36357688903809,4.78331184387207,0.647637128829956,-0.0,-0.0,-1.0,0.1170615845511252,1.0
19.13549041748047,3.84970760345459,0.725379228591919,-0.0,-0.0,-1.0,0.1402893469629339,1.0
19.526378631591797,4.965423583984375,0.9578983783721924,-0.0,-0.0,-1.0,0.1596454091006431,1.0
19.379423141479492,5.000317096710205,0.4968667030334472,-0.0,-0.0,-1.0,0.2486956488640828,1.0
19.09536361694336,3.993403434753418,0.547470211982727,-0.0,-0.0,-1.0,0.1430057510982789,1.0
19.019804000854492,3.668189287185669,0.5542442798614502,-0.0,-0.0,-1.0,0.1020383415897937,1.0
19.46800422668457,5.306188583374023,0.8353093862533569,-0.0,-0.0,-1.0,0.2300460026826436,1.0
19.093185424804688,3.654876708984375,0.8938753604888916,-0.0,-0.0,-1.0,0.170322056833795,1.0
19.100502014160156,3.8904590606689458,0.8972702026367188,-0.0,-0.0,-1.0,0.2069006982325342,1.0
19.621585845947266,5.328495025634766,0.1875324249267578,-0.0,-0.0,-1.0,0.2182460504039142,1.0
19.215444564819336,3.957757234573364,0.2374947071075439,-0.0,-0.0,-1.0,0.1792755749125586,1.0
19.707351684570312,5.573873519897461,0.5522860288619995,-0.0,-0.0,-1.0,0.2077143458247624,1.0
19.562973022460938,5.268647193908691,0.5785106420516968,-0.0,-0.0,-1.0,0.195459203571315,1.0
19.076805114746097,3.7821526527404785,0.6325113773345947,-0.0,-0.0,-1.0,0.1290186450168249,1.0
19.26351547241211,3.837815284729004,0.9756801128387452,-0.0,-0.0,-1.0,0.2509369563165805,2.0
19.141448974609375,3.724165916442871,-0.2225089073181152,-0.0,-0.0,-1.0,0.1378222286145606,1.0
18.009613037109375,3.725255012512207,0.0184979438781738,-0.4161500724353258,-0.1088978583006215,-0.9027515570020416,0.1592253645172792,5.0
19.104915618896484,3.964343547821045,0.2121672630310058,-0.0,-0.0,-1.0,0.109697641724279,1.0
19.05462646484375,3.662168502807617,0.1864471435546875,-0.0,-0.0,-1.0,0.1296641362423857,1.0
19.654888153076172,4.889351844787598,0.610830545425415,-0.0,-0.0,-1.0,0.13610662941811,1.0
19.063127517700195,3.9244790077209473,0.6044193506240845,-0.0,-0.0,-1.0,0.1576259438573813,1.0
19.042070388793945,3.752605438232422,0.9763330221176147,-0.0,-0.0,-1.0,0.150314935797511,2.0
19.03216552734375,3.789680004119873,0.4734902381896972,-0.0,-0.0,-1.0,0.1728097610442778,2.0
18.121028900146484,4.002727508544922,-0.1885545253753662,-0.7910965282927027,0.1821866875807658,-0.583930041864247,0.2575995003168696,4.0
18.089767456054688,3.988693237304687,-0.2450294494628906,-0.0,-0.0,-1.0,0.1782608556472896,2.0
18.16148376464844,3.860269546508789,0.0250349044799804,-0.0,-0.0,-1.0,0.2762258808455543,2.0
18.37364196777344,5.155368804931641,-0.5460696220397949,-0.0,-0.0,-1.0,0.1090448219492777,2.0
19.05944061279297,3.970403671264648,-0.586489200592041,-0.0,-0.0,-1.0,0.0997303342026987,2.0
19.29720687866211,4.874519348144531,-0.6358232498168945,-0.0,-0.0,-1.0,0.0198484905792902,1.0
18.69308090209961,3.8463916778564458,-0.4718692302703857,0.7183004132248137,0.6939399252819236,-0.0499188988338126,0.2097005941933666,3.0
19.679275512695312,3.951547622680664,-0.5430107116699219,-0.8216051747773899,-0.3572198573499051,-0.4442509541846005,0.0682975166367577,6.0
17.73214340209961,4.020505905151367,-0.3772814273834228,-0.0,-0.0,-1.0,0.1996108397586862,2.0
19.404052734375,3.8472843170166016,-0.5975091457366943,-0.0,-0.0,-1.0,0.0571141901293489,2.0
17.754159927368164,4.196268081665039,-0.4312915802001953,-0.0,-0.0,-1.0,0.0947437471509379,2.0
18.228477478027344,4.766670227050781,-0.3958437442779541,-0.0,-0.0,-1.0,0.2103841299889754,2.0
17.78797721862793,3.805410385131836,-0.1874642372131347,0.4901095873394195,-0.7171960800827575,-0.495401226393225,0.1265597967788431,5.0
19.50619888305664,3.7815113067626953,-0.5864036083221436,-0.6363231922197895,0.1817653146759779,0.7497027180315939,0.044968926597244,3.0
17.80991554260254,3.9887542724609375,-0.3737292289733886,0.4724111404702417,-0.8076570856551332,-0.3528707218666101,0.2153577287758799,4.0
18.48690414428711,5.22254753112793,-0.5418007373809814,-0.0,-0.0,-1.0,0.0372025342718244,2.0
19.00437355041504,5.055967330932617,-0.6338098049163818,0.1153170065716244,0.7644597267554645,-0.6342738479271552,0.0361306183181529,3.0
19.26943588256836,5.59416389465332,-0.6124889850616455,-0.0,-0.0,-1.0,0.0911396360649247,1.0
18.4508056640625,5.273211479187012,-0.5559654235839844,-0.0,-0.0,-1.0,0.0295691563383208,2.0
17.7392635345459,3.856019973754883,-0.1557540893554687,0.5021190407219264,-0.342592166720934,0.7940447570798185,0.1420686136731055,3.0
18.09963607788086,3.981260299682617,-0.178807258605957,-0.8740125621362433,0.4785131020512462,-0.0844230560530277,0.2229707434687662,5.0
18.111234664916992,3.9401121139526367,-0.4073283672332763,0.3968267053800807,-0.4750727419634547,-0.7853880924361635,0.2185111369620095,5.0
18.12008476257324,3.9184694290161137,-0.3273847103118896,0.3761390754515403,0.8631245141623036,-0.3369502470255034,0.2621404304115065,7.0
19.675310134887695,3.853053092956543,-0.5251204967498779,-0.5627736198818079,0.7334542216119835,0.3812227138624956,0.0754985301157624,7.0
18.151790618896484,3.880218505859375,-0.4212052822113037,-0.4437185316067736,0.0639692069873407,-0.8938801962601807,0.2373311835334745,3.0
