x,y,z,nx,ny,nz,curvature,density,label
37.90916061401367,-22.897188186645508,0.4579650163650512,-0.9484073301604335,-0.122960818433538,-0.2922399240831282,0.1863727205846691,3.0,1.0
39.74234771728515,-24.071739196777344,0.4175212383270263,-0.0,-0.0,-1.0,0.0987416442671229,1.0,1.0
38.04543685913086,-24.09239196777344,0.5511839389801025,-0.0,-0.0,-1.0,0.1699880657866679,1.0,1.0
37.895965576171875,-22.857646942138672,0.5886776447296143,-0.0,-0.0,-1.0,0.1404878210672902,2.0,1.0
37.90126419067383,-22.82569694519043,0.5462980270385742,-0.0,-0.0,-1.0,0.1693783105509653,1.0,1.0
37.88786315917969,-24.04267120361328,0.295626163482666,-0.0,-0.0,-1.0,0.1413364600807375,1.0,1.0
38.51396942138672,-23.34173583984375,0.3054134845733642,-0.0,-0.0,-1.0,0.1457735723816541,1.0,1.0
38.04890441894531,-22.8895263671875,0.3272958993911743,-0.0,-0.0,-1.0,0.1921560958278613,1.0,1.0
38.59012222290039,-23.11962127685547,0.1794382333755493,-0.0,-0.0,-1.0,0.1031461376960197,1.0,1.0
39.40828704833984,-22.988475799560547,0.1550730466842651,-0.0,-0.0,-1.0,0.0198983295870359,1.0,1.0
39.68718338012695,-22.70260238647461,0.1561248302459716,-0.0,-0.0,-1.0,0.0086943660603045,1.0,1.0
39.883663177490234,-22.76380157470703,0.1464428901672363,-0.0,-0.0,-1.0,0.0150403035861816,1.0,1.0
39.38269805908203,-22.273406982421875,0.1841776371002197,-0.0,-0.0,-1.0,0.1586435968368561,1.0,1.0
38.4615592956543,-23.128231048583984,0.2024885416030883,-0.0,-0.0,-1.0,0.1223090223620417,1.0,1.0
38.62135314941406,-23.076831817626953,0.2028937339782714,-0.0,-0.0,-1.0,0.0614268119428317,1.0,1.0
39.07304000854492,-23.01576232910156,0.2010496854782104,-0.0,-0.0,-1.0,0.1564350147473414,1.0,1.0
39.35924530029297,-22.9775390625,0.1997460126876831,-0.0,-0.0,-1.0,0.0340411269738695,1.0,1.0
39.50007247924805,-23.220874786376953,0.1901334524154663,-0.0,-0.0,-1.0,0.0208361695075733,1.0,1.0
39.78759002685547,-23.42835235595703,0.180245041847229,-0.0,-0.0,-1.0,0.0463337074561135,1.0,1.0
39.45025634765625,-22.25948715209961,0.2233141660690307,-0.0,-0.0,-1.0,0.2040342414087578,1.0,1.0
38.13901138305664,-22.731578826904297,0.6911290287971497,-0.0,-0.0,-1.0,0.1333992643942255,2.0,1.0
40.084938049316406,-23.101993560791016,0.1911345720291137,-0.0,-0.0,-1.0,0.1806752191648957,1.0,1.0
40.01100158691406,-22.98985290527344,0.3209655284881592,-0.0,-0.0,-1.0,0.1815765172966929,1.0,1.0
39.758262634277344,-24.082693099975582,0.3096219897270202,-0.0,-0.0,-1.0,0.0896989181165349,1.0,1.0
38.200103759765625,-22.68918228149414,0.6382273435592651,-0.0,-0.0,-1.0,0.2285943763214632,1.0,1.0
38.07664108276367,-22.892250061035156,0.6595386266708374,-0.0,-0.0,-1.0,0.1265676040904502,1.0,1.0
38.03815078735352,-22.69930648803711,0.535606861114502,-0.0,-0.0,-1.0,0.2135402321054333,1.0,1.0
37.91568374633789,-22.886259078979492,0.6075640916824341,-0.0,-0.0,-1.0,0.1364672430464076,2.0,1.0
37.86537551879883,-22.50425720214844,0.3046286702156067,-0.0,-0.0,-1.0,0.1140234457716218,2.0,1.0
38.40635299682617,-23.65016746520996,0.2349414825439453,-0.0,-0.0,-1.0,0.0266629567233851,1.0,1.0
38.89735794067383,-23.271411895751953,0.2268338203430175,-0.0,-0.0,-1.0,0.0856550262007312,2.0,1.0
38.67195892333984,-23.651123046875,0.2225481271743774,-0.0,-0.0,-1.0,0.0472877843794196,1.0,1.0
39.08444595336914,-23.14622688293457,0.2228568792343139,-0.0,-0.0,-1.0,0.1347258573957501,2.0,1.0
39.36686325073242,-23.3609619140625,0.2009104490280151,-0.0,-0.0,-1.0,0.0113877914851294,1.0,1.0
39.6185417175293,-23.466384887695312,0.1845741271972656,-0.0,-0.0,-1.0,0.0229208988641675,1.0,1.0
39.996681213378906,-22.97563362121582,0.1852377653121948,-0.0,-0.0,-1.0,0.0831498797219918,1.0,1.0
37.76289367675781,-22.99947738647461,0.447721004486084,-0.0,-0.0,-1.0,0.1073045628009515,1.0,1.0
37.98609161376953,-24.22380256652832,0.3972607851028442,-0.0,-0.0,-1.0,0.1990998997213562,1.0,1.0
39.6364860534668,-24.234107971191406,0.3389517068862915,0.2210356614564149,0.2372703651462237,-0.9459630067755838,0.2178571605226443,3.0,1.0
39.95861053466797,-23.181779861450195,0.3640016317367553,-0.0,-0.0,-1.0,0.1421821970904674,1.0,1.0
39.72827911376953,-24.227087020874023,0.3358166217803955,-0.0,-0.0,-1.0,0.2470086364892937,1.0,1.0
38.09135437011719,-23.01202964782715,0.2991986870765686,-0.0,-0.0,-1.0,0.1768904837517503,2.0,1.0
38.18183898925781,-23.84585952758789,0.2618905305862427,-0.0,-0.0,-1.0,0.0867125308660327,1.0,1.0
38.40970230102539,-23.35015869140625,0.2803425788879394,-0.0,-0.0,-1.0,0.143748755089272,1.0,1.0
38.599510192871094,-23.939228057861328,0.2521700859069824,-0.0,-0.0,-1.0,0.0284900824104733,1.0,1.0
38.9820671081543,-22.96331787109375,0.2889914512634277,-0.0,-0.0,-1.0,0.1202024097486499,1.0,1.0
39.09928894042969,-23.30644989013672,0.2723473310470581,-0.088556279781538,0.8716815311981114,-0.4820052836633322,0.097648306130631,3.0,1.0
38.81046295166016,-23.774845123291016,0.256303071975708,0.3514886992394514,-0.9234906303267828,-0.153690435634752,0.0435481876206593,3.0,1.0
39.21928787231445,-23.40326499938965,0.2663183212280273,-0.0,-0.0,-1.0,0.0213045950509116,1.0,1.0
39.474910736083984,-23.91851043701172,0.2399613857269287,-0.0,-0.0,-1.0,0.0185531622494532,2.0,1.0
39.30961990356445,-24.12210464477539,0.2337342500686645,-0.0,-0.0,-1.0,0.0477784032016189,1.0,1.0
39.73459243774414,-24.15248107910156,0.2255948781967163,-0.0,-0.0,-1.0,0.1992026795474962,1.0,1.0
40.11015319824219,-23.11766242980957,0.2640943527221679,-0.0,-0.0,-1.0,0.2108613869180327,1.0,1.0
37.786521911621094,-22.86802864074707,0.3092343211174011,-0.0,-0.0,-1.0,0.1440214227263486,1.0,1.0
38.15607833862305,-23.777616500854492,0.2615551948547363,-0.0,-0.0,-1.0,0.0591899780582685,1.0,1.0
38.524627685546875,-23.69144058227539,0.2605636119842529,-0.0,-0.0,-1.0,0.0288350169407672,1.0,1.0
38.68486022949219,-23.704296112060547,0.2577756643295288,-0.0,-0.0,-1.0,0.0468549506377306,1.0,1.0
39.68924331665039,-23.806631088256836,0.2379845380783081,-0.0,-0.0,-1.0,0.0311186901934435,1.0,1.0
39.6891975402832,-23.88372230529785,0.2345277070999145,-0.0,-0.0,-1.0,0.0464152818497022,1.0,1.0
39.85254669189453,-23.924373626708984,0.2300159931182861,-0.0,-0.0,-1.0,0.0503482859046011,1.0,1.0
37.754486083984375,-22.440338134765625,0.326520562171936,-0.0,-0.0,-1.0,0.0896708015625443,1.0,1.0
38.036163330078125,-22.942874908447266,0.3005627393722534,-0.0,-0.0,-1.0,0.1698144164614103,1.0,1.0
38.25468826293945,-23.3692569732666,0.2786333560943603,-0.0,-0.0,-1.0,0.1244981234920875,1.0,1.0
38.37187194824219,-23.43082046508789,0.2743290662765503,-0.0,-0.0,-1.0,0.1077558458155525,1.0,1.0
39.27083587646485,-22.27764892578125,0.3133409023284912,-0.0,-0.0,-1.0,0.1657891716548319,2.0,1.0
39.00056838989258,-23.159225463867188,0.2777589559555053,-0.0,-0.0,-1.0,0.1372912465981035,2.0,1.0
38.80692672729492,-23.53093147277832,0.2638493776321411,-0.0,-0.0,-1.0,0.0403500424195951,1.0,1.0
39.15773391723633,-23.237695693969727,0.2718919515609741,-0.0,-0.0,-1.0,0.0949460898468737,1.0,1.0
39.363956451416016,-23.49725341796875,0.25706946849823,-0.0,-0.0,-1.0,0.0032521615804938,2.0,1.0
39.90629959106445,-23.220569610595703,0.2607388496398926,-0.0,-0.0,-1.0,0.1121147813986509,1.0,1.0
39.44538879394531,-23.60177421569824,0.2510983943939209,-0.0,-0.0,-1.0,0.0058849718285222,1.0,1.0
40.01930236816406,-23.10578155517578,0.2639791965484619,-0.8687105864338154,0.4860548465702899,0.0953551421966793,0.2219845463504662,4.0,1.0
40.13995361328125,-23.17009735107422,0.2590160369873047,-0.0,-0.0,-1.0,0.1253136248953724,1.0,1.0
37.99674224853515,-22.431272506713867,0.2828786373138428,-0.0,-0.0,-1.0,0.0495818207776118,1.0,1.0
38.95378112792969,-22.98849105834961,0.2349977493286132,-0.0,-0.0,-1.0,0.1484176700798993,1.0,1.0
38.47511672973633,-23.343263626098633,0.2266334295272827,-0.0,-0.0,-1.0,0.13014756195657,1.0,1.0
39.24472427368164,-23.15066146850586,0.220360517501831,-0.0,-0.0,-1.0,0.070142327973639,1.0,1.0
39.01075744628906,-23.154157638549805,0.2252562046051025,-0.0,-0.0,-1.0,0.1329415722327219,2.0,1.0
38.73041534423828,-23.432781219482425,0.216831088066101,-0.0,-0.0,-1.0,0.0413860407950224,1.0,1.0
39.98470306396485,-23.082185745239254,0.2068684101104736,-0.0,-0.0,-1.0,0.1681254575242347,1.0,1.0
39.55582046508789,-23.446317672729492,0.1982234716415405,-0.0,-0.0,-1.0,0.0223140176625177,1.0,1.0
38.69093322753906,-21.961204528808594,0.2352943420410156,-0.0,-0.0,-1.0,0.0241724274746977,2.0,1.0
38.45602798461914,-21.945404052734375,0.237705111503601,-0.0,-0.0,-1.0,0.0199621889203084,1.0,1.0
38.78399658203125,-22.347148895263672,0.2135012149810791,-0.0,-0.0,-1.0,0.0292429371769591,1.0,1.0
38.585906982421875,-22.41206741333008,0.2112941741943359,-0.0,-0.0,-1.0,0.0292921346860445,1.0,1.0
39.2795524597168,-22.30482482910156,0.211968183517456,0.3191400048704641,-0.1332011954313991,-0.9383001112793958,0.168108162845994,3.0,1.0
39.178916931152344,-22.27518081665039,0.2144263982772827,-0.0,-0.0,-1.0,0.1495085189730333,1.0,1.0
38.877140045166016,-22.69681167602539,0.193682312965393,-0.0,-0.0,-1.0,0.0312813957308583,1.0,1.0
39.05414962768555,-22.80313491821289,0.1865338087081909,-0.0,-0.0,-1.0,0.0923541753961379,1.0,1.0
37.78311538696289,-22.992576599121097,0.8777494430541992,-0.0,-0.0,-1.0,0.0850778972248826,2.0,1.0
38.93997573852539,-22.34930419921875,0.4730451107025146,-0.0,-0.0,-1.0,0.1129079182415941,1.0,1.0
37.944358825683594,-22.76612091064453,0.4515683650970459,-0.0,-0.0,-1.0,0.2032499818347855,2.0,1.0
37.83522033691406,-22.9393310546875,0.5515213012695312,0.4366225287086909,-0.8948050628585944,0.0931915602758915,0.136467297526895,3.0,1.0
37.90156936645508,-22.883556365966797,0.476865291595459,-0.7171652536619999,-0.0547051502104969,-0.6947527225426083,0.1624931779577436,4.0,1.0
38.227813720703125,-24.191436767578125,0.4248653650283813,-0.0,-0.0,-1.0,0.1891704187759267,1.0,1.0
39.69147872924805,-24.192121505737305,0.3219542503356933,0.3033027291929281,-0.7661853049441809,-0.5665399658909457,0.2440231896888737,3.0,1.0
38.033592224121094,-24.099842071533203,0.2929065227508545,-0.0,-0.0,-1.0,0.1623884451804537,1.0,1.0
38.194541931152344,-23.96090316772461,0.2838681936264038,-0.0,-0.0,-1.0,0.1046547307449137,1.0,1.0
38.47724914550781,-23.499183654785156,0.2736480236053467,-0.0,-0.0,-1.0,0.0504830444689409,1.0,1.0
38.84192657470703,-23.75965881347656,0.237009048461914,-0.0,-0.0,-1.0,0.0454378189121168,2.0,1.0
39.07375717163086,-23.143333435058594,0.234296441078186,-0.0,-0.0,-1.0,0.1311117115317689,2.0,1.0
38.989768981933594,-23.309337615966797,0.2368605136871338,-0.0,-0.0,-1.0,0.1007066358250573,1.0,1.0
39.61300277709961,-23.404155731201172,0.1829535961151123,-0.0,-0.0,-1.0,0.0266934272508525,1.0,1.0
37.835426330566406,-22.88672637939453,0.3421822786331177,-0.0,-0.0,-1.0,0.1300342684336831,2.0,1.0
37.943607330322266,-23.268238067626953,0.323053240776062,-0.0,-0.0,-1.0,0.1279086425916462,1.0,1.0
37.97001266479492,-22.87036895751953,0.3317446708679199,-0.0,-0.0,-1.0,0.1754417238054315,1.0,1.0
38.690521240234375,-24.33004570007324,0.2749127149581909,-0.0,-0.0,-1.0,0.064613435709569,1.0,1.0
40.07070541381836,-23.839292526245117,0.2062681913375854,-0.0,-0.0,-1.0,0.0318958236196127,2.0,1.0
37.918907165527344,-22.881567001342773,0.3822623491287231,0.0027442566775596,0.5159049244800532,-0.8566414523898073,0.2159920928235849,4.0,1.0
38.20330429077149,-24.214202880859375,0.3099855184555053,-0.0,-0.0,-1.0,0.1582140023389308,1.0,1.0
38.34397888183594,-23.946638107299805,0.3122364282608032,-0.0,-0.0,-1.0,0.0568988976695881,2.0,1.0
38.275909423828125,-23.986347198486328,0.3148552179336548,-0.0,-0.0,-1.0,0.1103089880506013,1.0,1.0
38.97259140014648,-23.747987747192383,0.2806463241577148,-0.0,-0.0,-1.0,0.0396879710465032,1.0,1.0
39.019283294677734,-22.994516372680664,0.3076111078262329,-0.0,-0.0,-1.0,0.1419126069841806,1.0,1.0
39.093387603759766,-23.296796798706055,0.2908886671066284,-0.088556279781538,0.8716815311981114,-0.4820052836633322,0.1060029469538482,3.0,1.0
37.851341247558594,-22.965797424316406,0.3516850471496582,-0.0,-0.0,-1.0,0.2116754795846152,2.0,1.0
37.76527786254883,-23.02340507507324,0.3551690578460693,-0.0,-0.0,-1.0,0.1574147677926143,1.0,1.0
38.00821304321289,-24.16960906982422,0.2901629209518432,-0.0,-0.0,-1.0,0.1717660720378824,1.0,1.0
37.96514892578125,-24.241069793701172,0.2900177240371704,-0.0,-0.0,-1.0,0.158832494999534,1.0,1.0
38.15046691894531,-22.801504135131836,0.338386058807373,-0.0,-0.0,-1.0,0.1582760993225713,1.0,1.0
38.46007537841797,-23.111440658569336,0.3041362762451172,-0.0,-0.0,-1.0,0.1149445726602018,1.0,1.0
38.31886672973633,-23.43669891357422,0.2998781204223633,-0.0,-0.0,-1.0,0.1128390909482622,1.0,1.0
38.20176696777344,-24.053363800048828,0.281984806060791,-0.0,-0.0,-1.0,0.1203324331384082,1.0,1.0
38.541622161865234,-24.28350067138672,0.2491284608840942,-0.0,-0.0,-1.0,0.0563065023665259,1.0,1.0
39.07523727416992,-23.31970977783203,0.2527863979339599,-0.088556279781538,0.8716815311981114,-0.4820052836633322,0.097648306130631,3.0,1.0
38.98265075683594,-23.64317512512207,0.2459437847137451,-0.0,-0.0,-1.0,0.0326778829814604,1.0,1.0
39.52701187133789,-22.233030319213867,0.2641623020172119,-0.0,-0.0,-1.0,0.1363640357084777,1.0,1.0
39.9682502746582,-23.280820846557617,0.1911766529083252,-0.0,-0.0,-1.0,0.1577735296488915,1.0,1.0
40.12156677246094,-22.827407836914062,0.198012113571167,-0.0,-0.0,-1.0,0.0444020131045617,1.0,1.0
37.87781524658203,-22.57292938232422,0.4690186977386474,-0.0,-0.0,-1.0,0.1015265342747883,1.0,1.0
38.14316940307617,-22.691974639892575,0.4475346803665161,-0.0,-0.0,-1.0,0.1145028636293332,1.0,1.0
40.074249267578125,-23.91874313354492,0.274983286857605,-0.0,-0.0,-1.0,0.0973500248503761,1.0,1.0
39.90707778930664,-24.01478385925293,0.2815625667572021,-0.0,-0.0,-1.0,0.1856430772046675,2.0,1.0
38.912391662597656,-23.958890914916992,0.3157591819763183,-0.0,-0.0,-1.0,0.0277460130034344,1.0,1.0
39.1578254699707,-23.160377502441406,0.279386043548584,-0.0,-0.0,-1.0,0.1222774156247901,1.0,1.0
39.342567443847656,-23.681859970092773,0.2539191246032715,-0.0,-0.0,-1.0,0.0052179808383671,1.0,1.0
39.30553436279297,-24.199615478515625,0.2593495845794678,-0.0,-0.0,-1.0,0.0446848048345859,1.0,1.0
39.48048400878906,-23.880298614501953,0.2343068122863769,-0.0,-0.0,-1.0,0.0181696761793813,2.0,1.0
39.75042343139648,-22.287044525146484,0.1883845329284668,-0.0,-0.0,-1.0,0.0302835053494186,1.0,1.0
39.83274841308594,-22.79238510131836,0.179758071899414,-0.0,-0.0,-1.0,0.0147726218691744,1.0,1.0
39.80122375488281,-23.27190399169922,0.1866509914398193,-0.4023199249916092,0.7908109991476133,-0.4612555057469769,0.0850308285074597,4.0,1.0
39.970916748046875,-22.120460510253903,0.1547112464904785,-0.0,-0.0,-1.0,0.006519116771606,1.0,1.0
39.975929260253906,-22.393383026123047,0.1561865806579589,-0.0,-0.0,-1.0,0.0074835794368906,1.0,1.0
37.90764617919922,-22.83795166015625,0.4590663909912109,-0.0,-0.0,-1.0,0.1953585686943193,2.0,1.0
38.08186340332031,-22.8647518157959,0.4340002536773681,-0.0,-0.0,-1.0,0.1750150621295608,2.0,1.0
38.389549255371094,-23.18582344055176,0.3903346061706543,-0.0,-0.0,-1.0,0.1237249988606998,1.0,1.0
38.80565643310547,-23.765567779541016,0.3310725688934326,0.4982047274311237,-0.737369544338803,-0.45615589949804,0.0435481876206593,3.0,1.0
39.02967834472656,-22.772327423095703,0.2964367866516113,-0.0,-0.0,-1.0,0.086933446589517,1.0,1.0
39.05693817138672,-22.919153213500977,0.2931089401245117,-0.0,-0.0,-1.0,0.1339479597918802,1.0,1.0
39.360076904296875,-22.225566864013672,0.2449891567230224,-0.0,-0.0,-1.0,0.186968814658843,1.0,1.0
39.287635803222656,-24.275251388549805,0.2753527164459228,-0.0,-0.0,-1.0,0.0462815583954414,1.0,1.0
37.964359283447266,-22.786741256713867,0.4335598945617676,-0.0,-0.0,-1.0,0.2222596873517533,2.0,1.0
37.916114807128906,-22.91997337341309,0.4449834823608398,-0.0,-0.0,-1.0,0.1387318040402358,2.0,1.0
38.08440017700195,-22.76982688903809,0.4146990776062011,-0.0,-0.0,-1.0,0.2389015863048476,1.0,1.0
38.06772994995117,-22.884912490844727,0.4207978248596191,-0.0,-0.0,-1.0,0.2068908994501981,2.0,1.0
38.42903900146485,-23.214750289916992,0.3756728172302246,-0.0,-0.0,-1.0,0.152286079931993,1.0,1.0
38.83620834350586,-23.743709564208984,0.3291072845458984,-0.0,-0.0,-1.0,0.0434080125043082,2.0,1.0
39.01618194580078,-23.647937774658203,0.2990565299987793,-0.0,-0.0,-1.0,0.0225758572565005,2.0,1.0
39.14148712158203,-23.836673736572266,0.2853999137878418,-0.0,-0.0,-1.0,0.0105978552379306,1.0,1.0
39.230262756347656,-22.999826431274418,0.2466681003570556,-0.0,-0.0,-1.0,0.0856772320893884,1.0,1.0
39.263763427734375,-22.132320404052734,0.2120532989501953,-0.0,-0.0,-1.0,0.10961351900006,1.0,1.0
39.33467102050781,-22.41741943359375,0.2111904621124267,-0.0,-0.0,-1.0,0.2180597725604824,1.0,1.0
39.44325256347656,-22.728992462158203,0.2051162719726562,-0.0,-0.0,-1.0,0.0309455400303108,1.0,1.0
39.475833892822266,-22.035512924194336,0.1757614612579345,-0.0,-0.0,-1.0,0.0947009477463516,1.0,1.0
38.13776397705078,-24.1532039642334,0.5126378536224365,-0.0,-0.0,-1.0,0.131796793587702,1.0,1.0
38.242557525634766,-24.068531036376953,0.4953117370605469,-0.0,-0.0,-1.0,0.1298661859626736,2.0,1.0
38.08819580078125,-22.814308166503903,0.4854340553283691,-0.0,-0.0,-1.0,0.1945766691912394,1.0,1.0
39.85465240478515,-24.267894744873047,0.2609841823577881,-0.0,-0.0,-1.0,0.174527827151667,1.0,1.0
39.10767364501953,-22.873619079589844,0.3331749439239502,-0.0,-0.0,-1.0,0.1104023413713296,1.0,1.0
39.19331359863281,-23.032514572143555,0.3252532482147217,-0.0,-0.0,-1.0,0.1465862655746916,1.0,1.0
39.80473327636719,-23.797374725341797,0.2558586597442627,-0.0,-0.0,-1.0,0.0306372927708111,2.0,1.0
39.90565490722656,-23.917720794677734,0.2440176010131836,-0.0,-0.0,-1.0,0.0572356436708067,1.0,1.0
40.01045227050781,-23.12540054321289,0.204463243484497,-0.0,-0.0,-1.0,0.1824565411425266,2.0,1.0
40.07844543457031,-23.420331954956055,0.2035284042358398,-0.0,-0.0,-1.0,0.1055859787873083,1.0,1.0
40.119293212890625,-23.640905380249023,0.2040529251098632,-0.0,-0.0,-1.0,0.0473096965641951,1.0,1.0
39.68479919433594,-22.295490264892575,0.225236177444458,-0.0,-0.0,-1.0,0.0380368175460888,1.0,1.0
39.93207550048828,-22.611047744750977,0.1988425254821777,-0.0,-0.0,-1.0,0.0092247016992831,2.0,1.0
39.99092102050781,-22.862701416015625,0.1986148357391357,-0.6664968064712107,0.7274231328224358,-0.1632102717308873,0.0533282837539328,3.0,1.0
40.00160598754883,-22.06682014465332,0.1679084300994873,-0.0,-0.0,-1.0,0.0062815236591733,1.0,1.0
40.00037384033203,-22.27551651000977,0.1760845184326172,-0.0,-0.0,-1.0,0.007718608142077,2.0,1.0
37.98646926879883,-22.71625709533691,0.4978086948394775,-0.0,-0.0,-1.0,0.1977360886629664,1.0,1.0
37.95560836791992,-22.888267517089844,0.5076017379760742,-0.6387065255381038,-0.7627788085144291,0.1011061991984253,0.1890989323528759,4.0,1.0
37.777549743652344,-22.916614532470703,0.2263553142547607,-0.0,-0.0,-1.0,0.2176898337914174,2.0,1.0
37.769771575927734,-22.824359893798828,0.2262635231018066,-0.0,-0.0,-1.0,0.1582548316460121,1.0,1.0
40.11953353881836,-23.113014221191406,0.4677619934082031,-0.0,-0.0,-1.0,0.1067521689715747,1.0,1.0
37.853126525878906,-22.96323013305664,0.7779214382171631,-0.0,-0.0,-1.0,0.0850778972248826,1.0,1.0
38.13785552978515,-22.719074249267575,0.7315905094146729,-0.0,-0.0,-1.0,0.1333992643942255,2.0,1.0
37.846649169921875,-23.523862838745117,0.3855061531066894,-0.0,-0.0,-1.0,0.0427684696994374,1.0,1.0
38.37201690673828,-23.935012817382812,0.3032469749450683,-0.0,-0.0,-1.0,0.0410403824678514,2.0,1.0
38.67095947265625,-23.84070587158203,0.2552118301391601,-0.0,-0.0,-1.0,0.0286555491955678,2.0,1.0
38.33838653564453,-23.25164794921875,0.3048090934753418,-0.0,-0.0,-1.0,0.1858295226312982,2.0,1.0
38.5589599609375,-23.279727935791016,0.2694272994995117,-0.0,-0.0,-1.0,0.116683574211612,1.0,1.0
38.747314453125,-23.662267684936523,0.2420051097869873,-0.0,-0.0,-1.0,0.0475407780314925,1.0,1.0
37.93557357788086,-22.88521385192871,0.3665378093719482,-0.0,-0.0,-1.0,0.2090730724936199,2.0,1.0
38.95744705200195,-23.065052032470703,0.2025163173675537,-0.0,-0.0,-1.0,0.1368309451964868,1.0,1.0
37.866241455078125,-22.37022399902344,0.3714509010314941,-0.0,-0.0,-1.0,0.0728060571089498,1.0,1.0
38.54966354370117,-22.46744155883789,0.2608485221862793,-0.0,-0.0,-1.0,0.0371336214559947,1.0,1.0
38.98562240600586,-22.892581939697266,0.1957051753997802,-0.0,-0.0,-1.0,0.0849428547136321,1.0,1.0
38.78984832763672,-22.284664154052734,0.2181110382080078,-0.0,-0.0,-1.0,0.0289020527193378,1.0,1.0
38.10765075683594,-23.403949737548828,0.2081713676452636,-0.0,-0.0,-1.0,0.0664698407056228,1.0,1.0
37.8011360168457,-22.896095275878903,0.2647411823272705,-0.0,-0.0,-1.0,0.2176898337914174,2.0,1.0
37.852203369140625,-22.954492568969727,0.2556095123291015,-0.0,-0.0,-1.0,0.2107101922144793,1.0,1.0
40.13423156738281,-23.207738876342773,0.451106309890747,-0.0,-0.0,-1.0,0.1091335627315514,2.0,1.0
37.71019744873047,-22.098276138305664,0.2816176414489746,-0.0,-0.0,-1.0,0.0549639429963862,1.0,1.0
38.448184967041016,-24.360307693481445,0.6974462270736694,-0.0,-0.0,-1.0,0.0993728802579241,2.0,1.0
39.37310791015625,-22.267148971557617,0.5467102527618408,0.5094795099635815,0.5672050887809702,-0.6470772876467235,0.0622500979067264,3.0,1.0
39.1347541809082,-24.25174903869629,0.2644641399383545,-0.0,-0.0,-1.0,0.0545534431156932,2.0,1.0
39.23301696777344,-23.97041702270508,0.2549226284027099,-0.0,-0.0,-1.0,0.0059062078176352,1.0,1.0
39.348655700683594,-23.911911010742188,0.2372224330902099,-0.0,-0.0,-1.0,0.0061277060665654,1.0,1.0
39.680809020996094,-23.334915161132812,0.1923067569732666,-0.0,-0.0,-1.0,0.033458002701762,1.0,1.0
39.760841369628906,-23.282001495361328,0.1796808242797851,-0.2040042127603675,0.9572905815467212,-0.2048829511159075,0.037549325631074,3.0,1.0
39.69141387939453,-23.022850036621097,0.1945009231567382,-0.0,-0.0,-1.0,0.0179988175250521,1.0,1.0
39.78692626953125,-23.061206817626953,0.1780562400817871,-0.0,-0.0,-1.0,0.0432932960925893,1.0,1.0
39.88887023925781,-22.636865615844727,0.1647601127624511,-0.0,-0.0,-1.0,0.0066147652953354,1.0,1.0
39.92771911621094,-22.324174880981445,0.1599495410919189,-0.0,-0.0,-1.0,0.0087438530860426,1.0,1.0
40.17112731933594,-21.90155982971191,0.1189446449279785,-0.0,-0.0,-1.0,0.0059568504956122,1.0,1.0
38.09868240356445,-24.234975814819336,0.4316012859344482,0.6825540008906825,-0.6734813960182144,-0.2838007136803556,0.2230388774810162,3.0,1.0
38.857635498046875,-23.95528030395508,0.3164763450622558,-0.0,-0.0,-1.0,0.0333658855116168,1.0,1.0
38.78050994873047,-23.83003807067871,0.3318612575531006,-0.7122047893030613,-0.350127886688089,-0.6084199216471424,0.0435481876206593,3.0,1.0
39.0667724609375,-23.717601776123047,0.2873959541320801,-0.0,-0.0,-1.0,0.0211217436266366,1.0,1.0
37.93220901489258,-23.27864646911621,0.4823675155639648,-0.0,-0.0,-1.0,0.1403218181644655,1.0,1.0
38.292518615722656,-23.21072006225586,0.4245436191558838,-0.0,-0.0,-1.0,0.1371598386088436,1.0,1.0
38.60174560546875,-23.438735961914062,0.3692958354949951,-0.0,-0.0,-1.0,0.0664939259432262,1.0,1.0
39.1588249206543,-23.304641723632812,0.2795648574829101,-0.0,-0.0,-1.0,0.0700784424592157,1.0,1.0
37.96210861206055,-22.860855102539062,0.4853298664093017,-0.6428393851013757,-0.3854072106709258,-0.6619809717245214,0.1943378500639653,3.0,1.0
39.006046295166016,-22.90557861328125,0.3108723163604736,-0.0,-0.0,-1.0,0.1071872994291251,2.0,1.0
39.65936279296875,-22.78297233581543,0.2024140357971191,-0.651809328767829,0.5570109477115271,-0.5146682456308521,0.010259277096383,3.0,1.0
39.90966033935547,-22.095083236694336,0.1637935638427734,-0.0,-0.0,-1.0,0.0085448109221865,1.0,1.0
38.16146469116211,-23.91595458984375,0.2880253791809082,-0.0,-0.0,-1.0,0.1017398884028213,2.0,1.0
38.27521514892578,-23.767932891845703,0.2714109420776367,-0.0,-0.0,-1.0,0.0451033639157761,1.0,1.0
38.444034576416016,-23.605464935302734,0.2442457675933838,-0.0,-0.0,-1.0,0.0348219601635619,1.0,1.0
37.96110916137695,-23.095703125,0.3491504192352295,-0.0,-0.0,-1.0,0.257517889031322,1.0,1.0
38.3691520690918,-23.3052921295166,0.2662599086761474,-0.0,-0.0,-1.0,0.169869612869422,1.0,1.0
38.72653579711914,-23.152250289916992,0.2011499404907226,-0.0,-0.0,-1.0,0.0575272571182279,1.0,1.0
37.87302017211914,-22.88182258605957,0.3709912300109863,-0.0517958119170472,-0.9711221960606776,0.232892409035033,0.1795460530561902,3.0,1.0
38.77833557128906,-22.971834182739254,0.1945233345031738,-0.0,-0.0,-1.0,0.0583596735114983,1.0,1.0
38.641109466552734,-22.459209442138672,0.2290589809417724,-0.0,-0.0,-1.0,0.0293468177737289,1.0,1.0
38.697715759277344,-22.21375274658203,0.2205417156219482,-0.0,-0.0,-1.0,0.0252497353451384,1.0,1.0
39.02008819580078,-22.12556266784668,0.1572051048278808,-0.0,-0.0,-1.0,0.0720330914393122,2.0,1.0
38.04873275756836,-24.220401763916016,0.7740918397903442,-0.0,-0.0,-1.0,0.1256922474417584,1.0,1.0
38.433799743652344,-24.343568801879883,0.71290123462677,-0.0,-0.0,-1.0,0.0993728802579241,2.0,1.0
38.20392990112305,-23.993324279785156,0.7541533708572388,-0.0,-0.0,-1.0,0.2189633152085258,1.0,1.0
39.92763900756836,-24.10198974609375,0.4829370975494385,-0.0,-0.0,-1.0,0.2168118272975396,2.0,1.0
40.10103225708008,-23.16686630249023,0.4589037895202636,-0.0,-0.0,-1.0,0.1155910169943994,1.0,1.0
39.37473678588867,-22.236553192138672,0.5748119354248047,0.5094795099635815,0.5672050887809702,-0.6470772876467235,0.0622500979067264,3.0,1.0
37.805423736572266,-22.964731216430664,0.8289229869842529,-0.0,-0.0,-1.0,0.0850778972248826,1.0,1.0
39.607948303222656,-24.212902069091797,0.2317192554473877,-0.0,-0.0,-1.0,0.1702572372952134,1.0,1.0
39.77507400512695,-23.778343200683594,0.2114696502685547,-0.0,-0.0,-1.0,0.0179934529899625,2.0,1.0
39.06918716430664,-23.157499313354492,0.3599700927734375,-0.0,-0.0,-1.0,0.1366416164600453,1.0,1.0
39.894100189208984,-23.317691802978516,0.1979281902313232,-0.0,-0.0,-1.0,0.1205099978945264,1.0,1.0
39.91172790527344,-23.638181686401367,0.1884984970092773,-0.0,-0.0,-1.0,0.0158971100139853,1.0,1.0
37.720096588134766,-22.80642318725586,0.2165322303771972,-0.0,-0.0,-1.0,0.1337101560197365,1.0,1.0
39.06654357910156,-23.059600830078125,0.3623690605163574,-0.0,-0.0,-1.0,0.1625622363769144,2.0,1.0
39.91294479370117,-23.044397354125977,0.1983914375305175,-0.0,-0.0,-1.0,0.0667104028964888,2.0,1.0
39.97832489013672,-22.79457092285156,0.1886427402496338,-0.0,-0.0,-1.0,0.0394876047896896,1.0,1.0
40.08934020996094,-22.62378692626953,0.1682145595550537,-0.0,-0.0,-1.0,0.0085451362733769,2.0,1.0
37.7685661315918,-21.890886306762695,0.2360508441925048,-0.0,-0.0,-1.0,0.0369929200428236,1.0,1.0
39.33529281616211,-22.274856567382812,0.3200941085815429,-0.0,-0.0,-1.0,0.1343618677605061,1.0,1.0
38.058128356933594,-24.234207153320312,0.5164744853973389,-0.0,-0.0,-1.0,0.1431693151365363,1.0,1.0
38.153541564941406,-24.091819763183594,0.5046446323394775,-0.0,-0.0,-1.0,0.2277706601008089,1.0,1.0
37.85777282714844,-22.965791702270508,0.5952527523040771,-0.0920965910524147,-0.6045679772383382,-0.791211589155814,0.1317629371291876,4.0,1.0
38.01117706298828,-22.89006233215332,0.5680413246154785,-0.5207702124178174,-0.8405096123379695,0.1494723299670461,0.1366879452116789,3.0,1.0
39.343658447265625,-22.15889358520508,0.7667152881622314,-0.0,-0.0,-1.0,0.061304481963614,1.0,1.0
38.0758056640625,-24.16278839111328,0.2901933193206787,-0.0,-0.0,-1.0,0.1461077971667028,1.0,1.0
38.13387298583984,-23.946231842041016,0.2919535636901855,-0.0,-0.0,-1.0,0.10435627660221,2.0,1.0
38.30674362182617,-23.81777572631836,0.2630374431610107,-0.0,-0.0,-1.0,0.0381115079481385,1.0,1.0
39.80474090576172,-24.145795822143555,0.3793332576751709,0.5010951261350934,0.5490855885781782,-0.6688861569650028,0.1393294430920875,4.0,1.0
40.01063537597656,-24.219314575195312,0.3380951881408691,-0.0,-0.0,-1.0,0.1881120725844417,1.0,1.0
38.500125885009766,-23.559480667114254,0.2358400821685791,-0.0,-0.0,-1.0,0.0416405520235085,1.0,1.0
38.31597137451172,-23.220361709594727,0.2940731048583984,-0.0,-0.0,-1.0,0.1597592464620623,2.0,1.0
38.64757537841797,-23.3311824798584,0.2153842449188232,-0.0,-0.0,-1.0,0.0823307751362056,1.0,1.0
38.80937194824219,-23.10927391052246,0.18973970413208,-0.0,-0.0,-1.0,0.0968086889039797,1.0,1.0
40.038230895996094,-23.250308990478516,0.3585069179534912,-0.0,-0.0,-1.0,0.1165080490480521,2.0,1.0
38.019405364990234,-22.82715606689453,0.3789393901824951,-0.0,-0.0,-1.0,0.2302658108873794,1.0,1.0
38.967979431152344,-22.82018661499023,0.1659018993377685,-0.0,-0.0,-1.0,0.0726921810924245,1.0,1.0
40.12488555908203,-23.062061309814453,0.3451461791992187,-0.0,-0.0,-1.0,0.128122750804213,1.0,1.0
39.0118408203125,-22.37188720703125,0.171365737915039,-0.0,-0.0,-1.0,0.0573063932244752,1.0,1.0
38.73177337646485,-21.944805145263672,0.2485733032226562,-0.0,-0.0,-1.0,0.028754172809986,2.0,1.0
39.1661262512207,-22.020782470703125,0.1449723243713379,-0.0,-0.0,-1.0,0.0613504495431233,1.0,1.0
39.17631912231445,-24.302997589111328,0.4909064769744873,-0.0,-0.0,-1.0,0.053218293473852,2.0,1.0
37.87018966674805,-22.954618453979492,0.5943551063537598,0.60447243535948,-0.7020037719486497,-0.3765684254693262,0.1305450217524576,3.0,1.0
37.933597564697266,-22.83948135375977,0.3973894119262695,-0.8438008429434235,0.1054004679120621,0.5262042177823039,0.2018448895238031,3.0,1.0
39.37870788574219,-22.23219871520996,0.5053255558013916,-0.0,-0.0,-1.0,0.0679571916094232,1.0,1.0
38.21513366699219,-24.231224060058594,0.4548783302307129,-0.0,-0.0,-1.0,0.164028041679454,1.0,1.0
39.121055603027344,-24.144128799438477,0.2669506072998047,-0.0,-0.0,-1.0,0.0564456206127695,2.0,1.0
39.354736328125,-24.081783294677734,0.2194509506225586,-0.0,-0.0,-1.0,0.0183631827479804,1.0,1.0
37.902286529541016,-23.467121124267575,0.2118852138519287,-0.0,-0.0,-1.0,0.0448175902265264,1.0,1.0
39.376834869384766,-23.632347106933594,0.2386682033538818,-0.0,-0.0,-1.0,0.005086591198007,1.0,1.0
37.91549301147461,-23.05963897705078,0.2413136959075927,-0.0,-0.0,-1.0,0.209662896088013,1.0,1.0
39.11476135253906,-23.041776657104492,0.325836181640625,-0.0,-0.0,-1.0,0.1686493606400982,1.0,1.0
39.519439697265625,-23.376220703125,0.21854829788208,-0.0,-0.0,-1.0,0.021629577723315,1.0,1.0
39.78383255004883,-23.28080177307129,0.1623938083648681,-0.2040042127603675,0.9572905815467212,-0.2048829511159075,0.0554190493963307,3.0,1.0
37.90913009643555,-22.671566009521484,0.2710914611816406,-0.0,-0.0,-1.0,0.1117798970420328,1.0,1.0
39.74011993408203,-22.935657501220703,0.185784101486206,-0.0,-0.0,-1.0,0.0225859073887975,1.0,1.0
39.848838806152344,-22.917940139770508,0.1609606742858886,-0.0,-0.0,-1.0,0.0366144824940588,1.0,1.0
38.018096923828125,-22.351882934570312,0.2635078430175781,-0.0,-0.0,-1.0,0.0379838303557109,1.0,1.0
38.31658935546875,-22.226482391357425,0.1922497749328613,-0.0,-0.0,-1.0,0.0144495256243909,1.0,1.0
39.400672912597656,-22.287818908691406,0.2863821983337402,-0.0,-0.0,-1.0,0.1337040586572115,1.0,1.0
39.834754943847656,-22.460582733154297,0.1787075996398925,-0.0,-0.0,-1.0,0.0057154378914479,1.0,1.0
39.953155517578125,-22.540666580200195,0.1482698917388916,-0.0,-0.0,-1.0,0.0080878206409975,1.0,1.0
38.39094924926758,-22.024856567382812,0.1826629638671875,-0.0,-0.0,-1.0,0.0085401514213031,1.0,1.0
40.05644989013672,-22.143882751464844,0.1330718994140625,-0.0,-0.0,-1.0,0.0064426651790409,1.0,1.0
38.110206604003906,-24.190942764282227,0.4797604084014892,-0.0,-0.0,-1.0,0.1391113881217562,1.0,1.0
38.214202880859375,-24.09183883666992,0.4648516178131103,-0.0,-0.0,-1.0,0.176957047647354,2.0,1.0
39.97277069091797,-24.08765983581543,0.5129108428955078,-0.0,-0.0,-1.0,0.1885784865016457,1.0,1.0
37.855560302734375,-22.97665786743164,0.6119580268859863,0.60447243535948,-0.7020037719486497,-0.3765684254693262,0.128769077930324,3.0,1.0
38.38539505004883,-23.21152687072754,0.4818859100341797,-0.0,-0.0,-1.0,0.1258608936091024,2.0,1.0
38.07988739013672,-22.823888778686523,0.5702495574951172,-0.0,-0.0,-1.0,0.1547593792124977,1.0,1.0
40.162506103515625,-22.897844314575195,0.5045754909515381,-0.0,-0.0,-1.0,0.0733624474654998,1.0,1.0
38.21190643310547,-24.275745391845703,0.336808443069458,-0.0,-0.0,-1.0,0.2047235056411922,1.0,1.0
38.64764404296875,-24.02550888061523,0.2574496269226074,-0.0,-0.0,-1.0,0.025652199892204,1.0,1.0
38.746097564697266,-23.870691299438477,0.2471811771392822,-0.0,-0.0,-1.0,0.0371915406977446,1.0,1.0
39.80057907104492,-24.190645217895508,0.3585560321807861,0.963365017870119,0.0338550552551822,-0.2660482617454476,0.2794418260222822,3.0,1.0
38.77360153198242,-23.78746223449707,0.247814655303955,-0.0,-0.0,-1.0,0.0435481876206593,2.0,1.0
38.35724258422851,-23.24090576171875,0.3967945575714111,-0.0,-0.0,-1.0,0.1391004778493943,2.0,1.0
38.61847305297851,-23.37803840637207,0.3207192420959472,-0.0,-0.0,-1.0,0.1016785866976582,1.0,1.0
39.012916564941406,-23.176424026489254,0.2370510101318359,-0.957700507463278,-0.2016267974619922,-0.2053201708303423,0.1325865795141837,3.0,1.0
39.982234954833984,-23.282474517822266,0.365668773651123,-0.0,-0.0,-1.0,0.1178620115616302,2.0,1.0
40.0450325012207,-23.191356658935547,0.3552145957946777,-0.0,-0.0,-1.0,0.1208205724097016,2.0,1.0
39.1311149597168,-23.01801300048828,0.2179615497589111,-0.0,-0.0,-1.0,0.1484425587709911,1.0,1.0
39.35832977294922,-22.84539031982422,0.1700668334960937,-0.0,-0.0,-1.0,0.0248720602379687,1.0,1.0
40.06956100463867,-23.121578216552734,0.352475643157959,-0.0,-0.0,-1.0,0.1518633848531434,2.0,1.0
39.28377532958984,-22.342002868652344,0.2186822891235351,-0.0,-0.0,-1.0,0.2054723067605804,2.0,1.0
39.413780212402344,-22.598970413208008,0.1700677871704101,-0.0,-0.0,-1.0,0.0448409552945799,1.0,1.0
39.30369567871094,-22.279401779174805,0.2165708541870117,-0.0,-0.0,-1.0,0.1771442168463735,2.0,1.0
39.66043472290039,-22.163188934326172,0.1252951622009277,-0.0,-0.0,-1.0,0.011951260980285,1.0,1.0
39.128910064697266,-24.302385330200195,0.4959945678710937,-0.0,-0.0,-1.0,0.0489696555285811,2.0,1.0
38.3077278137207,-24.060970306396484,0.6870462894439697,-0.0,-0.0,-1.0,0.200825225377784,1.0,1.0
37.829444885253906,-23.473920822143555,0.5057191848754883,-0.0,-0.0,-1.0,0.0789828941670288,1.0,1.0
37.81964492797851,-22.9466552734375,0.5541698932647705,0.0642634722599217,-0.8612424667520224,-0.5041146889309912,0.1460312920454881,5.0,1.0
38.07965087890625,-23.08958625793457,0.4780397415161133,-0.0,-0.0,-1.0,0.2480545168466191,1.0,1.0
37.9849853515625,-22.765350341796875,0.5280170440673828,-0.0,-0.0,-1.0,0.2091954522467458,1.0,1.0
38.31203842163086,-22.90038299560547,0.4353952407836914,-0.0,-0.0,-1.0,0.1682027959485975,1.0,1.0
40.02999496459961,-23.058435440063477,0.3641579151153564,-0.0,-0.0,-1.0,0.1453709601110187,2.0,1.0
40.114444732666016,-22.982362747192383,0.3476033210754394,-0.0,-0.0,-1.0,0.1337629578555793,1.0,1.0
39.348915100097656,-22.23751449584961,0.5536384582519531,0.5094795099635815,0.5672050887809702,-0.6470772876467235,0.0622500979067265,3.0,1.0
37.762672424316406,-23.003570556640625,0.8746340274810791,-0.0,-0.0,-1.0,0.0892886260811215,2.0,1.0
39.317230224609375,-22.08546257019043,0.9041645526885986,-0.0,-0.0,-1.0,0.0697063587837901,1.0,1.0
38.83180618286133,-24.29964828491211,0.2747321128845215,-0.0,-0.0,-1.0,0.0515426566473269,1.0,1.0
39.10082244873047,-23.94771194458008,0.2679574489593506,-0.0,-0.0,-1.0,0.0117900931120103,1.0,1.0
39.19285202026367,-23.798377990722656,0.2683882713317871,-0.0,-0.0,-1.0,0.007908521972623,1.0,1.0
39.41013717651367,-23.513561248779297,0.2565853595733642,-0.0,-0.0,-1.0,0.0033498601610905,2.0,1.0
39.66603088378906,-23.43953514099121,0.2051773071289062,-0.0,-0.0,-1.0,0.0254138369560315,1.0,1.0
39.824012756347656,-23.240808486938477,0.1915192604064941,-0.0,-0.0,-1.0,0.0984419046424291,2.0,1.0
40.01994705200195,-22.83804702758789,0.1899659633636474,-0.6664968064712107,0.7274231328224358,-0.1632102717308873,0.0471131459937138,3.0,1.0
40.15909194946289,-22.595319747924805,0.1811051368713379,-0.0,-0.0,-1.0,0.073301043005927,2.0,1.0
39.769981384277344,-24.280012130737305,0.4295508861541748,-0.0,-0.0,-1.0,0.1983795488220251,2.0,1.0
39.09910583496094,-23.782426834106445,0.2923212051391601,-0.0,-0.0,-1.0,0.0155903443000531,1.0,1.0
39.887351989746094,-24.20097923278809,0.4150750637054443,-0.0,-0.0,-1.0,0.243251211796777,1.0,1.0
37.859405517578125,-23.068370819091797,0.6795153617858887,-0.0,-0.0,-1.0,0.0787856986510682,1.0,1.0
38.04177474975586,-22.979642868041992,0.6512041091918945,-0.0,-0.0,-1.0,0.1721480015111886,2.0,1.0
38.16105270385742,-22.819435119628903,0.6463596820831299,-0.0,-0.0,-1.0,0.2130909575348612,1.0,1.0
39.115997314453125,-23.195297241210938,0.3693630695343017,-0.0,-0.0,-1.0,0.106998515563095,1.0,1.0
40.12651824951172,-23.250951766967773,0.4678280353546142,-0.0618358353870041,-0.3505746765460645,-0.9344911586669046,0.1100838109117944,3.0,1.0
40.10517120361328,-23.006065368652344,0.4963459968566894,-0.0,-0.0,-1.0,0.0781052602511621,2.0,1.0
39.39119720458984,-22.396652221679688,0.3986234664916992,-0.0,-0.0,-1.0,0.1924385485128436,2.0,1.0
38.23632049560547,-24.140335083007812,0.7460891008377075,-0.0,-0.0,-1.0,0.1937520988846503,1.0,1.0
39.35541534423828,-22.267200469970703,0.730582594871521,-0.0,-0.0,-1.0,0.0648750937795863,1.0,1.0
40.06269836425781,-23.498268127441406,0.164344310760498,-0.0,-0.0,-1.0,0.0450429520333151,2.0,1.0
38.92933654785156,-24.273210525512695,0.2333941459655761,-0.0,-0.0,-1.0,0.0534347163765647,1.0,1.0
39.2126350402832,-24.138734817504883,0.2090513706207275,-0.0,-0.0,-1.0,0.0529286974768124,1.0,1.0
39.33835983276367,-24.012134552001953,0.2108106613159179,-0.0,-0.0,-1.0,0.0120794834607728,1.0,1.0
39.78166961669922,-24.234224319458008,0.4218204021453857,-0.0,-0.0,-1.0,0.1983795488220251,2.0,1.0
39.6729621887207,-23.72754669189453,0.2011382579803466,-0.0,-0.0,-1.0,0.0075363984973561,1.0,1.0
39.98027420043945,-23.440624237060547,0.1919910907745361,-0.0,-0.0,-1.0,0.0777069405469726,1.0,1.0
40.019432067871094,-23.499662399291992,0.1731724739074707,-0.0,-0.0,-1.0,0.0524873984608043,2.0,1.0
40.07166290283203,-23.182865142822266,0.3834857940673828,-0.0,-0.0,-1.0,0.1208205724097016,2.0,1.0
39.337528228759766,-22.314437866210938,0.5292978286743164,0.2855476747433069,-0.8763332758687646,-0.3879465363343388,0.0665554541978492,3.0,1.0
38.19367218017578,-24.08954620361328,0.7023681402206421,-0.0,-0.0,-1.0,0.2235698824550822,1.0,1.0
37.93683624267578,-22.937667846679688,0.7021002769470215,-0.0,-0.0,-1.0,0.105128974048257,1.0,1.0
38.0721549987793,-22.970111846923828,0.6694731712341309,-0.0,-0.0,-1.0,0.1540995168264833,2.0,1.0
39.302059173583984,-22.17982482910156,0.8424563407897949,-0.0,-0.0,-1.0,0.0613044819636139,1.0,1.0
39.73112487792969,-24.232248306274418,0.4320626258850097,-0.0,-0.0,-1.0,0.1998136460427623,2.0,1.0
39.857513427734375,-24.099903106689453,0.4258103370666504,-0.0,-0.0,-1.0,0.2248653342009838,1.0,1.0
40.089054107666016,-23.00548934936523,0.5233802795410156,-0.0,-0.0,-1.0,0.0781052602511621,2.0,1.0
40.12448501586914,-22.839542388916016,0.5354313850402832,-0.0,-0.0,-1.0,0.0628563855547726,2.0,1.0
39.309295654296875,-22.145498275756836,0.8041765689849854,-0.0,-0.0,-1.0,0.0613044819636139,1.0,1.0
39.73352813720703,-24.22386932373047,0.5217652320861816,-0.0,-0.0,-1.0,0.1363803885947993,2.0,1.0
39.910255432128906,-24.110652923583984,0.4996223449707031,-0.0,-0.0,-1.0,0.2048825695171781,2.0,1.0
40.01385498046875,-23.108646392822266,0.2445967197418213,-0.8887151254085147,0.4570036493471693,-0.0365115098769844,0.2256746884704462,5.0,1.0
39.994285583496094,-23.02601623535156,0.2463490962982177,-0.0,-0.0,-1.0,0.1480634741192245,1.0,1.0
39.98688125610352,-23.22920036315918,0.2513782978057861,-0.0780665656798079,0.9767610788643312,-0.1996081314444575,0.1562927037282224,4.0,1.0
39.256317138671875,-22.251779556274418,0.3526093959808349,-0.0,-0.0,-1.0,0.1151095106391567,2.0,1.0
39.689117431640625,-24.106658935546875,0.3133304119110107,-0.0,-0.0,-1.0,0.1031014026414636,1.0,1.0
39.06464385986328,-24.341665267944336,0.4222171306610107,-0.0,-0.0,-1.0,0.0538109953551274,1.0,1.0
37.770225524902344,-22.988994598388672,0.6245589256286621,-0.0,-0.0,-1.0,0.0929145080026349,1.0,1.0
37.98918914794922,-24.222578048706055,0.6064491271972656,-0.0,-0.0,-1.0,0.1147772074400551,1.0,1.0
40.014991760253906,-23.07888412475586,0.4496440887451172,-0.0,-0.0,-1.0,0.0998854097014219,1.0,1.0
37.76622772216797,-23.000272750854492,0.2510788440704345,-0.0,-0.0,-1.0,0.2189469755836976,1.0,1.0
38.57769775390625,-21.987117767333984,0.1555094718933105,-0.0,-0.0,-1.0,0.0255169060800127,1.0,1.0
38.607086181640625,-22.720844268798828,0.1792175769805908,-0.0,-0.0,-1.0,0.0203735841957456,1.0,1.0
38.25212478637695,-22.24517250061035,0.2254114151000976,-0.0,-0.0,-1.0,0.016358295611064,1.0,1.0
38.065704345703125,-21.932016372680664,0.2453150749206543,-0.0,-0.0,-1.0,0.0136401328982819,1.0,1.0
38.494850158691406,-23.47457504272461,0.2214107513427734,-0.0,-0.0,-1.0,0.052996271450861,1.0,1.0
38.4291877746582,-23.16973304748535,0.2254576683044433,-0.0,-0.0,-1.0,0.1232645654812569,1.0,1.0
40.12140655517578,-22.844602584838867,0.5460867881774902,-0.0,-0.0,-1.0,0.0628563855547726,2.0,1.0
38.05159759521485,-23.01761245727539,0.2894978523254394,-0.0,-0.0,-1.0,0.2000342236884655,2.0,1.0
37.82914733886719,-22.516748428344727,0.3126051425933838,-0.0,-0.0,-1.0,0.1080137568558186,2.0,1.0
37.86170959472656,-22.953378677368164,0.3218739032745361,-0.0,-0.0,-1.0,0.21722963682557,2.0,1.0
37.81607818603515,-22.814207077026367,0.3256807327270508,-0.0,-0.0,-1.0,0.1304910172076526,1.0,1.0
37.72306060791016,-23.044836044311523,0.9008057117462158,-0.0,-0.0,-1.0,0.0892886260811214,1.0,1.0
39.96887969970703,-23.823394775390625,0.2153975963592529,-0.0,-0.0,-1.0,0.0309304774207754,1.0,1.0
40.07334899902344,-23.60401153564453,0.1978471279144287,-0.0,-0.0,-1.0,0.0403083145815424,1.0,1.0
39.97368621826172,-23.23172187805176,0.2120087146759033,0.5476545758525722,0.8030302246690224,-0.2349828160009972,0.1397488986401782,3.0,1.0
39.99272918701172,-22.859535217285156,0.2053425312042236,-0.6664968064712107,0.7274231328224358,-0.1632102717308873,0.0533282837539329,3.0,1.0
39.7978515625,-24.060680389404297,0.2429533004760742,-0.0,-0.0,-1.0,0.1243769040858982,1.0,1.0
39.01058578491211,-23.080781936645508,0.3670384883880615,-0.0,-0.0,-1.0,0.1575841328149945,2.0,1.0
38.02732849121094,-22.907733917236328,0.5249433517456055,-0.5566117304862592,-0.8299393393296877,-0.0372031519913805,0.1347600975875217,4.0,1.0
40.089324951171875,-23.0167236328125,0.2277634143829345,-0.0,-0.0,-1.0,0.1475655504120131,1.0,1.0
40.056785583496094,-23.07790184020996,0.2334718704223632,-0.4565425108477898,0.7184581138348863,-0.5247731647613215,0.1806752191648957,3.0,1.0
39.69078063964844,-24.171560287475582,0.2937736511230469,-0.0,-0.0,-1.0,0.2218137498814709,2.0,1.0
38.05717849731445,-24.27544403076172,0.5522992610931396,-0.0,-0.0,-1.0,0.1062724274348251,1.0,1.0
37.89186096191406,-23.034914016723633,0.5800845623016357,-0.0,-0.0,-1.0,0.1122644217113759,1.0,1.0
39.86882400512695,-24.0340633392334,0.358349084854126,-0.0,-0.0,-1.0,0.144995598101319,1.0,1.0
40.008056640625,-23.265331268310547,0.3771698474884033,-0.5064070113665542,0.8519790964583603,-0.1329795399179535,0.1367991801556648,3.0,1.0
39.711910247802734,-24.09814453125,0.3783626556396484,-0.0,-0.0,-1.0,0.1091073562593546,1.0,1.0
39.35377502441406,-22.295440673828125,0.4983434677124023,-0.0,-0.0,-1.0,0.0757473123820819,2.0,1.0
38.096435546875,-22.80255126953125,0.6693992614746094,-0.0,-0.0,-1.0,0.1513507321676814,1.0,1.0
40.19500732421875,-22.584808349609375,0.1843495368957519,-0.0,-0.0,-1.0,0.0972740863610228,2.0,1.0
39.866355895996094,-22.94023704528809,0.2224090099334716,-0.0,-0.0,-1.0,0.0428107400402834,1.0,1.0
39.15546417236328,-24.224430084228516,0.2739489078521728,-0.0,-0.0,-1.0,0.0548641372888995,2.0,1.0
39.18809509277344,-23.70865821838379,0.2936952114105224,-0.0,-0.0,-1.0,0.0095283673467555,1.0,1.0
39.15974426269531,-23.42282485961914,0.3103857040405273,-0.0,-0.0,-1.0,0.0278149048482036,1.0,1.0
38.84684753417969,-23.819171905517575,0.3396084308624267,-0.0,-0.0,-1.0,0.0439085374397085,1.0,1.0
38.51820373535156,-23.360952377319336,0.4094581604003906,-0.0,-0.0,-1.0,0.1421595727988557,1.0,1.0
38.281105041503906,-23.12510108947754,0.4549667835235595,-0.0,-0.0,-1.0,0.1418468757329081,1.0,1.0
38.014984130859375,-22.887609481811523,0.5047123432159424,-0.4044547434237859,-0.894768906316541,0.1892219987504117,0.1833821724216965,4.0,1.0
38.08331298828125,-24.25037002563477,0.431168794631958,0.6825540008906825,-0.6734813960182144,-0.2838007136803556,0.2230388774810163,3.0,1.0
37.826900482177734,-22.878421783447266,0.533419132232666,-0.0,-0.0,-1.0,0.1356441335196503,1.0,1.0
40.06157684326172,-22.657039642333984,0.1785614490509033,-0.0,-0.0,-1.0,0.0093615450534827,2.0,1.0
39.87732696533203,-23.05733108520508,0.1917266845703125,-0.3776633139094806,0.8454060397961757,0.377702328829273,0.0572887932951817,3.0,1.0
39.841163635253906,-22.878751754760746,0.2039651870727539,-0.0,-0.0,-1.0,0.0332264758647581,2.0,1.0
39.00038528442383,-24.30413055419922,0.2648680210113525,-0.0,-0.0,-1.0,0.0534515896197491,1.0,1.0
39.08058166503906,-24.12248992919922,0.2624695301055908,-0.0,-0.0,-1.0,0.0590276228507896,2.0,1.0
38.92185974121094,-24.34625816345215,0.2741234302520752,-0.0,-0.0,-1.0,0.0534347163765646,1.0,1.0
39.062103271484375,-23.66092872619629,0.2878720760345459,-0.0,-0.0,-1.0,0.0181253594436156,2.0,1.0
39.027950286865234,-23.33478355407715,0.3077795505523681,-0.0,-0.0,-1.0,0.0971160108740898,1.0,1.0
39.01575469970703,-22.94290542602539,0.326005220413208,-0.0,-0.0,-1.0,0.1458665172022582,2.0,1.0
38.76570129394531,-23.789257049560547,0.3257277011871338,0.1798281533060179,-0.082133463625577,-0.980263193959364,0.0435481876206593,3.0,1.0
38.385292053222656,-23.382892608642575,0.4014947414398193,-0.0,-0.0,-1.0,0.1146788883675638,1.0,1.0
38.145721435546875,-24.149675369262695,0.3983409404754638,-0.0,-0.0,-1.0,0.2046870648953289,1.0,1.0
38.34673309326172,-23.243764877319336,0.413555383682251,-0.0,-0.0,-1.0,0.1237827644154507,2.0,1.0
37.98662567138672,-22.896873474121097,0.4824917316436767,-0.1120574557027791,-0.5715968469821596,-0.8128469543164156,0.1842403491290216,4.0,1.0
37.86676025390625,-22.866640090942383,0.5017173290252686,-0.0,-0.0,-1.0,0.1289922135420412,2.0,1.0
37.71773147583008,-22.706701278686523,0.5307464599609375,-0.0,-0.0,-1.0,0.1846293665291306,1.0,1.0
40.092750549316406,-23.81532859802246,0.1927037239074707,-0.0,-0.0,-1.0,0.0183251535382097,2.0,1.0
40.01434326171875,-23.220386505126953,0.2460808753967285,-0.2637373170571991,0.2641557212323324,-0.9277199914476874,0.1464890022054617,3.0,1.0
40.0299186706543,-23.080142974853516,0.253777265548706,-0.6941356807657207,0.5795164785112853,-0.4270085570826285,0.2168936951911999,5.0,1.0
39.67584991455078,-23.97580909729004,0.2340114116668701,-0.0,-0.0,-1.0,0.0546017058932691,1.0,1.0
39.328826904296875,-22.287433624267575,0.3984260559082031,-0.0,-0.0,-1.0,0.1269935232739111,1.0,1.0
39.483741760253906,-24.268028259277344,0.2353317737579345,-0.0,-0.0,-1.0,0.0466511506570895,1.0,1.0
38.7478141784668,-23.820520401000977,0.3646571636199951,-0.0,-0.0,-1.0,0.0435481876206593,2.0,1.0
37.99045181274414,-22.88340759277344,0.5332541465759277,-0.2186102562934918,-0.972737679898702,0.0774013045664216,0.1554537079392949,5.0,1.0
38.10261535644531,-24.22314453125,0.4129836559295654,0.6825540008906825,-0.6734813960182144,-0.2838007136803556,0.2048874175418329,3.0,1.0
37.78002166748047,-22.94446182250977,0.5559766292572021,-0.0552957406225571,-0.9984698950797488,-0.0004996883409612,0.1136310693509389,3.0,1.0
37.94808197021485,-22.84704971313477,0.4221320152282715,-0.0,-0.0,-1.0,0.2183457330634339,2.0,1.0
38.24243927001953,-24.226619720458984,0.3820087909698486,-0.0,-0.0,-1.0,0.1803505413202082,2.0,1.0
39.7384147644043,-24.231117248535156,0.4727416038513183,-0.3935395930818767,-0.9142871665951942,0.0959456391728297,0.209028003072622,3.0,1.0
39.65802383422851,-22.788856506347656,0.1977415084838867,-0.651809328767829,0.5570109477115271,-0.5146682456308521,0.010259277096383,3.0,1.0
39.098426818847656,-23.04421615600586,0.2614908218383789,-0.0,-0.0,-1.0,0.1686493606400983,2.0,1.0
39.073387145996094,-21.89735412597656,0.2060627937316894,-0.0,-0.0,-1.0,0.0379424944346528,1.0,1.0
