x,y,z,nx,ny,nz,curvature,density
9.28020477294922,15.49428367614746,-0.7394571304321289,0.9123432259248688,-0.059771661438171,-0.4050397345914648,0.0662968954525096,3.0
9.308030128479004,15.171598434448242,-0.7692439556121826,-0.0,-0.0,-1.0,0.0511432476046562,2.0
8.733650207519531,14.393198013305664,-0.5071159601211548,0.0023303140836482,-0.7024868342423196,-0.7116929234947301,0.0773068871173085,4.0
8.15147876739502,14.746434211730955,-0.5434799194335938,0.3952851553423773,0.3478316245766077,-0.8501545782446571,0.1579067685627231,4.0
8.741219520568848,15.255825996398926,-0.6835974454879761,-0.0,-0.0,-1.0,0.0352811782925016,2.0
9.04281520843506,14.831846237182615,-0.6945629119873047,-0.0,-0.0,-1.0,0.0512013421225955,1.0
10.100607872009276,13.83893585205078,-0.6843518018722534,-0.0,-0.0,-1.0,0.092436477115034,2.0
8.377528190612793,14.089056015014648,-0.457624077796936,-0.0,-0.0,-1.0,0.148151170724303,1.0
10.011598587036133,14.145654678344728,-0.2785243988037109,-0.0,-0.0,-1.0,0.0790366178890418,2.0
9.53567600250244,15.615480422973633,-0.8089723587036133,-0.0,-0.0,-1.0,0.0539897305808647,1.0
8.131668090820312,14.27927589416504,-0.4526728391647339,-0.0,-0.0,-1.0,0.239329440129148,2.0
9.477235794067385,13.818119049072266,-0.3662217855453491,-0.0164627592721727,-0.1831252475037003,-0.982951739041066,0.2802358451536842,5.0
8.313986778259277,14.064318656921388,-0.4597580432891845,-0.0,-0.0,-1.0,0.1785347527966314,1.0
8.53026008605957,13.871281623840332,-0.4610933065414428,-0.0,-0.0,-1.0,0.2438818732487482,2.0
8.867889404296875,15.327129364013672,-0.7094866037368774,-0.0,-0.0,-1.0,0.0503896106583218,1.0
9.29823398590088,14.92961883544922,-0.6982768774032593,-0.0,-0.0,-1.0,0.0914201684594774,1.0
8.031875610351562,14.779701232910156,-0.5612940788269043,-0.0,-0.0,-1.0,0.1542942392099166,1.0
8.252595901489258,14.649162292480469,-0.5493221282958984,0.9766605404419434,0.1285147186134928,-0.1720992616002345,0.1531147072018486,3.0
8.694292068481445,14.408075332641602,-0.5246900320053101,-0.0,-0.0,-1.0,0.0788198765970557,2.0
9.49101448059082,15.370321273803713,-0.7358478307723999,-0.0,-0.0,-1.0,0.0639169416429911,1.0
7.83641529083252,14.69432258605957,-0.5362066030502319,-0.0,-0.0,-1.0,0.1188247840990515,1.0
8.481989860534668,14.252603530883787,-0.4810056686401367,-0.0,-0.0,-1.0,0.0854047069005894,2.0
8.759986877441406,13.850506782531738,-0.4874489307403564,-0.0,-0.0,-1.0,0.1653065791381969,2.0
9.440497398376465,13.878595352172852,-0.3806687593460083,-0.1512818345804128,0.6986749203118712,0.6992618695833381,0.158795034161442,6.0
8.44672966003418,14.47519874572754,-0.6857408285140991,-0.0,-0.0,-1.0,0.0689812274346629,2.0
8.119165420532227,14.354975700378418,-0.4772762060165405,0.1816313648410824,0.0948298420308521,-0.9787836065067546,0.2030100430461841,4.0
8.574800491333008,13.508222579956056,-0.5875890254974365,-0.0,-0.0,-1.0,0.0567153344122852,2.0
8.30058479309082,14.210370063781738,-0.4793329238891601,-0.0,-0.0,-1.0,0.1286815939957116,1.0
8.746729850769043,13.863714218139648,-0.4886065721511841,0.2372913466513397,0.1541133498615799,-0.9591360133989528,0.1598233445467096,3.0
9.406655311584473,13.874252319335938,-0.400097131729126,-0.0,-0.0,-1.0,0.1773913451146561,2.0
10.07659149169922,14.114256858825684,-0.2627296447753906,-0.3477988893505363,-0.4604420596413487,-0.8167184596173679,0.1051165703372281,4.0
8.043421745300293,14.383208274841309,0.0922064781188964,0.8688728978075729,-0.4289473934461316,-0.2471113536672088,0.1874613013089921,3.0
8.141780853271484,13.429908752441406,-0.5133160352706909,-0.0,-0.0,-1.0,0.1451143528924813,2.0
8.332523345947266,13.344502449035645,-0.511170506477356,-0.8980535758397801,0.3919885727280201,-0.1996114570159596,0.2473115000938124,3.0
8.1888427734375,13.36269187927246,-0.2427563667297363,-0.5011833969119465,0.2077334633727368,-0.8400369104122569,0.1728077807347755,3.0
8.058835983276367,14.961244583129885,0.3041695356369018,-0.796821356567635,-0.2850324372157986,0.5327590782450691,0.2351259299442624,3.0
8.196653366088867,13.35190486907959,-0.1904246807098388,-0.0,-0.0,-1.0,0.1381756157259694,1.0
7.730826377868652,15.538931846618652,0.1397414207458496,-0.7243518579144382,0.2896222850942411,-0.6256463201463679,0.1355851990799855,3.0
8.059818267822266,14.423189163208008,0.05125093460083,0.5911414187942747,0.4933040016878751,-0.6381245841562767,0.1581117674770963,4.0
7.855308532714844,15.476824760437012,-0.0582056045532226,-0.2732325149303956,-0.9304378367120318,0.2441913692157138,0.2261583936597377,4.0
8.31678581237793,14.37633991241455,-0.0288033485412597,-0.0,-0.0,-1.0,0.2811113846486565,1.0
8.522819519042969,13.7083101272583,-0.0556567907333374,-0.0,-0.0,-1.0,0.1524678443787728,2.0
8.340414047241211,14.316173553466797,-0.0095545053482055,-0.0,-0.0,-1.0,0.2485433893360294,1.0
8.108659744262695,13.232704162597656,0.4881532192230224,-0.9033430897984408,-0.1620461617801003,-0.3971300839344006,0.1165946560212956,3.0
8.384247779846191,13.317054748535156,-0.0845063924789428,-0.0,-0.0,-1.0,0.1766737449506954,2.0
8.376981735229492,13.29795265197754,0.1361268758773803,-0.0,-0.0,-1.0,0.1235395538005462,2.0
8.5025053024292,13.406990051269531,-0.6320801973342896,-0.0,-0.0,-1.0,0.0872912740453831,2.0
9.053979873657228,13.63393211364746,-0.6230093240737915,-0.9255885518193808,0.1293948709027262,0.3557285483693553,0.1494648964705726,3.0
8.862348556518555,14.240885734558104,-0.4439597129821777,-0.0,-0.0,-1.0,0.1612606710313845,2.0
9.634203910827637,14.970735549926758,-0.6981470584869385,-0.6335613679764274,0.25143409248685,-0.7316972667320495,0.1354380405437742,3.0
8.98791790008545,13.86189079284668,-0.5922489166259766,-0.0,-0.0,-1.0,0.0522401229784093,1.0
8.9251127243042,14.290297508239746,-0.4938752651214599,-0.0,-0.0,-1.0,0.1433336632223773,2.0
8.943077087402344,14.017156600952148,-0.5243816375732422,-0.0,-0.0,-1.0,0.1515074448784152,2.0
8.928894996643066,14.0779447555542,-0.6047146320343018,-0.7012439738520369,0.5009689395611823,0.5072346702771298,0.128438645013249,3.0
9.54788875579834,13.907395362854004,-0.4485559463500976,0.2863727425448402,0.9055791251654356,0.3129170822948969,0.1748726201380849,3.0
8.900186538696289,14.07026195526123,-0.5400521755218506,-0.7946964732107429,0.4010751059976504,-0.4556273420410373,0.1672433654533333,4.0
9.616621971130373,13.816290855407717,-0.3750090599060058,-0.0,-0.0,-1.0,0.2538059553876716,2.0
8.94448471069336,13.90979290008545,-0.5976135730743408,-0.5996914555815125,0.2476870145201555,-0.7609344918852208,0.1951460180352485,3.0
9.08847999572754,13.800101280212402,-0.6403489112854004,0.080992000545575,-0.7908741456284938,-0.6065957316236454,0.0525225395328311,3.0
9.09377670288086,13.433853149414062,-0.6550900936126709,-0.7375189974113636,0.6702673297837636,0.0825071820018153,0.0742345180537687,4.0
9.070941925048828,13.560171127319336,-0.6564955711364746,-0.0,-0.0,-1.0,0.0882695773484782,1.0
9.133563041687012,14.77818202972412,-0.767106294631958,-0.0,-0.0,-1.0,0.0608012607414798,1.0
9.5858154296875,13.896939277648926,-0.4987587928771972,0.2466236545588602,0.951077872799838,0.186085068940437,0.2037173792033677,6.0
9.573078155517578,13.927595138549805,-0.3692290782928467,-0.0868442557795304,0.518294170515851,-0.8507815395548883,0.1894778662430557,3.0
9.384292602539062,13.722020149230955,-0.430535078048706,-0.0,-0.0,-1.0,0.2637436751609556,1.0
10.02988624572754,14.00770092010498,-0.3749482631683349,-0.0,-0.0,-1.0,0.0993725587403421,2.0
9.54123878479004,13.85232162475586,-0.3553915023803711,-0.1514729578158329,0.7531166653730479,-0.640211864454185,0.2365346954697667,6.0
9.238445281982422,14.649714469909668,-0.8060007095336914,-0.0,-0.0,-1.0,0.0539372651889642,2.0
9.04115104675293,15.203829765319824,-0.7164597511291504,-0.0,-0.0,-1.0,0.0530634008848668,1.0
9.450347900390623,15.588397979736328,-0.5389623641967773,-0.0,-0.0,-1.0,0.1321841830272733,1.0
8.132953643798828,13.319666862487791,0.1838870048522949,-0.0,-0.0,-1.0,0.0892414618686401,1.0
8.295658111572266,13.388328552246094,-0.4003021717071533,-0.0,-0.0,-1.0,0.1392669700594376,2.0
8.016890525817871,15.634519577026367,-0.0713818073272705,-0.0,-0.0,-1.0,0.1718448443010401,1.0
8.27979850769043,13.35451316833496,0.1561386585235595,0.9881905571287508,-0.1487669487704323,-0.0367126375394665,0.1396957489828808,11.0
7.721535205841064,13.20369815826416,-0.3958454132080078,-0.0,-0.0,-1.0,0.1330200646725997,2.0
8.157354354858398,13.342148780822754,-0.4846370220184326,-0.0,-0.0,-1.0,0.2275875711259381,1.0
8.383569717407227,14.018041610717772,-0.6428906917572021,-0.0,-0.0,-1.0,0.1182002653062694,1.0
8.217005729675293,13.35260772705078,0.0729548931121826,-0.7693341566283753,-0.6133402024324621,0.1787141615122114,0.178374351547912,3.0
8.023909568786621,14.790864944458008,-0.1281416416168213,-0.0,-0.0,-1.0,0.1694059451099089,2.0
7.790457248687744,15.48595905303955,-0.2118544578552246,-0.942588180861994,-0.3019441055609635,-0.1426789347320302,0.1763213047755699,3.0
10.180219650268556,14.220499992370604,-0.7993874549865723,-0.0,-0.0,-1.0,0.0193447999724292,1.0
8.088008880615234,14.705872535705566,-0.4738245010375976,-0.0,-0.0,-1.0,0.2197149471678774,1.0
8.126378059387207,14.648062705993652,-0.4694852828979492,-0.0,-0.0,-1.0,0.1990309945461155,2.0
9.92717456817627,14.54440212249756,-0.8082408905029297,-0.0,-0.0,-1.0,0.0357734392048797,1.0
10.092002868652344,14.41188621520996,-0.8171782493591309,-0.0,-0.0,-1.0,0.0273377258003737,1.0
9.48794174194336,14.947731971740724,-0.7965912818908691,-0.0,-0.0,-1.0,0.0857432427342572,1.0
9.801165580749512,14.802703857421877,-0.8319859504699707,-0.0,-0.0,-1.0,0.0189111099386129,1.0
8.870336532592773,15.434083938598633,-0.7704324722290039,-0.0,-0.0,-1.0,0.0502197343471153,1.0
9.093656539916992,15.430843353271484,-0.813382625579834,-0.0,-0.0,-1.0,0.0761749368816958,1.0
7.974005222320557,14.478248596191406,-0.4062728881835937,-0.0,-0.0,-1.0,0.254458318135244,2.0
8.167088508605957,14.48972988128662,-0.445436954498291,0.816411693495395,-0.5301600511790469,-0.2289154141988078,0.176171030959463,3.0
8.176065444946289,13.366362571716309,0.3409032821655273,0.1730334444054349,-0.9333994563979786,0.3143642503739075,0.1231838326275025,5.0
8.12825870513916,14.93095588684082,0.086907148361206,0.3761833309981677,0.8806094918765649,0.288119808926809,0.1932144128765361,3.0
10.17988395690918,13.279924392700195,-0.780738115310669,-0.0,-0.0,-1.0,0.0203085062570423,1.0
9.019548416137695,13.932376861572266,-0.751331090927124,-0.0,-0.0,-1.0,0.068966496092178,1.0
8.29462718963623,14.04166030883789,-0.6690022945404053,-0.0,-0.0,-1.0,0.1631370098376904,1.0
9.24844455718994,14.013391494750977,-0.8089005947113037,-0.0,-0.0,-1.0,0.0394064463773922,1.0
10.05965518951416,14.16846752166748,-0.3688714504241943,-0.0,-0.0,-1.0,0.0807627282286739,1.0
8.1489839553833,13.338988304138184,0.0898911952972412,-0.0,-0.0,-1.0,0.0929456675273848,1.0
8.120450973510742,15.060331344604492,0.2931470870971679,-0.0,-0.0,-1.0,0.175375787350102,1.0
9.62024211883545,14.486285209655762,-0.8131561279296875,-0.0,-0.0,-1.0,0.0409063996424264,1.0
7.996136665344238,14.59294605255127,-0.053051471710205,-0.0,-0.0,-1.0,0.1489157216209705,1.0
7.895405769348144,14.704146385192873,-0.0877127647399902,-0.0,-0.0,-1.0,0.1465017401496367,1.0
7.954934120178223,14.765779495239258,-0.1068015098571777,-0.0,-0.0,-1.0,0.1965093544070079,2.0
8.04825210571289,13.264471054077148,0.3597369194030761,-0.0,-0.0,-1.0,0.0866008454499236,2.0
8.016267776489258,14.969808578491213,0.406132698059082,-0.0,-0.0,-1.0,0.2513201328658221,1.0
9.877033233642578,13.150904655456545,-0.6366982460021973,-0.0,-0.0,-1.0,0.0248910664409987,1.0
9.43488883972168,13.248377799987791,-0.6252193450927734,-0.0,-0.0,-1.0,0.0233124746942112,1.0
9.659139633178713,13.240884780883787,-0.6459856033325195,-0.0,-0.0,-1.0,0.0191722777743682,1.0
7.785757064819336,13.141714096069336,-0.4421043395996094,-0.0,-0.0,-1.0,0.1409027229733071,1.0
7.899382591247559,13.325871467590332,-0.5191116333007812,-0.0,-0.0,-1.0,0.2070461231135063,2.0
9.40899658203125,14.957956314086914,-0.651212215423584,-0.0,-0.0,-1.0,0.096222595943756,1.0
9.836488723754885,15.200813293457031,-0.7715549468994141,-0.0,-0.0,-1.0,0.0827975511528574,2.0
9.988689422607422,15.19831085205078,-0.7853918075561523,-0.0,-0.0,-1.0,0.1089634481725747,1.0
9.284156799316406,15.23562240600586,-0.7324733734130859,-0.0,-0.0,-1.0,0.0538813202124316,1.0
9.478070259094238,15.268959045410156,-0.7608046531677246,-0.0,-0.0,-1.0,0.055179621593307,2.0
8.697736740112305,15.250947952270508,-0.6886992454528809,-0.0,-0.0,-1.0,0.0325967015619692,2.0
8.962385177612305,15.34343147277832,-0.7410116195678711,0.345144823303056,-0.3271279853052964,-0.8796944538742983,0.0939966595884745,5.0
8.117424011230469,15.291701316833496,-0.6592187881469727,-0.0,-0.0,-1.0,0.1231322987306365,1.0
8.539053916931152,15.460290908813477,-0.746312141418457,-0.0,-0.0,-1.0,0.0474298389447991,2.0
7.788923740386963,15.386664390563965,-0.668522834777832,-0.0,-0.0,-1.0,0.1642473061015947,2.0
9.389867782592772,13.873703956604004,-0.2895302772521972,-0.0,-0.0,-1.0,0.2357015223897916,1.0
8.175695419311523,13.36660861968994,-0.0195403099060058,-0.0,-0.0,-1.0,0.1302484961499294,1.0
8.127985954284668,14.383540153503418,-0.3560404777526855,0.4681206162650134,0.7340174180998695,-0.4920178030860932,0.2467719771021026,6.0
7.896484375,14.452608108520508,-0.3630366325378418,-0.0,-0.0,-1.0,0.2464370857672592,2.0
8.052804946899414,14.41318702697754,-0.3606181144714355,-0.8702693236626017,-7.466899291561827e-05,-0.4925761856975831,0.2605580818804256,4.0
7.713609218597412,15.549325942993164,-0.112884521484375,-0.0,-0.0,-1.0,0.2011224185260995,1.0
8.039310455322266,13.259918212890623,0.544459342956543,-0.0,-0.0,-1.0,0.1087180055539958,2.0
10.183576583862305,14.352896690368652,-0.7574758529663086,-0.0,-0.0,-1.0,0.0218418549581048,1.0
9.83512020111084,14.366877555847168,-0.7661137580871582,-0.0,-0.0,-1.0,0.0365807584648558,1.0
9.457098007202148,14.33228874206543,-0.7584085464477539,-0.0,-0.0,-1.0,0.0244847745747303,1.0
8.54452896118164,13.922995567321776,-0.6239290237426758,-0.030853962849734,-0.950951514517202,-0.30779741716575,0.1666133387414674,3.0
8.7929048538208,13.955811500549316,-0.628148078918457,0.0222534900773618,0.0232336477898231,-0.9994823559171796,0.1987136844059448,3.0
7.960472583770752,13.782257080078123,-0.5936098098754883,-0.0,-0.0,-1.0,0.1018610490912029,2.0
8.085723876953125,13.17900276184082,-0.3512196540832519,-0.0,-0.0,-1.0,0.1471155138321699,1.0
8.204310417175293,13.419504165649414,-0.4401555061340332,-0.0,-0.0,-1.0,0.1889346142268574,1.0
8.19126033782959,14.495733261108398,-0.3176331520080566,-0.0,-0.0,-1.0,0.2139017420066119,2.0
7.875426292419434,14.50493621826172,-0.3356804847717285,-0.0,-0.0,-1.0,0.2520530537947085,1.0
8.069108009338379,14.57441520690918,-0.3508868217468261,-0.0558780272727554,0.9318860514093238,-0.3584215859247939,0.1867277925932562,3.0
8.350648880004883,14.827317237854004,-0.4275603294372558,-0.0,-0.0,-1.0,0.1580520374188559,1.0
7.77114725112915,15.475980758666992,-0.6830587387084961,-0.0,-0.0,-1.0,0.1711668442758681,1.0
7.933192253112793,15.597742080688477,-0.717836856842041,-0.0,-0.0,-1.0,0.1347640480188212,1.0
8.229985237121582,13.410137176513672,0.0664091110229492,-0.0,-0.0,-1.0,0.1664413970046809,1.0
8.052572250366211,14.85361385345459,0.0955901145935058,0.3378654113378218,0.9410156120887944,0.0183461610882442,0.2238557783345472,4.0
7.803466796875,15.55173110961914,-0.1351571083068847,-0.0,-0.0,-1.0,0.1903765065312962,2.0
8.157781600952148,14.969311714172363,0.2773652076721191,0.4945330950470448,-0.8170628999660069,-0.2963869690157266,0.2263539562358975,4.0
8.142594337463379,14.91703987121582,0.1801185607910156,-0.0,-0.0,-1.0,0.1045795735297483,1.0
8.117856979370117,14.944976806640623,0.2902801036834717,0.1744834307639782,-0.8688643229494905,-0.4632821178227753,0.2074882419628929,5.0
9.95422077178955,13.572322845458984,-0.7031102180480957,-0.0,-0.0,-1.0,0.0141735252383118,1.0
9.41849136352539,13.52687644958496,-0.7002701759338379,-0.0,-0.0,-1.0,0.0180154982111526,1.0
9.747776985168455,13.55515480041504,-0.7016518115997314,-0.0,-0.0,-1.0,0.0361656069089636,1.0
9.007184028625488,13.687175750732422,-0.6687216758728027,-0.0,-0.0,-1.0,0.1020744250859459,2.0
8.095304489135742,13.770509719848633,-0.6468088626861572,-0.0,-0.0,-1.0,0.1139107772550133,1.0
8.821842193603516,13.929561614990234,-0.6281139850616455,0.0222534900773618,0.0232336477898231,-0.9994823559171796,0.2170446056499002,3.0
8.745552062988281,14.21481704711914,-0.5822339057922363,-0.0,-0.0,-1.0,0.1560052623363017,1.0
8.419572830200195,14.314796447753906,-0.5634274482727051,-0.0,-0.0,-1.0,0.0987583720948147,2.0
8.626194953918457,14.373409271240234,-0.55599045753479,-0.0,-0.0,-1.0,0.110181215414711,1.0
8.01586627960205,14.436271667480469,-0.5417435169219971,0.974277627706124,0.2001002462544729,-0.103648423047466,0.2445869623516425,3.0
8.00800895690918,14.749551773071287,-0.4924571514129638,-0.0,-0.0,-1.0,0.1846130080201193,1.0
9.65814208984375,14.394905090332031,-0.6724982261657715,-0.0,-0.0,-1.0,0.0316848933816606,1.0
9.985214233398438,14.346771240234377,-0.688103199005127,-0.0,-0.0,-1.0,0.023106890784442,1.0
9.108802795410156,14.564085006713867,-0.633674144744873,-0.0,-0.0,-1.0,0.1057621035822126,1.0
9.43124008178711,14.465494155883787,-0.6560373306274414,-0.0,-0.0,-1.0,0.0426860952839402,1.0
8.302002906799316,14.666996002197266,-0.6057143211364746,-0.0,-0.0,-1.0,0.1053349178654246,1.0
9.292410850524902,14.795764923095703,-0.5981800556182861,-0.0,-0.0,-1.0,0.0746849836502252,1.0
7.839638710021973,14.89812469482422,-0.5636954307556152,-0.0,-0.0,-1.0,0.1120505523132646,1.0
8.047234535217285,14.965688705444336,-0.5538699626922607,-0.0,-0.0,-1.0,0.1248157991791381,1.0
7.996271133422852,13.310009002685549,-0.1083216667175293,-0.0,-0.0,-1.0,0.0832451387125901,1.0
7.857939720153809,14.71522331237793,0.0769264698028564,-0.0,-0.0,-1.0,0.1433575431739964,1.0
7.856749534606934,13.225042343139648,0.5996401309967041,-0.0,-0.0,-1.0,0.1203703246134179,1.0
9.236268997192385,14.967252731323242,-0.7635211944580078,-0.0,-0.0,-1.0,0.0398989406384989,1.0
9.5513277053833,14.952919006347656,-0.7687709331512451,0.2112265398862485,0.6545672140921619,-0.7258960745749413,0.0865992412335985,3.0
9.991422653198242,14.919149398803713,-0.7807154655456543,-0.0,-0.0,-1.0,0.0357515591538549,1.0
8.07983112335205,15.349708557128906,-0.6974570751190186,-0.0,-0.0,-1.0,0.0720944479025455,1.0
9.15152072906494,15.089067459106444,-0.7415592670440674,-0.0,-0.0,-1.0,0.0458416605997011,2.0
7.901339530944824,15.592029571533203,-0.6572442054748535,-0.0,-0.0,-1.0,0.1825141884500979,2.0
7.74467658996582,13.19520378112793,-0.3433053493499756,-0.0,-0.0,-1.0,0.1480696397989278,1.0
8.086549758911133,13.30893898010254,-0.3274931907653808,-0.0,-0.0,-1.0,0.2003612552305948,1.0
7.887592315673828,13.41319465637207,-0.313014268875122,-0.0,-0.0,-1.0,0.1316945682637273,1.0
7.7360992431640625,14.481851577758787,-0.1659889221191406,-0.0,-0.0,-1.0,0.1781611031757166,1.0
9.230122566223145,13.973976135253906,-0.696204423904419,-0.7871185292034539,0.5166289613647439,-0.3369553935816688,0.0582041853698048,3.0
9.484341621398926,13.827266693115234,-0.7197229862213135,-0.0,-0.0,-1.0,0.239527094473816,2.0
9.88698959350586,13.73139762878418,-0.7362151145935059,-0.0,-0.0,-1.0,0.0275076239169368,1.0
10.171996116638184,13.751432418823242,-0.7345538139343262,-0.0,-0.0,-1.0,0.0137999539978375,1.0
7.777499198913574,14.831308364868164,-0.5719358921051025,-0.0,-0.0,-1.0,0.1843475752943348,1.0
7.992881774902344,14.676599502563477,-0.5932965278625488,-0.0,-0.0,-1.0,0.1334771826901129,1.0
8.404861450195312,14.51913833618164,-0.613253116607666,-0.0,-0.0,-1.0,0.0463917706544068,2.0
8.807583808898926,14.381956100463867,-0.6324388980865479,-0.0,-0.0,-1.0,0.0809516648604887,1.0
9.113715171813965,14.15842628479004,-0.6669433116912842,-0.0,-0.0,-1.0,0.051997859097918,1.0
8.230314254760742,14.74729347229004,-0.5786275863647461,0.7671311877535475,0.6393327241816955,-0.0525681326113443,0.1689183999000931,4.0
7.872879505157471,14.692075729370115,-0.5855424404144287,-0.0,-0.0,-1.0,0.1009110390932813,2.0
8.258615493774414,14.70901870727539,-0.577622652053833,0.8006664047701704,0.5891787918410486,-0.1086354431902041,0.1487901122933575,3.0
8.633831024169922,14.474721908569336,-0.6117146015167236,-0.0,-0.0,-1.0,0.0611941139523154,1.0
8.988518714904785,14.404512405395508,-0.6210618019104004,-0.8468371058064694,-0.1230183212982178,0.5174296172952327,0.1116087864243748,3.0
9.26834201812744,14.065225601196287,-0.6755361557006836,-0.0,-0.0,-1.0,0.0576908136825826,1.0
9.618974685668944,13.90315055847168,-0.7024478912353516,-0.0,-0.0,-1.0,0.2189387811869382,1.0
9.881721496582031,13.831811904907228,-0.7152431011199951,-0.0,-0.0,-1.0,0.02808879453438,1.0
8.754613876342773,14.583847045898438,-0.593144416809082,-0.0,-0.0,-1.0,0.0829256287851967,1.0
9.007925033569336,14.51803207397461,-0.6024990081787109,-0.8630082148759215,-0.397244204291264,-0.3121119401972247,0.1392414923859614,5.0
10.119815826416016,13.875911712646484,-0.7098591327667236,-0.0,-0.0,-1.0,0.0898577870694826,2.0
7.789801597595215,15.025943756103516,-0.5335807800292969,-0.0,-0.0,-1.0,0.1884405360877864,1.0
8.332176208496094,13.403261184692385,-0.0736775398254394,0.3585447526161418,-0.8618520158066196,-0.3586875565467745,0.1883146088787959,3.0
8.258898735046387,14.718816757202148,0.0920155048370361,-0.0,-0.0,-1.0,0.1943582476197292,1.0
7.954738140106201,15.398235321044922,0.1752839088439941,-0.0,-0.0,-1.0,0.1308861994228891,1.0
7.986025810241699,15.530370712280272,-0.5950992107391357,-0.0,-0.0,-1.0,0.2002324446383389,1.0
8.31290054321289,15.096565246582031,-0.6558172702789307,-0.0,-0.0,-1.0,0.0815730966451936,1.0
8.441874504089355,14.943323135375977,-0.6772415637969971,-0.0,-0.0,-1.0,0.0401413993427744,2.0
9.239395141601562,14.71967887878418,-0.6941854953765869,-0.0,-0.0,-1.0,0.0894875726587604,2.0
9.449438095092772,14.63250732421875,-0.7046349048614502,-0.0,-0.0,-1.0,0.0611466788723105,1.0
9.632234573364258,14.55905532836914,-0.7137138843536377,-0.0,-0.0,-1.0,0.0381028324834538,2.0
9.940895080566406,14.478473663330078,-0.7227144241333008,-0.0,-0.0,-1.0,0.0293016625527282,2.0
7.734989166259766,13.300094604492188,-0.2592055797576904,-0.4611994231148254,0.4790122764321739,-0.746888432863851,0.1959337598450345,3.0
7.920876979827881,13.314056396484377,-0.2530026435852051,0.1759810952304498,0.915591121416629,-0.3615571220492433,0.1653756290715975,4.0
8.287543296813965,13.380586624145508,-0.2363638877868652,0.1002284976245176,-0.873172297381476,-0.476995164912064,0.1453690572089569,4.0
8.552495956420898,13.28817367553711,-0.2435328960418701,-0.0,-0.0,-1.0,0.1129251372599662,1.0
8.4649658203125,13.858894348144531,-0.1696727275848388,-0.0,-0.0,-1.0,0.0528090571633181,1.0
8.172903060913086,14.611797332763672,-0.0767922401428222,-0.0,-0.0,-1.0,0.1686169770386345,1.0
8.204919815063477,13.329818725585938,0.4568263292312622,-0.0374350174767261,-0.9962215924586147,0.0783655420815723,0.0757515851378147,7.0
10.06070613861084,15.354608535766602,-0.8062732219696045,-0.0,-0.0,-1.0,0.0815393155019477,2.0
7.886351108551025,13.266374588012695,-0.5103127956390381,-0.0,-0.0,-1.0,0.2423636796563946,1.0
8.212455749511719,13.451419830322266,-0.4798533916473388,-0.0,-0.0,-1.0,0.1521640120824907,1.0
7.746082305908203,14.929767608642578,-0.2645046710968017,-0.0,-0.0,-1.0,0.1068308032628017,1.0
8.179482460021973,14.362581253051758,-0.3437447547912597,-0.0,-0.0,-1.0,0.192325257050163,2.0
8.267789840698242,13.939340591430664,-0.4063005447387695,-0.0,-0.0,-1.0,0.2203698796413617,1.0
8.388643264770508,13.459409713745115,-0.4774816036224365,-0.0,-0.0,-1.0,0.1821132947995986,2.0
8.12826156616211,14.76552391052246,-0.2841360569000244,-0.3889514679267731,0.8910716596876636,-0.2338975264920113,0.1397099006474045,5.0
9.525897026062012,13.90053939819336,-0.4085886478424072,0.2179971566734395,0.9705572161232986,-0.1024496457450616,0.1814164357995588,5.0
7.847872734069824,15.479755401611328,-0.1816487312316894,-0.0,-0.0,-1.0,0.154191860757889,2.0
8.186991691589355,15.04365348815918,0.3936804533004761,0.5934063864156263,-0.6161138928827034,0.5179503176541835,0.1863511755643026,4.0
9.508811950683594,15.575374603271484,-0.664644718170166,-0.0,-0.0,-1.0,0.1218354663780771,1.0
9.673295974731444,15.50636100769043,-0.6811990737915039,-0.0,-0.0,-1.0,0.0755770668495117,1.0
9.927453994750977,15.389986038208008,-0.709517240524292,-0.0,-0.0,-1.0,0.0580717800849147,1.0
10.15388298034668,15.232776641845703,-0.7459001541137695,-0.0,-0.0,-1.0,0.1026276025504942,1.0
7.763476371765137,14.733150482177734,-0.1677863597869873,-0.0,-0.0,-1.0,0.1648343899587225,2.0
8.124288558959961,14.76951789855957,-0.1666774749755859,-0.0,-0.0,-1.0,0.1537652821105322,2.0
8.167139053344727,14.475830078125,-0.2138590812683105,-0.0,-0.0,-1.0,0.2231391042076741,1.0
8.22562026977539,14.225692749023438,-0.2544789314270019,-0.0,-0.0,-1.0,0.1314326941204152,1.0
8.319862365722656,13.32037353515625,-0.4003415107727051,-0.1424482422754033,-0.9846736833020376,-0.1006291989685208,0.1600872448983248,3.0
9.32961654663086,15.217952728271484,-0.7758727073669434,-0.1125124613557446,-0.4599669736746188,-0.8807788196637589,0.0537217021421945,4.0
9.610055923461914,15.409940719604492,-0.7392020225524902,-0.0,-0.0,-1.0,0.1056127580670933,2.0
9.850791931152344,15.230289459228516,-0.7788257598876953,-0.0,-0.0,-1.0,0.0885736026726952,2.0
10.129083633422852,15.16109848022461,-0.7975749969482422,-0.0,-0.0,-1.0,0.1032032050222054,1.0
7.726181983947754,14.634828567504885,-0.2771034240722656,-0.0,-0.0,-1.0,0.1799348590788902,1.0
7.839182853698731,14.357233047485352,-0.322725772857666,-0.0,-0.0,-1.0,0.2404259223512242,1.0
8.279943466186523,13.418947219848633,-0.4808897972106933,-0.0,-0.0,-1.0,0.2430824165764028,2.0
8.138587951660156,14.758007049560549,-0.257866621017456,-0.5351833975255594,0.8119638461208455,0.2330095354393094,0.1145484326182872,6.0
8.206354141235352,14.401342391967772,-0.3171453475952148,-0.0,-0.0,-1.0,0.1370919885939782,2.0
8.38180923461914,13.418800354003906,-0.4819979667663574,0.513078173268113,0.0091105490830825,-0.8582935313814622,0.1916879927501762,3.0
8.467302322387695,13.274957656860352,-0.5070545673370361,-0.0,-0.0,-1.0,0.2056274801412686,1.0
9.518993377685549,13.844087600708008,-0.4289398193359375,0.5395391062593988,0.4258399420555864,-0.7263318088634866,0.1966091662460278,3.0
7.746622085571289,15.304807662963867,-0.1677939891815185,-0.0,-0.0,-1.0,0.0825134584288715,1.0
8.24825668334961,13.31865119934082,0.1545343399047851,0.6184239306545536,-0.779001541979219,-0.1034815905742227,0.129192093265212,9.0
7.827314376831055,15.51325798034668,-0.1337800025939941,0.0684431918310183,0.00671531527662,-0.9976324142853012,0.174565693729853,3.0
8.13262939453125,14.91628360748291,0.366811990737915,-0.2841828723374572,-0.9522026197850816,0.1120279694739656,0.2006021765802182,13.0
7.88670825958252,13.89678955078125,-0.5159139633178711,-0.0,-0.0,-1.0,0.1525010646491376,1.0
8.173043251037598,14.366891860961914,-0.429917573928833,0.667322237153931,0.7429050302111883,0.0526606863493644,0.2391582545165716,3.0
8.134415626525879,13.772296905517578,-0.5352540016174316,-0.0,-0.0,-1.0,0.1705844687132564,1.0
8.497028350830078,14.25162124633789,-0.4476101398468017,-0.0,-0.0,-1.0,0.0822416757782984,2.0
8.698495864868164,14.210122108459473,-0.4538724422454834,-0.0,-0.0,-1.0,0.0911795732381155,2.0
8.778579711914062,13.621532440185549,-0.5589430332183838,-0.2191661108611867,-0.8988955935948799,-0.3794112909043302,0.1306694072965036,3.0
8.834772109985352,13.40680694580078,-0.5974786281585693,-0.0,-0.0,-1.0,0.0439545678789628,2.0
8.807587623596191,14.171720504760742,-0.460334300994873,-0.0,-0.0,-1.0,0.1704286045890858,1.0
8.986421585083008,13.48653793334961,-0.5831937789916992,-0.0,-0.0,-1.0,0.0736334505753625,1.0
9.19381332397461,13.368452072143556,-0.6051051616668701,-0.9716522105314872,0.0085712516474049,0.2362594239696517,0.0558395949752058,3.0
9.502824783325195,13.261402130126951,-0.6261720657348633,-0.0,-0.0,-1.0,0.0215924232051411,1.0
9.732070922851562,13.189762115478516,-0.6411941051483154,-0.0,-0.0,-1.0,0.019166641449674,1.0
9.588932991027832,15.553857803344728,-0.758521318435669,-0.0,-0.0,-1.0,0.0623210300037103,2.0
10.056142807006836,13.190670013427734,-0.6448633670806885,-0.0,-0.0,-1.0,0.0249319929544169,1.0
9.881315231323242,15.576306343078612,-0.7514786720275879,0.1032220852509659,0.925204295376472,-0.3651605303607832,0.115457291875972,3.0
10.05430793762207,15.302434921264648,-0.8101284503936768,-0.0,-0.0,-1.0,0.0709989793242652,2.0
7.740655899047852,15.460535049438477,-0.2455713748931884,-0.0,-0.0,-1.0,0.1777139315174065,2.0
8.091043472290039,14.630776405334473,-0.3844239711761474,-0.7628151225829819,0.634515629865533,0.1245110606133298,0.2138468471622348,3.0
8.089935302734375,14.402541160583496,0.1721565723419189,-0.0,-0.0,-1.0,0.1923733253057139,1.0
8.214872360229492,13.377126693725586,0.0250055789947509,-0.1453264067451448,0.0160902371980234,-0.9892529200206872,0.1551682303877345,4.0
7.801662921905518,14.65047836303711,-0.6335489749908447,-0.0,-0.0,-1.0,0.1477841254207529,1.0
7.928861618041992,14.727010726928713,-0.6151080131530762,-0.0,-0.0,-1.0,0.0898381871780952,1.0
8.480185508728027,14.48794651031494,-0.6492190361022949,0.9059252120415974,-0.4228641783621292,-0.0220317236163722,0.0704995819435959,3.0
8.60954475402832,14.444658279418944,-0.6554231643676758,-0.0,-0.0,-1.0,0.0566356896070534,1.0
9.114957809448242,14.24502182006836,-0.6885237693786621,-0.0,-0.0,-1.0,0.0450625156278448,1.0
9.42873764038086,14.06411838531494,-0.7229790687561035,-0.0,-0.0,-1.0,0.0758828495425773,2.0
9.780340194702148,13.990594863891602,-0.7369751930236816,-0.0,-0.0,-1.0,0.0256957679840167,1.0
9.961706161499023,13.942320823669434,-0.7471127510070801,-0.0,-0.0,-1.0,0.0092225078604362,1.0
10.132549285888672,13.951462745666504,-0.7458269596099854,-0.0,-0.0,-1.0,0.0086802176447508,1.0
7.885498046875,13.311967849731444,-0.2790141105651855,0.4574508165848951,0.4473777667114828,-0.7684997620416412,0.1883102229084077,7.0
8.111004829406738,14.793342590332031,-0.5973455905914307,-0.0,-0.0,-1.0,0.1460580883624279,1.0
8.232423782348633,14.739583969116213,-0.6048920154571533,0.8006664047701704,0.5891787918410486,-0.1086354431902041,0.1459822633125823,3.0
8.348806381225586,13.34999179840088,-0.2706284523010254,-0.6624464902869237,-0.6612159229390234,0.3520769102886933,0.1260041956448762,6.0
8.466711044311523,14.627424240112305,-0.6220433712005615,-0.0,-0.0,-1.0,0.0724233123897168,2.0
8.792750358581543,14.53032398223877,-0.6352953910827637,-0.2193704470710761,-0.6451107892898353,-0.7319212228742118,0.1039253869953115,3.0
8.924383163452148,14.46168041229248,-0.6471669673919678,-0.0,-0.0,-1.0,0.1621221310374118,2.0
8.20166015625,14.469538688659668,-0.0865993499755859,-0.0,-0.0,-1.0,0.1721464188025685,2.0
7.974854469299316,13.910743713378906,-0.5198705196380615,-0.0,-0.0,-1.0,0.1561405657771883,1.0
9.06744384765625,13.507554054260254,-0.5675380229949951,-0.0,-0.0,-1.0,0.0764315539163749,2.0
9.287161827087402,13.396924018859863,-0.585519552230835,-0.0,-0.0,-1.0,0.050752841004961,1.0
9.244207382202148,15.389159202575684,-0.7033755779266357,-0.0,-0.0,-1.0,0.1393211427938411,2.0
9.286510467529297,15.305418014526367,-0.7205774784088135,-0.0,-0.0,-1.0,0.0523485877212047,1.0
9.642913818359377,13.287282943725586,-0.602367639541626,-0.0,-0.0,-1.0,0.0196927781355807,1.0
9.536580085754396,15.452549934387209,-0.6772534847259521,-0.0,-0.0,-1.0,0.1294071213271804,1.0
9.779861450195312,15.242767333984377,-0.7168266773223877,-0.0,-0.0,-1.0,0.0910540045714946,2.0
10.027119636535645,15.149221420288086,-0.7308704853057861,-0.0,-0.0,-1.0,0.1081199699957941,1.0
7.74620246887207,15.631796836853027,-0.2097394466400146,-0.0,-0.0,-1.0,0.1358896890791248,1.0
8.040971755981445,14.003201484680176,-0.4999053478240967,-0.0,-0.0,-1.0,0.1360995429293276,1.0
8.081419944763184,14.779242515563965,-0.3523097038269043,-0.4000000210130265,0.4700420611171081,-0.7868039425233957,0.1396335289755249,3.0
8.27894401550293,14.456364631652832,-0.405954360961914,-0.0,-0.0,-1.0,0.1337574028857872,2.0
8.525167465209961,14.38875675201416,-0.4104998111724853,-0.0,-0.0,-1.0,0.190274196983243,1.0
8.737390518188477,14.287420272827148,-0.4237139225006103,-0.0,-0.0,-1.0,0.0944912412898123,1.0
8.908084869384766,13.752416610717772,-0.5230708122253418,-0.0,-0.0,-1.0,0.167913649062015,2.0
9.030725479125977,13.560429573059082,-0.5578956604003906,-0.0,-0.0,-1.0,0.1590526038497637,1.0
9.539816856384276,13.377714157104492,-0.5855345726013184,-0.0,-0.0,-1.0,0.1081361915526572,1.0
9.80801010131836,13.278993606567385,-0.6023986339569092,-0.0,-0.0,-1.0,0.0197182063565887,1.0
8.067562103271484,14.468677520751951,0.1362805366516113,-0.0,-0.0,-1.0,0.195951436306875,1.0
8.183223724365234,13.28215789794922,-0.0485942363739013,-0.0,-0.0,-1.0,0.244311426381573,1.0
8.14660358428955,14.39146614074707,0.1258809566497802,-0.0,-0.0,-1.0,0.2509837517595039,2.0
8.67784309387207,13.355008125305176,-0.0308458805084228,-0.0,-0.0,-1.0,0.0675502149754954,1.0
8.135637283325195,13.318190574645996,0.5341222286224365,0.9634272075375414,-0.0775421881488978,-0.2565057988301548,0.1546892607424125,4.0
7.821204662322998,14.108851432800291,-0.6453044414520264,-0.0,-0.0,-1.0,0.0934492697205437,1.0
7.953236103057861,14.38766098022461,-0.5821108818054199,-0.7952725086027187,-0.144832895968978,-0.58869777416428,0.1608558654267164,3.0
8.082601547241211,14.152057647705078,-0.6226153373718262,-0.0,-0.0,-1.0,0.1812458430290611,1.0
8.148162841796875,14.661614418029783,-0.5162477493286133,-0.0,-0.0,-1.0,0.18312842548129,1.0
8.3911771774292,14.318602561950684,-0.5729780197143555,-0.0,-0.0,-1.0,0.1039157835974252,2.0
8.769003868103027,14.344123840332031,-0.5497384071350098,-0.0,-0.0,-1.0,0.1077561280733123,2.0
8.95125961303711,13.980990409851074,-0.6173267364501953,-0.4655296463628777,-0.3557638804692319,-0.8103790531046122,0.1767295388706477,4.0
9.090961456298828,13.72562313079834,-0.6654355525970459,-0.0,-0.0,-1.0,0.0871537201669962,2.0
9.392887115478516,13.591163635253906,-0.6834964752197266,-0.0,-0.0,-1.0,0.075201067517132,1.0
9.631701469421388,13.5022611618042,-0.6950371265411377,-0.0409197646602016,-0.2245505429833029,-0.9736029100747684,0.0300479823442336,3.0
9.47087860107422,15.490496635437012,-0.7553920745849609,-0.0,-0.0,-1.0,0.0443785440336569,1.0
9.847437858581545,13.496588706970217,-0.6904404163360596,-0.0,-0.0,-1.0,0.0157484930198901,2.0
9.700827598571776,15.404146194458008,-0.7630610466003418,-0.0726618027501806,0.54237069870599,-0.8369912111881878,0.0729050083898443,4.0
9.924737930297852,15.147038459777832,-0.8138992786407471,-0.0,-0.0,-1.0,0.0752486314979993,2.0
7.715545654296875,13.29962921142578,-0.2474977970123291,-0.4611994231148254,0.4790122764321739,-0.746888432863851,0.1959337598450346,3.0
7.731902122497559,15.536540031433104,-0.3687200546264648,-0.0,-0.0,-1.0,0.177127891196068,2.0
7.762017250061035,15.326972007751465,-0.4074845314025879,-0.0,-0.0,-1.0,0.1235252717584432,1.0
8.299539566040039,13.47975730895996,-0.1979217529296875,-0.0,-0.0,-1.0,0.1896451174274034,1.0
8.568361282348633,13.361153602600098,-0.2112760543823242,-0.7670759455497821,0.2485576429890638,0.5914504137039969,0.0795936039272933,4.0
7.719362258911133,15.480952262878418,0.1187727451324462,-0.0,-0.0,-1.0,0.1425559537021355,1.0
8.200876235961914,13.29340362548828,0.319385290145874,-0.6843726868510789,-0.7265170430678132,-0.0617009856018285,0.1492752378377131,6.0
8.106728553771973,14.839412689208984,0.0287456512451171,0.376970739206214,0.9225188541851596,0.082776962104323,0.2145266563926325,4.0
8.265926361083984,14.426055908203123,-0.0356104373931884,0.180513322861654,0.2083492265261055,-0.9612520689576788,0.2264814668462536,6.0
7.770588397979736,14.91419792175293,-0.6587283611297607,-0.7803128943817845,-0.344788654465206,-0.5217591116728052,0.0898979054697197,3.0
8.258821487426758,13.395620346069336,-0.4183430671691894,0.3280642033716445,-0.6472304957671821,0.688089066774859,0.1423965770927673,4.0
7.975901603698731,15.494710922241213,-0.5187230110168457,-0.0,-0.0,-1.0,0.1561968785809445,1.0
8.206825256347656,14.811738014221191,-0.642202615737915,0.4093816900433911,0.5454424773763185,-0.731367989271339,0.0844308461287191,3.0
8.290840148925781,13.871722221374512,-0.3260843753814697,-0.0,-0.0,-1.0,0.120079608719022,1.0
8.44101333618164,14.66772747039795,-0.6539299488067627,-0.0,-0.0,-1.0,0.0278206803409063,1.0
8.645360946655273,14.519659042358398,-0.6705470085144043,-0.0,-0.0,-1.0,0.0723731341424221,1.0
9.012601852416992,14.45937728881836,-0.6572215557098389,-0.6486629907210114,0.6960998258559522,-0.3077033586300056,0.1541704684556005,6.0
9.211956024169922,14.212934494018556,-0.6994507312774658,-0.0,-0.0,-1.0,0.0370518408827809,1.0
9.413339614868164,14.050738334655762,-0.7238271236419678,-0.0,-0.0,-1.0,0.0775492131610932,2.0
9.655824661254885,13.966682434082031,-0.729332685470581,-0.0,-0.0,-1.0,0.1759778514405444,2.0
9.99046802520752,13.859498023986816,-0.7368404865264893,-0.0,-0.0,-1.0,0.0157154513727133,1.0
7.769413948059082,15.527473449707031,-0.0577585697174072,-0.0,-0.0,-1.0,0.2285924085604129,2.0
7.793457984924316,14.618922233581545,-0.2184317111968994,-0.0,-0.0,-1.0,0.1664905599964035,1.0
8.034310340881348,14.404007911682127,-0.2418997287750244,-0.0,-0.0,-1.0,0.1267350981323616,1.0
8.050477981567383,14.710644721984863,-0.1845016479492187,-0.0,-0.0,-1.0,0.2532638688714926,1.0
8.181307792663574,14.401314735412598,-0.2332410812377929,-0.0,-0.0,-1.0,0.2273062632466751,2.0
8.128114700317383,14.946207046508787,0.3410727977752685,-0.3624321408187547,-0.9045533906228396,-0.2245575801754618,0.2728023210421415,12.0
7.923834800720215,13.807117462158203,-0.5767471790313721,-0.1804421890906563,0.3560012508860203,-0.916898972495749,0.0917618603867172,3.0
8.62144660949707,13.266191482543944,-0.616870641708374,-0.2084102846186941,-0.0735832149578152,-0.9752695338939008,0.079810912789795,3.0
8.833222389221191,13.191606521606444,-0.6136875152587891,-0.0,-0.0,-1.0,0.0713460530659412,1.0
7.730843544006348,14.02132511138916,-0.556199312210083,-0.0,-0.0,-1.0,0.1264759260375616,2.0
7.735866546630859,15.225509643554688,-0.334700345993042,-0.0,-0.0,-1.0,0.0574965319199576,2.0
7.910672187805176,14.47132396697998,-0.4524762630462646,-0.0,-0.0,-1.0,0.2035123006935552,2.0
7.94598388671875,13.840694427490234,-0.5680692195892334,-0.0,-0.0,-1.0,0.1093692908633006,2.0
8.214056015014648,14.747851371765137,-0.368159532546997,-0.6152932625754898,0.319106848202413,-0.7208224611230776,0.1404394271026178,4.0
8.131711959838867,14.239810943603516,-0.4726440906524658,-0.5141064809092412,0.3868317061251671,-0.7655427861481082,0.2392722240045851,3.0
8.451504707336426,14.08194065093994,-0.4709324836730957,0.4998056057919063,-0.3992069257845399,-0.7686534894376282,0.1273586189775865,3.0
8.543977737426758,13.476338386535645,-0.5815680027008057,-0.0,-0.0,-1.0,0.076920245220682,2.0
8.677396774291992,13.968236923217772,-0.4715199470520019,0.2121264416147747,0.6180742557002448,-0.7569587751049867,0.1149894599042694,3.0
8.93328857421875,13.174870491027832,-0.6087453365325928,-0.0,-0.0,-1.0,0.0420789933115116,1.0
9.503129959106444,13.8865327835083,-0.4158384799957275,0.3573780062274033,0.4771834152650932,-0.8028554968740439,0.1965351963397822,6.0
7.993706703186035,14.908321380615234,0.0984480381011962,-0.0,-0.0,-1.0,0.1594307474791471,2.0
8.234756469726562,13.28966999053955,-0.1441409587860107,-0.2184666002092971,-0.4763937715590126,-0.8516579824159288,0.2195187872770103,3.0
8.301412582397461,14.368762016296388,0.0390431880950927,-0.0,-0.0,-1.0,0.1492281964983638,1.0
8.344490051269531,13.573419570922852,-0.0885262489318847,-0.0,-0.0,-1.0,0.0874047980439022,1.0
10.173887252807615,14.18849277496338,-0.3013064861297607,-0.0,-0.0,-1.0,0.0793582436561757,1.0
8.182368278503418,13.315424919128418,0.3533697128295898,-0.7641451991119026,-0.5751136691640567,0.2921067993301197,0.1341953158352924,5.0
7.848869323730469,13.34533977508545,-0.3929133415222168,0.937662279229433,-0.32243726707729,0.1297060480856353,0.1568414860350483,3.0
7.981756210327148,14.597538948059082,-0.1585152149200439,-0.0,-0.0,-1.0,0.1783534530162986,1.0
8.118451118469238,14.424721717834473,-0.1725327968597412,0.5979688031082634,0.7573699119969385,-0.2623435284336569,0.177843013461056,4.0
8.2640962600708,13.394515991210938,-0.3411619663238525,-0.06472357799783,-0.0805558153385022,-0.9946464794419714,0.1959208278461935,9.0
8.195391654968262,14.42536735534668,-0.1636843681335449,-0.0,-0.0,-1.0,0.2154713391231412,2.0
7.812943458557129,15.48194980621338,-0.0336878299713134,-0.0573831644294384,-0.992460330859108,0.1083035738611299,0.2177559135975718,3.0
8.105043411254883,14.85322093963623,-0.1006748676300048,-0.0,-0.0,-1.0,0.0931762065346781,1.0
8.523438453674316,14.67738914489746,-0.0829825401306152,-0.0,-0.0,-1.0,0.1919953482977784,1.0
8.127367973327637,14.951961517333984,0.3503360748291015,-0.2917503809061083,-0.9532859706247794,-0.0782788186619646,0.2298247134107009,13.0
7.738335609436035,13.174619674682615,-0.2274291515350341,-0.0,-0.0,-1.0,0.1734738590718955,2.0
8.215184211730957,13.306769371032717,-0.1486852169036865,-0.6239380344261086,-0.7611857966714889,-0.176911028887616,0.2688628912638331,3.0
8.68008041381836,13.383512496948242,-0.0822360515594482,-0.0,-0.0,-1.0,0.1477178634373697,2.0
8.047698974609375,14.837790489196776,0.0716440677642822,-0.3602775598918039,0.7040236505909029,-0.6120055385754822,0.1651544104849422,6.0
8.189188957214355,13.333118438720703,0.3065581321716308,0.952785537324246,0.2645655347168006,0.1490127434341149,0.1348252854327317,5.0
8.198065757751465,14.816774368286133,0.0888659954071044,-0.0,-0.0,-1.0,0.1805085467328726,1.0
8.541402816772461,13.791893005371094,-0.0295536518096923,-0.0,-0.0,-1.0,0.1874692892141722,2.0
8.121423721313477,14.389333724975586,0.0589673519134521,-0.4375379432750119,-0.8991927191681868,0.0036058271720768,0.2212464817092749,5.0
8.265237808227539,13.350324630737305,-0.0967650413513183,-0.3380099299519843,-0.9109431898526232,-0.2364990319535841,0.151346404717703,3.0
8.535318374633789,13.71417999267578,-0.0012218952178955,-0.0,-0.0,-1.0,0.134767986005782,1.0
7.712630271911621,15.550894737243652,0.1663460731506347,-0.7243518579144382,0.2896222850942411,-0.6256463201463679,0.1362912066510099,3.0
8.059420585632324,14.424636840820312,0.0765466690063476,0.6286273837857059,-0.6565069365774779,-0.4169247588958875,0.1877052239650227,4.0
8.079182624816895,13.140069961547852,-0.1165339946746826,-0.0,-0.0,-1.0,0.1291104920448495,1.0
8.1007719039917,14.84634780883789,0.1416773796081543,0.7533503172774703,0.1522998113999723,0.6397406247108809,0.1999504663905451,5.0
8.555949211120605,13.72055721282959,0.0451154708862304,-0.0,-0.0,-1.0,0.1261477124748412,1.0
8.261231422424316,13.341727256774902,-0.0579237937927246,-0.3380099299519843,-0.9109431898526232,-0.2364990319535841,0.154270196889159,3.0
8.070672988891602,13.145771980285645,0.3071587085723877,-0.0,-0.0,-1.0,0.1125468409289745,1.0
8.149711608886719,13.3291015625,0.4991483688354492,-0.8514220954216858,0.0007025955050605,-0.5244806209835607,0.1750957922437809,6.0
8.21755599975586,13.373123168945312,0.3671633005142212,-0.4273810275267768,-0.8061418433209772,0.4092441639867494,0.0939816404922431,6.0
8.24294662475586,13.289139747619627,0.363508939743042,-0.0493666524046831,0.0460466751658954,-0.997718716541151,0.1843035588047702,5.0
8.238076210021973,13.32988166809082,0.3658602237701416,-0.1856562075321845,0.0967560280609495,-0.9778394774392344,0.1647010061585435,7.0
8.336896896362305,13.313570022583008,0.0789453983306884,-0.0,-0.0,-1.0,0.1479204490756554,1.0
7.801120758056641,15.402725219726562,0.0374433994293212,-0.0,-0.0,-1.0,0.1659803327066822,1.0
7.846894264221191,15.608919143676758,0.0475549697875976,-0.0,-0.0,-1.0,0.1844821028633008,1.0
8.200666427612305,13.25008487701416,0.4745688438415527,-0.4533905219750898,-0.8735438420337568,0.1770824402024615,0.1368338446171777,7.0
8.260297775268555,13.326658248901367,0.1431145668029785,0.0394195776425575,-0.9692908737629228,0.2427370983974067,0.1485121832958063,10.0
10.190780639648438,15.609665870666504,-0.8414545059204102,-0.0,-0.0,-1.0,0.0479864419867943,1.0
10.19952392578125,15.255109786987305,-0.8346097469329834,-0.0,-0.0,-1.0,0.058764498399084,1.0
10.20132064819336,15.495665550231934,-0.8719518184661865,-0.0,-0.0,-1.0,0.0730647561511873,2.0
10.163314819335938,15.204919815063477,-0.8682899475097656,-0.0,-0.0,-1.0,0.0622171712942598,2.0
7.7600250244140625,15.406798362731934,-0.5722522735595703,-0.969068605014496,0.1888988683982432,-0.1588183122096512,0.186130561110944,3.0
8.266040802001953,14.55274772644043,-0.5445657968521118,-0.0,-0.0,-1.0,0.1532248101066286,2.0
7.809253692626953,13.677905082702637,-0.5604825019836426,-0.0,-0.0,-1.0,0.1364054307873979,1.0
7.855628967285156,13.533382415771484,-0.5577812194824219,-0.0,-0.0,-1.0,0.189887501044328,1.0
8.963676452636719,13.997139930725098,-0.5106064081192017,-0.1455940211954928,-0.6581683466830325,-0.738658790252069,0.1388792685589529,3.0
8.572803497314453,13.28535270690918,-0.5248082876205444,-0.2004534150447386,0.9597248975821828,0.19684143201514,0.1147980522358293,3.0
7.914661407470703,15.633544921875,-0.6393634080886841,-0.0,-0.0,-1.0,0.1812397711337694,2.0
7.714149475097656,15.05414867401123,-0.6508501768112183,-0.0,-0.0,-1.0,0.1391615446906581,1.0
8.466289520263672,14.693803787231444,-0.616889476776123,-0.0,-0.0,-1.0,0.1084128327751265,1.0
8.9991455078125,14.286783218383787,-0.5936006307601929,-0.0,-0.0,-1.0,0.1144947645683572,2.0
9.075790405273438,13.996978759765623,-0.5914220809936523,-0.0,-0.0,-1.0,0.134671096855288,1.0
8.925247192382812,13.718067169189451,-0.5999948978424072,-0.0,-0.0,-1.0,0.1322385924652792,2.0
8.65158462524414,13.44053840637207,-0.6144860982894897,-0.0,-0.0,-1.0,0.0648052231164862,1.0
8.897933959960938,13.574332237243652,-0.6020842790603638,0.3478662416653978,0.5544929914622856,-0.7559937832606802,0.0718505444261008,3.0
8.7054443359375,13.146743774414062,-0.613723874092102,-0.0,-0.0,-1.0,0.0950737730713601,1.0
8.102996826171875,14.930190086364746,0.1222308874130249,0.3761833309981677,0.8806094918765649,0.288119808926809,0.1702831824625141,3.0
9.634071350097656,15.520362854003906,-0.7340840101242065,-0.0,-0.0,-1.0,0.0755342062962424,1.0
8.812152862548828,15.462776184082031,-0.7741769552230835,-0.0,-0.0,-1.0,0.0537322397467617,1.0
9.319149017333984,14.425736427307127,-0.7300111055374146,-0.0,-0.0,-1.0,0.0313715287828755,1.0
9.437763214111328,14.003063201904297,-0.7168039083480835,-0.0,-0.0,-1.0,0.0878547997531157,2.0
9.848228454589844,13.436827659606934,-0.6868020296096802,-0.0,-0.0,-1.0,0.0186849750496309,1.0
9.31574249267578,15.526320457458496,-1.1387431621551514,-0.0,-0.0,-1.0,0.154487926160781,1.0
9.339168548583984,15.190422058105469,-1.1604630947113037,-0.0,-0.0,-1.0,0.1697284959290267,1.0
9.538776397705078,14.90384006500244,-1.166264295578003,-0.0,-0.0,-1.0,0.2047441783633032,1.0
9.40497589111328,15.18435764312744,-1.1561484336853027,-0.0,-0.0,-1.0,0.2018292870466282,1.0
9.39279556274414,14.782480239868164,-1.1855652332305908,-0.0,-0.0,-1.0,0.1729335818928214,1.0
8.025093078613281,15.58944606781006,-0.6232659816741943,-0.0,-0.0,-1.0,0.1410638456546316,1.0
8.922771453857422,14.274184226989746,-0.5776163339614868,0.055831677496019,0.7860529367162934,-0.6156326863216989,0.1282096373581631,3.0
7.992656707763672,15.31378936767578,-0.624419093132019,-0.0,-0.0,-1.0,0.1709369817414864,1.0
8.888538360595703,13.612149238586426,-0.5786702632904053,-0.0,-0.0,-1.0,0.1201931336824973,2.0
8.908100128173828,13.882122993469238,-0.5779455900192261,-0.6523481161877746,0.5712743392759841,-0.4980838931254946,0.1865237841535043,4.0
8.384151458740234,14.514605522155762,-0.6042141914367676,-0.0,-0.0,-1.0,0.0393636330667812,2.0
8.022686004638672,14.754683494567873,-0.6221708059310913,-0.0,-0.0,-1.0,0.0993820335304304,1.0
8.716102600097656,13.41603183746338,-0.5869576930999756,-0.8474372706566378,0.0432196455047227,-0.5291333806749242,0.0650344573835604,4.0
