x,y,z,nx,ny,nz,curvature,density
18.47066879272461,-2.305196762084961,-0.1025739908218383,0.3186917115819148,0.4378485438078812,-0.840668927494235,0.0764316898742275,5.0
18.38180923461914,-0.6351785659790039,-0.3101035356521606,-0.0,-0.0,-1.0,0.0299756208302296,2.0
19.26332664489746,-1.0518732070922852,-0.2701557874679565,0.1700790860772883,0.971756478220478,-0.1635923333033919,0.1143837752384377,3.0
18.496471405029297,-0.5039072036743164,-0.304761528968811,-0.0,-0.0,-1.0,0.0857344347773142,1.0
19.24457359313965,-1.0486202239990234,-0.2703293561935425,-0.0,-0.0,-1.0,0.1302317802725218,2.0
19.235933303833008,-0.948765754699707,-0.1471395492553711,-0.8275208252567574,0.2892328403703791,-0.4812002159368368,0.21911999022096,3.0
18.532367706298828,-1.967818260192871,-0.1938610076904297,0.2311653966098405,0.1986668563445261,-0.952414846377564,0.1113625440572125,4.0
19.57522773742676,-2.0378990173339844,-0.1385732889175415,-0.0,-0.0,-1.0,0.0434413460026646,1.0
19.085742950439453,-1.4263429641723633,0.0836045742034912,-0.0,-0.0,-1.0,0.1232488134883064,1.0
18.624095916748047,-0.6671342849731445,-0.2629873752593994,0.7491531229984716,-0.1484891285620517,-0.645538981782293,0.0265288025657989,3.0
17.97264289855957,-2.350377082824707,0.0960031747817993,-0.0,-0.0,-1.0,0.1719139529951408,2.0
18.199247360229492,-0.8435068130493164,-0.2270929813385009,0.1877705442067555,0.4238536457924817,-0.886053220566756,0.0124572756230134,5.0
17.792011260986328,-0.6903886795043945,-0.2439507246017456,-0.0,-0.0,-1.0,0.0396978679211521,1.0
19.08978271484375,-1.2675399780273438,-0.1925381422042846,-0.291360588072117,0.5834786369125131,-0.7580644352460986,0.0660666566422429,4.0
18.31734085083008,-0.9453306198120116,-0.2235234975814819,-0.2466142331673331,-0.9489432432271456,-0.196693012414866,0.0200827021924195,4.0
19.08469581604004,-1.859697341918945,-0.2065660953521728,-0.0,-0.0,-1.0,0.0306436193223394,1.0
18.972970962524418,-1.757157325744629,-0.2096946239471435,-0.0,-0.0,-1.0,0.0290680602994311,1.0
19.487579345703125,-2.2831497192382812,-0.1966737508773803,0.7118026337734943,0.161093130400942,-0.6836563565789039,0.0413730050941285,3.0
17.891544342041016,-1.2665700912475586,-0.2055799961090088,-0.0,-0.0,-1.0,0.0618314378699207,2.0
18.528621673583984,-1.9471588134765625,-0.194008469581604,-0.1939058942380504,-0.1767599329295626,-0.9649644709990508,0.1114721468785449,4.0
18.427047729492188,-1.781815528869629,-0.1942654848098755,-0.0,-0.0,-1.0,0.0959077601785579,1.0
18.697416305541992,-2.1279373168945312,-0.1910475492477417,0.6393262067082128,-0.5715478094055404,-0.5143880859621612,0.106696493177509,4.0
18.04812812805176,-1.3578863143920898,-0.2015323638916015,-0.0,-0.0,-1.0,0.0417421681563876,2.0
17.74547576904297,-1.17681884765625,-0.2026762962341308,0.2126651604717494,0.19427076471986,-0.9576180864502748,0.0339140118933839,4.0
18.993507385253903,-2.014995574951172,-0.2030742168426513,-0.0,-0.0,-1.0,0.0241319617524967,1.0
18.733972549438477,-1.9301509857177737,-0.2074291706085205,0.6348766355721878,0.2932167968774631,-0.7148115609259968,0.0475630294325163,3.0
19.519880294799805,-2.343873977661133,-0.2023903131484985,-0.0,-0.0,-1.0,0.0416449509167177,2.0
19.681835174560547,-1.5690898895263672,-0.16244637966156,-0.0,-0.0,-1.0,0.0865750707995144,2.0
18.3715763092041,-1.0663585662841797,-0.2033389806747436,0.4148608214711931,-0.5913457055614691,-0.6915206109164462,0.0779349212036946,4.0
18.261947631835938,-1.039621353149414,-0.2074052095413208,-0.3163554745417957,0.1927749158452165,-0.9288471594123034,0.0340148108057795,5.0
17.721900939941406,-0.834228515625,-0.2246567010879516,-0.0,-0.0,-1.0,0.025779132853812,1.0
18.238826751708984,-1.3411502838134766,-0.220272421836853,-0.0,-0.0,-1.0,0.0556012314387888,1.0
17.93374252319336,-1.124495506286621,-0.2260318994522094,0.1441815999122167,0.1720533299888384,-0.9744789981762076,0.0438833566568096,3.0
17.718868255615234,-1.0622100830078125,-0.2336491346359253,-0.0,-0.0,-1.0,0.0464628371879196,2.0
19.60675621032715,-2.333324432373047,-0.1963757276535034,-0.0,-0.0,-1.0,0.0443402014703592,1.0
19.491382598876953,-2.31863784790039,-0.2010761499404907,0.0696520643099596,0.1301581591584646,-0.98904370153287,0.0413730050941285,3.0
18.970304489135746,-1.9490337371826172,-0.2103302478790283,-0.0,-0.0,-1.0,0.0197317669462133,2.0
19.021503448486328,-1.2114238739013672,0.0981972217559814,0.0470539037552666,0.4478589679751051,-0.8928652053617411,0.1655930086033236,4.0
18.00107192993164,-2.1880664825439453,0.0268740653991699,-0.8884449539134424,0.0102587164772935,-0.4588685243095016,0.1418270036723239,5.0
18.00424575805664,-2.2055740356445312,0.0142874717712402,-0.8884449539134424,0.0102587164772935,-0.4588685243095016,0.1096085084524466,5.0
17.721952438354492,-2.044248580932617,0.0118988752365112,-0.0,-0.0,-1.0,0.1031830874407898,2.0
17.761367797851562,-1.058685302734375,-0.2719933986663818,0.1480753321788593,0.8742075625576117,0.4624227866003145,0.0452074840725817,3.0
18.225669860839844,-1.3769760131835938,-0.2646660804748535,-0.0,-0.0,-1.0,0.0524736470432742,1.0
17.969694137573242,-1.1768417358398438,-0.2674726247787475,-0.0,-0.0,-1.0,0.0271069809504703,1.0
19.019855499267575,-1.048419952392578,-0.209672212600708,0.2733564005878051,0.94117502397944,0.1986601431968171,0.2512860520275178,6.0
18.12995719909668,-1.1161518096923828,-0.2566204071044922,0.9222551474437513,-0.0829400250191036,-0.3775796541967469,0.1242393543511806,3.0
18.47187042236328,-1.461965560913086,-0.2567677497863769,-0.0,-0.0,-1.0,0.0311566276781295,1.0
18.274009704589844,-1.3209972381591797,-0.2595566511154175,-0.0,-0.0,-1.0,0.0464277577058812,2.0
17.91891098022461,-2.2629623413085938,0.1155241727828979,0.8318779644550528,0.5102842968698795,-0.218149005549259,0.2132565777927987,4.0
17.955045700073242,-0.6021747589111328,-0.2670934200286865,-0.7876206726978013,-0.5988152320795569,0.1451688457230707,0.1031690356306237,4.0
17.983753204345703,-2.147153854370117,-0.0092803239822387,0.3303180800597517,-0.8367230264015915,-0.4367888998990256,0.0871698658935941,6.0
17.790908813476562,-2.1297760009765625,-0.0084171295166015,-0.178798274109607,-0.6751690907795906,0.715666036661855,0.1427021305463339,4.0
18.29783821105957,-2.247222900390625,-0.0155279636383056,-0.8499254291469867,-0.1134802317494768,-0.5145376583802154,0.131878405862394,3.0
18.198062896728516,-2.2032299041748047,-0.0127192735671997,-0.0758027671887032,-0.9735183802627392,-0.2156754593762296,0.1743356504652532,8.0
19.12551498413086,-0.9743804931640624,-0.0138720273971557,-0.0,-0.0,-1.0,0.1569002768507699,1.0
17.74146270751953,-1.695199966430664,-0.0698213577270507,-0.6374448109389822,-0.6078789977611657,-0.4734419046597435,0.0730990417610401,4.0
18.166553497314453,-1.8656768798828125,-0.0805449485778808,-0.0870653563098532,0.4370887253663188,-0.8951944313322582,0.0320084938965742,4.0
17.90007209777832,-1.7735977172851562,-0.074855089187622,-0.0,-0.0,-1.0,0.043987250446035,1.0
18.64286994934082,-2.293191909790039,-0.1097191572189331,-0.0,-0.0,-1.0,0.0789832118984943,1.0
18.405017852783203,-2.1303138732910156,-0.0987281799316406,-0.0,-0.0,-1.0,0.0871596609961558,1.0
18.036178588867188,-0.5974178314208984,-0.2641196250915527,-0.0,-0.0,-1.0,0.1070441937108294,2.0
17.727664947509766,-0.6825466156005859,-0.2730996608734131,-0.0,-0.0,-1.0,0.0376123013282229,1.0
19.342195510864254,-0.7769279479980469,-0.276712417602539,-0.0,-0.0,-1.0,0.0580843733305594,2.0
18.954200744628903,-0.7506370544433594,-0.2748844623565674,-0.5860325130617083,0.7837377326302437,0.2057208304625056,0.0576738318322415,4.0
18.456993103027344,-0.8404407501220703,-0.2841378450393677,-0.0,-0.0,-1.0,0.0168483518154786,1.0
18.172645568847656,-0.7784156799316406,-0.2796072959899902,-0.0,-0.0,-1.0,0.0706137527940894,1.0
17.75933074951172,-0.9541702270507812,-0.2969398498535156,-0.0,-0.0,-1.0,0.0357728995960887,1.0
19.453838348388672,-0.9758739471435548,-0.2945413589477539,-0.0,-0.0,-1.0,0.0798567798660893,1.0
19.093523025512695,-0.9387168884277344,-0.2914954423904419,0.359147041653306,0.82671885579319,-0.4330696663906132,0.127482837819101,4.0
18.632009506225582,-1.010885238647461,-0.2988308668136596,-0.0,-0.0,-1.0,0.0471645185944318,2.0
19.079010009765625,-0.9110698699951172,-0.0408003330230712,-0.4244290118812701,0.8950699809728184,-0.1367835627361972,0.1324977506855135,8.0
19.001489639282227,-0.9650859832763672,-0.0450578927993774,-0.3404572851379492,0.0371351207212753,-0.9395263805798716,0.2332980323977764,3.0
19.16726303100586,-1.0364608764648438,-0.0504086017608642,-0.0,-0.0,-1.0,0.2123095892675852,2.0
18.06140899658203,-1.741750717163086,-0.1068540811538696,-0.0,-0.0,-1.0,0.0573543493948117,2.0
17.84008026123047,-1.7082672119140625,-0.1050776243209838,0.0365845327713446,0.7565200032722614,-0.6529464423755136,0.0670103781158163,4.0
18.535106658935547,-1.844451904296875,-0.1135566234588623,-0.0,-0.0,-1.0,0.1191325948908521,2.0
18.271547317504883,-1.8238792419433592,-0.1125704050064086,-0.0,-0.0,-1.0,0.0528086409857805,1.0
18.632579803466797,-2.1074066162109375,-0.1336580514907837,-0.7020093305944851,0.0354469696759153,-0.7112850427916205,0.1121860683572236,4.0
18.55561065673828,-2.1404895782470703,-0.1363232135772705,-0.4255659825638759,-0.2807241446904898,-0.8602834120638593,0.0970012619217702,3.0
18.105871200561523,-2.291851043701172,0.5201905369758606,-0.0,-0.0,-1.0,0.0981367248480876,1.0
18.895875930786133,-1.1121034622192385,0.0567078590393066,0.0302209702274942,0.899212862699678,-0.4364664025030547,0.2149199435314139,3.0
17.91504669189453,-2.067460060119629,0.0194612741470336,-0.1929013978773477,-0.9779461149442136,0.0800652668919796,0.1174575530947296,3.0
18.245067596435547,-2.212550163269043,-0.0060904026031494,0.0497264821102169,-0.4858116072037354,-0.8726479010936002,0.1349871777915516,6.0
18.104656219482425,-2.090460777282715,0.0097794532775878,-0.0980291951118143,0.3802127934827342,-0.919689354389723,0.1115117352394263,3.0
17.778451919555664,-1.011033058166504,-0.2394301891326904,-0.0,-0.0,-1.0,0.0409797215674984,1.0
17.71664047241211,-1.0220270156860352,-0.2391692399978637,-0.0,-0.0,-1.0,0.0432603380367342,2.0
18.32043075561523,-0.9401750564575196,-0.2447640895843505,-0.2466142331673331,-0.9489432432271456,-0.196693012414866,0.0105185551316869,4.0
17.976722717285156,-1.039332389831543,-0.2467590570449829,-0.0,-0.0,-1.0,0.0320024579944685,1.0
18.95017433166504,-0.9284610748291016,-0.2591855525970459,-0.0,-0.0,-1.0,0.1453941863672949,1.0
18.650815963745117,-1.0126581192016602,-0.260138988494873,0.4513238555221812,-0.8232312976031841,-0.3443791632534854,0.0478548523143461,4.0
19.4608154296875,-0.9155998229980468,-0.2714911699295044,-0.0,-0.0,-1.0,0.073971853554068,2.0
19.109561920166016,-0.9905691146850586,-0.2696398496627807,-0.0,-0.0,-1.0,0.1557502757488057,2.0
17.87908363342285,-2.3102893829345703,0.2442576885223388,0.1188320318191782,-0.6550235742398651,-0.7462057795298543,0.1041029423891621,3.0
17.845844268798828,-2.1797103881835938,0.0260344743728637,0.7750433240139236,0.4308278429114265,-0.4622717984841124,0.1539911662100302,4.0
19.00560760498047,-1.1688385009765625,0.0632539987564086,0.4842425976818855,-0.1350750146740998,-0.8644442416958373,0.2251701449741174,4.0
18.20293426513672,-2.2144947052001953,0.0082402229309082,-0.2775972573670489,-0.7832023860030687,-0.5563576055572463,0.1311148665374001,11.0
18.151138305664062,-2.26876449584961,0.0057674646377563,-0.0,-0.0,-1.0,0.1475224106336884,1.0
17.984771728515625,-0.400299072265625,-0.2914649248123169,-0.7421323902305816,0.6473841845791591,-0.1735892650120413,0.1313446864870046,3.0
19.029312133789062,-1.1114397048950195,0.0891988277435302,0.3286822007298308,0.919057219793355,0.2174898564740528,0.1994464810433765,12.0
18.087804794311523,-2.226520538330078,0.0295702219009399,0.6725539656845189,0.0294906923852848,-0.7394602506589946,0.1123050200408843,3.0
17.93848419189453,-2.2718210220336914,0.5791993141174316,-0.3538670268767216,0.0872800482905885,-0.9312144331247352,0.0574828119410254,4.0
18.20633125305176,-1.4964704513549805,-0.2005782127380371,-0.0,-0.0,-1.0,0.0455161230953545,1.0
18.58726501464844,-1.50897216796875,-0.2331879138946533,-0.0,-0.0,-1.0,0.0670805877821869,2.0
18.002044677734375,-1.408914566040039,-0.174095869064331,-0.1161967443230755,-0.9679972594048072,-0.2224401546337803,0.048586103862682,4.0
18.432035446166992,-1.4120416641235352,-0.2091233730316162,-0.0,-0.0,-1.0,0.050660814592024,2.0
19.122146606445312,-1.0876493453979492,-0.2293847799301147,0.0772467981431581,0.8620584557063851,0.5008873637074034,0.1663015273117581,4.0
18.77428436279297,-1.3160390853881836,-0.2263648509979248,-0.430051194626724,-0.2449127296600371,-0.8689497826978249,0.1036261453047307,4.0
19.70205307006836,-0.945720672607422,-0.2639443874359131,-0.0,-0.0,-1.0,0.0643808994263911,1.0
19.426441192626953,-1.0367307662963867,-0.2499918937683105,0.3082424835241668,0.7923963836400941,0.5263977037800931,0.116647025831963,5.0
17.96171760559082,-2.2943525314331055,0.240811288356781,0.4167652173750322,-0.6985837850912745,-0.5816248350903614,0.158408185832705,6.0
19.062496185302734,-1.1661930084228516,0.2375229001045227,0.0118358584250962,0.9970857926073527,-0.0753646776408454,0.1042430390633298,6.0
18.107337951660156,-1.403768539428711,-0.245562195777893,-0.0,-0.0,-1.0,0.044920969955756,1.0
18.494401931762695,-1.2606000900268557,-0.2612079381942749,-0.6224975172489464,0.1627048690805165,-0.7655220222804759,0.0497156648865248,3.0
18.80107879638672,-1.208878517150879,-0.2827857732772827,-0.0,-0.0,-1.0,0.0661345922650668,1.0
17.89769744873047,-2.336162567138672,0.1397169828414917,0.8934252970482087,-0.0580989013686534,-0.4454388355925822,0.1696761281574419,3.0
18.55398750305176,-1.0574655532836914,-0.2403727769851684,0.087463406334165,-0.979241137494252,-0.1828577239040977,0.0665424842938319,7.0
18.38146209716797,-1.1100425720214844,-0.2316672801971435,-0.0,-0.0,-1.0,0.096803567365485,2.0
19.031661987304688,-1.0302743911743164,-0.2821364402770996,-0.0,-0.0,-1.0,0.1340082505229174,1.0
19.493507385253903,-0.7285022735595703,-0.2903894186019897,-0.5429490865608054,0.8200179666314324,0.1810437068899051,0.0333980550586802,4.0
19.23877716064453,-0.962697982788086,-0.2940691709518432,-0.0,-0.0,-1.0,0.1475688401834058,1.0
18.06260871887207,-2.245237350463867,0.6136964559555054,0.0513529903533538,0.8252660643644102,0.5624044749024012,0.0950034117024101,5.0
18.025360107421875,-0.5365657806396484,-0.2428137063980102,-0.0,-0.0,-1.0,0.1163776877580149,1.0
17.76228141784668,-2.222752571105957,0.0167725086212158,-0.0,-0.0,-1.0,0.1553098585799945,2.0
18.192554473876953,-0.5243587493896484,-0.2486363649368286,-0.0,-0.0,-1.0,0.0777015295869225,1.0
18.16640853881836,-2.210629463195801,-0.0019229650497436,-0.4763277343597767,-0.8180041485741869,-0.3224610091082349,0.1828694623629028,9.0
18.583030700683594,-0.5247125625610352,-0.2674323320388794,-0.2327061877188442,-0.0404271713256316,-0.9717064752362052,0.019050950614395,3.0
18.369131088256836,-2.303351402282715,-0.0219548940658569,-0.7969308113515192,-0.0343813866290472,-0.6030913713294803,0.0976149353138941,3.0
18.948139190673828,-1.2560644149780271,0.0537550449371337,0.7523981495669377,0.5188977650162072,-0.4057611785144469,0.2475318517581505,4.0
17.72515296936035,-2.1573591232299805,-0.0282280445098876,0.901535348063672,-0.385527804361247,0.1964747522103274,0.1484315375401953,3.0
18.13001251220703,-2.150766372680664,-0.0455460548400878,-0.0,-0.0,-1.0,0.1321289353246272,2.0
18.49281311035156,-2.2748537063598633,-0.0762276649475097,0.6164411262929118,0.2023575381501368,-0.7609545088693163,0.0692896771914648,4.0
18.429706573486328,-2.3532543182373047,-0.0814385414123535,-0.0,-0.0,-1.0,0.0878154370749384,1.0
19.04467010498047,-1.0400714874267578,0.027587890625,-0.9835641730117476,0.1732807493324407,-0.050747408589055,0.1567876668636935,4.0
19.683345794677734,-1.6426048278808594,-0.0737969875335693,-0.5906549055263225,-0.7681225490024887,0.2472135358179462,0.093080139607364,3.0
17.76287841796875,-1.585956573486328,-0.1355489492416381,-0.0,-0.0,-1.0,0.1348578303850159,2.0
17.99798583984375,-1.6707382202148438,-0.149763822555542,-0.0,-0.0,-1.0,0.0237899069451926,2.0
18.28423118591309,-1.7796239852905271,-0.1685222387313842,-0.5943190926238323,-0.428825018692457,-0.6803630791615596,0.0874098734790831,3.0
18.549171447753903,-2.013723373413086,-0.2023713588714599,-0.0,-0.0,-1.0,0.0582735493833973,2.0
18.782617568969727,-2.030951499938965,-0.2110092639923095,-0.0,-0.0,-1.0,0.0534105787165519,2.0
19.398441314697266,-2.0614795684814453,-0.2353525161743164,-0.0,-0.0,-1.0,0.0361052866433125,2.0
19.674182891845703,-1.6766538619995115,-0.2011811733245849,-0.0,-0.0,-1.0,0.0987951320378905,1.0
19.672046661376953,-2.104677200317383,-0.2509839534759521,-0.0,-0.0,-1.0,0.0485337893219218,2.0
19.068866729736328,-1.016950607299805,-0.1021467447280883,0.6138450371985844,0.7570016895937784,0.2239256846787194,0.1701638848318235,5.0
19.09899139404297,-1.1121559143066406,-0.114240288734436,-0.0,-0.0,-1.0,0.1682174759835455,1.0
18.27492904663086,-1.9340028762817385,-0.094396948814392,-0.0,-0.0,-1.0,0.0738901237692799,2.0
18.45169258117676,-2.1591796875,-0.1312215328216552,-0.0,-0.0,-1.0,0.0735457558461618,1.0
18.511886596679688,-1.854233741760254,-0.1005622148513794,-0.0,-0.0,-1.0,0.1124324448901743,2.0
18.70535659790039,-2.204458236694336,-0.1531957387924194,-0.5302299640973819,0.3222212461202428,-0.7842382633626129,0.1294333602295758,5.0
18.95756149291992,-2.27127742767334,-0.1784838438034057,-0.0,-0.0,-1.0,0.028470740754418,1.0
19.37939453125,-2.158261299133301,-0.1966608762741089,0.3739978696175779,0.2631140564463681,-0.889323668200645,0.0456210552508505,3.0
19.68731117248535,-1.624002456665039,-0.1596606969833374,-0.9961059022904912,0.0733461042365882,0.048922187352591,0.093080139607364,3.0
19.64773750305176,-2.120952606201172,-0.2132447957992553,-0.3236710189495032,-0.7750358864847002,-0.5427305465450288,0.0492755793271848,3.0
17.919757843017578,-2.36029052734375,0.3585423827171325,0.0419440321445713,0.9971135339154344,0.0632874288475109,0.1283698610037413,3.0
19.04838752746582,-1.0250558853149414,-0.0431160926818847,0.967214002883772,0.2268168529244111,0.114241795569819,0.1567508870671922,11.0
19.23763656616211,-1.0658082962036133,-0.0614608526229858,-0.0,-0.0,-1.0,0.2335206016331586,1.0
18.384132385253903,-1.943680763244629,-0.1609600782394409,-0.0,-0.0,-1.0,0.0945298257406362,1.0
18.586153030395508,-2.0784788131713867,-0.185279369354248,-0.0,-0.0,-1.0,0.0832199576980219,1.0
18.721458435058594,-2.0954551696777344,-0.1931120157241821,0.6393262067082128,-0.5715478094055404,-0.5143880859621612,0.069114882741071,4.0
19.162242889404297,-2.1358489990234375,-0.2185558080673217,-0.0,-0.0,-1.0,0.03482144650798,1.0
19.39167594909668,-2.064486503601074,-0.2215994596481323,-0.364251044883903,-0.8562049441960936,-0.3663799528292306,0.0361052866433124,3.0
19.565587997436523,-2.0696229934692383,-0.2314540147781372,-0.0,-0.0,-1.0,0.0524286926276565,1.0
18.52810287475586,-1.6036357879638672,-0.1263126134872436,0.9264147643011472,0.1654364836623608,0.3382106656483257,0.1231034146826518,3.0
19.08589744567871,-1.0360984802246094,-0.0829752683639526,0.9508162541695206,0.2657201502328862,0.1591893607225483,0.1705470235040062,6.0
17.899524688720703,-2.2469091415405273,0.0732195377349853,0.1449925572454745,-0.6617364620830177,-0.7355827710688092,0.1975821009704721,5.0
18.0508975982666,-2.2817516326904297,0.0709576606750488,-0.686370900621677,0.2391988180841581,-0.6867888410617412,0.1386776172151804,3.0
17.777372360229492,-1.078073501586914,-0.2404650449752807,0.1480753321788593,0.8742075625576117,0.4624227866003145,0.0477644349636839,3.0
18.138370513916016,-1.1118688583374023,-0.2370113134384155,0.9222551474437513,-0.0829400250191036,-0.3775796541967469,0.078220664821623,3.0
18.54625701904297,-1.3429841995239258,-0.2601003646850586,0.0558824459747298,-0.3235989615420424,-0.9445426746954282,0.0553368970212118,6.0
18.300220489501953,-1.038970947265625,-0.2248194217681884,0.0005867576949094,-0.4798803681669946,-0.8773337380742388,0.0508955974185499,6.0
18.734073638916016,-1.1870002746582031,-0.2382614612579345,-0.0,-0.0,-1.0,0.0565328580910978,1.0
19.1438045501709,-1.1885595321655271,-0.2359437942504882,-0.5170568864485136,0.6860327606199472,-0.5118703229650489,0.0974872176993258,6.0
19.312641143798828,-1.2837162017822266,-0.2480992078781128,0.4128584141778308,0.1979670818385533,-0.8890202271888388,0.0589133093384406,4.0
19.0556640625,-1.054713249206543,-0.2187979221343994,-0.229701393590214,0.0972428275928911,-0.9683909862573344,0.2128009838061045,3.0
19.537521362304688,-1.2267427444458008,-0.2411872148513794,0.9119491270673732,-0.3265361206055682,-0.24844104246465,0.0454075947613483,3.0
17.976980209350586,-2.268702507019043,0.5265712141990662,-0.575087121998478,0.7479342039161551,-0.3314652752911144,0.0822308011947201,9.0
17.8138484954834,-2.2715492248535156,0.1031645536422729,0.1442654798799134,-0.4915271782845523,-0.858829729528877,0.213409970396327,7.0
17.974437713623047,-1.125136375427246,-0.2201238870620727,0.0676938990511614,0.9283124919222682,-0.3655864512975276,0.0298676625467248,3.0
18.431167602539062,-1.3874835968017578,-0.2264430522918701,-0.0,-0.0,-1.0,0.0543204644559971,2.0
18.671894073486328,-1.4676103591918943,-0.2248554229736328,-0.0,-0.0,-1.0,0.0256264797735324,2.0
19.17867660522461,-1.5905351638793943,-0.2202693223953247,-0.0,-0.0,-1.0,0.0319857508042916,1.0
19.458337783813477,-1.6973037719726562,-0.224602460861206,-0.0,-0.0,-1.0,0.0540259242229535,1.0
18.20613670349121,-1.0165481567382812,-0.1948540210723877,-0.0,-0.0,-1.0,0.0220941083221005,2.0
18.454261779785156,-1.0453977584838867,-0.1853519678115844,-0.3573994246784008,-0.5863096309385081,-0.7269846407650566,0.0936719884368023,3.0
18.987895965576172,-1.1414613723754885,-0.1730937957763672,-0.0,-0.0,-1.0,0.1647966587001621,2.0
18.994083404541016,-1.159226417541504,0.2375335693359375,0.0384107540347467,0.9464572219122346,0.3205360214775516,0.1404997153375367,4.0
17.974523544311523,-1.994175910949707,-0.0878742933273315,-0.0,-0.0,-1.0,0.0489530478055668,2.0
18.30917739868164,-2.1346492767333984,-0.0865885019302368,-0.0,-0.0,-1.0,0.1289940921010297,2.0
17.85117530822754,-1.8800764083862305,-0.0832139253616333,0.0243710229860415,-0.0860309739330708,-0.9959943397242484,0.0757263732465823,3.0
19.398372650146484,-0.5740547180175781,-0.3042459487915039,-0.0,-0.0,-1.0,0.0253891614972927,2.0
19.654497146606445,-0.6317377090454102,-0.2999404668807983,-0.2884960300510888,-0.1521149334007793,-0.9453206269204316,0.0312965384253679,3.0
19.207040786743164,-0.4226942062377929,-0.294704794883728,-0.0,-0.0,-1.0,0.040659145504617,2.0
18.027721405029297,-2.2568492889404297,0.3633791208267212,-0.0,-0.0,-1.0,0.1558290507836196,1.0
18.933855056762695,-1.247879981994629,0.018836498260498,0.9283641813321496,0.1211713527319008,-0.3513651236201586,0.1483126993930399,3.0
19.039216995239254,-1.097111701965332,0.0366379022598266,-0.3536320414990715,0.9295368668896437,-0.1044298440015299,0.2286137565041864,9.0
18.441059112548828,-2.0259485244750977,-0.1399518251419067,-0.0,-0.0,-1.0,0.077867408055176,1.0
18.72041130065918,-2.1750307083129883,-0.1306899785995483,0.9107691811772706,-0.4052091344063074,-0.0794043828222037,0.1065443569445544,3.0
18.04391098022461,-1.5421142578125,-0.1351131200790405,-0.0,-0.0,-1.0,0.0377140199817492,2.0
18.389965057373047,-1.6772079467773438,-0.1171785593032836,-0.0,-0.0,-1.0,0.0835300108190836,1.0
17.985984802246094,-1.4297590255737305,-0.1316093206405639,-0.0,-0.0,-1.0,0.0471456356157589,2.0
17.951852798461914,-2.2940454483032227,0.2940294146537781,-0.7989746236879711,-0.0580896658372877,-0.5985525385674821,0.2070644320711364,8.0
19.11945343017578,-0.9102039337158204,-0.0014733076095581,-0.0929157971866673,0.2453620806138498,-0.964968447168097,0.1459456369250192,8.0
18.48703956604004,-2.3129653930664062,-0.0949015617370605,0.3186917115819148,0.4378485438078812,-0.840668927494235,0.0827630345266394,5.0
18.169769287109375,-1.904584884643555,-0.0937323570251464,-0.1027713276664652,0.4135794665910942,-0.90464914692045,0.0391141321510939,5.0
18.298364639282227,-2.0158119201660156,-0.0904264450073242,-0.0,-0.0,-1.0,0.1141977516426237,2.0
18.64588928222656,-2.243173599243164,-0.0781118869781494,-0.0,-0.0,-1.0,0.1076149711483532,2.0
17.988561630249023,-1.732492446899414,-0.0980865955352783,-0.0,-0.0,-1.0,0.0322447105360399,2.0
19.01873016357422,-1.140726089477539,0.0232397317886352,-0.6389712564422042,0.3706905255919517,-0.6740209697606102,0.1443683309650203,8.0
19.10927963256836,-1.0848274230957031,0.0339826345443725,-0.4604029989723878,0.8746508417807898,-0.1517069000058571,0.1979886964439455,3.0
19.640033721923828,-0.50177001953125,-0.3162407875061035,-0.0,-0.0,-1.0,0.0259400060121796,1.0
18.093475341796875,-2.2955245971679688,0.3843902349472046,-0.0,-0.0,-1.0,0.1491373192410059,1.0
19.435577392578125,-2.090792655944824,-0.1332341432571411,-0.0,-0.0,-1.0,0.0479676458725261,1.0
19.654651641845703,-1.5765151977539062,-0.0938431024551391,-0.5710290853895501,-0.7477752852489651,0.3387593635753886,0.1301580312452776,3.0
19.272899627685547,-0.8425731658935547,-0.1707085371017456,-0.0,-0.0,-1.0,0.1593037572323929,1.0
19.191192626953125,-0.395054817199707,-0.1899012327194214,-0.0,-0.0,-1.0,0.0413737732142989,1.0
17.890106201171875,-2.152193069458008,0.1071661710739135,-0.0,-0.0,-1.0,0.2199695187503167,1.0
18.191577911376953,-2.328470230102539,0.1651910543441772,-0.0,-0.0,-1.0,0.1656607941963743,1.0
19.048187255859375,-1.1371994018554688,0.2701669335365295,-0.4244773344254239,0.5599232843481173,-0.7115510580442589,0.1266079191719047,4.0
18.044471740722656,-2.2299203872680664,0.6686221361160278,-0.9141389627337116,-0.1922246511132871,0.3569308620958804,0.0800040371382664,4.0
18.461647033691406,-0.9757051467895508,-0.2384207248687744,-0.0,-0.0,-1.0,0.0351905514695243,2.0
18.623374938964844,-1.125838279724121,-0.2357608079910278,0.3763532370244775,-0.2423543601165223,-0.8942161959580628,0.0298460470788917,3.0
19.090248107910156,-1.1138086318969729,-0.1989095211029052,-0.0,-0.0,-1.0,0.1312155281343135,2.0
17.944679260253906,-0.5796184539794922,-0.2559664249420166,-0.7659287516510118,-0.5308938426835904,0.3626360092364987,0.1225278270965797,3.0
18.29586601257324,-0.8165807723999023,-0.2415293455123901,-0.0,-0.0,-1.0,0.094900090062229,2.0
17.856225967407227,-2.3361215591430664,0.1800893545150756,-0.0,-0.0,-1.0,0.1564899741600468,2.0
18.093536376953125,-2.350931167602539,0.1921708583831787,0.5625063788704062,-0.818909747355084,-0.1139008315023884,0.1709038170040928,4.0
17.92746353149414,-2.1893701553344727,0.0270980596542358,0.6743581700866702,-0.7130941941286139,-0.1916708865149342,0.1720857305611647,6.0
19.419883728027344,-0.42041015625,-0.2989624738693237,-0.0,-0.0,-1.0,0.0262614252622143,2.0
18.194908142089844,-2.2902069091796875,0.0359480381011962,0.8561174037413413,-0.3608203221068398,0.369961736083479,0.128548573866912,4.0
19.02795791625977,-1.1588525772094729,0.138669729232788,0.343188247690907,0.8570888831071619,0.3842140979987102,0.2083283505022141,6.0
18.023849487304688,-2.13626480102539,-0.0119526386260986,0.3650579272443657,-0.6619627236053741,-0.6546281863111318,0.0908895646695659,4.0
18.281383514404297,-2.344087600708008,-0.0024417638778686,-0.0,-0.0,-1.0,0.1594695779995497,1.0
18.124351501464844,-2.119757652282715,-0.0044316053390502,-0.7750074556925305,-0.2368044614010434,-0.5859070665912403,0.1487121246260486,3.0
18.995542526245117,-1.1131467819213867,0.0927299261093139,0.4233746448822736,0.9013543077846484,-0.0911829035996678,0.1740900969800758,14.0
19.697704315185547,-2.3261823654174805,-0.1906988620758056,-0.0,-0.0,-1.0,0.0430507874745131,1.0
17.757396697998047,-2.355105400085449,0.2086734771728515,-0.0,-0.0,-1.0,0.0979823900874597,1.0
17.97516441345215,-2.2580013275146484,0.0317118167877197,-0.0,-0.0,-1.0,0.1177790335269633,2.0
17.918550491333008,-2.2008962631225586,0.0306483507156372,0.4378927740945741,-0.8566110855276258,-0.2728870948706455,0.1465654931885753,6.0
18.16708755493164,-2.323065757751465,0.0390111207962036,-0.0,-0.0,-1.0,0.1312214140436979,2.0
19.110660552978516,-1.169325828552246,0.1180037260055542,-0.0,-0.0,-1.0,0.1838641071083833,1.0
17.820566177368164,-2.1606693267822266,-0.0083743333816528,0.7233559324778901,0.6631518136648755,-0.1923171000770047,0.1260991751849903,4.0
18.05681037902832,-2.2107105255126953,0.002010703086853,0.7158058421386034,0.3428537922926299,-0.6083364804701482,0.0981457302650483,3.0
19.027509689331055,-1.2559728622436523,0.0775414705276489,-0.2782306888470402,0.3729093656868911,-0.8851702032754499,0.1381775175578816,3.0
19.048839569091797,-1.164261817932129,0.0811488628387451,0.223938506155916,0.6086874192015155,-0.761151214389398,0.1985844153945244,5.0
18.73107147216797,-0.3625102043151855,-0.2783600091934204,-0.0,-0.0,-1.0,0.0558691067910196,1.0
18.862382888793945,-0.4239463806152344,-0.273021936416626,-0.3461963078466882,-0.6945570830871567,-0.6306651843623375,0.1123311321220867,3.0
19.39970970153809,-0.9518170356750488,-0.2667843103408813,-0.0,-0.0,-1.0,0.0895480655731603,2.0
17.857614517211914,-2.312429904937744,0.3383462429046631,0.9379531167953148,-0.277245954056159,-0.2082753745728109,0.1824004746084949,5.0
18.051233291625977,-2.2984509468078613,0.3446561694145202,-0.0,-0.0,-1.0,0.1889468139158006,2.0
17.726150512695312,-0.622504711151123,-0.2101384401321411,-0.0,-0.0,-1.0,0.0345061217478112,1.0
18.615339279174805,-1.6883788108825684,-0.2079428434371948,0.0236108485811936,-0.722234408103275,-0.6912452441651864,0.0827903647972205,3.0
18.73811149597168,-1.8286614418029783,-0.2080969810485839,-0.0,-0.0,-1.0,0.0183239484549405,1.0
19.032169342041016,-0.978562831878662,-0.1501944065093994,0.2920488034470779,0.803868039689093,0.5181733987494386,0.2533294049796638,4.0
19.41164207458496,-2.231245517730713,-0.1921366453170776,-0.2415615491799796,-0.1668382047063178,-0.9559356837194336,0.0466729718146276,3.0
18.76756477355957,-0.9775443077087402,-0.2467331886291504,-0.550890344399504,0.3673296293258373,-0.7493922683526558,0.0425201993465153,3.0
19.548559188842773,-1.2224235534667969,-0.2063477039337158,0.9119491270673732,-0.3265361206055682,-0.24844104246465,0.0454075947613482,3.0
17.96257781982422,-2.277982234954834,0.3983374238014221,-0.9627058167660624,-0.2583781335298197,-0.0802387093517543,0.2071286915619195,5.0
17.882282257080078,-2.247241497039795,0.1931049823760986,0.5844396266212901,-0.1925467211036897,-0.7882614306351576,0.1696321887824497,3.0
17.964874267578125,-2.3381147384643555,0.1933590173721313,-0.0,-0.0,-1.0,0.1574830973422117,2.0
19.30512237548828,-1.4468650817871094,-0.1873090267181396,-0.0,-0.0,-1.0,0.0362971093943748,1.0
19.387372970581055,-1.497581958770752,-0.1821727752685547,-0.0,-0.0,-1.0,0.0497282009587001,2.0
19.547306060791016,-2.1627402305603027,-0.1828587055206298,-0.0,-0.0,-1.0,0.0485241487687067,1.0
18.007272720336914,-2.2881174087524414,0.4514809846878052,-0.028686294533233,0.8950909249721626,-0.4449599223957499,0.1559716551143276,4.0
18.25442886352539,-0.7012289762496948,-0.2394723892211914,-0.1647507856187563,0.6182781684989499,-0.7684980709120788,0.0197132047623084,3.0
18.433002471923828,-0.8286380767822266,-0.2281413078308105,-0.0,-0.0,-1.0,0.0188475099120216,1.0
18.71334457397461,-1.4459327459335327,-0.2173141241073608,-0.0,-0.0,-1.0,0.027205654297618,2.0
19.09005355834961,-1.256170392036438,-0.1867892742156982,-0.291360588072117,0.5834786369125131,-0.7580644352460986,0.0829161019325475,4.0
18.88329315185547,-1.631977915763855,-0.2083996534347534,-0.2169880808802815,-0.6623333824461446,-0.7170987820749254,0.1215871845099878,3.0
18.9901123046875,-1.9499026536941528,-0.2069079875946045,-0.0,-0.0,-1.0,0.0205775529880396,2.0
19.094099044799805,-1.048575758934021,-0.1831854581832885,-0.7480944410834202,0.3899554550320189,-0.5369259262792745,0.2101368618955842,4.0
19.388275146484375,-2.1209421157836914,-0.1818850040435791,-0.1774749343469374,0.8016293338441434,-0.5708704395912836,0.0497837849578454,4.0
19.397674560546875,-2.2562193870544434,-0.1842484474182129,-0.0,-0.0,-1.0,0.0436407253632114,2.0
19.658618927001953,-0.922176957130432,-0.1402294635772705,-0.0,-0.0,-1.0,0.1635319660666992,1.0
18.431657791137695,-0.5021158456802368,-0.2111619710922241,-0.0,-0.0,-1.0,0.0231168482622463,1.0
18.94269371032715,-0.9840165972709656,-0.1713945865631103,-0.0,-0.0,-1.0,0.1544239221847877,2.0
18.889846801757812,-1.195900797843933,-0.1742177009582519,-0.0,-0.0,-1.0,0.231985358857433,2.0
18.963584899902344,-1.6867177486419678,-0.1674294471740722,-0.0,-0.0,-1.0,0.0905153401307091,1.0
19.25816535949707,-1.8346681594848633,-0.1460353136062622,-0.0,-0.0,-1.0,0.0394546353802873,1.0
19.534996032714844,-2.320317268371582,-0.1261231899261474,-0.0,-0.0,-1.0,0.0480809815173363,1.0
18.011154174804688,-0.6679953336715698,-0.2405351400375366,-0.6089637025446145,0.4555842587330959,-0.6493120915074432,0.0869845051547121,3.0
17.83580207824707,-0.8165626525878906,-0.252204418182373,-0.0,-0.0,-1.0,0.0196762760086864,1.0
18.318838119506836,-1.463956594467163,-0.213528037071228,0.3578937609766799,0.7947033002086487,-0.4902639294211328,0.0520347595812415,3.0
18.41265106201172,-1.8914272785186768,-0.2053258419036865,-0.0,-0.0,-1.0,0.104400681776834,2.0
19.024015426635746,-1.199463129043579,-0.1635632514953613,-0.6897450251356215,0.7206935794750674,0.0696603531721944,0.158652420996077,3.0
18.677387237548828,-2.303335666656494,-0.185577392578125,-0.1164857353782841,0.4580853182978528,-0.881242823864873,0.0917165785721272,3.0
19.67426300048828,-1.648712396621704,-0.1144750118255615,-0.9889178394610912,0.1416668513573493,-0.044407319465399,0.0930801396073641,4.0
18.10510635375977,-2.264195442199707,0.0438038110733032,-0.7929461481768025,-0.6053201570127575,-0.0694543994691685,0.1419536493588653,4.0
17.81829833984375,-1.646747589111328,-0.0893950462341308,0.7017164786392717,0.0096144012121778,-0.7123914281456728,0.0438240205086565,5.0
19.09216690063477,-0.913274884223938,-0.0074473619461059,-0.159804345725717,0.9797201605500622,-0.1208758788962296,0.1459456369250191,10.0
19.051504135131836,-1.0997591018676758,-0.0084584951400756,-0.8495985988383776,0.5260424742452454,0.0382300423986891,0.2121969472723608,6.0
17.99454116821289,-1.8278543949127195,-0.07614266872406,-0.5928780907880348,-0.6922180246155413,0.4114969937446598,0.0321100096925303,3.0
18.320161819458008,-2.2506184577941895,-0.0516537427902221,-0.0,-0.0,-1.0,0.123658431286763,2.0
18.058757781982425,-2.2344725131988525,0.6192907094955444,0.0513529903533538,0.8252660643644102,0.5624044749024012,0.0950034117024103,5.0
19.060632705688477,-0.4918782711029053,-0.2798234224319458,-0.4354846217347463,0.716659130109535,-0.5447502505398137,0.0700952215026934,6.0
19.415491104125977,-1.054778814315796,-0.2453051805496215,0.1168102300267463,0.9926125967276384,-0.0327963866716023,0.1180983485418192,4.0
19.606616973876953,-1.2957587242126465,-0.2276434898376464,-0.0,-0.0,-1.0,0.0311562842389403,2.0
19.47565269470215,-1.1252548694610596,-0.2397589683532714,-0.0,-0.0,-1.0,0.064413214156042,2.0
19.52920913696289,-1.8184356689453125,-0.2313809394836425,-0.0,-0.0,-1.0,0.0506034334718871,1.0
19.647531509399418,-2.263434886932373,-0.2201663255691528,-0.0,-0.0,-1.0,0.0430507874745131,1.0
17.94823455810547,-2.3102636337280273,0.3212196230888366,-0.0554271452926157,0.5608552873813865,-0.8260564013316849,0.228143435823138,8.0
18.21517562866211,-0.4055750370025635,-0.2756507396697998,-0.0,-0.0,-1.0,0.0643392084424984,1.0
18.396495819091797,-0.6203782558441162,-0.2582790851593017,-0.0,-0.0,-1.0,0.024074252680628,2.0
18.621788024902344,-1.4729949235916138,-0.2300887107849121,-0.0,-0.0,-1.0,0.0413564240131112,2.0
18.4650936126709,-1.29353928565979,-0.2443763017654419,-0.6224975172489464,0.1627048690805165,-0.7655220222804759,0.0554454823154721,3.0
18.721752166748047,-1.7075930833816528,-0.2198596000671386,-0.0,-0.0,-1.0,0.0306775288254672,1.0
19.261632919311523,-0.939617156982422,-0.1858363151550293,-0.0,-0.0,-1.0,0.1848396505664489,2.0
19.12238121032715,-1.0195846557617188,-0.1957712173461914,-0.5960430853690036,0.1179673757984029,-0.7942394718414826,0.2278735898087326,4.0
19.12103271484375,-1.1752698421478271,-0.1939551830291748,-0.7040290875809524,0.3285935560122577,-0.6295786835552414,0.0980123834510799,6.0
18.95704460144043,-2.16780424118042,-0.1974282264709472,-0.0,-0.0,-1.0,0.0320397361128406,1.0
17.8573055267334,-2.288680076599121,0.3906103372573852,-0.6909684625896255,-0.581296448807445,-0.4297173749226142,0.1400722378077539,5.0
18.933835983276367,-1.114283800125122,0.0548442602157592,-0.1187545700361502,0.9929235551749824,0.0004070309605122,0.2299216193657735,6.0
17.748462677001953,-1.9026464223861697,-0.026265263557434,-0.0,-0.0,-1.0,0.1105981136846425,2.0
18.192874908447266,-2.1543948650360107,0.0054309368133544,-0.4557358314978665,0.1690111085351037,-0.8739222488761135,0.2024158458215708,4.0
17.85373306274414,-1.9794049263000488,-0.0187199115753173,-0.0,-0.0,-1.0,0.08684830091714,1.0
18.020910263061523,-2.1847877502441406,0.6277613639831543,-0.0,-0.0,-1.0,0.0827076389067479,2.0
18.935321807861328,-0.9228911399841307,-0.0036519765853881,-0.0,-0.0,-1.0,0.1600581834701583,1.0
18.20880126953125,-2.0605015754699707,-0.0848428010940551,-0.0,-0.0,-1.0,0.0920007638289335,2.0
18.087955474853516,-1.8787723779678345,-0.0900523662567138,0.942988651583628,-0.2585852849076745,-0.2095377135832772,0.03794655834609,3.0
17.83493423461914,-2.0637423992156982,0.5265473127365112,-0.0,-0.0,-1.0,0.1783297621315662,1.0
17.978071212768555,-0.3983018398284912,-0.2553702592849731,-0.0,-0.0,-1.0,0.1044305110153932,2.0
18.371627807617188,-0.6875741481781006,-0.2292896509170532,-0.0,-0.0,-1.0,0.0298810976069892,2.0
18.073089599609375,-0.4798793792724609,-0.2494415044784546,-0.0,-0.0,-1.0,0.1368924235699211,1.0
19.05712127685547,-0.9844567775726318,-0.1771308183670044,0.3697055138382707,0.9089850170826972,-0.1925203151793305,0.2363869555118764,7.0
19.0296573638916,-1.1918017864227295,-0.1869622468948364,-0.6897450251356215,0.7206935794750674,0.0696603531721944,0.1280421433295349,3.0
18.763961791992188,-1.3669893741607666,-0.2176107168197631,-0.0,-0.0,-1.0,0.0462922487250705,2.0
18.883495330810547,-1.534841537475586,-0.2129274606704712,-0.0,-0.0,-1.0,0.0636799612881579,1.0
19.49079132080078,-2.249480724334717,-0.1853959560394287,0.2915961544201167,0.2786860832477695,-0.9150441244723756,0.0434128748183852,3.0
19.35508155822754,-2.062324285507202,-0.1902706623077392,-0.0,-0.0,-1.0,0.0385084119555055,2.0
17.870203018188477,-2.26375150680542,0.3034262657165527,0.6859925364221359,-0.5964026927984354,-0.4167949951665687,0.1169780001988673,3.0
17.767473220825195,-2.191985607147217,0.3007557392120361,-0.0,-0.0,-1.0,0.1406794185272666,1.0
19.388072967529297,-0.4766547679901123,-0.2607921361923218,-0.8502251400756609,0.4631411672829623,-0.2502348304115517,0.0319754571360852,3.0
19.58533477783203,-0.6354598999023438,-0.2413315773010254,-0.0,-0.0,-1.0,0.0306982155302888,1.0
17.878171920776367,-2.2705230712890625,0.1957443952560424,-0.6507887741940562,-0.2169150385199499,-0.7276137969052583,0.2085892040194706,5.0
18.970958709716797,-1.085620641708374,0.1061755418777465,0.2257896834623236,0.4492265960767003,-0.8644156894800815,0.1855435670484359,6.0
18.05130958557129,-2.164933443069458,0.0213377475738525,-0.1626442598564135,-0.0341665813422967,-0.986093043001085,0.0818698794112403,5.0
18.005956649780273,-2.169368267059326,0.5940679311752319,-0.0,-0.0,-1.0,0.0827076389067479,2.0
19.69081115722656,-0.3933792114257812,-0.2982949018478393,-0.0,-0.0,-1.0,0.1510710138121962,1.0
18.110326766967773,-2.248504877090454,0.0725225210189819,0.1077434129237133,-0.8519269162628069,0.5124567165317424,0.1470651148777535,4.0
18.766870498657227,-1.6930761337280271,-0.1958011388778686,-0.0,-0.0,-1.0,0.0753074728368821,1.0
18.600933074951172,-1.82586669921875,-0.1894781589508056,-0.0,-0.0,-1.0,0.0500242273979892,1.0
18.61807632446289,-1.9868214130401611,-0.166890263557434,-0.0,-0.0,-1.0,0.0575949680828102,2.0
18.93849754333496,-1.589214324951172,-0.1982008218765258,-0.0,-0.0,-1.0,0.0979089953469118,2.0
17.791933059692383,-2.2955615520477295,0.3577343225479126,-0.0,-0.0,-1.0,0.1907739641702698,2.0
19.645214080810547,-1.1111130714416504,-0.2187174558639526,-0.0,-0.0,-1.0,0.0738525881018878,2.0
19.263103485107425,-1.5370488166809082,-0.1832423210144043,-0.0,-0.0,-1.0,0.0316860367804853,1.0
19.041942596435547,-1.1688175201416016,0.2635737657546997,-0.0417502025379199,0.9825714007047897,-0.1811363108409532,0.1266079191719047,5.0
17.982463836669922,-2.289907693862915,0.3642892837524414,-0.7013040056263593,-0.693060086953937,-0.1668544502367992,0.2419960962006805,3.0
19.021440505981445,-1.1516594886779783,0.1365655660629272,-0.6638871858125395,-0.4789824260190903,-0.5743079662330771,0.1998014127227425,7.0
18.04305648803711,-2.122405529022217,0.0007330179214477,0.5040462330370125,-0.3638088442273227,-0.7833138067359577,0.1218251881643029,4.0
17.994781494140625,-2.249783992767334,0.5196494460105896,-0.6640896655178012,0.7476517565704272,0.0013293041825194,0.1005593108946012,7.0
18.281597137451172,-0.8001766204833984,-0.0354890823364257,-0.0,-0.0,-1.0,0.086477239129968,1.0
18.17850112915039,-1.142611026763916,-0.0062388181686401,-0.0,-0.0,-1.0,0.0775126323727615,1.0
18.213298797607425,-1.492877960205078,0.0307029485702514,-0.0,-0.0,-1.0,0.1362091470622633,1.0
18.860780715942383,-0.3806633949279785,-0.048537254333496,-0.0,-0.0,-1.0,0.1038124249904702,1.0
18.97227668762207,-0.877284049987793,0.0138443708419799,-0.0,-0.0,-1.0,0.1221030575396567,1.0
18.643951416015625,-0.8618268966674805,-0.0071967840194702,-0.0,-0.0,-1.0,0.1326750636652101,1.0
19.57490921020508,-1.3570303916931152,0.1014189720153808,-0.0,-0.0,-1.0,0.0948769139573714,1.0
18.25365447998047,-1.6595478057861328,0.0492160320281982,-0.0,-0.0,-1.0,0.2561834599634598,1.0
18.48596954345703,-1.9922370910644531,0.0950989723205566,-0.0,-0.0,-1.0,0.1248068390961409,1.0
18.286155700683594,-2.200942039489746,0.1003013849258422,-0.0,-0.0,-1.0,0.2013081367770782,1.0
17.74681854248047,-2.0731968879699707,0.5628875494003296,-0.0,-0.0,-1.0,0.1342818020681344,1.0
19.70577049255371,-0.9971485137939452,-0.2448844909667968,-0.0,-0.0,-1.0,0.0576198478070398,2.0
19.373699188232425,-2.1075949668884277,-0.1362663507461547,-0.0,-0.0,-1.0,0.0385493690360062,2.0
19.196298599243164,-2.166271209716797,-0.1415828466415405,-0.0,-0.0,-1.0,0.0360661404322075,1.0
18.590547561645508,-1.2942566871643066,0.1978857517242431,-0.0,-0.0,-1.0,0.0846141481506644,1.0
17.868194580078125,-2.157449722290039,-0.0850685834884643,-0.0,-0.0,-1.0,0.1124064656263707,1.0
18.955183029174805,-1.1593585014343262,-0.046462059020996,-0.0,-0.0,-1.0,0.2026637613502511,1.0
17.97086524963379,-2.3028311729431152,0.4241098165512085,-0.6841016027590741,-0.4660411006153659,0.561079931595922,0.1615771351019456,4.0
18.952186584472656,-1.2208366394042969,0.0879952907562255,0.8887428959431463,-0.0413426479125606,-0.4565378958795947,0.1321193465427682,4.0
18.061107635498047,-2.2557966709136963,0.0697935819625854,0.3091280232148981,-0.6353948027260957,0.7076109877128217,0.1684641939288226,5.0
17.944068908691406,-2.2859947681427,0.5559966564178467,-0.6715320912488413,0.3676243921382841,-0.6433482390804494,0.03942500868252,5.0
19.087547302246097,-0.8342118263244629,0.0230448246002197,-0.2582493773652754,0.4668306352877289,-0.8457992770434971,0.1668588463041245,3.0
18.988101959228516,-1.0739035606384275,0.0275698900222778,0.9730736755907916,0.2222977947475562,-0.0609205410563638,0.2071219918418612,9.0
18.177087783813477,-2.2175257205963135,0.0201956033706665,-0.5751581075981923,-0.5198807795469443,-0.6315988650415132,0.1628141164730142,9.0
17.80027961730957,-1.831220626831055,-0.0304828882217407,-0.0,-0.0,-1.0,0.070090701954221,2.0
19.661046981811523,-1.621769666671753,-0.062337040901184,-0.0,-0.0,-1.0,0.1431948804500241,2.0
19.19650077819824,-0.8903045654296875,-0.1441898345947265,-0.0,-0.0,-1.0,0.1771647669469536,1.0
18.91421890258789,-0.596095085144043,-0.1891874074935913,-0.0,-0.0,-1.0,0.048511870081333,1.0
18.97168731689453,-0.9563963413238524,-0.168825626373291,0.2611447582291265,-0.1860300612474228,-0.9472044296569412,0.1452021712022373,3.0
18.50858688354492,-0.6486480236053467,-0.2358694076538086,-0.0,-0.0,-1.0,0.023842823671916,1.0
18.616064071655273,-1.5880537033081057,-0.1907368898391723,-0.0,-0.0,-1.0,0.0896411521200605,1.0
18.4791259765625,-1.3490734100341797,-0.2150299549102783,-0.0,-0.0,-1.0,0.0558289471009258,1.0
18.721511840820312,-2.120783805847168,-0.1622792482376098,0.7029102131256183,-0.5490109453752074,-0.4522214215867257,0.1138794385822127,3.0
18.590499877929688,-1.7729411125183103,-0.1882487535476684,0.3076798870178218,-0.2028346632142189,-0.929618839376373,0.0771451436212881,3.0
18.121910095214844,-2.3378491401672363,0.1899713277816772,-0.0531726697447963,-0.0523385003204787,-0.9972127900184664,0.2122364478655045,3.0
17.844709396362305,-2.24035906791687,0.1635662317276001,0.570921140455924,-0.4439117672179385,-0.690645635840808,0.1662798012908026,4.0
18.025035858154297,-2.2287161350250244,0.6012063026428223,0.0513529903533538,0.8252660643644102,0.5624044749024012,0.0800040371382663,5.0
17.879287719726562,-2.2858774662017822,0.5939401388168335,-0.0,-0.0,-1.0,0.0562150012979546,2.0
19.201173782348633,-0.8958280086517334,-0.2107670307159423,-0.0,-0.0,-1.0,0.2021563652899949,1.0
18.938159942626953,-0.5467743873596191,-0.277796983718872,-0.0,-0.0,-1.0,0.0473947908643034,1.0
19.04283905029297,-1.0325300693511963,-0.2135282754898071,-0.3846914879221122,0.2864443092335834,-0.8774748525330892,0.2518133699436128,6.0
18.996625900268555,-0.9444105625152588,-0.2280118465423584,-0.864216689029031,0.0576993001613731,-0.4998002652706249,0.1747107523137019,3.0
18.57483673095703,-0.6611919403076172,-0.304923415184021,0.2569608772458972,-0.9590619776313618,0.1190429780660738,0.0159710614831883,3.0
18.488494873046875,-1.104198694229126,-0.2673845291137695,0.4645245437102326,-0.0843199176359403,-0.881536782999251,0.0916138785142176,3.0
18.37737274169922,-1.7058632373809814,-0.2194900512695312,-0.0,-0.0,-1.0,0.0780609198289777,2.0
18.28902053833008,-1.4743402004241943,-0.2521264553070068,-0.0,-0.0,-1.0,0.0539747994015708,2.0
18.54149627685547,-2.2574892044067383,-0.1491050720214843,-0.0,-0.0,-1.0,0.0687667293533061,1.0
18.35580062866211,-1.9314709901809692,-0.2003439664840698,-0.0,-0.0,-1.0,0.0794730566182939,1.0
19.03032684326172,-1.1487195491790771,0.158078908920288,0.4870259468854978,0.659660048076762,-0.5724109957291598,0.1432007116259101,5.0
17.91584014892578,-2.2867836952209473,0.1725871562957763,-0.7795879742096923,-0.0756309021206314,-0.6217093831623001,0.2687145462147129,8.0
17.765830993652344,-2.245847463607788,0.157313585281372,-0.0,-0.0,-1.0,0.1246391937023763,2.0
17.954668045043945,-2.2429819107055664,0.5586689114570618,-0.5448180579277931,0.5251898719640105,-0.6537192686025202,0.0743348997812255,6.0
19.283483505249023,-0.6651716232299805,-0.2680569887161255,-0.0,-0.0,-1.0,0.0363500182986139,1.0
19.286392211914062,-0.4000463485717773,-0.3059366941452026,-0.0,-0.0,-1.0,0.0279551206550903,1.0
19.110790252685547,-1.212754487991333,-0.2169737815856933,0.8319489346360476,0.0855312213096749,0.5482201932975658,0.0822087361374588,5.0
19.073843002319336,-0.911064386367798,-0.2619680166244507,0.3995397397207956,0.7867590263056471,-0.4705084812311346,0.1901252615074442,3.0
19.10988998413086,-1.2765733003616333,-0.2089011669158935,-0.4578972590804292,0.4098109023246468,-0.7889138891301692,0.0444781539753059,3.0
18.80331039428711,-1.3132017850875854,-0.2454836368560791,-0.3622767974449952,-0.6687508622810852,-0.6492517279386352,0.1083729508357369,3.0
18.593292236328125,-1.6671011447906494,-0.2309274673461914,-0.3925354109683182,-0.8314571758968945,-0.3931855996669953,0.0923453962790139,3.0
18.598913192749023,-1.4247159957885742,-0.2592308521270752,-0.0,-0.0,-1.0,0.0280699978054506,1.0
18.640628814697266,-2.214726209640503,-0.163008451461792,-0.0,-0.0,-1.0,0.110162435353186,1.0
