x,y,z,nx,ny,nz,curvature,density
21.9888973236084,20.267841339111328,-1.603327751159668,-0.0,-0.0,-1.0,0.1173686749660237,2.0
21.750394821166992,21.482759475708008,-1.3712034225463867,-0.0,-0.0,-1.0,0.1193464343869459,1.0
22.129377365112305,20.955583572387695,-1.4341773986816406,-0.0,-0.0,-1.0,0.1379087735859521,2.0
22.84518241882324,19.685625076293945,-1.428572654724121,-0.0,-0.0,-1.0,0.1861943305927986,1.0
22.969406127929688,20.076061248779297,-1.482198715209961,-0.0,-0.0,-1.0,0.1940940211499986,1.0
22.120929718017575,20.94842529296875,-1.4199166297912598,-0.8767239435437296,0.3209818049928896,-0.3582259170979078,0.1379087735859521,3.0
22.378881454467773,20.757295608520508,-1.444875717163086,-0.0,-0.0,-1.0,0.1177224356438973,2.0
22.81035423278809,20.719263076782227,-1.5115842819213867,-0.0,-0.0,-1.0,0.0609701367293943,2.0
21.94487571716309,21.144296646118164,-1.4088506698608398,-0.5008004024555324,-0.0202107882705481,-0.8653268058588385,0.1052139951912744,3.0
22.21363067626953,21.559934616088867,-1.4888992309570312,0.8167301212152863,-0.2812553396575093,-0.5038326537788145,0.1245414130467049,4.0
22.463672637939453,21.181304931640625,-1.2242584228515625,-0.3845917264723312,0.547631670062032,-0.7430940437616906,0.1100725166057339,5.0
22.80133819580078,19.741132736206055,-1.5012497901916504,-0.0,-0.0,-1.0,0.135578616977141,1.0
22.90542221069336,19.64672088623047,-1.5020785331726074,-0.0,-0.0,-1.0,0.2011397432758393,1.0
22.657875061035156,19.9322509765625,-1.5101547241210938,-0.0,-0.0,-1.0,0.0717253570780623,2.0
21.933198928833008,20.529848098754883,-1.4990901947021484,-0.0,-0.0,-1.0,0.0377856973058801,1.0
22.31155776977539,20.331628799438477,-1.522836685180664,-0.0,-0.0,-1.0,0.0730074478900693,1.0
21.7812442779541,20.78699111938477,-1.519327163696289,0.1280358054617285,-0.9403240084800214,-0.3152738358884718,0.048729127952714,3.0
22.753355026245117,19.653711318969727,-1.3612918853759766,-0.0,-0.0,-1.0,0.1318944545327123,1.0
22.881393432617188,19.949363708496097,-1.4361419677734375,0.878408557862419,-0.4604077430779335,0.1281527041772782,0.2503235932369151,3.0
23.43729782104492,20.044036865234375,-1.5182828903198242,-0.0,-0.0,-1.0,0.0149932851166214,2.0
21.846113204956055,20.479848861694336,-1.4337053298950195,-0.0,-0.0,-1.0,0.1021090432559752,1.0
22.073522567749023,20.3287296295166,-1.4262089729309082,-0.0,-0.0,-1.0,0.1287228168142322,1.0
22.59314346313477,20.2476749420166,-1.465590476989746,-0.0,-0.0,-1.0,0.0441699178968242,1.0
22.17067527770996,21.028282165527344,-1.2275700569152832,-0.0023616824554649,0.5348317258233817,-0.8449552932012215,0.1124984495685683,4.0
21.9603271484375,21.205007553100582,-1.2473039627075195,-0.0,-0.0,-1.0,0.1489485440122246,1.0
22.06179428100586,21.11128616333008,-1.2359294891357422,-0.499358104380517,0.3367703729448796,-0.7982651185515148,0.0732570749087196,4.0
22.083759307861328,21.29286766052246,-1.1976032257080078,-0.0,-0.0,-1.0,0.0923798168586967,1.0
22.21534538269043,21.239498138427734,-1.1993541717529297,-0.0695319140730582,-0.9613095889041646,0.2665505340573211,0.1028574012978031,3.0
23.030454635620117,21.043664932250977,-1.596383571624756,-0.0,-0.0,-1.0,0.1136760720344177,1.0
22.236515045166016,20.74971389770508,-1.4397573471069336,-0.0,-0.0,-1.0,0.1041420620746182,2.0
22.788299560546875,20.95708465576172,-1.549102783203125,-0.0,-0.0,-1.0,0.0638599776759051,1.0
21.911102294921875,20.9918270111084,-1.448084831237793,0.9381757008536395,-0.0409316052670811,-0.3437309384068335,0.0720432720083048,3.0
22.42453384399414,21.372283935546875,-1.2084527015686035,0.2281438854951083,0.6666825714056194,-0.7095665694599669,0.0704082807167994,3.0
22.26110076904297,21.378665924072266,-1.2029342651367188,0.1789902936521857,-0.9836255821415916,0.0210520529858594,0.1448593773405602,3.0
23.60160446166992,20.22335433959961,-1.601421356201172,-0.0,-0.0,-1.0,0.0255177980630214,2.0
22.861024856567383,19.913393020629883,-1.425757884979248,0.878408557862419,-0.4604077430779335,0.1281527041772782,0.2502256275790444,3.0
23.076904296875,20.381147384643555,-1.556427001953125,0.1811994793047148,-0.9670304602870264,-0.1789380830811665,0.0453360610232363,3.0
22.65461540222168,20.441343307495117,-1.507760524749756,-0.0,-0.0,-1.0,0.0386739767538729,2.0
22.260929107666016,20.533418655395508,-1.471362590789795,-0.0,-0.0,-1.0,0.1185088821877416,2.0
21.95827865600586,20.66947364807129,-1.458512783050537,-0.0,-0.0,-1.0,0.1015823198972286,1.0
21.822948455810547,20.899810791015625,-1.490224838256836,-0.0,-0.0,-1.0,0.0273190389447607,2.0
22.853485107421875,19.65451431274414,-1.5214014053344729,-0.0,-0.0,-1.0,0.1848448814348919,2.0
22.536319732666016,19.726383209228516,-1.4883360862731934,-0.0,-0.0,-1.0,0.0676361704402336,1.0
22.47080993652344,19.962303161621097,-1.53248929977417,-0.0,-0.0,-1.0,0.0206831689739058,1.0
22.20844841003418,20.00121307373047,-1.5016546249389648,-0.0,-0.0,-1.0,0.0334453662942476,1.0
22.25672149658203,20.09767723083496,-1.531505107879639,-0.0,-0.0,-1.0,0.0426942958449877,1.0
21.864017486572266,20.233638763427734,-1.504934787750244,-0.0,-0.0,-1.0,0.1107563791615075,1.0
22.877193450927734,21.10487365722656,-1.4508635997772217,0.2011456738115075,-0.7627341195163214,-0.6146357301951919,0.0914235380396223,4.0
22.348064422607425,20.80266571044922,-1.3322298526763916,-0.6261519049782572,0.4401937307292093,-0.6435551812539464,0.1600204234787524,4.0
22.440296173095703,20.859882354736328,-1.3537309169769287,-0.6040994209425465,0.7767245269778821,-0.1782214880643338,0.1172302855036788,4.0
22.079593658447266,21.059261322021484,-1.3559715747833252,-0.0572376253509858,0.921161626711831,-0.3849481935505002,0.1514144116971828,3.0
22.69109344482422,20.643795013427734,-1.4383528232574463,0.228417872973976,-0.8451315583129156,-0.4832990010848641,0.1725714543170753,3.0
22.89166831970215,20.70656967163086,-1.4732372760772705,0.1174513830238287,0.6182479980879877,-0.7771580183501838,0.127861847577843,4.0
22.557289123535156,20.65975570678711,-1.4251692295074463,-0.0,-0.0,-1.0,0.1027402257554256,2.0
22.44430923461914,20.697040557861328,-1.4183070659637451,0.2734462563918106,-0.1293786112471435,-0.9531465363820316,0.1278918343773099,3.0
22.10015106201172,20.855297088623047,-1.4061810970306396,-0.5143022714463827,-0.813033874054007,0.2728902585762716,0.1418919870821701,4.0
21.95378303527832,21.09143829345703,-1.4314157962799072,-0.2085215046813377,0.8520188966836543,-0.4801901516893064,0.1067145057314207,5.0
22.97569274902344,19.68328857421875,-1.310364007949829,-0.0,-0.0,-1.0,0.1914020218661472,2.0
23.146211624145508,20.86073303222656,-1.5591185092926023,-0.0,-0.0,-1.0,0.0789880125899568,1.0
22.66830062866211,20.651460647583008,-1.4625298976898191,0.228417872973976,-0.8451315583129156,-0.4832990010848641,0.1332884254939412,3.0
22.36706161499023,20.71170425415039,-1.433211088180542,0.0145092111226295,-0.2513703994309114,-0.9677822095298833,0.1164251805022694,3.0
22.06480598449707,20.876197814941406,-1.4217298030853271,-0.5601039974223698,-0.8148061214193535,0.1495810702229103,0.1623051887394312,4.0
21.916418075561523,21.086454391479492,-1.438183069229126,0.3919649804572084,0.8938863480818191,-0.2175560865802861,0.0788047060198219,5.0
22.65273666381836,19.76009750366211,-1.495075225830078,-0.0,-0.0,-1.0,0.129498182555841,2.0
22.42464256286621,19.810314178466797,-1.4657840728759766,-0.0,-0.0,-1.0,0.0295191292740826,1.0
22.280471801757812,20.18451881408691,-1.5025458335876465,-0.0,-0.0,-1.0,0.0562224140202467,1.0
21.86626434326172,20.32417106628418,-1.4604873657226562,-0.0,-0.0,-1.0,0.0963898092573156,2.0
21.78651428222656,20.53246307373047,-1.482923984527588,-0.0,-0.0,-1.0,0.0718573135726523,2.0
23.584659576416016,20.524356842041016,-1.4637885093688965,-0.0,-0.0,-1.0,0.0285863430877251,1.0
23.429885864257812,20.61312484741211,-1.449510097503662,-0.0,-0.0,-1.0,0.0526165863057396,1.0
23.231769561767575,20.713607788085938,-1.4298410415649414,-0.0,-0.0,-1.0,0.0858073997069724,1.0
22.92074203491211,19.75263786315918,-1.2411837577819824,-0.3346030500989921,-0.2453910250121967,-0.9098483630297493,0.1544456675461349,4.0
23.03243637084961,20.749774932861328,-1.401247501373291,-0.0,-0.0,-1.0,0.1405440505096779,1.0
22.60845947265625,20.662906646728516,-1.3176493644714355,-0.0,-0.0,-1.0,0.2563302459369981,1.0
22.19045639038086,20.797618865966797,-1.2689223289489746,-0.5759582574421905,0.0935148465555107,-0.8121127133334725,0.1841042457903675,4.0
22.107561111450195,20.946693420410156,-1.2781038284301758,-0.0,-0.0,-1.0,0.1588615316725984,1.0
22.26064682006836,21.587474822998047,-1.4012036323547363,-0.0,-0.0,-1.0,0.1346983730145529,2.0
22.02350616455078,21.043529510498047,-1.2794685363769531,0.1727724926694032,0.9777317796879124,0.1191227634212244,0.1125693724629896,3.0
22.25378799438477,20.893878936767575,-1.2685632705688477,-0.0,-0.0,-1.0,0.2098695125731296,2.0
22.150558471679688,21.228382110595703,-1.2975764274597168,-0.0,-0.0,-1.0,0.0848715165460307,1.0
22.097946166992188,21.00984764099121,-1.2573699951171875,-0.0,-0.0,-1.0,0.1709157961908287,2.0
22.077564239501953,21.073488235473633,-1.2628216743469238,-0.5373177884830233,0.333468731758558,-0.7746535994359359,0.1164270964688541,4.0
23.195486068725582,21.00209045410156,-1.5227382183074951,-0.0,-0.0,-1.0,0.0756770478877486,1.0
23.021499633789062,19.963115692138672,-1.3378474712371826,-0.253439085339273,-0.0734325044080302,-0.9645601574390046,0.1628558210591545,3.0
22.92937469482422,20.627893447875977,-1.41719651222229,-0.0,-0.0,-1.0,0.1617412457146053,1.0
22.896446228027344,19.789539337158203,-1.2891976833343506,-0.7390862112052368,0.0332636592879575,-0.6727890467130563,0.1443316570880656,4.0
22.57295608520508,20.81385612487793,-1.3794105052947998,-0.0,-0.0,-1.0,0.1220937912712281,1.0
22.334075927734375,20.779273986816406,-1.3306057453155518,-0.3464187814913647,-0.3230916445857499,-0.8806848568182112,0.1565360901332205,5.0
22.15340232849121,21.058115005493164,-1.3417227268218994,-0.0,-0.0,-1.0,0.0841721966313525,1.0
22.177188873291016,21.57345390319824,-1.4286315441131592,-0.5140978922361527,0.142378683939946,-0.8458319381282989,0.1367373950733614,3.0
22.047088623046875,21.084941864013672,-1.326967477798462,0.3921262294268794,0.273753244906766,-0.8782346959090573,0.1702230241681876,7.0
22.96826171875,19.99434471130371,-1.4939398765563965,-0.0,-0.0,-1.0,0.2815796140127497,1.0
22.92735481262207,20.246496200561523,-1.506408452987671,-0.0,-0.0,-1.0,0.0522190172998464,2.0
22.875957489013672,19.93069648742676,-1.4659466743469238,0.8826573598003635,-0.4639935262298527,0.0750066184215654,0.2381981196050115,4.0
22.783275604248047,20.37862968444824,-1.4840106964111328,-0.0,-0.0,-1.0,0.0593437411631835,1.0
22.57621192932129,20.636688232421875,-1.459209442138672,-0.0,-0.0,-1.0,0.1093763748484469,2.0
22.229076385498047,20.802433013916016,-1.39347243309021,-0.0,-0.0,-1.0,0.1764278504548939,1.0
22.107887268066406,20.956214904785156,-1.381016731262207,-0.6547550872220558,0.6681730174276679,-0.3533278853111427,0.1415645406747995,3.0
22.23302841186523,21.60551643371582,-1.483551263809204,-0.0,-0.0,-1.0,0.1255364387905097,2.0
22.006126403808594,21.135650634765625,-1.376863718032837,-0.0943101607433509,0.9619290866149868,-0.2565112588262361,0.1320271988881642,5.0
22.443220138549805,21.155681610107425,-1.1770498752593994,-0.0,-0.0,-1.0,0.0328528265384205,2.0
22.442523956298828,21.30769157409668,-1.1876835823059082,-0.0,-0.0,-1.0,0.0383622951471594,2.0
22.994869232177734,19.821857452392575,-1.281524419784546,-0.0,-0.0,-1.0,0.1620743721015287,2.0
22.677188873291016,19.674396514892575,-1.215367555618286,-0.0,-0.0,-1.0,0.1259807099308355,2.0
22.857242584228516,19.821849822998047,-1.2480902671813965,-0.0,-0.0,-1.0,0.1096119116303972,1.0
22.999324798583984,19.995115280151367,-1.3344571590423584,-0.7157572176771804,-0.4384074309792301,-0.5435904062851118,0.167030847594043,3.0
22.829177856445312,19.7199649810791,-1.322141408920288,-0.0,-0.0,-1.0,0.2129780617714436,1.0
23.686290740966797,21.174293518066406,-1.6802866458892822,-0.0,-0.0,-1.0,0.0091346626744712,1.0
22.887916564941406,21.270828247070312,-1.4839773178100586,-0.4718497416538981,-0.8172190731151222,-0.3309241723386341,0.0951318807968023,4.0
22.930156707763672,21.39914894104004,-1.4828534126281738,-0.0,-0.0,-1.0,0.0788348313968545,1.0
22.448083877563477,20.021541595458984,-1.5043120384216309,-0.0,-0.0,-1.0,0.0186344206752701,2.0
22.533836364746097,20.288654327392575,-1.4956896305084229,-0.0,-0.0,-1.0,0.0243140129831714,2.0
22.020355224609375,19.654781341552734,-1.4502058029174805,-0.0,-0.0,-1.0,0.0311903460040956,2.0
22.214797973632812,19.849611282348633,-1.4710819721221924,0.5592607560346676,0.1984160633425004,-0.8048965601660859,0.0296907710238835,3.0
22.136066436767575,20.86731719970703,-1.3472774028778076,-0.9356779102471996,0.1906884037793823,0.2968918674189392,0.139041833159868,4.0
22.096660614013672,21.21824073791504,-1.304760217666626,-0.0,-0.0,-1.0,0.1315303522794054,2.0
22.24434280395508,21.46127700805664,-1.316617727279663,-0.0,-0.0,-1.0,0.0805923243479213,2.0
22.093523025512695,21.25352668762207,-1.3005516529083252,-0.0,-0.0,-1.0,0.115603384891307,2.0
22.18712997436523,21.40473175048828,-1.3083555698394775,-0.8703038975929632,-0.4249322528279762,-0.2490054343604537,0.069389262912122,3.0
23.556049346923828,20.001632690429688,-1.569605827331543,-0.0,-0.0,-1.0,0.0123821029597605,1.0
23.303709030151367,19.841970443725582,-1.5346345901489258,-0.0,-0.0,-1.0,0.016281901209313,1.0
22.98491668701172,19.84069061279297,-1.471320629119873,-0.2601599967544845,-0.0900433235211693,-0.9613578813209828,0.2051998670535066,3.0
22.359222412109375,20.65052032470703,-1.26535964012146,-0.0,-0.0,-1.0,0.2105691041706843,1.0
22.371551513671875,21.14497756958008,-1.2206573486328125,-0.0,-0.0,-1.0,0.0608566858028903,2.0
22.930450439453125,20.00083351135254,-1.3742635250091553,-0.0,-0.0,-1.0,0.1944998791974174,2.0
21.9820556640625,21.397127151489254,-1.5294194221496582,-0.0,-0.0,-1.0,0.0929055104809339,1.0
22.847824096679688,19.74822235107422,-1.2315073013305664,-0.0,-0.0,-1.0,0.1141093863826144,2.0
23.306657791137695,19.682838439941406,-1.5532419681549072,-0.0,-0.0,-1.0,0.0282014539133823,2.0
23.474626541137695,19.75354385375977,-1.576678991317749,-0.6279483735066279,0.0766575998628006,-0.7744704336471828,0.0121387349680627,4.0
22.36432647705078,21.060651779174805,-1.234227418899536,-0.0,-0.0,-1.0,0.0783719079962981,2.0
22.474205017089844,21.16343688964844,-1.2442831993103027,-0.4640930802059529,-0.8719896623713244,-0.1557293858669413,0.1352311138194271,4.0
23.59699821472168,21.09258460998535,-1.650617599487305,-0.0,-0.0,-1.0,0.0087144947230796,2.0
21.9379940032959,19.88751983642578,-1.4822893142700195,-0.0,-0.0,-1.0,0.0215843022533337,1.0
22.05142593383789,20.266319274902344,-1.4549291133880615,-0.0,-0.0,-1.0,0.1097238427257451,1.0
22.98450088500977,21.21056365966797,-1.517624855041504,-0.0,-0.0,-1.0,0.1265137132233429,2.0
22.036027908325195,20.543758392333984,-1.4174180030822754,-0.0,-0.0,-1.0,0.0701575900470591,2.0
22.061145782470703,20.778797149658203,-1.3931293487548828,-0.0,-0.0,-1.0,0.1074396309528296,1.0
22.519596099853516,21.426807403564453,-1.40267014503479,-0.0,-0.0,-1.0,0.1414498918275823,1.0
22.004772186279297,21.088558197021484,-1.3447487354278564,0.4451228892742018,0.6624896074323305,-0.602472516790885,0.1988654702889494,8.0
22.18502616882324,21.28656005859375,-1.3551301956176758,-0.0,-0.0,-1.0,0.1616292707993009,1.0
22.310810089111328,21.45222282409668,-1.3595364093780518,-0.0,-0.0,-1.0,0.1424932468494378,2.0
23.597654342651367,19.94369125366211,-1.5717589855194092,-0.0,-0.0,-1.0,0.0118521938727662,1.0
22.12115478515625,20.474689483642575,-1.2624905109405518,-0.0,-0.0,-1.0,0.2170184776145732,1.0
22.01177215576172,20.808345794677734,-1.1979386806488037,-0.0,-0.0,-1.0,0.1963330685152008,1.0
22.203224182128903,20.95480728149414,-1.207768201828003,0.0025453625274749,-0.969342137786384,0.2457017318647281,0.0928342484388278,4.0
22.334535598754883,19.72098731994629,-1.4881489276885986,-0.0,-0.0,-1.0,0.0294758155380132,1.0
23.348630905151367,20.09585189819336,-1.594285011291504,-0.0,-0.0,-1.0,0.0200076001166936,1.0
23.603097915649418,20.20075225830078,-1.620985984802246,-0.0,-0.0,-1.0,0.0221042605725741,2.0
21.96029281616211,20.344444274902344,-1.3311443328857422,-0.0,-0.0,-1.0,0.1149896417416084,1.0
22.626575469970703,20.63357925415039,-1.3941278457641602,-0.0,-0.0,-1.0,0.2353487587405333,2.0
21.908660888671875,20.72024154663086,-1.2643718719482422,-0.0,-0.0,-1.0,0.1642793614215716,1.0
22.05533790588379,20.905929565429688,-1.2594318389892578,-0.0,-0.0,-1.0,0.1719259350293153,1.0
23.12222671508789,19.926956176757812,-1.351543426513672,-0.0,-0.0,-1.0,0.1585667674661262,1.0
21.85003662109375,21.610294342041016,-1.4969420433044434,-0.0,-0.0,-1.0,0.1304059031254585,1.0
21.81061553955078,21.234886169433594,-1.478158473968506,-0.0702406525302602,0.0452650416357988,-0.996502547281156,0.0921786545376243,3.0
22.063491821289062,21.486591339111328,-1.476405143737793,-0.0,-0.0,-1.0,0.1215225581455983,1.0
22.201332092285156,21.52974319458008,-1.4927289485931396,0.887468861396596,-0.3193656464084648,-0.3322718825683756,0.1594132123960682,3.0
22.729644775390625,21.541847229003903,-1.5836710929870603,-0.0,-0.0,-1.0,0.0555050699239029,1.0
23.01371383666992,21.48918342590332,-1.6435503959655762,-0.0,-0.0,-1.0,0.0665816665326326,2.0
23.238285064697266,21.54532241821289,-1.6747961044311523,-0.0,-0.0,-1.0,0.0232107595116033,1.0
22.75782585144043,19.674976348876953,-1.2758276462554932,0.2753984268720471,-0.6028266835247342,-0.7488362278275348,0.1811554772094264,4.0
23.01655960083008,19.80240821838379,-1.293534755706787,-0.0,-0.0,-1.0,0.2055279134802392,2.0
23.37893295288086,19.76012420654297,-1.537771224975586,-0.0,-0.0,-1.0,0.0167221393634414,2.0
23.443693161010746,19.777156829833984,-1.546898603439331,-0.6787765420914896,0.1338347086593857,-0.7220461734988818,0.0130211782893277,4.0
22.881853103637695,19.804244995117188,-1.4430139064788818,0.9874786606734296,0.0141721702830978,-0.1571147488432489,0.2350825531452051,3.0
23.18569564819336,19.75498962402344,-1.504068374633789,-0.0,-0.0,-1.0,0.0553233723697067,2.0
22.279634475708008,20.63715934753418,-1.2122066020965576,-0.3652835202307471,-0.9292684614131684,-0.0550279608075395,0.169214715686238,5.0
22.6629638671875,20.787813186645508,-1.2582848072052002,-0.0,-0.0,-1.0,0.1356564333975209,1.0
21.73019027709961,20.659543991088867,-1.49322247505188,-0.0,-0.0,-1.0,0.0776910047618896,1.0
22.72716522216797,21.312841415405273,-1.5580801963806152,-0.0,-0.0,-1.0,0.0493457705392817,1.0
23.013893127441406,21.27583694458008,-1.620497703552246,-0.0,-0.0,-1.0,0.0819203615429932,1.0
23.29610061645508,21.28819465637207,-1.6740107536315918,-0.0,-0.0,-1.0,0.0212707884557737,1.0
23.51259994506836,21.337379455566406,-1.7089009284973145,-0.0,-0.0,-1.0,0.011077770529555,1.0
21.80429458618164,20.901235580444336,-1.4606835842132568,-0.0,-0.0,-1.0,0.0237481605611623,2.0
21.80848503112793,20.810989379882812,-1.478437423706055,0.8563621496254313,-0.2320952672902223,-0.4612761164317858,0.0437595359608954,3.0
22.75337028503418,19.65415382385254,-1.2585926055908203,0.2120120488655445,-0.649653002685688,-0.7300697687463186,0.1366393055523406,3.0
21.88945960998535,21.174224853515625,-1.4253263473510742,0.0416042829043732,0.2853692399314186,-0.957514219500148,0.0615376955756644,3.0
22.177032470703125,21.441749572753903,-1.4298744201660156,-0.0,-0.0,-1.0,0.1416251335043973,2.0
22.524486541748047,21.423629760742188,-1.499293088912964,-0.0,-0.0,-1.0,0.0564227247851387,1.0
22.37710189819336,19.805482864379883,-1.4878199100494385,-0.0,-0.0,-1.0,0.0300594406951526,2.0
22.39596939086914,19.77984619140625,-1.4956607818603516,-0.0,-0.0,-1.0,0.0296549903743169,2.0
22.658931732177734,19.93558692932129,-1.51320481300354,-0.0,-0.0,-1.0,0.0717253570780622,2.0
23.53576278686523,20.352603912353516,-1.5988595485687256,-0.0,-0.0,-1.0,0.0427769792251921,1.0
22.02517318725586,19.67911148071289,-1.4512503147125244,-0.0,-0.0,-1.0,0.0311903460040956,2.0
22.179588317871097,21.119388580322266,-1.219557523727417,-0.2615653372519301,-0.4210373019645005,-0.8685108892251948,0.0763550371736579,4.0
22.33631134033203,20.601715087890625,-1.3383235931396484,-0.0,-0.0,-1.0,0.1827823637376827,1.0
22.376380920410156,21.242870330810547,-1.2337336540222168,-0.0,-0.0,-1.0,0.0598803081665785,1.0
21.864295959472656,20.8040714263916,-1.3903961181640625,-0.0,-0.0,-1.0,0.0964938106512076,1.0
21.739967346191406,20.505788803100582,-1.4216504096984863,-0.0,-0.0,-1.0,0.0779734947908818,1.0
22.049869537353516,21.303089141845703,-1.336392164230347,-0.0,-0.0,-1.0,0.118145728149806,1.0
22.293567657470703,21.487192153930664,-1.3547301292419434,0.3400493637214637,0.2905955698781424,-0.8943828291060966,0.0908884113261513,3.0
22.60955810546875,21.373920440673828,-1.4430389404296875,-0.0,-0.0,-1.0,0.1322597379383957,2.0
22.852418899536133,21.29327392578125,-1.510120868682861,-0.0,-0.0,-1.0,0.110258134973548,2.0
23.27664566040039,21.291553497314453,-1.603705883026123,-0.0,-0.0,-1.0,0.0256265068837524,1.0
23.620256423950195,21.458934783935547,-1.6519408226013184,-0.0,-0.0,-1.0,0.0085544023280135,1.0
22.65784454345703,19.641515731811523,-1.1962049007415771,-0.0,-0.0,-1.0,0.1159437476752456,2.0
22.88759422302246,19.74179458618164,-1.2219362258911133,-0.1064993882532885,-0.408816175611584,-0.906381384881659,0.1439732109565114,4.0
22.722240447998047,19.64303970336914,-1.2075786590576172,-0.0,-0.0,-1.0,0.1260468856176242,1.0
23.034029006958008,20.03902816772461,-1.202279567718506,-0.0,-0.0,-1.0,0.1680485514501999,1.0
23.323633193969727,21.61629295349121,-1.7240309715270996,-0.0,-0.0,-1.0,0.0188582688474395,1.0
21.886690139770508,21.125804901123047,-1.4419090747833252,0.3341070740369126,0.1645300921336607,-0.928063743425516,0.0805467131014524,3.0
21.796051025390625,20.77736473083496,-1.484602689743042,0.5098119830368498,-0.8587251122540271,-0.0517969452414277,0.0749335147198916,4.0
22.232208251953125,21.54724502563477,-1.4521667957305908,0.7613929870893917,-0.2744083481736468,-0.5873506428562958,0.1159211130650251,5.0
22.121625900268555,21.294612884521484,-1.4693293571472168,-0.0,-0.0,-1.0,0.1445279349416726,1.0
22.651763916015625,21.49805450439453,-1.5679662227630615,-0.0,-0.0,-1.0,0.0603664147658239,1.0
23.00151824951172,19.66478157043457,-1.4342782497406006,-0.0,-0.0,-1.0,0.2559232865281609,1.0
22.958301544189453,21.51321601867676,-1.6449623107910156,-0.0,-0.0,-1.0,0.0609524065616831,1.0
23.45957946777344,19.695781707763672,-1.5306367874145508,-0.3601898210873628,-0.65161868380898,-0.6675750023001956,0.0129809371401025,4.0
23.37279510498047,19.641630172729492,-1.5196139812469482,-0.0,-0.0,-1.0,0.0182289471893974,2.0
23.19450569152832,21.605926513671875,-1.6914262771606443,-0.0,-0.0,-1.0,0.0258895663129501,1.0
21.977230072021484,19.785184860229492,-1.4913170337677002,-0.0,-0.0,-1.0,0.0241296941348138,2.0
22.135311126708984,21.11103057861328,-1.262385606765747,-0.0,-0.0,-1.0,0.1277090418392854,1.0
22.292499542236328,20.657207489013672,-1.3885393142700195,-0.0,-0.0,-1.0,0.2270969052836517,2.0
22.332069396972656,20.09961700439453,-1.5086898803710938,-0.0,-0.0,-1.0,0.0375351264403365,1.0
22.162553787231445,19.95061492919922,-1.499399185180664,-0.0,-0.0,-1.0,0.0190564957128072,1.0
22.35095596313477,21.41493225097656,-1.2572407722473145,0.7147978186419234,0.1353254620442523,-0.686113035721708,0.0750984025123314,4.0
22.634933471679688,21.26869201660156,-1.3552627563476562,-0.0,-0.0,-1.0,0.1340624971076906,1.0
22.507179260253903,20.275653839111328,-1.514759540557861,-0.0,-0.0,-1.0,0.0332509272833187,2.0
22.90203094482422,21.151634216308594,-1.4439120292663574,-0.1051065170995905,-0.0366862568636726,-0.9937840502948948,0.1252916027111573,3.0
23.44398307800293,20.899181365966797,-1.6271770000457764,-0.0,-0.0,-1.0,0.0286738920774523,1.0
22.187646865844727,21.311521530151367,-1.236567497253418,-0.0,-0.0,-1.0,0.0929006065808463,2.0
22.266159057617188,21.378726959228516,-1.2430894374847412,-0.0,-0.0,-1.0,0.0810917598492328,2.0
23.30733871459961,19.742351531982425,-1.5536668300628662,-0.0,-0.0,-1.0,0.019147105420037,1.0
22.780330657958984,20.65733528137207,-1.252917766571045,-0.0,-0.0,-1.0,0.1482421391427449,1.0
22.591506958007812,20.556941986083984,-1.221855640411377,-0.0,-0.0,-1.0,0.187533744203068,2.0
22.909454345703125,21.4341983795166,-1.6621588468551636,-0.0,-0.0,-1.0,0.0733544908781398,1.0
23.084651947021484,20.914838790893555,-1.6206201314926147,-0.0,-0.0,-1.0,0.0488161498669869,1.0
23.06723403930664,20.76371955871582,-1.6150957345962524,-0.0,-0.0,-1.0,0.0740488508220856,1.0
23.329418182373047,20.245105743408203,-1.5666097402572632,-0.0,-0.0,-1.0,0.0271925806798158,2.0
23.371170043945312,19.978492736816406,-1.550796627998352,0.0872412319161741,0.7796566288603989,-0.6201004019735729,0.0139265957953342,3.0
23.086345672607425,21.12279510498047,-1.6304744482040403,-0.0,-0.0,-1.0,0.1242910647836003,2.0
23.329509735107425,20.441814422607425,-1.5755945444107056,-0.0,-0.0,-1.0,0.0338165387506785,1.0
23.534414291381836,21.500049591064453,-1.7026602029800415,-0.0,-0.0,-1.0,0.0096667650929163,1.0
23.70714950561523,21.030874252319336,-1.6711915731430054,-0.0,-0.0,-1.0,0.0084169452117091,1.0
22.45260429382324,21.229511260986328,-1.3969337940216064,-0.0,-0.0,-1.0,0.1583150691586751,1.0
22.38350486755371,20.49469757080078,-1.374199151992798,-0.0,-0.0,-1.0,0.2112022823362611,1.0
22.175315856933594,20.280996322631836,-1.3837010860443115,-0.0,-0.0,-1.0,0.1076530430444176,1.0
22.641874313354492,20.95734405517578,-1.370396375656128,0.4947631263562145,-0.7456859374610608,-0.4462756227613642,0.1296199840355794,3.0
22.54936790466309,20.663902282714844,-1.366745948791504,-0.0,-0.0,-1.0,0.1677853600897908,2.0
22.136152267456055,20.266273498535156,-1.4160137176513672,-0.0,-0.0,-1.0,0.1248560226686736,1.0
21.898462295532227,20.05970764160156,-1.428203582763672,-0.0,-0.0,-1.0,0.0465665590794054,1.0
22.64617156982422,20.97886657714844,-1.4015944004058838,-0.0,-0.0,-1.0,0.0921549893036461,2.0
22.47698211669922,20.58028030395508,-1.399616241455078,-0.0,-0.0,-1.0,0.1938749967788384,1.0
22.28180503845215,20.382593154907227,-1.408231496810913,-0.0,-0.0,-1.0,0.1709050319700839,2.0
22.560388565063477,21.5424861907959,-1.4478839635849,-0.0,-0.0,-1.0,0.0719767779093277,1.0
22.786645889282227,21.242263793945312,-1.4162851572036743,-0.0,-0.0,-1.0,0.085944870473444,1.0
22.70991325378418,21.054977416992188,-1.415516018867493,-0.0,-0.0,-1.0,0.0705633666600892,1.0
22.69180679321289,20.90344619750977,-1.411173701286316,-0.0,-0.0,-1.0,0.0781013456260449,1.0
22.380517959594727,20.58501434326172,-1.4261215925216677,-0.0,-0.0,-1.0,0.2032226801700165,1.0
22.132305145263672,20.404884338378903,-1.4410783052444458,-0.0,-0.0,-1.0,0.141549576619144,1.0
23.055492401123047,19.79108428955078,-1.337684988975525,-0.0,-0.0,-1.0,0.2399302962830338,1.0
23.005281448364254,21.34335708618164,-1.521735429763794,-0.0,-0.0,-1.0,0.0618438165614621,1.0
22.81479835510254,21.52340316772461,-1.5466933250427246,-0.0,-0.0,-1.0,0.0615793332642022,1.0
23.0152530670166,20.977127075195312,-1.5061070919036863,-0.0,-0.0,-1.0,0.0873548224300447,2.0
23.027700424194336,20.81587600708008,-1.498584270477295,-0.0,-0.0,-1.0,0.121080844131707,1.0
22.94983291625977,20.636003494262695,-1.4988420009613037,-0.0,-0.0,-1.0,0.1458968040510875,1.0
22.93315696716309,20.279788970947266,-1.4868171215057373,-0.0,-0.0,-1.0,0.0526985399529892,2.0
22.96691131591797,19.857032775878903,-1.4679787158966064,-0.2601599967544845,-0.0900433235211693,-0.9613578813209828,0.2028570809891202,3.0
22.619457244873047,21.3417911529541,-1.2235788106918335,-0.0,-0.0,-1.0,0.0842254952252919,1.0
22.50336265563965,21.031023025512695,-1.219025731086731,0.8136434079528924,-0.0742442566494864,-0.5766040192795813,0.1328443252864147,4.0
22.518325805664062,20.123950958251953,-1.8519625663757324,-0.0,-0.0,-1.0,0.1072452477711024,1.0
22.551511764526367,19.822864532470703,-1.8517777919769287,-0.0,-0.0,-1.0,0.1406614328066035,1.0
22.904003143310547,21.625835418701172,-0.0338687896728515,-0.0,-0.0,-1.0,0.0406294022452337,1.0
23.037717819213867,21.17426300048828,-0.0321877002716064,-0.0,-0.0,-1.0,0.0219872711654056,1.0
23.071840286254883,20.772262573242188,-0.0367894172668457,-0.0,-0.0,-1.0,0.0415157526107395,1.0
23.24213981628418,20.28267288208008,-0.0351850986480712,-0.0,-0.0,-1.0,0.0429575202319993,1.0
22.057363510131836,20.47603988647461,-1.133207082748413,-0.0,-0.0,-1.0,0.1293404805392057,1.0
22.943016052246097,21.14072608947754,-1.474931240081787,-0.8358353393199539,-0.5479681382751316,-0.0333197385821562,0.1176441442216809,4.0
22.57731056213379,21.518177032470703,-1.5216789245605469,-0.0,-0.0,-1.0,0.0656344762289141,1.0
22.84913444519043,20.704753875732425,-1.4792728424072266,0.076683158353801,0.6670271179115551,-0.7410765933393729,0.1375839975614624,3.0
22.876617431640625,20.929656982421875,-1.4793198108673096,-0.0,-0.0,-1.0,0.0753312386103545,1.0
22.842506408691406,20.431171417236328,-1.4764635562896729,-0.0,-0.0,-1.0,0.0944976045624043,2.0
22.89763641357422,19.855091094970703,-1.4634251594543457,-0.0,-0.0,-1.0,0.1947529985761373,1.0
22.83568000793457,20.15151596069336,-1.4737889766693115,0.8654507100456826,-0.4194532716890223,0.2739598900401277,0.1215142547755717,4.0
22.545570373535156,21.238998413085938,-1.2279869318008425,-0.0,-0.0,-1.0,0.1562422741447428,2.0
22.497636795043945,21.028226852416992,-1.2317649126052856,0.8465595210062475,-0.4518828739357499,-0.2813162733245977,0.1429156077962499,3.0
22.89154052734375,19.705583572387695,-1.1856943368911743,-0.9546209357490366,0.2137367688689438,-0.2074016939735483,0.1343737902646656,3.0
22.46628189086914,21.43372344970703,-1.3311107158660889,-0.0,-0.0,-1.0,0.1119141645107241,1.0
22.55055046081543,21.135528564453125,-1.3202366828918457,0.4673880805478463,-0.6463429792544242,-0.6031493474507906,0.1173262520942255,3.0
22.272872924804688,20.750242233276367,-1.3517303466796875,-0.0,-0.0,-1.0,0.1944964957231188,1.0
22.052894592285156,20.60114860534668,-1.3773157596588137,-0.0,-0.0,-1.0,0.1271186484466385,2.0
22.170995712280273,21.086162567138672,-1.2000583410263062,-0.5529663809692754,-0.0572808049101391,-0.8312322725367373,0.0645695302963256,5.0
22.22791290283203,20.98035430908203,-1.1937342882156372,-0.0,-0.0,-1.0,0.057597409077226,2.0
22.23150634765625,21.159658432006836,-1.1942545175552368,-0.0,-0.0,-1.0,0.0773254044209038,1.0
23.052574157714844,21.496021270751953,-1.6234759092330933,-0.0,-0.0,-1.0,0.0675624478405467,2.0
23.268068313598633,20.908222198486328,-1.5744811296463013,-0.0,-0.0,-1.0,0.0515056864346897,1.0
23.073373794555664,21.17278480529785,-1.6107553243637085,-0.0,-0.0,-1.0,0.1335987416485665,1.0
23.325286865234375,20.592893600463867,-1.557451605796814,-0.0,-0.0,-1.0,0.0393808260759344,1.0
23.40341567993164,19.99076461791992,-1.5308305025100708,-0.0,-0.0,-1.0,0.0142071021607535,2.0
23.352306365966797,20.204090118408203,-1.5435608625411987,-0.0,-0.0,-1.0,0.024853665920749,1.0
23.417266845703125,19.698699951171875,-1.5222443342208862,-0.1966572813340947,-0.5818190890407002,-0.7891846813808112,0.0150021357579087,3.0
23.329322814941406,19.94566345214844,-1.5408684015274048,-0.0,-0.0,-1.0,0.014263494717895,1.0
22.68053817749023,21.532140731811523,-1.6251014471054075,-0.0,-0.0,-1.0,0.0526999204639108,1.0
22.948471069335938,21.13092613220215,-1.572102665901184,-0.0,-0.0,-1.0,0.1187052511463955,2.0
22.89088249206543,20.79888343811035,-1.5717986822128296,-0.0,-0.0,-1.0,0.0643095142625198,2.0
22.8726749420166,20.389610290527344,-1.5645216703414917,-0.0,-0.0,-1.0,0.0496585494020539,1.0
22.931968688964844,19.787689208984375,-1.542497992515564,-0.0,-0.0,-1.0,0.1310409580763022,1.0
22.86993408203125,20.012800216674805,-1.5566774606704712,-0.0,-0.0,-1.0,0.1600548124766758,1.0
22.7895450592041,21.50615882873535,-1.5995882749557495,-0.0,-0.0,-1.0,0.0617050835997502,1.0
23.00271224975586,21.20756721496582,-1.5577927827835083,-0.1886894976570148,-0.9819598167824202,-0.012296003357975,0.129805578057304,3.0
23.116851806640625,20.79345703125,-1.5306822061538696,-0.0,-0.0,-1.0,0.0828040476879931,1.0
23.094451904296875,20.37910842895508,-1.527638554573059,-0.2061476671811552,-0.9768903494030676,0.0564657821952403,0.0543731607921939,3.0
23.15735244750977,19.779146194458008,-1.5094558000564575,-0.0,-0.0,-1.0,0.0823810910189616,2.0
23.06875228881836,20.035648345947266,-1.5273479223251345,-0.0,-0.0,-1.0,0.2147520899433714,1.0
23.082782745361328,21.42620849609375,-1.6214407682418823,-0.0982633268523989,-0.9484438542768882,-0.3013280170848701,0.04710551162006,3.0
23.24468231201172,20.85249137878418,-1.572773575782776,-0.0,-0.0,-1.0,0.0535354171132781,1.0
23.059297561645508,21.08711624145508,-1.6137717962265017,-0.5678008757463664,0.0456875590182829,-0.8218970814235864,0.1143403211194953,3.0
23.25072479248047,20.543434143066406,-1.5621973276138306,-0.0,-0.0,-1.0,0.0380013228349443,1.0
23.29251480102539,20.048416137695312,-1.5409127473831177,-0.0,-0.0,-1.0,0.0253487688737073,2.0
23.267438888549805,20.125518798828125,-1.547541260719299,-0.0,-0.0,-1.0,0.0619809590705284,1.0
23.356674194335938,19.672035217285156,-1.5202361345291138,-0.0,-0.0,-1.0,0.0185732266478915,2.0
22.6334228515625,21.35187339782715,-1.427262544631958,-0.0,-0.0,-1.0,0.1229799102253631,2.0
22.41912841796875,21.60190200805664,-1.474133014678955,-0.0,-0.0,-1.0,0.1028662153095337,1.0
22.61410140991211,21.02432632446289,-1.417403221130371,-0.0,-0.0,-1.0,0.1097946681494217,1.0
22.43470764160156,20.6181640625,-1.43322491645813,-0.0,-0.0,-1.0,0.156127990661282,1.0
22.92066192626953,19.967235565185547,-1.3276519775390625,-0.0,-0.0,-1.0,0.1703856050983296,1.0
22.25813865661621,20.38393783569336,-1.455859899520874,-0.0,-0.0,-1.0,0.1085475287966874,2.0
22.222721099853516,20.39865493774414,-1.4624943733215332,-0.0,-0.0,-1.0,0.1180234710267279,2.0
22.92127990722656,19.762203216552734,-1.321481704711914,0.510239270602046,0.7307131319282709,-0.4535572792526534,0.2045997834513521,4.0
22.73464012145996,19.749509811401367,-1.3537917137145996,-0.0,-0.0,-1.0,0.2286367859232996,1.0
22.32501792907715,19.733518600463867,-1.4250831604003906,-0.0,-0.0,-1.0,0.0305823716352167,1.0
23.12626075744629,21.304235458374023,-1.5770697593688965,-0.0,-0.0,-1.0,0.0720778778673032,2.0
23.063556671142575,21.41998291015625,-1.5955758094787598,-0.0,-0.0,-1.0,0.049890072536966,2.0
23.08874130249023,20.98768615722656,-1.5684711933135986,-0.0,-0.0,-1.0,0.0712369881537498,1.0
23.021984100341797,21.10096549987793,-1.5872242450714111,-0.6257797469211797,-0.3755699224840865,-0.6836277800591207,0.1574668812997989,3.0
22.29634475708008,21.38531494140625,-1.191922903060913,-0.0,-0.0,-1.0,0.1300549543840855,2.0
23.18840789794922,20.80692481994629,-1.5400991439819336,-0.0,-0.0,-1.0,0.0715101432879318,1.0
22.33454132080078,21.22265625,-1.180112361907959,-0.0,-0.0,-1.0,0.0622869164493683,1.0
23.168310165405273,20.49302673339844,-1.529984951019287,-0.0,-0.0,-1.0,0.0625749337636789,2.0
23.141117095947266,19.97376251220703,-1.5145442485809326,-0.0,-0.0,-1.0,0.1320173272255476,2.0
23.135906219482425,20.186195373535156,-1.523719310760498,-0.0,-0.0,-1.0,0.0580819438896321,1.0
22.35712432861328,21.01094627380371,-1.169485569000244,-0.0,-0.0,-1.0,0.0731249671850452,2.0
23.410024642944336,21.37274932861328,-1.6945278644561768,-0.0,-0.0,-1.0,0.0108839745954613,1.0
23.551027297973633,20.795682907104492,-1.6208887100219729,-0.0,-0.0,-1.0,0.0287930539721717,1.0
23.41060256958008,21.039024353027344,-1.6688058376312256,-0.0,-0.0,-1.0,0.0085437006696628,1.0
23.52492904663086,20.540103912353516,-1.6088664531707764,-0.0,-0.0,-1.0,0.0327682958742167,1.0
23.483306884765625,20.12449836730957,-1.5912644863128662,-0.0,-0.0,-1.0,0.025947151666765,1.0
23.46774673461914,19.719940185546875,-1.571406364440918,0.0473824783777164,-0.6697888785037062,-0.7410382979141718,0.0121387349680627,5.0
22.41205596923828,21.507593154907227,-1.4016590118408203,-0.0,-0.0,-1.0,0.1439075208517406,1.0
22.563405990600582,21.21918487548828,-1.3576672077178955,-0.0,-0.0,-1.0,0.152521552121518,2.0
22.390575408935547,20.86420631408691,-1.3704025745391846,-0.781997220002916,-0.6124795950911504,0.1155382772274697,0.103010549282623,3.0
22.21637725830078,20.655067443847656,-1.3922266960144043,0.2854134599479907,0.3986241574823168,-0.8715721071443429,0.1433282534584022,5.0
21.964767456054688,20.594030380249023,-1.4362812042236328,-0.0,-0.0,-1.0,0.1079699522500259,2.0
22.901702880859375,19.715072631835938,-1.2226903438568115,-0.9066619037417676,0.0334728048843365,-0.4205279582103065,0.1439732109565114,6.0
21.759166717529297,20.35360336303711,-1.4642529487609863,-0.0,-0.0,-1.0,0.0868658827186341,2.0
22.263734817504883,19.68584632873535,-1.3426804542541504,-0.0,-0.0,-1.0,0.0326854201809341,1.0
23.03998565673828,21.200193405151367,-1.5409023761749268,0.1220408363427421,-0.7822913931579342,-0.610840576955872,0.1009910410507122,3.0
22.84229278564453,21.514890670776367,-1.6087419986724854,-0.0,-0.0,-1.0,0.0672651401109831,1.0
22.96867561340332,20.950031280517575,-1.5381593704223633,-0.0,-0.0,-1.0,0.0996052519135535,2.0
22.900867462158203,20.57836151123047,-1.5276730060577393,-0.0,-0.0,-1.0,0.0647524964226825,1.0
22.86909866333008,20.243709564208984,-1.5136611461639404,-0.0,-0.0,-1.0,0.040106725699183,1.0
22.4475154876709,21.364482879638672,-1.208393096923828,0.2281438854951083,0.6666825714056194,-0.7095665694599669,0.0603916158679406,3.0
22.454803466796875,21.084667205810547,-1.1911020278930664,-0.0,-0.0,-1.0,0.0461843453261822,2.0
22.425750732421875,21.18631362915039,-1.2023992538452148,-0.4202703161280873,-0.7086638128413892,-0.5667172679129355,0.0957360103291868,3.0
22.347002029418945,20.643537521362305,-1.1886351108551023,-0.0,-0.0,-1.0,0.1869099982407437,1.0
22.28595733642578,20.80773544311523,-1.2086920738220217,-0.0,-0.0,-1.0,0.1472166018438758,1.0
22.88153648376465,20.032466888427734,-1.498399019241333,-0.0,-0.0,-1.0,0.1931174013474243,1.0
22.87993049621582,19.72041702270508,-1.4819071292877195,-0.0,-0.0,-1.0,0.1505707382489111,2.0
22.881393432617188,19.94196891784668,-1.493333101272583,-0.0,-0.0,-1.0,0.224649383332343,2.0
22.89620590209961,21.369081497192383,-1.5717973709106443,-0.0,-0.0,-1.0,0.08902058251195,1.0
22.780406951904297,21.60828018188477,-1.6170637607574463,-0.0,-0.0,-1.0,0.0599106799293007,2.0
22.94774627685547,21.040586471557617,-1.5370278358459473,-0.0,-0.0,-1.0,0.1123451549683502,1.0
22.885961532592773,20.652009963989254,-1.5284337997436523,-0.0,-0.0,-1.0,0.1124542108639175,2.0
22.849708557128903,20.15412712097168,-1.5107245445251465,0.8654507100456826,-0.4194532716890223,0.2739598900401277,0.1095947172586607,4.0
22.849437713623047,20.367393493652344,-1.521672010421753,-0.0,-0.0,-1.0,0.0529818253221513,1.0
22.874900817871097,19.792707443237305,-1.4877502918243408,0.5812242000249331,-0.8052380570520691,0.1173460727096778,0.1523844939428604,3.0
22.506460189819336,21.37832260131836,-1.2274820804595947,-0.0,-0.0,-1.0,0.1131741649402612,2.0
22.503686904907227,21.147132873535156,-1.2167282104492188,0.0146414371967685,-0.8686983182302698,-0.4951250955270938,0.1215151264408519,4.0
22.377735137939453,20.80162811279297,-1.2282538414001465,-0.3610950674737386,-0.292498791360791,-0.8854686947027617,0.1920303154956775,4.0
22.94222068786621,21.318849563598633,-1.5456589460372925,-0.0,-0.0,-1.0,0.109788733081722,2.0
22.767108917236328,21.588550567626953,-1.6174992322921753,-0.0,-0.0,-1.0,0.0599106799293007,2.0
22.89368438720703,21.12833023071289,-1.5394572019577026,-0.0,-0.0,-1.0,0.1043521412474968,2.0
22.243146896362305,21.58464241027832,-1.3318606615066528,-0.0,-0.0,-1.0,0.1358577943154549,1.0
22.918689727783203,21.002534866333008,-1.521276354789734,-0.0,-0.0,-1.0,0.1108095501777433,1.0
22.511558532714844,21.16039276123047,-1.2386778593063354,0.4088806630469535,-0.4084787399002253,-0.8160647783330729,0.1550237653498682,5.0
22.817317962646484,20.670394897460938,-1.5178972482681274,-0.0,-0.0,-1.0,0.0753928748858693,2.0
22.377410888671875,20.83832740783691,-1.2456947565078735,-0.7534529477359994,0.2767788613828473,0.5964076772137896,0.1711133899479366,3.0
22.77538299560547,20.274396896362305,-1.4968570470809937,-0.0,-0.0,-1.0,0.0780276008240035,1.0
22.801433563232425,19.71238136291504,-1.4502516984939575,-0.0,-0.0,-1.0,0.2478985977133654,1.0
22.74465560913086,19.900236129760746,-1.478110671043396,-0.0,-0.0,-1.0,0.1975547739752065,2.0
22.72069549560547,19.649978637695312,-1.4682554006576538,-0.0,-0.0,-1.0,0.1603878239272285,1.0
22.881370544433594,21.2213134765625,-1.477196216583252,-0.2071450313153736,0.3501442123180146,-0.9135042236254576,0.1277522357475433,3.0
22.75873565673828,21.290048599243164,-1.5181396007537842,-0.0,-0.0,-1.0,0.079647272974938,1.0
22.703657150268555,20.919660568237305,-1.4858777523040771,-0.0,-0.0,-1.0,0.0386832669768315,1.0
22.593658447265625,20.54422378540039,-1.4701573848724363,-0.0,-0.0,-1.0,0.0994006270343843,2.0
22.815425872802734,20.131258010864254,-1.3640873432159424,-0.0,-0.0,-1.0,0.1514225540450794,1.0
22.41636848449707,20.196557998657227,-1.4798343181610107,-0.0,-0.0,-1.0,0.038918791746778,1.0
22.56966781616211,19.85751724243164,-1.4031438827514648,-0.0,-0.0,-1.0,0.0708888520699114,1.0
22.344959259033203,19.780092239379883,-1.4580304622650146,-0.0,-0.0,-1.0,0.0300297944344152,1.0
22.485034942626953,21.212757110595703,-1.212360382080078,-0.6094065575546577,0.6142291406789572,-0.5013444029309307,0.1099480328051364,4.0
22.37006378173828,21.379737854003903,-1.255986213684082,-0.0,-0.0,-1.0,0.0975705508699795,2.0
22.45279884338379,21.033843994140625,-1.200483322143555,-0.936610655608822,0.3475121451884283,-0.044674251493998,0.0918887430457877,3.0
22.288164138793945,20.907020568847656,-1.2252767086029053,-0.930147702337786,-0.1549406426294527,0.3328943512547332,0.1435762847359028,3.0
22.275070190429688,20.642501831054688,-1.2018992900848389,-0.3283771851597413,-0.9443063864191146,-0.021304291460614,0.183264335003973,4.0
22.944358825683594,19.768993377685547,-1.2911791801452637,0.6906213880716441,0.3849573666396685,-0.6122498870623396,0.1481883541513091,3.0
22.207258224487305,21.234569549560547,-1.2192386388778689,-0.0695319140730582,-0.9613095889041646,0.2665505340573211,0.1076509744232586,3.0
22.184297561645508,21.085453033447266,-1.2084378004074097,-0.5529663809692754,-0.0572808049101391,-0.8312322725367373,0.0625863551530688,5.0
21.778440475463867,20.368898391723633,-1.517069697380066,-0.0,-0.0,-1.0,0.077081136844534,1.0
21.907501220703125,21.05908203125,-1.3401485681533811,-0.0,-0.0,-1.0,0.1166492310421245,1.0
21.899517059326172,21.588329315185547,-1.4649018049240112,-0.0,-0.0,-1.0,0.1304059031254586,1.0
22.02906608581543,20.941455841064453,-1.3274465799331665,-0.0,-0.0,-1.0,0.1223766983775454,1.0
22.16107749938965,20.804874420166016,-1.3119522333145142,-0.0,-0.0,-1.0,0.1588526361961534,1.0
22.835908889770508,19.64335250854492,-1.4590362310409546,-0.0,-0.0,-1.0,0.1725558652456965,2.0
22.707820892333984,19.642000198364254,-1.0851908922195437,-0.0,-0.0,-1.0,0.0888988451886631,1.0
22.05881118774414,20.64781951904297,-1.3610376119613647,-0.0,-0.0,-1.0,0.1073676152161194,2.0
22.22936630249023,20.663427352905273,-1.3331362009048462,-0.0,-0.0,-1.0,0.1125829023973059,1.0
22.40326690673828,20.806156158447266,-1.325198769569397,-0.4448092940800014,0.5005921817503171,-0.7426655771412247,0.1503073665761804,5.0
22.84828186035156,19.66092109680176,-1.486448884010315,0.9200216382161543,-0.3376645227667466,0.198853854070694,0.1848448814348919,3.0
22.95544052124023,19.88154983520508,-1.5219846963882446,-0.0,-0.0,-1.0,0.1196004238122762,2.0
23.02774429321289,20.007020950317383,-1.5415064096450806,-0.0,-0.0,-1.0,0.1685962837680659,1.0
22.207115173339844,20.765220642089844,-1.2797540426254272,0.42546692577955,0.4760798496852308,-0.769627099179458,0.2040278210712587,3.0
22.40401268005371,20.900653839111328,-1.2897146940231323,-0.7005255547600948,0.6009771735381133,0.3848251343327277,0.0943334566873854,4.0
22.46355438232422,21.15235137939453,-1.3307830095291138,-0.0,-0.0,-1.0,0.1409770152605488,1.0
22.863222122192383,19.6793212890625,-1.0387126207351685,-0.0,-0.0,-1.0,0.0739525677798625,1.0
23.206653594970703,19.876731872558594,-1.562593698501587,-0.0,-0.0,-1.0,0.0349347970285348,1.0
23.397979736328125,20.037689208984375,-1.5768911838531494,-0.0,-0.0,-1.0,0.0148273641221821,1.0
23.634008407592773,20.266508102416992,-1.6019680500030518,-0.0,-0.0,-1.0,0.0341589831032219,1.0
22.481884002685547,20.94308090209961,-1.3232753276824951,-0.9904457295681068,-0.1276547848557341,-0.0521681194192111,0.0759192855066254,3.0
22.53585624694824,21.158748626708984,-1.35650634765625,-0.0,-0.0,-1.0,0.1252535522579976,2.0
21.84132957458496,20.065927505493164,-1.4663029909133911,-0.0,-0.0,-1.0,0.0279310397625458,1.0
22.779163360595703,20.92233085632324,-1.5016142129898071,-0.0,-0.0,-1.0,0.0593044992143782,1.0
22.688234329223633,20.667890548706055,-1.481839299201965,0.228417872973976,-0.8451315583129156,-0.4832990010848641,0.0927425902266848,3.0
22.334367752075195,20.350418090820312,-1.4686986207962036,-0.0,-0.0,-1.0,0.059775511520321,1.0
22.03955841064453,20.12198257446289,-1.4617716073989868,-0.0,-0.0,-1.0,0.0736470246255535,1.0
22.95720672607422,21.112415313720703,-1.5116931200027466,-0.916871103080371,-0.315702253970896,-0.2442938132124502,0.1236290144736156,5.0
22.650808334350582,20.48250961303711,-1.4662905931472778,-0.0,-0.0,-1.0,0.0705492354453185,2.0
22.57395362854004,20.343873977661133,-1.456957459449768,-0.0,-0.0,-1.0,0.0751368488574712,1.0
22.78737449645996,19.757692337036133,-1.3930011987686155,-0.0,-0.0,-1.0,0.2706929880847613,1.0
23.02911949157715,21.16272354125977,-1.499112606048584,-0.0,-0.0,-1.0,0.1192666477446008,2.0
22.914247512817383,20.819015502929688,-1.4699180126190186,-0.0,-0.0,-1.0,0.1179562995137012,1.0
22.751201629638672,20.460771560668945,-1.4414255619049072,-0.0,-0.0,-1.0,0.1762854104664011,1.0
22.51241111755371,21.048885345458984,-1.2204889059066772,0.8136434079528924,-0.0742442566494864,-0.5766040192795813,0.1487387381013294,4.0
22.2974853515625,20.9654598236084,-1.2142425775527954,-0.0,-0.0,-1.0,0.0959757878708257,2.0
22.833072662353516,21.25356674194336,-1.3775395154953003,-0.0,-0.0,-1.0,0.0781633077460606,1.0
22.767288208007812,21.16083526611328,-1.3725024461746216,-0.0,-0.0,-1.0,0.0541367800714782,2.0
22.620819091796875,20.937175750732425,-1.3600398302078247,-0.0,-0.0,-1.0,0.1633006599692437,2.0
22.397783279418945,20.80881118774414,-1.358951210975647,-0.7387450418544833,0.6578245253631417,-0.1467060222559896,0.0983408027143032,6.0
23.05997657775879,19.83887481689453,-1.2499936819076538,-0.0,-0.0,-1.0,0.0925695696364499,1.0
22.576398849487305,20.98208999633789,-1.2183246612548828,-0.0,-0.0,-1.0,0.1137844430880919,2.0
22.392765045166016,20.75909996032715,-1.2221629619598389,-0.0,-0.0,-1.0,0.1292007304405578,2.0
23.02406120300293,20.94297790527344,-1.50981342792511,-0.0,-0.0,-1.0,0.0683858050364071,2.0
22.907854080200195,20.677040100097656,-1.492148756980896,0.2677209472216517,0.6771840819330549,-0.6853810718098563,0.1160714860067662,4.0
22.950410842895508,19.846202850341797,-1.4126373529434204,0.5556769457931857,0.0243958549248903,-0.8310402963613982,0.1857062651811118,3.0
23.65970230102539,19.89253044128418,-1.5568488836288452,-0.0,-0.0,-1.0,0.0105054408404048,1.0
23.57660484313965,20.062602996826172,-1.566532850265503,-0.0,-0.0,-1.0,0.0157755517103047,1.0
23.697246551513672,20.249187469482425,-1.582251787185669,-0.0,-0.0,-1.0,0.025244836651144,1.0
23.493511199951172,19.88628578186035,-1.549876689910889,-0.0,-0.0,-1.0,0.0121417351844599,2.0
22.982250213623047,19.95770263671875,-1.29893958568573,-0.0,-0.0,-1.0,0.1749816728757443,2.0
22.91294288635254,21.177751541137695,-1.4460302591323853,-0.0,-0.0,-1.0,0.1026690471435291,2.0
22.729551315307617,19.812665939331055,-1.296993374824524,-0.0,-0.0,-1.0,0.1594513785688425,1.0
22.465736389160156,20.822484970092773,-1.4309216737747192,-0.0,-0.0,-1.0,0.1138947084138554,1.0
22.172447204589844,20.615711212158203,-1.424651265144348,0.4175537118989583,0.2502796709307305,-0.873503854598368,0.0683579994190462,4.0
