x,y,z,nx,ny,nz,curvature,density
6.292101860046387,17.51892852783203,-0.6205854415893555,-0.0,-0.0,-1.0,0.0502507837623446,1.0
6.039775848388672,17.544368743896484,-0.6485288143157959,-0.0,-0.0,-1.0,0.1170583314393643,1.0
7.0797600746154785,16.60541534423828,-0.3245251178741455,-0.0,-0.0,-1.0,0.1634332874986158,2.0
6.9688005447387695,16.75341796875,-0.3707616329193115,-0.0,-0.0,-1.0,0.2536199367927974,1.0
6.72452449798584,17.119117736816406,-0.4834241867065429,-0.0,-0.0,-1.0,0.2465202028012579,2.0
6.45542049407959,17.303157806396484,-0.5518009662628174,-0.0,-0.0,-1.0,0.1090302984393087,1.0
7.0971784591674805,17.529691696166992,-0.4219765663146972,-0.0,-0.0,-1.0,0.2452094252879275,2.0
6.9475507736206055,16.629474639892578,-0.2050025463104248,-0.0,-0.0,-1.0,0.1662845689484849,2.0
6.932872772216797,16.945636749267578,-0.285557746887207,-0.0,-0.0,-1.0,0.1781479501109925,1.0
7.072484016418457,15.786920547485352,-0.415602445602417,-0.0,-0.0,-1.0,0.1770943429109341,1.0
7.267286777496338,15.81223487854004,-0.4111416339874267,-0.0,-0.0,-1.0,0.1356045541220482,1.0
6.784197807312012,16.444812774658203,-0.3088767528533935,-0.0,-0.0,-1.0,0.1559851451189972,2.0
6.3983306884765625,16.471405029296875,-0.307413101196289,-0.0,-0.0,-1.0,0.1374604558423666,1.0
6.664348125457764,16.590579986572266,-0.2858753204345703,-0.0,-0.0,-1.0,0.1885957222878668,1.0
7.523162841796875,15.75709342956543,-0.6338763236999512,-0.0,-0.0,-1.0,0.1113295036072936,2.0
6.820697784423828,15.996383666992188,-0.6075100898742676,-0.0,-0.0,-1.0,0.1446743544438675,1.0
7.16890811920166,15.913063049316406,-0.6137785911560059,-0.0,-0.0,-1.0,0.1124924034023083,1.0
7.491196632385254,15.80561637878418,-0.6261019706726074,-0.0,-0.0,-1.0,0.1704861050653081,2.0
5.821065902709961,16.489887237548828,-0.5568122863769531,-0.0,-0.0,-1.0,0.0738566345317029,1.0
6.9938154220581055,16.180702209472656,-0.5719854831695557,-0.0,-0.0,-1.0,0.1521069057670206,1.0
5.992506980895996,16.837173461914062,-0.492769718170166,-0.0,-0.0,-1.0,0.1629968838674417,1.0
6.362966060638428,16.825410842895508,-0.4814453125,-0.0,-0.0,-1.0,0.1688524121039664,1.0
6.7015061378479,16.721630096435547,-0.4881970882415771,-0.0,-0.0,-1.0,0.1949887606836818,2.0
7.434227466583252,16.76119613647461,-0.4635052680969238,-0.0,-0.0,-1.0,0.1191023431476142,1.0
5.8751630783081055,17.036720275878906,-0.4643867015838623,-0.0,-0.0,-1.0,0.112301115930475,1.0
6.141494274139404,17.099910736083984,-0.4434592723846435,-0.0,-0.0,-1.0,0.169257430345448,2.0
6.541865825653076,15.944177627563477,-0.4219090938568115,-0.0,-0.0,-1.0,0.139438310546144,1.0
7.1393609046936035,15.689455032348633,-0.4478940963745117,-0.0,-0.0,-1.0,0.1269343041702596,1.0
6.878320693969727,15.986278533935549,-0.4072484970092773,-0.0,-0.0,-1.0,0.2326300128619363,1.0
5.964916706085205,16.92723274230957,-0.2878344058990478,-0.0,-0.0,-1.0,0.1421533789636453,1.0
6.170426368713379,16.748821258544922,-0.3085865974426269,-0.0,-0.0,-1.0,0.1853970369471102,1.0
6.43699312210083,16.639562606811523,-0.3175013065338135,-0.0,-0.0,-1.0,0.1863844640752996,1.0
5.894436359405518,15.68020248413086,-0.4831037521362304,-0.0,-0.0,-1.0,0.1283431741658309,1.0
6.741003036499023,16.578161239624023,-0.3150599002838135,0.1227896279519915,-0.92505898926652,-0.3594281202752723,0.2605077095339047,3.0
6.837021827697754,16.490835189819336,-0.3256006240844726,-0.0,-0.0,-1.0,0.2094813188691199,1.0
7.071606159210205,16.619529724121094,-0.298480749130249,-0.0,-0.0,-1.0,0.1676118119752377,2.0
5.712882995605469,16.23362922668457,-0.5923457145690918,-0.0,-0.0,-1.0,0.1291223516801147,2.0
6.29563045501709,16.36301612854004,-0.5380668640136719,-0.0,-0.0,-1.0,0.1472726438628937,1.0
7.030821800231934,15.784011840820312,-0.5931744575500488,-0.0,-0.0,-1.0,0.1324604680717409,1.0
6.317530632019043,17.06165313720703,-0.4266297817230224,-0.0,-0.0,-1.0,0.1605807673241258,1.0
6.62014627456665,16.867862701416016,-0.4401624202728271,-0.0,-0.0,-1.0,0.1458117575818358,1.0
6.895507335662842,16.65226936340332,-0.4600691795349121,-0.0,-0.0,-1.0,0.1618328712792461,1.0
7.309457302093506,16.1419677734375,-0.522479772567749,-0.0,-0.0,-1.0,0.0930948385467292,2.0
7.361895084381104,15.961502075195312,-0.5495328903198242,-0.0,-0.0,-1.0,0.1090453504500075,1.0
7.676456451416016,15.74822998046875,-0.5711143016815186,0.1382339651199683,0.936542727923849,-0.3221476209134049,0.2330671759069889,5.0
6.489743232727051,17.176963806152344,-0.3984761238098144,-0.0,-0.0,-1.0,0.2140664562627109,2.0
6.832916259765625,17.020519256591797,-0.4044528007507324,-0.0,-0.0,-1.0,0.2129167985801303,2.0
7.185277938842773,16.794981002807617,-0.4227874279022217,-0.0,-0.0,-1.0,0.1913912893761392,2.0
5.94623327255249,17.04317855834961,-0.6045951843261719,-0.0,-0.0,-1.0,0.1205343823654736,1.0
6.155083179473877,17.221134185791016,-0.5635552406311035,-0.0,-0.0,-1.0,0.1509209046499879,1.0
7.32958459854126,16.49979019165039,-0.6427617073059082,-0.0,-0.0,-1.0,0.0717805801574109,2.0
6.195770740509033,17.310897827148438,-0.5460391044616699,-0.0,-0.0,-1.0,0.0977202392401712,2.0
6.59812068939209,17.378541946411133,-0.5155258178710938,-0.0,-0.0,-1.0,0.0883752285729065,2.0
6.642784595489502,17.266786575317383,-0.5332052707672119,-0.0,-0.0,-1.0,0.0942998706767377,1.0
7.072017669677734,17.506912231445312,-0.4728484153747558,-0.0,-0.0,-1.0,0.2423426293727137,1.0
7.360815525054932,17.007957458496094,-0.5506644248962402,-0.0,-0.0,-1.0,0.1535946295051054,1.0
7.5037970542907715,16.822086334228516,-0.579218864440918,-0.0,-0.0,-1.0,0.1770347700395023,1.0
7.644232273101807,15.824670791625977,-0.1340422630310058,-0.0,-0.0,-1.0,0.0680691002497874,1.0
6.193786144256592,16.435684204101562,-0.5067434310913086,-0.0,-0.0,-1.0,0.0970646261051577,2.0
6.970170974731445,15.827289581298828,-0.6078197956085205,-0.0,-0.0,-1.0,0.1849044321577651,1.0
7.136734485626221,16.094985961914062,-0.55586838722229,-0.0,-0.0,-1.0,0.0872834921424793,1.0
7.3309197425842285,16.069847106933594,-0.5589756965637207,-0.0,-0.0,-1.0,0.0993122116247174,1.0
7.616758346557617,16.046716690063477,-0.5616564750671387,-0.0,-0.0,-1.0,0.0930325724772806,1.0
5.910322189331055,17.4417724609375,-0.3305947780609131,-0.0,-0.0,-1.0,0.1734833563210689,1.0
6.149619102478027,17.097911834716797,-0.3866810798645019,-0.0,-0.0,-1.0,0.1629538406792223,1.0
6.272263526916504,16.917404174804688,-0.4168605804443359,-0.0,-0.0,-1.0,0.1586707634691767,1.0
6.652393341064453,16.89954376220703,-0.4126162528991699,-0.0,-0.0,-1.0,0.0851083764049301,1.0
6.844488143920898,16.662109375,-0.4534502029418945,0.5390795362602908,0.6507786532355887,-0.5346778451350526,0.1473076559215342,3.0
7.09279203414917,17.352481842041016,-0.3213973045349121,-0.0,-0.0,-1.0,0.1329235053628057,1.0
7.182027816772461,16.840145111083984,-0.4156544208526611,-0.0886920802455182,0.1779665950245664,-0.9800314311067192,0.2008405514690012,4.0
7.360690116882324,17.504955291748047,-0.28920578956604,-0.0,-0.0,-1.0,0.2284075981874806,2.0
7.421700477600098,16.916988372802734,-0.3987150192260742,-0.0,-0.0,-1.0,0.1295777637645381,1.0
6.173922538757324,16.682273864746094,-0.5429420471191406,-0.0,-0.0,-1.0,0.1559888227606091,2.0
6.238805770874023,16.511028289794922,-0.5721335411071777,-0.0,-0.0,-1.0,0.0519273110245695,1.0
6.460346698760986,16.753150939941406,-0.518805980682373,-0.0,-0.0,-1.0,0.1773515903932065,2.0
6.868211269378662,15.802518844604492,-0.6853456497192383,-0.0,-0.0,-1.0,0.1595655172109197,1.0
7.025988578796387,16.016876220703125,-0.6401791572570801,-0.0,-0.0,-1.0,0.1347238931558185,2.0
7.333197116851807,16.09528923034668,-0.617656946182251,-0.0,-0.0,-1.0,0.103735418946731,1.0
7.574704647064209,15.94819164276123,-0.6411478519439697,-0.0,-0.0,-1.0,0.1239512245362331,1.0
6.142274856567383,16.971755981445312,-0.4908723831176758,-0.0,-0.0,-1.0,0.1272763379521501,1.0
6.400390625,17.11219024658203,-0.4544751644134521,-0.0,-0.0,-1.0,0.2308055382542672,1.0
6.6011247634887695,16.905136108398438,-0.485330581665039,-0.0,-0.0,-1.0,0.1458309509426194,1.0
6.758575916290283,17.099571228027344,-0.4433739185333252,-0.0,-0.0,-1.0,0.2772273991083791,2.0
6.759629249572754,16.8031005859375,-0.4989485740661621,-0.0,-0.0,-1.0,0.1716195604935907,2.0
6.912631988525391,16.648956298828125,-0.5230989456176758,-0.0,-0.0,-1.0,0.2435852473680515,2.0
7.185302734375,16.82465362548828,-0.4816296100616455,-0.8569482812802082,-0.3136063074942834,-0.4090118911605115,0.2112611290709234,3.0
7.246397972106934,16.77264404296875,-0.4898266792297363,-0.1120448882107876,-0.6328392000999501,-0.7661334673819488,0.2500209988890297,3.0
7.362367630004883,17.518550872802734,-0.3446376323699951,-0.8246581279980806,0.5643164036118493,-0.0385482624937835,0.2593229372972218,3.0
7.484908580780029,16.91744613647461,-0.4558379650115967,-0.0,-0.0,-1.0,0.1172739678107886,1.0
7.631167411804199,16.793245315551758,-0.4763550758361816,-0.0,-0.0,-1.0,0.139671891901729,1.0
7.682097911834717,15.917118072509766,-0.0688009262084961,-0.0,-0.0,-1.0,0.0575570438848413,1.0
5.762218475341797,17.10318374633789,-0.592724084854126,-0.0,-0.0,-1.0,0.0802676273969451,1.0
6.233640193939209,17.160049438476562,-0.5518631935119629,-0.0,-0.0,-1.0,0.163338385325858,1.0
6.555691242218018,17.586566925048828,-0.4505579471588135,-0.0,-0.0,-1.0,0.0658226864393345,1.0
6.584071636199951,17.192235946655273,-0.5247516632080078,-0.0,-0.0,-1.0,0.0755910407510137,1.0
7.0296454429626465,17.458065032958984,-0.4481079578399658,-0.0,-0.0,-1.0,0.2468991551281704,2.0
7.14054012298584,16.854732513427734,-0.5612437725067139,-0.0,-0.0,-1.0,0.1533316785628314,1.0
7.276708126068115,16.584463119506836,-0.6084330081939697,-0.0,-0.0,-1.0,0.0957050169340834,1.0
7.316307067871094,17.621585845947266,-0.400822639465332,-0.0,-0.0,-1.0,0.1425106136225594,1.0
7.411053657531738,17.54020881652832,-0.412043809890747,-0.8376400859139964,0.3457071372684108,0.4229014799118966,0.2053086827217662,3.0
7.534576892852783,16.86349868774414,-0.5409510135650635,-0.0,-0.0,-1.0,0.1141999613104861,1.0
7.560149669647217,16.631752014160156,-0.5864808559417725,-0.0,-0.0,-1.0,0.0931967082005501,1.0
7.63936710357666,17.289031982421875,-0.4510102272033691,-0.0,-0.0,-1.0,0.1177639309032076,1.0
6.628917694091797,16.55319595336914,-0.0921666622161865,-0.0,-0.0,-1.0,0.1253372362662875,1.0
7.582651138305664,15.832883834838867,-0.1849362850189209,-0.0,-0.0,-1.0,0.106267696255806,1.0
5.819886207580566,15.681320190429688,-0.5262541770935059,-0.0,-0.0,-1.0,0.1672190472289899,2.0
7.235936641693115,17.583276748657227,-0.6017029285430908,-0.0,-0.0,-1.0,0.1590714919931418,1.0
7.579911708831787,17.254806518554688,-0.6474518775939941,-0.0,-0.0,-1.0,0.1852158554153998,2.0
5.876042366027832,15.943089485168455,-0.476438045501709,-0.4814313923909107,0.591474076060518,-0.6468247303318767,0.253649704660615,5.0
6.619868278503418,16.596277236938477,-0.3179969787597656,-0.0,-0.0,-1.0,0.2030204491855109,1.0
6.725174427032471,16.576383590698242,-0.315892219543457,0.1227896279519915,-0.92505898926652,-0.3594281202752723,0.2664803019536728,3.0
6.817128658294678,16.436561584472656,-0.3364706039428711,0.150168809899018,-0.8836345907378764,0.4434402311304402,0.2590107716567358,3.0
7.65516996383667,17.6024169921875,-0.5678095817565918,-0.0,-0.0,-1.0,0.1494268471157327,1.0
5.949699401855469,16.57834243774414,-0.6690940856933594,-0.0,-0.0,-1.0,0.0617143687915544,2.0
6.199088096618652,16.571308135986328,-0.6469297409057617,-0.0,-0.0,-1.0,0.0403899717971614,2.0
6.472253799438477,17.158395767211914,-0.5076487064361572,-0.0,-0.0,-1.0,0.201374009673158,1.0
6.287779808044434,16.845861434936523,-0.5854060649871826,-0.0,-0.0,-1.0,0.1313134424625355,1.0
6.281700134277344,16.59719467163086,-0.6342720985412598,-0.0,-0.0,-1.0,0.0403637057033903,1.0
6.779514312744141,15.869565963745115,-0.7369556427001953,-0.0,-0.0,-1.0,0.1479572361619828,1.0
6.737870216369629,16.95163345336914,-0.5234987735748291,-0.0,-0.0,-1.0,0.1597579241357216,1.0
6.867598533630371,16.660200119018555,-0.5700421333312988,-0.0,-0.0,-1.0,0.2255936998997937,2.0
6.809972763061523,16.137760162353516,-0.6799478530883789,-0.0,-0.0,-1.0,0.0795273345449456,1.0
6.956108093261719,15.822593688964844,-0.732806921005249,-0.0,-0.0,-1.0,0.0945845160558098,1.0
7.162720680236816,16.72981834411621,-0.5367426872253418,-0.0,-0.0,-1.0,0.2576192748182339,2.0
7.252201557159424,16.26104164123535,-0.6280636787414551,-0.0,-0.0,-1.0,0.1090104443042885,1.0
7.39323616027832,15.901162147521973,-0.6840441226959229,-0.0,-0.0,-1.0,0.1642311075980335,1.0
7.61790657043457,15.887763023376465,-0.1699805259704589,-0.0,-0.0,-1.0,0.1089965299742394,1.0
7.684170246124268,15.763068199157717,0.3237643241882324,-0.0,-0.0,-1.0,0.0839145731475695,1.0
5.783621788024902,15.906253814697266,-0.4531838893890381,-0.2613534295658343,-0.8280029636466464,-0.4960901904357175,0.171132622930954,3.0
5.799707412719727,15.710341453552246,-0.4864563941955566,0.0781239906747604,0.6200750482856923,-0.7806430532417145,0.0954657393976215,3.0
6.473525047302246,17.4272403717041,-0.6027159690856934,-0.0,-0.0,-1.0,0.0491597435999117,1.0
6.712278366088867,17.384288787841797,-0.5829346179962158,-0.0,-0.0,-1.0,0.0558820138914186,2.0
7.18405818939209,17.546916961669922,-0.4957218170166015,-0.0,-0.0,-1.0,0.1666378404422613,1.0
7.258308410644531,17.2838134765625,-0.541471004486084,-0.0,-0.0,-1.0,0.1316607797718406,2.0
7.343696594238281,16.88832664489746,-0.6151490211486816,-0.0,-0.0,-1.0,0.2256743416478818,1.0
7.396344184875488,17.514450073242188,-0.4785792827606201,-0.953423786125519,-0.3011909967104829,-0.0163422015232511,0.2409989984294064,3.0
7.602024555206299,16.91131019592285,-0.5834965705871582,-0.0,-0.0,-1.0,0.1472103922724175,1.0
7.578201770782471,16.69961929321289,-0.6312613487243652,-0.0,-0.0,-1.0,0.1320439630040559,1.0
6.753962516784668,16.588743209838867,-0.2468445301055908,-0.0,-0.0,-1.0,0.169457415360781,1.0
6.760852813720703,16.741230010986328,-0.2189893722534179,-0.0,-0.0,-1.0,0.1836320325968612,1.0
6.9070281982421875,16.251741409301758,-0.2950742244720459,-0.0,-0.0,-1.0,0.107445910386822,1.0
5.736656188964844,16.265804290771484,-0.6192367076873779,-0.0,-0.0,-1.0,0.1329559047069371,2.0
6.518322944641113,15.782262802124023,-0.613926887512207,-0.0,-0.0,-1.0,0.1192210197826248,1.0
5.923774719238281,17.509441375732422,-0.3803884983062744,-0.0,-0.0,-1.0,0.1597408548930036,1.0
6.184433937072754,16.405868530273438,-0.5380070209503174,-0.0,-0.0,-1.0,0.0494466611840328,2.0
6.36002254486084,16.058183670043945,-0.5804369449615479,-0.0,-0.0,-1.0,0.0995677975878399,1.0
6.367916107177734,17.137554168701172,-0.3844749927520752,-0.0,-0.0,-1.0,0.1691537943136858,2.0
6.570661544799805,16.75331687927246,-0.4272112846374511,-0.0,-0.0,-1.0,0.2563159416087983,2.0
6.692734718322754,16.46742057800293,-0.4648053646087646,-0.0,-0.0,-1.0,0.2309274702265118,1.0
6.647059440612793,15.865966796875,-0.5833570957183838,-0.0,-0.0,-1.0,0.145560750034486,1.0
6.803593635559082,15.753381729125977,-0.5873582363128662,-0.0,-0.0,-1.0,0.1526575156407287,1.0
6.669727325439453,17.154430389404297,-0.3427636623382568,-0.0,-0.0,-1.0,0.1223000716600323,1.0
6.720804214477539,16.766698837280273,-0.4064598083496094,-0.0,-0.0,-1.0,0.1654365534624061,1.0
6.866132736206055,16.488216400146484,-0.4404873847961426,-0.0,-0.0,-1.0,0.1886767218419721,2.0
7.139431953430176,15.717730522155762,-0.5579254627227783,0.9995421705778036,-0.0276997626280953,-0.0121726080590848,0.1014116289730899,3.0
7.463356018066406,15.83237648010254,-0.5011236667633057,-0.0099586819164838,0.3545548527765755,-0.9349821821976436,0.1659370491853284,3.0
5.827871322631836,15.67690372467041,-0.5101978778839111,0.6985092799469019,0.6985604525244912,-0.1552355629256348,0.1672190472289899,3.0
6.822859764099121,16.82927703857422,-0.1908900737762451,0.3599901270238252,0.8982608546003477,-0.2520605989400645,0.1759098908492645,3.0
6.934796333312988,16.569473266601562,-0.2147841453552246,-0.0,-0.0,-1.0,0.1511577859815903,2.0
5.710044860839844,16.14070701599121,-0.2379343509674072,-0.0,-0.0,-1.0,0.1031385288627046,2.0
6.460298538208008,16.765335083007812,-0.0428428649902343,-0.0,-0.0,-1.0,0.1644709081325087,1.0
6.799696922302246,16.857011795043945,0.0210587978363037,-0.0,-0.0,-1.0,0.2287810526986909,1.0
6.891453742980957,16.16527557373047,-0.0579907894134521,-0.0,-0.0,-1.0,0.0700939517080476,2.0
7.687921524047852,15.907933235168455,0.0159657001495361,-0.0,-0.0,-1.0,0.0538811938896368,1.0
6.866694450378418,16.056884765625,0.0725593566894531,-0.0,-0.0,-1.0,0.0853705439383709,2.0
7.692484855651856,15.78501319885254,0.1898906230926513,-0.0,-0.0,-1.0,0.0507802383917708,2.0
7.30419921875,16.71522331237793,-0.4835100173950195,-0.0,-0.0,-1.0,0.2187547153821363,1.0
7.434932708740234,15.863391876220703,-0.489059567451477,0.0550807261005332,0.4054045575429879,-0.912476442619541,0.1592941246579772,3.0
7.043865203857422,17.275293350219727,-0.5402587652206421,-0.0,-0.0,-1.0,0.0746649854426046,1.0
7.421310424804688,15.915199279785156,-0.5552364587783813,-0.0,-0.0,-1.0,0.1808244675610924,1.0
7.213481903076172,17.36104393005371,-0.4873231649398803,-0.0,-0.0,-1.0,0.1843628369610302,1.0
7.0491943359375,16.992076873779297,-0.507648229598999,-0.0,-0.0,-1.0,0.2026372514411891,1.0
7.517009735107422,15.93252182006836,-0.5167902708053589,-0.4001027807093362,-0.3742439747646353,-0.8365758855125002,0.2161200002933859,3.0
7.691577911376953,15.799312591552734,-0.5118628740310669,-0.0,-0.0,-1.0,0.2065237102897714,2.0
6.500816345214844,17.358028411865234,-0.5221239328384399,-0.0,-0.0,-1.0,0.1179854016891448,2.0
7.205696105957031,16.782852172851562,-0.4923062324523926,-0.1668762894585965,0.0474445024120663,-0.9848356833540316,0.2391515105320268,4.0
6.68170166015625,17.148710250854492,-0.5152043104171753,-0.0,-0.0,-1.0,0.1448277359339758,1.0
6.7903900146484375,16.564212799072266,-0.5166603326797485,0.5673818588249624,0.2944831206275041,0.7689977359796437,0.2536463956106653,4.0
7.535541534423828,15.767568588256836,-0.4877266883850097,0.064055681476861,0.8635022428500339,-0.5002606783103144,0.146139208340895,3.0
6.612892150878906,16.32705307006836,-0.5288591384887695,-0.0,-0.0,-1.0,0.1793214347217941,1.0
5.804313659667969,16.0114803314209,-0.5750240087509155,-0.0,-0.0,-1.0,0.1313486527782635,1.0
6.650768280029297,17.18979263305664,-0.38611900806427,-0.0,-0.0,-1.0,0.151411237770205,1.0
6.662574768066406,16.704872131347656,-0.3930290937423706,-0.0,-0.0,-1.0,0.2145820395213446,1.0
6.753150939941406,16.45270347595215,-0.392414927482605,0.9154353909213476,-0.0037892309732454,0.4024471229581726,0.2110640948082756,4.0
7.388908386230469,17.497512817382812,-0.5447874069213867,-0.0,-0.0,-1.0,0.1866002061180096,1.0
6.917579650878906,17.13788604736328,-0.5814930200576782,0.5954181123214611,-0.4784588095962911,-0.6454102873670734,0.0993277656328291,3.0
7.280464172363281,16.824039459228516,-0.5680782794952393,-0.0,-0.0,-1.0,0.2544526961398879,2.0
6.8848114013671875,16.740713119506836,-0.5935570001602173,-0.0,-0.0,-1.0,0.2103892006896645,1.0
6.906421661376953,16.503971099853516,-0.5984295606613159,-0.0,-0.0,-1.0,0.181508921122618,1.0
6.819000244140625,16.510400772094727,-0.603430986404419,-0.0,-0.0,-1.0,0.1576138607583247,1.0
7.660255432128906,15.753478050231934,-0.5738562345504761,0.044553672933748,0.9434699699020392,-0.3284499750664595,0.2157813478717711,4.0
5.981758117675781,16.08629035949707,-0.6640903949737549,-0.0,-0.0,-1.0,0.0911063202925021,1.0
7.677713394165039,16.011693954467773,0.1969072818756103,-0.0,-0.0,-1.0,0.0538811938896368,1.0
7.477268218994141,17.577077865600586,-0.3758989572525024,-0.0,-0.0,-1.0,0.1241283660520849,1.0
7.212554931640625,17.455469131469727,-0.396053671836853,-0.0,-0.0,-1.0,0.1799761810455818,1.0
7.225791931152344,16.846895217895508,-0.4097342491149902,0.1539054513940297,-0.9880221491927812,-0.0111957463207069,0.1428370279185844,3.0
6.765645980834961,17.15118980407715,-0.4325224161148071,-0.0,-0.0,-1.0,0.2179816425380088,1.0
6.794651031494141,16.679412841796875,-0.4421420097351074,0.4646575578894011,-0.7406465077860225,0.4853206202095964,0.256588750631388,4.0
6.838232040405273,16.48377227783203,-0.4441777467727661,-0.0,-0.0,-1.0,0.1959197330934449,2.0
7.613252639770508,15.763689041137695,-0.4119917154312134,-0.0,-0.0,-1.0,0.1638320664100985,1.0
7.426759719848633,15.90467643737793,-0.4204951524734497,-0.0,-0.0,-1.0,0.1851334111687885,2.0
5.88140869140625,16.022661209106445,-0.5187951326370239,0.3357709874406203,0.8455613875159945,-0.4150708179758929,0.198373134267825,4.0
7.396781921386719,17.418607711791992,-0.421812891960144,-0.0,-0.0,-1.0,0.2571621601227417,2.0
7.164461135864258,17.429689407348633,-0.4380135536193847,-0.0,-0.0,-1.0,0.2411011091713281,2.0
6.773296356201172,17.09349822998047,-0.4745012521743774,-0.8864543611998459,0.1291914805707114,-0.4444189767074771,0.2688778655432434,3.0
6.592832565307617,17.278526306152344,-0.4824836254119873,-0.0,-0.0,-1.0,0.0967887143235992,1.0
7.119968414306641,16.736160278320312,-0.4593876600265503,-0.0,-0.0,-1.0,0.2234784224220761,2.0
6.7849578857421875,16.56597137451172,-0.4878169298171997,0.7311137507680568,0.3804014541309549,0.566363326083989,0.2119105375613308,6.0
7.412555694580078,15.909476280212402,-0.4616333246231079,0.395815416895523,0.91785376671241,-0.0295739527230306,0.1809562080177957,3.0
6.473270416259766,16.30110740661621,-0.5172744989395142,-0.0,-0.0,-1.0,0.1757518100549534,1.0
7.523365020751953,15.786087036132812,-0.4573210477828979,0.064055681476861,0.8635022428500339,-0.5002606783103144,0.1500988599189542,3.0
5.846593856811523,16.078161239624023,-0.5680723190307617,-0.0,-0.0,-1.0,0.1160277547134805,1.0
7.708906173706055,15.743306159973145,-0.5676918029785156,-0.0,-0.0,-1.0,0.2695878937470527,2.0
7.570444107055664,15.858588218688965,-0.5779533386230469,-0.0,-0.0,-1.0,0.1881221252605457,1.0
6.849155426025391,17.085643768310547,-0.4110320806503296,-0.0,-0.0,-1.0,0.1651314298063235,1.0
6.775144577026367,16.681550979614258,-0.4262734651565552,0.4867954971997866,-0.5564227743039133,0.6733675371904624,0.2159609219317474,3.0
6.662616729736328,16.804931640625,-0.4315215349197387,-0.0,-0.0,-1.0,0.1511175752010356,2.0
6.818632125854492,16.60015869140625,-0.4250924587249756,-0.0,-0.0,-1.0,0.2180515963664843,2.0
6.874134063720703,15.791316986083984,-0.4418809413909912,-0.0,-0.0,-1.0,0.1097785401231749,1.0
5.839839935302734,15.874433517456056,-0.5157551765441895,-0.1949511684914363,-0.5493998516579055,-0.8124985199384028,0.1913890533042352,3.0
7.680400848388672,15.656441688537598,0.0505897998809814,-0.0,-0.0,-1.0,0.0336323764421133,1.0
6.458017349243164,17.17682456970215,-0.3674513101577759,-0.4201355917892151,-0.1700821957021684,-0.8913799028568324,0.2024589703708432,4.0
6.6993408203125,16.650333404541016,-0.3743335008621216,-0.0,-0.0,-1.0,0.2152865796198426,2.0
6.745750427246094,16.44051742553711,-0.381486177444458,0.90791938696428,-0.3621960016437655,0.2109418004276909,0.25051148558353,3.0
6.44395637512207,16.151540756225586,-0.4215259552001953,-0.0,-0.0,-1.0,0.1555909299386258,1.0
7.462778091430664,15.8521728515625,-0.3546422719955444,-0.0,-0.0,-1.0,0.1795319776209466,2.0
5.85515022277832,15.91859531402588,-0.4822816848754883,-0.7418904886280899,0.5935442690890885,-0.311935415614633,0.1893023629354884,4.0
6.575214385986328,15.664677619934082,-0.437542200088501,-0.0,-0.0,-1.0,0.1337670743589401,1.0
5.756923675537109,15.69537353515625,-0.5026272535324097,-0.0,-0.0,-1.0,0.0826259073899349,2.0
6.778249740600586,16.62639617919922,-0.3204174041748047,-0.0,-0.0,-1.0,0.2431242538911122,2.0
5.746305465698242,15.847115516662598,-0.4524434804916382,-0.0,-0.0,-1.0,0.1076278211072811,1.0
6.778871536254883,15.776793479919434,-0.3695882558822632,-0.0,-0.0,-1.0,0.1207628550683595,1.0
7.570196151733398,17.588146209716797,-0.5293451547622681,-0.0815348515793049,0.9449008555616996,0.3170401254363693,0.1494268471157327,4.0
7.191524505615234,17.217365264892578,-0.5824328660964966,-0.0,-0.0,-1.0,0.1188701488861582,1.0
7.116594314575195,17.19222068786621,-0.5913741588592529,-0.0,-0.0,-1.0,0.1064844278474806,1.0
7.0124969482421875,17.418216705322266,-0.5191113948822021,-0.0,-0.0,-1.0,0.1761697555737017,2.0
6.735071182250977,17.324079513549805,-0.5512831211090088,-0.0,-0.0,-1.0,0.0619534041618481,1.0
6.836982727050781,17.087181091308594,-0.5443742275238037,-0.0,-0.0,-1.0,0.1374694926870445,2.0
6.855745315551758,16.597898483276367,-0.5524431467056274,0.7466482617217262,-0.3011143315256858,0.5931665302575356,0.2211777372955237,4.0
6.70068359375,16.4295654296875,-0.5734798908233643,0.897247864289846,-0.3752869908654765,0.2326068453731444,0.1774483226791888,3.0
6.467527389526367,16.346166610717773,-0.6012701988220215,-0.0,-0.0,-1.0,0.1580761775642926,1.0
6.4786529541015625,16.28670310974121,-0.6015093326568604,-0.2215743953052535,-0.742839162857787,-0.6317394759470498,0.1545369998205731,3.0
7.318796157836914,17.53436851501465,-0.4835381507873535,-0.0,-0.0,-1.0,0.1955852923286186,1.0
7.323232650756836,16.7758846282959,-0.4968869686126709,-0.0,-0.0,-1.0,0.1952754478264236,1.0
7.334602355957031,15.995250701904297,-0.5144737958908081,-0.0,-0.0,-1.0,0.095300553674482,1.0
7.6587724685668945,15.66740608215332,-0.487887978553772,-0.0,-0.0,-1.0,0.2099529583761034,1.0
6.87161922454834,16.42314338684082,-0.3162353038787842,-0.0,-0.0,-1.0,0.1904179689080553,1.0
6.70572566986084,16.3780460357666,-0.3342407941818237,-0.0,-0.0,-1.0,0.1772131593623793,2.0
6.427855491638184,17.393775939941406,-0.5353429317474365,-0.0,-0.0,-1.0,0.0876926411790655,1.0
6.55632209777832,17.26592445373535,-0.5229935646057129,-0.0,-0.0,-1.0,0.0863139387572458,2.0
6.252994537353516,16.93104362487793,-0.5687566995620728,-0.0,-0.0,-1.0,0.1434740088931581,1.0
6.683404922485352,16.70886993408203,-0.5230938196182251,-0.0,-0.0,-1.0,0.1438947783963656,2.0
6.39738655090332,16.31395149230957,-0.5708732604980469,-0.0,-0.0,-1.0,0.1274327260914785,1.0
6.161425590515137,16.094690322875977,-0.6076273918151855,-0.0,-0.0,-1.0,0.0832583549253085,1.0
6.475773811340332,16.255130767822266,-0.5633747577667236,-0.0,-0.0,-1.0,0.1767687595769471,2.0
6.819196701049805,17.11925506591797,-0.4949789047241211,-0.0982211075901108,0.268057033618598,-0.9583830344655366,0.161879612015533,3.0
7.423256874084473,17.40677261352539,-0.4152557849884033,-0.0,-0.0,-1.0,0.2233339707924479,2.0
6.88310432434082,16.882190704345703,-0.4938483238220215,-0.0,-0.0,-1.0,0.2148634452251624,2.0
6.793607711791992,16.591650009155273,-0.5133378505706787,0.7043009530788357,-0.709140527174829,-0.0328615308597915,0.252071678452518,5.0
7.224809646606445,16.716365814208984,-0.4570902585983276,-0.0,-0.0,-1.0,0.1828157803783163,1.0
6.846711158752441,16.428312301635742,-0.5122015476226807,-0.0,-0.0,-1.0,0.1951037891740944,2.0
7.424174308776856,16.111791610717773,-0.452678918838501,-0.0,-0.0,-1.0,0.0874799044069403,1.0
7.269803047180176,16.07754898071289,-0.4727811813354492,-0.0,-0.0,-1.0,0.1441122191144647,1.0
7.454899787902832,15.78714656829834,-0.4612296819686889,-0.0,-0.0,-1.0,0.1392755344609526,1.0
7.65294075012207,15.73554229736328,-0.6114246845245361,0.3431534844690347,0.8199098741021565,-0.4582504603887977,0.2139856757936034,3.0
6.90739631652832,16.348201751708984,-0.1990925073623657,-0.0,-0.0,-1.0,0.0719862176032203,1.0
7.359264373779297,16.481632232666016,-0.6558170318603516,-0.0,-0.0,-1.0,0.06978596634496,2.0
7.062078475952148,16.206619262695312,-0.6835670471191406,-0.0,-0.0,-1.0,0.0598547341397893,1.0
7.093900680541992,16.082162857055664,-0.6742135286331177,-0.0,-0.0,-1.0,0.0611892948959789,1.0
7.603130340576172,16.514780044555664,-0.6248685121536255,-0.0,-0.0,-1.0,0.0715622165254908,1.0
7.289520263671875,16.10834503173828,-0.6489102840423584,-0.0,-0.0,-1.0,0.0931508169653716,1.0
7.249832153320312,15.92724609375,-0.6471000909805298,-0.0,-0.0,-1.0,0.0875281609123548,1.0
6.79708194732666,16.932600021362305,-0.631508469581604,-0.0,-0.0,-1.0,0.1837654537936972,1.0
6.553197860717773,16.47832679748535,-0.6418541669845581,-0.0,-0.0,-1.0,0.2004512815526219,2.0
7.061875343322754,17.412548065185547,-0.624392032623291,-0.0,-0.0,-1.0,0.132483952284504,1.0
7.031007766723633,17.204296112060547,-0.6166921854019165,-0.0,-0.0,-1.0,0.0937350756453208,1.0
7.260809898376465,17.49591636657715,-0.6054161787033081,-0.9210992254964332,-0.3421455697548954,-0.1857757408462392,0.1880042523842015,3.0
7.125168800354004,16.98957061767578,-0.5942426919937134,-0.0,-0.0,-1.0,0.1892767638325712,2.0
6.861274719238281,16.621292114257812,-0.6094413995742798,-0.0,-0.0,-1.0,0.2252808429415253,1.0
6.588362693786621,15.938024520874023,-0.6179226636886597,-0.0,-0.0,-1.0,0.1449794301114997,1.0
7.362558364868164,16.145029067993164,-0.5269825458526611,-0.0,-0.0,-1.0,0.1122698207493651,2.0
7.502632141113281,15.91171932220459,-0.500607967376709,0.8447370623087211,-0.5308248752868752,0.0681487148720024,0.2613887002796494,3.0
6.749961853027344,16.748493194580078,-0.1300462484359741,-0.0,-0.0,-1.0,0.1270204257577662,1.0
5.740415573120117,16.015111923217773,-0.4336960315704345,-0.0,-0.0,-1.0,0.1500911411794757,1.0
6.392861366271973,17.480792999267578,-0.587990403175354,-0.0,-0.0,-1.0,0.0395950617763662,1.0
6.479314804077148,17.113128662109375,-0.5285688638687134,-0.0,-0.0,-1.0,0.169800679091332,2.0
7.15212345123291,17.512012481689453,-0.5411968231201172,-0.0,-0.0,-1.0,0.2371461035388706,1.0
6.851992607116699,17.107301712036133,-0.5016833543777466,0.2132998788785718,0.8526956139410538,-0.4768787598919415,0.1484353721190088,3.0
6.814877510070801,16.69343376159668,-0.4451783895492553,0.106771186826422,0.9366429115808532,-0.3336165011641651,0.2182360485542548,5.0
7.360539436340332,17.545839309692383,-0.5325297117233276,-0.0,-0.0,-1.0,0.1619573150083235,1.0
6.9852447509765625,16.683456420898438,-0.4315556287765503,0.7998464005799023,0.5846215894826936,-0.1358798461513087,0.2039392370987464,3.0
7.686882972717285,15.911767959594728,-0.2739205360412597,-0.0,-0.0,-1.0,0.1589370213862381,2.0
6.684235572814941,16.71567726135254,0.0426101684570312,-0.0,-0.0,-1.0,0.1889961114710176,1.0
6.988515853881836,16.387496948242188,-0.6426073312759399,-0.0,-0.0,-1.0,0.1035569686274725,1.0
6.970446586608887,15.675668716430664,-0.5810985565185547,-0.0,-0.0,-1.0,0.133720265117935,1.0
7.19099235534668,16.459280014038086,-0.6264371871948242,-0.0,-0.0,-1.0,0.0664433399640679,1.0
7.2399091720581055,16.16315460205078,-0.5930235385894775,-0.0,-0.0,-1.0,0.095961351896619,1.0
7.140478134155273,15.760103225708008,-0.5684418678283691,-0.0,-0.0,-1.0,0.1121813554055694,2.0
7.633279800415039,16.742834091186523,-0.6049015522003174,-0.0,-0.0,-1.0,0.2121924113406315,1.0
7.633383750915527,16.396940231323242,-0.5705001354217529,-0.0,-0.0,-1.0,0.0782159498677462,1.0
7.548974990844727,15.94466781616211,-0.5375115871429443,-0.0,-0.0,-1.0,0.1684898979773793,2.0
7.6067705154418945,15.729799270629885,-0.5115691423416138,-0.0,-0.0,-1.0,0.2403927395547626,2.0
6.847936630249023,16.68340492248535,-0.1909694671630859,-0.0,-0.0,-1.0,0.173886713303488,1.0
7.138429641723633,15.693102836608888,-0.5841870307922363,-0.0,-0.0,-1.0,0.0988257924703591,2.0
7.252269744873047,16.46674346923828,-0.6373536586761475,-0.0,-0.0,-1.0,0.0783282140299538,1.0
7.311666488647461,16.205686569213867,-0.6068143844604492,-0.0,-0.0,-1.0,0.0880051905327056,1.0
7.5229692459106445,15.716299057006836,-0.539551854133606,-0.0,-0.0,-1.0,0.1029396859116687,1.0
5.740987777709961,16.055463790893555,-0.2592561244964599,0.582863720526553,0.2856746576876076,-0.7606969654527438,0.0997039390228201,3.0
6.276240348815918,16.21140480041504,-0.6356422901153564,-0.0,-0.0,-1.0,0.1034362934014664,1.0
6.427463531494141,15.900760650634766,-0.5895544290542603,-0.0,-0.0,-1.0,0.1193520348998153,1.0
6.5867719650268555,16.435029983520508,-0.6248592138290405,-0.0,-0.0,-1.0,0.1268828261493339,2.0
6.839735984802246,15.902188301086426,-0.5454246997833252,-0.0,-0.0,-1.0,0.1757940611944191,1.0
7.49685001373291,15.905714988708496,-0.4757046699523926,-0.0,-0.0,-1.0,0.1885027416959732,2.0
7.512195587158203,15.784130096435549,-0.4621291160583496,0.064055681476861,0.8635022428500339,-0.5002606783103144,0.1500988599189542,3.0
7.66059684753418,15.888710021972656,-0.4566539525985718,-0.0,-0.0,-1.0,0.2441294049675003,1.0
6.856851577758789,17.20549201965332,-0.4544920921325683,-0.0,-0.0,-1.0,0.1310390929010396,1.0
6.685686111450195,16.8195743560791,-0.441706895828247,-0.0,-0.0,-1.0,0.1493669822044032,2.0
6.763164520263672,16.460500717163086,-0.4221264123916626,0.9154353909213476,-0.0037892309732454,0.4024471229581726,0.222862452028584,4.0
7.214853286743164,17.430749893188477,-0.4536405801773071,-0.0,-0.0,-1.0,0.1671250086414069,1.0
7.227561950683594,16.847341537475586,-0.4247897863388061,0.1539054513940297,-0.9880221491927812,-0.0111957463207069,0.1651046502836312,3.0
7.480646133422852,15.852750778198242,-0.3693233728408813,-0.0,-0.0,-1.0,0.2230725564274473,2.0
7.463884353637695,17.635847091674805,-0.4556487798690796,-0.0,-0.0,-1.0,0.1539806471314999,2.0
7.467166900634766,17.509626388549805,-0.4492460489273071,-0.0,-0.0,-1.0,0.1674216482268839,1.0
7.444328308105469,17.61288070678711,-0.4824951887130737,-0.0,-0.0,-1.0,0.1539806471314999,2.0
7.099874496459961,17.392597198486328,-0.4902416467666626,-0.0,-0.0,-1.0,0.2112623758861919,2.0
6.996610641479492,16.85617446899414,-0.4801280498504638,-0.0,-0.0,-1.0,0.2294952079980007,2.0
6.810686111450195,16.666088104248047,-0.4826878309249878,0.3508805973521924,0.6688608208164107,-0.6553686052738302,0.2224169045227388,6.0
6.792167663574219,16.52670669555664,-0.4798308610916137,-0.0,-0.0,-1.0,0.2582968860609276,2.0
6.787727355957031,16.37885284423828,-0.476205825805664,-0.0,-0.0,-1.0,0.1261306724769663,1.0
7.169450759887695,17.40721893310547,-0.4536213874816894,-0.0,-0.0,-1.0,0.1929726708427443,2.0
6.5031585693359375,17.096391677856445,-0.467565655708313,-0.0,-0.0,-1.0,0.1606930152983789,1.0
6.885576248168945,16.734203338623047,-0.4428553581237793,-0.0,-0.0,-1.0,0.1908126732559208,1.0
6.772357940673828,16.453067779541016,-0.4383590221405029,0.9219303672854854,-0.110776928280702,0.3711776798752079,0.2010314955546565,4.0
7.122642517089844,17.00785255432129,-0.5271749496459961,-0.0,-0.0,-1.0,0.1835676110263761,2.0
6.915163040161133,16.85679054260254,-0.5361671447753906,-0.0,-0.0,-1.0,0.151579892090977,1.0
7.258066177368164,16.905811309814453,-0.5184415578842163,0.2390699006326339,0.2106413086336602,-0.947879645159976,0.2355922893838507,3.0
6.952178955078125,16.684839248657227,-0.5317710638046265,-0.0,-0.0,-1.0,0.2464513852829543,2.0
7.64112663269043,16.029949188232422,-0.4855239391326904,-0.0,-0.0,-1.0,0.2017492839372501,1.0
7.257562637329102,17.436216354370117,-0.5789555311203003,-0.715087865387299,-0.2930652070170989,-0.6346354301580249,0.1266955889432435,3.0
6.787195205688477,17.08029556274414,-0.506062388420105,-0.0,-0.0,-1.0,0.1839512843558827,2.0
7.17060661315918,17.05803108215332,-0.5223171710968018,-0.0,-0.0,-1.0,0.1710000782466539,2.0
6.935585021972656,16.712430953979492,-0.4630571603775024,0.2864035021131268,0.8196649946399334,-0.496107176464173,0.1788268042615617,3.0
6.76671028137207,16.62367820739746,-0.4425207376480102,-0.0,-0.0,-1.0,0.22482394087722,2.0
7.259550094604492,17.465049743652344,-0.4276520013809204,-0.0,-0.0,-1.0,0.1482287541580517,1.0
6.711004257202148,17.080394744873047,-0.4834833145141601,0.1287221865422425,-0.0434309237499248,-0.9907292029379232,0.2126975746927433,3.0
7.092906951904297,16.890302658081055,-0.45437753200531,-0.0,-0.0,-1.0,0.2153347782283498,2.0
6.968965530395508,16.696935653686523,-0.4693877696990967,0.6367923521138996,0.7191279670541032,-0.2781195197929836,0.1499845883760552,4.0
6.926044464111328,16.5756893157959,-0.4758011102676391,0.4968363249332731,0.6511308211549177,0.5737441241258348,0.1913720542322011,3.0
6.688871383666992,16.82954216003418,-0.8743560314178467,-0.0,-0.0,-1.0,0.1939517570303289,1.0
6.339319229125977,16.901662826538086,-0.8898422718048096,-0.0,-0.0,-1.0,0.162062438339725,1.0
6.543304443359375,16.474027633666992,-0.860724687576294,-0.0,-0.0,-1.0,0.111945232820373,1.0
7.392061233520508,16.128259658813477,-0.4924924373626709,-0.0,-0.0,-1.0,0.1007074927374807,2.0
7.101959228515625,16.642791748046875,-0.5227197408676147,-0.0,-0.0,-1.0,0.1432373790057797,1.0
7.369447708129883,17.53213882446289,-0.2971838712692261,-0.9029529463534696,0.4289515810395805,0.0260099556945524,0.2284075981874806,4.0
6.832530975341797,16.6038761138916,-0.3052211999893188,0.5756423146632863,-0.1605975006877195,-0.8017757593878428,0.1264223541081466,3.0
6.794406890869141,17.014659881591797,-0.3153600692749023,-0.0,-0.0,-1.0,0.1995310610785085,1.0
7.228462219238281,16.741119384765625,-0.6417374610900879,-0.0,-0.0,-1.0,0.2263491886877724,2.0
7.104330062866211,16.859458923339844,-0.6521260738372803,-0.0,-0.0,-1.0,0.1945823543110122,1.0
6.581541061401367,16.485496520996094,-0.623950719833374,-0.0,-0.0,-1.0,0.1233357637444431,2.0
7.521810531616211,17.5843563079834,-0.5326650142669678,-0.3865056361417645,0.9159434140457842,0.1079863671803219,0.1754029192291734,5.0
7.018194198608398,16.582677841186523,-0.5054003000259399,-0.0,-0.0,-1.0,0.2316637885884215,1.0
6.9662017822265625,17.024282455444336,-0.5297367572784424,-0.0,-0.0,-1.0,0.1242522282883732,2.0
6.831172943115234,16.61305046081543,-0.5154107809066772,0.4999097734376014,-0.4371649127433267,0.7476476827274239,0.2381382517002785,6.0
7.604436874389648,15.7071533203125,-0.4603886604309082,-0.0,-0.0,-1.0,0.1660614266973198,1.0
7.212717056274414,17.058788299560547,-0.538573145866394,-0.0,-0.0,-1.0,0.1651593741708263,2.0
7.121339797973633,15.753458023071287,-0.4885010719299316,-0.0,-0.0,-1.0,0.1375106217229755,1.0
6.903646469116211,16.491580963134766,-0.5312668085098267,-0.0,-0.0,-1.0,0.211554974320785,1.0
7.0104217529296875,16.811710357666016,-0.5390077829360962,-0.0,-0.0,-1.0,0.1451994510758072,1.0
6.399604797363281,16.418527603149414,-0.5554784536361694,-0.0,-0.0,-1.0,0.1110147915734685,1.0
7.376472473144531,17.539737701416016,-0.3362221717834472,-0.9400527214930504,0.3385851646375154,0.0407549641258039,0.2490031104600813,4.0
7.069189071655273,17.447824478149414,-0.3503144979476928,-0.0,-0.0,-1.0,0.1961443638879006,1.0
6.704204559326172,16.670141220092773,-0.3468388319015503,-0.0,-0.0,-1.0,0.2146656975126441,2.0
6.872373580932617,17.039875030517578,-0.3487260341644287,-0.0,-0.0,-1.0,0.1999399456178304,1.0
6.654060363769531,16.487220764160156,-0.34410560131073,-0.0,-0.0,-1.0,0.1761310159466648,1.0
7.391300201416016,17.528406143188477,-0.4415211677551269,-0.0765433899980581,0.9736177885859922,-0.2149639765089194,0.2255646792940381,6.0
7.018110275268555,17.010038375854492,-0.4491157531738281,-0.0,-0.0,-1.0,0.1360513678081423,1.0
6.975185394287109,17.416744232177734,-0.4644860029220581,-0.0,-0.0,-1.0,0.1603536990679608,2.0
6.75151252746582,16.577777862548828,-0.4528158903121948,0.4199107154901857,-0.5672380777771672,0.7084602699772122,0.1987538813342348,4.0
6.754018783569336,16.994033813476562,-0.4654778242111206,-0.401786737027119,-0.1079822842647903,-0.9093444035314991,0.1827903774717552,3.0
6.524566650390625,17.05235481262207,-0.4819258451461792,-0.0,-0.0,-1.0,0.1387162292340121,1.0
7.589956283569336,16.858680725097656,-0.4378277063369751,-0.0,-0.0,-1.0,0.1331459856152073,1.0
7.393716812133789,17.522693634033203,-0.4772261381149292,-0.953423786125519,-0.3011909967104829,-0.0163422015232511,0.2550352445022873,3.0
7.448408126831055,15.739511489868164,-0.4059042930603027,-0.0,-0.0,-1.0,0.1945306168378711,1.0
7.119665145874023,16.74890899658203,-0.4674535989761352,0.3004006092735154,-0.5048539705970898,-0.8092477632471116,0.2234784224220761,3.0
6.913906097412109,17.007741928100586,-0.4920263290405273,-0.0,-0.0,-1.0,0.1554663670366091,2.0
6.929115295410156,17.362239837646484,-0.5043842792510986,-0.0,-0.0,-1.0,0.1144647326162473,2.0
6.6045074462890625,16.390365600585938,-0.4910882711410522,-0.0,-0.0,-1.0,0.1589147624239206,1.0
6.753427505493164,16.573387145996094,-0.4872106313705444,0.2179366169822129,0.9729895746476132,-0.0761243627586134,0.1844147527954613,4.0
6.472644805908203,17.00114631652832,-0.5235065221786499,-0.0,-0.0,-1.0,0.0948626861393062,1.0
6.813346862792969,16.625825881958008,-0.3233911991119385,0.2951152513741497,-0.0488223347437985,-0.9542134813743391,0.2268397757571273,4.0
7.649032592773437,15.760778427124023,-0.5389765501022339,0.3287182450808392,0.944291732083994,-0.016044939039584,0.233067175906989,4.0
7.430084228515625,16.166847229003906,-0.5893493890762329,-0.0,-0.0,-1.0,0.0985867033431798,1.0
7.090217590332031,15.71633529663086,-0.5681126117706299,-0.0,-0.0,-1.0,0.122162563863674,1.0
6.882740020751953,16.64340591430664,0.0513426065444946,-0.0,-0.0,-1.0,0.2335045223054209,1.0
6.871799468994141,16.820451736450195,-0.206151008605957,-0.0,-0.0,-1.0,0.1858145339236996,2.0
6.878026962280273,16.873994827270508,-0.4774096012115478,-0.0,-0.0,-1.0,0.1744620893221422,2.0
6.966207504272461,17.22979736328125,-0.4724750518798828,-0.0,-0.0,-1.0,0.0690920331614318,1.0
6.1939239501953125,17.630329132080078,-0.5491917133331299,-0.0,-0.0,-1.0,0.0882733851832117,1.0
5.898872375488281,16.15268898010254,-0.563430905342102,-0.0,-0.0,-1.0,0.1397323088891678,1.0
5.778299331665039,16.10873794555664,-0.3224296569824219,-0.0,-0.0,-1.0,0.1143790559841596,1.0
6.821895599365234,16.89056396484375,-0.3684382438659668,-0.0,-0.0,-1.0,0.2519588115295129,1.0
6.743692398071289,16.62671661376953,-0.3715294599533081,-0.0,-0.0,-1.0,0.211872903867577,1.0
6.533025741577148,16.741764068603516,-0.3925271034240722,-0.0,-0.0,-1.0,0.1653142320220443,1.0
7.378121376037598,17.565053939819336,-0.3554359674453735,-0.0,-0.0,-1.0,0.2490031104600812,2.0
7.587579727172852,15.79684352874756,-0.3604706525802612,-0.0,-0.0,-1.0,0.1587674755788819,1.0
6.822702407836914,16.900808334350586,-0.4220116138458252,-0.0,-0.0,-1.0,0.2066936074274729,1.0
6.729036331176758,16.4992733001709,-0.437827467918396,-0.0,-0.0,-1.0,0.1898703696617594,1.0
6.691564559936523,16.726638793945312,-0.4381940364837646,-0.0,-0.0,-1.0,0.2707830132903525,1.0
6.460004806518555,17.135601043701172,-0.4562865495681762,-0.0,-0.0,-1.0,0.1905423275453761,2.0
5.862949371337891,16.02079963684082,-0.5358059406280518,0.3357709874406203,0.8455613875159945,-0.4150708179758929,0.1317108064510595,4.0
5.834785461425781,15.798887252807615,-0.5427063703536987,-0.0,-0.0,-1.0,0.0613385046747608,2.0
6.887849807739258,16.626562118530273,-0.3050425052642822,-0.0,-0.0,-1.0,0.1403597756108096,2.0
6.695834159851074,16.404897689819336,-0.3278118371963501,-0.0,-0.0,-1.0,0.1358582630295873,2.0
6.384707450866699,17.271142959594727,-0.3347322940826416,-0.0,-0.0,-1.0,0.1599229874533181,1.0
6.848508834838867,16.64257049560547,-0.3015003204345703,0.2144265789764557,-0.0559063105981384,-0.9751388243033696,0.2387531435400637,4.0
7.684199333190918,15.677689552307127,0.2607169151306152,-0.483444289656013,-0.4322084165117377,-0.7612341975341159,0.0839145731475695,3.0
6.743819236755371,16.585172653198242,-0.3321430683135986,0.1227896279519915,-0.92505898926652,-0.3594281202752723,0.276356516795186,3.0
5.841823577880859,15.964151382446287,-0.4470988512039184,-0.0,-0.0,-1.0,0.2044053921677507,2.0
6.60025691986084,17.335086822509766,-0.5112084150314331,-0.0503004703994662,-0.1011894994923601,-0.9935947603877942,0.0942291629937407,3.0
6.096909523010254,17.59173583984375,-0.5551126003265381,-0.0,-0.0,-1.0,0.106483968430905,1.0
6.53812313079834,16.21520233154297,-0.6107150316238403,-0.0,-0.0,-1.0,0.1776552396175392,1.0
6.34702205657959,16.085952758789062,-0.6457550525665283,-0.0,-0.0,-1.0,0.0984745085224511,2.0
7.43806266784668,17.317867279052734,-0.4065295457839966,-0.0,-0.0,-1.0,0.2023094318227993,1.0
7.227956771850586,17.559097290039062,-0.4143152236938476,-0.0,-0.0,-1.0,0.1332249475059132,1.0
7.052191734313965,17.42072296142578,-0.4472997188568115,-0.0,-0.0,-1.0,0.2304753453949897,2.0
7.564974784851074,16.613264083862305,-0.4478211402893066,-0.0,-0.0,-1.0,0.1602572871970421,1.0
7.0845842361450195,16.871078491210938,-0.4870810508728027,-0.0,-0.0,-1.0,0.1975459900081763,2.0
6.747862815856934,17.038984298706055,-0.5160355567932129,-0.0,-0.0,-1.0,0.2344841584642309,2.0
7.63478946685791,15.76280117034912,-0.5127711296081543,-0.6979854912996486,0.5771570220021429,-0.4239174753284017,0.2416565986974041,3.0
7.515297889709473,15.82989501953125,-0.5217223167419434,-0.0,-0.0,-1.0,0.1570212414537191,1.0
7.323602676391602,16.257869720458984,-0.5083686113357544,-0.0,-0.0,-1.0,0.170438314530625,1.0
6.791288375854492,16.49733543395996,-0.5550053119659424,-0.0,-0.0,-1.0,0.2289309916769784,2.0
7.374968528747559,15.845808029174805,-0.5378568172454834,-0.0,-0.0,-1.0,0.1525280048972285,2.0
7.118683815002441,15.908106803894045,-0.564427375793457,-0.0,-0.0,-1.0,0.1237319755400656,2.0
6.692939758300781,16.646514892578125,-0.0712053775787353,-0.0,-0.0,-1.0,0.1444694021906304,1.0
7.490921974182129,17.26552391052246,-0.6407837867736816,-0.0,-0.0,-1.0,0.1937901873328992,1.0
5.843013763427734,15.903694152832031,-0.5363023281097412,0.0648600948637537,-0.4809224736788963,-0.874360762159897,0.181104106797907,5.0
5.913384437561035,15.698177337646484,-0.549511194229126,-0.0,-0.0,-1.0,0.1035856877869624,1.0
6.02314567565918,17.163124084472656,-0.3925040960311889,-0.0,-0.0,-1.0,0.1896922926535511,2.0
6.850720405578613,16.382247924804688,-0.3749333620071411,-0.0,-0.0,-1.0,0.226606550514362,1.0
6.695151329040527,16.5559139251709,-0.3751449584960937,-0.0,-0.0,-1.0,0.2215193198331207,1.0
7.532036781311035,15.720348358154297,-0.3669695854187011,-0.0,-0.0,-1.0,0.1488288659338793,1.0
7.163740158081055,15.780769348144531,-0.401533842086792,-0.0,-0.0,-1.0,0.1248190592773084,1.0
7.704663276672363,17.405637741088867,-0.5420870780944824,-0.0,-0.0,-1.0,0.1416138135134715,1.0
7.496440887451172,17.563228607177734,-0.5595967769622803,0.4984677842694264,0.46742175007041,-0.7301005243160994,0.1716696422600409,4.0
7.440501213073731,17.090980529785156,-0.6154340505599976,-0.0,-0.0,-1.0,0.1087768742370428,1.0
7.123479843139648,17.154855728149414,-0.6587074995040894,-0.0,-0.0,-1.0,0.0720018940869106,1.0
7.468093872070312,16.89998435974121,-0.6309589147567749,-0.0,-0.0,-1.0,0.1623053664817635,1.0
6.762663841247559,16.770732879638672,-0.3352580070495605,-0.0,-0.0,-1.0,0.1584154307431065,1.0
6.4982452392578125,17.137887954711914,-0.33255136013031,-0.0,-0.0,-1.0,0.1474535667104051,1.0
6.028293609619141,17.191364288330078,-0.3851524591445923,-0.0,-0.0,-1.0,0.1857833216602838,2.0
6.840723991394043,16.428863525390625,-0.3598008155822754,-0.0,-0.0,-1.0,0.2356264879584367,2.0
6.588193893432617,16.6480655670166,-0.368445873260498,-0.0,-0.0,-1.0,0.1633682980485565,2.0
7.511431694030762,15.802486419677734,-0.3451632261276245,-0.0,-0.0,-1.0,0.1682481963337046,1.0
7.208529472351074,15.834854125976562,-0.377603530883789,-0.0,-0.0,-1.0,0.1467167834450555,1.0
5.831947326660156,15.823812484741213,-0.5432322025299072,-0.0,-0.0,-1.0,0.0677579324953142,2.0
7.06641960144043,17.499040603637695,-0.3927347660064697,-0.0,-0.0,-1.0,0.205326925002073,1.0
5.885859489440918,17.374223709106445,-0.5784538984298706,-0.0,-0.0,-1.0,0.1701168339846012,1.0
6.664994239807129,17.091569900512695,-0.4899511337280273,0.1557007183805122,0.0708078395878074,-0.9852631811595822,0.1704426817322369,3.0
6.311901092529297,17.21491241455078,-0.5302103757858276,0.1560909742126954,0.5206005656974383,-0.8394108998368076,0.1522271339985307,3.0
6.013522148132324,17.19358253479004,-0.5761494636535645,-0.0,-0.0,-1.0,0.1187394441873793,1.0
6.976461410522461,16.845233917236328,-0.4684649705886841,-0.0,-0.0,-1.0,0.1888645594779473,2.0
6.720563888549805,16.66697883605957,-0.5239394903182983,-0.0,-0.0,-1.0,0.1967689483378515,2.0
6.360532760620117,16.874418258666992,-0.5556451082229614,-0.0,-0.0,-1.0,0.1826682310162113,1.0
7.278350830078125,16.16741371154785,-0.4964213371276855,-0.0,-0.0,-1.0,0.0838759321687291,2.0
6.682001113891602,16.394668579101562,-0.5577173233032227,0.897247864289846,-0.3752869908654765,0.2326068453731444,0.2136706293917127,3.0
6.353206634521484,16.191518783569336,-0.626908540725708,-0.0,-0.0,-1.0,0.1263665046893276,1.0
7.460621833801269,15.803686141967772,-0.5119742155075073,-0.0,-0.0,-1.0,0.1682877042605976,2.0
7.124271392822266,15.902568817138672,-0.5482951402664185,-0.0,-0.0,-1.0,0.1267288566879549,2.0
