x,y,z,nx,ny,nz,curvature,density,label
19.5529727935791,-13.52680206298828,0.5177562236785889,-0.0,-0.0,-1.0,0.0863711705661838,1.0,1.0
19.514514923095703,-13.409236907958984,0.5149495601654053,-0.0,-0.0,-1.0,0.0677644782613652,1.0,1.0
20.075206756591797,-14.21220588684082,0.5465644598007202,-0.0,-0.0,-1.0,0.1974548794691657,1.0,1.0
20.061664581298828,-11.985843658447266,0.5316992998123169,-0.0,-0.0,-1.0,0.1235203989424928,1.0,1.0
18.347259521484375,-11.881637573242188,0.9213042259216307,0.6200425566093396,0.3572868980043584,-0.6984935937485591,0.1853655897229304,4.0,1.0
19.966064453125,-12.363374710083008,0.531015157699585,-0.0,-0.0,-1.0,0.0521379959991048,1.0,1.0
18.316078186035156,-12.087777137756348,0.9274760484695436,0.0653168500913876,-0.0997894038031872,-0.9928624194634136,0.1953469989264196,4.0,1.0
18.209089279174805,-12.472013473510742,0.937108039855957,0.1217705363179393,-0.8081243700546824,-0.576287201843459,0.2773603406640648,3.0,1.0
18.141511917114254,-12.758256912231444,0.9442809820175172,-0.0,-0.0,-1.0,0.1284168167982563,1.0,1.0
17.781631469726562,-12.999262809753418,0.9414671659469604,-0.0,-0.0,-1.0,0.1311088450588481,2.0,1.0
19.28845596313477,-12.074024200439451,0.955817699432373,-0.0,-0.0,-1.0,0.1786158693148994,1.0,1.0
17.738983154296875,-13.294025421142578,0.5426667928695679,-0.0,-0.0,-1.0,0.1004987285153079,2.0,1.0
19.418447494506836,-11.9426908493042,0.6211583614349365,-0.0,-0.0,-1.0,0.1413710785629829,1.0,1.0
18.51573944091797,-12.172662734985352,0.5816843509674072,-0.0,-0.0,-1.0,0.2405615242999529,2.0,1.0
18.432964324951172,-12.01935577392578,0.5788040161132812,-0.0,-0.0,-1.0,0.1804679516835103,2.0,1.0
18.47309112548828,-12.497163772583008,0.5782644748687744,-0.0,-0.0,-1.0,0.222827517923185,1.0,1.0
18.33333969116211,-12.283639907836914,0.573415219783783,-0.0,-0.0,-1.0,0.193890310489379,2.0,1.0
19.980052947998047,-13.506022453308104,0.6316548585891724,-0.0,-0.0,-1.0,0.1131952152579516,1.0,1.0
18.35884475708008,-12.719405174255373,0.5721919536590576,-0.0,-0.0,-1.0,0.1558409713283708,1.0,1.0
18.162425994873047,-12.729318618774414,0.5638792514801025,-0.0,-0.0,-1.0,0.1837278863374938,2.0,1.0
20.100475311279297,-13.993364334106444,0.6307344436645508,-0.0,-0.0,-1.0,0.1382438829678441,1.0,1.0
18.276878356933594,-12.35384750366211,1.080153465270996,-0.0,-0.0,-1.0,0.2066204626597016,1.0,2.0
17.740936279296875,-13.432870864868164,1.0846925973892212,0.598430970563634,-0.1115433429784719,-0.7933715750563883,0.1547897265520361,3.0,2.0
18.4136962890625,-14.22883415222168,1.0983717441558838,-0.0,-0.0,-1.0,0.1043314895685019,2.0,2.0
17.721952438354492,-13.40737247467041,1.62714421749115,-0.0,-0.0,-1.0,0.0611267393824633,1.0,2.0
20.00643539428711,-12.246135711669922,0.4327096939086914,-0.0,-0.0,-1.0,0.068698562573447,1.0,1.0
19.997455596923828,-12.355920791625977,0.4323296546936035,-0.0,-0.0,-1.0,0.0624123107780987,2.0,1.0
19.376453399658203,-11.923776626586914,0.3883595466613769,-0.3957367967097445,-0.2118975894639947,-0.8935836834394741,0.1738424504952625,3.0,1.0
19.43664932250977,-12.87255859375,0.3951127529144287,-0.0,-0.0,-1.0,0.1316971486634487,1.0,1.0
19.29676055908203,-12.713830947875977,0.3853353857994079,-0.0,-0.0,-1.0,0.1210211779420561,2.0,1.0
18.876285552978516,-12.453742027282717,0.3559076189994812,-0.4533786189489993,-0.1494488983100464,-0.8786995246805424,0.066441710641095,3.0,1.0
18.820621490478516,-12.426483154296877,0.3519829511642456,-0.0,-0.0,-1.0,0.0852531950063425,1.0,1.0
19.27128028869629,-11.896401405334473,0.8516857028007507,-0.0,-0.0,-1.0,0.1568806075259784,1.0,1.0
18.46610641479492,-11.891071319580078,0.8212705850601196,-0.0823907446308297,0.907036637316054,-0.4129119806515219,0.1940093419453967,4.0,1.0
18.292984008789062,-12.35285472869873,0.8237330913543701,-0.0,-0.0,-1.0,0.2521409979987832,2.0,1.0
18.171192169189453,-12.081701278686523,0.8138846158981323,0.0556958183837051,0.5850182249868583,-0.809105464230588,0.2453448219782442,3.0,1.0
18.219070434570312,-12.586082458496094,0.8254278898239136,-0.9683120310447276,0.0414269481829811,0.2462836139459527,0.1838289211172569,3.0,1.0
17.95003890991211,-12.773826599121094,0.8189231157302856,-0.0,-0.0,-1.0,0.2206880263430999,1.0,1.0
17.79180145263672,-13.527999877929688,1.3687312602996826,0.3863778832484349,0.3880312139848633,-0.8367460237789551,0.2375275579352573,7.0,2.0
17.732967376708984,-13.621240615844728,1.371611475944519,-0.0,-0.0,-1.0,0.153666921563882,2.0,2.0
19.904611587524418,-13.347881317138672,0.3262413740158081,-0.0,-0.0,-1.0,0.1367502116722746,1.0,1.0
19.503602981567383,-13.277376174926758,0.2955001592636108,-0.0,-0.0,-1.0,0.0416531105330571,1.0,1.0
19.532386779785156,-13.046262741088867,0.3055111169815063,-0.0,-0.0,-1.0,0.0386106299175117,1.0,1.0
19.88154411315918,-13.211275100708008,0.3290295600891113,-0.0,-0.0,-1.0,0.1818526852941441,2.0,1.0
19.353832244873047,-12.80551528930664,0.2980818748474121,-0.0,-0.0,-1.0,0.1777623186831034,1.0,1.0
19.294025421142575,-12.726799011230469,0.2954216003417969,-0.0,-0.0,-1.0,0.1240877863493948,1.0,1.0
18.201231002807617,-14.360820770263672,0.6983296871185303,-0.0,-0.0,-1.0,0.0519421689037159,1.0,1.0
18.648042678833008,-12.3392915725708,0.6738142967224121,-0.0,-0.0,-1.0,0.1686583545056124,2.0,1.0
18.219966888427734,-12.318634033203123,1.1698757410049438,-0.0,-0.0,-1.0,0.1618267044470842,1.0,2.0
17.82575225830078,-13.455937385559082,1.1776621341705322,-0.0,-0.0,-1.0,0.1496298196456037,2.0,2.0
17.72138023376465,-13.40965175628662,1.1739513874053955,-0.0,-0.0,-1.0,0.1120674934207154,2.0,2.0
17.86265754699707,-13.38429069519043,1.438868284225464,-0.0,-0.0,-1.0,0.1128262757049538,1.0,2.0
17.757902145385742,-12.22995948791504,0.6684395670890808,0.030676337810187,0.0055163782396172,-0.9995141479087092,0.180486048680049,3.0,1.0
18.36729621887207,-12.428362846374512,1.1086105108261108,-0.4202002263587003,0.0948942931773533,-0.902456006069253,0.2559135480654635,4.0,2.0
17.949453353881836,-12.33786964416504,0.7778323888778687,0.4713241009122318,-0.8293904880435566,-0.2999416780678324,0.1791037702277972,3.0,1.0
18.145431518554688,-12.191160202026367,0.751705527305603,-0.0,-0.0,-1.0,0.1557760202457908,2.0,1.0
17.730205535888672,-12.437664031982422,0.8596516847610474,0.9781762858876925,-0.0749057399973904,0.1938047570169582,0.2288463360304652,3.0,1.0
18.08181381225586,-12.28436279296875,0.8464871644973755,-0.0,-0.0,-1.0,0.2120511408635021,1.0,1.0
18.254047393798828,-11.875762939453123,0.8437038064002991,0.6069761281366229,0.6737616139677074,-0.4214561275102116,0.1997570726632124,3.0,1.0
17.713016510009766,-13.562515258789062,1.2676581144332886,-0.2317501740497313,-0.7108572895563605,-0.6640585597012538,0.1336092001384589,3.0,2.0
18.234813690185547,-12.1183500289917,0.8367918729782104,0.7433147031305983,-0.4188870583953907,-0.5215523793625397,0.2659688882574626,3.0,1.0
18.43067169189453,-11.893267631530762,0.8262242674827576,0.1378878562859306,-0.6840803073798116,-0.7162548932775349,0.2211690501415862,6.0,1.0
18.423789978027344,-14.330260276794434,1.1778147220611572,-0.1703920725782114,0.9153650432506654,0.3647922411417343,0.1043314895685021,4.0,2.0
17.8117618560791,-13.441006660461426,1.2201112508773804,0.6612858723687051,0.732395480842613,-0.1621661328603424,0.1279433916570536,4.0,2.0
18.019813537597656,-12.317975044250488,0.7839551568031311,-0.2451370281881184,-0.1640447073406583,-0.9555088546971268,0.1449600299674892,4.0,1.0
18.2728328704834,-11.92801570892334,0.7757482528686523,-0.0,-0.0,-1.0,0.1996919489458013,2.0,1.0
18.251209259033203,-12.395218849182127,1.0073057413101196,-0.8910851410493752,-0.2984116232366288,-0.3419324122078732,0.1836750941527833,4.0,2.0
18.425790786743164,-12.006157875061035,1.0034031867980957,-0.850688177224839,0.1609075508758297,-0.5004381931877532,0.1621380008844229,4.0,2.0
18.34305000305176,-12.011954307556152,0.9121301770210266,-0.5822537676951561,-0.0844470159869005,-0.808609455482499,0.2097761940675839,3.0,1.0
19.318025588989254,-11.964678764343262,0.8624540567398071,-0.0,-0.0,-1.0,0.1679960849439212,2.0,1.0
17.739192962646484,-13.468143463134766,1.021284580230713,-0.4885538194010778,-0.7427824584585148,-0.4578093325336915,0.1814736785024314,5.0,2.0
18.2697811126709,-12.431354522705078,1.015363693237305,-0.247420118017438,-0.91851213459991,-0.3084132678614102,0.1766322119469709,6.0,2.0
18.273731231689453,-11.937353134155272,1.0250372886657717,-0.0,-0.0,-1.0,0.2389335359606163,1.0,2.0
18.4246768951416,-11.962152481079102,1.0169153213500977,-0.8938302130979316,0.1107916778885686,-0.434502881767131,0.2101380650749493,3.0,2.0
17.826749801635742,-12.41247272491455,0.9457218647003174,-0.0036877005301216,0.9619893095311663,0.2730622075874835,0.2154003560308836,3.0,1.0
18.129545211791992,-12.062743186950684,0.9479689002037048,-0.2679777006886839,0.712310238932541,-0.6486925893252311,0.2268104976219499,3.0,1.0
18.293485641479492,-12.149624824523926,0.9440711736679076,-0.0654916502250154,0.9953606672699143,0.0704839400345548,0.1837142678544044,5.0,1.0
19.203792572021484,-11.912787437438965,0.935329258441925,-0.0,-0.0,-1.0,0.1825811592483015,2.0,1.0
19.669586181640625,-13.486592292785645,0.5211001634597778,-0.0,-0.0,-1.0,0.1499931864743039,1.0,1.0
20.01543426513672,-13.998934745788574,0.504399836063385,-0.0,-0.0,-1.0,0.1549962777952737,1.0,1.0
19.833446502685547,-12.551019668579102,0.3104630708694458,-0.0,-0.0,-1.0,0.0585331428434057,1.0,1.0
19.619688034057617,-12.920602798461914,0.2906939387321472,-0.0,-0.0,-1.0,0.0693779860733633,1.0,1.0
20.029775619506836,-12.406944274902344,0.3193004727363586,-0.0,-0.0,-1.0,0.06803543755639,2.0,1.0
17.754331588745117,-13.494293212890623,0.9475755095481871,-0.4148580124237402,-0.4704254164235861,-0.7788406493696375,0.193535953085936,4.0,1.0
17.87287139892578,-12.416902542114258,0.9619508385658264,0.3666290059379855,-0.1585682323076611,-0.9167547587592596,0.2189748260867321,4.0,1.0
18.347322463989254,-12.10220718383789,0.96819669008255,0.5119626061736903,-0.0362795296105149,-0.8582412747072251,0.1465419640367651,3.0,1.0
18.438581466674805,-12.507152557373049,0.9633771181106568,-0.0,-0.0,-1.0,0.2727549343499091,2.0,1.0
19.41936492919922,-12.705458641052246,0.3453840613365173,-0.0,-0.0,-1.0,0.1245121259025087,2.0,1.0
19.468351364135746,-12.90513515472412,0.3321255445480346,-0.0,-0.0,-1.0,0.1273340908006838,1.0,1.0
19.87513542175293,-12.37635898590088,0.3499986529350281,-0.0,-0.0,-1.0,0.0494268587763692,1.0,1.0
19.737598419189453,-12.564600944519045,0.3434245586395263,-0.0,-0.0,-1.0,0.0483634158897153,1.0,1.0
19.555252075195312,-12.936816215515137,0.3274787664413452,-0.0,-0.0,-1.0,0.0820241815784315,1.0,1.0
20.069517135620117,-12.28623104095459,0.3488709926605224,-0.0,-0.0,-1.0,0.0659238945819576,1.0,1.0
17.775169372558594,-13.497992515563965,1.0199849605560305,-0.4966184254080258,-0.7191214298439623,-0.4860396163734273,0.169453403619802,4.0,2.0
18.285242080688477,-12.434832572937012,1.025957107543945,0.311373269265119,-0.8932570451102712,-0.3242507340747575,0.1834537857839698,4.0,2.0
17.962417602539062,-12.610344886779783,1.0342111587524414,-0.0,-0.0,-1.0,0.1591098674276464,1.0,2.0
18.57217788696289,-14.257365226745604,0.9703322052955629,-0.0,-0.0,-1.0,0.0792983411811881,2.0,1.0
19.36437606811523,-12.638545989990234,0.3598525524139404,-0.0,-0.0,-1.0,0.1022573198186951,1.0,1.0
19.81890296936035,-12.265792846679688,0.3630406856536865,-0.0,-0.0,-1.0,0.0456722686946571,1.0,1.0
19.70159149169922,-12.379375457763672,0.3610599637031555,-0.0,-0.0,-1.0,0.0391229868177032,1.0,1.0
20.034366607666016,-12.098798751831056,0.3636322617530823,-0.0,-0.0,-1.0,0.0993387913004421,1.0,1.0
17.741939544677734,-13.478975296020508,1.011211395263672,-0.4885538194010778,-0.7427824584585148,-0.4578093325336915,0.1690131807464895,5.0,2.0
18.02032470703125,-12.254512786865234,1.0385758876800537,-0.0,-0.0,-1.0,0.2380871414609069,1.0,2.0
18.22652816772461,-14.356142044067385,0.95319926738739,-0.0,-0.0,-1.0,0.0564940577087686,1.0,1.0
18.361919403076172,-12.343050003051758,1.0166897773742676,-0.0,-0.0,-1.0,0.2067522321721159,2.0,2.0
18.436264038085938,-14.328241348266602,0.942192792892456,-0.1414668059838507,0.7324821165203781,-0.6659257404414962,0.0694862792113347,5.0,1.0
19.42646598815918,-12.039193153381348,0.3373228907585144,-0.0,-0.0,-1.0,0.230152312045802,1.0,1.0
19.48179054260254,-12.30057144165039,0.3150154948234558,-0.0,-0.0,-1.0,0.0919065375576723,1.0,1.0
19.74452209472656,-12.06907844543457,0.3222097158432007,-0.0,-0.0,-1.0,0.0272041684067227,1.0,1.0
17.89006233215332,-12.325421333312988,0.928908348083496,-0.1494749801022643,-0.4226996730056482,-0.8938580517981285,0.2819019008666816,3.0,1.0
18.139562606811523,-12.077242851257324,0.927909016609192,-0.2679777006886839,0.712310238932541,-0.6486925893252311,0.2649247033013038,3.0,1.0
18.338924407958984,-11.86929416656494,0.9274710416793824,0.6200425566093396,0.3572868980043584,-0.6984935937485591,0.1501175371380703,4.0,1.0
18.35247802734375,-12.343046188354492,0.9068393707275392,-0.562462296138077,0.0632720835464577,-0.8243984527319129,0.2673307200016376,3.0,1.0
20.009756088256836,-13.618782043457031,0.7688465118408203,-0.0,-0.0,-1.0,0.2346320322097696,2.0,1.0
19.35209083557129,-12.027565002441406,0.8722397089004517,0.1372588791173619,0.8369297445815482,-0.5298194057772042,0.266703699308922,6.0,1.0
19.93341064453125,-14.226669311523438,0.4527959823608398,-0.0,-0.0,-1.0,0.1721345705235323,2.0,1.0
19.928455352783203,-13.542579650878906,0.497957706451416,-0.2647118675362192,0.7752932056131303,0.5734527639793917,0.1637345457447929,4.0,1.0
20.189416885375977,-14.123409271240234,0.4472953081130981,-0.0,-0.0,-1.0,0.1608113647156075,1.0,1.0
20.034095764160156,-14.27720069885254,0.4446512460708618,-0.0,-0.0,-1.0,0.1698546251570187,2.0,1.0
19.86311149597168,-13.384668350219728,0.5113714337348938,-0.0,-0.0,-1.0,0.2393442336216039,2.0,1.0
19.91693115234375,-13.389781951904297,0.5085166692733765,0.2705638853126634,0.961530650735247,-0.0474762220608262,0.2559009831503291,5.0,1.0
18.09845733642578,-12.371402740478516,1.1748968362808228,-0.0,-0.0,-1.0,0.1725449443595384,2.0,2.0
18.3170108795166,-12.454452514648438,1.160428762435913,-0.0,-0.0,-1.0,0.2004171930353283,1.0,2.0
20.140846252441406,-13.67758560180664,1.020261526107788,-0.0,-0.0,-1.0,0.2321154238393274,1.0,2.0
17.940784454345703,-12.09082317352295,0.7493448257446289,-0.0,-0.0,-1.0,0.2138997137848961,2.0,1.0
19.890493392944336,-13.47923183441162,0.5746275186538696,-0.0,-0.0,-1.0,0.2160110696718376,2.0,1.0
20.15386962890625,-14.255120277404783,0.5062369108200073,-0.0,-0.0,-1.0,0.1846006441896328,1.0,1.0
18.11174964904785,-11.96336269378662,0.7518008947372437,-0.0,-0.0,-1.0,0.1653732363597835,1.0,1.0
18.292940139770508,-11.867300033569336,0.7517779469490051,-0.0,-0.0,-1.0,0.1454007349053625,1.0,1.0
18.05499267578125,-12.338446617126465,1.2175294160842896,-0.0,-0.0,-1.0,0.1886413998102798,1.0,2.0
17.87348747253418,-12.065919876098633,0.5156073570251465,-0.0,-0.0,-1.0,0.1904583344747529,1.0,1.0
18.521814346313477,-13.268797874450684,0.3953961133956909,-0.0,-0.0,-1.0,0.0272507812607266,1.0,1.0
18.95692443847656,-13.183585166931152,0.4084722995758056,-0.0,-0.0,-1.0,0.0636740302023373,1.0,1.0
18.86449432373047,-13.274483680725098,0.3976997137069702,-0.0,-0.0,-1.0,0.056723845356473,1.0,1.0
19.26772117614746,-13.001152992248535,0.4306823015213012,-0.0,-0.0,-1.0,0.0986196640328624,1.0,1.0
19.505661010742188,-13.095010757446287,0.421123743057251,-0.0,-0.0,-1.0,0.0406765812089664,1.0,1.0
19.68055725097656,-13.24533748626709,0.4043773412704468,-0.0,-0.0,-1.0,0.0987550934106181,2.0,1.0
19.874290466308594,-13.04932689666748,0.4269108772277832,-0.0,-0.0,-1.0,0.1017962495102412,1.0,1.0
20.050025939941406,-13.406841278076172,0.3856326341629028,-0.0264474182925113,0.9995730159015892,0.0124225579919156,0.1633035111766359,6.0,1.0
20.19249725341797,-13.579888343811035,0.3651849031448364,-0.0,-0.0,-1.0,0.0919497544219901,1.0,1.0
19.364112854003903,-11.961647033691406,0.5473043918609619,-0.0,-0.0,-1.0,0.1883120612521856,2.0,1.0
17.918624877929688,-12.109037399291992,0.9734582901000975,-0.0,-0.0,-1.0,0.1605166682242954,1.0,1.0
17.86661148071289,-12.375412940979004,0.9534215331077576,0.53573928490994,-0.0917265873233228,-0.8393864734329491,0.2676576325596626,3.0,1.0
18.23504638671875,-12.048267364501951,0.9779230356216432,-0.0,-0.0,-1.0,0.166016441893282,1.0,1.0
18.298826217651367,-12.460163116455078,0.946437120437622,0.8459782656945526,-0.5326219247643159,0.0251924439622771,0.2566233984382035,6.0,1.0
17.758493423461914,-13.519886016845703,1.3716349601745603,0.1348873674106306,0.8873641036268023,-0.4408972053751659,0.1801282672270097,6.0,2.0
17.967214584350586,-13.981733322143556,0.4737650156021118,-0.0,-0.0,-1.0,0.0224977522345395,1.0,1.0
18.282337188720703,-14.028225898742676,0.4681671857833862,-0.0,-0.0,-1.0,0.0123375859612159,2.0,1.0
18.493675231933594,-14.09416961669922,0.4598881006240845,-0.0,-0.0,-1.0,0.0144716485510741,2.0,1.0
18.759632110595703,-14.24195957183838,0.441290020942688,-0.0,-0.0,-1.0,0.0100907021435951,2.0,1.0
19.03339958190918,-14.138075828552246,0.4516110420227051,-0.0,-0.0,-1.0,0.0076923036230483,1.0,1.0
19.31024169921875,-11.93050765991211,0.2984235286712646,-0.0,-0.0,-1.0,0.2553285819895241,2.0,1.0
19.79775619506836,-14.265315055847168,0.4280120134353637,-0.0,-0.0,-1.0,0.1440461506558078,2.0,1.0
19.66126251220703,-11.946562767028809,0.3010107278823852,-0.0,-0.0,-1.0,0.0858304912245435,1.0,1.0
20.005294799804688,-14.135052680969238,0.4407325983047485,-0.0,-0.0,-1.0,0.1337459631506148,2.0,1.0
20.029361724853516,-14.22896671295166,0.4289324283599853,-0.0,-0.0,-1.0,0.1528111411347743,1.0,1.0
17.730525970458984,-12.226531982421877,0.6676182746887207,0.030676337810187,0.0055163782396172,-0.9995141479087092,0.1883644931223367,3.0,1.0
18.152177810668945,-11.881980895996094,0.7085360288619995,-0.0,-0.0,-1.0,0.2183768855351594,1.0,1.0
18.62914276123047,-12.348560333251951,0.6593152284622192,-0.0,-0.0,-1.0,0.1684578004811631,2.0,1.0
18.64030647277832,-12.575178146362305,0.633777379989624,-0.0,-0.0,-1.0,0.2812744836660487,1.0,1.0
19.30572509765625,-12.008663177490234,0.6982097625732422,-0.0,-0.0,-1.0,0.1554277978140718,2.0,1.0
19.904878616333008,-13.342798233032228,0.5376335382461548,0.8744788419693422,0.4463484779578729,0.1898941578160012,0.1347263194223448,5.0,1.0
19.954551696777344,-13.546157836914062,0.5126042366027832,-0.3987171863583735,0.9051973740365564,-0.1471132874344969,0.1475491131004437,4.0,1.0
18.222089767456055,-12.431982040405272,1.089089035987854,-0.5306621431091805,-0.4305250477030968,-0.7300999062943494,0.2079463575087392,5.0,2.0
18.25909423828125,-12.4956636428833,1.0833982229232788,0.4121281864843181,0.0763363884748778,-0.9079224161236242,0.2543329795353635,3.0,2.0
18.26968002319336,-11.926894187927246,1.1291784048080444,-0.0,-0.0,-1.0,0.201186703378777,1.0,2.0
18.027055740356445,-13.635601043701172,0.4034589529037475,-0.0,-0.0,-1.0,0.0547426018588421,1.0,1.0
18.330402374267575,-13.6283540725708,0.4082398414611816,-0.0,-0.0,-1.0,0.0050383841804848,1.0,1.0
18.530555725097656,-13.74509620666504,0.3955854177474975,-0.0,-0.0,-1.0,0.0058727681059284,2.0,1.0
18.705591201782227,-13.70990753173828,0.4013576507568359,-0.0,-0.0,-1.0,0.0039289101133212,1.0,1.0
19.22057342529297,-13.941006660461426,0.3728221654891968,-0.0,-0.0,-1.0,0.0073259915116446,2.0,1.0
19.331918716430664,-11.94583797454834,0.2473452091217041,-0.0,-0.0,-1.0,0.2723073576689354,2.0,1.0
19.61789894104004,-11.97264003753662,0.2515619993209839,-0.0,-0.0,-1.0,0.0855665009364248,1.0,1.0
17.72787857055664,-13.52012538909912,0.869162917137146,-0.0,-0.0,-1.0,0.086121280436008,2.0,1.0
17.81491470336914,-13.513279914855955,0.8696047067642212,-0.0,-0.0,-1.0,0.135851632374985,2.0,1.0
18.55556869506836,-12.50620937347412,0.549201488494873,-0.0,-0.0,-1.0,0.2625542918876762,1.0,1.0
18.744159698486328,-13.647379875183104,0.4096063375473022,-0.0,-0.0,-1.0,0.0030946372013197,2.0,1.0
18.914154052734375,-13.697809219360352,0.4040313959121704,-0.0,-0.0,-1.0,0.0047570416057909,1.0,1.0
19.21050071716309,-13.833281517028809,0.386915922164917,-0.0,-0.0,-1.0,0.0060325503572989,2.0,1.0
19.545923233032227,-13.831936836242676,0.3864612579345703,-0.0,-0.0,-1.0,0.0189046403339534,1.0,1.0
19.929439544677734,-13.40398406982422,0.4419549703598022,0.5697196162263685,0.4603162117485893,-0.6808293061320931,0.2250324929522688,3.0,1.0
19.98511505126953,-13.567630767822266,0.4193967580795288,-0.0,-0.0,-1.0,0.1115310712269225,1.0,1.0
20.05009078979492,-13.915757179260254,0.3711636066436767,-0.0,-0.0,-1.0,0.1094971450192542,1.0,1.0
17.886486053466797,-12.399826049804688,0.9687743186950684,0.4434800374028335,-0.1262231674449683,-0.8873517726501374,0.2767519042051671,4.0,1.0
18.22815704345703,-12.357935905456545,0.9733527898788452,-0.0,-0.0,-1.0,0.2304816842600528,2.0,1.0
18.26836395263672,-12.596983909606934,0.952044665813446,-0.0,-0.0,-1.0,0.2089990525278715,2.0,1.0
20.06708526611328,-13.639781951904297,0.8278107643127441,-0.0,-0.0,-1.0,0.2189293379631508,1.0,1.0
17.718647003173828,-13.494918823242188,1.3251651525497437,-0.0,-0.0,-1.0,0.1062067909657234,2.0,2.0
19.39615821838379,-12.28665542602539,0.2971456050872803,-0.0,-0.0,-1.0,0.108264825585918,1.0,1.0
17.773996353149414,-13.771597862243652,0.4345948696136474,-0.0,-0.0,-1.0,0.0657481012496607,1.0,1.0
17.717853546142578,-12.062499046325684,0.6050291061401367,-0.0,-0.0,-1.0,0.1512549454420914,1.0,1.0
18.02112579345703,-13.810187339782717,0.4416303634643554,-0.0,-0.0,-1.0,0.0222931344944773,1.0,1.0
18.127357482910156,-13.856205940246582,0.4412016868591308,-0.0,-0.0,-1.0,0.016853423052175,1.0,1.0
18.38870620727539,-12.787518501281738,0.5675418376922607,-0.0,-0.0,-1.0,0.1505471937830105,2.0,1.0
18.50509262084961,-14.01272678375244,0.4392890930175781,-0.0,-0.0,-1.0,0.0088128896845706,1.0,1.0
18.7696475982666,-14.343701362609863,0.4115934371948242,-0.0,-0.0,-1.0,0.0077496195309099,1.0,1.0
18.443681716918945,-12.447990417480469,0.6056416034698486,-0.0,-0.0,-1.0,0.2830639464879047,1.0,1.0
18.83720970153809,-14.28838348388672,0.4202094078063965,-0.0,-0.0,-1.0,0.0070189504186768,1.0,1.0
19.04185485839844,-11.873106956481934,0.511725664138794,-0.0,-0.0,-1.0,0.0711591531859116,1.0,1.0
19.062671661376953,-12.026528358459473,0.6796947717666626,-0.0,-0.0,-1.0,0.1728112567421752,1.0,1.0
19.349224090576172,-12.06820297241211,0.506462812423706,-0.9999743049380958,0.0067708680309618,-0.0023547419559128,0.1917236868443632,4.0,1.0
19.826683044433594,-13.444844245910645,0.5503313541412354,-0.0,-0.0,-1.0,0.2041031984373261,1.0,1.0
19.82783889770508,-14.242169380187988,0.4552128314971924,-0.0,-0.0,-1.0,0.1425092573170296,2.0,1.0
19.982421875,-14.277244567871094,0.4547160863876343,-0.0,-0.0,-1.0,0.148600221929783,2.0,1.0
19.780406951904297,-12.175776481628418,0.3361749649047851,-0.0,-0.0,-1.0,0.0272981448666995,1.0,1.0
19.96574592590332,-13.364100456237791,0.5639671087265015,0.8315423644309369,0.4670269358772472,-0.3007044018994678,0.2203606503841072,3.0,1.0
19.957277297973633,-13.527739524841309,0.5442923307418823,0.9646805407134332,-0.0741746730290921,0.2527638665827565,0.165912827633273,4.0,1.0
20.106674194335938,-12.038156509399414,0.3746784925460815,-0.0080371151418956,-0.7410121282155362,-0.6714435423903323,0.125784537202949,3.0,1.0
17.74050521850586,-13.516483306884766,0.8966419100761414,0.8897427968702601,0.1549141893868638,-0.4293708762178657,0.1114081980705217,3.0,1.0
17.760942459106445,-12.400124549865724,0.9811195135116576,-0.0,-0.0,-1.0,0.2293390575562974,1.0,1.0
18.199018478393555,-12.3671293258667,0.9967619776725768,-0.0,-0.0,-1.0,0.245758596991254,2.0,1.0
18.305828094482425,-12.59135913848877,0.9828243851661682,0.4593653494839269,-0.8665171581133866,-0.1952728613725164,0.2204925188486719,5.0,1.0
20.07721710205078,-13.649087905883787,0.9269229173660278,-0.0,-0.0,-1.0,0.2321154238393274,1.0,1.0
17.71441078186035,-13.518178939819336,1.3308085203170776,0.7598455266414761,0.649815597951017,-0.0193510801378212,0.1526398081964107,4.0,2.0
18.459869384765625,-12.183162689208984,0.4910396337509155,-0.8102579797934798,0.2860766448078025,0.5115096865910747,0.1803186301800426,5.0,1.0
18.383281707763672,-12.823665618896484,0.4160195589065552,-0.7028488602452126,-0.7111800972708303,-0.0150448960733249,0.1330646070174879,3.0,1.0
18.430116653442383,-13.27690887451172,0.368932843208313,-0.0,-0.0,-1.0,0.0310787639355692,2.0,1.0
18.61139678955078,-12.089330673217772,0.5132085084915161,-0.0,-0.0,-1.0,0.1341727656655831,1.0,1.0
18.571815490722656,-12.346883773803713,0.4825037717819214,-0.0,-0.0,-1.0,0.1414678597671826,2.0,1.0
18.667133331298828,-13.303312301635742,0.383069634437561,-0.0,-0.0,-1.0,0.0251888602618985,1.0,1.0
18.79990577697754,-13.384286880493164,0.3830186128616333,-0.0,-0.0,-1.0,0.0203352860292187,1.0,1.0
19.1967830657959,-13.095148086547852,0.4442437887191772,-0.0,-0.0,-1.0,0.1128514918778902,1.0,1.0
19.23168182373047,-13.418582916259766,0.4080375432968139,-0.0,-0.0,-1.0,0.0161731215341187,1.0,1.0
19.37070655822754,-13.72273063659668,0.3801654577255249,-0.0,-0.0,-1.0,0.0164722732539415,1.0,1.0
19.37863540649414,-11.881892204284668,0.2560807466506958,-0.0,-0.0,-1.0,0.2133108971192776,1.0,1.0
19.672382354736328,-13.61473274230957,0.4119528532028198,-0.0,-0.0,-1.0,0.1291865571355004,1.0,1.0
19.75915908813477,-13.848703384399414,0.3875072002410888,-0.0,-0.0,-1.0,0.0629722732305112,2.0,1.0
19.925464630126953,-11.984079360961914,0.2953720092773437,-0.0,-0.0,-1.0,0.0922998550645633,1.0,1.0
19.96156883239746,-13.428424835205078,0.4523161649703979,0.5697196162263685,0.4603162117485893,-0.6808293061320931,0.1634069356797281,3.0,1.0
20.068574905395508,-13.787479400634766,0.4128351211547851,-0.0,-0.0,-1.0,0.1340721272338844,1.0,1.0
20.055389404296875,-14.003021240234377,0.3845759630203247,-0.0,-0.0,-1.0,0.1316661524590591,1.0,1.0
20.208887100219727,-11.885787963867188,0.3357146978378296,-0.0,-0.0,-1.0,0.1182690415342876,1.0,1.0
17.725635528564453,-13.421621322631836,0.7160671949386597,-0.0,-0.0,-1.0,0.0498752060829915,2.0,1.0
17.779403686523438,-13.505199432373049,0.7118254899978638,-0.0,-0.0,-1.0,0.1383578091608846,2.0,1.0
17.93189239501953,-12.370861053466797,0.8132884502410889,0.8788152467968262,-0.3860629401712809,0.2804267608908593,0.1627541862514509,4.0,1.0
18.306568145751953,-11.985784530639648,0.865132212638855,-0.0,-0.0,-1.0,0.1932700826261453,1.0,1.0
18.322107315063477,-12.419021606445312,0.8311840295791626,-0.6351708079513801,-0.6325497699410295,-0.443214206985676,0.2395215482264512,3.0,1.0
18.162492752075195,-12.677690505981444,0.8013263940811157,-0.0,-0.0,-1.0,0.1285499383201091,1.0,1.0
18.571544647216797,-11.874013900756836,0.7118107080459595,-0.0,-0.0,-1.0,0.1773381378240582,1.0,1.0
19.339296340942383,-11.964059829711914,0.5837694406509399,-0.7275737355649571,0.6185365315124388,-0.2967305486474482,0.1616956260516506,4.0,1.0
19.971473693847656,-13.338127136230469,0.8268183469772339,-0.0,-0.0,-1.0,0.201085670442837,1.0,1.0
17.744768142700195,-12.86795425415039,1.1622318029403689,-0.0,-0.0,-1.0,0.1070731309084651,2.0,2.0
17.796428680419922,-13.494939804077148,1.1271393299102783,-0.0,-0.0,-1.0,0.1497641187698358,1.0,2.0
18.02789306640625,-12.292078971862791,1.2033050060272217,-0.0,-0.0,-1.0,0.192272338093744,1.0,2.0
18.126066207885746,-12.352051734924316,1.2029719352722168,0.7128784597943898,-0.6103026007799343,-0.3454490368237071,0.1400077914802532,6.0,2.0
19.28292465209961,-11.9180269241333,0.9242637753486632,-0.1823596757571897,0.7875174407839672,-0.5886945125604649,0.1990722687327067,3.0,1.0
17.89798355102539,-13.621828079223633,0.4290167093276977,-0.0,-0.0,-1.0,0.1296256766373733,1.0,1.0
18.34412002563477,-12.80733871459961,0.548717737197876,-0.0,-0.0,-1.0,0.2130269561946326,2.0,1.0
18.28730201721191,-13.742542266845703,0.4462645053863525,-0.0,-0.0,-1.0,0.0057784782011767,1.0,1.0
18.338035583496097,-13.910667419433594,0.4316041469573974,-0.0,-0.0,-1.0,0.0082073062523395,2.0,1.0
18.84387588500977,-12.167110443115234,0.31746506690979,-0.0,-0.0,-1.0,0.0977769461117953,2.0,1.0
18.64570426940918,-14.077848434448242,0.4350847005844116,-0.0,-0.0,-1.0,0.0086354464044392,2.0,1.0
19.049057006835938,-11.970712661743164,0.3640475273132324,-0.0,-0.0,-1.0,0.0993122946434236,2.0,1.0
19.154523849487305,-12.473030090332031,0.3128004074096679,-0.0,-0.0,-1.0,0.0430347876982003,1.0,1.0
19.403217315673828,-12.039325714111328,0.394395112991333,-0.0,-0.0,-1.0,0.2427544581669931,2.0,1.0
19.40621757507324,-12.497142791748049,0.3358441591262817,-0.0,-0.0,-1.0,0.0503135697129769,2.0,1.0
19.992673873901367,-12.439939498901367,0.4019783735275268,-0.0,-0.0,-1.0,0.0583999758263941,2.0,1.0
19.876605987548828,-14.275245666503906,0.4909327030181885,-0.0,-0.0,-1.0,0.1275147470319264,1.0,1.0
20.09972763061523,-12.591279983520508,0.3914453983306885,-0.0,-0.0,-1.0,0.0443621375808054,1.0,1.0
20.193065643310547,-12.793001174926758,0.3714219331741333,-0.0,-0.0,-1.0,0.0293734816676641,1.0,1.0
18.105058670043945,-12.068549156188965,0.9517090320587158,-0.2679777006886839,0.712310238932541,-0.6486925893252311,0.2096422249440935,3.0,1.0
17.93775177001953,-12.27690315246582,0.9267616271972656,0.6503625365344348,-0.0696957988567748,-0.7564199010432052,0.2448626684075831,3.0,1.0
17.802061080932617,-13.133525848388672,0.8550854921340942,-0.0,-0.0,-1.0,0.101837829849874,1.0,1.0
17.751972198486328,-13.54557991027832,0.8200490474700928,-0.0,-0.0,-1.0,0.124375850250903,2.0,1.0
18.324817657470703,-12.169807434082031,0.7850806713104248,-0.0,-0.0,-1.0,0.200958444487549,1.0,1.0
18.346826553344727,-12.426695823669434,0.7645268440246582,0.2873973834023586,-0.934397415496721,0.2104856620450087,0.2134762952932389,4.0,1.0
18.274703979492188,-12.691100120544434,0.915492057800293,-0.0,-0.0,-1.0,0.118097359892812,1.0,1.0
19.223573684692383,-11.993715286254885,0.7027875185012817,-0.0385661893522448,-0.0211477780565028,-0.9990322419832705,0.1740885777917169,3.0,1.0
19.340898513793945,-12.049884796142578,0.7067282199859619,-0.0,-0.0,-1.0,0.2168836592469415,1.0,1.0
19.937538146972656,-13.534887313842772,0.5847283601760864,0.8936908023948215,0.0527004689055315,0.4455776142178119,0.2201818777663497,3.0,1.0
17.786029815673828,-13.55170440673828,1.2126561403274536,-0.0,-0.0,-1.0,0.1258340729691469,1.0,2.0
18.34803771972656,-12.059537887573242,0.9668196439743042,-0.0,-0.0,-1.0,0.1306598007391406,2.0,1.0
18.36845016479492,-14.362419128417969,1.178792953491211,-0.230411556485083,0.3132742943970467,-0.9212869971448387,0.0926306216306904,6.0,2.0
17.71457290649414,-13.336614608764648,0.4653931856155395,-0.0,-0.0,-1.0,0.1465271764925829,2.0,1.0
17.734298706054688,-13.52373504638672,0.4494237899780273,-0.0,-0.0,-1.0,0.1207486823576857,1.0,1.0
17.952144622802734,-13.7874755859375,0.4441407918930053,-0.0,-0.0,-1.0,0.0574351033276438,1.0,1.0
18.798969268798828,-11.961507797241213,0.3918048143386841,0.1277779787722912,-0.9826452658407582,-0.1344658680171793,0.2000504392806081,3.0,1.0
18.75204849243164,-12.159027099609377,0.364229679107666,-0.0,-0.0,-1.0,0.0820422846238443,1.0,1.0
18.82826232910156,-12.525827407836914,0.3329305648803711,-0.0,-0.0,-1.0,0.0684272576829223,1.0,1.0
18.17401885986328,-13.8843994140625,0.4548902511596679,-0.0,-0.0,-1.0,0.0104546857462684,2.0,1.0
18.33920669555664,-14.025310516357422,0.4550162553787231,0.0168794530770724,-0.9266714365590716,-0.3754931859959197,0.0092855929110853,3.0,1.0
19.09673500061035,-11.96308135986328,0.4308795928955078,-0.0,-0.0,-1.0,0.1138291304105853,1.0,1.0
19.24501037597656,-12.081774711608888,0.4369169473648071,-0.0,-0.0,-1.0,0.1836163739914874,1.0,1.0
19.010482788085938,-12.630784034729004,0.3434237241744995,-0.0,-0.0,-1.0,0.0533121878336066,2.0,1.0
18.597732543945312,-14.234495162963867,0.455247163772583,-0.0,-0.0,-1.0,0.0685033425844822,1.0,1.0
19.407638549804688,-12.770519256591797,0.3748873472213745,-0.0,-0.0,-1.0,0.1307489972650265,2.0,1.0
19.805496215820312,-12.867195129394531,0.4090980291366577,-0.0,-0.0,-1.0,0.0832807127074825,1.0,1.0
19.876604080200195,-13.231694221496582,0.3684694766998291,-0.0,-0.0,-1.0,0.1665922130622535,2.0,1.0
20.024755477905273,-13.402833938598633,0.3607882261276245,0.0432497330578453,0.9905557542898488,0.1301105615762759,0.1579631155365745,5.0,1.0
20.03872299194336,-13.521232604980469,0.3455857038497925,-0.0,-0.0,-1.0,0.0887642472636486,1.0,1.0
17.715435028076172,-12.500415802001951,0.8880106210708618,-0.0,-0.0,-1.0,0.2260117068761696,1.0,1.0
17.882307052612305,-12.839273452758787,0.877038836479187,-0.0,-0.0,-1.0,0.1146907478496552,1.0,1.0
18.371116638183594,-12.145483016967772,0.639216423034668,-0.6337455802994325,0.5295372442586761,-0.5638766233794965,0.2298855211231813,3.0,1.0
18.326202392578125,-12.451091766357422,0.6077955961227417,-0.0,-0.0,-1.0,0.1810979220475559,2.0,1.0
18.285587310791016,-12.881603240966797,0.5643540620803833,-0.0,-0.0,-1.0,0.2503445909875317,2.0,1.0
18.420570373535156,-12.6270751953125,0.6014028787612915,-0.0,-0.0,-1.0,0.1367469338736594,2.0,1.0
19.186508178710938,-11.947132110595703,0.5929899215698242,-0.0,-0.0,-1.0,0.1244329711083862,2.0,1.0
19.277023315429688,-12.098724365234377,0.7354534864425659,0.1610636642620955,-0.356403976995276,-0.9203448816810024,0.1578851752058342,3.0,1.0
18.599321365356445,-14.1739501953125,0.4620097875595093,-0.0,-0.0,-1.0,0.0126514762690155,1.0,1.0
19.34420394897461,-12.048103332519531,0.4535096883773803,-0.6424242282129713,0.7570056755591332,-0.1193043091268239,0.233580963115464,3.0,1.0
20.09379196166992,-11.899347305297852,0.5652440786361694,-0.0,-0.0,-1.0,0.1795988671032478,1.0,1.0
19.827877044677734,-13.549722671508787,0.6346255540847778,-0.0,-0.0,-1.0,0.1656580919740184,1.0,1.0
20.192644119262695,-12.696025848388672,0.475762128829956,-0.0,-0.0,-1.0,0.0420911181028885,1.0,1.0
19.946311950683594,-13.677268981933594,0.6295593976974487,-0.0,-0.0,-1.0,0.2041952331492106,2.0,1.0
20.008350372314453,-14.147891998291016,0.578700065612793,-0.0,-0.0,-1.0,0.2439450107483588,1.0,1.0
19.82400703430176,-14.33698272705078,0.5422266721725464,-0.0,-0.0,-1.0,0.1498738578442599,1.0,1.0
18.04178047180176,-12.182085990905762,0.9333137273788452,-0.0,-0.0,-1.0,0.2264344967948211,1.0,1.0
17.866168975830078,-12.473200798034668,0.9009180068969728,0.8377427885344905,-0.3694295263004811,0.4021303835273556,0.2285230551366212,4.0,1.0
18.239727020263672,-12.100212097167969,0.9534369111061096,-0.0,-0.0,-1.0,0.1515507048905357,2.0,1.0
18.18440055847168,-12.55551528930664,1.0856685638427734,-0.0,-0.0,-1.0,0.218168366509623,2.0,2.0
18.131675720214844,-12.710297584533691,0.90399968624115,-0.0,-0.0,-1.0,0.2029788728756235,1.0,1.0
17.846038818359375,-13.744694709777832,1.1741657257080078,-0.0,-0.0,-1.0,0.1209371762426182,1.0,2.0
18.4088191986084,-12.19505214691162,0.5215215682983398,-0.0,-0.0,-1.0,0.1556027085634311,1.0,1.0
18.105464935302734,-13.184822082519531,0.3721773624420166,0.7098634481596975,-0.0294362804426414,-0.7037239447116508,0.0737767077362087,4.0,1.0
18.925954818725582,-11.963669776916504,0.3289922475814819,-0.0,-0.0,-1.0,0.1568029132153139,2.0,1.0
18.453065872192383,-12.42691421508789,0.5014387369155884,-0.0,-0.0,-1.0,0.1789251867278998,2.0,1.0
18.305498123168945,-12.805160522460938,0.4405821561813354,-0.7578242280460546,0.0010644391848102,0.6524578962321043,0.2212978673050972,4.0,1.0
18.249006271362305,-13.188623428344728,0.3879811763763428,0.088172059982074,0.1207448221127167,-0.9887600193027052,0.0348316669950134,4.0,1.0
18.371253967285156,-13.42397689819336,0.3724465370178222,-0.0,-0.0,-1.0,0.0047661187434476,2.0,1.0
19.283645629882812,-11.978289604187012,0.381616473197937,-0.0,-0.0,-1.0,0.2465697293116499,2.0,1.0
19.20296859741211,-12.060986518859863,0.3585226535797119,-0.0,-0.0,-1.0,0.122465387336232,1.0,1.0
19.0861873626709,-12.429159164428713,0.2915793657302856,-0.0,-0.0,-1.0,0.0496480637421714,1.0,1.0
18.57737159729004,-13.431251525878906,0.3942036628723144,-0.0,-0.0,-1.0,0.0297822055343437,1.0,1.0
18.696598052978516,-13.53118896484375,0.3939179182052612,-0.0,-0.0,-1.0,0.0033331923518969,1.0,1.0
19.45120620727539,-12.206778526306152,0.3751899003982544,-0.0,-0.0,-1.0,0.1732305101881832,1.0,1.0
19.369081497192383,-12.51138687133789,0.3209701776504516,-0.0,-0.0,-1.0,0.0756493462376053,2.0,1.0
19.08989715576172,-13.749770164489746,0.4052784442901611,-0.0,-0.0,-1.0,0.0046037060511027,1.0,1.0
19.916183471679688,-12.459274291992188,0.4057319164276123,-0.0,-0.0,-1.0,0.0419186996484414,2.0,1.0
19.910497665405273,-12.714942932128906,0.3658549785614013,-0.0,-0.0,-1.0,0.0399701957875267,1.0,1.0
19.379661560058594,-14.005906105041504,0.3972963094711303,-0.0,-0.0,-1.0,0.008876300945702,1.0,1.0
20.129135131835938,-12.851176261901855,0.3730504512786865,-0.0,-0.0,-1.0,0.0410121523933061,1.0,1.0
20.124502182006836,-13.193614959716797,0.3160861730575561,-0.0,-0.0,-1.0,0.1140825385485504,1.0,1.0
19.738574981689453,-14.160825729370115,0.4077852964401245,-0.0,-0.0,-1.0,0.1033057319355418,1.0,1.0
17.86405372619629,-12.257522583007812,0.7637306451797485,-0.0,-0.0,-1.0,0.1520187018158001,1.0,1.0
18.40081787109375,-11.98410701751709,0.690126895904541,-0.2339492188510471,0.9719304237917242,0.0248799981315109,0.2371801697806068,3.0,1.0
18.265682220458984,-12.224703788757324,0.8036317825317383,-0.0,-0.0,-1.0,0.2663309999903265,1.0,1.0
18.270160675048828,-12.557708740234377,0.7734416723251343,-0.0,-0.0,-1.0,0.0927039964205327,1.0,1.0
17.99280548095703,-13.005868911743164,0.7057377099990845,-0.0,-0.0,-1.0,0.1980236796729971,1.0,1.0
18.68772315979004,-11.892325401306152,0.5880544185638428,-0.0,-0.0,-1.0,0.139821694358002,1.0,1.0
18.561662673950195,-12.254638671875,0.6815866231918335,-0.0,-0.0,-1.0,0.1932048922652696,2.0,1.0
18.303165435791016,-12.923051834106444,0.740811824798584,-0.0,-0.0,-1.0,0.248539010092073,1.0,1.0
19.287776947021484,-11.97099494934082,0.6529523134231567,-0.0,-0.0,-1.0,0.1653238740621473,2.0,1.0
19.222808837890625,-12.049187660217283,0.7718875408172607,-0.0,-0.0,-1.0,0.1466794249473113,1.0,1.0
19.364660263061523,-12.181489944458008,0.6379286050796509,-0.0,-0.0,-1.0,0.1413613283053867,1.0,1.0
20.159421920776367,-11.894978523254396,0.5226904153823853,-0.0,-0.0,-1.0,0.1235203989424928,1.0,1.0
19.924394607543945,-13.381281852722168,0.5408586263656616,0.8015050567302144,0.52681754591635,0.2829362425539899,0.2505010607678306,7.0,1.0
19.91687774658203,-13.55825901031494,0.5143880844116211,-0.2647118675362192,0.7752932056131303,0.5734527639793917,0.1836263844135981,4.0,1.0
20.20201873779297,-14.188261032104492,0.4456353187561035,-0.0,-0.0,-1.0,0.2275109272610828,1.0,1.0
18.2587890625,-12.471059799194336,1.0853283405303955,0.3565965957125144,0.0853522550765371,-0.930351471477095,0.2321806773585741,4.0,2.0
18.270915985107425,-12.587456703186035,1.0770649909973145,-0.0,-0.0,-1.0,0.2240838802052283,1.0,2.0
19.17240524291992,-11.879247665405272,0.9178816080093384,0.5581633139672203,0.728731207300225,0.3967424132203245,0.1767742289056715,3.0,1.0
19.311504364013672,-12.085289001464844,0.9108960032463074,-0.0,-0.0,-1.0,0.2597490248067031,2.0,1.0
18.851015090942383,-11.995872497558594,0.3286893367767334,0.858617020641419,-0.4994274072956645,-0.1155382045333192,0.202051144911551,4.0,1.0
18.865419387817383,-12.39285659790039,0.2930517196655273,-0.0,-0.0,-1.0,0.0731058724350898,1.0,1.0
18.137741088867188,-13.232701301574709,0.3667454719543457,-0.0,-0.0,-1.0,0.0258197894247695,1.0,1.0
19.044193267822266,-12.552135467529297,0.3095635175704956,-0.0,-0.0,-1.0,0.0504309058743594,1.0,1.0
19.827655792236328,-11.93083667755127,0.2945754528045654,-0.0,-0.0,-1.0,0.0646112986609115,1.0,1.0
19.316951751708984,-12.71779441833496,0.341055154800415,-0.0,-0.0,-1.0,0.1333501342970624,2.0,1.0
20.13007545471191,-12.234817504882812,0.3223856687545776,-0.0,-0.0,-1.0,0.0593234113987071,1.0,1.0
18.10152053833008,-12.16887092590332,0.7336611747741699,-0.2130131114443758,-0.7501075966702323,-0.6260702898001103,0.1526717854828383,3.0,1.0
18.536964416503903,-11.91448974609375,0.5414693355560303,-0.0,-0.0,-1.0,0.1602607227686516,1.0,1.0
18.35665512084961,-12.171916007995604,0.6306465864181519,-0.4785290105190114,-0.021553198565429,-0.8778071802641483,0.1970626654077404,4.0,1.0
18.232261657714844,-12.663894653320312,0.5742367506027222,-0.0,-0.0,-1.0,0.1689141167247468,2.0,1.0
17.993968963623047,-12.933835983276367,0.6683622598648071,-0.0,-0.0,-1.0,0.2018699434371744,1.0,1.0
18.921329498291016,-11.912765502929688,0.4786657094955444,-0.0,-0.0,-1.0,0.1179683214176081,2.0,1.0
18.574676513671875,-12.321837425231934,0.5159211158752441,-0.0,-0.0,-1.0,0.2077894653009063,2.0,1.0
18.386260986328125,-12.702716827392578,0.4538348913192749,-0.3152409951671512,-0.3635364181606734,-0.8766210057013988,0.2150583632678809,5.0,1.0
18.23662757873535,-13.094423294067385,0.3947854042053222,-0.0,-0.0,-1.0,0.083878074385184,1.0,1.0
18.285022735595703,-13.394960403442385,0.3728291988372803,-0.0,-0.0,-1.0,0.005365403283765,1.0,1.0
19.33428955078125,-12.016626358032228,0.5400776863098145,-0.0448127455867607,-0.1642116016594531,-0.9854067016787604,0.1603707884859556,3.0,1.0
19.181331634521484,-12.090008735656738,0.507764458656311,-0.0,-0.0,-1.0,0.1742996868358813,1.0,1.0
18.5301570892334,-13.534664154052734,0.3944529294967651,-0.0,-0.0,-1.0,0.006366456574027,1.0,1.0
19.431018829345703,-12.75198745727539,0.357602596282959,-0.3834120061511765,-0.3232267717057787,-0.8651703228797147,0.1477074813690041,3.0,1.0
18.850360870361328,-13.841682434082031,0.4063256978988647,0.1993293254961229,0.0261889472182765,-0.9795825432503678,0.0055245464342706,3.0,1.0
20.12606430053711,-12.016192436218262,0.3502066135406494,-0.0,-0.0,-1.0,0.125784537202949,2.0,1.0
19.990638732910156,-12.841290473937988,0.4456170797348022,-0.0,-0.0,-1.0,0.0409708020409545,1.0,1.0
19.68203353881836,-12.996395111083984,0.371600866317749,-0.0,-0.0,-1.0,0.0586640227032749,2.0,1.0
19.756532669067383,-13.222040176391602,0.3547985553741455,-0.0,-0.0,-1.0,0.1002444680907121,2.0,1.0
18.97985458374023,-14.03358268737793,0.4020583629608154,-0.0,-0.0,-1.0,0.0086071782372608,1.0,1.0
19.907148361206055,-13.476696014404297,0.4700201749801636,-0.0,-0.0,-1.0,0.1972492314301862,2.0,1.0
19.881006240844727,-13.704812049865724,0.5636947154998779,-0.0,-0.0,-1.0,0.1722755668015956,1.0,1.0
20.208045959472656,-13.712926864624023,0.3574187755584717,0.9839398768218476,-0.1774597239356408,0.0192448741355594,0.1095410241873064,3.0,1.0
20.15801048278809,-14.007967948913574,0.5599771738052368,-0.0,-0.0,-1.0,0.1076957041447764,1.0,1.0
19.99350357055664,-14.299617767333984,0.5003774166107178,-0.0,-0.0,-1.0,0.1510320796374606,1.0,1.0
17.808643341064453,-12.419989585876465,0.9719589948654176,-0.0,-0.0,-1.0,0.2244204986048346,2.0,1.0
18.342527389526367,-11.867907524108888,0.9174128770828248,0.6200425566093396,0.3572868980043584,-0.6984935937485591,0.1509553767301164,4.0,1.0
18.331623077392575,-12.246259689331056,0.8967373967170715,-0.0,-0.0,-1.0,0.2550042837186198,2.0,1.0
18.230567932128903,-12.571308135986328,1.0034788846969604,-0.0,-0.0,-1.0,0.2462773365203976,1.0,2.0
17.718080520629883,-12.986578941345217,0.9331719875335692,-0.0,-0.0,-1.0,0.0627974804123507,1.0,1.0
19.24673843383789,-11.968883514404297,0.8920338153839111,-0.0,-0.0,-1.0,0.192143943290571,1.0,1.0
19.267648696899418,-12.088427543640137,0.8865904808044434,-0.0,-0.0,-1.0,0.2372657430688147,2.0,1.0
19.85956764221191,-13.692060470581056,0.8162922859191895,-0.0,-0.0,-1.0,0.1983201135195693,1.0,1.0
17.99343490600586,-13.790922164916992,1.2128889560699463,-0.0,-0.0,-1.0,0.0957233595060076,1.0,2.0
18.791507720947266,-12.030774116516112,0.3697892427444458,-0.0,-0.0,-1.0,0.1743002595932152,1.0,1.0
18.736949920654297,-12.379619598388672,0.3224866390228271,-0.0,-0.0,-1.0,0.0423056328113133,1.0,1.0
18.311548233032227,-12.785927772521973,0.4426921606063843,-0.027049819106989,0.117418745724603,-0.9927140300402428,0.2409814542063702,3.0,1.0
18.217788696289062,-13.151926040649414,0.3859069347381592,-0.0,-0.0,-1.0,0.083125404887806,2.0,1.0
18.958297729492188,-12.64268398284912,0.3392024040222168,-0.0,-0.0,-1.0,0.0573710251443695,1.0,1.0
18.51834487915039,-13.485587120056152,0.3974214792251587,-0.0,-0.0,-1.0,0.031669672260616,1.0,1.0
18.351886749267575,-13.42169189453125,0.3773255348205566,-0.0,-0.0,-1.0,0.0047661187434476,2.0,1.0
19.313983917236328,-12.867904663085938,0.3843635320663452,-0.0,-0.0,-1.0,0.1317820053039546,2.0,1.0
18.765993118286133,-13.743144035339355,0.4044414758682251,-0.0,-0.0,-1.0,0.0043379780849828,1.0,1.0
19.531593322753903,-13.13113784790039,0.3910893201828003,-0.0,-0.0,-1.0,0.0352154531884471,1.0,1.0
19.60820198059082,-13.314409255981444,0.3783551454544067,-0.0,-0.0,-1.0,0.0766708188350687,1.0,1.0
19.07417678833008,-14.241342544555664,0.3812404870986938,-0.0,-0.0,-1.0,0.0070574138022286,1.0,1.0
19.10666275024414,-14.350939750671388,0.3693242073059082,-0.0,-0.0,-1.0,0.0069123246335874,1.0,1.0
19.703643798828125,-13.428215980529783,0.3787306547164917,-0.0,-0.0,-1.0,0.1023793385756531,1.0,1.0
18.09626579284668,-12.011537551879885,0.7270913124084473,-0.0,-0.0,-1.0,0.1946135033361689,1.0,1.0
18.37700843811035,-12.196115493774414,0.6336421966552734,-0.0,-0.0,-1.0,0.2034365014845932,2.0,1.0
18.223812103271484,-12.605464935302734,0.6992708444595337,-0.0,-0.0,-1.0,0.0834031355112474,1.0,1.0
17.939434051513672,-12.897632598876951,0.6321650743484497,-0.0,-0.0,-1.0,0.2202026717999675,2.0,1.0
19.15174865722656,-11.949469566345217,0.5653239488601685,-0.0,-0.0,-1.0,0.1336815358383196,2.0,1.0
18.668270111083984,-12.107460021972656,0.5722633600234985,-0.0,-0.0,-1.0,0.1388897700290256,1.0,1.0
18.47718048095703,-12.455455780029297,0.5055681467056274,-0.0,-0.0,-1.0,0.1720889997046865,2.0,1.0
18.381969451904297,-12.583736419677734,0.599798321723938,-0.0,-0.0,-1.0,0.1653072312055211,2.0,1.0
18.17754173278809,-12.883703231811523,0.6677119731903076,-0.0,-0.0,-1.0,0.1561503970013287,1.0,1.0
19.31304931640625,-12.000662803649902,0.592985987663269,-0.0,-0.0,-1.0,0.1994344216074637,2.0,1.0
19.262916564941406,-12.188072204589844,0.6730883121490479,-0.0,-0.0,-1.0,0.1998992696024749,2.0,1.0
18.76438331604004,-13.64016342163086,0.4183957576751709,-0.0,-0.0,-1.0,0.0030023029204486,2.0,1.0
18.86648178100586,-13.82168197631836,0.4101407527923584,0.1993293254961229,0.0261889472182765,-0.9795825432503678,0.0050985992370492,3.0,1.0
19.080398559570312,-14.030742645263672,0.414002776145935,-0.0,-0.0,-1.0,0.0086584494333588,1.0,1.0
19.90449905395508,-13.355180740356444,0.5358706712722778,0.9439966975528205,0.314248703312149,0.100588207440046,0.1482847543891182,6.0,1.0
19.90178680419922,-13.557771682739258,0.5032747983932495,-0.054268055521415,0.5564165457417418,0.829129426431575,0.1836263844135982,4.0,1.0
20.136472702026367,-13.892251968383787,0.4871773719787597,-0.0,-0.0,-1.0,0.1086202020266332,1.0,1.0
20.021108627319336,-14.178563117980955,0.5316751003265381,-0.0,-0.0,-1.0,0.213526290469609,1.0,1.0
18.106733322143555,-12.11552906036377,0.971126914024353,-0.0,-0.0,-1.0,0.2024195759612952,1.0,1.0
17.765613555908203,-12.363119125366213,0.915786862373352,0.254651288264411,0.8295455468225938,-0.4969978944946142,0.2332252686023465,3.0,1.0
18.415584564208984,-12.01170825958252,1.0133661031723022,-0.6768257500190615,-0.0706976006631774,-0.7327405771291807,0.1716166103768172,3.0,2.0
18.209484100341797,-12.253668785095217,1.0980428457260132,-0.0,-0.0,-1.0,0.1725403964927415,1.0,2.0
18.202110290527344,-12.525886535644531,0.9538432955741882,-0.0,-0.0,-1.0,0.196544500420031,1.0,1.0
17.820430755615234,-13.665693283081056,1.094351291656494,-0.0,-0.0,-1.0,0.1433593934021828,2.0,2.0
19.330991744995117,-11.99658203125,0.9124010801315308,0.4162156597972283,0.308844333339131,-0.8552074030922941,0.1828397078345711,5.0,1.0
18.406063079833984,-14.35220718383789,1.0787880420684814,0.1603448286665295,0.0549432000184489,-0.9855307101717498,0.104331489568502,3.0,2.0
19.9285945892334,-13.637415885925291,0.928334414958954,-0.0,-0.0,-1.0,0.2564674836879854,1.0,1.0
17.78055191040039,-13.574403762817385,1.3725926876068115,-0.3896180682920304,0.0797602738144368,-0.9175162448596932,0.1885977702510067,4.0,2.0
18.537199020385746,-12.429502487182615,0.3985413312911987,-0.6763880201241397,0.5549945182777214,-0.4842316913567584,0.106169756795361,3.0,1.0
