x,y,z,nx,ny,nz,curvature,density,label
16.05519676208496,1.6704998016357422,-0.2801131010055542,0.7709938082121188,0.5764401664719051,-0.270712545288202,0.0599398772227479,3.0,0.0
15.996086120605469,1.8637571334838867,-0.279075026512146,0.3646894316614511,0.9271116723532056,-0.0864035035220801,0.024604243314673,5.0,0.0
16.254940032958984,0.9961700439453124,-0.2842458486557007,-0.0,-0.0,-1.0,0.0303072472975438,2.0,0.0
16.088226318359375,1.2996330261230469,-0.28624427318573,0.0233720588476523,-0.7258660828171595,-0.6874388530486871,0.0269624451365032,3.0,0.0
16.614885330200195,0.8325538635253906,-0.2695614099502563,-0.0,-0.0,-1.0,0.0138418833507058,2.0,0.0
16.240951538085938,0.8768844604492188,-0.287500262260437,-0.0,-0.0,-1.0,0.0297051112691622,1.0,0.0
16.598388671875,2.300135612487793,-0.1756768226623535,-0.0,-0.0,-1.0,0.2347092683500625,2.0,0.0
15.831565856933594,1.7859525680541992,-0.2254918813705444,-0.0,-0.0,-1.0,0.020543947006504,2.0,0.0
15.810379028320312,2.0958337783813477,-0.2190030813217163,-0.3452311184593126,0.500259026679115,0.794075803102825,0.2617320710107218,4.0,0.0
15.941827774047852,1.5104217529296875,-0.2268974781036377,-0.4420317811004445,0.8365056527909325,0.3238305071267758,0.0993373831393719,4.0,0.0
16.165674209594727,1.0150222778320312,-0.2285020351409912,-0.0,-0.0,-1.0,0.0684680376271737,1.0,0.0
16.199783325195312,0.6993169784545898,-0.2348653078079223,0.1007907325847851,-0.2128534027045764,-0.9718717287698544,0.1245300134314774,3.0,0.0
16.692241668701172,2.2801923751831055,-0.068872332572937,-0.0,-0.0,-1.0,0.1751460329961763,1.0,0.0
15.92289924621582,1.4515533447265625,-0.1359132528305053,-0.0,-0.0,-1.0,0.2557077653407736,2.0,0.0
15.659664154052734,1.5220460891723633,-0.141736626625061,-0.8897421052766566,0.3016217460553327,-0.3426124755527657,0.1134604439545303,4.0,0.0
15.474401473999023,1.7380084991455078,-0.1378268003463745,-0.0,-0.0,-1.0,0.1434908781912744,1.0,0.0
15.81621551513672,1.0168514251708984,-0.1607383489608764,-0.8322158890637213,-0.4124782423120182,-0.3705110168524925,0.1578528732830634,5.0,0.0
15.725822448730469,1.1824893951416016,-0.155855655670166,-0.8226943262270845,-0.31836762202167,-0.4709735691543955,0.1195167446987935,5.0,0.0
16.08741569519043,0.6396799087524414,-0.1696685552597046,-0.0,-0.0,-1.0,0.133747964632421,2.0,0.0
15.833330154418944,0.7616968154907227,-0.1725624799728393,-0.170288711782844,0.5166946711979544,-0.8390639852806083,0.1296892963695709,5.0,0.0
15.853519439697266,1.6506013870239258,-0.219105839729309,-0.248956462760537,0.8412731883353578,0.4798750902451835,0.1029450920475329,4.0,0.0
15.742830276489258,1.795755386352539,-0.2190546989440918,-0.0,-0.0,-1.0,0.0536216841630367,2.0,0.0
16.119524002075195,1.1242685317993164,-0.2259373664855957,0.1201065805947815,-0.9622699887500046,-0.2441533904104044,0.0690652163734171,5.0,0.0
15.910560607910156,1.421523094177246,-0.22486412525177,-0.278622180322724,0.8119361219258884,0.5129614162333855,0.1648302791882905,3.0,0.0
16.14836883544922,0.8219871520996094,-0.2358794212341308,-0.0,-0.0,-1.0,0.077304847661854,2.0,0.0
15.908023834228516,1.1559314727783203,-0.2348686456680297,-0.0,-0.0,-1.0,0.0701572058985717,2.0,0.0
15.975317001342772,1.5197992324829102,0.0711802244186401,-0.0,-0.0,-1.0,0.2136322287475416,1.0,1.0
15.701095581054688,1.1381759643554688,0.0483632087707519,0.5579382317181143,-0.4056229811070715,-0.7239992588290929,0.2069737897125933,3.0,1.0
15.776809692382812,0.9215211868286132,0.0444171428680419,-0.0,-0.0,-1.0,0.1281285899484622,2.0,1.0
16.0335636138916,1.5166473388671875,0.1001238822937011,-0.0,-0.0,-1.0,0.1360301425871494,1.0,1.0
15.933002471923828,1.5518980026245115,0.0980939865112304,-0.0,-0.0,-1.0,0.2535308048170558,1.0,1.0
15.694765090942385,0.9739837646484376,0.0672066211700439,-0.2183696430909088,0.9719048614815492,0.0878387113115834,0.1209124899941886,5.0,1.0
16.091529846191406,3.088848114013672,-0.3313617706298828,0.5103573166940594,-0.5645298993511607,-0.6487229008100517,0.1414237539493228,3.0,0.0
17.156665802001953,2.199936866760254,-0.3275842666625976,-0.0,-0.0,-1.0,0.11704712522918,1.0,0.0
17.4440975189209,1.972860336303711,-0.3265683650970459,-0.0,-0.0,-1.0,0.1253262828266964,2.0,0.0
17.072547912597656,2.1400156021118164,-0.3349770307540893,-0.4499697983653958,-0.6551687787469057,-0.6068616414919414,0.0744382536902042,4.0,0.0
16.75550651550293,2.199026107788086,-0.3469399213790893,0.8164660094733078,0.0975732275024951,-0.5690893784367078,0.0481958508812907,4.0,0.0
17.327783584594727,1.593522071838379,-0.353512167930603,-0.0,-0.0,-1.0,0.0451950912923467,1.0,0.0
17.357669830322266,0.6382818222045898,0.4031183123588562,-0.0,-0.0,-1.0,0.1661326259082622,2.0,1.0
15.354902267456056,0.7665004730224609,0.3687678575515747,-0.0,-0.0,-1.0,0.084403678513552,2.0,1.0
17.679393768310547,2.409383773803711,-0.354196548461914,0.4548036020011151,0.0540729925832666,-0.8889487021644731,0.050485083508358,4.0,0.0
17.210351943969727,2.4174089431762695,-0.379205584526062,-0.0,-0.0,-1.0,0.0801498732886869,1.0,0.0
16.277395248413086,3.033365249633789,-0.3950104713439941,0.3624807070804351,-0.3851076903116928,-0.8487047801545959,0.0169260623015437,3.0,0.0
17.541545867919922,2.1075286865234375,-0.3797303438186645,-0.0,-0.0,-1.0,0.0926337205016605,2.0,0.0
17.21315574645996,2.228949546813965,-0.3902411460876465,-0.0,-0.0,-1.0,0.0838588708354088,1.0,0.0
17.504636764526367,1.7369422912597656,-0.4040576219558716,-0.0,-0.0,-1.0,0.0286220280331093,1.0,0.0
16.12887954711914,0.7008657455444336,-0.2691903114318847,0.4117257420124572,0.4011916119322112,-0.8182464200224313,0.1291750992345645,4.0,0.0
16.08953094482422,2.790647506713867,-0.1732184886932373,0.9312077969255526,0.1374215888900715,0.337590500239546,0.1597790709645045,11.0,0.0
15.60651969909668,2.12197208404541,-0.2291270494461059,0.2629873572845584,0.4600839204550776,-0.8480332753183506,0.1723674653942638,3.0,0.0
16.077436447143555,1.119487762451172,-0.2520196437835693,-0.0,-0.0,-1.0,0.0670654399135935,2.0,0.0
15.818435668945312,1.177506446838379,-0.2624688148498535,-0.0,-0.0,-1.0,0.1323090880738649,1.0,0.0
16.19274139404297,0.6506977081298828,-0.2683324813842773,0.2624052350138652,0.8854209645605438,-0.3836316047381848,0.1245452676675565,3.0,0.0
16.05976676940918,0.9257040023803712,-0.2620683908462524,-0.0,-0.0,-1.0,0.0656091367303119,1.0,0.0
16.668758392333984,3.107701301574707,-0.415164589881897,-0.886142130145539,-0.3268963397430506,-0.3284675147464704,0.0444212202728768,4.0,0.0
17.647808074951172,2.57083511352539,-0.3928480148315429,-0.0,-0.0,-1.0,0.056758509699676,2.0,0.0
16.680294036865234,2.977487564086914,-0.4226239919662475,-0.1277835069629955,0.989647719918322,-0.065335792707401,0.0443649138694361,3.0,0.0
15.665042877197266,0.86541748046875,0.175215482711792,0.00164079604136,0.2363453737147462,-0.9716677272154242,0.1621029086308525,3.0,1.0
15.885082244873049,2.419835090637207,-0.2650460004806518,-0.0,-0.0,-1.0,0.0460664176189135,2.0,0.0
15.44356632232666,2.459970474243164,-0.2921769618988037,-0.0,-0.0,-1.0,0.0465692195534374,2.0,0.0
15.75001335144043,2.246654510498047,-0.280653715133667,0.278308568312792,-0.7340407710889661,-0.6194582206919205,0.1312622892971779,3.0,0.0
16.721080780029297,0.8860044479370117,-0.2753329277038574,0.2465532355159013,0.9546616176442828,0.1668313455362686,0.0141700837058687,4.0,0.0
16.336538314819336,1.0480585098266602,-0.2923815250396728,-0.0,-0.0,-1.0,0.0220648802414627,1.0,0.0
16.802783966064453,0.7018814086914062,-0.2781746387481689,-0.0,-0.0,-1.0,0.0467117868040867,2.0,0.0
16.350406646728516,0.868861198425293,-0.2990434169769287,-0.0,-0.0,-1.0,0.0160421610378739,1.0,0.0
16.525501251220703,2.7355995178222656,-0.3624850511550903,-0.0,-0.0,-1.0,0.0755204570050769,2.0,0.0
16.32522964477539,2.907282829284668,-0.3634380102157593,-0.0918691881473388,0.022516823732148,-0.9955164714449296,0.0272808544395544,3.0,0.0
17.374849319458008,2.1237478256225586,-0.353121280670166,0.7748160362556208,-0.0851047543286362,-0.6264321916630652,0.1236801610461561,7.0,0.0
17.619110107421875,1.7592811584472656,-0.363287091255188,-0.0,-0.0,-1.0,0.0315316310331769,2.0,0.0
17.444774627685547,1.8938531875610352,-0.3641103506088257,0.4740277837702729,0.0783902233459101,-0.8770134737263856,0.0960262290044573,3.0,0.0
17.471717834472656,1.6102848052978516,-0.3810666799545288,-0.803463123908528,-0.0253485970486671,-0.5948146409990369,0.0604603477881628,4.0,0.0
16.080604553222656,2.779068946838379,-0.1910785436630249,0.8256193454532597,0.5239215108191074,0.2094252776394362,0.1780733533490369,11.0,0.0
16.557376861572266,2.4842615127563477,-0.1870268583297729,0.6754309443613374,-0.6563584863526889,-0.3361347598686558,0.2605666097505253,6.0,0.0
15.399965286254885,2.2944765090942383,-0.2539930343627929,0.5727524755750034,0.6709229610125352,0.4709745026101486,0.1064838520312255,3.0,0.0
15.212815284729004,2.513749122619629,-0.2495428323745727,-0.0,-0.0,-1.0,0.0467934420029258,2.0,0.0
15.855180740356444,1.9310522079467771,-0.2550193071365356,-0.0,-0.0,-1.0,0.0680036929183383,2.0,0.0
16.960575103759766,0.9637222290039062,-0.2668603658676147,-0.0,-0.0,-1.0,0.117712084536937,1.0,0.0
16.542503356933594,0.955402374267578,-0.2859896421432495,-0.0,-0.0,-1.0,0.0114806065971773,2.0,0.0
16.978412628173828,0.6482343673706055,-0.2868180274963379,-0.0,-0.0,-1.0,0.0373850616009243,1.0,0.0
16.070737838745117,2.754302978515625,-0.17449951171875,0.0954769574145875,-0.2755910856240574,-0.9565216694499956,0.1858101430683529,10.0,0.0
16.570148468017578,2.4185667037963867,-0.1782577037811279,-0.6868064565786359,-0.121798004560404,-0.7165627239028014,0.225914191277139,8.0,0.0
15.789165496826172,2.1638975143432617,-0.2271589040756225,-0.6494094417926806,0.3112148501357348,-0.6938390980375142,0.2025412835354282,5.0,0.0
15.447932243347168,2.2706432342529297,-0.2335139513015747,-0.0,-0.0,-1.0,0.088014361023291,1.0,0.0
15.696444511413574,2.1551952362060547,-0.2314939498901367,-0.1498128049636378,0.0020301481777071,-0.9887122948397596,0.1578891119975508,4.0,0.0
17.05895233154297,1.018695831298828,-0.2605946063995361,-0.8512517860160632,-0.1717238456743507,-0.4958642128963071,0.0761010614343321,3.0,0.0
16.6987361907959,0.9578371047973632,-0.2782150506973266,-0.0,-0.0,-1.0,0.0157454175958,2.0,0.0
17.038015365600586,0.7462320327758789,-0.2812588214874267,-0.0,-0.0,-1.0,0.0388129264810601,2.0,0.0
15.937416076660156,1.5012149810791016,0.4056583046913147,-0.0,-0.0,-1.0,0.1636239586798331,1.0,1.0
16.06940460205078,2.8233461380004883,-0.303939938545227,-0.2143472639595295,-0.812993675390872,-0.5413839064910455,0.2271553082189083,8.0,0.0
15.728801727294922,2.8995275497436523,-0.305858850479126,-0.0,-0.0,-1.0,0.0642751236752949,1.0,0.0
16.655773162841797,2.38321590423584,-0.3303850889205932,-0.950245669775904,-0.1792904157852026,-0.254731454437241,0.1633074424967795,4.0,0.0
16.201751708984375,2.5917720794677734,-0.3220850229263305,-0.0,-0.0,-1.0,0.1067226026205987,1.0,0.0
17.621593475341797,2.074141502380371,-0.3376091718673706,-0.0,-0.0,-1.0,0.0678409841257678,1.0,0.0
17.51029396057129,2.0092039108276367,-0.3462295532226562,0.8156467623199969,0.0819059782897008,-0.5727231179525697,0.1280526069443655,3.0,0.0
17.474937438964844,1.6577014923095703,-0.3806124925613403,-0.803463123908528,-0.0253485970486671,-0.5948146409990369,0.0459255120701917,4.0,0.0
16.02984619140625,2.9658775329589844,-0.3377746343612671,-0.0,-0.0,-1.0,0.0567829637180467,2.0,0.0
15.85268497467041,3.1210384368896484,-0.3272902965545654,-0.0,-0.0,-1.0,0.0904502723210785,1.0,0.0
16.450313568115234,2.597383499145508,-0.3633219003677368,-0.0,-0.0,-1.0,0.1459857217953815,1.0,0.0
16.252546310424805,2.7196197509765625,-0.356248140335083,-0.9150141880452104,0.3697569421711349,-0.16133455734038,0.1064307769255712,3.0,0.0
16.138965606689453,2.758451461791992,0.0101140737533569,-0.6356859288025215,0.5950083278396682,-0.4918012705594787,0.1418137955589415,3.0,1.0
16.564167022705078,2.4970483779907227,-0.0067212581634521,-0.4718594092968215,0.5003102788331057,-0.7259740510183507,0.1605098173758047,3.0,0.0
15.751272201538086,2.018612861633301,-0.0572741031646728,-0.0,-0.0,-1.0,0.1398914420772801,1.0,0.0
15.402063369750977,1.680877685546875,-0.0902953147888183,-0.9693960170386172,0.1299254209606178,-0.2083044577964453,0.1354259684482137,3.0,0.0
15.592557907104492,1.3529176712036133,-0.1155310869216919,-0.2792046011786645,0.8398820096243135,-0.4654492459872374,0.1388099989872621,3.0,0.0
15.779276847839355,1.1328010559082031,-0.1319385766983032,-0.0,-0.0,-1.0,0.1348006335104141,2.0,0.0
15.575857162475586,2.986379623413086,-0.3139224052429199,-0.0,-0.0,-1.0,0.024782447566304,2.0,0.0
15.97337245941162,2.8128347396850586,-0.3189119100570678,0.5677280356547396,0.7977852109642439,-0.2030360428553215,0.1739869114338145,5.0,0.0
15.614740371704102,2.790675163269043,-0.3325444459915161,0.2544391482105844,-0.9101727118748844,-0.3268736061785823,0.0356659877094671,3.0,0.0
16.6608829498291,2.440164566040039,-0.3375961780548095,-0.339180893306882,0.27461343877881,-0.8997465092222487,0.1809321912569144,6.0,0.0
16.383777618408203,2.534543037414551,-0.3354899883270263,-0.0,-0.0,-1.0,0.1490263965314605,2.0,0.0
16.11457061767578,2.593855857849121,-0.3371455669403076,0.9115319057275136,0.3213910679662908,-0.2565489549233316,0.0614340208719018,3.0,0.0
16.690271377563477,2.259243965148926,-0.3558007478713989,-0.1057409095105693,0.2051448179838433,-0.9730028076579498,0.0619102114578732,3.0,0.0
15.64747428894043,1.0541410446166992,0.0844379663467407,-0.7933591328471371,0.4331890295411525,-0.4277014741770631,0.2075943921372962,5.0,1.0
15.242266654968262,0.9031476974487304,0.0683610439300537,-0.0,-0.0,-1.0,0.1049842878379118,1.0,1.0
16.117145538330078,2.8525238037109375,-0.0191655158996582,-0.6083425891627794,0.57199604709096,-0.5502179716467304,0.1182017819316387,3.0,0.0
16.42736053466797,2.76492977142334,-0.0337426662445068,-0.0,-0.0,-1.0,0.096307734988228,1.0,0.0
15.42534351348877,2.0203065872192383,-0.0999600887298584,-0.0,-0.0,-1.0,0.0412615980943577,1.0,0.0
16.538970947265625,2.5977697372436523,-0.0541492700576782,-0.0,-0.0,-1.0,0.23670024451561,2.0,0.0
16.500974655151367,2.276134490966797,-0.0891209840774536,-0.0,-0.0,-1.0,0.2017532536838714,1.0,0.0
15.60436725616455,1.8443174362182615,-0.1217672824859619,-0.0,-0.0,-1.0,0.0805965194251494,2.0,0.0
15.427309036254885,1.8578386306762695,-0.117674708366394,-0.3173955469825911,0.0952148592729772,-0.9435010319704206,0.0713647007590422,4.0,0.0
15.775643348693848,1.5899133682250977,-0.1523923873901367,-0.1180811388601061,0.917777611074185,0.3791320367055019,0.130371037465699,3.0,0.0
16.033884048461914,1.2198781967163086,-0.1978275775909423,-0.0,-0.0,-1.0,0.1027753905423396,2.0,0.0
16.162830352783203,0.9349422454833984,-0.2319473028182983,-0.0,-0.0,-1.0,0.0583025036083317,2.0,0.0
15.292150497436523,2.636643409729004,-0.325689435005188,-0.0,-0.0,-1.0,0.0190098242506046,2.0,0.0
15.631799697875977,2.5622482299804688,-0.3334217071533203,-0.0,-0.0,-1.0,0.0334727450209074,2.0,0.0
15.45404815673828,2.582911491394043,-0.3316409587860107,0.0458826809927573,0.801455803145685,0.5962913509258891,0.0253559113791736,4.0,0.0
15.38760757446289,2.9618520736694336,-0.2837562561035156,-0.0,-0.0,-1.0,0.0296975566392269,2.0,0.0
16.014436721801758,2.907687187194824,-0.287635326385498,-0.0654029697276718,-0.864979762619423,-0.4975263428298525,0.1616765481967243,5.0,0.0
15.77641487121582,2.691189765930176,-0.3162970542907715,-0.0,-0.0,-1.0,0.0391906793439119,2.0,0.0
16.286895751953125,2.5573806762695312,-0.3324308395385742,-0.0,-0.0,-1.0,0.1055565144688562,1.0,0.0
16.009681701660156,2.575315475463867,-0.3305225372314453,-0.0,-0.0,-1.0,0.0595183153384326,1.0,0.0
16.57878875732422,2.4198083877563477,-0.35042405128479,-0.8508603038174201,-0.5005544254572709,-0.1596308571137449,0.1573493083619888,6.0,0.0
16.738094329833984,2.231494903564453,-0.3753609657287597,0.7908718371324209,0.03966428033805,-0.6106950811133603,0.0490608099275578,4.0,0.0
16.51691436767578,2.6224660873413086,0.1451784372329712,-0.0,-0.0,-1.0,0.1456498390120668,1.0,1.0
15.72289752960205,2.2646589279174805,0.1208043098449707,-0.0,-0.0,-1.0,0.1269663806779473,1.0,1.0
15.788256645202637,1.5893478393554688,0.0543111562728881,-0.0,-0.0,-1.0,0.1689274238628288,1.0,1.0
15.478187561035156,1.227311134338379,0.0231270790100097,-0.111951110306179,-0.1000316577353209,-0.9886660792967146,0.1531166372545253,5.0,1.0
15.680899620056152,1.0987348556518557,0.0078926086425781,-0.334177570790319,-0.8760015069119569,-0.3477739367299711,0.1670906519806249,5.0,1.0
15.581859588623049,3.0929927825927734,-0.3195815086364746,-0.0,-0.0,-1.0,0.0494644209752957,1.0,0.0
15.878278732299805,3.069936752319336,-0.3221504688262939,-0.0,-0.0,-1.0,0.127198470955432,1.0,0.0
16.245464324951172,2.852140426635742,-0.3540099859237671,-0.0,-0.0,-1.0,0.0396811910322621,2.0,0.0
16.699047088623047,2.6243743896484375,-0.3897534608840942,-0.0,-0.0,-1.0,0.020687426334404,2.0,0.0
16.58064842224121,2.6800928115844727,-0.3807511329650879,-0.0,-0.0,-1.0,0.0776343789570652,2.0,0.0
15.621651649475098,1.3211431503295898,-0.087077260017395,-0.1654585830068731,0.9519829245340888,-0.2575887588868755,0.2189773524738526,4.0,0.0
16.920146942138672,2.5516462326049805,-0.4023895263671875,-0.0,-0.0,-1.0,0.0089719583373888,2.0,0.0
15.768454551696776,1.0851449966430664,-0.116642951965332,-0.5212528029113149,-0.0277821958268117,-0.8529499780480324,0.1867772973205533,5.0,0.0
16.098548889160156,0.6954822540283203,-0.1679296493530273,0.4408435727002732,-0.3778251865683095,-0.8141898260255288,0.130705267192851,3.0,0.0
16.25192642211914,2.8441696166992188,0.076524019241333,-0.0,-0.0,-1.0,0.1598645396811954,2.0,1.0
15.4905424118042,1.7329387664794922,-0.0381096601486206,-0.8057405096529033,0.416767910451686,-0.4208167533761163,0.1266211561041296,3.0,0.0
16.55940055847168,2.554162979125977,0.0378394126892089,0.9876482496271264,0.0856066349596163,-0.1312342907145997,0.1079478329381559,4.0,1.0
15.549537658691406,1.578841209411621,-0.0565137863159179,-0.0,-0.0,-1.0,0.0802715323441698,2.0,0.0
15.829767227172852,1.3881492614746094,-0.082937479019165,-0.0,-0.0,-1.0,0.1755152543544836,2.0,0.0
15.88408374786377,1.6936511993408203,0.4221878051757812,-0.0,-0.0,-1.0,0.15313316073323,2.0,1.0
15.533931732177734,2.635763168334961,-0.3076508045196533,-0.0,-0.0,-1.0,0.0254729486622109,1.0,0.0
15.38591194152832,2.6467580795288086,-0.3084002733230591,-0.0,-0.0,-1.0,0.0187933385867138,1.0,0.0
16.032743453979492,2.794013023376465,-0.2781578302383423,0.931331447836445,-0.2347059580981773,-0.2784507990724539,0.1731259900380927,14.0,0.0
15.84990692138672,2.491453170776367,-0.324492335319519,-0.0,-0.0,-1.0,0.0602788074378599,2.0,0.0
16.512691497802734,2.5190114974975586,-0.3154432773590088,0.696884438794375,0.0210923935784028,-0.7168732035021137,0.2492467188897649,7.0,0.0
16.238906860351562,2.481572151184082,-0.3224043846130371,-0.0,-0.0,-1.0,0.0653327083967188,2.0,0.0
16.643814086914062,2.4224395751953125,-0.3295671939849853,-0.7977393960004816,-0.1056400899662207,-0.5936767028111477,0.1663946891224531,7.0,0.0
16.760272979736328,2.2136993408203125,-0.3609704971313476,0.8164660094733078,0.0975732275024951,-0.5690893784367078,0.0477843369979796,4.0,0.0
17.048673629760742,2.20157241821289,-0.3635884523391723,0.7748041209108154,-0.6254076920553044,-0.0924326400016577,0.0628654333079936,5.0,0.0
16.872949600219727,2.1191720962524414,-0.3754713535308838,0.1689904418905729,-0.9249854084433686,-0.3403589645014264,0.0361192185326218,3.0,0.0
15.80699062347412,2.151583671569824,0.0502430200576782,-0.9044360675045416,0.3048361202274163,0.2984465439599131,0.093994257072109,4.0,1.0
15.416444778442385,1.440032958984375,-0.0293043851852417,-0.0,-0.0,-1.0,0.0745786357465262,2.0,0.0
15.229500770568848,1.2459869384765625,-0.0507529973983764,-0.0,-0.0,-1.0,0.0499844500722321,2.0,0.0
16.402490615844727,2.832180976867676,0.1249860525131225,0.6257822307238967,0.0378435571518828,-0.7790792417285394,0.1543604416032253,4.0,1.0
15.587600708007812,1.2799863815307615,-0.0483889579772949,0.684298334573417,-0.2242283918676427,-0.6938713263858789,0.1305799678981802,4.0,0.0
15.83790397644043,1.1236209869384766,-0.068084716796875,-0.0,-0.0,-1.0,0.1376733631385947,2.0,0.0
15.456743240356444,2.9300575256347656,-0.2435084581375122,-0.0,-0.0,-1.0,0.0344772731140741,2.0,0.0
15.925238609313965,2.8020925521850586,-0.2777186632156372,-0.0,-0.0,-1.0,0.1696807399827385,2.0,0.0
15.522819519042969,2.5293521881103516,-0.3142727613449096,0.7389843532461762,0.665699201593805,-0.1036662850434084,0.0303107395154604,3.0,0.0
16.08257293701172,2.631381034851074,-0.3125675916671753,-0.6353693246709272,0.7005360863801907,-0.3248923097679231,0.0508930809449641,5.0,0.0
15.755685806274414,2.5153818130493164,-0.3229061365127563,0.631222690862566,-0.7106197047588005,-0.3107692870100532,0.0451425215444904,3.0,0.0
16.605548858642578,2.5426101684570312,-0.3470704555511474,-0.0,-0.0,-1.0,0.1331058717916421,2.0,0.0
16.426088333129883,2.549468994140625,-0.339033842086792,-0.0,-0.0,-1.0,0.2005217403277452,2.0,0.0
16.966276168823242,2.396298408508301,-0.3888230323791504,-0.0,-0.0,-1.0,0.0278711852199767,1.0,0.0
16.764049530029297,2.404881477355957,-0.3783782720565796,-0.0,-0.0,-1.0,0.142130525497882,2.0,0.0
16.149736404418945,2.790957450866699,0.0742920637130737,0.937666180773304,0.3212029391448772,-0.1327057094427294,0.1556499078919446,4.0,1.0
15.784964561462402,2.118130683898926,-0.0053890943527221,-0.9395782240338708,-0.3391560456315527,0.0465396350751232,0.1325018148361215,5.0,0.0
15.451109886169434,1.6335763931274414,-0.0597562789916992,-0.3827431258124424,-0.6312583705294883,-0.6745521249538659,0.1281620927088318,5.0,0.0
16.530704498291016,2.4538164138793945,0.0075180530548095,0.7343725460322486,-0.1837903301048153,-0.6533896832626576,0.1257928324590488,3.0,1.0
15.759822845458984,1.3942203521728516,-0.1078786849975586,-0.0,-0.0,-1.0,0.1754941051958967,1.0,0.0
15.750041961669922,1.1570672988891602,-0.1414676904678344,-0.3207623034007007,-0.378803466839171,-0.8681125953628954,0.1228644403332564,6.0,0.0
16.709890365600586,2.3703670501708984,-0.0138776302337646,-0.0,-0.0,-1.0,0.1748829515478752,2.0,0.0
16.101356506347656,0.9831161499023438,-0.1840596199035644,-0.0,-0.0,-1.0,0.0813819452968826,2.0,0.0
15.983173370361328,0.9162960052490234,-0.1877975463867187,-0.0,-0.0,-1.0,0.0666901511968227,2.0,0.0
17.174850463867188,2.4786319732666016,-0.3836537599563598,-0.0,-0.0,-1.0,0.0609098442935109,1.0,0.0
16.27655601501465,0.6632719039916992,-0.2400028705596923,0.9195744104589156,0.2378909029267907,-0.3127152409682237,0.0833710803421424,3.0,0.0
15.221271514892578,2.544215202331543,-0.3121591806411743,-0.0,-0.0,-1.0,0.0357231014045086,2.0,0.0
15.39390754699707,2.3985509872436523,-0.3359862565994262,-0.0,-0.0,-1.0,0.0675883373876538,1.0,0.0
15.999926567077637,2.7426271438598633,-0.2744044065475464,-0.0989809159190831,0.1682863012309325,-0.9807560854268662,0.1582631781404122,12.0,0.0
15.794729232788086,2.328283309936523,-0.3479057550430298,-0.0,-0.0,-1.0,0.0466778399369339,1.0,0.0
15.560345649719238,1.328460693359375,-0.1403397321701049,-0.0,-0.0,-1.0,0.1100254840281689,2.0,0.0
16.44154167175293,2.474146842956543,-0.3280612230300903,0.0389827517263526,0.7162305706699161,-0.6967740772342838,0.2342036434405384,3.0,0.0
16.24074935913086,2.348414421081543,-0.3480900526046753,-0.0,-0.0,-1.0,0.0250893099265907,1.0,0.0
15.826122283935549,1.0321273803710938,-0.1907635927200317,-0.3859302420552193,0.5624120403870361,0.7312663981716179,0.1569276886317614,5.0,0.0
15.934895515441896,0.8641080856323242,-0.2192435264587402,-0.0,-0.0,-1.0,0.0493661617210204,1.0,0.0
16.541540145874023,2.468416213989258,-0.3310391902923584,-0.5942354268887007,-0.8040109703691869,-0.021227740256607,0.168020167281154,5.0,0.0
16.634597778320312,2.2429962158203125,-0.3752897977828979,-0.0,-0.0,-1.0,0.053019990944929,2.0,0.0
16.15131187438965,0.6681413650512695,-0.2564104795455932,-0.180482272300383,-0.1944572022500044,-0.9641641695678136,0.1389403113091405,6.0,0.0
16.92937660217285,2.075887680053711,-0.415277361869812,-0.0,-0.0,-1.0,0.0343137751846618,2.0,0.0
15.399007797241213,1.6601409912109375,-0.0890095233917236,-0.4327587792171173,0.9000142077003814,0.0519063093271415,0.1021485401262877,4.0,0.0
15.514999389648438,1.7025470733642578,-0.0847278833389282,-0.0,-0.0,-1.0,0.1727536383681006,2.0,0.0
15.294341087341309,0.7867250442504883,0.1889809370040893,-0.0,-0.0,-1.0,0.0796253831904823,1.0,1.0
16.339431762695312,2.8493661880493164,0.0670725107192993,0.6087979333118358,-0.4102413353962488,-0.67901923619846,0.1860778505403542,4.0,1.0
16.457796096801758,2.357354164123535,-0.0098038911819458,-0.0,-0.0,-1.0,0.1340002556915549,1.0,0.0
15.863571166992188,1.5119104385375977,-0.1200586557388305,0.904584028329932,0.0759530958281759,-0.4194745080746966,0.2513040260201559,5.0,0.0
16.544208526611328,2.501462936401367,0.0092934370040893,-0.0891417580681598,0.1986830719583047,-0.9760014261699256,0.1108103196513751,6.0,1.0
16.6909122467041,2.3370361328125,-0.0206254720687866,0.2359658718688916,0.0619770974159211,-0.9697829379345932,0.1972088629343511,3.0,0.0
16.073152542114258,3.092370986938477,-0.3488850593566894,-0.0,-0.0,-1.0,0.1421963231609971,2.0,0.0
16.294137954711914,2.952324867248535,-0.3702056407928467,0.0063486598651289,-0.8330152715514466,-0.5532135680548577,0.0260497423201537,3.0,0.0
16.480831146240234,2.8414812088012695,-0.3884379863739013,0.4411851144011563,-0.1066920348824751,-0.891051347860198,0.036131273873115,3.0,0.0
16.47403907775879,1.3356924057006836,-0.3128308057785034,-0.0,-0.0,-1.0,0.0087412018548619,2.0,0.0
16.50035858154297,1.3004541397094729,-0.3188099861145019,-0.6089472425896242,-0.3326389754237642,-0.7200934437776266,0.0100454319285952,3.0,0.0
16.8290958404541,2.670374870300293,-0.4182803630828857,-0.0,-0.0,-1.0,0.0097328232320867,1.0,0.0
16.61983871459961,1.2581262588500977,-0.3267251253128052,-0.0,-0.0,-1.0,0.0130153487732489,2.0,0.0
17.20323944091797,2.6908998489379883,-0.4132384061813354,-0.0,-0.0,-1.0,0.0225895475426372,1.0,0.0
15.213196754455566,1.039576530456543,0.0290911197662353,-0.0,-0.0,-1.0,0.0739109133656936,1.0,1.0
15.603605270385742,2.0724401473999023,-0.1973092555999755,-0.0,-0.0,-1.0,0.1825348477400392,1.0,0.0
15.55579948425293,1.111720085144043,0.0370312929153442,-0.0,-0.0,-1.0,0.1348396329050599,2.0,1.0
15.717864990234377,0.9194068908691406,0.0115015506744384,-0.1749241752504803,-0.5157748298205854,-0.838676253292345,0.0896149036028958,4.0,1.0
16.064685821533203,2.7267580032348633,-0.0881319046020507,0.4461738708798801,-0.3075736184654205,-0.8404328326333711,0.2202502453704981,5.0,0.0
15.867768287658691,1.828756332397461,-0.2331328392028808,-0.0,-0.0,-1.0,0.0190581665425714,1.0,0.0
15.973150253295898,1.5580177307128906,-0.0905817747116088,-0.0,-0.0,-1.0,0.2149156746916371,2.0,0.0
15.75425624847412,0.9077682495117188,0.0097004175186157,0.3013800752785889,0.882325958111304,-0.3614843756900724,0.1057061206933265,5.0,1.0
16.45203399658203,2.5449514389038086,-0.1148682832717895,-0.0,-0.0,-1.0,0.1436813965694769,2.0,0.0
16.53464126586914,2.3006200790405273,-0.1546257734298706,-0.0,-0.0,-1.0,0.2382311364026583,1.0,0.0
16.664785385131836,2.2783327102661133,-0.1585499048233032,-0.0,-0.0,-1.0,0.2007080381670654,2.0,0.0
16.87181854248047,1.4193696975708008,-0.302537202835083,-0.0,-0.0,-1.0,0.0385675619824693,1.0,0.0
15.73577880859375,2.0926342010498047,0.1602606773376464,-0.0,-0.0,-1.0,0.1130924417031765,1.0,1.0
16.51972198486328,2.4550724029541016,0.2012131214141845,-0.0,-0.0,-1.0,0.1491903827653556,2.0,1.0
16.1489315032959,3.134082794189453,-0.3820846080780029,-0.0,-0.0,-1.0,0.0466826415900642,2.0,0.0
16.313241958618164,3.0601062774658203,-0.3918343782424927,0.5030699015159111,-0.3517871734967882,-0.7894089299925054,0.0133914746402304,4.0,0.0
16.536190032958984,2.9580078125,-0.4071636199951172,-0.2129112202369549,-0.4067606441019474,-0.888377504615566,0.0250181128119439,3.0,0.0
16.915691375732422,2.7976465225219727,-0.4336533546447754,-0.0,-0.0,-1.0,0.0202565604789603,1.0,0.0
17.283695220947266,2.798765182495117,-0.4311798810958862,-0.8724202396600639,-0.4133755358905505,-0.2607749830000505,0.0284139544407344,3.0,0.0
15.402504920959473,2.2085723876953125,-0.2278409004211425,-0.1244501388247185,0.278275482544153,-0.952404808241394,0.0913322038382039,4.0,0.0
15.571250915527344,2.126877784729004,-0.2374029159545898,0.1967883717383117,-0.2032809117818635,-0.9591408695565622,0.1177734138836651,3.0,0.0
15.599364280700684,1.1310625076293943,-0.0114858150482177,0.0776837818616201,-0.5585353798447908,-0.8258350074302441,0.0849733945671926,3.0,0.0
15.86206340789795,1.9519376754760744,-0.2614772319793701,-0.1982707666018178,0.5640383487006334,0.801591819011516,0.0795070601577657,4.0,0.0
15.774803161621094,1.297837257385254,0.0102344751358032,-0.0,-0.0,-1.0,0.1815603025037869,1.0,1.0
16.033594131469727,2.716653823852539,-0.1338354349136352,0.8899521480007477,-0.2685615280758289,0.368591752358122,0.2004818248349936,4.0,0.0
16.22889518737793,1.9261674880981443,-0.2620472908020019,-0.0,-0.0,-1.0,0.0232494624979771,1.0,0.0
16.413501739501953,1.6520986557006836,-0.307114839553833,-0.0,-0.0,-1.0,0.0253306517477538,2.0,0.0
16.509716033935547,2.396660804748535,-0.1819746494293213,-0.0375725716012294,-0.2764614072586316,-0.960290264534556,0.2919697393520926,4.0,0.0
16.48880386352539,2.2392702102661133,-0.2083277702331543,-0.0,-0.0,-1.0,0.1566498019537157,1.0,0.0
16.687170028686523,1.5838661193847656,-0.3190792798995971,-0.0,-0.0,-1.0,0.021581262054914,1.0,0.0
16.98036766052246,1.5587854385375977,-0.3250372409820556,-0.0,-0.0,-1.0,0.0600734567422022,2.0,0.0
17.04188346862793,1.5244503021240234,-0.3315160274505615,0.0997093876580957,-0.9580362829499942,-0.2687461973018523,0.0543565444965857,5.0,0.0
15.404707908630373,0.8397998809814453,0.3473624587059021,0.087265427129378,-0.9947562898565376,0.0533354386762035,0.0764658726357028,5.0,1.0
15.882689476013184,1.4301881790161133,0.3985512256622314,-0.0,-0.0,-1.0,0.1331647643321528,1.0,1.0
15.475162506103516,1.6774187088012695,-0.151289701461792,-0.0,-0.0,-1.0,0.1277214098227921,1.0,0.0
15.500946044921877,2.83402156829834,-0.3319885730743408,0.1111355386508819,-0.9487777880229774,-0.2957526010080128,0.02321427698101,3.0,0.0
15.611345291137695,2.6209592819213867,-0.3601841926574707,-0.0,-0.0,-1.0,0.0163132304774282,2.0,0.0
15.684588432312012,1.4764518737792969,-0.1710966825485229,-0.0,-0.0,-1.0,0.0742995607055433,1.0,0.0
15.789573669433594,1.3979167938232422,-0.1785395145416259,-0.3422427061419283,-0.3632058152859511,-0.8665745587282824,0.2056649652353257,4.0,0.0
16.01387596130371,1.0607004165649414,-0.2191267013549804,-0.0,-0.0,-1.0,0.0654593560908732,1.0,0.0
16.270217895507812,0.6458520889282227,-0.2718925476074219,0.8897478775290361,0.3023198258018179,-0.3419816330736698,0.0831616453288454,3.0,0.0
15.907386779785156,2.625019073486328,-0.3433688879013061,-0.0,-0.0,-1.0,0.0370005385740757,1.0,0.0
16.566171646118164,0.662287712097168,-0.264545202255249,-0.1569378179046754,0.0038256774419437,-0.98760107609471,0.0168672459973254,3.0,0.0
16.10614013671875,2.6201868057250977,-0.3341134786605835,-0.6649122096593122,-0.0771565113196336,-0.7429257205178414,0.0399435924032662,4.0,0.0
16.410167694091797,2.4555654525756836,-0.3489167690277099,-0.6682590536801088,0.6479102700956284,0.3655709494464447,0.1587695494810223,4.0,0.0
16.601940155029297,2.385430335998535,-0.3536202907562256,0.1851754677600705,0.2138788808731259,-0.9591485132430212,0.1810091570484909,3.0,0.0
16.82064437866211,2.1563234329223633,-0.3869869709014892,-0.0,-0.0,-1.0,0.0175860005918431,1.0,0.0
17.132122039794922,2.185603141784668,-0.3736058473587036,-0.0,-0.0,-1.0,0.1018752793502291,2.0,0.0
15.270734786987305,1.9096174240112305,-0.1284523010253906,-0.0,-0.0,-1.0,0.0848222907256018,1.0,0.0
15.611021041870115,0.8930644989013672,0.1398463249206543,-0.5670086092677294,-0.4085675837393264,-0.7152438510981298,0.2221192445324397,5.0,1.0
15.635162353515623,2.1053953170776367,-0.0875821113586425,-0.0,-0.0,-1.0,0.1763510087535408,2.0,0.0
16.2096004486084,2.670267105102539,0.0095340013504028,-0.0,-0.0,-1.0,0.0893623028536686,1.0,1.0
16.505807876586914,2.4325666427612305,-0.0144870281219482,-0.0,-0.0,-1.0,0.1345420532807722,2.0,0.0
16.668838500976562,2.3112382888793945,-0.0276451110839843,0.6234005407762595,-0.3420948891763573,-0.7030951945215405,0.1574452320994155,3.0,0.0
15.596307754516602,1.1583614349365234,-0.0302363634109497,-0.0,-0.0,-1.0,0.0897302659118419,2.0,0.0
15.718223571777344,0.7266197204589844,-0.0890271663665771,-0.0,-0.0,-1.0,0.0846862892689699,2.0,0.0
15.289934158325195,2.3160181045532227,-0.2327909469604492,0.8771528261399218,-0.0222062217757161,-0.4796976165348288,0.0780133735976899,4.0,0.0
15.555625915527344,2.172022819519043,-0.2501767873764038,-0.0,-0.0,-1.0,0.1150033399916007,2.0,0.0
15.736379623413086,2.0922374725341797,-0.2604058980941772,-0.5749232143853309,0.6539551133848464,0.4917377423369612,0.1157538306027941,5.0,0.0
16.02391242980957,1.9246492385864256,-0.2853800058364868,0.5172892978099901,0.6786889056477468,0.5213378479660872,0.0324548311052423,3.0,0.0
16.4239444732666,1.6358146667480469,-0.3335597515106201,-0.0,-0.0,-1.0,0.0191658465257193,2.0,0.0
16.04964256286621,2.7467193603515625,-0.1487985849380493,0.6588579355695575,0.5682169257705225,0.4929865576310544,0.2284732282380688,10.0,0.0
16.450000762939453,2.1665267944335938,-0.2431215047836303,-0.0,-0.0,-1.0,0.2412913980778894,2.0,0.0
16.555084228515625,1.687480926513672,-0.325444221496582,-0.0,-0.0,-1.0,0.0226464773281947,2.0,0.0
16.825389862060547,1.5912065505981443,-0.3446108102798462,-0.0,-0.0,-1.0,0.0347532352508467,2.0,0.0
16.282756805419922,3.071176528930664,-0.4098777770996094,0.3624807070804351,-0.3851076903116928,-0.8487047801545959,0.0218518999425051,3.0,0.0
16.525230407714844,2.730107307434082,-0.3067995309829712,-0.0,-0.0,-1.0,0.0932204992143405,2.0,0.0
16.59122085571289,2.4078941345214844,-0.2022122144699096,-0.7053521387159978,-0.6907844295075863,0.1590447495475612,0.2586156223290112,6.0,0.0
17.024566650390625,1.597747802734375,-0.3462706804275512,-0.0,-0.0,-1.0,0.0450131680823827,2.0,0.0
16.54925537109375,3.047117233276367,-0.4085851907730102,-0.0,-0.0,-1.0,0.0364034040824135,2.0,0.0
16.801536560058594,2.831085205078125,-0.4491060972213745,-0.7145408133547041,0.6330233965860145,-0.2978469496656015,0.0234240617727822,3.0,0.0
17.09088134765625,2.838541030883789,-0.4456356763839721,-0.0,-0.0,-1.0,0.0155358268931108,1.0,0.0
17.20608901977539,3.024778366088867,-0.4068950414657593,-0.0,-0.0,-1.0,0.0350090328983545,2.0,0.0
17.28536605834961,2.808439254760742,-0.4521048069000244,-0.0,-0.0,-1.0,0.0261639340354032,2.0,0.0
15.4243745803833,0.8638553619384766,0.3262912631034851,-0.2079959059880197,-0.431996681459448,-0.8775628583185634,0.0720451462489976,5.0,1.0
15.865644454956056,1.6025466918945312,0.392334520816803,-0.0,-0.0,-1.0,0.1725356779053035,2.0,1.0
16.277156829833984,2.7581701278686523,0.1796706914901733,-0.0,-0.0,-1.0,0.0878666803556768,2.0,1.0
15.67429542541504,1.2273025512695312,-0.1306430101394653,-0.2279653171974201,-0.8325070109101437,-0.5049394923558043,0.0883540783871922,4.0,0.0
15.893758773803713,0.7681655883789062,-0.1891862154006958,-0.0,-0.0,-1.0,0.0931296269241458,2.0,0.0
15.532424926757812,1.512650489807129,-0.0957828760147094,-0.1956333984938038,0.7221268401615503,-0.6635212130083401,0.0937874679617075,3.0,0.0
15.29500961303711,2.518880844116211,-0.3177045583724975,-0.0,-0.0,-1.0,0.0460019684640274,2.0,0.0
15.599620819091797,2.351625442504883,-0.3276940584182739,0.8170444859773383,0.1246010701721826,0.5629501587582812,0.042475445267823,3.0,0.0
15.86518096923828,2.281785011291504,-0.3262012004852295,0.4427323321657335,0.7265766253145065,-0.5254279109465674,0.0671820070699788,4.0,0.0
16.045576095581055,2.2054243087768555,-0.3311765193939209,0.2883057911588987,-0.8283562165924846,-0.4803183831760201,0.0271313029315292,3.0,0.0
16.564952850341797,1.9638490676879885,-0.3539450168609619,-0.0,-0.0,-1.0,0.0481580416450171,2.0,0.0
16.76326560974121,1.8443822860717771,-0.3695441484451294,-0.0,-0.0,-1.0,0.0315800781932973,1.0,0.0
16.004852294921875,2.792025089263916,-0.2367056608200073,0.1203941924012426,0.414103912198227,-0.9022323361186826,0.1805008217248072,11.0,0.0
16.483123779296875,2.427339553833008,-0.2774673700332641,-0.5798324581587007,0.7647156552971844,0.2810770125944785,0.2416360971950011,7.0,0.0
16.544958114624023,2.2664546966552734,-0.30272376537323,-0.0,-0.0,-1.0,0.1740909363102654,1.0,0.0
16.875791549682617,3.0574655532836914,-0.4617851972579956,-0.0,-0.0,-1.0,0.0245987280353228,1.0,0.0
15.272990226745604,1.669879913330078,-0.0826756954193115,-0.0,-0.0,-1.0,0.0900263184610667,1.0,0.0
15.35031509399414,1.6998167037963867,-0.0763620138168335,-0.8362109309607333,0.0474250323672428,-0.5463534984300457,0.0804266257684117,3.0,0.0
15.463615417480469,1.682882308959961,-0.0752378702163696,-0.97121455575374,-0.2320830084524311,-0.053663431494217,0.172892703297795,4.0,0.0
15.800729751586914,1.449784278869629,-0.097652792930603,-0.0,-0.0,-1.0,0.1869582818289842,1.0,0.0
15.730085372924805,2.0871572494506836,-0.0143090486526489,-0.3670642369558141,0.914627725297716,-0.1694696729942318,0.1656095003444966,5.0,0.0
16.23813247680664,2.7848148345947266,0.0919673442840576,-0.0,-0.0,-1.0,0.2058715452875265,2.0,1.0
16.409744262695312,2.563802719116211,0.0663167238235473,-0.0,-0.0,-1.0,0.1181777395402725,1.0,1.0
15.31048583984375,1.5756816864013672,-0.0649521350860595,-0.7044815714270293,0.4441304944169221,-0.5535827123824258,0.0551751288625371,3.0,0.0
15.46840476989746,1.308664321899414,-0.0796191692352294,0.0667486350764644,-0.5616909106077304,-0.8246501929036868,0.0951930471394061,3.0,0.0
15.72059440612793,1.08203125,-0.0851008892059326,-0.3467627131398689,-0.7361954521729938,-0.5811814492700866,0.139126006454969,3.0,0.0
15.626323699951172,1.5529937744140625,-0.0438505411148071,-0.0,-0.0,-1.0,0.1276365117763824,2.0,0.0
15.332091331481934,2.5126500129699707,-0.3266571760177612,-0.0,-0.0,-1.0,0.0445516742445696,2.0,0.0
15.599300384521484,2.3256773948669434,-0.3214857578277588,-0.0,-0.0,-1.0,0.0560910557564789,2.0,0.0
15.922773361206056,2.05715274810791,-0.3238182067871094,-0.0,-0.0,-1.0,0.0789640117061682,2.0,0.0
16.313600540161133,1.7072038650512695,-0.3354829549789428,0.7797304091045812,-0.379123860457564,0.4982826382178649,0.0183065597512446,3.0,0.0
16.402099609375,1.52294921875,-0.3534200191497803,-0.0,-0.0,-1.0,0.0083164685167142,1.0,0.0
15.274419784545898,2.757093906402588,-0.3042571544647217,-0.0,-0.0,-1.0,0.02030911650344,1.0,0.0
15.827203750610352,2.47359561920166,-0.2802115678787231,-0.0,-0.0,-1.0,0.0515742182388128,1.0,0.0
16.375152587890625,2.192966938018799,-0.2649502754211426,-0.0,-0.0,-1.0,0.1115244434931676,1.0,0.0
15.243163108825684,3.1224045753479004,-0.2663305997848511,-0.0,-0.0,-1.0,0.0267400945898611,2.0,0.0
16.009302139282227,2.826204776763916,-0.2180306911468505,0.1686608055573557,-0.0842660144102679,-0.982065563740096,0.2142667451529929,7.0,0.0
16.44481086730957,2.6013741493225098,-0.204841136932373,-0.0,-0.0,-1.0,0.1572566816506054,2.0,0.0
16.565597534179688,2.442744731903076,-0.2150919437408447,0.8680052098662682,-0.2211136578015841,-0.444607361588424,0.2432828692436275,8.0,0.0
16.560470581054688,3.0830092430114746,-0.4445078372955322,-0.0934491917288173,0.6340100307431458,-0.7676578205700159,0.0371544123479221,3.0,0.0
16.780860900878906,2.80010986328125,-0.4653376340866089,-0.764901835301108,0.587797141587224,-0.2634761899961467,0.0205448758169533,4.0,0.0
15.491695404052734,1.795827865600586,-0.0296061038970947,-0.0,-0.0,-1.0,0.096131319417249,1.0,0.0
15.82826042175293,1.638411521911621,0.3425653576850891,-0.0,-0.0,-1.0,0.1167416948287144,1.0,1.0
15.946237564086914,1.5513372421264648,-0.0212624073028564,0.479705862066838,0.7288464743138844,-0.4885336250238377,0.1511346094469622,4.0,0.0
16.155752182006836,2.79278564453125,0.1182868480682373,0.2632512129768306,0.964281585216963,0.0293227433520116,0.1193267274309283,4.0,1.0
15.878475189208984,0.8447046279907227,-0.1906100511550903,-0.0,-0.0,-1.0,0.0952428203724233,1.0,0.0
15.805404663085938,1.1097373962402344,-0.1758503913879394,-0.0,-0.0,-1.0,0.1193732418378131,2.0,0.0
15.586825370788574,1.6740608215332031,-0.1548483371734619,-0.0,-0.0,-1.0,0.0717219496283339,1.0,0.0
15.754425048828123,1.4721708297729492,-0.1513454914093017,-0.0,-0.0,-1.0,0.1115297748224321,2.0,0.0
17.699060440063477,1.5578079223632812,-0.2945559024810791,-0.0843599365188461,0.6175965837344028,-0.7819577104103079,0.0499265649508315,3.0,0.0
16.232818603515625,2.6766891479492188,-0.3427529335021972,0.390134386801563,-0.289383277311643,-0.8741009547228175,0.1179349835063155,5.0,0.0
16.519317626953125,2.490321636199951,-0.3222368955612182,-0.8342153131471981,-0.0950038879831424,-0.5431934025545677,0.2744631161064408,8.0,0.0
15.96589469909668,3.1075000762939453,-0.3401480913162231,0.0328217441874525,-0.5412762127281275,-0.8402040196542672,0.0804170747005949,5.0,0.0
16.108592987060547,2.8810086250305176,-0.3400965929031372,-0.0,-0.0,-1.0,0.1014154991592085,1.0,0.0
17.37152862548828,0.6697673797607422,0.307522177696228,-0.0,-0.0,-1.0,0.1998987375092071,1.0,1.0
15.983583450317385,1.648463249206543,0.2615017890930176,-0.0,-0.0,-1.0,0.1481348829830376,2.0,1.0
15.38176441192627,2.1089625358581543,-0.1471176147460937,-0.0,-0.0,-1.0,0.0462456264224284,2.0,0.0
15.533775329589844,2.010122299194336,-0.1355096101760864,-0.0,-0.0,-1.0,0.0774084425619574,2.0,0.0
16.241748809814453,2.741334915161133,0.0051090717315673,-0.0,-0.0,-1.0,0.1829673347318655,1.0,1.0
16.49937629699707,2.5190391540527344,0.0184162855148315,-0.1319012260675713,-0.4518670356484587,-0.882280141823529,0.1873207314602106,4.0,1.0
16.4157772064209,2.647005081176758,0.3542267084121704,0.5248638821167967,0.84583304969702,0.0953118947955799,0.1181650140453963,3.0,1.0
16.472665786743164,2.615201950073242,0.3579685091972351,-0.1076385681414648,-0.1402917373247421,-0.984241925080852,0.1329322161629071,4.0,1.0
16.949602127075195,0.7957239151000977,-0.3150817155838012,-0.0,-0.0,-1.0,0.050064626845288,1.0,0.0
16.771976470947266,1.002608299255371,-0.3101671934127807,-0.0,-0.0,-1.0,0.0190600607414846,1.0,0.0
16.88616943359375,0.9958925247192384,-0.3002301454544067,-0.0,-0.0,-1.0,0.0257551676988825,2.0,0.0
16.06058120727539,1.7956085205078125,-0.3064033985137939,-0.0,-0.0,-1.0,0.0589113912863691,1.0,0.0
15.70185661315918,2.2658634185791016,-0.3061392307281494,-0.0,-0.0,-1.0,0.0672604685966164,2.0,0.0
15.867401123046877,2.0747995376586914,-0.3033953905105591,-0.5101821329295012,0.7236128370159518,-0.4648641235299084,0.1065992750902292,3.0,0.0
15.2986421585083,2.5888614654541016,-0.3284565210342407,-0.0,-0.0,-1.0,0.023391535272121,2.0,0.0
15.454458236694336,2.4213509559631348,-0.3226161003112793,-0.0,-0.0,-1.0,0.0550133170734579,2.0,0.0
15.295794486999512,2.888906478881836,-0.3065282106399536,-0.0,-0.0,-1.0,0.0198480134294938,1.0,0.0
16.78056526184082,2.933319568634033,-0.4768953323364258,-0.0,-0.0,-1.0,0.0328428241662263,1.0,0.0
16.71738624572754,3.104739189147949,-0.4666393995285034,-0.0,-0.0,-1.0,0.0349691819513277,1.0,0.0
15.324295997619627,1.086957931518555,-0.0203149318695068,-0.6705363449252962,0.0847150766778848,-0.7370239927693565,0.067473241421944,3.0,0.0
15.59323787689209,1.191685676574707,0.0088671445846557,0.4913689930859682,-0.6874598894843424,-0.5347479901634576,0.1083008714161632,5.0,1.0
15.72335433959961,1.235857009887695,0.0224791765213012,-0.971214325418142,-0.2377208167190141,0.0152166816694142,0.1702084337631165,3.0,1.0
15.805805206298828,2.1507577896118164,0.0858653783798217,-0.6898123112431541,0.6485654878789318,-0.3217480119437276,0.087958189212997,4.0,1.0
16.562808990478516,2.587947368621826,-0.1818360090255737,-0.0,-0.0,-1.0,0.2137666103854894,1.0,0.0
16.649152755737305,2.370706081390381,-0.1916744709014892,0.383088030758926,-0.2797500669268071,-0.8803314493664844,0.2516815373117092,5.0,0.0
16.066192626953125,2.8299450874328613,-0.2179878950119018,0.633592993753043,0.3058754059031567,-0.7106336287642427,0.2503730382391037,9.0,0.0
15.285675048828123,0.7804489135742188,0.3916603922843933,-0.0,-0.0,-1.0,0.071771169750852,1.0,1.0
17.348594665527344,1.7427330017089844,-0.3781287670135498,-0.0,-0.0,-1.0,0.0226992699910824,1.0,0.0
17.482465744018555,1.622267723083496,-0.3704615831375122,-0.803463123908528,-0.0253485970486671,-0.5948146409990369,0.0629186195396889,4.0,0.0
17.349199295043945,2.1018190383911133,-0.3493721485137939,0.1050032715413861,-0.9941315345398845,-0.0260154761436571,0.0917257468665575,7.0,0.0
17.475650787353516,2.0776724815368652,-0.3341367244720459,-0.0869773591600816,-0.93040268249382,0.3560699192600275,0.1020175970986011,3.0,0.0
16.628440856933594,2.9379525184631348,-0.3931307792663574,-0.785972423426242,0.5902187931420864,-0.1840899938491486,0.0287302176652747,3.0,0.0
16.164045333862305,0.7099924087524414,-0.1722389459609985,-0.2175933767346714,0.2829884108060777,-0.934114918920929,0.1191665516658052,3.0,0.0
15.688228607177734,1.8494253158569336,-0.1724355220794677,-0.0,-0.0,-1.0,0.0819795599356637,1.0,0.0
15.724876403808594,2.1279425621032715,-0.1562089920043945,-0.0,-0.0,-1.0,0.2051903719047632,1.0,0.0
15.794713020324709,2.1096158027648926,-0.1483968496322631,-0.0,-0.0,-1.0,0.1865354554434743,1.0,0.0
16.503023147583008,2.6363720893859863,-0.0397075414657592,-0.0,-0.0,-1.0,0.1780976219525009,2.0,0.0
17.5538272857666,0.6406974792480469,0.3849348425865173,-0.0,-0.0,-1.0,0.1406183559104157,1.0,1.0
16.101696014404297,0.6797666549682617,-0.1589328050613403,-0.2472480374467107,0.0755795226893423,-0.9660000743937864,0.130705267192851,6.0,0.0
15.93086051940918,1.020610809326172,-0.1653128862380981,-0.2402183235755359,0.1836600151964398,-0.9531863174828952,0.1054756743774984,3.0,0.0
17.486780166625977,1.637006759643555,-0.3883870840072632,-0.803463123908528,-0.0253485970486671,-0.5948146409990369,0.0512937926314366,4.0,0.0
17.33568572998047,2.179967880249023,-0.3748953342437744,-0.0,-0.0,-1.0,0.0941075027122033,2.0,0.0
17.515077590942383,2.0651941299438477,-0.3571115732192993,-0.0869773591600816,-0.93040268249382,0.3560699192600275,0.1212156536683965,3.0,0.0
17.254343032836914,2.267469882965088,-0.3811056613922119,-0.0,-0.0,-1.0,0.0677863480937594,1.0,0.0
17.549718856811523,0.7173824310302734,0.4335038065910339,-0.0,-0.0,-1.0,0.1085448513943469,1.0,1.0
16.974517822265625,0.6840333938598633,-0.1642576456069946,-0.0,-0.0,-1.0,0.0408286127383537,1.0,0.0
17.0783634185791,1.0858192443847656,-0.1628071069717407,-0.0,-0.0,-1.0,0.2607740541367309,1.0,0.0
17.038007736206055,1.2917585372924805,-0.1790187358856201,-0.0,-0.0,-1.0,0.1753515331474853,1.0,0.0
15.325803756713867,1.1148877143859863,-0.0184763669967651,-0.0,-0.0,-1.0,0.0528226728964486,2.0,0.0
15.75132179260254,1.098907470703125,0.0034849643707275,0.5422963297872957,0.4676792378386002,-0.6979905595306676,0.1692146156401586,5.0,1.0
15.79429054260254,0.8615140914916992,0.0008367300033569,-0.0,-0.0,-1.0,0.1433494601274392,2.0,1.0
15.48036766052246,1.5039396286010742,-0.002705693244934,-0.0,-0.0,-1.0,0.141494079534637,2.0,0.0
15.918729782104492,1.4133543968200684,0.0185775756835937,-0.0,-0.0,-1.0,0.1988068267192036,1.0,1.0
15.797632217407228,2.025962829589844,0.0239040851593017,-0.2251603838759304,0.9743027256698412,0.0060827859703902,0.1043836851060571,3.0,1.0
16.604524612426758,2.4447579383850098,0.0743435621261596,0.023008480477561,-0.296940708268156,-0.9546186807303318,0.201228900018715,3.0,1.0
15.246185302734377,0.9454922676086426,0.1321344375610351,-0.0,-0.0,-1.0,0.1012441528190024,1.0,1.0
15.768383026123049,0.8231339454650879,0.1518729925155639,-0.0,-0.0,-1.0,0.1764943083209944,1.0,1.0
15.746715545654297,0.6914615631103516,0.1478382349014282,-0.0,-0.0,-1.0,0.1912032930605859,1.0,1.0
15.495794296264648,1.1680688858032229,-0.0490782260894775,-0.0,-0.0,-1.0,0.1833536524036639,2.0,0.0
15.496362686157228,1.5819969177246094,-0.0410182476043701,-0.7534192670606792,-0.3629944245387999,-0.5482649503438047,0.0920417085730134,3.0,0.0
