x,y,z,nx,ny,nz,curvature,density,label
13.427248001098633,-2.798450469970703,0.3812374472618103,-0.0,-0.0,-1.0,0.1971133244856223,2.0,1.0
13.98739242553711,-3.524089813232422,0.3783314228057861,-0.0,-0.0,-1.0,0.2007353205421564,1.0,1.0
13.65569305419922,-3.247474670410156,0.3763999938964844,0.8053174481636746,-0.3577685228601816,-0.472721367968057,0.2283412510292383,3.0,1.0
13.391464233398438,-3.371999740600586,0.366837739944458,-0.0,-0.0,-1.0,0.1586997035921893,2.0,1.0
13.480478286743164,-3.692543029785156,0.3615821003913879,-0.0,-0.0,-1.0,0.1847922103924701,1.0,1.0
13.684814453125,-4.179889678955078,0.3554489016532898,-0.0,-0.0,-1.0,0.1997641985338092,2.0,1.0
14.38654327392578,-1.8820304870605469,0.0251011848449707,-0.0,-0.0,-1.0,0.0382672872825968,1.0,1.0
13.699823379516602,-3.1912918090820312,0.886680006980896,0.428361691908715,-0.8344143406658486,-0.3467837496139059,0.1464417410094378,5.0,1.0
13.310741424560549,-3.3394241333007812,0.8818854093551636,-0.0,-0.0,-1.0,0.2035543329533505,1.0,1.0
14.57358169555664,-2.5772857666015625,0.321867823600769,0.5899401253245214,-0.7928879150041568,-0.1526414189283137,0.2044433452255283,5.0,1.0
13.535924911499023,-2.2014808654785156,0.2890079021453857,-0.0,-0.0,-1.0,0.1023369447902087,2.0,1.0
14.872665405273438,-3.0438156127929688,0.3249242305755615,0.5435068588033046,0.5753868018716307,0.6111712711390328,0.1575663830605289,4.0,1.0
14.113370895385742,-2.8997840881347656,0.2989730834960937,-0.0,-0.0,-1.0,0.1623441884512375,1.0,1.0
13.592185974121094,-2.800935745239258,0.2809780836105346,-0.0,-0.0,-1.0,0.1792916737170481,1.0,1.0
13.138174057006836,-2.7573699951171875,0.2644747495651245,-0.0,-0.0,-1.0,0.1715053005384639,1.0,1.0
12.8101806640625,-2.6149959564208984,0.2543509006500244,-0.0,-0.0,-1.0,0.1445336729073795,2.0,1.0
14.278549194335938,-3.3343963623046875,0.2976321578025818,-0.0,-0.0,-1.0,0.1982693304168445,1.0,1.0
13.324542999267578,-3.443744659423828,0.2598519325256347,0.669190737574758,-0.428951476596575,-0.6067819933631594,0.2544642665603653,3.0,1.0
12.956491470336914,-3.2242259979248047,0.2496581077575683,0.1820041694096304,-0.9110350583112176,-0.3699859522270911,0.2014935968639218,4.0,1.0
12.782184600830078,-3.2752647399902344,0.2421679496765136,-0.0,-0.0,-1.0,0.1239200376109661,2.0,1.0
13.28048324584961,-3.1970138549804688,1.1845519542694092,-0.102065724384256,-0.7698254145813745,0.63004080738515,0.1441367121364111,4.0,2.0
15.060321807861328,-2.242883682250977,0.0750418901443481,-0.0,-0.0,-1.0,0.0999569329157091,1.0,1.0
14.951756477355955,-2.013702392578125,0.0804294347763061,-0.0,-0.0,-1.0,0.0451509113839125,2.0,1.0
14.367620468139648,-1.9287834167480469,0.0648677349090576,-0.0,-0.0,-1.0,0.0398218220554769,2.0,1.0
15.198867797851562,-2.448484420776367,0.0714935064315795,-0.0,-0.0,-1.0,0.0668895743746438,2.0,1.0
13.453163146972656,-2.671398162841797,0.8915894031524658,-0.0,-0.0,-1.0,0.1198368969449833,1.0,1.0
13.892053604125977,-3.251617431640625,0.8891249299049377,-0.0,-0.0,-1.0,0.2075539643809393,1.0,1.0
14.75801944732666,-4.333589553833008,0.885947585105896,-0.1198415005873891,0.9413822738987592,-0.3153370088114697,0.1983246076281047,3.0,1.0
13.709280014038086,-4.202184677124023,0.8764126896858215,0.2457548699905628,0.965838895971232,0.0822178259563748,0.2155944181304829,3.0,1.0
13.323801040649414,-4.093770980834961,0.8737362027168274,-0.0,-0.0,-1.0,0.0897584470422803,1.0,1.0
14.272103309631348,-2.2772140502929688,0.2379839420318603,-0.0,-0.0,-1.0,0.1591933396426878,1.0,1.0
12.991662979125977,-2.0513362884521484,0.2166106700897216,-0.0,-0.0,-1.0,0.0339881673926895,2.0,1.0
15.027070045471191,-2.93402099609375,0.2302144765853881,-0.14335878416792,0.4356380985509143,-0.8886324921433155,0.095151007727703,4.0,1.0
14.812333106994627,-2.713430404663086,0.2337740659713745,-0.0,-0.0,-1.0,0.2548353278979724,1.0,1.0
14.55128574371338,-2.5300540924072266,0.2348182201385498,0.2553905591114776,-0.3329676098755703,-0.9076939093606816,0.2333340460912024,7.0,1.0
14.193968772888184,-2.801248550415039,0.2164211273193359,-0.0,-0.0,-1.0,0.1035729313378797,1.0,1.0
15.173776626586914,-3.016061782836914,0.2303599119186401,-0.0,-0.0,-1.0,0.1435093974485527,2.0,1.0
14.77146816253662,-2.93365478515625,0.2244856357574463,-0.1382427670808692,0.1554686864980548,-0.9781198417721594,0.1592176102129545,5.0,1.0
14.35039234161377,-3.1549301147460938,0.2065845727920532,-0.0,-0.0,-1.0,0.1371254542002164,2.0,1.0
13.637177467346191,-2.95541000366211,0.1978451013565063,-0.0,-0.0,-1.0,0.2291319094268764,1.0,1.0
13.703239440917969,-3.304140090942383,0.186214804649353,-0.0,-0.0,-1.0,0.1126678953557265,1.0,1.0
14.72243595123291,-4.205326080322266,0.1748617887496948,-0.0,-0.0,-1.0,0.0559971724602744,1.0,1.0
13.47509479522705,-2.549825668334961,1.067643165588379,-0.0,-0.0,-1.0,0.1954681262285482,1.0,2.0
14.000575065612791,-3.1344757080078125,1.0625507831573486,-0.0,-0.0,-1.0,0.088067970547295,1.0,2.0
14.618020057678224,-2.484403610229492,0.2089990377426147,-0.0,-0.0,-1.0,0.2494147159674507,2.0,1.0
13.282374382019045,-2.218050003051758,0.1979833841323852,-0.0,-0.0,-1.0,0.1372016322804424,1.0,1.0
13.128607749938965,-1.9659919738769531,0.2062499523162841,-0.0,-0.0,-1.0,0.0300484565955938,2.0,1.0
14.838593482971191,-2.744596481323242,0.2011607885360717,0.6022981121354495,-0.6642947856200686,-0.4426617466147947,0.2056609457789295,5.0,1.0
14.374168395996094,-2.557579040527344,0.2017239332199096,0.8162310630481553,-0.2182837859524312,0.5349009632684835,0.2307557225504707,4.0,1.0
13.16859531402588,-2.4591102600097656,0.1855361461639404,-0.0,-0.0,-1.0,0.1738426284759002,1.0,1.0
13.807190895080566,-3.149700164794922,0.1662406921386718,-0.0,-0.0,-1.0,0.2553653455308507,2.0,1.0
14.214887619018556,-3.244291305541992,1.0100383758544922,-0.7431216620170696,0.1887724140114176,-0.6419775472314354,0.039797365493473,5.0,2.0
13.97412395477295,-3.156362533569336,1.0121432542800903,-0.0,-0.0,-1.0,0.0830058429252941,2.0,2.0
14.324508666992188,-3.306116104125977,0.7302533388137817,-0.0,-0.0,-1.0,0.1791861204301218,1.0,1.0
13.963454246520996,-3.2532482147216797,0.7375781536102295,-0.0,-0.0,-1.0,0.1537014244454088,1.0,1.0
14.7737455368042,-3.3544750213623047,0.7218764424324036,-0.0,-0.0,-1.0,0.1772930650353223,1.0,1.0
13.313399314880373,-3.342235565185547,0.7443161010742188,-0.0,-0.0,-1.0,0.1980124737859585,2.0,1.0
13.200688362121582,-4.132843017578125,0.7175437211990356,0.7307596884270452,0.6821649140176427,-0.0253240568098848,0.1360086188730255,3.0,1.0
14.995072364807127,-3.1206092834472656,0.603740930557251,-0.0,-0.0,-1.0,0.1728586495194905,2.0,1.0
13.862716674804688,-3.356115341186523,0.6076581478118896,-0.0,-0.0,-1.0,0.198399968547839,1.0,1.0
13.440618515014648,-3.741012573242187,0.5973222255706787,-0.0,-0.0,-1.0,0.2195051064363662,1.0,1.0
13.574758529663086,-2.6974925994873047,0.5277385711669922,-0.0,-0.0,-1.0,0.1069552588808524,1.0,1.0
13.388083457946776,-3.3690757751464844,0.5003768801689148,-0.0630603510002147,-0.9232528509588654,0.3789822757439405,0.2477703501937832,3.0,1.0
14.988609313964844,-3.120410919189453,0.5036277770996094,-0.0,-0.0,-1.0,0.1633368264338394,1.0,1.0
13.634532928466797,-3.305744171142578,0.5020204782485962,-0.0948429462457443,0.25916642725409,-0.961164698962554,0.1755929673703771,3.0,1.0
12.857254981994627,-1.901890754699707,0.2080593109130859,-0.0,-0.0,-1.0,0.0978115135084981,2.0,1.0
13.350749015808104,-2.0695199966430664,0.1805217266082763,-0.0,-0.0,-1.0,0.0966694724154962,1.0,1.0
13.022539138793944,-2.5448293685913086,0.1535161733627319,-0.3892130168946143,0.6378261170840538,-0.6645984290120401,0.0896163988452766,3.0,1.0
14.508858680725098,-2.181269645690918,0.135379672050476,-0.0,-0.0,-1.0,0.0601137287129835,1.0,1.0
14.301252365112305,-2.1478757858276367,0.1447471380233764,0.6435571303437696,-0.7365741502345349,-0.2080690779283771,0.1500678306987141,4.0,1.0
13.632850646972656,-2.49155330657959,0.1389915943145752,-0.0,-0.0,-1.0,0.1208305731471079,1.0,1.0
13.154098510742188,-2.828131675720215,0.1275259256362915,-0.0,-0.0,-1.0,0.0945785561721716,1.0,1.0
13.7592191696167,-2.647830009460449,0.1228162050247192,-0.0,-0.0,-1.0,0.1073979671676283,1.0,1.0
13.385907173156738,-2.545851707458496,0.8506819009780884,0.9082915057440968,0.4078712606379835,-0.0929923402152195,0.1180996810472104,3.0,1.0
14.423989295959473,-2.4563188552856445,0.806344747543335,-0.0,-0.0,-1.0,0.0917727220042363,1.0,1.0
13.580327033996582,-2.949700355529785,0.8227982521057129,-0.0,-0.0,-1.0,0.1207587573283595,1.0,1.0
13.238747596740724,-3.156439781188965,0.8290629386901855,-0.0,-0.0,-1.0,0.1453744673182996,1.0,1.0
13.72176456451416,-3.832869529724121,0.7748221158981323,-0.0,-0.0,-1.0,0.0826021010184942,1.0,1.0
13.490367889404297,-2.6039466857910156,0.3534018993377685,-0.0,-0.0,-1.0,0.306681694864079,1.0,1.0
12.872835159301758,-3.164552688598633,0.3337289094924927,-0.0,-0.0,-1.0,0.1964817189967368,1.0,1.0
14.395535469055176,-2.388212203979492,0.3423166275024414,-0.0,-0.0,-1.0,0.1811387377540252,1.0,1.0
13.774600982666016,-3.046184539794922,0.3165762424468994,-0.0,-0.0,-1.0,0.251955851999628,1.0,1.0
13.404244422912598,-3.1842708587646484,0.3178317546844482,-0.0,-0.0,-1.0,0.1276283683132623,1.0,1.0
13.167977333068848,-3.276033401489258,0.3183567523956299,-0.0,-0.0,-1.0,0.1569408968077358,1.0,1.0
14.136600494384766,-2.988168716430664,0.3102288246154785,-0.0,-0.0,-1.0,0.1465500346944644,2.0,1.0
13.829243659973145,-3.175506591796875,0.3065699338912964,0.4229997975684733,-0.8649127602959159,-0.2701797333893316,0.1600754934755769,3.0,1.0
13.369752883911133,-3.674266815185547,0.2867108583450317,-0.0,-0.0,-1.0,0.2233660859693584,2.0,1.0
13.192492485046388,-3.803976058959961,0.283144474029541,-0.0,-0.0,-1.0,0.1868312620341773,1.0,1.0
14.019369125366213,-3.6948013305664062,0.2671288251876831,-0.0,-0.0,-1.0,0.2227125098178765,1.0,1.0
13.14752197265625,-3.0915679931640625,1.0266565084457395,-0.0,-0.0,-1.0,0.1234964453390276,1.0,2.0
13.439044952392578,-3.975187301635742,0.984481692314148,-0.0,-0.0,-1.0,0.0722446002517509,1.0,1.0
12.877647399902344,-2.105806350708008,0.2005791664123535,-0.0,-0.0,-1.0,0.0326880336129462,2.0,1.0
13.189558029174805,-2.088766098022461,0.1932350397109985,-0.0,-0.0,-1.0,0.0549224294019535,2.0,1.0
13.619487762451172,-2.2910118103027344,0.1644914150238037,-0.0,-0.0,-1.0,0.1780904356153437,1.0,1.0
13.046563148498535,-2.6139698028564453,0.1548272371292114,-0.4978271083677068,-0.8016899958193227,-0.3308493928926904,0.1074457653682576,3.0,1.0
13.186412811279297,-2.9284534454345703,0.1252838373184204,-0.0,-0.0,-1.0,0.1504063195503344,2.0,1.0
14.295745849609377,-2.2192306518554688,0.1499357223510742,-0.4748401003935767,-0.0650016053502741,-0.8776683145471899,0.0787162731048679,4.0,1.0
13.623560905456545,-2.704263687133789,0.1306492090225219,0.0996812593779231,0.7345793045767778,0.6711608539063705,0.1336140550718996,3.0,1.0
13.202707290649414,-3.039588928222656,0.1157677173614502,-0.0,-0.0,-1.0,0.1721052871186307,2.0,1.0
14.668936729431152,-2.277894973754883,0.1333132982254028,-0.8128714546014558,-0.2014409154195458,-0.5464993649484405,0.115681915929514,3.0,1.0
14.36233139038086,-2.38211441040039,0.1344634294509887,-0.0,-0.0,-1.0,0.0595491726084758,2.0,1.0
13.838979721069336,-2.8914318084716797,0.1088325977325439,-0.0,-0.0,-1.0,0.1846344707577149,2.0,1.0
14.998720169067385,-2.17669677734375,0.1310275793075561,-0.0,-0.0,-1.0,0.0884528197938989,2.0,1.0
14.924293518066406,-2.430570602416992,0.1124086380004882,-0.0,-0.0,-1.0,0.0666395520811323,2.0,1.0
13.676413536071776,-3.046548843383789,0.7532379627227783,-0.0,-0.0,-1.0,0.2112639066698035,2.0,1.0
13.300296783447266,-3.213254928588867,0.7615914344787598,-0.0,-0.0,-1.0,0.1257653370275478,1.0,1.0
12.776455879211426,-4.039524078369141,0.7436715364456177,-0.0,-0.0,-1.0,0.2122992711110554,1.0,1.0
14.301319122314451,-3.2041683197021484,0.7174842357635498,-0.0,-0.0,-1.0,0.2075113653790323,1.0,1.0
13.923547744750977,-3.612009048461914,0.7140445709228516,-0.0,-0.0,-1.0,0.0932278955674628,2.0,1.0
14.866337776184082,-2.963186264038086,0.7040624618530273,0.8388043488083696,0.2555343064395244,-0.4807384763596921,0.1957454942175245,3.0,1.0
13.033742904663086,-1.963406562805176,0.1840989589691162,-0.0,-0.0,-1.0,0.028687094018237,1.0,1.0
12.954100608825684,-1.9834728240966797,0.1836156845092773,-0.4091835638363402,-0.0290896447278065,-0.9119882694726952,0.0384690292524936,3.0,1.0
13.478761672973633,-2.1223058700561523,0.1645319461822509,-0.0,-0.0,-1.0,0.2383502507986478,1.0,1.0
13.159740447998049,-2.1130170822143555,0.1702841520309448,-0.0,-0.0,-1.0,0.0541535416831641,2.0,1.0
13.16054344177246,-2.5821847915649414,0.1325052976608276,-0.0,-0.0,-1.0,0.0609725152867664,2.0,1.0
13.636295318603516,-2.3487319946289062,0.1434835195541381,-0.0,-0.0,-1.0,0.1548798889459736,1.0,1.0
13.560226440429688,-2.5625476837158203,0.127342939376831,-0.0,-0.0,-1.0,0.0784230172298953,1.0,1.0
13.231866836547852,-2.9384536743164062,0.1024932861328125,-0.0,-0.0,-1.0,0.1413801507587928,2.0,1.0
14.26882553100586,-2.23336124420166,0.1410607099533081,0.4967071020374021,-0.8559073538467111,-0.1438911269562053,0.103194007348839,3.0,1.0
14.362492561340332,-2.429253578186035,0.122961401939392,-0.0,-0.0,-1.0,0.0690910196528401,2.0,1.0
13.785879135131836,-2.809406280517578,0.1030768156051635,-0.0,-0.0,-1.0,0.1722647917659452,1.0,1.0
14.66005802154541,-2.3446693420410156,0.1235486268997192,0.4397043625396688,-0.5771343112096937,-0.6881686278726288,0.0900810519213457,3.0,1.0
15.025426864624023,-2.233992576599121,0.1245484352111816,-0.0,-0.0,-1.0,0.1683679048578934,2.0,1.0
15.082475662231444,-2.5903358459472656,0.0932058095932006,-0.0,-0.0,-1.0,0.108036037918203,1.0,1.0
13.45738410949707,-2.653045654296875,0.7288613319396973,-0.0666379785360482,-0.8762742746956178,-0.4771821196600915,0.1138713086992219,3.0,1.0
13.282405853271484,-2.8872499465942383,0.7228339314460754,-0.0,-0.0,-1.0,0.1082963890943061,2.0,1.0
14.029170989990234,-2.8262405395507812,0.7016116380691528,-0.0,-0.0,-1.0,0.1994649912949742,1.0,1.0
13.665088653564451,-3.149667739868164,0.6974835395812988,-0.0,-0.0,-1.0,0.240826067780451,2.0,1.0
13.469060897827148,-3.3784732818603516,0.6924878358840942,-0.0,-0.0,-1.0,0.1667324340258736,2.0,1.0
14.281367301940918,-3.186681747436523,0.6749016046524048,-0.0,-0.0,-1.0,0.1494876885687954,1.0,1.0
13.938745498657228,-3.5452308654785156,0.668515145778656,-0.0,-0.0,-1.0,0.0766848277427044,1.0,1.0
14.846475601196287,-3.0571861267089844,0.6616388559341431,0.0855879850045585,-0.5659206256246656,-0.8200052087123876,0.2322171937207629,4.0,1.0
14.702415466308594,-3.2771549224853516,0.6555528044700623,-0.0,-0.0,-1.0,0.0920293459868716,1.0,1.0
13.464876174926758,-2.684340476989746,0.5564486384391785,0.3856979935523145,0.3210547413723372,0.864962953433302,0.1733039978715211,7.0,1.0
12.734663009643556,-4.168286323547363,0.4937739968299866,-0.0,-0.0,-1.0,0.1026847065543481,1.0,1.0
13.994439125061035,-2.8832712173461914,0.503341794013977,-0.0,-0.0,-1.0,0.2239581048372836,2.0,1.0
13.561447143554688,-3.253281593322754,0.5057432651519775,0.4492353491571656,-0.8454302570672745,-0.2888516600312373,0.1836056265818599,4.0,1.0
14.393048286437988,-2.5500097274780273,0.5003545880317688,0.0754984454317967,0.6191255530145079,-0.7816543573356844,0.203570811039673,3.0,1.0
14.864673614501951,-2.6940383911132812,0.4543473720550537,-0.0,-0.0,-1.0,0.1720229555374001,1.0,1.0
14.82390594482422,-3.148777961730957,0.4216701984405517,-0.0850254304590497,-0.7346586112496326,-0.673087959402049,0.1783903021679713,4.0,1.0
14.274499893188477,-3.4187440872192383,0.4412468671798706,-0.0,-0.0,-1.0,0.172296282417193,2.0,1.0
14.92603874206543,-3.1093215942382812,0.4171218872070312,-0.0,-0.0,-1.0,0.2364917630973801,1.0,1.0
14.915640830993652,-3.496959686279297,0.3873748779296875,-0.0,-0.0,-1.0,0.1988000584572315,1.0,1.0
13.293580055236816,-3.2552671432495117,1.1139540672302246,0.8342389867328224,-0.3801593163206628,-0.3994048162323536,0.1145881783859069,3.0,2.0
13.963388442993164,-3.0901107788085938,1.064522385597229,-0.0,-0.0,-1.0,0.106710452192045,1.0,2.0
14.187579154968262,-3.220773696899414,1.0395137071609497,-0.7431216620170696,0.1887724140114176,-0.6419775472314354,0.0560520525430072,5.0,2.0
14.76251983642578,-4.3170576095581055,0.9405006766319276,0.2996728709946035,0.8004884968013974,-0.5190513817325706,0.2292560261972468,3.0,1.0
12.938390731811523,-3.3921985626220703,0.3576784133911133,-0.0,-0.0,-1.0,0.1661742917496779,2.0,1.0
12.90826416015625,-3.5490684509277344,0.3465545177459717,-0.0,-0.0,-1.0,0.1415063242395707,2.0,1.0
13.483160972595217,-2.7908287048339844,0.3825286626815796,0.9842286231570324,-0.1364356094613735,0.1126025835818888,0.2412802564645867,7.0,1.0
13.288093566894531,-3.429966926574707,0.3398460149765014,-0.0,-0.0,-1.0,0.2373986564228984,2.0,1.0
13.781458854675291,-3.3240890502929688,0.3257884979248047,-0.0,-0.0,-1.0,0.2291750614966328,2.0,1.0
13.547649383544922,-3.319920539855957,0.3370764255523681,-0.0,-0.0,-1.0,0.1031523802807573,1.0,1.0
13.3287353515625,-3.985709190368652,0.2931419610977173,-0.0,-0.0,-1.0,0.130335233498699,2.0,1.0
14.07762336730957,-3.310732841491699,0.3122937679290771,-0.0,-0.0,-1.0,0.2609686730754288,2.0,1.0
14.697086334228516,-3.330533027648926,0.2777529954910278,-0.0,-0.0,-1.0,0.0768619709835944,2.0,1.0
14.311159133911133,-4.110013961791992,0.23311448097229,-0.0,-0.0,-1.0,0.1441982453576639,2.0,1.0
14.850289344787598,-3.7209529876708984,0.2356300354003906,-0.0,-0.0,-1.0,0.1776200937207331,2.0,1.0
15.204952239990234,-4.154544830322266,0.1764183044433593,-0.2339301620269262,0.7205816743545617,-0.6527164237848103,0.129468354957757,3.0,1.0
15.163585662841797,-4.294839859008789,0.1668897867202758,-0.0,-0.0,-1.0,0.1248156336631564,1.0,1.0
13.202808380126951,-2.159417152404785,0.4437202215194702,-0.0,-0.0,-1.0,0.1267248990070806,1.0,1.0
13.616111755371094,-2.362842559814453,0.4109718799591064,-0.5894142848409551,-0.6717539573898794,-0.4487063868015046,0.2075274799084551,5.0,1.0
12.91512680053711,-4.3041791915893555,0.8821448087692261,-0.0,-0.0,-1.0,0.2015839316782889,2.0,1.0
13.710065841674805,-2.799110412597656,0.371821641921997,-0.000670882913368,0.7121426315075048,-0.7020344879745457,0.1330405558505331,4.0,1.0
14.496816635131836,-2.503000259399414,0.3580760955810547,0.1147278676529326,0.776524484331839,-0.6195540667423486,0.1817599486550216,4.0,1.0
14.392562866210938,-2.7819786071777344,0.3402618169784546,-0.6943200692150413,0.6630998333805026,0.279675262502727,0.2166370669318733,4.0,1.0
14.85197925567627,-2.721212387084961,0.3208123445510864,-0.0,-0.0,-1.0,0.2523823484171049,1.0,1.0
14.80198574066162,-3.186751365661621,0.284071683883667,0.5949899729085807,0.7789196836967004,-0.1981692672643235,0.2132906580292309,4.0,1.0
14.889575958251951,-3.173624038696289,0.2801978588104248,0.8112893983414766,0.5755796604726644,-0.1025551880155141,0.2437974600818838,4.0,1.0
13.371726036071776,-3.4014434814453125,0.8991125822067261,0.027705322164917,0.9146212016238288,-0.4033614665085421,0.1762587962148671,3.0,1.0
13.810575485229492,-3.275310516357422,0.8790801763534546,-0.0,-0.0,-1.0,0.2233005660514153,2.0,1.0
14.54104232788086,-2.6326866149902344,0.8657822608947754,-0.0,-0.0,-1.0,0.1410740482715204,1.0,1.0
15.072627067565918,-3.1576013565063477,0.803345799446106,-0.0,-0.0,-1.0,0.1638326990648344,1.0,1.0
13.31937026977539,-2.3491744995117188,0.1343474388122558,-0.0,-0.0,-1.0,0.1125315661802272,1.0,1.0
13.365617752075195,-2.549433708190918,0.1153651475906372,-0.5670786617560217,0.7235255280440565,0.3936147884030384,0.1051337926133627,3.0,1.0
13.730981826782228,-2.3082504272460938,0.1323468685150146,-0.0,-0.0,-1.0,0.176063813328834,1.0,1.0
13.818607330322266,-2.6908931732177734,0.0953247547149658,-0.0,-0.0,-1.0,0.125426340144349,1.0,1.0
14.22084617614746,-2.269303321838379,0.1277110576629638,-0.0,-0.0,-1.0,0.1185993026752906,2.0,1.0
14.521414756774902,-2.3024206161499023,0.1185630559921264,-0.4442085214183145,0.8762008427610601,-0.1869515248511288,0.0439605279017498,3.0,1.0
14.983287811279297,-2.3460464477539062,0.1038916110992431,-0.7940220647776842,0.2736872337713537,-0.5427930164590988,0.0564641406779654,3.0,1.0
12.789257049560549,-3.662203788757324,0.5951060056686401,-0.0,-0.0,-1.0,0.1544111334628033,2.0,1.0
12.750832557678224,-4.154202461242676,0.5666372179985046,-0.0,-0.0,-1.0,0.0909798766130701,2.0,1.0
13.445253372192385,-2.74874496459961,0.6315259337425232,0.4907016911035528,0.5979296589875978,0.6337917428075951,0.1736071075796504,4.0,1.0
13.28328800201416,-3.387094497680664,0.597611665725708,-0.0,-0.0,-1.0,0.1392740411549948,2.0,1.0
13.217825889587402,-3.8898677825927734,0.5689958333969116,-0.0,-0.0,-1.0,0.1698198839355415,1.0,1.0
13.200084686279297,-4.285772323608398,0.5453590154647827,-0.0,-0.0,-1.0,0.1549932681296894,1.0,1.0
13.866781234741213,-3.2567930221557617,0.5877488255500793,0.5793463715394688,-0.6111901573101991,-0.5392628054957854,0.1824500207338244,6.0,1.0
13.721200942993164,-3.472064971923828,0.5790084600448608,-0.0,-0.0,-1.0,0.2115060413125018,1.0,1.0
14.613565444946287,-3.4072484970092773,0.5531090497970581,-0.0,-0.0,-1.0,0.1659455143648857,1.0,1.0
14.778430938720703,-2.777215003967285,0.5869989395141602,-0.0,-0.0,-1.0,0.1615795588458033,1.0,1.0
14.740436553955078,-3.203680992126465,0.5614176988601685,0.5159913781015681,0.72810487646186,-0.4512385030084466,0.1997698900186679,4.0,1.0
14.83759880065918,-3.751530647277832,0.5230411887168884,-0.0,-0.0,-1.0,0.0972448417235318,1.0,1.0
13.192270278930664,-3.233407974243164,1.1626636981964111,-0.0,-0.0,-1.0,0.1291185093850327,1.0,2.0
13.90894603729248,-3.070140838623047,1.1360242366790771,-0.0,-0.0,-1.0,0.0809799667657577,2.0,2.0
13.479707717895508,-2.1927947998046875,0.0742863416671752,-0.0,-0.0,-1.0,0.1655670782516795,2.0,1.0
13.470541000366213,-2.3354530334472656,0.0606560707092285,-0.0,-0.0,-1.0,0.1865843732424787,1.0,1.0
14.39609146118164,-1.9650564193725584,0.0857218503952026,-0.0,-0.0,-1.0,0.0331206994140233,2.0,1.0
15.003044128417969,-2.0246801376342773,0.0694663524627685,-0.0,-0.0,-1.0,0.0363535683919341,1.0,1.0
15.196563720703123,-2.2113609313964844,0.0466294288635253,-0.0,-0.0,-1.0,0.1066141052327386,2.0,1.0
13.19675064086914,-4.246004104614258,0.4672586321830749,0.9819971956685104,0.1855156072860351,0.0355734051290415,0.171224043709302,3.0,1.0
13.392168998718262,-2.7522621154785156,0.5593113899230957,0.15707684249756,-0.8868399520620037,-0.4345592767133844,0.1209255119005997,3.0,1.0
13.418391227722168,-3.3634777069091797,0.51905757188797,-0.1004024882914334,-0.4175352415953546,-0.9030967070977488,0.19834582613536,5.0,1.0
13.672101974487305,-4.295110702514648,0.4510200023651123,0.8193628629726792,-0.0197982496243115,0.5729332667013044,0.0771435535787161,6.0,1.0
13.690689086914062,-2.8001585006713867,0.5487723350524902,-0.0,-0.0,-1.0,0.0788963768767526,1.0,1.0
13.869443893432615,-3.1920690536499023,0.5183690190315247,-0.0,-0.0,-1.0,0.1801002145458074,1.0,1.0
13.794588088989258,-3.525296211242676,0.4984402656555176,-0.0,-0.0,-1.0,0.2354128245723535,1.0,1.0
14.773470878601074,-3.211811065673828,0.4902862906455993,0.9011498350407956,0.079653305229845,0.4261271239570508,0.1184835474372275,3.0,1.0
14.629915237426758,-3.3822078704833984,0.4833406805992126,0.1975027176977738,-0.9363519609302948,0.2902372852753161,0.1348334378977349,4.0,1.0
14.807981491088867,-3.7891530990600586,0.450065016746521,-0.0,-0.0,-1.0,0.0980015836521206,1.0,1.0
14.83843231201172,-3.185235023498535,0.4899997115135193,0.7788290793497584,0.183698145390096,-0.5997334879256346,0.2310459375763614,4.0,1.0
14.964529991149902,-3.4828786849975586,0.4656799435615539,-0.0,-0.0,-1.0,0.1290180758490159,1.0,1.0
13.50023365020752,-4.164492607116699,1.0447707176208496,-0.0,-0.0,-1.0,0.0700662968498084,1.0,2.0
12.856522560119627,-2.7465715408325195,0.24904465675354,-0.0,-0.0,-1.0,0.1286746322751832,1.0,1.0
12.95960807800293,-3.203648567199707,0.2187745571136474,-0.0,-0.0,-1.0,0.1928189522616268,2.0,1.0
13.100542068481444,-3.4886341094970703,0.2003235816955566,-0.0,-0.0,-1.0,0.1501501750599487,1.0,1.0
13.441308975219728,-2.8031158447265625,0.2517039775848388,0.8995725035448703,0.4364179275105943,-0.0175699576940864,0.1337674961093024,3.0,1.0
13.418290138244627,-3.4220666885375977,0.2077298164367675,-0.0,-0.0,-1.0,0.2504305518133617,1.0,1.0
13.584186553955078,-2.3618202209472656,0.2840437889099121,-0.8270262727700493,0.469931888289521,0.3085313023288327,0.1271208253147983,5.0,1.0
13.689943313598633,-2.8936891555786133,0.2473070621490478,-0.0,-0.0,-1.0,0.2546836125096699,1.0,1.0
13.828523635864258,-3.320283889770508,0.2176392078399658,-0.0,-0.0,-1.0,0.2875073959833502,1.0,1.0
14.294998168945312,-4.024874687194824,0.167417287826538,-0.0,-0.0,-1.0,0.2389826637172902,2.0,1.0
14.294759750366213,-2.945669174194336,0.2467175722122192,-0.0,-0.0,-1.0,0.126708721095888,2.0,1.0
14.354840278625488,-3.4586400985717773,0.2092455625534057,-0.0,-0.0,-1.0,0.1423310762124046,1.0,1.0
14.38728141784668,-2.646005630493164,0.2687989473342895,-0.0,-0.0,-1.0,0.2055425233555715,1.0,1.0
14.715909004211426,-3.0632543563842773,0.2385905981063842,-0.0,-0.0,-1.0,0.1163663200938274,1.0,1.0
14.99648666381836,-4.173748970031738,0.1545857191085815,-0.0,-0.0,-1.0,0.0131592868952273,1.0,1.0
14.821269989013672,-2.9483776092529297,0.2470673322677612,-0.5800601972178382,-0.6350523134741436,0.51013598849203,0.1484294316876541,3.0,1.0
15.035602569580078,-3.1258087158203125,0.2334170341491699,-0.0,-0.0,-1.0,0.1019866862734703,1.0,1.0
13.579666137695312,-3.171086311340332,0.7742356061935425,-0.0,-0.0,-1.0,0.2607612486902457,2.0,1.0
13.727802276611328,-3.95928955078125,0.7419832944869995,-0.0,-0.0,-1.0,0.212726567347564,1.0,1.0
13.962242126464844,-2.8097105026245117,0.7857118844985962,-0.0,-0.0,-1.0,0.2324722418651891,1.0,1.0
14.647590637207031,-3.3943967819213867,0.7553181648254395,-0.0,-0.0,-1.0,0.2489622992883408,2.0,1.0
15.011608123779297,-3.1509857177734375,0.7607210874557495,-0.6874016102783251,0.2799415990183165,-0.6701579868402926,0.1152199030991667,3.0,1.0
13.179943084716797,-4.285605430603027,0.4396519660949707,-0.0,-0.0,-1.0,0.1812045578029559,2.0,1.0
13.687070846557615,-4.258186340332031,0.4242876768112182,0.9982767488054242,-0.0478261052250605,-0.0340028888989322,0.088549909516009,8.0,1.0
13.59116554260254,-2.083132743835449,0.0625107288360595,-0.0,-0.0,-1.0,0.0768959199677854,1.0,1.0
14.21750259399414,-1.9839954376220703,0.0621987581253051,-0.0,-0.0,-1.0,0.0553474889327368,2.0,1.0
14.46022129058838,-1.9215726852416992,0.0636581182479858,-0.0,-0.0,-1.0,0.0364716412105667,1.0,1.0
15.109310150146484,-2.051910400390625,0.0343469381332397,-0.995159055648742,-0.0958475720731825,-0.0217185839312799,0.0309392498967256,4.0,1.0
13.434219360351562,-3.3457603454589844,0.4955135583877563,0.0305955667808967,-0.8084323019819915,-0.5877934368512919,0.1860505481378609,3.0,1.0
13.443973541259766,-2.6465625762939453,0.542391300201416,0.2514852519228217,-0.4102688073247147,-0.8766040576005059,0.2285216566744574,4.0,1.0
13.757492065429688,-3.2339305877685547,0.4927276372909546,-0.4930796465048301,-0.3733879711356433,-0.7857823395914929,0.2396802939405988,3.0,1.0
13.928512573242188,-3.39241886138916,0.4759663343429565,-0.0,-0.0,-1.0,0.2689010807698324,2.0,1.0
13.931268692016602,-2.964925765991211,0.5054144859313965,-0.0,-0.0,-1.0,0.1634996477447083,1.0,1.0
14.623041152954102,-3.37467098236084,0.4513847827911377,-0.6607223848218514,-0.7498269599960804,-0.0347197387427101,0.139020506347139,3.0,1.0
14.41171646118164,-2.7603673934936523,0.5027956962585449,-0.0,-0.0,-1.0,0.1165650012673376,1.0,1.0
14.813249588012695,-3.168548583984375,0.4584800004959106,0.8212889369530366,-0.4509955860899023,-0.3494101649436896,0.1473957212078517,8.0,1.0
14.898914337158203,-3.5565080642700195,0.4271049499511719,-0.0,-0.0,-1.0,0.1395539723579855,1.0,1.0
13.153215408325195,-4.063538551330566,1.0365681648254397,-0.7054192402078799,-0.1957481486068611,-0.6812241612432163,0.1423033005369527,3.0,2.0
13.324859619140623,-3.3433828353881836,1.054552435874939,-0.0,-0.0,-1.0,0.1623493463213316,1.0,2.0
14.12615966796875,-3.250967025756836,1.020372748374939,0.3686558611887639,0.8754993312776688,0.3124000271183174,0.0327633032074935,4.0,2.0
14.687677383422852,-4.349616050720215,0.949824333190918,-0.0,-0.0,-1.0,0.2068011801949717,2.0,1.0
14.202302932739258,-3.2126235961914062,1.0180832147598269,-0.7431216620170696,0.1887724140114176,-0.6419775472314354,0.0522727637385343,5.0,2.0
12.723013877868652,-4.198241233825684,0.2524313926696777,-0.0,-0.0,-1.0,0.1049077195838391,1.0,1.0
12.71915340423584,-4.081274032592773,0.2608151435852051,-0.0,-0.0,-1.0,0.1051804052554719,2.0,1.0
13.630287170410156,-4.297638893127441,0.2351564168930053,-0.0,-0.0,-1.0,0.2044175690262473,1.0,1.0
12.899959564208984,-3.501432418823242,0.3006957769393921,-0.0,-0.0,-1.0,0.2288718167792146,2.0,1.0
13.356792449951172,-3.830977439880371,0.2728847861289978,-0.0,-0.0,-1.0,0.0849040744409298,1.0,1.0
13.042891502380373,-3.0136804580688477,0.3342220783233642,-0.0,-0.0,-1.0,0.1782656166690779,2.0,1.0
13.298930168151855,-3.3295955657958984,0.3097633123397827,-0.0,-0.0,-1.0,0.1483947546233972,2.0,1.0
13.41848850250244,-3.3947343826293945,0.3039329648017883,0.4505267622909665,0.8458393586264971,-0.2856246065344073,0.2234570354860605,3.0,1.0
14.205522537231444,-3.9036455154418945,0.2558506727218628,-0.0,-0.0,-1.0,0.1773997769126642,2.0,1.0
13.831528663635254,-3.349693298339844,0.3026077151298523,-0.1018801960071866,-0.5248874527140828,-0.8450524170989977,0.2683717750149262,4.0,1.0
15.013936042785645,-4.323594093322754,0.207731008529663,-0.0,-0.0,-1.0,0.0983930160564229,1.0,1.0
13.457965850830078,-2.357118606567383,0.3778210878372192,-0.0,-0.0,-1.0,0.1923213156534045,2.0,1.0
13.640361785888672,-2.7821455001831055,0.3460476398468017,-0.2942684928091145,0.4278888743214761,-0.8545859613706231,0.1856070991676919,3.0,1.0
13.874229431152344,-2.905117988586426,0.3347014784812927,-0.0,-0.0,-1.0,0.2552821607019868,1.0,1.0
14.831518173217772,-3.732077598571778,0.2575371265411377,-0.0,-0.0,-1.0,0.1305603530545794,2.0,1.0
14.317522048950195,-2.563565254211426,0.3544070720672607,-0.142836104321187,0.9056146273665616,-0.3993244219955386,0.1858615128565352,4.0,1.0
14.805429458618164,-3.1636362075805664,0.3016034960746765,0.65464761197459,0.3563837339094656,-0.666653686962514,0.1868029331382276,5.0,1.0
14.604334831237791,-2.420351982116699,0.3610544204711914,-0.0,-0.0,-1.0,0.1223673772051174,2.0,1.0
14.78517723083496,-2.7562408447265625,0.3329240679740906,-0.0,-0.0,-1.0,0.2413953339216933,1.0,1.0
13.140796661376951,-4.18294620513916,0.829161524772644,-0.0,-0.0,-1.0,0.2031933372830123,2.0,1.0
13.72408962249756,-4.146440505981445,0.8148016333580017,0.7621604322042941,0.2546697242475754,0.5951930839096059,0.2860923801713169,6.0,1.0
13.767277717590332,-4.188077926635742,0.8117946982383728,0.661080335623562,-0.0698476166339313,-0.7470569592088664,0.2447011428508725,3.0,1.0
14.96483039855957,-3.1031227111816406,0.8223354816436768,-0.0,-0.0,-1.0,0.1979049073177606,2.0,1.0
12.721331596374512,-4.239922523498535,0.3510990142822265,-0.8011410282332583,-0.578239579337642,-0.1543115088669167,0.1036775898373996,3.0,1.0
13.080257415771484,-4.151791572570801,0.3646438121795654,-0.0,-0.0,-1.0,0.2676801739445081,1.0,1.0
12.721311569213867,-3.491687774658203,0.3847649097442627,-0.0,-0.0,-1.0,0.2021909926032971,1.0,1.0
13.284510612487791,-3.64127254486084,0.3936988115310669,-0.0,-0.0,-1.0,0.1923265387342053,1.0,1.0
13.847302436828612,-3.5518789291381836,0.4117788076400757,-0.0,-0.0,-1.0,0.1841063753578728,2.0,1.0
13.717147827148438,-3.3351402282714844,0.4190104007720947,-0.0,-0.0,-1.0,0.1864249463471194,2.0,1.0
14.12985610961914,-3.3659725189208984,0.4271650314331054,-0.0,-0.0,-1.0,0.1966634320035218,2.0,1.0
13.290726661682127,-2.324268341064453,0.4531512260437011,-0.0,-0.0,-1.0,0.1249640972810487,1.0,1.0
13.543220520019531,-2.700397491455078,0.4438011646270752,-0.0,-0.0,-1.0,0.1151768592815312,1.0,1.0
13.942341804504396,-2.8422975540161133,0.447843074798584,-0.0,-0.0,-1.0,0.20729914004128,2.0,1.0
14.308157920837402,-2.523059844970703,0.471908688545227,-0.956522427722662,-0.0783075311104972,0.2809497745771002,0.1134142522832227,4.0,1.0
14.366406440734863,-2.62473201751709,0.4683957099914551,-0.4912102793234968,0.1865555815411606,-0.8508286998466679,0.2053630214816287,5.0,1.0
13.293764114379885,-3.406477928161621,0.9606871604919434,-0.0,-0.0,-1.0,0.1341636362530632,1.0,1.0
13.68030071258545,-3.287692070007324,0.9657481908798218,-0.0,-0.0,-1.0,0.1573350355620981,2.0,1.0
12.799670219421388,-3.43649959564209,0.2750715017318725,-0.0,-0.0,-1.0,0.220651893344366,1.0,1.0
12.960679054260254,-3.015308380126953,0.2979505062103271,-0.0,-0.0,-1.0,0.2192543881569423,1.0,1.0
13.294669151306152,-3.3083953857421875,0.3104828596115112,-0.0,-0.0,-1.0,0.2065668383333877,2.0,1.0
13.080429077148438,-2.5761985778808594,0.3184237480163574,-0.0,-0.0,-1.0,0.1607008336817545,1.0,1.0
13.53132438659668,-2.723433494567871,0.3434972763061523,-0.0,-0.0,-1.0,0.2285263244287347,2.0,1.0
14.636428833007812,-4.274042129516602,0.9185726642608644,-0.0,-0.0,-1.0,0.1600976508002505,1.0,1.0
13.154769897460938,-3.271193504333496,0.8686419725418091,-0.0,-0.0,-1.0,0.1623652125366364,1.0,1.0
14.644865036010742,-4.193384170532227,0.1370261907577514,-0.0,-0.0,-1.0,0.0523002022800435,2.0,1.0
14.917131423950195,-4.08056640625,0.1542390584945678,-0.0,-0.0,-1.0,0.0131614115099502,2.0,1.0
15.191500663757324,-4.173105239868164,0.160749077796936,0.6585152298350163,-0.627500854615292,-0.4154520062924401,0.0737758730963635,4.0,1.0
13.668667793273926,-3.276273727416992,0.1345430612564087,-0.0,-0.0,-1.0,0.1611541303530756,2.0,1.0
13.95352554321289,-3.1802568435668945,0.1532442569732666,-0.0,-0.0,-1.0,0.1807577073215116,1.0,1.0
14.304821968078612,-3.1601409912109375,0.1714290380477905,-0.0,-0.0,-1.0,0.1412580908316527,2.0,1.0
14.942497253417969,-3.607524871826172,0.1790921688079834,-0.0,-0.0,-1.0,0.2308294451515496,1.0,1.0
13.966832160949709,-2.97036075592041,0.1633696556091308,-0.0,-0.0,-1.0,0.2079804292876303,2.0,1.0
14.690256118774414,-2.839017868041992,0.2048753499984741,-0.0,-0.0,-1.0,0.1215815747720403,2.0,1.0
15.005537033081056,-3.002730369567871,0.2116013765335083,-0.8035547346819425,0.4589117007030123,-0.3790776164957537,0.1027720823486391,3.0,1.0
14.406238555908203,-2.5960865020751953,0.2023063898086547,-0.0,-0.0,-1.0,0.1689967546886846,1.0,1.0
14.692757606506348,-2.5628223419189453,0.2178608179092407,-0.2000011600911866,-0.9521639415049876,-0.2310484028507146,0.1680875427400511,4.0,1.0
15.004610061645508,-2.615833282470703,0.2302440404891967,-0.0,-0.0,-1.0,0.2877597099041342,1.0,1.0
12.830474853515623,-1.9121665954589844,0.14404296875,-0.0,-0.0,-1.0,0.1001454029508711,1.0,1.0
13.15867042541504,-1.9258365631103516,0.1629208326339721,-0.0,-0.0,-1.0,0.0823384167275924,1.0,1.0
12.82064151763916,-4.302585601806641,0.6706284284591675,-0.1209150289901075,-0.718069948504873,-0.6853868286001202,0.1319906624047651,3.0,1.0
13.692697525024414,-4.227962493896484,0.6973589062690735,-0.0,-0.0,-1.0,0.188423354259608,2.0,1.0
13.716893196105955,-3.1947317123413086,0.7158602476119995,-0.0,-0.0,-1.0,0.1547384624456795,1.0,1.0
14.281574249267578,-3.269399642944336,0.7310872673988342,-0.3473016719589228,-0.4348316842216567,-0.830844723791091,0.1461506234322668,3.0,1.0
15.05814266204834,-3.099649429321289,0.7551005482673645,-0.5973245134244572,0.8002914466458877,-0.0523165947636842,0.1559577026448919,3.0,1.0
15.186686515808104,-2.499079704284668,0.0898960828781127,-0.0,-0.0,-1.0,0.0672734237255086,2.0,1.0
14.913052558898926,-1.9433908462524416,0.0868481397628784,-0.0,-0.0,-1.0,0.0674816069821966,2.0,1.0
15.012805938720703,-2.1285152435302734,0.0888036489486694,-0.0,-0.0,-1.0,0.0716350551993424,1.0,1.0
13.73604679107666,-4.200031280517578,0.5452125072479248,-0.0,-0.0,-1.0,0.1649584453427076,2.0,1.0
13.201417922973633,-3.981808662414551,0.5154445767402649,-0.0,-0.0,-1.0,0.1462743644839329,1.0,1.0
14.388166427612305,-3.9424524307250977,0.5839368104934692,0.2778976048540135,-0.2562066226664661,-0.9258137435349758,0.1153327609253297,3.0,1.0
13.930676460266112,-3.559842109680176,0.5606557726860046,0.9747814290651478,-0.2005255203097469,-0.0979320236399378,0.1440749557396848,3.0,1.0
13.544703483581545,-3.2738046646118164,0.5394319891929626,-0.0837869835894554,-0.6829116126672927,-0.7256800056947538,0.1563897456497456,5.0,1.0
13.921866416931152,-3.1953725814819336,0.5622765421867371,-0.0,-0.0,-1.0,0.2582035779037145,2.0,1.0
14.87922191619873,-3.0905027389526367,0.618114709854126,0.1798996309432122,0.9739809742608052,-0.137830274484486,0.1411110668355497,5.0,1.0
13.4812650680542,-2.6313724517822266,0.5381003618240356,-0.0308926034847903,-0.9944398719733236,-0.1006726779201344,0.2150474646605861,5.0,1.0
13.271904945373535,-3.1734018325805664,1.132521629333496,-0.0,-0.0,-1.0,0.1170879656487771,1.0,2.0
14.00205898284912,-2.9613780975341797,1.1552016735076904,-0.0,-0.0,-1.0,0.0888197582741618,1.0,2.0
13.779356956481934,-2.599247932434082,0.0679447650909423,-0.0,-0.0,-1.0,0.0947821813228869,1.0,1.0
14.889093399047852,-2.7001733779907227,0.1522908210754394,0.4626246569816227,-0.6870202430231808,-0.5603406217908941,0.1538133620892412,3.0,1.0
15.142117500305176,-2.7986526489257812,0.1688166856765747,-0.6514348077441178,-0.7136521393096429,0.2575525486539678,0.0925785260107348,5.0,1.0
13.582329750061035,-2.330416679382324,0.0569193363189697,-0.0,-0.0,-1.0,0.166522511138326,2.0,1.0
13.949746131896973,-2.2993383407592773,0.0873525142669677,-0.0,-0.0,-1.0,0.0861673898797591,1.0,1.0
14.499704360961914,-2.3107900619506836,0.1309225559234619,-0.4442085214183145,0.8762008427610601,-0.1869515248511288,0.0515948319154802,3.0,1.0
14.779871940612791,-2.489225387573242,0.1487627029418945,-0.0,-0.0,-1.0,0.1405625946946948,2.0,1.0
13.636539459228516,-1.903738021850586,0.0686029195785522,-0.0,-0.0,-1.0,0.041963253611144,1.0,1.0
13.972756385803224,-2.147726058959961,0.092031717300415,-0.0,-0.0,-1.0,0.0907167635534675,2.0,1.0
14.368637084960938,-2.1981773376464844,0.1228615045547485,-0.0,-0.0,-1.0,0.0623360313610962,1.0,1.0
14.004040718078612,-3.377683639526367,0.6941630244255066,-0.0,-0.0,-1.0,0.2469005838125906,1.0,1.0
13.356857299804688,-3.255624771118164,0.6586396098136902,-0.0,-0.0,-1.0,0.1782483183140943,1.0,1.0
13.688992500305176,-3.1742677688598633,0.6764265894889832,-0.0,-0.0,-1.0,0.2007345661055724,2.0,1.0
14.31810188293457,-3.259002685546875,0.7103769779205322,-0.0,-0.0,-1.0,0.1667880205216251,2.0,1.0
13.501751899719238,-2.664968490600586,0.6633321046829224,-0.0,-0.0,-1.0,0.1375558329224614,2.0,1.0
14.48069667816162,-2.5023193359375,0.7164021730422974,-0.0,-0.0,-1.0,0.0754724533350865,1.0,1.0
13.234336853027344,-3.065415382385254,1.284792423248291,0.1299240091014438,-0.7637871389332179,-0.6322570349622193,0.1080967640750489,3.0,2.0
15.127321243286133,-4.2411041259765625,0.3577560186386108,-0.0,-0.0,-1.0,0.2556892686510385,1.0,1.0
15.120279312133787,-3.862844467163086,0.3323664665222168,-0.0,-0.0,-1.0,0.2194990756120702,1.0,1.0
15.116533279418944,-2.5345945358276367,0.2458639144897461,-0.0,-0.0,-1.0,0.0888210681691221,1.0,1.0
15.109288215637209,-2.268634796142578,0.2274478673934936,-0.0,-0.0,-1.0,0.1454483171690421,1.0,1.0
15.105820655822754,-1.8882360458374023,0.2020934820175171,-0.0,-0.0,-1.0,0.0908330721210282,1.0,1.0
13.242992401123049,-4.181772232055664,0.7628834247589111,-0.0,-0.0,-1.0,0.1475476140450344,1.0,1.0
13.279984474182127,-3.7648143768310542,0.7300154566764832,-0.0,-0.0,-1.0,0.2352256014073059,1.0,1.0
13.388663291931152,-3.2957592010498047,0.7016168832778931,-0.0,-0.0,-1.0,0.2414176908729837,2.0,1.0
13.905510902404783,-3.237645149230957,0.7619118094444275,-0.0,-0.0,-1.0,0.1803599506568757,2.0,1.0
14.288895606994627,-3.25613784790039,0.8122611045837402,-0.9860518175068153,-0.1593705432911678,0.0479879476804836,0.1450941154755831,3.0,1.0
13.179971694946287,-2.960188865661621,0.6451128125190735,-0.0,-0.0,-1.0,0.0758085054332383,1.0,1.0
13.522876739501951,-2.730870246887207,0.667925238609314,-0.0,-0.0,-1.0,0.1889414861059729,1.0,1.0
14.847369194030762,-3.073348045349121,0.8667736053466797,-0.0,-0.0,-1.0,0.1652064225232082,1.0,1.0
12.751723289489746,-2.3093366622924805,0.5329774618148804,-0.0,-0.0,-1.0,0.1360811143568309,1.0,1.0
14.451177597045898,-2.528911590576172,0.7673360109329224,-0.0,-0.0,-1.0,0.0948408928570486,1.0,1.0
15.20725917816162,-2.1567344665527344,0.0279927253723144,-0.0,-0.0,-1.0,0.0453146331709323,1.0,1.0
13.64659595489502,-4.149608612060547,0.5649117231369019,-0.0,-0.0,-1.0,0.0906391937866283,2.0,1.0
14.926311492919922,-3.09713077545166,0.6240264773368835,0.1733987931675598,0.9846669476866348,-0.0190751320184172,0.1902660163677257,4.0,1.0
14.566402435302734,-2.018984794616699,0.0917389392852783,-0.0,-0.0,-1.0,0.0579714689567316,2.0,1.0
14.73171615600586,-2.179283142089844,0.0941795110702514,-0.0,-0.0,-1.0,0.0696782188141542,1.0,1.0
15.120153427124023,-2.428312301635742,0.1030161380767822,-0.0,-0.0,-1.0,0.0767300649488013,2.0,1.0
13.333730697631836,-3.0380868911743164,0.7134934663772583,-0.0,-0.0,-1.0,0.085587374989802,1.0,1.0
13.68206024169922,-3.2776565551757812,0.7173930406570435,-0.0,-0.0,-1.0,0.1579021771595652,1.0,1.0
14.20602798461914,-3.410557746887207,0.7255757451057434,-0.0,-0.0,-1.0,0.1415055290790161,1.0,1.0
15.107294082641602,-2.007023811340332,0.0506737232208251,-0.8536028628314445,-0.0381830153616461,-0.5195230600308851,0.0802593631584965,6.0,1.0
15.160104751586914,-2.264174461364746,0.0454949140548706,-0.0,-0.0,-1.0,0.113120912743664,1.0,1.0
15.09701156616211,-3.168424606323242,0.8978700637817383,-0.0,-0.0,-1.0,0.1425470391105555,1.0,1.0
13.657943725585938,-3.3145484924316406,0.6788075566291809,-0.0,-0.0,-1.0,0.1846922492781603,1.0,1.0
14.847532272338867,-3.1396780014038086,0.7036880850791931,-0.0421452799449466,0.7092498461335458,-0.7036962634105027,0.1954394182989999,3.0,1.0
12.75470733642578,-2.1287198066711426,0.1854249238967895,-0.0,-0.0,-1.0,0.0341803204595132,1.0,1.0
13.053522109985352,-2.9086642265319824,0.1669726371765136,-0.0,-0.0,-1.0,0.152749393858598,1.0,1.0
13.093109130859377,-2.1930699348449707,0.1942307949066162,-0.0,-0.0,-1.0,0.0686048625039216,2.0,1.0
13.12725830078125,-2.4250283241271973,0.1870464086532592,-0.3327965081946475,-0.1295536076530837,-0.9340569291416456,0.1379538306123337,5.0,1.0
13.095918655395508,-2.7350106239318848,0.1747575998306274,-0.0,-0.0,-1.0,0.0522518895090342,1.0,1.0
13.551658630371094,-2.7991604804992676,0.1868566274642944,0.8054064191796798,0.5376928799958545,-0.2494130444582432,0.1938212676558361,3.0,1.0
13.810644149780272,-3.985447406768799,0.1481090784072876,0.0297755449655268,-0.0859686686789713,-0.9958528028416508,0.0587312123099264,3.0,1.0
13.84829330444336,-4.174008846282959,0.1414284706115722,0.6753209302052421,0.5950085400991649,0.435782604558496,0.0655727185212946,3.0,1.0
14.09658432006836,-2.66101598739624,0.2092700004577636,-0.0,-0.0,-1.0,0.1556680521315706,1.0,1.0
14.073688507080078,-3.354945659637451,0.1816219091415405,-0.0,-0.0,-1.0,0.1610178205300263,2.0,1.0
14.63200569152832,-2.5755200386047363,0.229345440864563,-0.8021188023593215,-0.4040368099975929,-0.4397268277790391,0.1808658191177691,6.0,1.0
14.602346420288086,-2.8256630897521973,0.2187539339065551,-0.0,-0.0,-1.0,0.1232912921982614,1.0,1.0
14.877237319946287,-2.89061975479126,0.2246636152267456,-0.0,-0.0,-1.0,0.1095630460656195,2.0,1.0
14.99666976928711,-3.2225871086120605,0.215065598487854,-0.0,-0.0,-1.0,0.1730941155610885,1.0,1.0
13.286539077758787,-4.139720439910889,0.307497501373291,-0.0,-0.0,-1.0,0.1307747031205847,2.0,1.0
13.37517547607422,-3.606698513031006,0.3286542892456054,-0.0,-0.0,-1.0,0.2410549022024282,1.0,1.0
13.362262725830078,-4.006643772125244,0.3141146898269653,-0.0,-0.0,-1.0,0.1933982270977873,2.0,1.0
13.83445930480957,-3.2686924934387207,0.3515515327453613,-0.0,-0.0,-1.0,0.2148500068681152,2.0,1.0
14.033750534057615,-2.7629895210266113,0.3736271858215332,-0.0,-0.0,-1.0,0.2105599330073965,2.0,1.0
14.521934509277344,-2.348254680633545,0.3994878530502319,-0.0,-0.0,-1.0,0.1220744572445807,1.0,1.0
14.856990814208984,-3.656892299652099,0.3620507717132568,0.3401649133180162,0.8788265097800901,-0.3345919865374717,0.1131815886664108,4.0,1.0
13.128398895263672,-2.9303832054138184,1.268071174621582,-0.0,-0.0,-1.0,0.1438674130373182,1.0,2.0
12.898136138916016,-2.299637794494629,0.2363450527191162,-0.0,-0.0,-1.0,0.0609038181467863,2.0,1.0
13.014875411987305,-2.571615695953369,0.2324789762496948,-0.5889182732858492,-0.2327103222310562,-0.7739645814358248,0.1207344719036137,3.0,1.0
12.937917709350586,-2.9665303230285645,0.2184720039367675,-0.0,-0.0,-1.0,0.2101978114429515,1.0,1.0
12.97006607055664,-3.291386127471924,0.2097158432006836,-0.0,-0.0,-1.0,0.125830290849688,1.0,1.0
13.503475189208984,-2.7305169105529785,0.2436513900756836,-0.0,-0.0,-1.0,0.145026247123719,1.0,1.0
13.640602111816406,-3.8324475288391113,0.2134864330291748,-0.0,-0.0,-1.0,0.0715541169558601,1.0,1.0
13.707422256469728,-4.0012898445129395,0.2099224328994751,-0.0,-0.0,-1.0,0.0835174900660435,1.0,1.0
13.642139434814451,-2.3093929290771484,0.2603392601013183,-0.0,-0.0,-1.0,0.1541871847432234,2.0,1.0
13.89842414855957,-2.875730037689209,0.2519268989562988,-0.0,-0.0,-1.0,0.2288710508552617,1.0,1.0
13.846466064453123,-3.276458263397217,0.2378604412078857,-0.9475386281206076,0.3046986792505911,-0.0965881104601516,0.1802580631234549,3.0,1.0
13.888933181762695,-4.217282772064209,0.2081189155578613,-0.0,-0.0,-1.0,0.0506186266572548,2.0,1.0
14.227964401245115,-4.082479000091553,0.2230360507965088,-0.0,-0.0,-1.0,0.1341651828092284,1.0,1.0
14.577951431274414,-2.465417861938477,0.2859894037246704,0.732417598864623,-0.5056180988151914,-0.4559767527230867,0.2533035414477753,3.0,1.0
14.75399398803711,-3.318877696990967,0.2648301124572754,-0.0,-0.0,-1.0,0.1213352240584999,2.0,1.0
14.942228317260742,-2.0610451698303223,0.0765966176986694,-0.9093341386884342,0.1516443918540618,0.387447290137607,0.0469422583172511,3.0,1.0
12.734352111816406,-2.1531453132629395,0.2499282360076904,-0.0,-0.0,-1.0,0.0629471615642847,2.0,1.0
13.016098022460938,-2.637442111968994,0.2582186460494995,-0.0,-0.0,-1.0,0.1054117090981428,1.0,1.0
12.84941291809082,-2.9773850440979004,0.2494782209396362,-0.0,-0.0,-1.0,0.155286937206393,1.0,1.0
12.915843963623049,-3.2278389930725098,0.2501035928726196,-0.0,-0.0,-1.0,0.1798321751820782,2.0,1.0
13.049894332885742,-2.4427337646484375,0.2607007026672363,-0.0,-0.0,-1.0,0.2466979700928047,1.0,1.0
13.548423767089844,-3.81532621383667,0.2685483694076538,-0.0,-0.0,-1.0,0.1536266900129847,1.0,1.0
13.591373443603516,-3.9443650245666504,0.2687783241271972,-0.0,-0.0,-1.0,0.0965274528217537,1.0,1.0
13.827211380004885,-3.3198676109313965,0.2839138507843017,0.042254860699733,-0.5341456469812363,-0.8443358067488564,0.2221071729216477,4.0,1.0
13.781545639038086,-3.610013008117676,0.2794070243835449,-0.0,-0.0,-1.0,0.1801866147065306,1.0,1.0
14.262046813964844,-3.0236263275146484,0.3030227422714233,-0.0,-0.0,-1.0,0.0987567604382738,1.0,1.0
14.366621017456056,-3.950149536132813,0.2975788116455078,-0.0,-0.0,-1.0,0.1843116943955574,1.0,1.0
14.491945266723633,-2.523524284362793,0.3157171010971069,-0.9173014732266812,-0.3066168965769393,0.2540552812867435,0.2135307655446325,3.0,1.0
14.721887588500977,-3.260777473449707,0.3182481527328491,-0.0,-0.0,-1.0,0.1225719970557879,1.0,1.0
14.854097366333008,-3.6706700325012207,0.3189074993133545,-0.949595099873326,0.2932637741297424,0.1107497407660497,0.1151913416402209,5.0,1.0
13.691844940185549,-3.114032745361328,1.178247570991516,-0.0,-0.0,-1.0,0.1670949298342221,2.0,2.0
14.894163131713867,-1.9124903678894043,0.0849262475967407,-0.8111548689576753,-0.4746037731473337,0.3417294793847474,0.0561095214725041,3.0,1.0
15.00051498413086,-2.3213682174682617,0.0911341905593872,-0.6711686064644937,0.1125409053583922,-0.7327122534239641,0.0837006263985942,5.0,1.0
14.70125961303711,-4.293438911437988,0.9454047679901124,-0.4306745860832852,-0.7219686553030451,-0.5415539323667623,0.2068011801949717,4.0,1.0
12.790311813354492,-2.522585391998291,0.2632155418395996,-0.0,-0.0,-1.0,0.1479534145611835,1.0,1.0
