x,y,z,nx,ny,nz,curvature,density
17.815227508544922,3.5692873001098633,0.0408289432525634,-0.7670364424900558,-0.4660255465026395,-0.4409935213799804,0.1715349836852368,3.0
18.45690536499023,1.889789581298828,0.6049245595932007,-0.0,-0.0,-1.0,0.0689728185566743,1.0
19.29022979736328,1.9547595977783203,-0.4664487838745117,-0.0,-0.0,-1.0,0.0778417430052267,2.0
19.57912254333496,1.7830572128295898,-0.451370358467102,0.0690781556816265,0.241822946417107,-0.9678583940813728,0.047417565039277,4.0
18.874229431152344,2.272878646850586,-0.4846806526184082,-0.0,-0.0,-1.0,0.0871630830020395,2.0
19.095001220703125,2.1091232299804688,-0.4735052585601806,-0.0,-0.0,-1.0,0.1034435325505248,2.0
18.249969482421875,2.874476909637451,-0.5107957124710083,-0.0,-0.0,-1.0,0.0735105453690177,1.0
18.54794692993164,2.8414463996887207,-0.4677673578262329,0.5669512878426411,0.2763842639668554,0.7760012730950064,0.1528629841880206,4.0
18.766054153442383,2.6469922065734863,-0.4565056562423706,0.405093339976769,-0.9142615295292909,0.0050240948664745,0.1932669936594536,3.0
18.22746467590332,2.945441246032715,-0.5068663358688354,-0.0,-0.0,-1.0,0.0783046988990101,1.0
18.483287811279297,2.9141440391540527,-0.4697555303573608,-0.0,-0.0,-1.0,0.1474227725074151,2.0
18.285459518432617,3.4924445152282715,-0.4413322210311889,-0.0,-0.0,-1.0,0.1039516118530917,1.0
19.39483642578125,3.4467687606811523,-0.5769579410552979,-0.4901214775951117,-0.4442499625308101,-0.7499486035665097,0.0115409216872198,4.0
19.613374710083008,3.235299587249756,-0.5705289840698242,-0.0,-0.0,-1.0,0.0287815228317529,1.0
18.672712326049805,2.89310359954834,-0.1087384223937988,0.4287238371698256,0.8894995538107137,-0.1580709183022674,0.1167940586190098,4.0
18.76964569091797,2.6383042335510254,-0.1182906627655029,0.3155637825769243,-0.5331423889025686,-0.7849705040834372,0.2218996386793612,6.0
18.314598083496097,3.480902671813965,-0.1101748943328857,-0.4369432170382304,0.8542234012379691,-0.2817498994883897,0.2252172419653129,3.0
18.448707580566406,1.7514219284057615,0.4937796592712402,-0.0,-0.0,-1.0,0.1224840482007843,2.0
18.420276641845703,3.343327522277832,0.2188315391540527,-0.0,-0.0,-1.0,0.1168108192784542,1.0
18.430965423583984,3.511316299438477,0.2286608219146728,-0.0,-0.0,-1.0,0.1538724296973144,1.0
17.946533203125,1.7846698760986328,-0.3175480365753174,-0.0,-0.0,-1.0,0.240834538149025,1.0
18.25611114501953,1.8827061653137207,-0.270470380783081,-0.0,-0.0,-1.0,0.1161189512959185,2.0
19.361284255981445,1.9655838012695312,-0.4952845573425293,-0.0,-0.0,-1.0,0.0525776611260155,2.0
19.607690811157227,1.8281230926513672,-0.4760545492172241,-0.0,-0.0,-1.0,0.051190442337362,1.0
18.96230697631836,2.336704730987549,-0.5156868696212769,-0.369015495458959,-0.6597010907841218,-0.6546923208114008,0.106608050917058,5.0
19.199264526367188,2.1740875244140625,-0.4968920946121216,-0.0,-0.0,-1.0,0.0901810569162398,2.0
18.705909729003903,2.799802780151367,-0.5116105079650879,-0.5928911177889514,-0.7427464452239999,-0.3111395837145762,0.2089771741125033,3.0
18.860258102416992,2.634169101715088,-0.5026757717132568,-0.0,-0.0,-1.0,0.1432244743934262,1.0
19.55862045288086,2.4890031814575195,-0.4117779731750488,-0.0,-0.0,-1.0,0.1412896200189626,2.0
18.520002365112305,3.042107582092285,-0.5204659700393677,0.282846766923527,0.5533561883289254,-0.7834504676614793,0.1434729213903044,3.0
18.87896156311035,3.1802268028259277,-0.4497835636138916,-0.0,-0.0,-1.0,0.1504336191795126,1.0
18.75096893310547,2.649574279785156,-0.1529823541641235,0.3553008821167435,-0.7760124040947163,-0.5211199783717784,0.1831178272657649,4.0
18.478384017944336,1.7881488800048828,0.5288284420967102,-0.0,-0.0,-1.0,0.127939711461063,2.0
18.788986206054688,2.715416431427002,0.2155680656433105,-0.0,-0.0,-1.0,0.1134997865225772,1.0
18.49457550048828,1.8082761764526367,-0.3577700853347778,-0.8635100091672037,0.35134720160869,-0.3618088003211067,0.127558250166371,3.0
18.801008224487305,1.661712646484375,-0.2924946546554565,-0.0,-0.0,-1.0,0.1100260576294306,1.0
18.41501235961914,2.0371127128601074,-0.3784899711608886,-0.0,-0.0,-1.0,0.2905277775238131,1.0
18.653884887695312,2.61114501953125,-0.3404620885848999,0.7308547399518655,-0.316706465383248,0.6046059575246847,0.2128254230451046,7.0
18.73302459716797,2.5529069900512695,-0.3227843046188354,-0.2298729200326702,-0.6112248660444644,0.7573391603268511,0.2567287940217871,8.0
17.840085983276367,1.6415376663208008,-0.0495729446411132,-0.0,-0.0,-1.0,0.0985201163358382,1.0
18.794031143188477,2.62047815322876,0.0800141096115112,-0.0,-0.0,-1.0,0.172614444093843,2.0
19.365612030029297,1.6847991943359375,-0.4194586277008056,-0.0,-0.0,-1.0,0.063594703529962,2.0
19.151344299316406,1.8252601623535156,-0.4335966110229492,0.2708189131369051,0.4422937779950751,-0.8550048714681039,0.0332917084089111,4.0
19.19662857055664,1.8102912902832031,-0.4293580055236816,0.2355914133091131,0.4721923934192785,-0.8494298261610479,0.0354120482900853,3.0
18.88023376464844,2.3576903343200684,-0.4872746467590332,-0.0,-0.0,-1.0,0.1147954240328647,2.0
19.18012428283691,2.0398688316345215,-0.472264289855957,-0.0,-0.0,-1.0,0.1709679471961528,2.0
19.35197639465332,1.8577804565429688,-0.4639625549316406,-0.0,-0.0,-1.0,0.0576969937542699,2.0
18.43052673339844,2.9163732528686523,-0.5087625980377197,-0.0,-0.0,-1.0,0.0593532872913638,2.0
18.732940673828125,2.767965793609619,-0.4871186017990112,-0.0,-0.0,-1.0,0.1920224563372053,2.0
18.841867446899418,2.5588865280151367,-0.4841728210449219,0.2963019596321565,-0.8675384947922986,-0.3994772944381907,0.1480290533120304,4.0
18.57774353027344,3.350581169128418,-0.4837113618850708,-0.0,-0.0,-1.0,0.1146566387075198,1.0
18.334274291992188,3.208772659301758,0.1799318790435791,-0.0,-0.0,-1.0,0.1970566371534076,1.0
18.325435638427734,3.631916522979736,0.1866453886032104,-0.0,-0.0,-1.0,0.0737217256474485,1.0
18.44964027404785,3.426609992980957,0.1898571252822876,-0.0,-0.0,-1.0,0.2007636985354855,2.0
18.222543716430664,3.5722641944885254,0.8662706017494202,-0.0,-0.0,-1.0,0.1153133206314779,1.0
17.76220703125,2.7844953536987305,-0.4367638826370239,-0.0,-0.0,-1.0,0.0662751988072544,2.0
17.915800094604492,2.420316219329834,-0.4362721443176269,-0.0,-0.0,-1.0,0.0838363190566648,2.0
18.23145866394043,2.078547954559326,-0.4232383966445923,0.5876693572983718,0.1049005733318219,-0.8022721459749015,0.1033197812491249,4.0
18.432601928710938,1.8310670852661133,-0.4163922071456909,-0.9414084102661472,-0.0972431882475285,-0.3229457654461835,0.1358111798015278,4.0
18.741436004638672,1.663374900817871,-0.3988575935363769,0.7966900397342928,-0.4623975322891927,-0.3891959695590844,0.0945475928255132,4.0
17.94737434387207,2.651674270629883,-0.4264912605285644,-0.0,-0.0,-1.0,0.0567937056295284,2.0
18.26631736755371,3.1849923133850098,-0.3855388164520263,-0.0,-0.0,-1.0,0.2418586958997895,2.0
18.71895408630371,2.5664048194885254,-0.3696130514144897,0.3134445895676734,-0.949503642454316,0.0139757732072005,0.1991300959282906,5.0
18.58440399169922,3.4863433837890625,-0.351947546005249,-0.0,-0.0,-1.0,0.2062571103080689,1.0
18.542028427124023,2.9684243202209473,-0.5461231470108032,0.8724328452947436,0.4883244559444663,0.0200039040554438,0.1398825314459214,4.0
18.73626708984375,3.3323984146118164,-0.5195168256759644,0.4488285945654699,-0.3679633966323936,-0.814343804200128,0.122565245374365,4.0
18.944747924804688,2.95074462890625,-0.5112055540084839,-0.0,-0.0,-1.0,0.1198022896225676,2.0
19.02109718322754,2.6061716079711914,-0.514174222946167,-0.0,-0.0,-1.0,0.0595368957438336,2.0
19.35313415527344,2.291205406188965,-0.4945850372314453,-0.0,-0.0,-1.0,0.1044680807540765,2.0
19.548999786376953,2.0080604553222656,-0.4864113330841064,-0.0,-0.0,-1.0,0.0778147093625772,2.0
18.074172973632812,1.699507713317871,-0.2313367128372192,-0.3072859820872229,-0.1429449421257708,-0.9408198917610908,0.1281899418162723,3.0
18.32631492614746,3.4456045627593994,-0.1559147834777832,-0.4300535677458277,0.2457788247431387,-0.8687040337059373,0.2080052091071439,3.0
18.245758056640625,3.590635061264038,-0.0466624498367309,-0.8063233508112752,0.4560264938077795,-0.3766729229475622,0.1442857063854293,3.0
18.052021026611328,1.7828912734985352,-0.2059676647186279,-0.0,-0.0,-1.0,0.0815592155070405,1.0
18.25901222229004,3.4607253074645996,-0.1595079898834228,-0.2093114481227832,0.9743536137795736,0.0826060106737284,0.1766429505659509,6.0
18.64259910583496,2.681328296661377,-0.1452734470367431,-0.0,-0.0,-1.0,0.2831184802513476,1.0
17.757349014282227,2.800238847732544,-0.4125760793685913,-0.0,-0.0,-1.0,0.0672288271656143,2.0
17.90170669555664,2.3728320598602295,-0.408767819404602,-0.0,-0.0,-1.0,0.0895652610034067,2.0
18.19731330871582,3.6261146068573,-0.3653322458267212,-0.0,-0.0,-1.0,0.1615495345514739,2.0
17.995620727539062,3.196611166000366,-0.3872362375259399,-0.0,-0.0,-1.0,0.2224744670386245,2.0
18.115049362182617,2.216902732849121,-0.3948713541030884,-0.0,-0.0,-1.0,0.1359083251250381,1.0
18.27875709533691,1.989302396774292,-0.3866790533065796,-0.6355153484410085,-0.0351731383710839,-0.7712866472544639,0.179951170265696,6.0
18.361597061157227,1.7507359981536863,-0.3854994773864746,-0.7427309545185051,-0.6611040924430875,0.1062643315277119,0.125695842403739,3.0
18.23902130126953,3.5431013107299805,-0.3630338907241821,-0.0,-0.0,-1.0,0.2035014318335869,2.0
18.24623680114746,3.351803779602051,-0.3649348020553589,-0.7552096210697432,-0.6546278065116669,0.0334792948763586,0.1831477901477218,7.0
18.623836517333984,2.7546186447143555,-0.3440157175064087,0.8017518754423278,0.2024881312842877,0.5623099562640758,0.1469751841192521,5.0
18.683931350708008,2.5548367500305176,-0.3428274393081665,0.4470940333266391,0.3448660678221235,0.8253328544463889,0.2309542061636665,5.0
18.733064651489254,2.6282129287719727,-0.3375380039215088,0.3619658975651859,-0.3591214754158923,-0.8602397659344413,0.2198151723376196,7.0
18.27104759216309,3.40995454788208,-0.2614576816558838,-0.0,-0.0,-1.0,0.1914425474568711,2.0
18.221118927001953,1.7354729175567627,-0.2497363090515136,-0.0,-0.0,-1.0,0.1884374747508009,1.0
18.35511016845703,3.457272529602051,-0.2557498216629028,-0.0,-0.0,-1.0,0.2397641638918188,2.0
18.3454647064209,1.7202616930007937,0.4710206985473633,-0.8953977012830705,-0.4303525541322186,0.114278763070262,0.1356854207954553,7.0
18.48573112487793,3.5519909858703613,-0.5127850770950317,0.7204445956720744,-0.0697604832731275,-0.6899949706631209,0.1342908565236934,3.0
18.41653060913086,3.1361024379730225,-0.5085645914077759,0.8641107876993628,0.309568762168446,0.3968371556080434,0.0912030930322528,3.0
18.464763641357425,2.924239158630371,-0.4995388984680176,0.3166301325403076,-0.8209380106190304,-0.47519063741658,0.1050661363138373,3.0
18.65921974182129,3.333611011505127,-0.4921911954879761,0.4697779086996658,0.1374789652265457,-0.8720139050600091,0.134973539369116,3.0
18.67485809326172,2.810821533203125,-0.4787439107894897,0.739858122674577,0.3203205308813562,0.5916119638820171,0.1863948029811375,3.0
18.78358459472656,2.5628442764282227,-0.464147686958313,0.2577866078973121,-0.8566753819300641,0.4468258662877253,0.1982532158645523,6.0
18.80570411682129,2.147585153579712,-0.454437255859375,-0.0,-0.0,-1.0,0.0831241442322099,2.0
19.14776611328125,1.9093986749649048,-0.4205676317214966,-0.0,-0.0,-1.0,0.0588877722139623,2.0
19.41724967956543,1.7454631328582764,-0.3945249319076538,0.7909665369121284,0.3053340134312218,-0.5302292690216348,0.0690068541862816,4.0
17.852548599243164,1.6765375137329102,-0.2552307844161987,-0.1829596698781659,0.4850933861911987,-0.8551082772793333,0.1424216185599021,3.0
18.110631942749023,3.190606117248535,-0.2448415756225586,-0.0,-0.0,-1.0,0.1472840621037732,1.0
18.150390625,1.7781174182891846,-0.2335609197616577,-0.510348291567257,-0.22127991958192,-0.8310113227172063,0.2293643726535952,10.0
18.22197723388672,3.5432581901550293,-0.2407025098800659,-0.8843898343275606,-0.2258425622888632,-0.4084724690806849,0.1833647095084533,3.0
18.29281997680664,3.317709445953369,-0.2329339981079101,-0.0877813716851947,0.91532592991368,-0.3930303713617087,0.2601302659238294,5.0
18.125926971435547,3.530766725540161,-0.2956744432449341,-0.0,-0.0,-1.0,0.1660826445133474,1.0
18.16983985900879,2.2218289375305176,-0.2649359703063965,-0.0,-0.0,-1.0,0.2001357684970067,1.0
17.9886531829834,1.7240725755691528,-0.2692911624908447,-0.0,-0.0,-1.0,0.1804635700896285,2.0
18.38603973388672,1.8696261644363403,-0.2431689500808715,-0.0,-0.0,-1.0,0.141891609940175,1.0
18.679441452026367,3.032810926437378,-0.2449455261230468,-0.0,-0.0,-1.0,0.1182391931485563,1.0
18.359018325805664,2.0333263874053955,0.4837875366210937,-0.0,-0.0,-1.0,0.1854593237566091,1.0
18.137609481811523,3.606696605682373,-0.3012679815292358,-0.0,-0.0,-1.0,0.1855830245217323,1.0
18.114763259887695,3.1241445541381836,-0.2912797927856445,-0.0,-0.0,-1.0,0.1335559422991183,1.0
18.183765411376953,3.338585376739502,-0.2914146184921264,-0.0,-0.0,-1.0,0.1518353164106358,2.0
18.19605827331543,3.2226009368896484,-0.2877892255783081,-0.0,-0.0,-1.0,0.1811425245914343,2.0
18.161222457885746,1.7480335235595703,-0.259966492652893,-0.7717856852510023,-0.5531613544808239,0.3136229773957598,0.1436061644014009,3.0
18.645923614501953,2.515709161758423,-0.2399361133575439,-0.0,-0.0,-1.0,0.1725992119520167,2.0
17.96226692199707,3.3542044162750244,0.0235089063644409,-0.0,-0.0,-1.0,0.1380350269864078,2.0
18.25697326660156,3.5139973163604736,0.0382789373397827,-0.0,-0.0,-1.0,0.1294389924944043,2.0
18.78131103515625,2.6298444271087646,0.0800734758377075,0.4314228669539579,0.59022935185938,-0.6822782585374411,0.1873919076512535,3.0
18.79732894897461,2.9564428329467773,-0.5173232555389404,-0.0,-0.0,-1.0,0.1102844492115967,2.0
18.9324893951416,2.664693832397461,-0.4986239671707153,-0.0,-0.0,-1.0,0.0955049663939589,1.0
18.906225204467773,2.436439037322998,-0.4956042766571045,-0.0,-0.0,-1.0,0.0800448515072409,2.0
19.186811447143555,2.0231566429138184,-0.4625236988067627,-0.0,-0.0,-1.0,0.1170216736340155,2.0
19.326005935668945,1.923476219177246,-0.4484522342681885,0.671282036172186,-0.694713249665857,-0.2583678165933759,0.100368236115223,3.0
18.69339942932129,2.7069859504699707,0.1851791143417358,0.5246023029136759,0.7994135461587636,-0.2927975512116492,0.1041922124818301,4.0
18.283178329467773,3.3542370796203613,-0.1434248685836792,0.6682644876397635,0.4881249665453843,-0.5613880935632964,0.1938535177443962,4.0
18.05881118774414,3.241140842437744,-0.1549848318099975,-0.0,-0.0,-1.0,0.1044137788939428,2.0
18.21611785888672,3.4322657585144043,-0.4201068878173828,-0.0,-0.0,-1.0,0.1233362736132174,2.0
18.32110595703125,3.270455837249756,-0.4075697660446167,-0.0,-0.0,-1.0,0.2565980761022377,1.0
18.03507423400879,3.1412549018859863,-0.4271355867385864,-0.0,-0.0,-1.0,0.1677778749785619,1.0
18.67265892028809,2.756108283996582,-0.3669055700302124,-0.0653717158609483,0.1415421907699742,-0.987771404221357,0.1992640783361995,3.0
17.846424102783203,2.4240589141845703,-0.4258347749710083,-0.0,-0.0,-1.0,0.1078733086981891,2.0
18.083362579345703,2.056206703186035,-0.3990287780761719,-0.7926524951433394,0.4947868158642223,-0.356213459585657,0.0702370242903754,3.0
18.28624153137207,3.422212600708008,-0.3592469692230224,-0.0,-0.0,-1.0,0.2139692126555587,2.0
18.059947967529297,3.206294536590576,-0.369508147239685,-0.0,-0.0,-1.0,0.1935479316027315,1.0
17.99376678466797,3.1545934677124023,-0.3729162216186523,-0.0,-0.0,-1.0,0.1766001621652066,2.0
18.773284912109375,2.606019973754883,-0.2984031438827514,0.6522484964890147,-0.3509819286151914,-0.6718508648601865,0.2178904682089454,9.0
17.76647186279297,2.417123794555664,-0.369303822517395,-0.0,-0.0,-1.0,0.111524021230018,2.0
17.757923126220703,2.2755861282348633,-0.3662322759628296,0.6169293442787075,-0.4249265650023427,-0.6624466759846819,0.0565602191079288,4.0
18.221405029296875,1.93103551864624,-0.3221300840377807,-0.0,-0.0,-1.0,0.1356109781275037,1.0
18.203792572021484,3.4624130725860596,-0.0921642780303955,0.0350223129660101,0.1600908493300948,-0.9864807943164832,0.2486909892482873,4.0
18.39337921142578,1.9212501049041748,0.6159016489982605,-0.0,-0.0,-1.0,0.120893442559383,2.0
19.086755752563477,3.534475088119507,-0.5785129070281982,-0.8182417308211574,0.5616718812922369,0.1224955824037586,0.028930432554727,3.0
19.067935943603516,3.2999107837677,-0.5792810916900635,-0.0,-0.0,-1.0,0.0212068847414889,1.0
18.953413009643555,3.41545033454895,-0.5921159982681274,-0.8510528351175077,0.165484962148205,0.4983209800332106,0.0440342111971648,3.0
19.113201141357425,3.1787970066070557,-0.5738744735717773,-0.0,-0.0,-1.0,0.0343394088759973,1.0
19.444433212280273,2.6184170246124268,-0.5362691879272461,-0.0,-0.0,-1.0,0.174669966382532,2.0
19.376100540161133,2.511537790298462,-0.5434185266494751,-0.0,-0.0,-1.0,0.072377437359519,1.0
18.212053298950195,3.625660181045532,0.0037504434585571,0.4098965804627142,0.9005328718968032,0.1450011722651555,0.2183304660460383,6.0
18.86359405517578,2.8846595287323,0.0459094047546386,-0.0,-0.0,-1.0,0.2052626237164404,1.0
18.195009231567383,3.4772636890411377,-0.1426327228546142,-0.0,-0.0,-1.0,0.1622583276545167,2.0
17.849821090698242,3.364790678024292,-0.174131155014038,-0.0,-0.0,-1.0,0.1916542225372234,1.0
18.785478591918945,2.735793352127075,-0.1041814088821411,-0.0,-0.0,-1.0,0.2124417174649061,2.0
18.170673370361328,1.794740915298462,-0.177152395248413,-0.0,-0.0,-1.0,0.1854041335057214,2.0
17.871837615966797,1.748309850692749,-0.2046383619308471,-0.0,-0.0,-1.0,0.171512753976222,2.0
18.19534492492676,3.5552496910095215,-0.4174360036849975,0.7721887922569949,0.5323873399163447,-0.346825877652579,0.1580999932788524,3.0
18.047014236450195,3.3000192642211914,-0.4264636039733886,-0.0,-0.0,-1.0,0.1832212841079121,1.0
18.15247917175293,3.2534518241882324,-0.4159166812896728,-0.0,-0.0,-1.0,0.2477972892112638,2.0
17.86402130126953,2.7091121673583984,-0.4339334964752197,-0.0,-0.0,-1.0,0.0384341116277942,1.0
18.641935348510746,2.7718825340270996,-0.3626118898391723,-0.2201505557961808,-0.6847619278455299,-0.6947192490178362,0.1471230514709097,4.0
18.20220184326172,2.168182373046875,-0.3947905302047729,0.2364460947752494,0.6847140977401129,-0.6893909258334322,0.1317903008077824,3.0
18.68222999572754,2.7806296348571777,0.2672505378723144,0.7438953928150616,0.3394931326204958,-0.5756422999155364,0.1720850630058793,5.0
18.86551856994629,3.2412118911743164,-0.5137786865234375,-0.0,-0.0,-1.0,0.1440755626958142,1.0
18.69798469543457,3.322686195373535,-0.5328418016433716,0.3760023816636258,-0.7652919492033204,-0.5224465919765034,0.1447892333483446,3.0
18.765819549560547,2.645585060119629,-0.5092785358428955,-0.0,-0.0,-1.0,0.1776835862908984,2.0
18.810791015625,2.4120655059814453,-0.4993987083435058,-0.0705067890950127,-0.9947379192926246,-0.0743321236942106,0.0993743428079498,4.0
19.433565139770508,1.827174186706543,-0.4226937294006347,-0.0,-0.0,-1.0,0.0946040706260161,2.0
17.903623580932617,3.4987854957580566,0.0231143236160278,-0.1168015519859458,-0.9923015173928584,-0.0411715439776698,0.0842549532686928,3.0
18.21675682067871,3.55545711517334,0.0443768501281738,0.8766429759240262,0.4809343678441635,0.0141147649431994,0.1169367496155545,3.0
18.649085998535156,3.410567283630371,-0.5027327537536621,-0.0,-0.0,-1.0,0.1126567633446137,2.0
18.40876007080078,3.230335235595703,-0.5194908380508423,0.1503333260492898,-0.7627746635334697,0.6289472980706412,0.0934936821768832,3.0
18.663528442382812,2.8403244018554688,-0.4805492162704468,0.8041499555079725,0.3386998459621383,0.4884928488747298,0.2317120520002881,3.0
18.339561462402344,2.38538122177124,-0.4984704256057739,-0.0,-0.0,-1.0,0.0477627408022804,1.0
17.99690055847168,3.569795608520508,0.0510405302047729,-0.3477559992907386,-0.7163639799433087,-0.604887107811931,0.118354222534928,3.0
17.863950729370117,3.5026121139526367,0.0434364080429077,0.1858408377377999,-0.9090062721993464,-0.3730560013337949,0.0605869066420015,5.0
18.373462677001953,1.6693496704101562,0.1060285568237304,-0.0,-0.0,-1.0,0.0298831868091066,1.0
18.271249771118164,3.3390278816223145,-0.4297444820404053,-0.6716286212308958,-0.6110196583467667,-0.4190107066141466,0.1656541515067079,6.0
18.172826766967773,3.189119815826416,-0.4067956209182739,-0.0,-0.0,-1.0,0.1551305163312555,2.0
17.753280639648438,2.4181056022644043,-0.2916100025177002,-0.0,-0.0,-1.0,0.111524021230018,2.0
18.72513961791992,2.586052417755127,-0.2982374429702759,0.7550840932643805,0.0395937277334282,0.6544313171168379,0.2002507967789136,10.0
17.838836669921875,1.7174334526062012,-0.1814682483673095,-0.975496409758165,0.0790424974975478,0.2053266620248819,0.1575809936056476,4.0
18.162273406982425,1.7706751823425293,-0.1817175149917602,-0.0,-0.0,-1.0,0.2132204894149103,2.0
18.22236061096191,3.5318422317504883,-0.3932181596755981,0.7716246108824167,0.3246304089028069,-0.5470014236692211,0.1574649878845771,3.0
18.248615264892575,3.33644962310791,-0.3917300701141357,0.756994445993729,-0.6533235647545004,0.0113017021337288,0.1879528662463135,8.0
17.83235740661621,3.002314567565918,-0.4459376335144043,-0.0,-0.0,-1.0,0.1205648454263798,1.0
18.2191162109375,3.1794137954711914,-0.3967632055282593,0.2251159635570425,0.1479340431359067,-0.9630359919718724,0.2375356356554927,4.0
17.9266414642334,2.8039493560791016,-0.4366010427474975,-0.0,-0.0,-1.0,0.0597412146632173,1.0
18.68794822692871,2.672327995300293,-0.3445504903793335,0.5682782023244616,0.056723073453088,0.8208790274461361,0.2629617837831517,5.0
18.695316314697266,2.532796859741211,-0.3451226949691772,0.1999635577714019,-0.9674712989169976,-0.1549640646577813,0.2046393056901453,5.0
18.07327461242676,3.4749956130981445,-0.0154544115066528,-0.0,-0.0,-1.0,0.1297267131834809,1.0
19.628089904785156,2.7721500396728516,-0.4501532316207886,-0.0,-0.0,-1.0,0.1616813827558926,1.0
19.46358108520508,2.6707754135131836,-0.439268946647644,-0.0,-0.0,-1.0,0.1474412445623796,1.0
19.558496475219727,2.6670494079589844,-0.4357098340988159,-0.0,-0.0,-1.0,0.195168412323019,1.0
19.212554931640625,2.279789924621582,-0.3879026174545288,-0.0,-0.0,-1.0,0.1619011218873318,1.0
19.499759674072266,1.8952140808105469,-0.3200609683990478,-0.0,-0.0,-1.0,0.0822768572694069,1.0
18.240333557128903,3.5237503051757812,-0.0211315155029296,0.8063614658343344,0.3165978601261749,0.4995467759690081,0.1534672172934721,3.0
18.766048431396484,2.8664474487304688,0.0684494972229003,-0.0,-0.0,-1.0,0.1544914261092037,1.0
18.74541282653809,2.81131649017334,0.0755379199981689,-0.0,-0.0,-1.0,0.2630354813983562,1.0
18.387554168701172,1.7652034759521484,0.2027417421340942,-0.0,-0.0,-1.0,0.0609346765486521,1.0
18.17236328125,1.649857521057129,0.2132611274719238,-0.0,-0.0,-1.0,0.0155618960186225,1.0
18.372657775878903,2.031044006347656,0.7222130298614502,-0.0,-0.0,-1.0,0.1299316311041667,2.0
19.693660736083984,3.4290852546691895,-0.8400250673294067,-0.0,-0.0,-1.0,0.1312563817501542,1.0
19.038219451904297,3.2579169273376465,-0.8450336456298828,-0.0,-0.0,-1.0,0.1983473358005926,1.0
19.046539306640625,3.083897113800049,-0.8191944360733032,-0.0,-0.0,-1.0,0.2108928696335864,1.0
19.70248031616211,2.494555950164795,-0.7015167474746704,-0.0,-0.0,-1.0,0.1535945816145963,1.0
19.55352020263672,2.038846492767334,-0.6435450315475464,-0.0,-0.0,-1.0,0.0654077494792142,1.0
19.253707885742188,2.013087749481201,-0.6553549766540527,-0.0,-0.0,-1.0,0.1475974017955049,1.0
19.200355529785156,1.9880127906799316,-0.6546183824539185,-0.0,-0.0,-1.0,0.123099522494404,1.0
17.80622100830078,1.8070406913757324,-0.7056159973144531,-0.0,-0.0,-1.0,0.1442838408735416,1.0
19.05828285217285,3.480620861053467,-0.3254128694534302,-0.0,-0.0,-1.0,0.1260280589941073,1.0
18.53818702697754,2.490400791168213,-0.2147679328918457,-0.0,-0.0,-1.0,0.2385120858106366,1.0
19.649822235107425,2.6487393379211426,-0.7480754852294922,-0.0,-0.0,-1.0,0.1326306028625678,1.0
19.590190887451172,2.406367778778076,-0.7319368124008179,-0.0,-0.0,-1.0,0.1272451298820186,1.0
18.115039825439453,3.637012004852295,-0.3922849893569946,-0.0,-0.0,-1.0,0.1724169788575296,1.0
18.087474822998047,3.2649292945861816,-0.3688273429870605,-0.0,-0.0,-1.0,0.1744281410772172,1.0
18.674362182617188,2.583281993865967,-0.2840884923934936,0.2368838695230209,-0.9283359846112952,0.286493162284158,0.2310838320823299,7.0
18.32701110839844,1.69273042678833,0.2888944149017334,-0.8971622779596806,0.4101402024840632,0.1639660370702662,0.0684654509509069,4.0
18.74756622314453,2.6261563301086426,-0.1249419450759887,0.1477321892107273,-0.6683639242681354,-0.7290163681344226,0.2650930534003517,8.0
18.63324546813965,2.7756552696228027,-0.1408306360244751,-0.0,-0.0,-1.0,0.1718901700624856,2.0
18.19836807250977,3.3252882957458496,-0.200281023979187,-0.4531760537672021,0.8770084216381606,-0.159648653823728,0.1774407756054546,3.0
18.19790267944336,3.5053534507751465,-0.2106610536575317,0.8865818782759303,0.0145113008623479,-0.4623440226281787,0.1229627373408058,3.0
18.667125701904297,2.54988431930542,-0.1258636713027954,-0.1348932012307725,-0.9642341136881706,0.2281587128770285,0.2076796824260091,6.0
18.34753799438477,3.500882625579834,-0.2748993635177612,-0.0,-0.0,-1.0,0.2277653229050904,2.0
18.75434112548828,2.6758294105529785,-0.1958886384963989,-0.0,-0.0,-1.0,0.1386856161180736,2.0
18.166263580322266,3.3061909675598145,-0.2782950401306152,-0.7099464363112653,0.1013115951769996,-0.6969304256894128,0.1376966729127711,3.0
17.907108306884766,1.645172119140625,-0.2064986228942871,-0.0,-0.0,-1.0,0.1161145818933369,2.0
18.37579917907715,1.6673073768615725,0.3279441595077514,0.0650347205042839,0.947769362750004,-0.3122558568888356,0.0926185299552938,8.0
18.410106658935547,3.3312411308288574,-0.4402045011520386,0.8501851698105236,-0.0684100114298243,-0.5220203514906508,0.2159173554483481,3.0
18.08918571472168,3.0189714431762695,-0.4578220844268799,-0.0,-0.0,-1.0,0.0832023488502858,2.0
18.06513214111328,2.491179943084717,-0.4315043687820434,-0.0,-0.0,-1.0,0.0851285852868056,1.0
18.00524139404297,2.7524800300598145,-0.4523431062698364,-0.0,-0.0,-1.0,0.0579403918742389,2.0
18.837181091308594,3.2641987800598145,-0.3896876573562622,-0.0,-0.0,-1.0,0.1442666487620733,1.0
18.65433120727539,2.7053256034851074,-0.3774710893630981,-0.0,-0.0,-1.0,0.1466857228888055,1.0
18.51780128479004,2.9057817459106445,-0.4038952589035034,-0.0,-0.0,-1.0,0.1674141918915589,1.0
18.672550201416016,2.6113405227661133,-0.3701848983764648,0.9538035058009144,0.0471242119146141,0.2967122865223346,0.1864968332303034,8.0
18.207622528076172,2.2944517135620117,-0.4049757719039917,-0.0,-0.0,-1.0,0.0929507513285942,1.0
18.872032165527344,2.722973346710205,0.1104340553283691,-0.0,-0.0,-1.0,0.1986278856918043,1.0
18.641468048095703,3.050365924835205,0.0794960260391235,-0.0,-0.0,-1.0,0.1369936153152836,2.0
18.27112579345703,3.4224042892456055,0.03555428981781,0.6164204247575434,-0.5194197296489818,0.5918014906986194,0.1280168061515344,4.0
18.20199203491211,3.604212760925293,0.0230177640914917,0.7767506514186796,0.5612155549217408,0.2858242929398037,0.181598414188337,7.0
17.885231018066406,3.3850350379943848,0.0058330297470092,0.8992825887456982,-0.0712913923636947,-0.431518670457816,0.1004668320706329,3.0
18.37723922729492,1.7914643287658691,0.5627270936965942,-0.9451035201455612,-0.1881333901058753,-0.2671800212136734,0.1306891732530435,8.0
19.6272029876709,2.5659260749816895,-0.6052504777908325,-0.0,-0.0,-1.0,0.1457190647139083,1.0
19.695323944091797,2.728236675262451,-0.6222723722457886,-0.0,-0.0,-1.0,0.1653823362942093,1.0
19.519123077392575,2.3406643867492676,-0.5836319923400879,-0.0,-0.0,-1.0,0.1286801847214847,1.0
19.56072235107422,2.5187244415283203,-0.6047152280807495,-0.0,-0.0,-1.0,0.1289498595539133,1.0
19.29816436767578,2.07882022857666,-0.5682554244995117,-0.0,-0.0,-1.0,0.1476783930748263,2.0
18.271961212158203,3.340229034423828,-0.3853456974029541,-0.915429396330726,-0.247970148821097,-0.3170170746619255,0.2589645596338028,6.0
18.214061737060547,3.636678695678711,-0.4250550270080566,-0.0,-0.0,-1.0,0.1929409953948579,1.0
18.688156127929688,2.670584201812744,-0.2779856920242309,-0.1147560340476669,-0.966245032941184,0.2306546963886515,0.2234292455787408,6.0
18.15062713623047,3.259911060333252,-0.383535623550415,0.6558292062630742,-0.7322485258181284,0.183576002379188,0.2511035637624887,3.0
17.94108009338379,3.288093090057373,-0.4005703926086426,-0.0,-0.0,-1.0,0.145410355883608,2.0
18.678634643554688,2.73653507232666,0.1418954133987426,-0.0,-0.0,-1.0,0.1375044650452973,2.0
18.3748779296875,1.6636042594909668,0.2350946068763733,-0.0,-0.0,-1.0,0.0684654509509069,2.0
19.455787658691406,3.4278998374938965,-0.5856682062149048,0.0535951806859337,-0.0123824481233627,-0.9984859696489052,0.0180300202675348,5.0
19.407323837280273,3.5278592109680176,-0.6075209379196167,-0.0,-0.0,-1.0,0.0139351671634041,1.0
19.511783599853516,2.518571376800537,-0.4170547723770141,-0.0,-0.0,-1.0,0.1666216296076001,1.0
19.091176986694336,3.118743896484375,-0.5555338859558105,-0.0,-0.0,-1.0,0.0453318545264256,2.0
19.11968040466309,3.2936997413635254,-0.5849452018737793,-0.0,-0.0,-1.0,0.0276974142725502,2.0
18.79283142089844,2.7873759269714355,-0.5195167064666748,-0.0,-0.0,-1.0,0.1190317462497376,2.0
18.62111473083496,2.5584840774536133,-0.4934618473052978,-0.0,-0.0,-1.0,0.2170878009826806,1.0
18.37556266784668,2.0453977584838867,-0.4278535842895508,-0.0,-0.0,-1.0,0.1468237387811762,2.0
18.277326583862305,2.3820981979370117,-0.4915931224822998,-0.0,-0.0,-1.0,0.0422080241156741,2.0
18.156431198120117,1.9874305725097656,-0.4369275569915771,0.847320458665223,0.2274972484743991,-0.479888572758233,0.1212689843683799,4.0
18.868127822875977,2.613073348999023,-0.0983718633651733,0.5698259503223485,-0.3254257695840775,-0.7545836301099056,0.1525872549883861,3.0
18.65919303894043,2.8786048889160156,-0.1492255926132202,-0.0821573859324595,0.9891839086171752,-0.1215127930285231,0.0975744398491776,4.0
18.287647247314453,3.476694107055664,-0.2597197294235229,-0.0,-0.0,-1.0,0.2523246662460761,2.0
18.71245574951172,2.5987753868103027,-0.1038038730621337,-0.5909970773675242,-0.1664371840844485,-0.7893168681189349,0.1630930451856037,9.0
18.105323791503903,3.2863106727600098,-0.2386157512664795,-0.0,-0.0,-1.0,0.1473853625115873,1.0
18.74007225036621,2.7413225173950195,0.2636787891387939,0.0532124349942381,0.9969403749622374,0.0572566636483219,0.1473088804104362,3.0
18.978824615478516,3.437481164932251,-0.5560331344604492,-0.8510528351175077,0.165484962148205,0.4983209800332106,0.0480344732264585,3.0
18.98638153076172,3.6359732151031494,-0.5908135175704956,-0.0,-0.0,-1.0,0.0418388445478801,2.0
18.734588623046875,2.703575849533081,-0.4503548145294189,-0.0,-0.0,-1.0,0.2145760196043244,1.0
18.726390838623047,3.234907865524292,-0.5411216020584106,-0.0,-0.0,-1.0,0.0969418918769045,2.0
18.707008361816406,2.575153112411499,-0.4316376447677612,0.8968246259315757,0.3942155453791475,-0.2007478371094196,0.2245010558763566,3.0
18.50963592529297,2.7502057552337646,-0.4779982566833496,-0.0,-0.0,-1.0,0.1019441245575574,2.0
18.447782516479492,3.092421293258667,-0.5403347015380859,-0.0,-0.0,-1.0,0.0290450751794358,1.0
18.168275833129883,2.1593635082244873,-0.4151854515075683,-0.1372154939272769,0.7374506946374169,-0.6613156441557123,0.1240607467500072,4.0
18.094985961914062,2.5595662593841553,-0.4845974445343017,-0.0,-0.0,-1.0,0.0811763016496287,1.0
17.95307731628418,1.9752342700958252,-0.4078706502914428,-0.0,-0.0,-1.0,0.0575001348834577,2.0
19.55278778076172,2.4962732791900635,-0.3447184562683105,-0.0,-0.0,-1.0,0.2217282901946016,1.0
19.526424407958984,2.5500524044036865,-0.3561151027679443,-0.0,-0.0,-1.0,0.1767096548473997,2.0
18.852819442749023,2.6048457622528076,-0.2399067878723144,-0.0,-0.0,-1.0,0.1039374770465632,1.0
18.68689346313477,2.8622043132781982,-0.1031574010848999,-0.0,-0.0,-1.0,0.144970545457359,2.0
18.6413516998291,3.510258436203003,-0.2038325071334839,-0.0,-0.0,-1.0,0.1207444483415722,1.0
18.709461212158203,2.5573341846466064,-0.0571889877319335,0.5127130640666074,-0.5604501150144927,0.6504006323149393,0.22715374416396,6.0
18.739463806152344,2.6624433994293213,-0.0707416534423828,0.3450248132728178,-0.7941688457680958,-0.5002536582948977,0.2573789501934239,3.0
18.264225006103516,3.437023878097534,-0.2129603624343872,0.0891438901372806,0.9801745665084852,-0.1769496708702667,0.2131795769894204,4.0
17.923213958740234,3.253153085708618,-0.2043672800064087,-0.0,-0.0,-1.0,0.1021498733885796,2.0
18.442588806152344,1.6930363178253174,0.40802001953125,-0.0,-0.0,-1.0,0.0998876567053271,1.0
19.661693572998047,2.358379364013672,-0.5150008201599121,-0.0,-0.0,-1.0,0.0945894565076261,1.0
19.708768844604492,2.593317985534668,-0.5340979099273682,0.0411278804537176,-0.5726401014821119,-0.818774579248734,0.1197316134020249,3.0
18.903339385986328,3.2459263801574707,-0.3825451135635376,-0.0,-0.0,-1.0,0.0916318526558434,1.0
18.728940963745117,2.635587692260742,-0.3473113775253296,0.4096441076356149,-0.2383414644999861,-0.880559510413364,0.237038690613195,6.0
18.649442672729492,2.8368067741394043,-0.3777891397476196,-0.0,-0.0,-1.0,0.1746667028077672,1.0
18.252952575683594,3.2798938751220703,-0.4768339395523071,0.744981479125986,-0.3690913221716518,-0.5556745375278951,0.1769776545072295,6.0
18.26288604736328,3.624921321868897,-0.5098870992660522,0.0615568359284355,-0.2145323964766672,-0.97477515705544,0.1502429616689688,4.0
17.997663497924805,1.9902210235595703,-0.3953667879104614,-0.2534734640763211,0.9410351507896249,-0.2240625983681747,0.0620126874951319,3.0
17.948450088500977,2.3273568153381348,-0.431693434715271,-0.0,-0.0,-1.0,0.0651894732843984,1.0
17.915157318115234,2.733658790588379,-0.4730619192123413,-0.0,-0.0,-1.0,0.0500368328916138,2.0
17.96609878540039,3.1976284980773926,-0.5093077421188354,-0.0,-0.0,-1.0,0.0990524107577425,1.0
17.83976173400879,1.9116129875183103,-0.4120252132415771,-0.0,-0.0,-1.0,0.067419439638356,1.0
18.808048248291016,2.6250205039978027,0.019032597541809,-0.0,-0.0,-1.0,0.1475955206043503,1.0
18.650959014892575,2.846461296081543,-0.015764832496643,-0.0,-0.0,-1.0,0.1548870741060448,1.0
18.167423248291016,3.358595848083496,-0.1098555326461792,-0.0,-0.0,-1.0,0.1690004006330532,2.0
18.266082763671875,3.6321988105773926,-0.1215718984603881,-0.0,-0.0,-1.0,0.1184589547599166,1.0
17.83633804321289,3.320492744445801,-0.1430757045745849,0.88636670849758,0.384571986411541,-0.2577953555335073,0.1823686352483958,3.0
18.431922912597656,1.7408227920532229,0.3926024436950683,-0.0,-0.0,-1.0,0.0903193544141356,1.0
19.409420013427734,1.7846839427947998,-0.4132676124572754,0.2946717482104404,-0.3635028560635403,-0.88376141262235,0.0667659347274531,3.0
19.198619842529297,2.5663416385650635,-0.4967896938323974,-0.0,-0.0,-1.0,0.1275692277032038,2.0
19.13885498046875,3.0372655391693115,-0.5384789705276489,-0.0,-0.0,-1.0,0.075976979140586,1.0
19.142221450805664,3.3595924377441406,-0.5607339143753052,-0.780020239208545,0.2128504716741223,0.5884412486673144,0.0172539010926129,3.0
19.133453369140625,2.128600835800171,-0.4837914705276489,-0.0,-0.0,-1.0,0.1445777587203443,2.0
19.082141876220703,2.4794132709503174,-0.5134413242340088,0.2468120144861027,-0.518893437378033,0.8184335221331792,0.0491663950928993,3.0
19.062091827392575,2.857445001602173,-0.5406990051269531,0.1104821339860601,0.8928225448090426,-0.4366481438762698,0.0908727063749536,4.0
18.233295440673828,3.2923643589019775,-0.3632748126983642,0.1691735150915828,0.6758330105142397,-0.7173772115775756,0.1763129480248216,8.0
18.1910457611084,3.5824947357177734,-0.385185956954956,-0.8833712551014583,0.2933081149948126,-0.3655483214824867,0.1620977198992767,3.0
17.99296760559082,3.269678831100464,-0.3987653255462646,-0.0,-0.0,-1.0,0.2127975723210111,1.0
17.734867095947266,1.9097692966461184,-0.3805551528930664,-0.0,-0.0,-1.0,0.1289327162132859,1.0
17.751197814941406,2.3068740367889404,-0.3927967548370361,0.9901964003113692,-0.0991638524081786,-0.0983748910341228,0.0923299574301793,5.0
18.80408477783203,2.669576406478882,-0.0814599990844726,-0.0,-0.0,-1.0,0.2520994241371029,1.0
18.622211456298828,2.5668060779571533,-0.1019675731658935,-0.0,-0.0,-1.0,0.2553714728010114,1.0
18.58774185180664,2.872087240219116,-0.1190952062606811,-0.0,-0.0,-1.0,0.0994061164230785,1.0
18.438953399658203,3.2274587154388428,0.0192105770111084,-0.0,-0.0,-1.0,0.1305740408498625,1.0
18.201404571533203,3.5803909301757812,-0.0227413177490234,0.2016828114775436,-0.1358128996403992,-0.969989123570868,0.2906357337796716,4.0
18.14952278137207,1.9555301666259768,-0.316775918006897,-0.01679763141402,0.9994217501861724,-0.0295635727490269,0.1152470246014036,3.0
18.124771118164062,3.5070786476135254,-0.0290045738220214,0.9207104941401216,0.2393163808539177,0.3082529088836561,0.1623598518191828,3.0
18.34357452392578,1.6932470798492432,0.3864811658859253,-0.0,-0.0,-1.0,0.1010628877945251,1.0
19.44884490966797,2.527688980102539,-0.4121721982955932,-0.0,-0.0,-1.0,0.1638001650210921,1.0
19.186433792114254,2.571420669555664,-0.4664156436920166,-0.0,-0.0,-1.0,0.1472584326016715,2.0
19.02135467529297,3.1814041137695312,-0.5467993021011353,-0.0,-0.0,-1.0,0.040580347676766,2.0
19.094371795654297,3.5425119400024414,-0.5644904375076294,-0.8182417308211574,0.5616718812922369,0.1224955824037586,0.028930432554727,3.0
18.985145568847656,2.009777545928955,-0.4670554399490356,-0.2788993285803237,-0.494375899832341,-0.8232907349062102,0.0399733168786579,4.0
18.923099517822266,2.306814193725586,-0.4989638328552246,-0.90532650403046,0.4232634650102654,-0.0350992918374309,0.0980800830646465,3.0
18.9007625579834,2.7225303649902344,-0.533374547958374,0.2958079641003036,-0.7320953443152642,-0.6136237081524378,0.1395778876295641,3.0
18.92826461791992,2.9728193283081055,-0.5474569797515869,-0.0,-0.0,-1.0,0.0632811606210873,2.0
17.849136352539062,3.325944423675537,-0.431524395942688,-0.0,-0.0,-1.0,0.2304861958671812,1.0
18.720420837402344,2.6467413902282715,-0.2477600574493408,0.9587002516227096,0.2322017820173608,-0.1642442083195499,0.2432173708292551,7.0
18.605871200561523,2.7267632484436035,-0.2712688446044922,0.98784561561101,0.0427448800296242,-0.1494453577377258,0.1428171824952853,5.0
18.220115661621097,3.4461212158203125,-0.2128967046737671,0.0710618102155224,0.9666432646057344,-0.2460711647496738,0.1343216552159966,5.0
17.916927337646484,3.2862977981567383,-0.2443535327911377,-0.0,-0.0,-1.0,0.1546910861040572,1.0
17.73548698425293,2.4589834213256836,-0.3943208456039428,-0.0,-0.0,-1.0,0.0957584022298922,2.0
18.74043846130371,2.491886615753174,0.0741952657699585,-0.0,-0.0,-1.0,0.0842778741721699,1.0
18.76317024230957,2.7056379318237305,0.0654827356338501,-0.0,-0.0,-1.0,0.2229960533925356,1.0
18.636327743530273,3.0503158569335938,0.0301598310470581,0.8124763667686864,0.5820384816594706,-0.0333670392736978,0.0970024233854132,4.0
19.70867347717285,3.5556039810180664,-0.5682799816131592,0.6735118786107787,0.4050751778053834,-0.6183007760759457,0.1499648104676792,3.0
19.588647842407227,2.842820644378662,-0.5483160018920898,-0.0,-0.0,-1.0,0.1639973445467265,2.0
19.6177921295166,3.1190061569213867,-0.558601975440979,-0.0185033600854544,-0.8576717983137558,-0.5138644880148813,0.0723190770748009,3.0
19.60608673095703,3.379817485809326,-0.5788277387619019,-0.0,-0.0,-1.0,0.0244676052859872,1.0
18.622297286987305,3.382777690887451,-0.4980719089508056,-0.0,-0.0,-1.0,0.1088602341111159,2.0
18.293800354003903,3.073638916015625,-0.5464204549789429,-0.0,-0.0,-1.0,0.1260140287474352,2.0
18.3748722076416,3.192953586578369,-0.5365036725997925,-0.0,-0.0,-1.0,0.0878591928775578,1.0
18.22548484802246,3.3754920959472656,-0.2571941614151001,-0.600970771829981,0.796124397601345,-0.0708524872532551,0.1931289392069537,3.0
17.892175674438477,3.4272875785827637,0.0133250951766967,-0.0,-0.0,-1.0,0.1006232861764947,2.0
18.158851623535156,3.463271141052246,0.0458463430404663,0.9007622722552456,-0.4214810112435884,0.1047906772697272,0.1589924758169397,3.0
19.402320861816406,2.185305118560791,-0.5416368246078491,-0.0,-0.0,-1.0,0.0955533621279074,1.0
19.502771377563477,2.495215892791748,-0.4869539737701416,-0.9143465724259644,-0.3176480825119808,0.2511374945509973,0.2231050933206521,3.0
19.298141479492188,2.173768997192383,-0.5646234750747681,-0.0,-0.0,-1.0,0.1291115267096478,1.0
19.10782241821289,3.429633140563965,-0.5773271322250366,-0.0,-0.0,-1.0,0.0294681768806396,1.0
18.731529235839844,2.2922215461730957,-0.4745641946792602,-0.0,-0.0,-1.0,0.0970935126923054,1.0
18.768131256103516,2.5651230812072754,-0.4379959106445312,0.5134412342412751,-0.7738625324660126,0.3708299877653982,0.2446257299697344,3.0
18.92179298400879,3.5864052772521973,-0.5962790250778198,-0.148493078576826,0.908095899600472,-0.3915503067852027,0.0516647046434973,3.0
18.50577735900879,2.853994369506836,-0.4520493745803833,-0.0,-0.0,-1.0,0.1915349870067105,2.0
18.75551986694336,2.676804542541504,-0.2721079587936401,0.2087588311256924,-0.972033541215886,0.1075664686523611,0.1985548356834173,3.0
18.60232925415039,2.791290760040283,-0.4418586492538452,-0.0,-0.0,-1.0,0.1908437035145196,2.0
18.035919189453125,1.869300365447998,-0.2853721380233764,-0.0,-0.0,-1.0,0.0805810184225446,2.0
19.012218475341797,3.316988945007324,-0.5422689914703369,-0.0,-0.0,-1.0,0.0513368857157875,2.0
18.811899185180664,3.6285629272460938,-0.5406153202056885,-0.0,-0.0,-1.0,0.0426871416780713,2.0
18.218046188354492,3.372255325317383,-0.2304689884185791,-0.4361525432281472,0.890115145049654,-0.1321589481981926,0.2094455784837424,4.0
17.972017288208008,1.7692480087280271,-0.3683450222015381,-0.0,-0.0,-1.0,0.1643221183370823,1.0
17.712512969970703,2.476790428161621,-0.35354745388031,-0.0,-0.0,-1.0,0.0985678286330249,1.0
17.78342056274414,1.8369598388671875,-0.3871827125549316,-0.0,-0.0,-1.0,0.2108792899287334,2.0
19.617694854736328,2.0280351638793945,-0.4778125286102295,-0.0,-0.0,-1.0,0.1137064969655711,2.0
19.36591339111328,2.199670791625977,-0.4797321557998657,-0.0,-0.0,-1.0,0.1341594667067492,1.0
19.596683502197266,1.7890243530273438,-0.4370900392532348,0.2368080152579898,0.7578810172939807,-0.6078966421481645,0.0472043184521912,3.0
18.05126190185547,3.5555667877197266,0.0849521160125732,-0.0,-0.0,-1.0,0.1169356955047803,2.0
17.928836822509766,3.5636796951293945,0.0765949487686157,-0.0516601845160713,-0.9887517366602674,-0.1403610650681682,0.0703998620202091,4.0
18.27691650390625,3.2831506729125977,-0.3856338262557983,-0.2775337731932113,-0.9509978409407736,-0.1363015453438676,0.2304051259536845,5.0
18.241960525512695,3.487410545349121,-0.3679236173629761,-0.0,-0.0,-1.0,0.1686674022355409,2.0
18.226911544799805,2.4954023361206055,-0.4679791927337646,-0.0,-0.0,-1.0,0.0938860877477333,1.0
18.898855209350582,3.258319854736328,-0.4560064077377319,-0.0,-0.0,-1.0,0.1239910681576273,1.0
19.082984924316406,2.4527597427368164,-0.5305941104888916,0.2468120144861027,-0.518893437378033,0.8184335221331792,0.0528056616265165,3.0
18.877296447753903,2.699978828430176,-0.5177812576293945,0.2958079641003036,-0.7320953443152642,-0.6136237081524378,0.1638963271944749,3.0
18.682594299316406,2.8454666137695312,-0.515500545501709,-0.0881425224640981,-0.9774505425036156,-0.1918888550517031,0.1429809696262025,3.0
19.03846549987793,2.406609535217285,-0.5385620594024658,-0.3776325744212608,-0.4472456761847694,-0.8107804535569414,0.0761042652267212,4.0
18.54741859436035,2.844921112060547,-0.5250225067138672,-0.0,-0.0,-1.0,0.1127151619076866,1.0
18.94968605041504,2.639759063720703,0.0069969892501831,-0.2459150271898097,-0.3872980417384714,-0.888552770671377,0.1491003027171134,3.0
19.49808120727539,2.5310487747192383,-0.3333587646484375,-0.0,-0.0,-1.0,0.208746332583564,2.0
19.615976333618164,1.7501220703125,-0.4093996286392212,-0.0,-0.0,-1.0,0.0461182355037105,1.0
19.236745834350582,1.8743009567260744,-0.4090418815612793,-0.0,-0.0,-1.0,0.0768614138641781,1.0
18.307737350463867,3.58682632446289,-0.2712087631225586,-0.7536107375614098,0.0542915233582648,-0.6550750237366608,0.2431662853275342,3.0
18.790687561035156,2.6988086700439453,-0.3460803031921386,0.7094694262951805,-0.3502926419992213,-0.6115130400192562,0.1444779102077347,4.0
18.686084747314453,2.9731407165527344,-0.3217216730117798,-0.0,-0.0,-1.0,0.1386632118813296,1.0
19.337987899780273,1.8388748168945312,-0.4167720079421997,-0.0,-0.0,-1.0,0.0448337216262964,1.0
19.010494232177734,1.9239387512207031,-0.4169559478759765,0.0544423897695173,-0.986710701767056,-0.1530947981302679,0.0417267710056194,3.0
18.509431838989254,2.015565872192383,-0.4212663173675537,-0.0,-0.0,-1.0,0.1695490936072931,1.0
18.340190887451172,2.1824684143066406,-0.4093232154846191,-0.0,-0.0,-1.0,0.1062505604517879,2.0
18.484411239624023,1.6729278564453125,0.1525481939315796,-0.0,-0.0,-1.0,0.0610913956177845,1.0
18.131500244140625,2.5198545455932617,-0.2836759090423584,-0.0,-0.0,-1.0,0.1871261804919332,1.0
17.994983673095703,2.50289249420166,-0.2687382698059082,-0.0,-0.0,-1.0,0.2173935034441955,1.0
18.801355361938477,2.3371686935424805,-0.3767331838607788,-0.0,-0.0,-1.0,0.1171098509482029,1.0
19.066680908203125,1.8268709182739256,-0.4457062482833862,-0.2318417112625292,0.0343868646361307,-0.9721455469523884,0.0378181031615679,3.0
19.36775779724121,1.679121971130371,-0.4924662113189697,-0.0,-0.0,-1.0,0.0694870689989914,1.0
18.43602752685547,2.4841766357421875,-0.528479814529419,-0.0,-0.0,-1.0,0.0697616361027371,1.0
18.536720275878903,2.5250415802001953,-0.5366690158843994,-0.0,-0.0,-1.0,0.0853822093600037,1.0
18.39454460144043,3.14310359954834,-0.4661517143249511,-0.0,-0.0,-1.0,0.135387418444993,2.0
18.145160675048828,2.734755516052246,-0.4727621078491211,-0.0,-0.0,-1.0,0.052356420443108,2.0
18.406801223754883,2.6729135513305664,-0.5086183547973633,-0.0,-0.0,-1.0,0.1009044798685518,1.0
18.227397918701172,2.6394290924072266,-0.4906415939331054,-0.0,-0.0,-1.0,0.040135254009782,1.0
19.481128692626953,3.419131278991699,-0.5714461803436279,0.491759974619877,0.0089877887729233,-0.8706844129848834,0.0188033029010097,3.0
19.30880355834961,3.1260595321655273,-0.5759596824645996,-0.856492730934837,-0.4616565746929716,0.2308536525561985,0.015592181673808,3.0
18.97140121459961,2.914595603942871,-0.5540153980255127,-0.0,-0.0,-1.0,0.0733828858783544,2.0
18.794204711914062,2.744226455688477,-0.5478193759918213,-0.0,-0.0,-1.0,0.1468916227009483,1.0
19.68195343017578,3.399444580078125,-0.597419023513794,-0.0,-0.0,-1.0,0.0242301016822252,2.0
19.356098175048828,3.1061487197875977,-0.5833220481872559,-0.0,-0.0,-1.0,0.0128839053093419,2.0
18.098182678222656,1.839130401611328,-0.2215991020202636,-0.8720068449141605,-0.4873079982440971,-0.0462058142465031,0.0976412854707282,6.0
18.736865997314453,2.710127830505371,-0.2012058496475219,-0.0,-0.0,-1.0,0.1846906809439416,2.0
18.73655128479004,2.5579090118408203,-0.2131829261779785,-0.0,-0.0,-1.0,0.1736485164998873,1.0
19.42134666442871,1.6415290832519531,-0.3399860858917236,-0.0,-0.0,-1.0,0.0626030240868023,2.0
17.750106811523438,1.7348785400390625,-0.3843365907669067,-0.0,-0.0,-1.0,0.2106434702518196,2.0
18.20990753173828,1.938547134399414,-0.3954988718032837,-0.0,-0.0,-1.0,0.1802262130121359,2.0
18.033098220825195,1.8178625106811523,-0.395218014717102,-0.0,-0.0,-1.0,0.1597043692513759,1.0
19.368511199951172,1.909102439880371,-0.4824339151382446,-0.3544224819463363,-0.7591314532954154,-0.5459891399181755,0.0510241294347261,3.0
17.749238967895508,3.4947938919067383,-0.2108958959579467,-0.0,-0.0,-1.0,0.0814716178366968,1.0
18.474559783935547,1.7782278060913086,0.5771218538284302,-0.0,-0.0,-1.0,0.1248396976185527,2.0
17.767574310302734,3.5541810989379883,-0.2316428422927856,-0.0,-0.0,-1.0,0.1200278018700112,1.0
17.757984161376953,2.9046449661254883,-0.275402307510376,-0.0,-0.0,-1.0,0.0748493962053695,1.0
17.792394638061523,1.672624588012695,-0.3685883283615112,0.1379735017150836,-0.0021041960234301,-0.9904336854043144,0.1984228382939802,3.0
18.228410720825195,2.1241769790649414,-0.4138953685760498,0.3451561162567704,0.1270972133460254,-0.9298997546887612,0.0861777877772757,4.0
18.096656799316406,1.9383068084716797,-0.4034883975982666,-0.0,-0.0,-1.0,0.1396697061819729,2.0
17.944530487060547,1.655317306518555,-0.3965343236923218,-0.0,-0.0,-1.0,0.1391557930918933,2.0
