x,y,z,nx,ny,nz,curvature,density
22.86127662658691,3.648712158203125,-0.2859895229339599,-0.4106001377460179,0.8866951443902155,-0.2125541055773006,0.1623512970737324,3.0
21.861919403076172,4.795869827270508,-0.5985431671142578,-0.0,-0.0,-1.0,0.0879230223763349,2.0
22.17612648010254,5.18733024597168,-0.5865046977996826,-0.684846123399168,0.6435455886961221,-0.3418111503957902,0.1201579660356553,3.0
22.004056930541992,4.980554580688477,-0.5921270847320557,-0.0,-0.0,-1.0,0.1742113664079602,1.0
22.452280044555664,5.31193733215332,-0.6010046005249023,-0.0,-0.0,-1.0,0.2484532857851406,1.0
22.784408569335938,5.461940765380859,-0.6190412044525146,0.1450449997757457,-0.2058550466192221,-0.9677735519332258,0.0956659268337883,5.0
23.03302574157715,5.351837158203125,-0.6573364734649658,-0.0,-0.0,-1.0,0.0742334309303267,1.0
23.31240463256836,5.262638092041016,-0.6969339847564697,0.8461182191402274,0.4662717929899437,-0.2582142023609728,0.1269512661873298,4.0
23.63233184814453,5.172849655151367,-0.7412436008453369,-0.0,-0.0,-1.0,0.0520373458318749,1.0
22.844369888305664,3.639881134033203,-0.2901697158813476,-0.4106001377460179,0.8866951443902155,-0.2125541055773006,0.1350044693987177,3.0
21.89697265625,4.916013717651367,-0.6203808784484863,-0.0,-0.0,-1.0,0.1903509342948025,1.0
21.765405654907227,4.635658264160156,-0.6417717933654785,-0.0,-0.0,-1.0,0.2132237690746547,2.0
22.272876739501953,5.292751312255859,-0.6144144535064697,-0.0,-0.0,-1.0,0.1340370397003158,1.0
22.104896545410156,5.150373458862305,-0.6135878562927246,-0.0,-0.0,-1.0,0.0776380835184916,2.0
22.51685333251953,5.4060821533203125,-0.627988338470459,-0.0,-0.0,-1.0,0.1758732933796326,2.0
22.748855590820312,5.549213409423828,-0.6369540691375732,-0.0794831099932996,-0.4815289200489992,-0.8728186148233992,0.0922706178984562,6.0
23.060869216918945,5.374143600463867,-0.6954014301300049,-0.0,-0.0,-1.0,0.0973288298190199,1.0
23.36744499206543,5.332212448120117,-0.7372896671295166,-0.0850743541819385,0.0963356705185387,-0.991706505396768,0.0424799781864094,5.0
22.156410217285156,4.713861465454102,-0.3504610061645508,0.8359482120372866,0.1551809400534038,-0.5264118754699655,0.2112117374781247,8.0
22.07186508178711,4.427021026611328,-0.3760333061218261,-0.0,-0.0,-1.0,0.1719733568688946,2.0
22.48733901977539,5.168790817260742,-0.3319971561431885,-0.6823246684168417,0.5573138699903354,0.4731112947143012,0.1860607101593624,6.0
22.32294464111328,4.94114875793457,-0.3411769866943359,-0.0,-0.0,-1.0,0.1551497288284945,2.0
22.609111785888672,5.223968505859375,-0.3389718532562256,0.3973768126022587,0.7924140967688605,-0.4627867414350378,0.160565066954347,4.0
22.93191146850586,4.874467849731445,-0.4166779518127441,0.930996889311161,-0.3025804939721063,0.2041808922513021,0.1102415629460319,4.0
23.54975318908691,3.769601821899414,-0.6174166202545166,-0.0,-0.0,-1.0,0.1558044332831466,1.0
21.714784622192383,4.53570556640625,-0.6333262920379639,-0.0,-0.0,-1.0,0.1310604821294781,1.0
21.883012771606445,4.84040641784668,-0.6095130443572998,-0.0,-0.0,-1.0,0.064360667990727,2.0
21.757814407348633,4.610027313232422,-0.6276931762695312,0.9634880315742564,-0.265231635669542,0.0366468614375591,0.1580149584143066,3.0
22.20818519592285,5.216838836669922,-0.595179557800293,-0.0,-0.0,-1.0,0.0752508147459431,2.0
22.039043426513672,5.064092636108398,-0.5962619781494141,-0.0,-0.0,-1.0,0.0642248558395614,2.0
22.50454330444336,5.37640380859375,-0.6094512939453125,-0.0,-0.0,-1.0,0.1512434295956589,2.0
22.84875869750977,5.465484619140625,-0.640770435333252,-0.0,-0.0,-1.0,0.0923993326649904,2.0
23.318208694458008,5.343481063842773,-0.7190711498260498,-0.2185261813040797,0.0882948487003812,-0.9718283427527896,0.1130494741250484,4.0
23.67959213256836,5.3409576416015625,-0.7676920890808105,-0.0,-0.0,-1.0,0.0192786001875863,1.0
22.056068420410156,4.667806625366211,-0.470689058303833,-0.0763878131021659,-0.6958256706277832,0.7141369183180941,0.1888693147842522,3.0
21.8898868560791,4.515289306640625,-0.4745068550109863,-0.0,-0.0,-1.0,0.1988497876788504,2.0
22.471759796142575,5.137351989746094,-0.450282335281372,-0.0388195331909369,0.5265460374232395,0.8492598626549605,0.1474377483651464,3.0
22.288673400878903,4.900539398193359,-0.4632749557495117,0.3056524410262857,0.5145967345560423,-0.8011034802564093,0.1356061079983462,4.0
22.61094665527344,5.252318382263184,-0.4501194953918457,-0.5985486384072096,-0.5913558018646723,-0.5404052581737763,0.2352533295613688,5.0
22.91390609741211,4.928322792053223,-0.5320456027984619,-0.2978132787688088,-0.8256198795394908,-0.4792275717215864,0.1283832619696388,3.0
23.188430786132812,4.85031795501709,-0.5761396884918213,-0.0,-0.0,-1.0,0.108908341266441,2.0
23.65711784362793,4.709851264953613,-0.6534192562103271,0.6760256529942901,0.4391417309839396,-0.5917295468388181,0.1307072450945308,5.0
21.77956771850586,4.6680402755737305,-0.4707205295562744,0.7564299605835668,-0.0685652155791731,-0.6504710031539648,0.191772313212893,4.0
22.034515380859375,4.320165634155273,-0.5598742961883545,-0.4188546251102555,0.8845054923241882,0.205452761169307,0.1108352056643808,3.0
22.29626846313477,5.318872451782227,-0.441314697265625,-0.0,-0.0,-1.0,0.1734211592552843,1.0
22.149003982543945,5.105597496032715,-0.4495127201080322,-0.0,-0.0,-1.0,0.1503364018733318,1.0
22.046525955200195,4.741722106933594,-0.4992468357086181,0.7950335150473308,0.5866609835614506,0.1541122977513388,0.2476511429906627,5.0
22.408763885498047,5.312673568725586,-0.4598751068115234,-0.0,-0.0,-1.0,0.2106578412900549,1.0
22.65955352783203,4.999455451965332,-0.5447328090667725,-0.0,-0.0,-1.0,0.1793000854257954,2.0
22.745525360107425,4.921207427978516,-0.5696897506713867,-0.0,-0.0,-1.0,0.1878371838073739,1.0
22.95758628845215,4.897507667541504,-0.6072738170623779,-0.0,-0.0,-1.0,0.26650656376739,2.0
23.402854919433594,4.80734920501709,-0.6932315826416016,-0.0,-0.0,-1.0,0.0829399580975902,1.0
21.90321350097656,4.842878341674805,-0.3120086193084717,-0.0,-0.0,-1.0,0.2102595486404135,1.0
22.153125762939453,5.158084869384766,-0.2998242378234863,-0.0,-0.0,-1.0,0.1681038199610081,1.0
22.41857147216797,5.250411033630371,-0.3231315612792969,-0.0,-0.0,-1.0,0.2704500544460798,2.0
22.676380157470703,4.910769462585449,-0.4078006744384765,-0.0,-0.0,-1.0,0.1986826588744893,2.0
22.97403335571289,4.552817344665527,-0.5009512901306152,0.848651474778198,-0.316661619734966,-0.4236933949728475,0.0681904258755975,3.0
23.167076110839844,4.0380401611328125,-0.6015434265136719,-0.0,-0.0,-1.0,0.0315612334721256,2.0
23.509206771850582,4.385617256164551,-0.6024584770202637,-0.9246418550450624,0.0400926451225445,-0.3787215596000625,0.1442823103218797,3.0
23.432544708251953,4.048676490783691,-0.6384592056274414,-0.0,-0.0,-1.0,0.0370042782456492,2.0
23.436614990234375,4.844088554382324,-0.5277125835418701,-0.0,-0.0,-1.0,0.0822820127069186,1.0
21.749725341796875,4.220152854919434,-0.6240372657775879,-0.0,-0.0,-1.0,0.1491012103620413,1.0
21.920400619506836,4.838872909545898,-0.5428164005279541,-0.0,-0.0,-1.0,0.1119802140839621,1.0
22.1921443939209,5.148839950561523,-0.5287842750549316,-0.0,-0.0,-1.0,0.1167797585897173,1.0
22.369218826293945,5.394883155822754,-0.5134506225585938,-0.0,-0.0,-1.0,0.1813349789612547,1.0
22.565563201904297,5.344886779785156,-0.550590991973877,-0.340123898167068,-0.8145948413229364,-0.4698414396216004,0.2674381890958497,4.0
22.867286682128903,5.238706588745117,-0.6129469871520996,-0.0,-0.0,-1.0,0.100724876221312,2.0
23.091136932373047,5.136404991149902,-0.6638154983520508,-0.0,-0.0,-1.0,0.0629391755727633,1.0
23.37928771972656,5.023897171020508,-0.7267975807189941,-0.0,-0.0,-1.0,0.0632213875897108,1.0
23.674571990966797,4.986488342285156,-0.7799992561340332,-0.0,-0.0,-1.0,0.0871206809137203,2.0
21.969221115112305,4.702509880065918,-0.3912305831909179,-0.0,-0.0,-1.0,0.1660910064499735,1.0
21.950578689575195,4.583032608032227,-0.4085142612457275,-0.0,-0.0,-1.0,0.1875581092111802,1.0
22.04855155944824,4.779141426086426,-0.3891100883483886,0.2478360090195463,-0.7865856568650798,0.5655619480193078,0.186733828735109,3.0
21.94207000732422,5.544933319091797,-0.734161376953125,-0.0,-0.0,-1.0,0.0492946866304706,1.0
22.757083892822266,4.934795379638672,-0.4622416496276855,-0.0,-0.0,-1.0,0.1674801828847813,1.0
22.95212173461914,4.817690849304199,-0.5096108913421631,-0.0,-0.0,-1.0,0.1989962793421047,2.0
23.24454116821289,4.582832336425781,-0.5906374454498291,-0.0,-0.0,-1.0,0.1303878290436454,1.0
23.482524871826172,4.663524627685547,-0.6141617298126221,-0.0,-0.0,-1.0,0.0881995185260378,1.0
22.16924476623535,4.961360931396484,-0.3754146099090576,-0.0,-0.0,-1.0,0.2410407824639321,1.0
22.371959686279297,5.19545841217041,-0.3652048110961914,-0.0,-0.0,-1.0,0.2044999587614042,1.0
22.624746322631836,5.183723449707031,-0.402989387512207,0.7081219980968598,-0.0346555827280369,-0.7052391271030637,0.2187530799970045,5.0
23.36969566345215,3.748227119445801,-0.6356344223022461,-0.0,-0.0,-1.0,0.074639244271664,2.0
23.492677688598633,3.7798337936401367,-0.6458933353424072,0.6380364447835047,-0.5069327688468177,-0.5795935325703042,0.1473951168065424,5.0
21.971040725708008,5.222369194030762,-0.6741468906402588,-0.0,-0.0,-1.0,0.0628374106596451,1.0
22.15000343322754,5.328917503356934,-0.6731688976287842,-0.5041738064925999,0.7034978194913716,-0.5008987830067547,0.0708647224367633,5.0
22.404272079467773,5.482202529907227,-0.6731381416320801,-0.0,-0.0,-1.0,0.1359280761363368,2.0
22.712867736816406,5.590873718261719,-0.691326379776001,-0.0,-0.0,-1.0,0.1275124690346275,2.0
23.076623916625977,5.52603816986084,-0.7562012672424316,-0.0,-0.0,-1.0,0.0846786799399342,2.0
23.26991081237793,5.504400253295898,-0.7888226509094238,-0.0,-0.0,-1.0,0.0591937018784768,1.0
23.529300689697266,5.511080741882324,-0.8265681266784668,-0.0,-0.0,-1.0,0.0249365776147872,2.0
22.018171310424805,4.936549186706543,-0.2628321647644043,-0.0,-0.0,-1.0,0.2017945865698145,2.0
22.183807373046875,4.729913711547852,-0.3185317516326904,0.7750836819788169,-0.402958594852928,-0.4866925690457109,0.1677710846649855,5.0
22.367013931274418,5.030487060546875,-0.2859716415405273,-0.4268430449273349,-0.9019120661910628,0.0660275689097289,0.1697632876977982,4.0
22.511693954467773,5.187721252441406,-0.2751572132110595,-0.2205059824469098,0.5240453648835405,0.8226503310940801,0.2418937150211783,7.0
22.663589477539062,5.145114898681641,-0.3012299537658691,0.3834600955738758,0.3738166026802774,-0.8445232398596554,0.1439911064938328,4.0
22.882617950439453,4.876664161682129,-0.3757317066192627,0.2626431287672693,-0.7207857131419618,-0.6414721682518834,0.1680967198544499,7.0
23.6132755279541,4.587423324584961,-0.5213918685913086,-0.0,-0.0,-1.0,0.1921061055543104,2.0
22.378583908081055,4.731022834777832,-0.2338066101074218,-0.0628861871136554,-0.2642053281099035,-0.9624140855518714,0.0946392648098883,5.0
22.6243896484375,4.804384231567383,-0.2502753734588623,-0.0,-0.0,-1.0,0.0776155314112266,2.0
22.768835067749023,4.846133232116699,-0.2608983516693115,-0.0,-0.0,-1.0,0.0609326303619197,2.0
23.625225067138672,4.342365264892578,-0.4695887565612793,0.929437547493712,0.1994643595234426,0.3104187729322707,0.2304829197779103,9.0
22.83388900756836,3.691054344177246,-0.3568439483642578,0.3167247434102121,-0.0833602060640617,-0.9448473490234774,0.1501483468413838,3.0
23.00374412536621,4.544939994812012,-0.185206651687622,-0.0,-0.0,-1.0,0.1146187478475544,2.0
23.64122200012207,5.544088363647461,-0.8125878572463989,0.5848686442257162,0.3314103602010551,-0.7403349526754621,0.0272364078516811,3.0
23.372051239013672,4.0697832107543945,-0.6097506284713745,-0.0,-0.0,-1.0,0.0445078960188737,1.0
23.585233688354492,3.9022836685180664,-0.6192296743392944,-0.0,-0.0,-1.0,0.1654245017264425,2.0
23.3004150390625,4.304299354553223,-0.5805569887161255,-0.0,-0.0,-1.0,0.0363185549167096,1.0
23.43984603881836,4.216756820678711,-0.582828164100647,-0.1355331087598226,-0.8412979172728031,-0.5233054469641433,0.092200179303678,4.0
22.996862411499023,4.91893196105957,-0.5161401033401489,-0.6622161686466072,-0.2484771760510782,-0.7069150153764523,0.2188993160733797,3.0
23.18921661376953,4.750182151794434,-0.5243436098098755,-0.0,-0.0,-1.0,0.0901624296220525,1.0
22.05219078063965,5.076498985290527,-0.5824090242385864,-0.0,-0.0,-1.0,0.1297990072011798,2.0
22.45815086364746,5.241987228393555,-0.5199254751205444,-0.0,-0.0,-1.0,0.2370638558956348,1.0
22.81263542175293,5.116788864135742,-0.5044595003128052,0.4698955624360732,-0.1087541631721594,-0.8759969705402006,0.0518446085256331,3.0
22.706262588500977,5.358119964599609,-0.4802879095077514,0.0338069426216517,-0.6941183225008357,-0.7190666485098596,0.2072379158929367,3.0
22.5186824798584,3.835549354553222,-0.5620442628860474,-0.5789335020544947,0.354983987569868,0.7340452089400997,0.0197535530501915,6.0
23.53597068786621,5.325957298278809,-0.7931129932403564,0.9197300969497856,0.0944307575991024,-0.3810241210002287,0.0611648981986995,3.0
23.70769500732422,5.227457046508789,-0.7948479652404785,-0.0,-0.0,-1.0,0.0415924655499451,2.0
23.373291015625,5.486368179321289,-0.7826673984527588,-0.0,-0.0,-1.0,0.0350544644574076,2.0
23.608417510986328,4.323190689086914,-0.4457273483276367,0.2777473349414298,-0.2799040397470902,-0.9189723317196186,0.1991271552980529,8.0
22.040836334228516,4.750945091247559,-0.4916434288024902,0.7950335150473308,0.5866609835614506,0.1541122977513388,0.2436175161754086,5.0
22.901611328125,4.934610366821289,-0.4151277542114258,0.9992968166384923,-0.0173258207368057,-0.0332518900511152,0.1062114400897406,6.0
22.32284927368164,5.0366315841674805,-0.4416106939315796,-0.0,-0.0,-1.0,0.1133057529897416,1.0
22.667932510375977,5.231618881225586,-0.397374153137207,-0.2140304217123785,0.1546437315142057,-0.964508317685744,0.173117810973125,7.0
22.79805564880371,5.033890724182129,-0.4105665683746338,0.5285308960624384,-0.8390315618591955,-0.1291554494071174,0.1135795853962708,3.0
22.449642181396484,5.471408843994141,-0.3863269090652466,-0.0,-0.0,-1.0,0.2461413611684444,2.0
22.916481018066406,3.725168228149414,-0.397496223449707,0.4318854078957158,0.1361205377996826,-0.8915975513850836,0.1535286785042724,6.0
23.47435760498047,5.081384658813477,-0.7216625213623047,-0.0,-0.0,-1.0,0.0808431388053611,2.0
23.00972557067871,5.474390029907227,-0.7168006896972656,-0.0,-0.0,-1.0,0.0762663055855574,2.0
23.301280975341797,5.28480339050293,-0.712338924407959,0.7286117637776126,-0.3948705716464964,-0.5596446455854334,0.1271733135168834,4.0
22.88919448852539,4.8415021896362305,-0.2966867685317993,-0.5684306131390224,-0.0171862513603388,-0.8225516827595541,0.1893897348556954,4.0
22.69882583618164,5.150358200073242,-0.2831052541732788,-0.4415651938260765,0.7205790051149777,0.5345896341950978,0.1496254428879576,6.0
22.83525276184082,4.966888427734375,-0.2893142700195312,-0.0,-0.0,-1.0,0.1605057897041183,1.0
22.32492446899414,5.529473304748535,-0.279406189918518,-0.0,-0.0,-1.0,0.2144704424551589,1.0
22.799196243286133,3.652945518493652,-0.5653519630432129,-0.6115605040813341,0.4204626601967696,-0.6702274996059477,0.140483157578964,3.0
22.551286697387695,3.8569822311401367,-0.5674870014190674,-0.2265652246265131,0.8251478252240284,0.5174932516642065,0.0328827838202551,5.0
22.774375915527344,3.696310043334961,-0.5634750127792358,-0.0,-0.0,-1.0,0.1235967509944475,2.0
23.59942054748535,4.341508865356445,-0.4419703483581543,0.246430510708589,-0.1146869606716964,-0.9623507180045084,0.2304829197779104,8.0
21.91554832458496,4.7432355880737305,-0.5501083135604858,-0.0,-0.0,-1.0,0.1251572811524954,2.0
22.997657775878903,4.728687286376953,-0.4563140869140625,-0.5389888069631026,0.8096459229737042,-0.2323027020517634,0.1581185765773357,4.0
22.43239402770996,5.245574951171875,-0.463721752166748,-0.0,-0.0,-1.0,0.1450920128284895,1.0
22.804677963256836,5.043622970581055,-0.4466902017593384,-0.3345670535850268,-0.8914742971585234,-0.3055134435031464,0.1262176025346432,4.0
22.583711624145508,5.3401031494140625,-0.4426101446151733,0.9600109245501248,-0.0451218325396582,0.276302451984556,0.2243225271194706,4.0
22.736474990844727,5.287946701049805,-0.4329187870025635,0.3547314626183185,-0.0948256235770541,-0.9301471338137272,0.1882907446836183,10.0
23.681575775146484,5.5146331787109375,-0.8258068561553955,0.7549910992278124,0.6478887308126196,-0.1011367024022077,0.0236655742110276,4.0
22.280921936035156,3.790280342102051,-0.5924514532089233,-0.0,-0.0,-1.0,0.027644937883345,1.0
22.388944625854492,3.7867822647094727,-0.5841829776763916,-0.4802783875453572,0.8749266587964796,-0.0619355486296877,0.027290104874961,3.0
22.5059871673584,3.7905569076538086,-0.5746856927871704,-0.7244764831870211,0.0107748858211411,0.689215298106845,0.0197533903742851,3.0
22.763561248779297,4.4681549072265625,-0.4975788593292236,0.2892742790260343,0.2806143343980213,-0.9151917759815827,0.1409381542014333,4.0
23.596071243286133,4.370492935180664,-0.4417315721511841,-0.5140748174914689,-0.0614217118387192,-0.8555433684717065,0.2450928264665535,7.0
22.952590942382812,4.913637161254883,-0.4457237720489502,-0.4793497915174214,0.4599100144688856,-0.74746675910266,0.1313360494415201,3.0
22.727493286132812,5.228999137878418,-0.4394463300704956,-0.8752378331340605,-0.3164489158978115,-0.3658125463647935,0.162229840775556,8.0
22.854537963867188,5.0078840255737305,-0.4461841583251953,0.8811994440294233,0.3388278571686794,-0.3296713864573573,0.1511760998231624,3.0
23.707229614257812,4.295047760009766,-0.6303101778030396,-0.0,-0.0,-1.0,0.1241787887295504,1.0
23.458961486816406,4.794305801391602,-0.6145375967025757,-0.0,-0.0,-1.0,0.0713566370895866,2.0
23.432004928588867,5.002157211303711,-0.601456880569458,-0.0,-0.0,-1.0,0.0696860661030236,2.0
23.697589874267575,3.881960868835449,-0.6553894281387329,-0.0,-0.0,-1.0,0.1537448732711946,2.0
23.24115943908691,5.512409210205078,-0.7058496475219727,-0.0,-0.0,-1.0,0.0416185553336316,2.0
23.478612899780273,5.2473955154418945,-0.6990952491760254,0.2225733956620108,-0.5307356868019404,-0.8177901407441609,0.0329150948419422,3.0
22.50684928894043,5.208732604980469,-0.4094921350479126,-0.7994816858769136,0.1568409218374568,0.5798533945615777,0.2120266195682072,7.0
22.902814865112305,4.951615333557129,-0.3886200189590454,0.8561471597593103,0.4576827523657542,-0.2398719221229817,0.0973724839853726,4.0
23.0827693939209,4.692319869995117,-0.3806864023208618,-0.0,-0.0,-1.0,0.1745433976208935,1.0
23.294897079467773,5.564927577972412,-0.7660022974014282,-0.0,-0.0,-1.0,0.0431536547387091,1.0
23.454599380493164,5.35162878036499,-0.7612103223800659,0.4332031409606839,-0.5497238027292142,-0.7142400012423904,0.075709342215946,4.0
21.721933364868164,4.683290481567383,-0.2488503456115722,-0.0,-0.0,-1.0,0.1876190092302948,1.0
22.754718780517575,5.272984027862549,-0.3357464075088501,-0.2308289439394785,0.5332696623471107,-0.81384363723014,0.2371477411084225,3.0
22.881824493408203,4.989129543304443,-0.3286259174346924,0.1641233282739,0.4429883249507635,-0.8813766941969899,0.1267128453880247,3.0
23.04638671875,5.424046516418457,-0.8633545637130737,-0.0,-0.0,-1.0,0.0634097406283715,1.0
23.41084861755371,5.13261604309082,-0.8352216482162476,-0.0,-0.0,-1.0,0.1216375162669966,1.0
23.263580322265625,5.332531452178955,-0.8459419012069702,-0.0,-0.0,-1.0,0.1489522105823887,1.0
23.559497833251953,4.836683750152588,-0.8253666162490845,-0.0,-0.0,-1.0,0.0986995478176302,1.0
22.90171813964844,4.860654354095459,-0.521804928779602,-0.0,-0.0,-1.0,0.166627908833023,1.0
23.189687728881836,4.294599533081055,-0.5275717973709106,-0.0,-0.0,-1.0,0.0538347772125529,1.0
22.97108268737793,4.582430839538574,-0.528994083404541,0.848651474778198,-0.316661619734966,-0.4236933949728475,0.111814995908708,3.0
23.194812774658203,3.8728437423706055,-0.5451846122741699,-0.0,-0.0,-1.0,0.0430122965038637,1.0
23.172317504882812,4.006684303283691,-0.5408364534378052,-0.0,-0.0,-1.0,0.0395859681709736,2.0
23.00957679748535,3.7190752029418945,-0.5631290674209595,-0.0,-0.0,-1.0,0.1567009775194074,2.0
23.343494415283203,5.434975624084473,-0.7638089656829834,-0.0,-0.0,-1.0,0.0519696640974021,2.0
23.199193954467773,5.57893705368042,-0.773787260055542,-0.0,-0.0,-1.0,0.0382032408258619,1.0
23.431665420532227,5.348428249359131,-0.7592523097991943,0.4332031409606839,-0.5497238027292142,-0.7142400012423904,0.0802857524026146,4.0
23.217269897460938,5.524843692779541,-0.7711217403411865,-0.0,-0.0,-1.0,0.0400889038139899,1.0
23.688629150390625,5.4384379386901855,-0.8027188777923584,-0.0,-0.0,-1.0,0.0221688834239845,2.0
22.793569564819336,5.3904571533203125,-0.6078774929046631,-0.0,-0.0,-1.0,0.1520710080958332,1.0
22.47504425048828,5.466402053833008,-0.631934642791748,-0.0,-0.0,-1.0,0.1373677505575067,2.0
22.078716278076172,5.510777950286865,-0.6636373996734619,-0.5421475918985416,-0.0732943136902417,-0.8370806007663117,0.0889915930720833,6.0
23.288164138793945,4.761412620544434,-0.588546872138977,0.6629238070750573,0.6889765617847746,-0.2929903126800324,0.0770294159066254,3.0
23.070011138916016,5.027029037475586,-0.5973258018493652,-0.8991786812930881,-0.3406087323376284,-0.2747060075123531,0.0834614910336057,3.0
22.850170135498047,5.214208602905273,-0.6091339588165283,-0.0,-0.0,-1.0,0.1174464904741648,2.0
22.097333908081055,5.435676574707031,-0.6645529270172119,-0.0,-0.0,-1.0,0.0717868054181828,1.0
23.334211349487305,4.541434288024902,-0.5926083326339722,-0.916999065708178,-0.3767376108038767,-0.1310781678851022,0.0956306189968675,3.0
23.23914337158203,4.088987350463867,-0.616889238357544,0.6079209670847855,-0.7573002211408337,0.2385968835478438,0.0379637135382856,3.0
23.24968147277832,3.8012866973876953,-0.626683235168457,-0.0,-0.0,-1.0,0.0334923124473374,1.0
22.797544479370117,5.210622787475586,-0.5213116407394409,-0.1649470214207784,-0.0844005802064342,-0.9826845995461768,0.1307590882827852,5.0
22.413286209106445,5.275021553039551,-0.5498629808425903,-0.0,-0.0,-1.0,0.236535270922383,1.0
23.115219116210938,4.729091644287109,-0.5148410797119141,0.7664205538072917,0.1046693604079747,-0.633753784756754,0.157945417496391,4.0
22.82345390319824,5.026304244995117,-0.5263943672180176,0.3097464404032397,-0.81624488127331,-0.4876488864466341,0.1792119620377361,3.0
23.641084671020508,4.240647315979004,-0.4932559728622436,-0.0,-0.0,-1.0,0.1381534625925731,1.0
22.97658920288086,4.420105934143066,-0.5384930372238159,-0.0,-0.0,-1.0,0.0494658761185227,2.0
22.44524574279785,3.944706916809082,-0.6003032922744751,-0.0,-0.0,-1.0,0.0180297677429029,1.0
22.82164192199707,3.658164978027344,-0.5825585126876831,-0.0,-0.0,-1.0,0.1602929434612635,2.0
22.515193939208984,3.854804992675781,-0.598495364189148,-0.5102801173661821,0.651720366711799,0.5611370291058986,0.0190697955969277,5.0
23.352466583251953,5.297577857971191,-0.7301865816116333,-0.2388395540047776,-0.3288314499352172,-0.913687881596501,0.0622943662748086,5.0
22.701505661010746,5.204763412475586,-0.3821784257888794,-0.2933897498393049,-0.8214366001969664,-0.4890443400613884,0.2199760530929228,6.0
22.854949951171875,4.912446022033691,-0.3912988901138305,0.0848154148464105,-0.4203977765246093,-0.9033670654266712,0.1655998733496657,4.0
22.769012451171875,5.090475082397461,-0.385212779045105,-0.8394394846782227,0.0206045010658681,-0.5430624329660326,0.0828438708029358,3.0
22.781238555908203,4.606480598449707,-0.4163888692855835,-0.0,-0.0,-1.0,0.1316805872413465,1.0
22.73978042602539,5.136981010437012,-0.3978227376937866,-0.4655894807379948,-0.8065492858759447,-0.3642865422701309,0.1611074158585752,3.0
22.893970489501953,4.894600868225098,-0.3994046449661255,-0.4490493484952422,-0.3353752007016852,-0.828177612212684,0.0979359591899427,6.0
22.821136474609375,3.757613182067871,-0.4702345132827759,-0.0,-0.0,-1.0,0.1531274406646231,1.0
21.969444274902344,3.667731285095215,-0.540413498878479,-0.9750483497114164,0.2201462480913135,-0.0285717548701683,0.0375279793759792,4.0
23.36365127563477,5.259696960449219,-0.707505464553833,-0.0,-0.0,-1.0,0.0671698446615945,2.0
23.10095977783203,5.477240562438965,-0.7174389362335205,-0.2405969943425518,-0.097894393295441,-0.9656758120998205,0.0867277190537803,3.0
22.35587501525879,4.724992752075195,-0.2088997364044189,-0.6466799500925486,0.6241094274114343,-0.4385116472392388,0.0611002941193879,3.0
23.102832794189453,5.30721378326416,-0.6645951271057129,-0.0,-0.0,-1.0,0.0832919488200458,1.0
22.88058853149414,5.537668228149414,-0.665912389755249,0.3658768911228145,0.8340208546906769,0.4129689025620896,0.0902343314822592,4.0
23.408447265625,5.035825729370117,-0.6598888635635376,-0.0,-0.0,-1.0,0.0706608138389398,2.0
23.25395774841309,5.206845283508301,-0.6593379974365234,-0.0,-0.0,-1.0,0.0655643982504247,1.0
21.962804794311523,4.917356491088867,-0.1801586151123047,-0.0,-0.0,-1.0,0.2022917487669071,1.0
22.780866622924805,5.060129165649414,-0.4682462215423584,-0.0,-0.0,-1.0,0.1957528883306059,2.0
22.66694068908691,5.269925117492676,-0.4597971439361572,-0.0,-0.0,-1.0,0.1350714816886202,2.0
23.67612075805664,4.356266021728516,-0.4632272720336914,-0.5785847989385666,0.5227409296447296,-0.6260843001636299,0.2040276449735457,3.0
22.937021255493164,4.859313011169434,-0.4733026027679443,-0.2481640834835971,-0.2920452859961067,-0.9236471937900308,0.1866169929698184,4.0
22.26768493652344,5.161125183105469,-0.4979567527770996,-0.0,-0.0,-1.0,0.2146402360567177,1.0
23.546953201293945,4.075220108032227,-0.4961487054824829,-0.0,-0.0,-1.0,0.0762921644775107,1.0
22.97220802307129,4.474517822265625,-0.5024838447570801,-0.2423379422965868,0.5504219605146429,-0.7989417920641487,0.076638917364572,3.0
22.579586029052734,3.86370849609375,-0.5812240839004517,-0.0,-0.0,-1.0,0.0353387768489777,2.0
22.574493408203125,3.798294067382813,-0.5870891809463501,-0.0,-0.0,-1.0,0.0347542948572407,1.0
22.502445220947266,5.449522018432617,-0.4549927711486816,-0.5729802963572994,-0.7490122613602455,0.3326773396525722,0.2244876081083529,3.0
22.957887649536133,4.882225036621094,-0.4684481620788574,-0.6405205628361004,0.4790392527274821,-0.6002122982165733,0.178677293593982,4.0
22.76848602294922,5.146405220031738,-0.4600834846496582,-0.0,-0.0,-1.0,0.088352067184615,2.0
22.529102325439453,5.329188346862793,-0.4631104469299316,-0.2880444338768941,0.9488567681656104,-0.1292332682355931,0.2077192680431521,4.0
23.001924514770508,4.632959365844727,-0.4870710372924804,0.6615764816370185,0.2303191021474743,-0.7136313264780106,0.1008136587569768,3.0
22.559131622314453,4.141542434692383,-0.5640645027160645,-0.0,-0.0,-1.0,0.0274635077115376,1.0
22.69439697265625,3.7801122665405273,-0.5862720012664795,-0.0940770888016471,-0.0326377385454981,-0.9950297881899028,0.0555982710096272,3.0
22.51510238647461,3.862687110900879,-0.5921980142593384,-0.5102801173661821,0.651720366711799,0.5611370291058986,0.0152200461977881,5.0
23.331069946289062,5.222260475158691,-0.719571590423584,-0.0,-0.0,-1.0,0.1346276723836043,2.0
23.127185821533203,5.344554901123047,-0.727287769317627,-0.4707941592047581,0.7885758644197203,-0.3956020294606384,0.1060524799982822,3.0
23.42333984375,5.070554733276367,-0.7259805202484131,-0.0,-0.0,-1.0,0.0930654061501197,2.0
22.526161193847656,5.04033088684082,-0.2764447927474975,-0.2573037299968847,0.160684870994202,-0.9528773072978844,0.1567470803797798,4.0
22.783916473388672,4.798147201538086,-0.2752463817596435,-0.0,-0.0,-1.0,0.1595765577713697,2.0
22.687150955200195,4.8912506103515625,-0.2754873037338257,0.4572557503233591,0.4653768644753033,-0.757853252818352,0.1652718712408284,4.0
23.680583953857425,5.5978546142578125,-0.8261891603469849,-0.0,-0.0,-1.0,0.0272364078516811,1.0
22.739118576049805,5.251392364501953,-0.4461966753005981,0.9434490500022378,-0.2398820982076344,-0.2288241005868441,0.1633316536296744,10.0
22.523536682128903,5.437787055969238,-0.445087194442749,-0.0,-0.0,-1.0,0.1918926279890344,2.0
23.016496658325195,4.888444900512695,-0.4601669311523437,0.5499441852980779,0.7875135675228874,-0.2781793918035778,0.1194996177967714,3.0
22.849185943603516,5.007246017456055,-0.4611456394195556,0.8811994440294233,0.3388278571686794,-0.3296713864573573,0.1398983364474467,3.0
22.991165161132812,4.484894752502441,-0.5010849237442017,-0.2423379422965868,0.5504219605146429,-0.7989417920641487,0.1457296017006415,3.0
22.157791137695312,4.82835578918457,-0.5303086042404175,0.935773023882434,-0.2875081092828312,-0.2041272516606675,0.1086082893224657,4.0
21.830047607421875,4.702610969543457,-0.5672870874404907,-0.0,-0.0,-1.0,0.1913885647317443,2.0
22.718048095703125,3.920634269714355,-0.5758248567581177,-0.0,-0.0,-1.0,0.0878899362204594,2.0
22.703290939331055,3.807039260864258,-0.5879961252212524,-0.0940770888016471,-0.0326377385454981,-0.9950297881899028,0.0573765978254841,3.0
22.83295631408691,5.540187835693359,-0.6609247922897339,0.2100320346362716,0.9750597205356486,-0.071729253554536,0.1051009726240157,7.0
22.507343292236328,5.5896806716918945,-0.6890280246734619,0.3860664831014587,0.6000630624922322,-0.700626142573994,0.114724741441892,4.0
22.364269256591797,4.9397478103637695,-0.2614493370056152,0.0715409324207752,-0.2185674108524606,-0.97319585998997,0.1901599932826213,4.0
22.063796997070312,5.472964286804199,-0.671977162361145,-0.7679459770000006,0.3891863529900443,-0.5087169734300426,0.0705384275187366,5.0
21.84942626953125,5.389525413513184,-0.6992741823196411,-0.0,-0.0,-1.0,0.102231187505926,2.0
22.598548889160156,5.398887634277344,-0.64166259765625,0.1139500513790155,0.2055552427113341,-0.9719889032209188,0.1277940926684027,3.0
22.418781280517575,5.4928131103515625,-0.6426329612731934,-0.0,-0.0,-1.0,0.1361500798892529,2.0
22.183490753173828,5.49421501159668,-0.6600857973098755,-0.982668914559076,0.0942782389439275,-0.159603941119631,0.0837060372963687,4.0
23.215953826904297,5.456931114196777,-0.7667863368988037,-0.0,-0.0,-1.0,0.0751586516379868,1.0
23.27385711669922,5.336481094360352,-0.7868049144744873,-0.0,-0.0,-1.0,0.147668091117181,2.0
22.893409729003903,4.944758415222168,-0.4328045845031738,0.9668693615146554,0.2514914857838818,0.0437683714851063,0.105308549099354,7.0
22.68155860900879,5.13420295715332,-0.4098067283630371,-0.0,-0.0,-1.0,0.2044891854661941,1.0
22.298818588256836,4.924989700317383,-0.4464595317840576,-0.0,-0.0,-1.0,0.1756227275251674,2.0
22.95294952392578,4.821938514709473,-0.4492044448852539,0.932418918549024,0.35549245159027,-0.0649621212262036,0.202029176924398,3.0
22.155601501464844,4.736833572387695,-0.4757603406906128,0.0887821551482805,-0.9162456539912,0.3906553858190924,0.1494853923319488,5.0
21.88658905029297,4.595995903015137,-0.5012933015823364,-0.0,-0.0,-1.0,0.1672782993115695,2.0
22.596342086791992,5.328222274780273,-0.5284830331802368,-0.3591691880259337,-0.9139585959047168,-0.188884036765073,0.2850102592294584,3.0
22.78126335144043,5.235044479370117,-0.5424579381942749,0.2988075127165375,-0.2579468506771111,-0.9187913215577934,0.1709473681639766,5.0
22.444278717041016,5.13563346862793,-0.5606770515441895,0.1853330422240142,0.6622909795499016,0.7259630306474453,0.1986194164798407,3.0
22.097972869873047,4.910204887390137,-0.600218653678894,-0.0,-0.0,-1.0,0.1647930014591464,1.0
21.890567779541016,4.787115097045898,-0.6223741769790649,-0.6613339213171472,-0.186230878484448,-0.7266054668210228,0.0878183922690053,3.0
22.88301467895508,4.972560882568359,-0.5844374895095825,-0.0,-0.0,-1.0,0.2193284438245843,1.0
21.997880935668945,4.859480857849121,-0.1881283521652221,-0.7470973316913153,-0.0702915113248622,-0.6609876552670125,0.2143447885385975,3.0
22.403989791870117,5.618690490722656,-0.6551597118377686,-0.0,-0.0,-1.0,0.1316453106193497,2.0
22.063663482666016,5.546822547912598,-0.6705054044723511,-0.7185348807572774,-0.4074666328344254,-0.5636298149155174,0.0789890636774341,3.0
22.809885025024418,5.554343223571777,-0.6668341159820557,0.3983472018350878,0.9157428222820112,-0.0522933096020173,0.1250876533684296,4.0
22.542240142822266,5.595412254333496,-0.659170389175415,0.2899329000495275,0.5637520388724888,-0.7733838323471616,0.0923870132590483,5.0
22.18132209777832,5.509978294372559,-0.6764657497406006,-0.7030738611741005,0.4343862048904612,-0.563023774573156,0.0966073960914626,5.0
21.78921890258789,5.348271369934082,-0.7098965644836426,-0.0,-0.0,-1.0,0.1279394996350957,2.0
22.55726623535156,5.287586212158203,-0.3288791179656982,-0.4931017516680602,0.8482343200721437,-0.1932594131048687,0.215348279457985,3.0
22.421031951904297,5.2119245529174805,-0.3399776220321655,-0.0,-0.0,-1.0,0.2642477141599459,2.0
22.75299072265625,5.076704025268555,-0.3609696626663208,-0.8394394846782227,0.0206045010658681,-0.5430624329660326,0.092436832864742,3.0
22.29119873046875,5.073493957519531,-0.3606172800064087,-0.0,-0.0,-1.0,0.2116805763247969,2.0
22.090391159057617,4.781312942504883,-0.4044245481491089,-0.3175859323852163,-0.2768569423774671,-0.9069120183393824,0.2376638432387808,3.0
22.17862319946289,5.396920204162598,-0.637311577796936,-0.0,-0.0,-1.0,0.0682822698501887,1.0
21.97557258605957,5.304056167602539,-0.6450092792510986,-0.0,-0.0,-1.0,0.0417961218831846,2.0
23.09519386291504,5.421645164489746,-0.6860162019729614,-0.0,-0.0,-1.0,0.1465088648230352,1.0
23.006654739379883,5.458318710327148,-0.6732873916625977,-0.0,-0.0,-1.0,0.0739314347068829,2.0
23.629919052124023,5.245351791381836,-0.756682276725769,-0.0,-0.0,-1.0,0.0354671774163165,2.0
23.386322021484375,5.346614837646484,-0.7201043367385864,0.6301668767977722,0.0937617195272415,-0.7707778196978919,0.0423468486247774,3.0
22.66769027709961,5.614289283752441,-0.6228394508361816,-0.0,-0.0,-1.0,0.1073635818707625,1.0
22.337263107299805,5.50297737121582,-0.6254417896270752,-0.0,-0.0,-1.0,0.1307162126427484,1.0
22.767974853515625,5.382701873779297,-0.4880613088607788,0.4446283671652948,-0.3874621180898777,-0.807575830592539,0.1516886747918051,7.0
22.509822845458984,5.215749740600586,-0.3197157382965088,-0.1535705790423649,-0.2536759909529664,-0.9550207164593988,0.1856260618913088,5.0
22.29049301147461,4.99520206451416,-0.3417927026748657,-0.0,-0.0,-1.0,0.194294512957843,2.0
22.890249252319336,4.976329803466797,-0.378703236579895,-0.0,-0.0,-1.0,0.0900500388691959,2.0
22.821887969970703,5.018095016479492,-0.3681437969207763,0.8807393465945146,0.3513194856578096,-0.3176048210550334,0.0763010951484284,4.0
22.175518035888672,4.809121131896973,-0.3645073175430298,-0.0,-0.0,-1.0,0.1660246021438743,2.0
22.074546813964844,4.684844970703125,-0.3785072565078735,-0.0,-0.0,-1.0,0.1816536931365425,1.0
23.628767013549805,4.310077667236328,-0.528799295425415,0.0813044585336933,-0.98114568332214,-0.17533605767461,0.1340537513783742,5.0
23.57279586791992,3.832913398742676,-0.5984944105148315,-0.0,-0.0,-1.0,0.151865609164036,2.0
23.29023170471191,3.759976387023926,-0.5913151502609253,-0.0,-0.0,-1.0,0.0396233109511721,2.0
21.909515380859375,5.410982131958008,-0.7092374563217163,-0.0,-0.0,-1.0,0.0401071545422903,2.0
22.31260681152344,5.578769683837891,-0.6905736923217773,-0.0,-0.0,-1.0,0.0968485222425887,2.0
22.10508155822754,5.47139835357666,-0.7041294574737549,-0.0,-0.0,-1.0,0.0916955465334551,1.0
23.17937469482422,5.543994903564453,-0.7426164150238037,-0.0,-0.0,-1.0,0.0377261067667747,1.0
23.001340866088867,5.605374336242676,-0.7195873260498047,-0.0,-0.0,-1.0,0.0344914236591714,2.0
22.31755256652832,4.970086097717285,-0.4619622230529785,-0.3901291856806772,0.5690961032586863,0.7238292918471249,0.1528487378993166,4.0
22.06514549255371,4.7170305252075195,-0.4957246780395508,0.66425329101113,0.7301571178352758,0.1601191701682403,0.166837854467171,5.0
21.75607109069824,4.497580528259277,-0.5224142074584961,-0.0,-0.0,-1.0,0.1484836590455505,1.0
23.515758514404297,5.474208831787109,-0.777984619140625,-0.0,-0.0,-1.0,0.0275410621326723,2.0
22.984270095825195,4.913430213928223,-0.5024101734161377,0.1190482758906828,-0.541312628785796,-0.8323509752048511,0.1267379275479526,4.0
21.87398147583008,3.917567253112793,-0.6272155046463013,-0.0,-0.0,-1.0,0.108012583923335,2.0
23.387563705444336,4.70505428314209,-0.5594086647033691,-0.0,-0.0,-1.0,0.0429332135657217,2.0
23.210962295532227,4.801053047180176,-0.5333948135375977,-0.6470057505470309,0.7313161468614036,-0.2157782475108728,0.0913227344050474,3.0
23.657392501831055,4.639311790466309,-0.5858218669891357,0.3860248353204044,0.5679671019804372,-0.7269100340370862,0.2096033760100072,4.0
23.477127075195312,4.4812211990356445,-0.6027861833572388,-0.0,-0.0,-1.0,0.106834888544073,2.0
22.609580993652344,5.258073806762695,-0.4249039888381958,-0.5985486384072096,-0.5913558018646723,-0.5404052581737763,0.2189752739716432,5.0
22.430063247680664,5.119144439697266,-0.4408994913101196,0.1146065408310722,0.8076447133314689,-0.5784248938509349,0.1645152068550633,6.0
22.92102432250977,3.661823272705078,-0.315181016921997,-0.1078328943282225,0.9895682162934816,0.0955343509034076,0.1623512970737324,3.0
22.167911529541016,5.591024398803711,-0.7253615856170654,0.4808865470657537,0.2331317495880262,-0.8452205133485595,0.0832218589848266,7.0
21.808738708496097,5.430621147155762,-0.7360093593597412,-0.0,-0.0,-1.0,0.0396733636005614,2.0
23.603713989257812,5.637460708618164,-0.847355842590332,-0.0,-0.0,-1.0,0.0221686640063829,1.0
22.59086227416992,5.275739669799805,-0.508225679397583,-0.0,-0.0,-1.0,0.2802542684463006,2.0
22.314489364624023,4.989103317260742,-0.542288064956665,-0.0,-0.0,-1.0,0.1070245791723281,2.0
21.965429306030273,4.7351226806640625,-0.5670168399810791,-0.0,-0.0,-1.0,0.0859450755987421,2.0
22.76182556152344,5.378091812133789,-0.5022422075271606,-0.5797733029331098,-0.7491456209376742,-0.3203806421055104,0.1485306742773474,7.0
22.94890785217285,5.146237373352051,-0.5619442462921143,-0.0,-0.0,-1.0,0.0490078774130851,2.0
23.299259185791016,5.015191078186035,-0.6172733306884766,-0.0,-0.0,-1.0,0.0720047153246955,2.0
23.070158004760746,5.109683990478516,-0.5791780948638916,-0.0,-0.0,-1.0,0.0775080582720049,2.0
23.667644500732425,4.857578277587891,-0.6808725595474243,-0.0,-0.0,-1.0,0.1577913478120395,2.0
23.622882843017575,3.6446971893310542,-0.5214024782180786,-0.0,-0.0,-1.0,0.1427835699958831,2.0
22.32356834411621,4.888874053955078,-0.2314136028289795,-0.844385518097793,-0.4782553703747747,0.241422653316563,0.1670395487714602,4.0
22.749094009399418,4.975637435913086,-0.247917890548706,0.1265383066364444,-0.0199825555444777,-0.9917604319731118,0.0901998150285304,4.0
22.525211334228516,4.957036018371582,-0.2347028255462646,-0.1099027599591042,0.9075793475989936,-0.4052420402243035,0.0642855614005016,3.0
22.176742553710938,5.626463890075684,-0.7181750535964966,-0.1798488660539463,0.2383483535963247,-0.9543817096513488,0.0782319768275646,3.0
22.039573669433594,5.246635913848877,-0.6545051336288452,-0.0,-0.0,-1.0,0.075991658604924,2.0
21.715715408325195,4.996539115905762,-0.6826971769332886,-0.0,-0.0,-1.0,0.0603498672978179,1.0
22.785680770874023,5.618770599365234,-0.6500097513198853,-0.0,-0.0,-1.0,0.137335471493102,2.0
22.48040771484375,5.495870113372803,-0.6430093050003052,-0.0,-0.0,-1.0,0.1282776007596365,2.0
22.350337982177734,4.972601890563965,-0.443438172340393,-0.4822281478927008,0.3402256709196642,0.8072809338930528,0.1775192286474237,3.0
22.13053321838379,4.721005439758301,-0.4718958139419555,0.2224968022374283,0.4385300299614468,-0.8707391031854097,0.2233155360071725,5.0
21.872156143188477,4.466763496398926,-0.4991319179534912,-0.0,-0.0,-1.0,0.1385479984738468,1.0
23.115346908569336,5.481069087982178,-0.7214115858078003,-0.2405969943425518,-0.097894393295441,-0.9656758120998205,0.0878552839931679,3.0
22.921497344970703,4.971674919128418,-0.501375675201416,-0.5691002683642626,-0.7741021747051038,-0.2772917374617452,0.0981333184739923,3.0
21.938196182250977,3.8324880599975586,-0.6280295848846436,-0.0,-0.0,-1.0,0.1106598037010373,2.0
23.64980125427246,5.4588165283203125,-0.7977174520492554,0.3448966573066256,0.7151716632580299,-0.6079274527864811,0.0234619729579596,4.0
23.417577743530273,5.466951847076416,-0.7640427350997925,0.4120490550928816,0.1184592997342602,-0.903428453450262,0.03484348772931,3.0
23.148128509521484,4.883975982666016,-0.542899489402771,-0.7379318419134678,0.6512503461025414,-0.1770016479909617,0.1221075473716876,4.0
23.559764862060547,4.746185302734375,-0.6161998510360718,-0.7407245260381649,-0.2355835890109814,-0.6291482727578939,0.0829478500023304,3.0
22.58111572265625,5.251554489135742,-0.4125988483428955,-0.662528478619722,-0.3204759836043967,-0.6770163653491922,0.2173131662236679,9.0
22.47050094604492,5.104118347167969,-0.4297348260879516,-0.3141691702718567,0.7827388930139914,0.5372313820077199,0.1398552035915272,4.0
22.74242401123047,5.276155471801758,-0.4245693683624267,-0.6853167415364254,-0.3664132469383467,-0.6293506941586657,0.1449361609669232,11.0
22.67696189880371,4.675898551940918,-0.2188600301742553,-0.0,-0.0,-1.0,0.1249909080188906,2.0
22.485546112060547,4.642891883850098,-0.2068103551864624,0.0297938497511935,0.3076536517920428,-0.951031838087466,0.1270293517029126,3.0
22.01134872436523,5.548365116119385,-0.7480800151824951,-0.0,-0.0,-1.0,0.077108474822967,2.0
21.73263359069824,5.367562770843506,-0.7500593662261963,0.8323048928756561,-0.3084319816790827,-0.4605847131340296,0.055508390382598,3.0
22.15110969543457,5.587005615234375,-0.7614386081695557,0.1938547674020564,0.9609792668685828,-0.1973301239147613,0.074559451006144,3.0
22.004758834838867,5.572221755981445,-0.7409144639968872,-0.0,-0.0,-1.0,0.0667595422983528,2.0
22.16867446899414,5.08485221862793,-0.6153929233551025,-0.0,-0.0,-1.0,0.1644162877249059,1.0
21.887224197387695,4.8280158042907715,-0.6298139095306396,-0.9845285432002988,-0.1058800020926517,-0.1396172366893059,0.0643606679907269,3.0
22.778053283691406,5.515682220458984,-0.6212759017944336,0.8504675318061691,0.5099454923384418,-0.1290758388980159,0.0687194465840044,6.0
22.55917739868164,5.331009864807129,-0.6240348815917969,-0.0,-0.0,-1.0,0.1595630844950327,1.0
22.334747314453125,5.039898872375488,-0.5113433599472046,-0.6196966079115469,0.481648925991441,0.619669610545986,0.1015453857399144,4.0
22.159835815429688,4.7115888595581055,-0.4112608432769775,0.9247441648909732,-0.265821772246314,0.2723729334936302,0.231675225715869,5.0
22.05828285217285,4.458096504211426,-0.4437763690948486,0.5567575464794373,0.0787221692170072,-0.8269364271284498,0.2181783440054798,9.0
22.02018165588379,3.773909568786621,-0.5646136999130249,-0.0,-0.0,-1.0,0.0387064074515419,1.0
23.1557674407959,5.366065502166748,-0.71842360496521,-0.2400942060127238,0.3893596626225206,-0.8892434005161899,0.1017972057256295,4.0
22.988723754882812,4.893872261047363,-0.4997076988220215,0.0995082487373304,-0.809870365255792,-0.5781073428989463,0.1584892412402528,7.0
22.103328704833984,3.716297149658203,-0.5862283706665039,-0.0,-0.0,-1.0,0.0407598336224091,2.0
23.534591674804688,5.353957176208496,-0.7895023822784424,0.9197300969497856,0.0944307575991024,-0.3810241210002287,0.0606075254467563,3.0
23.276456832885746,4.782986164093018,-0.5643050670623779,-0.5723370891579336,0.4555673561911791,-0.6818274271010247,0.0565028629421049,3.0
23.67629623413086,4.680313587188721,-0.6468117237091064,0.9349912250179446,0.2559218006075176,-0.245551300369697,0.1575284182444686,5.0
22.588960647583008,5.228731632232666,-0.3793762922286987,0.7359977370078239,-0.6449003166208036,-0.2059390995943934,0.229251943075562,5.0
22.41435813903809,5.060088157653809,-0.3839509487152099,-0.0,-0.0,-1.0,0.1413431889508981,2.0
23.58450508117676,3.7331228256225586,-0.4658329486846924,-0.0,-0.0,-1.0,0.1558044332831467,1.0
22.113304138183594,3.786649703979492,-0.6445506811141968,-0.0,-0.0,-1.0,0.0419397203780523,1.0
22.109888076782227,4.66827392578125,-0.4792846441268921,-0.0,-0.0,-1.0,0.1432907047826491,2.0
22.067546844482425,4.495555877685547,-0.5026426315307617,-0.0,-0.0,-1.0,0.1804101358611252,2.0
22.668663024902344,5.283210277557373,-0.4917125701904297,-0.7045252422010939,0.7067935342849182,-0.0639302979386481,0.1253063359778553,4.0
22.536266326904297,4.979350566864014,-0.3839187622070312,-0.0,-0.0,-1.0,0.2393265033722246,1.0
22.343521118164062,4.775232315063477,-0.3776507377624511,-0.0,-0.0,-1.0,0.2112934890704416,1.0
22.081939697265625,4.299530029296875,-0.5420860052108765,-0.0,-0.0,-1.0,0.1154106719569694,2.0
22.835107803344727,5.209633827209473,-0.5435127019882202,-0.5520085524471117,-0.0861863436256564,-0.8293723362867156,0.1342168722692487,4.0
22.910642623901367,4.969130516052246,-0.4719948768615722,-0.7453921665199027,-0.4488349694552722,-0.4928870948653971,0.1020405633886326,4.0
23.32716941833496,5.041153907775879,-0.6918537616729736,-0.0,-0.0,-1.0,0.0773803253378861,1.0
23.13459587097168,5.006186485290527,-0.6500545740127563,-0.0,-0.0,-1.0,0.0791700636799447,1.0
23.15141487121582,4.550920486450195,-0.4495030641555786,-0.0,-0.0,-1.0,0.2714423237361381,2.0
23.665136337280273,5.014445781707764,-0.7821496725082397,-0.0,-0.0,-1.0,0.0832307713005746,2.0
23.69767189025879,4.5792083740234375,-0.568461537361145,-0.0,-0.0,-1.0,0.1508295464747843,2.0
23.646039962768555,4.369009971618652,-0.584567666053772,-0.0,-0.0,-1.0,0.1592087552512694,2.0
23.565776824951172,3.64343786239624,-0.6661230325698853,-0.0,-0.0,-1.0,0.1425354122365085,1.0
21.922279357910156,4.626062393188477,-0.583953857421875,-0.0,-0.0,-1.0,0.1398792108373288,2.0
21.731958389282227,4.5020575523376465,-0.5843870639801025,-0.0,-0.0,-1.0,0.1526962968820484,2.0
22.336078643798828,5.011013031005859,-0.5638175010681152,-0.0644588191754063,0.7310250304424185,0.6792992459124133,0.1096507339963007,3.0
22.14875030517578,4.73361873626709,-0.4658089876174927,0.0887821551482805,-0.9162456539912,0.3906553858190924,0.1965366452888804,5.0
22.14076232910156,4.456375598907471,-0.3913376331329345,0.418891891471817,-0.633592386323844,-0.6504538963305702,0.1578391040127887,5.0
22.73182678222656,5.376900672912598,-0.5557060241699219,-0.3159016600248094,-0.8704024638383565,0.3776316884713047,0.1123272834781794,3.0
22.53373908996582,5.202258110046387,-0.5567777156829834,-0.0,-0.0,-1.0,0.1903123385064951,2.0
22.953632354736328,5.085384368896484,-0.5314606428146362,-0.0,-0.0,-1.0,0.0801934156841421,1.0
23.01346969604492,4.809365272521973,-0.4645211696624756,0.9298311890262017,0.2738860293103365,0.2457649341601391,0.1783174476407186,6.0
23.41285514831543,5.18548583984375,-0.7343859672546387,-0.0,-0.0,-1.0,0.1016820472021972,2.0
23.32221794128418,4.560972690582275,-0.5648608207702637,-0.6731297807077927,-0.5818180001821187,0.4564910875234681,0.0922548381910586,4.0
23.521324157714844,4.392293453216553,-0.6313360929489136,-0.7719752765529463,0.3453174289835927,-0.5336759743806758,0.1136349497689103,6.0
23.66825485229492,4.405037879943848,-0.6559948921203613,-0.0,-0.0,-1.0,0.2213183680492537,1.0
22.38454818725586,4.995513916015625,-0.3239679336547851,-0.8161771336161308,0.3597578435062843,0.4521384529078067,0.202604554411571,3.0
22.24979591369629,4.840994358062744,-0.332781434059143,-0.5625278798735756,0.426443378693316,-0.7083137928443644,0.1878408902978864,4.0
22.53368377685547,5.151438236236572,-0.3188247680664062,-0.0012819885367388,0.9313720716519668,0.3640665058091927,0.2376096035857474,7.0
23.15500259399414,4.516000747680664,-0.2671569585800171,-0.0,-0.0,-1.0,0.2101477500747117,1.0
22.045352935791016,4.719120979309082,-0.5901607275009155,-0.0,-0.0,-1.0,0.1864278465594684,1.0
21.979755401611328,4.562874794006348,-0.4854044914245605,0.8762463020580633,0.42479132340701,-0.2274747231841168,0.1906821156706488,3.0
22.253507614135746,4.827484607696533,-0.4687588214874267,-0.0,-0.0,-1.0,0.1626359921502281,2.0
22.16709327697754,4.675268173217773,-0.3590860366821289,0.9131494096011774,0.262989410128188,-0.3114397628843322,0.2748876615296517,6.0
22.33803367614746,3.7082152366638184,-0.5781313180923462,-0.0,-0.0,-1.0,0.0198281896614696,1.0
22.63089370727539,5.293224811553955,-0.5570498704910278,-0.0,-0.0,-1.0,0.2177390048863358,2.0
22.697643280029297,4.9780168533325195,-0.5073767900466919,-0.0,-0.0,-1.0,0.229906335420522,1.0
22.949562072753903,5.236279010772705,-0.6294059753417969,-0.0,-0.0,-1.0,0.0424035283785755,1.0
23.06775283813477,5.009552955627441,-0.5682651996612549,-0.8991786812930881,-0.3406087323376284,-0.2747060075123531,0.0924328571279602,3.0
23.18037796020508,4.651322364807129,-0.5244215726852417,-0.0,-0.0,-1.0,0.13388539295354,2.0
