x,y,z,nx,ny,nz,curvature,density,label
23.034839630126953,-25.038311004638672,1.3198572397232056,-0.0,-0.0,-1.0,0.0857131562064071,2.0,2.0
22.74982452392578,-26.79919815063477,1.2566907405853271,-0.0,-0.0,-1.0,0.1902373389102392,1.0,2.0
24.053014755249023,-25.32868194580078,1.2709670066833496,-0.6172139068560476,0.7217640508917353,0.3132150188350598,0.1631898032816998,3.0,2.0
23.473587036132812,-25.89765739440918,1.2683417797088623,-0.3058949618082406,-0.7126363044107881,-0.6313301592479722,0.1236616081281622,3.0,2.0
24.136703491210938,-25.751211166381836,1.2502529621124268,-0.9065696092314312,0.0431876500884799,-0.4198408871201144,0.225505073461459,4.0,2.0
22.869070053100582,-24.47859764099121,0.8778038024902344,-0.0,-0.0,-1.0,0.1562550492652478,2.0,1.0
23.48680877685547,-24.57584571838379,0.8549333810806274,-0.5832654541237916,-0.6589909328161877,-0.4749024747164598,0.0748932321850535,3.0,1.0
23.119125366210938,-24.791501998901367,0.8475890159606934,-0.0,-0.0,-1.0,0.0829119536262144,2.0,1.0
23.915319442749023,-24.590396881103516,0.8423053026199341,-0.490075239659253,-0.8699475817211069,-0.0549314530166768,0.1736361661414937,5.0,1.0
23.776695251464844,-24.57469940185547,0.8473242521286011,-0.3143015300699282,-0.5451058957476169,-0.7772220471762814,0.1890514080195615,4.0,1.0
23.51680374145508,-24.92640686035156,0.8270256519317627,-0.0,-0.0,-1.0,0.0627674832578672,1.0,1.0
24.285682678222656,-24.929840087890625,0.8054502010345459,-0.0,-0.0,-1.0,0.093753506848738,1.0,1.0
24.092798233032227,-24.900405883789062,0.8132809400558472,-0.0,-0.0,-1.0,0.0341637119438971,1.0,1.0
22.970016479492188,-25.016395568847656,1.3208013772964478,0.7586836194599792,-0.3350617114710074,-0.5586884776592632,0.1642501464726565,5.0,2.0
23.409914016723633,-25.93050765991211,1.2696118354797363,-0.0,-0.0,-1.0,0.1445903670809875,1.0,2.0
24.04096031188965,-25.34136009216309,1.276427984237671,-0.0,-0.0,-1.0,0.1586139996075334,2.0,2.0
24.13139915466309,-25.71338653564453,1.2579684257507324,-0.3127295980753481,0.1816190880287995,-0.9323168481536832,0.24649056124794,4.0,2.0
23.511764526367188,-25.91324234008789,1.267435908317566,-0.0,-0.0,-1.0,0.1144789360629238,2.0,2.0
22.82264709472656,-24.456928253173828,0.924092173576355,-0.0,-0.0,-1.0,0.1687459576995995,2.0,1.0
23.244640350341797,-24.68280982971191,0.8996081948280334,-0.0,-0.0,-1.0,0.1274415753289736,2.0,1.0
22.96370506286621,-24.938899993896484,0.88554447889328,-0.0,-0.0,-1.0,0.0594490385792616,2.0,1.0
23.714092254638672,-24.575042724609375,0.8984036445617676,-0.0,-0.0,-1.0,0.1709491485270698,1.0,1.0
23.526113510131836,-25.090898513793945,0.863540530204773,-0.203509291417172,0.4772990000931713,-0.8548506494218387,0.0820174004276194,4.0,1.0
23.134458541870117,-25.08559799194336,0.8714740872383118,0.5594818136521764,0.8077064246487328,-0.1859850310472133,0.1328482501568921,3.0,1.0
23.962202072143555,-25.19778823852539,0.8464111089706421,-0.0,-0.0,-1.0,0.1609616914257762,2.0,1.0
23.73204803466797,-25.148868560791016,0.8549469709396362,-0.0,-0.0,-1.0,0.12049214533008,1.0,1.0
23.369823455810547,-25.6523380279541,0.8245202302932739,-0.0,-0.0,-1.0,0.0745512744405328,2.0,1.0
25.001127243041992,-24.718225479125977,0.8575074672698975,-0.0,-0.0,-1.0,0.215821614102336,2.0,1.0
24.221479415893555,-25.261428833007812,0.8358458280563354,-0.0,-0.0,-1.0,0.1238714816033326,1.0,1.0
24.030885696411133,-25.310489654541016,0.8364521265029907,-0.0,-0.0,-1.0,0.1290154575964868,2.0,1.0
22.96167755126953,-25.059162139892575,1.3353254795074463,0.3633251629768386,-0.3623391233159668,-0.8583153183198297,0.1487794933671656,3.0,2.0
24.0655517578125,-25.59258460998535,1.2910956144332886,-0.0,-0.0,-1.0,0.1790208558644666,2.0,2.0
22.74006462097168,-26.84688186645508,1.2683424949645996,-0.0,-0.0,-1.0,0.1921918778656017,1.0,2.0
22.931930541992188,-24.84045028686523,0.881193995475769,-0.0,-0.0,-1.0,0.0467775875564499,2.0,1.0
23.648908615112305,-24.60591506958008,0.860174834728241,-0.0,-0.0,-1.0,0.0848239028692015,1.0,1.0
23.34461212158203,-24.671382904052734,0.8721492290496826,-0.0,-0.0,-1.0,0.1043925181252076,1.0,1.0
23.14025115966797,-24.90222549438477,0.864657461643219,-0.0,-0.0,-1.0,0.081246342193879,2.0,1.0
23.917255401611328,-24.657331466674805,0.8402758836746216,-0.0,-0.0,-1.0,0.1018841332043043,1.0,1.0
24.31970977783203,-24.73549461364746,0.8098076581954956,-0.0,-0.0,-1.0,0.1080498029882441,1.0,1.0
24.16118812561035,-24.831050872802734,0.8115484714508057,-0.0,-0.0,-1.0,0.0428469502797035,2.0,1.0
24.05072021484375,-25.316307067871097,1.216353178024292,-0.0,-0.0,-1.0,0.1417975400834713,2.0,2.0
23.30243492126465,-25.954252243041992,1.2281811237335205,-0.0,-0.0,-1.0,0.1763539703266673,1.0,2.0
24.025798797607425,-25.568708419799805,1.2059013843536377,-0.2926957067659095,0.8677784269430568,-0.4016090449342972,0.2146555653095973,3.0,2.0
24.11613655090332,-25.78491973876953,1.1906428337097168,-0.753654979233294,0.6115998118501357,0.2407277350488342,0.1981790566309907,4.0,2.0
24.999977111816406,-26.471435546875,1.1080615520477295,-0.0,-0.0,-1.0,0.1317357454125706,2.0,2.0
22.81768035888672,-24.60455894470215,1.0523741245269775,-0.0,-0.0,-1.0,0.2061225904485778,1.0,2.0
22.988136291503903,-25.146080017089844,0.9914685487747192,-0.0,-0.0,-1.0,0.1953670344482463,1.0,1.0
22.726194381713867,-26.097930908203125,0.9151862859725952,-0.0,-0.0,-1.0,0.0312231322352295,2.0,1.0
23.830337524414062,-25.126773834228516,0.9437220096588136,0.2476898730190933,0.8599082513751116,0.4463267032351787,0.1163531109382287,4.0,1.0
23.452653884887695,-25.35692596435547,0.9447234869003296,-0.0,-0.0,-1.0,0.2087524621688415,1.0,1.0
23.269367218017575,-25.748451232910156,0.9182604551315308,-0.0,-0.0,-1.0,0.1455336719346993,1.0,1.0
22.88930320739746,-25.994632720947266,0.9161984920501708,-0.0,-0.0,-1.0,0.0788927651259528,1.0,1.0
24.4387264251709,-24.73047637939453,0.9417330026626588,-0.0,-0.0,-1.0,0.0771895297014031,1.0,1.0
24.037288665771484,-25.34280776977539,0.910276174545288,0.875713220551313,0.3284702396909915,-0.3538836772005597,0.234186182918095,3.0,1.0
23.79790496826172,-25.57895278930664,0.9029163122177124,-0.0,-0.0,-1.0,0.1460389916624408,1.0,1.0
23.600427627563477,-25.818431854248047,0.8921685218811035,-0.0,-0.0,-1.0,0.081930082169643,2.0,1.0
24.825347900390625,-24.75508499145508,0.912752628326416,0.9128672003208602,0.3661674767467793,-0.1805404485184731,0.0956121185732953,4.0,1.0
24.427688598632812,-25.01507568359375,0.915733814239502,-0.0,-0.0,-1.0,0.1292120386030115,1.0,1.0
24.28274917602539,-25.501663208007812,0.8794790506362915,-0.0,-0.0,-1.0,0.0461519382669193,1.0,1.0
24.366230010986328,-25.65811538696289,0.8592963218688965,-0.0,-0.0,-1.0,0.0487944099788287,2.0,1.0
25.081212997436523,-24.829391479492188,0.8877041339874268,-0.0,-0.0,-1.0,0.1486514912053596,1.0,1.0
24.49018096923828,-25.646100997924805,0.8522359132766724,-0.0,-0.0,-1.0,0.0341877068604396,1.0,1.0
25.197959899902344,-25.221529006958008,0.842841386795044,-0.0,-0.0,-1.0,0.1095335102066397,1.0,1.0
23.41089630126953,-25.34174346923828,1.3514147996902466,-0.0,-0.0,-1.0,0.0869047285982594,2.0,2.0
24.399782180786133,-24.989343643188477,1.314741134643555,-0.0,-0.0,-1.0,0.0501990040363348,1.0,2.0
24.073484420776367,-25.329862594604492,1.3140246868133545,-0.5348923528972743,0.8280712625896633,-0.1678932842170253,0.1153970353310002,5.0,2.0
23.863187789916992,-25.452247619628903,1.3189696073532104,-0.0,-0.0,-1.0,0.1775016415474494,1.0,2.0
24.014633178710938,-25.69662094116211,1.2956253290176392,-0.3543223320153124,0.7966175522299288,0.4897511209935383,0.2280172509890651,3.0,2.0
23.706586837768555,-26.432525634765625,1.2694510221481323,-0.0,-0.0,-1.0,0.1581481172848585,2.0,2.0
23.42728614807129,-26.829357147216797,1.2614107131958008,-0.2757405722967954,0.6600071513329694,-0.6988259418329967,0.0891751687781572,3.0,2.0
24.097972869873047,-26.741954803466797,1.2284111976623535,-0.0,-0.0,-1.0,0.0707554832585944,1.0,2.0
24.01550674438477,-26.836023330688477,1.2275956869125366,-0.0,-0.0,-1.0,0.0801779126006312,1.0,2.0
24.797801971435547,-26.333656311035156,1.2107681035995483,-0.0,-0.0,-1.0,0.1267195186092382,1.0,2.0
23.093320846557617,-24.588438034057617,0.7709214687347412,-0.0,-0.0,-1.0,0.1113228800814149,2.0,1.0
23.02860450744629,-24.617393493652344,0.7708667516708374,-0.0,-0.0,-1.0,0.1009633915784989,1.0,1.0
23.299116134643555,-24.477584838867188,0.7733649015426636,-0.0,-0.0,-1.0,0.0613415922870124,1.0,1.0
23.0511474609375,-25.120588302612305,1.0648152828216553,0.066710515364104,0.2636247644759078,-0.9623157957213824,0.2350137501566834,3.0,2.0
23.47388458251953,-25.309633255004883,1.0199296474456787,-0.0,-0.0,-1.0,0.1581896420725093,2.0,2.0
23.389638900756836,-25.382360458374023,1.017438888549805,-0.0,-0.0,-1.0,0.1701063483197243,2.0,2.0
23.798294067382812,-25.23715591430664,0.9984972476959229,-0.4803823071683105,0.0820878531268981,-0.8732092666300947,0.0916760972265465,3.0,1.0
23.54759407043457,-25.58883476257324,0.9818682670593262,-0.0,-0.0,-1.0,0.2379712531982612,1.0,1.0
23.123188018798828,-25.952556610107425,0.9734567403793336,-0.0,-0.0,-1.0,0.154144049617452,2.0,1.0
24.462482452392575,-24.78235626220703,1.0015525817871094,-0.0,-0.0,-1.0,0.0996592718211872,1.0,2.0
23.9964599609375,-25.41157913208008,0.9674855470657348,-0.0,-0.0,-1.0,0.1864101216879267,2.0,1.0
23.887535095214844,-25.80199432373047,0.93363618850708,-0.0,-0.0,-1.0,0.1380896604389686,1.0,1.0
23.707199096679688,-26.18989372253418,0.9043229818344116,-0.0,-0.0,-1.0,0.1391218406515288,1.0,1.0
23.452600479125977,-26.637969970703125,0.8823339939117432,-0.0,-0.0,-1.0,0.1282190342751232,1.0,1.0
23.344715118408203,-26.812177658081055,0.8704817295074463,-0.0,-0.0,-1.0,0.1523954629771711,1.0,1.0
24.926374435424805,-24.65707778930664,0.9811530113220216,0.5497198837323591,0.7688163749116724,-0.3266947062579324,0.1089448482496215,3.0,1.0
24.806072235107425,-24.75841522216797,0.9795448780059814,0.5341490894193309,-0.7979008975897128,-0.2793544485023113,0.1565372200171632,4.0,1.0
24.863611221313477,-25.265321731567383,0.9231001138687134,-0.0,-0.0,-1.0,0.0845268083883736,2.0,1.0
24.32457733154297,-26.025131225585938,0.8816428184509277,-0.0,-0.0,-1.0,0.0304214277482283,1.0,1.0
23.954322814941406,-26.231613159179688,0.8843249082565308,-0.0,-0.0,-1.0,0.060631316123744,1.0,1.0
24.858781814575195,-25.949323654174805,0.8527233600616455,-0.0,-0.0,-1.0,0.1198005167911984,1.0,1.0
24.56294059753418,-26.1049747467041,0.8571709394454956,-0.1639772337896718,-0.4087040803828898,-0.8978153715976704,0.0286553425960418,3.0,1.0
24.955461502075195,-25.937244415283203,0.8471078872680664,-0.0,-0.0,-1.0,0.1616012275378443,1.0,1.0
23.451221466064453,-25.299072265625,1.3932857513427734,-0.0,-0.0,-1.0,0.1238596770763124,1.0,2.0
24.12779235839844,-25.129064559936523,1.3572399616241455,-0.0,-0.0,-1.0,0.215946027762185,1.0,2.0
24.068761825561523,-25.211406707763672,1.3550188541412354,0.149427397704429,0.6864913417640163,-0.7116186411964789,0.1786801396602037,3.0,2.0
24.033727645874023,-25.643386840820312,1.326903223991394,-0.0,-0.0,-1.0,0.1671349357008566,1.0,2.0
24.026290893554688,-26.71529006958008,1.2523107528686523,-0.0,-0.0,-1.0,0.1390443975263393,2.0,2.0
22.785234451293945,-25.25546646118164,0.9188071489334106,-0.0,-0.0,-1.0,0.170610392530707,2.0,1.0
23.06792449951172,-25.50224876403809,0.8628010749816895,-0.0,-0.0,-1.0,0.0404632396936301,1.0,1.0
23.62286949157715,-25.097414016723633,0.8639696836471558,-0.0,-0.0,-1.0,0.1766198957489246,1.0,1.0
23.3946475982666,-25.177047729492188,0.8751134872436523,-0.0,-0.0,-1.0,0.1209370358984611,2.0,1.0
23.31707000732422,-25.645214080810547,0.8223148584365845,-0.0,-0.0,-1.0,0.0628638835764403,1.0,1.0
23.92859268188477,-25.099807739257812,0.833920955657959,-0.0,-0.0,-1.0,0.1246145932278125,2.0,1.0
24.17860984802246,-25.03070640563965,0.8175867795944214,-0.0,-0.0,-1.0,0.0634780719760766,2.0,1.0
22.73246955871582,-25.039928436279297,1.1207760572433472,-0.0,-0.0,-1.0,0.1362877319027811,1.0,2.0
23.07791519165039,-24.680194854736328,0.9674413204193116,-0.0,-0.0,-1.0,0.1898402685137236,1.0,1.0
23.06479835510254,-25.189476013183594,1.0797359943389893,-0.0,-0.0,-1.0,0.1846806052059142,1.0,2.0
23.05970764160156,-25.71286392211914,1.2025604248046875,-0.0,-0.0,-1.0,0.1765858260685376,1.0,2.0
23.042877197265625,-25.90483856201172,1.186051845550537,-0.0,-0.0,-1.0,0.1574489029236743,1.0,2.0
23.57823371887207,-24.636646270751953,0.9269073009490968,-0.0,-0.0,-1.0,0.1155635796115988,1.0,1.0
23.553905487060547,-24.996925354003903,0.8833101987838745,-0.0,-0.0,-1.0,0.1461827315528828,1.0,1.0
23.41619300842285,-25.091707229614254,0.8840575218200684,-0.0,-0.0,-1.0,0.1074622692774066,1.0,1.0
23.48225212097168,-25.623069763183594,1.1750959157943726,-0.0,-0.0,-1.0,0.2502354935127703,1.0,2.0
23.058420181274418,-26.447429656982425,1.134160041809082,-0.0,-0.0,-1.0,0.1212932238603137,1.0,2.0
23.018146514892575,-26.853374481201172,1.0995724201202393,-0.0,-0.0,-1.0,0.0938211261742907,1.0,2.0
23.786518096923828,-25.04860496520996,0.8544391393661499,-0.0,-0.0,-1.0,0.127782300752589,1.0,1.0
23.850093841552734,-25.359325408935547,1.1669554710388184,-0.0,-0.0,-1.0,0.0916115735451006,1.0,2.0
23.789579391479492,-25.73083877563477,1.1380988359451294,-0.0,-0.0,-1.0,0.1602911049595787,1.0,2.0
23.84328842163086,-26.0445556640625,1.104340672492981,-0.0,-0.0,-1.0,0.1954543796378382,1.0,2.0
23.436546325683594,-26.518142700195312,1.095905303955078,-0.0,-0.0,-1.0,0.2287292797576556,1.0,2.0
23.27359390258789,-26.820276260375977,1.0815443992614746,-0.0,-0.0,-1.0,0.1059391868889008,1.0,2.0
24.51638412475586,-24.530349731445312,0.8448284864425659,-0.0,-0.0,-1.0,0.082186787749068,1.0,1.0
24.35332679748535,-24.773204803466797,1.0045812129974363,-0.0,-0.0,-1.0,0.0451270507425349,1.0,2.0
24.93963050842285,-24.427284240722656,0.8106756210327148,-0.0,-0.0,-1.0,0.0571263163809448,2.0,1.0
25.017351150512695,-24.9688720703125,1.0908188819885254,-0.0,-0.0,-1.0,0.0767468254376166,1.0,2.0
25.114776611328125,-25.671611785888672,1.0180246829986572,-0.0,-0.0,-1.0,0.1254421978195585,1.0,2.0
25.03957176208496,-26.039546966552734,0.992411494255066,-0.0,-0.0,-1.0,0.1083842996163451,1.0,1.0
24.741962432861328,-26.352802276611328,0.992929220199585,-0.0,-0.0,-1.0,0.1291680152850913,1.0,1.0
25.15817642211914,-26.239070892333984,0.96266770362854,-0.0,-0.0,-1.0,0.1723751032374838,1.0,1.0
25.170663833618164,-26.566965103149418,0.9318714141845704,0.8397424208851777,-0.1010562188475503,-0.533498179189149,0.176672055676721,3.0,1.0
23.20318603515625,-26.84375762939453,1.4889189004898071,-0.0,-0.0,-1.0,0.1038619542702285,1.0,2.0
23.537572860717773,-26.10228729248047,1.505218267440796,-0.0,-0.0,-1.0,0.1112105013687627,1.0,2.0
23.341339111328125,-26.82723045349121,1.4788962602615356,-0.0,-0.0,-1.0,0.0690523561331622,1.0,2.0
23.898805618286133,-26.786319732666016,1.4361066818237305,-0.0,-0.0,-1.0,0.0699749103014364,1.0,2.0
24.13442611694336,-26.858348846435547,1.412453532218933,-0.0,-0.0,-1.0,0.0364741817804755,1.0,2.0
22.944910049438477,-25.014205932617188,0.9566471576690674,-0.0,-0.0,-1.0,0.1840994253533936,1.0,1.0
22.972673416137695,-25.190738677978516,0.9221765995025636,-0.0,-0.0,-1.0,0.2243117407428455,1.0,1.0
22.726165771484375,-25.700340270996097,0.8636198043823242,-0.0,-0.0,-1.0,0.016928892252913,1.0,1.0
23.159326553344727,-25.01720809936523,0.927988052368164,-0.5601621141682751,0.0035836130161091,-0.8283752552848735,0.2407609752891236,4.0,1.0
23.376802444458008,-25.387939453125,0.8339111804962158,-0.0,-0.0,-1.0,0.1796578679637857,1.0,1.0
23.283878326416016,-25.544918060302734,0.8191168308258057,-0.0,-0.0,-1.0,0.0776874460154186,1.0,1.0
23.841697692871097,-24.50434112548828,0.920323133468628,-0.0,-0.0,-1.0,0.1497380088576967,2.0,1.0
23.72711753845215,-25.056854248046875,0.8418675661087036,0.7636148730064178,0.5807951715411286,0.2820802978548899,0.1043261916432285,3.0,1.0
23.649364471435547,-25.282978057861328,0.8138573169708252,-0.0,-0.0,-1.0,0.1239918403480347,1.0,1.0
23.531328201293945,-25.597885131835938,0.775916576385498,-0.0,-0.0,-1.0,0.0749012843016398,1.0,1.0
23.6782169342041,-26.494808197021484,0.9751318693161012,-0.0,-0.0,-1.0,0.1926883692213633,1.0,1.0
24.05646514892578,-25.018718719482425,0.7992548942565918,-0.0,-0.0,-1.0,0.0584857360679152,1.0,1.0
23.928874969482425,-25.111652374267575,0.8025857210159302,0.8051718053247764,-0.5522982801419493,0.2160207713676745,0.1285487927362295,3.0,1.0
24.12539291381836,-26.63676071166992,0.8946995735168457,-0.0,-0.0,-1.0,0.094072063366924,1.0,1.0
24.55919075012207,-24.599464416503903,0.7906192541122437,-0.0,-0.0,-1.0,0.0806297902671448,1.0,1.0
24.358335494995117,-24.921878814697266,0.7686872482299805,-0.0,-0.0,-1.0,0.0965493363313235,1.0,1.0
24.565946578979492,-26.672149658203125,0.8271558284759521,-0.0,-0.0,-1.0,0.0782020557639417,1.0,1.0
24.35809898376465,-26.75397491455078,0.8457992076873779,-0.0,-0.0,-1.0,0.0982762307346502,2.0,1.0
24.69120407104492,-24.482545852661133,0.7881417274475098,-0.0,-0.0,-1.0,0.0493917035384664,1.0,1.0
24.956043243408203,-26.14571762084961,0.8399865627288818,-0.0,-0.0,-1.0,0.1042931611152663,1.0,1.0
24.791162490844727,-26.51902198791504,0.8146045207977295,-0.0,-0.0,-1.0,0.1245252290860397,1.0,1.0
25.163320541381836,-26.02956199645996,0.8234425783157349,-0.0,-0.0,-1.0,0.104538098239616,1.0,1.0
23.02689743041992,-24.96343231201172,1.272197723388672,-0.0,-0.0,-1.0,0.0833127494681641,2.0,2.0
23.42351722717285,-25.26355361938477,1.1794352531433103,-0.0,-0.0,-1.0,0.1329604665126818,1.0,2.0
23.280153274536133,-25.913005828857425,1.1078306436538696,-0.0,-0.0,-1.0,0.2195901307106994,1.0,2.0
23.391613006591797,-26.820785522460938,1.348691463470459,-0.4685502164473142,0.6944477004762517,-0.5460797432339173,0.0640086882583659,3.0,2.0
23.68048858642578,-25.458663940429688,1.1180797815322876,-0.0,-0.0,-1.0,0.2125040584559856,2.0,2.0
23.756628036499023,-25.59882164001465,1.0883831977844238,-0.0,-0.0,-1.0,0.2590549639227487,2.0,2.0
23.697509765625,-26.117679595947266,1.2036861181259155,-0.0,-0.0,-1.0,0.1500371740275248,1.0,2.0
24.12198257446289,-25.213098526000977,1.090075969696045,-0.0,-0.0,-1.0,0.1472763241137201,2.0,2.0
24.06182098388672,-25.65871238708496,1.0377485752105713,-0.0,-0.0,-1.0,0.2305969470610405,2.0,2.0
24.373056411743164,-25.719593048095703,0.9847617149353028,-0.0,-0.0,-1.0,0.1240390212993457,1.0,1.0
24.2620906829834,-26.841835021972656,1.235591173171997,-0.0,-0.0,-1.0,0.0346246626277378,1.0,2.0
24.968177795410156,-24.786937713623047,1.0189223289489746,-0.0,-0.0,-1.0,0.1255200950087826,1.0,2.0
24.93615341186523,-25.309106826782227,0.9548327922821044,-0.0,-0.0,-1.0,0.1311133219533579,1.0,1.0
25.105159759521484,-26.52552604675293,1.1517515182495115,-0.0,-0.0,-1.0,0.179467062930308,1.0,2.0
24.06856918334961,-25.33283233642578,1.4153108596801758,0.2401447561153517,0.3874805817825091,-0.8900501642333352,0.1147306442632581,3.0,2.0
24.15076446533203,-25.63323211669922,1.3736826181411743,-0.0,-0.0,-1.0,0.1719087543693755,1.0,2.0
22.952220916748047,-25.23598861694336,0.9531699419021606,-0.0,-0.0,-1.0,0.2237285779732063,1.0,1.0
23.25188446044922,-25.477386474609375,0.8800357580184937,-0.0,-0.0,-1.0,0.1258639674786994,1.0,1.0
23.545167922973633,-25.136266708374023,0.9176803827285768,-0.0,-0.0,-1.0,0.1369260422638724,2.0,1.0
23.43355369567871,-25.42045211791992,0.8739957809448242,-0.0,-0.0,-1.0,0.2315675843101266,1.0,1.0
23.891338348388672,-25.07122802734375,0.8936328887939453,-0.0,-0.0,-1.0,0.1400305450661322,1.0,1.0
24.444318771362305,-26.60627555847168,0.9146870374679564,-0.0,-0.0,-1.0,0.0841572367104698,1.0,1.0
24.2542781829834,-25.02075958251953,0.8615885972976685,-0.0,-0.0,-1.0,0.0983673861178298,1.0,1.0
24.693992614746097,-26.553234100341797,0.895569920539856,-0.0,-0.0,-1.0,0.2044272072873611,1.0,1.0
23.27584457397461,-26.83761215209961,1.1758689880371094,-0.0,-0.0,-1.0,0.0952687885184812,1.0,2.0
22.976577758789062,-24.968734741210938,1.3099417686462402,-0.5057341252559147,-0.1248728299056629,-0.8536039895074214,0.1554957372085458,3.0,2.0
23.099027633666992,-25.102397918701172,1.1231162548065186,-0.0,-0.0,-1.0,0.2592712373154302,2.0,2.0
23.170637130737305,-25.85710906982422,1.1533195972442627,-0.0,-0.0,-1.0,0.2032629709937018,1.0,2.0
23.29685401916504,-26.552719116210938,1.0328333377838137,-0.0,-0.0,-1.0,0.1927803419088199,1.0,2.0
23.409265518188477,-26.745410919189453,1.177978754043579,-0.0,-0.0,-1.0,0.1417668911320166,1.0,2.0
23.250335693359375,-24.731220245361328,1.024561882019043,-0.0,-0.0,-1.0,0.1790819040841511,1.0,2.0
23.52871322631836,-25.167613983154297,1.0730878114700315,-0.0,-0.0,-1.0,0.1435061571518347,2.0,2.0
23.59539031982422,-25.578624725341797,1.1596542596817017,-0.0,-0.0,-1.0,0.225198238765844,1.0,2.0
23.711334228515625,-25.649442672729492,1.137658715248108,-0.0,-0.0,-1.0,0.1971017466220495,2.0,2.0
23.9953556060791,-26.659908294677734,1.1385663747787476,-0.0,-0.0,-1.0,0.1247316802423962,1.0,2.0
23.779767990112305,-24.7764835357666,0.9622737169265748,-0.0,-0.0,-1.0,0.1460049565796689,1.0,1.0
23.864898681640625,-25.021514892578125,0.9060640335083008,-0.0,-0.0,-1.0,0.117385592755896,1.0,1.0
24.045469284057617,-25.271263122558594,1.163100004196167,-0.0,-0.0,-1.0,0.1832448189816723,1.0,2.0
23.97707748413086,-25.69253158569336,1.1047805547714231,-0.0,-0.0,-1.0,0.2654892770900425,1.0,2.0
24.021869659423828,-26.284873962402344,1.0081149339675903,-0.0,-0.0,-1.0,0.0863756805362429,1.0,2.0
24.126623153686523,-26.46471405029297,0.9696109294891356,-0.0,-0.0,-1.0,0.084661373292993,1.0,1.0
24.401275634765625,-24.758811950683594,0.8928934335708618,-0.0,-0.0,-1.0,0.0891991919068243,1.0,1.0
24.289085388183594,-25.762226104736328,1.061490535736084,-0.0,-0.0,-1.0,0.10053757713023,1.0,2.0
24.611711502075195,-26.468442916870117,0.9175994396209716,-0.0,-0.0,-1.0,0.1059197251166244,1.0,1.0
24.591638565063477,-24.57430648803711,0.9027060270309448,-0.0,-0.0,-1.0,0.0423930475965303,2.0,1.0
24.5213623046875,-24.793195724487305,1.1836872100830078,-0.0,-0.0,-1.0,0.1094987417203557,2.0,2.0
24.962196350097656,-25.735206604003903,0.9888458251953124,-0.0,-0.0,-1.0,0.1427467850636659,1.0,1.0
24.97910499572754,-26.032255172729492,0.941994309425354,-0.0,-0.0,-1.0,0.092330166654661,1.0,1.0
25.10145568847656,-26.312191009521484,1.0691022872924805,0.2618971018280152,-0.2864387666214635,-0.9216087787290556,0.1652174199057786,3.0,2.0
25.04969596862793,-26.578594207763672,1.2263785600662231,-0.0,-0.0,-1.0,0.1679180528336705,1.0,2.0
25.007699966430664,-24.440540313720703,0.8700791597366333,-0.0,-0.0,-1.0,0.0661825423692163,2.0,1.0
25.176326751708984,-25.109352111816406,1.0556728839874268,-0.0,-0.0,-1.0,0.1706147635772364,1.0,2.0
25.166982650756836,-24.37504196166992,0.8589364290237427,-0.0,-0.0,-1.0,0.1192392248382531,2.0,1.0
23.42235565185547,-25.290630340576172,1.5378026962280271,-0.7039567878980475,0.6856969146105066,-0.185106947643504,0.1268755268791039,3.0,2.0
23.64291000366211,-26.13715362548828,1.4157991409301758,-0.0,-0.0,-1.0,0.1811548396700692,1.0,2.0
24.031166076660156,-25.228281021118164,1.4902973175048828,-0.0,-0.0,-1.0,0.2031630353574001,1.0,2.0
24.00310707092285,-25.72058868408203,1.4337904453277588,-0.0,-0.0,-1.0,0.159650786199705,1.0,2.0
22.835044860839844,-26.86145401000977,0.9251552820205688,-0.0,-0.0,-1.0,0.152883952709506,1.0,1.0
23.225717544555664,-26.681869506835938,0.921982765197754,-0.0,-0.0,-1.0,0.1785482721023529,2.0,1.0
22.901611328125,-25.114952087402344,0.9159435033798218,-0.0,-0.0,-1.0,0.1625371268152466,2.0,1.0
23.145978927612305,-25.396888732910156,0.8363502025604248,-0.0,-0.0,-1.0,0.0942003258751922,1.0,1.0
23.2431640625,-25.76348304748535,1.0740395784378052,0.2066392793291198,-0.9583083992817166,0.1973454334522484,0.2700576091949877,3.0,2.0
23.446388244628903,-26.257869720458984,0.9723130464553832,-0.0,-0.0,-1.0,0.1291262850211881,2.0,1.0
23.55219268798828,-26.481216430664062,0.9244437217712402,-0.0,-0.0,-1.0,0.1508578461508148,1.0,1.0
23.137035369873047,-25.080398559570312,0.901806116104126,0.2846272958698337,0.7625522795464681,-0.5809486409350749,0.193318495920051,4.0,1.0
23.40090560913086,-25.237045288085938,0.8437297344207764,-0.0,-0.0,-1.0,0.1080686639647158,1.0,1.0
23.51932907104492,-25.57062339782715,0.9239997863769532,-0.0,-0.0,-1.0,0.1222881047497983,2.0,1.0
23.9620418548584,-26.440040588378903,0.889238715171814,-0.0,-0.0,-1.0,0.0273995357811948,1.0,1.0
24.097637176513672,-26.443363189697266,0.8739159107208252,-0.0,-0.0,-1.0,0.0679575572037297,1.0,1.0
23.748048782348633,-25.0820369720459,0.8370554447174072,0.7636148730064178,0.5807951715411286,0.2820802978548899,0.0939087495740199,3.0,1.0
24.021154403686523,-25.75754165649414,0.9953106641769408,-0.0,-0.0,-1.0,0.144986080426984,2.0,1.0
24.339309692382812,-26.214515686035156,0.8837312459945679,-0.0,-0.0,-1.0,0.0162616019476682,1.0,1.0
24.47157287597656,-26.2958927154541,0.8546302318572998,-0.0,-0.0,-1.0,0.0477698952555421,1.0,1.0
23.84415626525879,-24.74278259277344,0.8940492868423462,-0.0,-0.0,-1.0,0.1354102243148642,1.0,1.0
24.174243927001953,-25.006423950195312,0.800127387046814,-0.0,-0.0,-1.0,0.0573563999481651,2.0,1.0
24.20308303833008,-25.066221237182617,0.7848160266876221,-0.0,-0.0,-1.0,0.0654011140284424,2.0,1.0
24.775012969970703,-26.09825897216797,0.8486713171005249,-0.0,-0.0,-1.0,0.0503997181096831,1.0,1.0
24.638408660888672,-26.228626251220703,0.845024585723877,-0.0,-0.0,-1.0,0.0500573714016708,1.0,1.0
24.497295379638672,-24.741222381591797,0.8088856935501099,-0.0,-0.0,-1.0,0.0899660875688973,1.0,1.0
25.022581100463867,-25.910568237304688,0.8459527492523193,-0.0,-0.0,-1.0,0.1238209627671171,1.0,1.0
25.059093475341797,-26.040721893310547,0.8203375339508057,-0.0,-0.0,-1.0,0.0927170068193605,1.0,1.0
24.81108856201172,-24.473447799682617,0.8144669532775879,-0.0,-0.0,-1.0,0.0507579973178428,1.0,1.0
23.361095428466797,-26.84945297241211,1.238146185874939,0.4730907820633646,0.7816886391343078,-0.406384034350549,0.1353816750240567,4.0,2.0
23.017990112304688,-25.116758346557617,1.202472686767578,0.2671802443224748,0.9497394660393028,0.1631246875588208,0.1067083241401761,4.0,2.0
23.022846221923828,-25.189563751220703,1.1898678541183472,-0.0,-0.0,-1.0,0.1744520447775733,1.0,2.0
23.718297958374023,-26.41799545288086,1.261585354804993,-0.0,-0.0,-1.0,0.1465087122887022,2.0,2.0
22.829788208007812,-24.459228515625,1.0561197996139526,-0.0,-0.0,-1.0,0.1651473494609991,1.0,2.0
23.454246520996097,-25.30344009399414,1.282016038894653,-0.0,-0.0,-1.0,0.1357441886499424,1.0,2.0
23.641674041748047,-25.539642333984375,1.072317123413086,-0.0,-0.0,-1.0,0.2242367267184942,1.0,2.0
24.04502868652344,-26.807964324951172,1.178321123123169,-0.0,-0.0,-1.0,0.0796173751651264,2.0,2.0
24.05402374267578,-25.34433364868164,1.2130588293075562,-0.9824848098122956,-0.0971129355160077,-0.159036713508426,0.168724783871746,3.0,2.0
24.02808952331543,-25.707225799560547,1.3226102590560913,-0.0,-0.0,-1.0,0.2233213303043237,2.0,2.0
24.92444610595703,-26.428756713867188,1.1290526390075684,0.5197151703678817,0.8533416120539727,0.0412823791297284,0.1196883829734177,3.0,2.0
25.088960647583008,-26.584224700927734,1.0895230770111084,0.3280541761285263,0.4987120499869561,-0.8022884448391622,0.1466682756361124,3.0,2.0
25.120887756347656,-26.838123321533203,1.0537631511688232,-0.0,-0.0,-1.0,0.2171549680150077,1.0,2.0
24.5327205657959,-24.82731056213379,1.0845391750335691,-0.0,-0.0,-1.0,0.1382766494878034,2.0,2.0
24.573776245117188,-24.92949676513672,1.0626206398010254,-0.0,-0.0,-1.0,0.1871237017611068,1.0,2.0
25.14906883239746,-26.20221710205078,1.129714846611023,-0.0,-0.0,-1.0,0.1163757687315419,1.0,2.0
24.997840881347656,-24.850074768066406,1.0169788599014282,-0.0,-0.0,-1.0,0.1199381007109078,1.0,2.0
24.04903984069824,-26.67875862121582,1.5452845096588137,-0.0,-0.0,-1.0,0.0647709767758173,1.0,2.0
22.979761123657227,-26.243751525878903,0.8539385795593262,-0.0,-0.0,-1.0,0.0508836645414666,1.0,1.0
22.814130783081055,-26.119775772094727,0.884099006652832,-0.0,-0.0,-1.0,0.0352978905901462,1.0,1.0
23.184850692749023,-26.15142822265625,0.8624794483184814,-0.0,-0.0,-1.0,0.0582945524824207,2.0,1.0
23.544601440429688,-26.66629409790039,1.0898244380950928,-0.0,-0.0,-1.0,0.1357481903936707,1.0,2.0
23.003494262695312,-25.407581329345703,1.0135972499847412,-0.0,-0.0,-1.0,0.1320802843041721,1.0,2.0
23.340465545654297,-25.88421630859375,1.0644992589950562,-0.0,-0.0,-1.0,0.2318138038819331,1.0,2.0
23.495336532592773,-26.03860855102539,1.0280659198760986,-0.0,-0.0,-1.0,0.2012017475811902,1.0,2.0
23.74243927001953,-26.51997756958008,1.1017370223999023,-0.0,-0.0,-1.0,0.2359165875908591,1.0,2.0
24.09463882446289,-26.831205368041992,1.0315483808517456,-0.0,-0.0,-1.0,0.1241409555324584,1.0,2.0
23.042217254638672,-25.08281135559082,1.07454514503479,-0.9916497420548392,-0.0959389136283878,0.0861772239885675,0.181901808875764,4.0,2.0
23.244539260864254,-25.236173629760746,1.0351839065551758,-0.0,-0.0,-1.0,0.1387063910185922,1.0,2.0
23.658662796020508,-25.471324920654297,0.9668164253234864,-0.0,-0.0,-1.0,0.1621993455781895,2.0,1.0
23.79840850830078,-25.81279563903809,0.8923760652542114,-0.0,-0.0,-1.0,0.1429613107262294,1.0,1.0
23.99345970153809,-25.929590225219727,1.0158894062042236,-0.0,-0.0,-1.0,0.1779098738449125,1.0,2.0
23.69809341430664,-25.054058074951172,1.0439273118972778,-0.0,-0.0,-1.0,0.1672165865868536,1.0,2.0
24.009174346923828,-25.18643569946289,0.99667227268219,-0.0,-0.0,-1.0,0.1411520593225401,1.0,1.0
24.0469970703125,-25.554542541503903,0.923977255821228,-0.0,-0.0,-1.0,0.1066959899706065,1.0,1.0
24.350759506225582,-25.92454719543457,0.8300137519836426,-0.0,-0.0,-1.0,0.0405357011334439,1.0,1.0
24.58810234069824,-25.945201873779297,0.805783748626709,-0.0,-0.0,-1.0,0.0185077178154532,1.0,1.0
24.98634147644043,-26.376216888427734,1.0319414138793943,-0.0,-0.0,-1.0,0.1369329443680772,1.0,2.0
24.882457733154297,-25.844890594482425,0.7966635227203369,-0.0,-0.0,-1.0,0.0454152330850317,1.0,1.0
24.867353439331055,-24.890899658203125,0.9743324518203736,-0.0,-0.0,-1.0,0.1217542340039883,1.0,1.0
24.924421310424805,-25.45590591430664,0.8645155429840088,-0.0,-0.0,-1.0,0.1210717854241061,1.0,1.0
24.955509185791016,-24.741697311401367,0.9921094179153442,0.8164725734232892,-0.0495435584395388,-0.5752547024272817,0.1782465329827894,4.0,1.0
23.71839714050293,-26.83310317993164,1.402302861213684,-0.0,-0.0,-1.0,0.0330846417548921,1.0,2.0
23.77167701721191,-26.075275421142575,1.4902052879333496,-0.0,-0.0,-1.0,0.2434723077066124,2.0,2.0
24.265228271484375,-26.862308502197266,1.366608738899231,-0.0,-0.0,-1.0,0.0376088778618947,2.0,2.0
23.53623962402344,-25.397056579589844,1.2878735065460205,-0.0,-0.0,-1.0,0.1325114033947072,1.0,2.0
23.93166160583496,-25.27134895324707,1.2828069925308228,-0.0,-0.0,-1.0,0.1215242015054993,1.0,2.0
24.057905197143555,-25.54567527770996,1.2322709560394287,-0.7253084498664322,0.3037388114072136,0.6177947774117927,0.1672539197204475,3.0,2.0
24.149797439575195,-25.74905014038086,1.1945210695266724,-0.5803006179771149,0.4728785919845574,0.6630513027044596,0.2359002095120767,3.0,2.0
22.985029220581055,-26.31974983215332,0.8939787149429321,-0.011319932943064,-0.0017568047605284,-0.999934384224884,0.092050225734301,3.0,1.0
23.11000633239746,-26.404720306396484,0.8748228549957275,-0.0,-0.0,-1.0,0.083397277432499,2.0,1.0
23.15719223022461,-26.360273361206055,0.8822678327560425,-0.0,-0.0,-1.0,0.1189688844841215,1.0,1.0
24.39006805419922,-26.27461814880371,0.8456076383590698,-0.0,-0.0,-1.0,0.0129688957168927,1.0,1.0
24.515113830566406,-26.250164031982425,0.8423919677734375,-0.0,-0.0,-1.0,0.0411376989687599,1.0,1.0
24.58044052124023,-26.26068878173828,0.8361049890518188,-0.0,-0.0,-1.0,0.0539467225265852,1.0,1.0
25.158855438232425,-26.114593505859375,0.820101261138916,-0.0,-0.0,-1.0,0.1294552265632098,1.0,1.0
22.807662963867188,-26.25323486328125,0.909830927848816,-0.0,-0.0,-1.0,0.0318903519680109,2.0,1.0
23.361574172973633,-26.835296630859375,1.1312966346740725,-0.0,-0.0,-1.0,0.1513180523539186,1.0,2.0
23.353466033935547,-26.241342544555664,0.8994767665863037,-0.0,-0.0,-1.0,0.0567754027463303,1.0,1.0
23.5667667388916,-26.62692070007324,1.1576045751571655,-0.0,-0.0,-1.0,0.178752944924058,1.0,2.0
24.05690574645996,-26.807300567626953,1.109544277191162,0.8827607395984534,0.0334583309380175,-0.4686299357856192,0.0950819856625168,4.0,2.0
22.836389541625977,-25.273571014404297,1.0987961292266846,-0.0,-0.0,-1.0,0.2226518621254083,1.0,2.0
23.44370460510254,-26.065608978271484,0.9308440685272216,-0.0,-0.0,-1.0,0.0598359081883251,1.0,1.0
23.858705520629883,-26.170495986938477,0.8938827514648438,-0.0,-0.0,-1.0,0.1297678585744647,1.0,1.0
24.267345428466797,-26.21114158630371,0.8650252819061279,-0.0,-0.0,-1.0,0.021233041484961,1.0,1.0
22.817045211791992,-25.060697555541992,1.140197992324829,-0.0,-0.0,-1.0,0.1672845156420757,1.0,2.0
23.00335121154785,-25.13563537597656,1.1225590705871582,-0.8679735161769238,0.4877982090383544,-0.0931390491385939,0.2452544725791922,3.0,2.0
23.403282165527344,-25.32824325561523,1.0746331214904783,-0.0,-0.0,-1.0,0.2394684192503737,2.0,2.0
23.77416229248047,-25.594528198242188,1.0083755254745483,-0.0,-0.0,-1.0,0.2599467342482375,2.0,2.0
24.439456939697266,-26.168701171875,0.8623964786529541,-0.0,-0.0,-1.0,0.0192878480993447,2.0,1.0
24.824583053588867,-26.20183563232422,0.9967950582504272,-0.0,-0.0,-1.0,0.0801275870007639,2.0,1.0
25.15461540222168,-26.444446563720703,1.099932312965393,-0.0,-0.0,-1.0,0.1911179777807658,1.0,2.0
24.018789291381836,-25.328941345214844,1.0478622913360596,-0.0,-0.0,-1.0,0.1838423322581525,2.0,2.0
25.010665893554688,-26.044998168945312,0.8451311588287354,-0.0,-0.0,-1.0,0.0916962089151906,2.0,1.0
24.44009780883789,-24.89735984802246,1.1044001579284668,-0.0,-0.0,-1.0,0.1939997891312559,2.0,2.0
24.862079620361328,-25.326969146728516,0.9918060302734376,-0.0,-0.0,-1.0,0.0991761502960329,1.0,1.0
25.130468368530273,-25.065561294555664,1.0174624919891355,-0.0,-0.0,-1.0,0.1655581439836491,2.0,2.0
23.518009185791016,-26.850658416748047,1.4675514698028564,-0.0,-0.0,-1.0,0.0557227921033288,1.0,2.0
24.005781173706055,-26.703044891357425,1.4679076671600342,0.2804703245207351,-0.9433500640881324,-0.1772767713157882,0.0844886886301118,3.0,2.0
23.419574737548828,-25.26135635375977,1.377201795578003,-0.0,-0.0,-1.0,0.1356667553468984,1.0,2.0
23.706390380859375,-25.385181427001953,1.3473827838897705,-0.0,-0.0,-1.0,0.1244725057713974,2.0,2.0
24.016735076904297,-25.779949188232425,1.2719566822052002,-0.0,-0.0,-1.0,0.2837254913172015,1.0,2.0
24.04033851623535,-25.329097747802734,1.3411662578582764,-0.6082589090049422,0.5796010409795181,-0.5422948763464177,0.1293281486720725,4.0,2.0
23.145864486694336,-26.55215072631836,1.1504409313201904,-0.0,-0.0,-1.0,0.2136471646811001,1.0,2.0
23.49457740783691,-26.804378509521484,1.1056876182556152,-0.0,-0.0,-1.0,0.1126223695823494,1.0,2.0
22.8077449798584,-26.049392700195312,0.9142682552337646,-0.0,-0.0,-1.0,0.0316661835879021,2.0,1.0
23.701814651489254,-26.528263092041016,1.1467738151550293,-0.0,-0.0,-1.0,0.2524566288849049,2.0,2.0
22.945466995239254,-26.01499938964844,0.9212559461593628,-0.0,-0.0,-1.0,0.0336165664202287,1.0,1.0
23.29030418395996,-25.988819122314453,0.9250705242156982,0.0417824823359932,0.6738666893907574,-0.7376705966075797,0.1458113755263164,3.0,1.0
23.67121124267578,-26.158916473388672,1.0472946166992188,-0.0,-0.0,-1.0,0.1977315491713437,2.0,2.0
24.048730850219727,-26.04071617126465,0.8989260196685791,-0.0,-0.0,-1.0,0.0617827136250506,1.0,1.0
24.47212600708008,-26.184295654296875,0.8543174266815186,-0.0,-0.0,-1.0,0.0277216009501124,2.0,1.0
24.86475944519043,-26.380308151245117,1.1298789978027344,-0.0,-0.0,-1.0,0.1584058271857782,1.0,2.0
22.958044052124023,-25.21652603149414,1.0793981552124023,-0.0,-0.0,-1.0,0.1882928308390592,1.0,2.0
23.364892959594727,-25.393590927124023,1.0424280166625977,-0.5916658149104392,-0.3314833132763276,-0.7348811988925247,0.236044269976128,3.0,2.0
23.83969497680664,-25.837371826171875,0.9450690746307372,-0.0,-0.0,-1.0,0.1578966271497126,1.0,1.0
24.241683959960938,-26.023242950439453,0.8956069946289062,-0.0,-0.0,-1.0,0.035819106482382,2.0,1.0
24.59246826171875,-26.12383270263672,0.8603625297546387,-0.0,-0.0,-1.0,0.033027522674134,2.0,1.0
24.97077178955078,-26.11577415466309,1.0046780109405518,-0.0,-0.0,-1.0,0.1054890803086682,1.0,2.0
22.804462432861328,-25.10921287536621,1.099836826324463,-0.0,-0.0,-1.0,0.1874777282205972,1.0,2.0
23.003602981567383,-25.140548706054688,1.0944801568984983,-0.8679735161769238,0.4877982090383544,-0.0931390491385939,0.2645982368549648,3.0,2.0
23.62388038635254,-25.174203872680664,1.081743836402893,-0.0,-0.0,-1.0,0.180982616513506,1.0,2.0
24.014978408813477,-25.291690826416016,1.0480892658233645,-0.4585687604351862,-0.0415046270431724,-0.8876891673817723,0.1662129237244562,3.0,2.0
24.450368881225582,-24.9361572265625,1.100268840789795,-0.0,-0.0,-1.0,0.1983397598255001,2.0,2.0
23.970579147338867,-26.709949493408203,1.4489561319351196,0.2804703245207351,-0.9433500640881324,-0.1772767713157882,0.0908349835843034,3.0,2.0
23.34524154663086,-25.90574836730957,1.2533906698226929,-0.0,-0.0,-1.0,0.2156721020505513,1.0,2.0
23.753406524658203,-26.090347290039062,1.5321344137191772,0.6928677052894273,-0.7197703204352195,0.0431859790620165,0.2678621512267798,3.0,2.0
23.448463439941406,-25.475849151611328,1.3213777542114258,-0.0,-0.0,-1.0,0.0907449109953311,1.0,2.0
23.98440742492676,-25.697025299072266,1.2744154930114746,-0.0,-0.0,-1.0,0.1919827797481981,2.0,2.0
24.11763381958008,-25.727882385253903,1.2653675079345703,-0.5458355824802917,0.0933049326064986,-0.8326810352408041,0.24649056124794,3.0,2.0
23.725616455078125,-25.355327606201172,1.3362926244735718,-0.0,-0.0,-1.0,0.1794317763026785,2.0,2.0
24.078161239624023,-25.220121383666992,1.348585605621338,0.149427397704429,0.6864913417640163,-0.7116186411964789,0.1786801396602037,3.0,2.0
23.147069931030273,-26.78560256958008,0.9838982820510864,-0.5826124302162378,0.77947251958024,-0.2301854630005158,0.1595319663007221,3.0,1.0
23.47509002685547,-26.85723114013672,0.9713906049728394,-0.0,-0.0,-1.0,0.1037344344613136,1.0,1.0
24.81827163696289,-26.28687286376953,1.0416440963745115,-0.0,-0.0,-1.0,0.1335637990990874,1.0,2.0
25.080337524414062,-26.45502471923828,1.0020465850830078,-0.0,-0.0,-1.0,0.1581914707747382,1.0,2.0
23.16588592529297,-25.81820297241211,0.9932959079742432,-0.0,-0.0,-1.0,0.2338235327424935,1.0,1.0
23.490522384643555,-25.716707229614254,0.8560036420822144,-0.0,-0.0,-1.0,0.1123173728741051,1.0,1.0
23.78574562072754,-25.712718963623047,0.8562588691711426,-0.0,-0.0,-1.0,0.1051912433203087,1.0,1.0
24.785232543945312,-26.00316619873047,0.9355422258377076,-0.0,-0.0,-1.0,0.0980967845830386,1.0,1.0
22.749736785888672,-25.445199966430664,0.90120267868042,-0.0,-0.0,-1.0,0.0705780535934801,1.0,1.0
23.141944885253903,-25.484046936035156,0.9011663198471068,-0.0,-0.0,-1.0,0.0965030314709944,1.0,1.0
23.585838317871097,-25.526063919067383,0.8956798315048218,-0.0,-0.0,-1.0,0.152554873640525,1.0,1.0
24.116697311401367,-25.40766143798828,0.9156465530395508,-0.0,-0.0,-1.0,0.1971883624091484,2.0,1.0
24.36295509338379,-25.578479766845703,0.8747446537017822,-0.0,-0.0,-1.0,0.0395225320809245,2.0,1.0
24.780908584594727,-25.80318832397461,0.8147144317626953,-0.0,-0.0,-1.0,0.0723655144196287,2.0,1.0
22.932464599609375,-25.10007095336914,0.9758262634277344,-0.0,-0.0,-1.0,0.2038910510355015,2.0,1.0
23.95486831665039,-25.223731994628903,0.9561996459960938,0.2158013347337481,0.2673793027084853,-0.9391155905479672,0.2461571637500051,4.0,1.0
22.88114547729492,-24.612163543701172,1.0735557079315186,-0.0,-0.0,-1.0,0.2729204891826668,2.0,2.0
24.536497116088867,-24.826595306396484,1.026785373687744,-0.3507372446827548,-0.3233548823352449,-0.8788771275111836,0.1653448042338684,3.0,2.0
25.02337646484375,-24.78373908996582,1.0165631771087646,-0.1129213272398783,-0.0348777321410753,-0.9929915999922052,0.132619121159038,3.0,2.0
23.34964179992676,-26.841272354125977,1.321354627609253,-0.0153776898805532,0.9971929945608152,0.0732779520235887,0.0817651188071167,3.0,2.0
23.456302642822266,-26.788227081298828,1.3277547359466553,-0.0,-0.0,-1.0,0.0777343728769291,1.0,2.0
23.26810646057129,-25.727191925048828,1.1641857624053955,-0.0,-0.0,-1.0,0.1599445324529224,1.0,2.0
23.706035614013672,-25.825653076171875,1.146457552909851,-0.0,-0.0,-1.0,0.2322469197420198,1.0,2.0
24.000965118408203,-25.85299301147461,1.1382538080215454,-0.0,-0.0,-1.0,0.2337470537402644,1.0,2.0
23.54292869567871,-25.434303283691406,1.214076042175293,-0.0,-0.0,-1.0,0.1476308471793189,1.0,2.0
24.051517486572266,-25.484525680541992,1.200782060623169,-0.0,-0.0,-1.0,0.1086743860694764,1.0,2.0
22.942710876464844,-25.01500701904297,1.2812880277633667,-0.0,-0.0,-1.0,0.1643900611889756,2.0,2.0
23.801668167114254,-24.583480834960938,1.0903469324111938,-0.0,-0.0,-1.0,0.2723455458445654,2.0,2.0
24.928720474243164,-24.72791290283203,1.0325324535369873,0.7603254163221215,0.0037271512893751,0.6495316540691908,0.1155986361005875,3.0,2.0
23.45470809936523,-25.258281707763672,1.5345971584320068,-0.7039567878980475,0.6856969146105066,-0.185106947643504,0.1273237982590897,3.0,2.0
24.033830642700195,-25.4010009765625,1.5089590549468994,-0.0,-0.0,-1.0,0.0562693224076562,1.0,2.0
22.995939254760746,-26.465761184692383,0.9241416454315186,-0.0,-0.0,-1.0,0.1102076277987322,1.0,1.0
23.380069732666016,-26.470367431640625,0.9378044605255128,-0.0,-0.0,-1.0,0.1512734818571761,1.0,1.0
23.70320701599121,-26.631534576416016,0.9189544916152954,-0.0,-0.0,-1.0,0.1936701216102555,2.0,1.0
24.15825080871582,-26.757898330688477,0.9053058624267578,-0.0,-0.0,-1.0,0.1242155608042919,1.0,1.0
23.427082061767575,-26.227968215942383,0.9819364547729492,-0.0,-0.0,-1.0,0.0683686543963913,2.0,1.0
24.819286346435547,-26.18779754638672,1.0122909545898438,-0.0,-0.0,-1.0,0.0937669212742654,2.0,2.0
24.9862117767334,-26.284969329833984,0.994172215461731,-0.0,-0.0,-1.0,0.124374187549903,1.0,1.0
24.597475051879883,-25.704072952270508,0.7903822660446167,-0.0,-0.0,-1.0,0.0326829898099117,2.0,1.0
23.221025466918945,-25.32343864440918,0.8258384466171265,-0.0,-0.0,-1.0,0.1033758780390256,1.0,1.0
23.510129928588867,-25.35260772705078,0.8341836929321289,-0.0,-0.0,-1.0,0.2039716507900355,1.0,1.0
24.006607055664062,-25.296295166015625,0.8653386831283569,0.0359628393088735,0.9085505758265106,-0.4162241287505576,0.1268042191129893,3.0,1.0
24.33241844177246,-25.43355369567871,0.8442994356155396,-0.0,-0.0,-1.0,0.03821022310255,1.0,1.0
24.612234115600582,-25.685501098632812,0.7944819927215576,0.1302266097942393,0.1634768946231433,-0.9779142779537852,0.0298100318713107,4.0,1.0
25.16440200805664,-25.636186599731445,0.8059334754943848,-0.0,-0.0,-1.0,0.0927210176083647,1.0,1.0
22.817033767700195,-24.819721221923828,0.9028596878051758,-0.0,-0.0,-1.0,0.0543964185260315,1.0,1.0
23.095909118652344,-24.967309951782227,0.8917273283004761,-0.0,-0.0,-1.0,0.128998352770055,1.0,1.0
23.622543334960938,-25.01285743713379,0.9105825424194336,-0.0,-0.0,-1.0,0.1144840686756219,1.0,1.0
23.811542510986328,-25.12520980834961,0.8949049711227417,0.6635781488266668,0.2143316406279515,-0.7167468090096422,0.1225787182841078,3.0,1.0
22.73796844482422,-24.591968536376953,0.942662477493286,-0.0,-0.0,-1.0,0.1698664780435305,1.0,1.0
24.734790802001953,-24.79457664489746,0.987973928451538,-0.0,-0.0,-1.0,0.1221752863710711,1.0,1.0
25.137039184570312,-24.881019592285156,0.9702860116958618,0.7628268460261566,0.1233733865308137,0.6347237276781956,0.162853462750504,3.0,1.0
23.385845184326172,-26.85982894897461,1.222771167755127,0.1069159877210602,0.8954267325981371,-0.4321804462469982,0.1353816750240567,3.0,2.0
23.480920791625977,-26.70763397216797,1.2463464736938477,-0.0,-0.0,-1.0,0.1560163031554553,1.0,2.0
24.05069923400879,-26.72201156616211,1.2535922527313232,-0.0,-0.0,-1.0,0.1463192007467546,2.0,2.0
23.667646408081055,-26.171039581298828,1.3259142637252808,-0.0,-0.0,-1.0,0.1922300897655675,1.0,2.0
23.646242141723633,-25.587055206298828,1.1012715101242063,-0.0,-0.0,-1.0,0.2608233658286684,1.0,2.0
23.8983154296875,-25.69561004638672,1.0889383554458618,-0.0,-0.0,-1.0,0.2306207115983456,1.0,2.0
24.17835998535156,-25.722213745117188,1.2443194389343262,-0.1098040541201307,0.6186939942250408,-0.7779208257969757,0.2404751681563519,3.0,2.0
22.86137962341309,-25.09015655517578,1.1524689197540283,-0.0,-0.0,-1.0,0.1050287616522688,1.0,2.0
23.097801208496097,-25.232458114624023,1.140372395515442,-0.0,-0.0,-1.0,0.2074630776952706,2.0,2.0
23.411794662475582,-25.331741333007812,1.2865464687347412,-0.5082804753138531,-0.7026531782704585,-0.4979251645389562,0.1075333925588385,3.0,2.0
24.042461395263672,-25.382810592651367,1.1481047868728638,-0.2087778267680352,0.6562326364844908,-0.7251003695093738,0.1597768251080068,3.0,2.0
23.816844940185547,-24.536163330078125,1.0190426111221311,0.1397397457546711,-0.5582257232319751,-0.817836686251331,0.1760395473314432,3.0,2.0
24.458036422729492,-24.720252990722656,1.0000146627426147,-0.0,-0.0,-1.0,0.1047888851385676,1.0,2.0
24.951026916503903,-24.715925216674805,1.0063523054122925,0.70257290121925,0.3124478538010843,0.6393494014445169,0.1888422187438925,6.0,2.0
24.06841278076172,-25.40417098999023,1.4417107105255127,-0.0282961930081441,0.2700870163697166,-0.962420037743266,0.0672767245619174,3.0,2.0
22.785444259643555,-26.858985900878903,0.9405453205108644,-0.0,-0.0,-1.0,0.1686756944697331,1.0,1.0
25.061355590820312,-26.553709030151367,1.097204327583313,0.3280541761285263,0.4987120499869561,-0.8022884448391622,0.1580135291255857,3.0,2.0
23.64505195617676,-26.16332244873047,1.1012084484100342,-0.0,-0.0,-1.0,0.1605773406220913,1.0,2.0
24.57561492919922,-26.065031051635746,0.8366729021072388,-0.0,-0.0,-1.0,0.017973146894638,2.0,1.0
24.888959884643555,-26.228931427001953,0.983478546142578,-0.0,-0.0,-1.0,0.1204240954211002,1.0,1.0
23.117719650268555,-25.467758178710938,0.8491032123565674,-0.0,-0.0,-1.0,0.056650032244282,2.0,1.0
23.35335922241211,-25.59933853149414,1.007453441619873,-0.0,-0.0,-1.0,0.224624421246166,1.0,2.0
23.698530197143555,-25.625112533569336,1.0270500183105469,-0.0,-0.0,-1.0,0.2447943060950049,2.0,2.0
24.098800659179688,-25.77798080444336,1.026653528213501,-0.0,-0.0,-1.0,0.2112841104229485,1.0,2.0
24.484495162963867,-25.987525939941406,0.8471713066101074,-0.0,-0.0,-1.0,0.0074596538835507,1.0,1.0
24.8966121673584,-26.09218978881836,0.8446277379989624,-0.0,-0.0,-1.0,0.1122131039201669,1.0,1.0
22.83690643310547,-25.01525497436523,0.901822566986084,-0.0,-0.0,-1.0,0.1045437795415547,1.0,1.0
23.03948974609375,-25.1634521484375,0.8957910537719727,-0.0,-0.0,-1.0,0.1453626665525194,1.0,1.0
23.253360748291016,-25.425811767578125,0.8687049150466919,-0.0,-0.0,-1.0,0.1085926171263878,1.0,1.0
23.85093879699707,-25.399635314941406,0.9208385944366456,-0.0,-0.0,-1.0,0.0774910053181437,2.0,1.0
24.05443572998047,-25.352005004882812,0.9441711902618408,0.8749241418122488,0.3475245333307886,-0.337245377740478,0.2944038098991628,4.0,1.0
22.997758865356445,-25.019996643066406,0.9170427322387696,-0.0,-0.0,-1.0,0.1520868801110561,2.0,1.0
23.960693359375,-25.138856887817383,0.9777384996414183,0.0739933731572253,0.1196555811445204,-0.9900543028691824,0.2108140021507974,3.0,1.0
24.46908950805664,-24.86107635498047,1.0633363723754885,-0.0,-0.0,-1.0,0.2100494242523516,2.0,2.0
24.58578109741211,-24.845924377441406,1.0728713274002075,-0.0,-0.0,-1.0,0.1308886359813603,2.0,2.0
25.110462188720703,-25.14095115661621,1.0390543937683103,-0.0,-0.0,-1.0,0.1705752758640842,1.0,2.0
23.818872451782227,-24.53818130493164,1.0779907703399658,-0.0,-0.0,-1.0,0.1617485951298228,1.0,2.0
24.558992385864254,-24.79332733154297,1.081449270248413,-0.7850857239769824,0.614205184300762,0.0799524707911174,0.1342818969658072,3.0,2.0
23.368806838989254,-26.84240341186523,1.340768337249756,0.6253952121019023,-0.3564233540657904,-0.6941492788705529,0.0640086882583659,4.0,2.0
24.025115966796875,-26.683612823486328,1.387468338012695,-0.0,-0.0,-1.0,0.1283715882057956,2.0,2.0
23.73313331604004,-26.09524917602539,1.4470341205596924,-0.0,-0.0,-1.0,0.2806172593596188,2.0,2.0
24.092309951782227,-25.59734344482422,1.5226852893829346,-0.0,-0.0,-1.0,0.1163810952487172,2.0,2.0
