x,y,z,nx,ny,nz,curvature,density,label
9.752029418945312,-10.138423919677734,0.5711752772331238,-0.0,-0.0,-1.0,0.0322282545926294,1.0,1.0
9.821520805358888,-10.49069595336914,0.5720923542976379,-0.0,-0.0,-1.0,0.1208623359392046,1.0,1.0
9.591450691223145,-10.242094039916992,0.563612163066864,-0.0,-0.0,-1.0,0.0613683829113905,2.0,1.0
9.657197952270508,-10.555370330810549,1.1337733268737793,-0.0,-0.0,-1.0,0.0950820996515618,1.0,2.0
9.242467880249023,-11.790868759155272,2.205836534500122,-0.0,-0.0,-1.0,0.0347502582597989,1.0,3.0
9.845457077026367,-10.572805404663086,0.677601158618927,0.8200924582753364,-0.5547076326280393,0.1405268735299823,0.2117694117663607,3.0,1.0
9.706890106201172,-10.32029914855957,1.692094087600708,-0.0,-0.0,-1.0,0.1571084550673775,1.0,2.0
9.715559005737305,-10.423809051513672,1.1626849174499512,-0.4131684655724789,-0.7465269863984939,-0.5215259127169678,0.0745610337657535,3.0,2.0
10.153590202331545,-9.760457992553713,1.0909500122070312,-0.0,-0.0,-1.0,0.1387424682091779,1.0,2.0
9.814495086669922,-9.699091911315918,0.5666643977165222,-0.0,-0.0,-1.0,0.1229922252734116,1.0,1.0
9.685795783996582,-10.236910820007324,0.5541943311691284,-0.8923352401666322,-0.3295414529597417,-0.308448131681716,0.0525858820617373,3.0,1.0
10.13786506652832,-9.987914085388184,0.5449436902999878,0.0767361123015717,0.9358238738870872,0.3440134388825607,0.0520880249467727,3.0,1.0
10.02183723449707,-10.367581367492676,0.5371150970458984,-0.0,-0.0,-1.0,0.1153084188531982,1.0,1.0
9.36807346343994,-10.486985206604004,1.4705567359924316,-0.0,-0.0,-1.0,0.1472746535168332,2.0,2.0
9.472801208496094,-10.382729530334473,1.4657559394836426,0.7416914951174098,-0.3182361467439286,-0.5904400739923384,0.1567982281802444,3.0,2.0
9.29393196105957,-10.3983793258667,0.8954772353172302,-0.0,-0.0,-1.0,0.2109401063143574,1.0,1.0
9.516057968139648,-10.441277503967283,1.1598289012908936,-0.0,-0.0,-1.0,0.1104545655115778,2.0,2.0
9.467528343200684,-10.475690841674805,1.2054682970046997,0.0570169227411448,-0.5969578991989666,-0.8002439235040071,0.132171380996974,3.0,2.0
9.38780403137207,-10.549982070922852,0.7825771570205688,-0.0,-0.0,-1.0,0.2016140883860602,2.0,1.0
9.564717292785645,-10.530811309814451,0.7777391672134399,-0.1673551216501286,-0.8538538293197352,-0.492875137751434,0.128718136001338,6.0,1.0
9.84152603149414,-9.746088027954102,0.7888879776000977,-0.0,-0.0,-1.0,0.1414046920757347,1.0,1.0
9.420099258422852,-10.514976501464844,1.635446071624756,-0.0,-0.0,-1.0,0.17078653139268,2.0,2.0
9.504646301269531,-9.389605522155762,0.5505284070968628,0.1540335536491717,0.3309568949301382,-0.9309893651639688,0.1222117481305792,3.0,1.0
9.295340538024902,-10.50032901763916,0.9334933161735536,-0.0,-0.0,-1.0,0.1845493456209581,2.0,1.0
9.40718936920166,-10.441998481750488,0.9302902221679688,-0.0,-0.0,-1.0,0.239184204718467,1.0,1.0
9.364728927612305,-10.222825050354004,1.7527179718017578,0.716393500866059,-0.6023332834901082,0.3521007917016049,0.0817340351126048,5.0,2.0
9.780208587646484,-9.581412315368652,0.5384572744369507,-0.0,-0.0,-1.0,0.0901428585066344,1.0,1.0
9.974925994873049,-9.802206993103027,0.5207557678222656,-0.0,-0.0,-1.0,0.1186923206741751,1.0,1.0
9.670698165893556,-11.652531623840332,0.5978003740310669,-0.0,-0.0,-1.0,0.0530199553276522,2.0,1.0
9.186992645263672,-10.692004203796388,0.6499663591384888,-0.0,-0.0,-1.0,0.1448566541624591,2.0,1.0
9.12308406829834,-10.29146671295166,0.667961835861206,0.4411501057230952,-0.1311771313498188,-0.8877945395367861,0.1797109877173065,3.0,1.0
9.45687484741211,-10.513026237487791,0.6513234376907349,0.1333164814980098,-0.80621039312814,-0.576412628047964,0.199615542281045,3.0,1.0
9.74203872680664,-10.747635841369627,0.6347978115081787,-0.0,-0.0,-1.0,0.1090803494388837,2.0,1.0
9.90207862854004,-10.888680458068848,0.6248805522918701,-0.0,-0.0,-1.0,0.0801244975782635,2.0,1.0
9.714756965637209,-10.52969455718994,0.6447023153305054,-0.439163993805912,-0.7349543983276821,-0.5166981893941914,0.1400669458742686,5.0,1.0
9.11404800415039,-9.795140266418455,0.68852698802948,-0.0,-0.0,-1.0,0.1778274414426105,2.0,1.0
9.834915161132812,-9.769942283630373,0.6739459037780762,-0.5631193877936949,-0.5899925414239785,-0.5786236740360089,0.2393840426450343,3.0,1.0
9.381477355957031,-10.362866401672363,1.3051097393035889,-0.5973574535057992,-0.0660343762296973,-0.7992518588636633,0.0996744117403848,3.0,2.0
9.628515243530272,-10.383663177490234,0.6080808639526367,-0.7696183414081733,-0.6151460153470786,0.1711227289717656,0.0700637186269856,3.0,1.0
9.898709297180176,-10.421062469482422,0.6030600070953369,-0.0,-0.0,-1.0,0.0941434522200313,1.0,1.0
10.17035675048828,-10.653497695922852,0.589385986328125,-0.0,-0.0,-1.0,0.1956788480386851,1.0,1.0
9.380081176757812,-10.365514755249023,1.4056497812271118,-0.0,-0.0,-1.0,0.1814633400146428,2.0,2.0
9.903950691223145,-9.654459953308104,1.0761281251907349,-0.0,-0.0,-1.0,0.0875270958799024,2.0,2.0
9.70491886138916,-9.646029472351074,0.5697848200798035,-0.0,-0.0,-1.0,0.103729226092478,1.0,1.0
10.0924711227417,-9.991005897521973,0.563480019569397,-0.0,-0.0,-1.0,0.0508291778530996,2.0,1.0
9.550264358520508,-10.377434730529783,1.3138580322265625,-0.0,-0.0,-1.0,0.1798876625688493,1.0,2.0
9.096430778503418,-10.346895217895508,0.8923428058624268,-0.0,-0.0,-1.0,0.1997574096617246,1.0,1.0
9.29891300201416,-10.290245056152344,0.8954344987869263,-0.0,-0.0,-1.0,0.1104933217261303,1.0,1.0
10.170571327209473,-10.652462005615234,0.9029144048690796,-0.0,-0.0,-1.0,0.2609851590588314,2.0,1.0
9.172367095947266,-10.263677597045898,1.6506346464157104,-0.0,-0.0,-1.0,0.0954996534212446,1.0,2.0
9.51044464111328,-9.9983549118042,0.6814382076263428,-0.0,-0.0,-1.0,0.2104845731737175,1.0,1.0
9.521178245544434,-10.56060791015625,0.6549107432365417,-0.0,-0.0,-1.0,0.1384451205320134,1.0,1.0
9.672283172607422,-10.883774757385254,0.6379855275154114,-0.0,-0.0,-1.0,0.0983263289429947,1.0,1.0
9.907419204711914,-9.884480476379396,0.6828227043151855,-0.0,-0.0,-1.0,0.1337976473776514,1.0,1.0
9.918462753295898,-10.71753978729248,0.6432411670684814,0.8821496866295558,-0.464597733001567,-0.077206715181915,0.2362766738484228,3.0,1.0
9.918293952941896,-11.44156551361084,0.6083090305328369,-0.0,-0.0,-1.0,0.0655897672586867,2.0,1.0
9.436223983764648,-10.414506912231444,1.3905162811279297,-0.0,-0.0,-1.0,0.2029435035160884,1.0,2.0
9.560332298278809,-10.49478530883789,1.3845831155776978,-0.0,-0.0,-1.0,0.1667372165566115,1.0,2.0
9.452850341796877,-10.459283828735352,0.7626792192459106,-0.0,-0.0,-1.0,0.302640718967154,2.0,1.0
9.88433074951172,-10.669679641723633,0.7481000423431396,-0.0,-0.0,-1.0,0.2127972799387697,2.0,1.0
9.26222324371338,-9.53122901916504,0.6548850536346436,-0.0,-0.0,-1.0,0.0485537868382209,1.0,1.0
9.155770301818848,-10.095020294189451,0.6270254850387573,-0.5449992756022861,0.0392895507490824,-0.8375154451082789,0.1412122396195735,3.0,1.0
9.510379791259766,-10.190372467041016,0.6224925518035889,-0.0,-0.0,-1.0,0.0898850752206313,2.0,1.0
9.628135681152344,-10.43673610687256,0.6099299192428589,-0.0041236898749514,-0.6803397438989303,-0.7328852761881309,0.0894152489714835,3.0,1.0
9.83305835723877,-9.740251541137695,0.6454788446426392,-0.0,-0.0,-1.0,0.22154067384694,2.0,1.0
9.893315315246582,-10.562188148498535,0.6031540632247925,-0.0,-0.0,-1.0,0.2095731798452848,1.0,1.0
9.405786514282228,-10.398761749267578,1.2899068593978882,-0.0,-0.0,-1.0,0.1118288739597155,2.0,2.0
9.5147123336792,-10.480514526367188,1.0068252086639404,0.4449454432802657,-0.8815680435038502,0.1576747829455345,0.1349182695566424,5.0,2.0
9.553203582763672,-10.400203704833984,1.662826657295227,0.3907619973268457,-0.6022467237700926,-0.6961350049762792,0.1932600477645512,4.0,2.0
9.36285400390625,-10.490888595581056,0.971077561378479,0.0931732480310029,-0.0048031476359453,-0.9956383257107674,0.1607075643197719,3.0,1.0
9.323050498962402,-10.306891441345217,1.6172324419021606,-0.3423405417813643,-0.9024331394154256,-0.261567166016037,0.1133312819261277,3.0,2.0
9.375654220581056,-10.485023498535156,0.921173632144928,-0.0,-0.0,-1.0,0.186898549525363,2.0,1.0
10.155675888061523,-10.643704414367676,0.9359745979309082,-0.0,-0.0,-1.0,0.1592220255456913,2.0,1.0
9.260571479797363,-10.418161392211914,1.555384874343872,-0.0,-0.0,-1.0,0.1540777555306125,1.0,2.0
9.368819236755373,-10.281249046325684,1.559165120124817,-0.0,-0.0,-1.0,0.055973899285599,1.0,2.0
9.469021797180176,-9.414687156677246,0.6290261745452881,-0.0,-0.0,-1.0,0.1153664766873849,2.0,1.0
9.538010597229004,-9.856905937194824,0.6048561334609985,-0.0,-0.0,-1.0,0.1084584693494343,2.0,1.0
9.621156692504885,-10.197030067443848,0.5867394208908081,-0.6504111700784689,0.1758537323335107,-0.73894571834576,0.0621135115110853,3.0,1.0
9.893699645996094,-9.718297004699709,0.6306654214859009,-0.0,-0.0,-1.0,0.1930134792719235,2.0,1.0
9.970453262329102,-10.417390823364258,0.5880860090255737,-0.0,-0.0,-1.0,0.1151635470692363,2.0,1.0
8.88812255859375,-9.488784790039062,0.8069837093353271,-0.0,-0.0,-1.0,0.0871777581749752,2.0,1.0
9.25202751159668,-10.455821990966797,0.8017348051071167,-0.0,-0.0,-1.0,0.1744579562123535,1.0,1.0
9.593804359436035,-10.451472282409668,0.8187419176101685,0.4344633068334659,-0.8585313945545803,0.2723333978407671,0.1035303865012506,3.0,1.0
9.915157318115234,-9.700972557067873,0.8557795286178589,-0.0,-0.0,-1.0,0.0752090107562851,1.0,1.0
9.95297908782959,-10.652284622192385,0.8298391103744507,-0.0,-0.0,-1.0,0.172754765052589,1.0,1.0
9.520194053649902,-10.462130546569824,1.4245092868804932,0.029926631147082,-0.018378388235849,-0.999383125529964,0.1789441219090661,3.0,2.0
9.132190704345703,-9.8260498046875,0.6565455198287964,-0.0,-0.0,-1.0,0.2092486713766806,2.0,1.0
9.17010498046875,-10.219305038452148,0.6489901542663574,-0.0,-0.0,-1.0,0.0950346219212236,1.0,1.0
9.378101348876951,-11.53506088256836,0.6212600469589233,-0.0,-0.0,-1.0,0.048008161128651,2.0,1.0
9.279050827026367,-9.407352447509766,0.6754381656646729,-0.0,-0.0,-1.0,0.069100791364236,2.0,1.0
9.23125457763672,-9.708492279052734,0.6656322479248047,-0.0,-0.0,-1.0,0.1912502101446971,2.0,1.0
9.715335845947266,-10.556232452392578,0.6730833053588867,-0.7723339510841507,-0.4598786617427919,-0.4381916070355568,0.1789099028902344,4.0,1.0
9.72471809387207,-10.910213470458984,0.6627166271209717,-0.40403571949521,0.4751862625843107,-0.781634923236636,0.0972943947610243,4.0,1.0
9.830890655517578,-11.291580200195312,0.6562840938568115,-0.0,-0.0,-1.0,0.0872474046274175,1.0,1.0
9.860373497009276,-11.81733512878418,0.6390734910964966,-0.0,-0.0,-1.0,0.0537918957987931,2.0,1.0
9.822269439697266,-9.784433364868164,0.70102858543396,-0.9180694361450632,0.0729255875784684,-0.3896541660147117,0.2228697397714665,3.0,1.0
9.932819366455078,-10.659496307373049,0.6831588745117188,-0.0,-0.0,-1.0,0.2525544918701951,2.0,1.0
9.913970947265623,-10.732135772705078,0.6797511577606201,-0.0,-0.0,-1.0,0.2347721258927878,2.0,1.0
10.083316802978516,-11.37250518798828,0.6682865619659424,-0.0,-0.0,-1.0,0.079557579730283,1.0,1.0
10.087776184082031,-11.57012176513672,0.6613755226135254,-0.0,-0.0,-1.0,0.0375231884755449,2.0,1.0
9.020204544067385,-10.232219696044922,0.8896072506904602,-0.0,-0.0,-1.0,0.1513951105693419,1.0,1.0
9.610069274902344,-10.521865844726562,0.9120498895645142,-0.7424614767085893,0.2331906821405715,-0.6279912908365178,0.1263287199900773,6.0,1.0
9.288375854492188,-10.469096183776855,1.5119824409484863,-0.776442197383399,0.3197852378906787,-0.5430238629651931,0.1731304932022456,3.0,2.0
9.512598037719728,-10.460384368896484,1.5157229900360107,-0.0,-0.0,-1.0,0.1480852808144409,2.0,2.0
9.543190002441406,-10.476638793945312,1.0011169910430908,-0.143448034374332,-0.323497102956235,-0.9352926204205098,0.1243508619428604,3.0,2.0
9.524200439453123,-10.415716171264648,1.601332187652588,0.9737144603402964,0.0897732802562234,-0.2093344402534923,0.2413397328367355,4.0,2.0
8.851934432983398,-9.393651962280272,0.843441367149353,-0.0,-0.0,-1.0,0.0871777581749752,2.0,1.0
8.926387786865234,-9.384798049926758,0.8477989435195923,-0.0,-0.0,-1.0,0.0662209634741061,1.0,1.0
9.647708892822266,-10.520920753479004,0.8716973662376404,-0.447316580548463,-0.807965568027982,-0.383535549392296,0.0936868056281918,4.0,1.0
9.26125144958496,-10.470635414123535,1.448031306266785,-0.0,-0.0,-1.0,0.1240845664214199,1.0,2.0
9.446832656860352,-9.7723970413208,0.5964990854263306,0.8031588410309712,0.5814626784363824,0.1297575803541933,0.0586440953617138,3.0,1.0
9.490825653076172,-10.24410343170166,0.5859826803207397,-0.0,-0.0,-1.0,0.0766707654698966,1.0,1.0
9.50459098815918,-9.48215103149414,0.6084257364273071,-0.7711292618721833,0.6182470621295402,0.1520862638526374,0.097138348443912,3.0,1.0
9.508930206298828,-9.538753509521484,0.6073063611984253,-0.0,-0.0,-1.0,0.0995456904657267,2.0,1.0
9.636821746826172,-9.811766624450684,0.6094907522201538,0.9555379957887356,-0.1499282289326993,0.253906803321909,0.1355748452024873,3.0,1.0
9.766555786132812,-10.587776184082031,0.5951827764511108,-0.0,-0.0,-1.0,0.1892397664629063,1.0,1.0
9.345808029174805,-10.25771427154541,1.734717845916748,0.947026896551536,-0.3211523903354009,-0.0010951665737625,0.1343339513363484,7.0,2.0
8.877269744873047,-9.87597942352295,0.7143975496292114,-0.0,-0.0,-1.0,0.151532305068955,1.0,1.0
9.845599174499512,-9.679612159729004,0.7818150520324707,-0.0,-0.0,-1.0,0.1064084299194813,1.0,1.0
9.601235389709473,-10.577693939208984,0.7563486099243164,0.3701285804514265,-0.4861383528321605,-0.7916276497436439,0.2521321662243551,3.0,1.0
9.623424530029297,-9.46880340576172,0.5884672403335571,-0.0,-0.0,-1.0,0.0720390453778939,1.0,1.0
9.51180934906006,-9.83748722076416,0.5721358060836792,0.0328326756288385,-0.6002300772715727,-0.7991532204462504,0.0900920389067375,4.0,1.0
9.486693382263184,-9.943622589111328,0.5678223371505737,-0.0,-0.0,-1.0,0.0824025369131297,1.0,1.0
9.859193801879885,-9.771173477172852,0.6028591394424438,-0.0,-0.0,-1.0,0.1886331226832956,2.0,1.0
9.63139820098877,-10.212051391601562,0.5741502046585083,-0.6504111700784689,0.1758537323335107,-0.73894571834576,0.0537863526272326,3.0,1.0
9.917835235595703,-10.291986465454102,0.5965455770492554,0.2478755946822177,-0.8079545073512131,-0.5345719816935751,0.0517499217040081,3.0,1.0
9.342244148254396,-10.252434730529783,1.6381676197052002,-0.0,-0.0,-1.0,0.0983561772178153,2.0,2.0
9.525736808776855,-10.361122131347656,1.6382516622543335,-0.0,-0.0,-1.0,0.139934223850723,1.0,2.0
9.723132133483888,-9.378141403198242,0.5306462049484253,-0.1181028755588087,0.2903477314536187,-0.9496051314227816,0.0440728355520865,3.0,1.0
9.436092376708984,-10.339591026306152,1.5449450016021729,-0.0,-0.0,-1.0,0.093037630390534,1.0,2.0
9.26221752166748,-10.488971710205078,1.5376802682876587,-0.3408692490856102,0.4573710460086015,-0.8213524708070281,0.2302559660732728,4.0,2.0
9.572300910949709,-10.451465606689451,1.545534610748291,0.6684823574724081,-0.654357130284328,0.3534799623658898,0.1194710937994997,3.0,2.0
9.466766357421877,-10.31564712524414,0.918038845062256,-0.0,-0.0,-1.0,0.1847345720023487,1.0,1.0
9.616949081420898,-10.483561515808104,0.9257310628890992,0.7887880066018977,0.0761743704232444,-0.6099270004940156,0.1316027419291477,3.0,1.0
9.383512496948242,-10.509666442871094,0.9100264310836792,-0.249431398097484,0.3319681827450197,-0.909714847239564,0.1408847579902172,3.0,1.0
9.419095039367676,-10.36862564086914,1.4216915369033811,0.2067386576536207,-0.735341428220926,-0.6453929898701937,0.1822756432742807,3.0,2.0
9.316997528076172,-10.456975936889648,1.4170453548431396,-0.4649003239212611,-0.1210118880549888,-0.8770540529336108,0.1545396725045652,3.0,2.0
9.499279975891112,-10.42570972442627,1.423213243484497,-0.0,-0.0,-1.0,0.1868478665674463,2.0,2.0
9.83022117614746,-9.595331192016602,0.530555009841919,0.6850797065951537,0.3243308431877384,-0.6522846769383969,0.1070869705929588,3.0,1.0
9.60312557220459,-9.824316024780272,0.5098236799240112,-0.0,-0.0,-1.0,0.0899786121334096,2.0,1.0
10.156078338623049,-9.996859550476074,0.5652154684066772,-0.0,-0.0,-1.0,0.0426031198802026,2.0,1.0
10.169839859008787,-10.140498161315918,0.5671143531799316,0.6054581857043935,0.2394926672539101,-0.7589885688830578,0.0667992426445787,4.0,1.0
10.104421615600586,-10.29179573059082,0.5609179735183716,-0.0,-0.0,-1.0,0.1059352148346221,1.0,1.0
9.570511817932127,-10.456917762756348,0.9901055097579956,-0.0,-0.0,-1.0,0.100987737849777,2.0,1.0
9.47039031982422,-10.393129348754885,1.4683327674865725,-0.1913461909486334,-0.979685377605708,-0.0600266283828313,0.1867049880966835,4.0,2.0
9.018355369567873,-9.830524444580078,0.5848842859268188,-0.0,-0.0,-1.0,0.0936864887651904,1.0,1.0
9.51866054534912,-9.467205047607422,0.6190061569213867,-0.6891189290082881,0.7208273730211702,-0.0743168889679117,0.1374419567238466,4.0,1.0
9.331480026245115,-9.69212818145752,0.6101434230804443,-0.0,-0.0,-1.0,0.0921969005017578,2.0,1.0
9.178983688354492,-10.111875534057615,0.6111290454864502,-0.0,-0.0,-1.0,0.1248127928125902,2.0,1.0
9.763378143310549,-9.666278839111328,0.651349663734436,-0.0,-0.0,-1.0,0.1846596778423613,1.0,1.0
9.674904823303224,-9.783068656921388,0.647559642791748,-0.0,-0.0,-1.0,0.186655855387651,1.0,1.0
9.11661148071289,-10.955820083618164,0.6311626434326172,-0.0,-0.0,-1.0,0.1741701476958324,2.0,1.0
9.084413528442385,-11.289711952209473,0.6360759735107422,-0.0,-0.0,-1.0,0.041767378430415,1.0,1.0
9.882296562194824,-10.66124153137207,0.7000375986099243,-0.0,-0.0,-1.0,0.2660454032797297,2.0,1.0
9.656740188598633,-10.745518684387209,0.6798946857452393,-0.0,-0.0,-1.0,0.1269688462383412,1.0,1.0
9.436370849609377,-11.111343383789062,0.6676759719848633,-0.0,-0.0,-1.0,0.0738210339895972,2.0,1.0
9.184025764465332,-11.595306396484377,0.6527206897735596,-0.0,-0.0,-1.0,0.0376857247799389,2.0,1.0
9.422886848449709,-11.825236320495604,0.6816915273666382,-0.0,-0.0,-1.0,0.0520660908232342,1.0,1.0
9.103246688842772,-10.453204154968262,1.1051112413406372,-0.0,-0.0,-1.0,0.1072915295726232,1.0,2.0
9.466858863830566,-10.253597259521484,1.1242927312850952,-0.0,-0.0,-1.0,0.1455860327524099,1.0,2.0
9.739994049072266,-10.426103591918944,1.146611213684082,-0.4131684655724789,-0.7465269863984939,-0.5215259127169678,0.0690813768637335,3.0,2.0
9.350092887878418,-10.311738967895508,1.5985636711120603,-0.3423405417813643,-0.9024331394154256,-0.261567166016037,0.0946469323437817,3.0,2.0
9.520938873291016,-10.407197952270508,1.6055359840393066,0.9737144603402964,0.0897732802562234,-0.2093344402534923,0.2413397328367355,4.0,2.0
8.921152114868164,-9.503019332885742,0.6927372217178345,0.1947377550343423,0.2108334265546111,-0.9579282191330548,0.092495426107123,3.0,1.0
8.896459579467773,-9.626382827758787,0.6954214572906494,0.1257043418422417,-0.1802798917412494,-0.9755498854880628,0.0825732639274108,3.0,1.0
9.690695762634276,-9.73609733581543,0.7765581607818604,-0.0,-0.0,-1.0,0.1457152232281088,1.0,1.0
9.35965347290039,-9.933761596679688,0.7525968551635742,-0.0,-0.0,-1.0,0.2171231463839681,2.0,1.0
9.342954635620115,-10.60629177093506,0.7749416828155518,-0.0,-0.0,-1.0,0.1552727765060748,2.0,1.0
9.997772216796877,-10.631650924682615,0.8409733772277832,-0.0,-0.0,-1.0,0.1794205570891835,2.0,1.0
9.466751098632812,-10.545827865600586,1.2570416927337646,-0.0,-0.0,-1.0,0.1354828689160002,2.0,2.0
9.329253196716309,-10.241260528564451,1.7184560298919678,-0.2974901298522467,-0.9313736620735772,-0.2098635848263057,0.1343339513363484,5.0,2.0
9.703500747680664,-9.368112564086914,0.5361541509628296,-0.1181028755588087,0.2903477314536187,-0.9496051314227816,0.0456118379938725,3.0,1.0
9.583330154418944,-9.779186248779297,0.5557959079742432,-0.0,-0.0,-1.0,0.0882002703070288,1.0,1.0
9.5281343460083,-10.04823875427246,0.5696532726287842,-0.7098713527460574,0.5488467411919801,-0.4414180753360987,0.060250845852817,3.0,1.0
9.521713256835938,-10.203113555908203,0.5798854827880859,-0.0,-0.0,-1.0,0.088336964872582,2.0,1.0
9.13902759552002,-11.489701271057127,0.6158998012542725,-0.0,-0.0,-1.0,0.0371652912511004,1.0,1.0
9.86467742919922,-9.703001022338867,0.5785818099975586,-0.0,-0.0,-1.0,0.1549221084961125,1.0,1.0
9.79127597808838,-10.66033172607422,0.6389051675796509,-0.0,-0.0,-1.0,0.1951180215474003,2.0,1.0
9.739030838012695,-10.927838325500488,0.6500692367553711,-0.2306795463483425,0.2560737453319705,-0.9387295584182804,0.0920019076160931,4.0,1.0
9.70236110687256,-11.18371295928955,0.6613156795501709,0.0309109978358838,-0.9817688085996324,-0.1875487048039739,0.1291814038572149,4.0,1.0
9.364728927612305,-11.74577522277832,0.653814435005188,-0.0,-0.0,-1.0,0.0515059554854269,1.0,1.0
9.928234100341797,-10.622486114501951,0.65095055103302,-0.0,-0.0,-1.0,0.2111947479607125,2.0,1.0
9.841501235961914,-11.200576782226562,0.6774578094482422,-0.0,-0.0,-1.0,0.1282544839266579,1.0,1.0
9.473386764526367,-10.47210693359375,1.0688960552215576,-0.4301286704749338,-0.8959317755786874,0.1108854379253024,0.0693524806323169,4.0,2.0
9.432159423828123,-10.465587615966797,1.5400259494781494,-0.0,-0.0,-1.0,0.2008356481438514,1.0,2.0
8.869315147399902,-10.298747062683104,0.5863568782806396,-0.0,-0.0,-1.0,0.2450462757122153,1.0,1.0
9.369540214538574,-9.536863327026367,0.5438764095306396,-0.0,-0.0,-1.0,0.056050703327696,1.0,1.0
9.286460876464844,-10.059816360473633,0.6002767086029053,-0.0,-0.0,-1.0,0.1441529673350315,2.0,1.0
9.097729682922363,-10.611388206481934,0.6448849439620972,-0.0,-0.0,-1.0,0.1944788849825326,1.0,1.0
9.389949798583984,-10.917903900146484,0.70876145362854,-0.0,-0.0,-1.0,0.0353749630847828,1.0,1.0
9.756423950195312,-10.075634002685549,0.6484858989715576,-0.0,-0.0,-1.0,0.0486626968028751,1.0,1.0
9.857461929321287,-11.039477348327637,0.7705650329589844,-0.0,-0.0,-1.0,0.1275679987236169,1.0,1.0
10.004961013793944,-11.053159713745115,0.7873287200927734,-0.0,-0.0,-1.0,0.243297082663294,1.0,1.0
9.444198608398438,-10.88149356842041,1.197622537612915,-0.0,-0.0,-1.0,0.2187842977321292,1.0,2.0
9.433768272399902,-10.737581253051758,1.6692107915878296,-0.0,-0.0,-1.0,0.1350309458806112,1.0,2.0
9.5587158203125,-11.346378326416016,0.6794493198394775,-0.0,-0.0,-1.0,0.1054983715912287,1.0,1.0
9.608864784240724,-11.45407485961914,0.6969950199127197,-0.0,-0.0,-1.0,0.0556507055960176,1.0,1.0
9.691620826721191,-10.266468048095703,0.5689210891723633,-0.8923352401666322,-0.3295414529597417,-0.308448131681716,0.0390830455863757,3.0,1.0
9.740010261535645,-10.632305145263672,0.6184945106506348,-0.0,-0.0,-1.0,0.2068552940776195,1.0,1.0
9.739615440368652,-11.07046890258789,0.6693778038024902,-0.0,-0.0,-1.0,0.1391536520415428,1.0,1.0
9.912816047668455,-9.899496078491213,0.5468964576721191,-0.0,-0.0,-1.0,0.1118403139131494,2.0,1.0
10.070460319519045,-10.23569107055664,0.6065218448638916,-0.0,-0.0,-1.0,0.0706680888267179,1.0,1.0
9.439764022827148,-10.825398445129396,1.1041581630706787,-0.0,-0.0,-1.0,0.1918456163116586,1.0,2.0
9.837417602539062,-9.955584526062012,1.044325828552246,-0.0,-0.0,-1.0,0.0885010317114764,1.0,2.0
9.37695026397705,-10.65388298034668,1.5792651176452637,-0.0,-0.0,-1.0,0.1221737557086608,1.0,2.0
9.437143325805664,-9.457367897033691,0.5313904285430908,-0.0,-0.0,-1.0,0.0804285078486439,1.0,1.0
9.868078231811523,-11.0656156539917,0.6236238479614258,-0.0,-0.0,-1.0,0.1587151560885696,1.0,1.0
9.70901870727539,-11.299691200256348,0.6215336322784424,-0.0,-0.0,-1.0,0.1181417027654788,2.0,1.0
9.051712036132812,-10.814544677734377,1.5108249187469482,-0.0,-0.0,-1.0,0.1849703792227871,1.0,2.0
9.39974594116211,-10.287342071533203,0.5704953670501709,-0.0,-0.0,-1.0,0.144847845896722,1.0,1.0
9.806268692016602,-9.426326751708984,0.559546947479248,-0.0,-0.0,-1.0,0.072324910013624,1.0,1.0
9.69363784790039,-10.993934631347656,0.6197338104248047,-0.0,-0.0,-1.0,0.0812514104683949,2.0,1.0
9.705535888671877,-11.234830856323242,0.6305568218231201,-0.9047709534315992,-0.2969067828287596,-0.3053455159925407,0.1388939490370588,3.0,1.0
9.942655563354492,-11.03325653076172,0.6378602981567383,-0.0,-0.0,-1.0,0.1423647269025418,1.0,1.0
9.076744079589844,-9.712629318237305,0.719551682472229,-0.0,-0.0,-1.0,0.0760291935736509,1.0,1.0
9.470663070678713,-10.84589672088623,0.8057082891464233,-0.0,-0.0,-1.0,0.0568139036301501,1.0,1.0
8.982585906982422,-9.611342430114746,0.6767492294311523,-0.0,-0.0,-1.0,0.0790685660749192,2.0,1.0
8.9267578125,-9.799747467041016,0.6824281215667725,-0.0,-0.0,-1.0,0.1642126579008037,1.0,1.0
9.265388488769531,-9.367088317871094,0.680961012840271,-0.0,-0.0,-1.0,0.0585078140785368,2.0,1.0
9.55743408203125,-10.6594820022583,0.7579377889633179,-0.0,-0.0,-1.0,0.1295873800393727,1.0,1.0
9.819379806518556,-10.69281768798828,0.7744698524475098,-0.0,-0.0,-1.0,0.2306213354785278,1.0,1.0
9.68987274169922,-10.435630798339844,0.9630467891693116,-0.7799035638566116,-0.073382981869006,-0.6215829542834724,0.1127734127455453,3.0,1.0
9.637365341186523,-9.53852081298828,0.6442539691925049,-0.0,-0.0,-1.0,0.0909160273749821,1.0,1.0
9.55339241027832,-9.643718719482422,0.6425890922546387,-0.0,-0.0,-1.0,0.0572631340804331,2.0,1.0
9.441001892089844,-9.7739839553833,0.6397008895874023,-0.0,-0.0,-1.0,0.081519465610136,2.0,1.0
9.757814407348633,-10.677488327026367,0.7108120918273926,-0.0,-0.0,-1.0,0.2142839897073293,1.0,1.0
9.646879196166992,-10.95774745941162,0.7144498825073242,-0.0,-0.0,-1.0,0.0974772192344198,1.0,1.0
9.590808868408203,-11.272271156311035,0.7239980697631836,-0.0,-0.0,-1.0,0.1520590243806089,2.0,1.0
9.127618789672852,-11.263632774353027,0.6828832626342773,-0.0,-0.0,-1.0,0.0827506830734701,1.0,1.0
9.52393913269043,-9.661128044128418,0.6363868713378906,0.1385081179506353,0.1160639255936569,-0.9835368149884188,0.0513573209633707,3.0,1.0
9.50612449645996,-10.15232753753662,0.6620833873748779,-0.0,-0.0,-1.0,0.1009661845198476,2.0,1.0
9.160043716430664,-10.049578666687012,0.6263763904571533,-0.0,-0.0,-1.0,0.114800162979241,2.0,1.0
9.72458839416504,-10.635649681091309,0.7072768211364746,-0.6141738606007398,-0.6817926498091299,0.3974282974588346,0.2025575112510848,4.0,1.0
9.67574691772461,-10.8507661819458,0.7144134044647217,-0.0,-0.0,-1.0,0.1126826595255598,2.0,1.0
9.556085586547852,-11.068285942077637,0.7151572704315186,-0.0,-0.0,-1.0,0.1083638021143986,1.0,1.0
9.06773567199707,-11.176450729370115,0.6769018173217773,-0.0,-0.0,-1.0,0.1500619818031368,1.0,1.0
9.487363815307615,-11.220999717712402,0.7168474197387695,-0.0,-0.0,-1.0,0.1082442042598384,1.0,1.0
9.119524002075195,-11.459571838378906,0.695655107498169,-0.0,-0.0,-1.0,0.0469694775726073,1.0,1.0
9.458782196044922,-10.38790512084961,1.5156543254852295,-0.1023083746980165,-0.9911719830359492,0.0843273177044908,0.1602152006039264,3.0,2.0
9.460823059082031,-9.562039375305176,0.647892951965332,-0.0,-0.0,-1.0,0.11181273445602,1.0,1.0
9.081470489501951,-9.786927223205566,0.6290121078491211,-0.0,-0.0,-1.0,0.1078637381778755,1.0,1.0
9.099349975585938,-9.962808609008787,0.6408019065856934,-0.0,-0.0,-1.0,0.1422888781830232,1.0,1.0
9.197092056274414,-10.73686695098877,0.693397045135498,-0.0,-0.0,-1.0,0.128745560026501,2.0,1.0
9.626174926757812,-10.667715072631836,0.7269484996795654,-0.0,-0.0,-1.0,0.1289053037385484,2.0,1.0
9.024036407470703,-11.066240310668944,0.6962494850158691,-0.0,-0.0,-1.0,0.0991514459690896,2.0,1.0
9.568201065063477,-10.463377952575684,1.5312360525131226,0.6684823574724081,-0.654357130284328,0.3534799623658898,0.1194710937994998,3.0,2.0
9.016098022460938,-9.46790885925293,0.7643556594848633,-0.0,-0.0,-1.0,0.0589257257929071,2.0,1.0
9.631877899169922,-10.51431941986084,0.8720800876617432,-0.392138986930393,-0.8322451810778391,-0.391911946107694,0.0937828869288244,4.0,1.0
9.400562286376951,-10.322432518005373,1.6518614292144775,-0.4228020420422164,-0.5004916727619155,-0.7554776758719687,0.0679614559983614,3.0,2.0
10.04429054260254,-9.861654281616213,0.5858345031738281,-0.0,-0.0,-1.0,0.1098192529461898,1.0,1.0
10.182683944702148,-10.125617980957031,0.6178159713745117,-0.0,-0.0,-1.0,0.0697576548249983,2.0,1.0
9.899125099182127,-10.752458572387695,0.6324193477630615,0.7868466637294182,-0.2626735408845414,-0.5584576427062855,0.2459257881961127,3.0,1.0
9.842636108398438,-11.121899604797363,0.6512448787689209,-0.0,-0.0,-1.0,0.1249666459201091,1.0,1.0
9.512855529785156,-10.207158088684082,1.3329031467437744,-0.0,-0.0,-1.0,0.230593064916524,1.0,2.0
9.467155456542969,-10.494391441345217,1.34145188331604,-0.0,-0.0,-1.0,0.1787761790865057,1.0,2.0
9.82292366027832,-9.680681228637695,0.6136412620544434,-0.0,-0.0,-1.0,0.1784915282441196,2.0,1.0
9.643930435180664,-9.59267234802246,0.5908293724060059,-0.0,-0.0,-1.0,0.0436585630995316,1.0,1.0
9.564324378967283,-10.00725269317627,0.6149930953979492,-0.0,-0.0,-1.0,0.0784855107306656,2.0,1.0
9.487411499023438,-9.871134757995604,0.5977692604064941,-0.2888522073161566,-0.4387875315970727,-0.8508994678829762,0.1169386091780729,3.0,1.0
9.825728416442873,-10.666358947753906,0.688237190246582,-0.0,-0.0,-1.0,0.2095619413236089,1.0,1.0
9.720450401306152,-10.87116527557373,0.6935417652130127,-0.0,-0.0,-1.0,0.0876913524873617,2.0,1.0
9.116972923278809,-10.981490135192873,0.6445014476776123,-0.0,-0.0,-1.0,0.1598730161940945,2.0,1.0
9.537652969360352,-10.09933376312256,1.375766396522522,0.8640410365086144,0.0008102856992494,-0.5034207292774148,0.2018664036700994,4.0,2.0
9.446706771850586,-10.491741180419922,1.3886163234710691,-0.0,-0.0,-1.0,0.1678706295052635,1.0,2.0
9.50844383239746,-10.409735679626465,1.1315078735351562,-0.0,-0.0,-1.0,0.1375872923220728,2.0,2.0
9.90304183959961,-10.667034149169922,0.5056440830230713,-0.0,-0.0,-1.0,0.1740231496200383,1.0,1.0
9.83466911315918,-11.576473236083984,0.5852634906768799,-0.0,-0.0,-1.0,0.0659443202018527,1.0,1.0
9.76083755493164,-10.998167991638184,0.5229818820953369,-0.0,-0.0,-1.0,0.0703997350429785,1.0,1.0
9.437581062316896,-11.370719909667969,0.5250411033630371,-0.0,-0.0,-1.0,0.0512372137267132,1.0,1.0
9.971356391906738,-9.688243865966797,1.111208438873291,-0.0,-0.0,-1.0,0.096294106720999,1.0,2.0
9.685701370239258,-9.497163772583008,0.5731706619262695,-0.0,-0.0,-1.0,0.0608321812923594,2.0,1.0
9.493331909179688,-9.728973388671877,0.572577953338623,-0.0,-0.0,-1.0,0.0701179575012982,1.0,1.0
9.546478271484377,-9.408852577209473,0.550607442855835,0.1540335536491717,0.3309568949301382,-0.9309893651639688,0.0945843385306302,3.0,1.0
9.658900260925291,-10.5197172164917,0.6580860614776611,-0.2889893768997334,0.605656385067487,-0.7413942832704388,0.0921210871085601,4.0,1.0
9.445791244506836,-10.01958465576172,0.59236741065979,-0.0,-0.0,-1.0,0.1069214119155697,1.0,1.0
9.198957443237305,-10.80431079864502,0.6312699317932129,-0.0,-0.0,-1.0,0.1632723758902272,1.0,1.0
9.0443696975708,-11.07675552368164,0.6365008354187012,-0.0,-0.0,-1.0,0.1059030526009168,2.0,1.0
9.825925827026367,-10.6002779006958,0.6831390857696533,0.8200924582753364,-0.5547076326280393,0.1405268735299823,0.2345312287372897,3.0,1.0
9.635251998901367,-10.810794830322266,0.6800246238708496,-0.0,-0.0,-1.0,0.0926921631645603,1.0,1.0
9.548648834228516,-10.22962474822998,1.2758183479309082,-0.0,-0.0,-1.0,0.2338709962431187,1.0,2.0
10.188042640686035,-11.555963516235352,0.5985853672027588,-0.0,-0.0,-1.0,0.0375541855865651,1.0,1.0
9.435148239135742,-10.48496437072754,1.022249698638916,0.9588124134495728,-0.004133665577138,0.2840099797963137,0.0761373402524948,4.0,2.0
9.582070350646973,-10.377857208251951,1.6424058675765991,0.0580176509223297,-0.9919217142667665,0.1128063160799708,0.1503788963112636,4.0,2.0
9.401700973510742,-10.283120155334473,1.6251803636550903,-0.4228020420422164,-0.5004916727619155,-0.7554776758719687,0.0836760120830646,3.0,2.0
9.984158515930176,-11.613250732421877,0.6297352313995361,-0.0,-0.0,-1.0,0.0340321396008273,2.0,1.0
10.10923194885254,-11.470544815063477,0.6308045387268066,-0.0,-0.0,-1.0,0.0739288103635143,2.0,1.0
9.960245132446287,-10.899285316467283,0.5522990226745605,-0.0,-0.0,-1.0,0.0932036720663509,1.0,1.0
9.991524696350098,-10.776504516601562,0.5431528091430664,-0.0,-0.0,-1.0,0.0979437640010734,1.0,1.0
9.513959884643556,-10.497127532958984,1.043182373046875,0.2432504675462984,-0.9477988136676556,-0.2061713337219603,0.0875434268714772,4.0,2.0
9.591017723083496,-10.406556129455566,1.6270759105682373,0.8591553344386993,0.1996901275147976,-0.4711432523963929,0.1802971226669264,4.0,2.0
9.4983549118042,-9.49114227294922,0.6133570671081543,0.2527244153821193,0.1061758285948354,-0.9616948909565688,0.0984574003194087,4.0,1.0
9.21364688873291,-9.849480628967283,0.6019508838653564,-0.0,-0.0,-1.0,0.1619739596677917,1.0,1.0
8.886109352111816,-10.356331825256348,0.5938282012939453,-0.0,-0.0,-1.0,0.2970994328912448,1.0,1.0
9.581539154052734,-10.537652969360352,0.7054784297943115,0.8452718433052653,-0.2961616665284652,-0.4447513667144837,0.1305721986749927,3.0,1.0
9.2256498336792,-10.678899765014648,0.6655337810516357,-0.0,-0.0,-1.0,0.132639480874646,2.0,1.0
9.100276947021484,-10.415501594543455,0.6285321712493896,-0.0,-0.0,-1.0,0.1593781295398307,1.0,1.0
9.304425239562988,-10.491907119750977,1.2273576259613037,-0.0,-0.0,-1.0,0.1502419173253331,1.0,2.0
9.479991912841797,-10.507468223571776,0.8385133743286133,-0.3970977895892232,-0.636823248826125,-0.6608853873841457,0.2192789574545181,4.0,1.0
9.224111557006836,-10.566160202026367,0.8076255321502686,-0.0,-0.0,-1.0,0.1848181796373577,1.0,1.0
8.970995903015137,-10.043251037597656,0.7342584133148193,-0.0,-0.0,-1.0,0.1618795801940849,2.0,1.0
8.896105766296387,-9.60055160522461,0.6906023025512695,-0.0,-0.0,-1.0,0.0883534435830636,2.0,1.0
9.05649185180664,-9.409393310546877,0.6974546909332275,-0.0,-0.0,-1.0,0.0313315900137306,1.0,1.0
9.530653953552246,-10.075563430786133,1.3519113063812256,0.8640410365086144,0.0008102856992494,-0.5034207292774148,0.2101642065652418,4.0,2.0
10.17459487915039,-11.32347011566162,0.6137735843658447,-0.0,-0.0,-1.0,0.0730297024623983,2.0,1.0
10.012422561645508,-11.815937042236328,0.6304357051849365,-0.0,-0.0,-1.0,0.031578742816211,2.0,1.0
10.088993072509766,-11.564471244812012,0.6212472915649414,-0.7061831600341368,-0.6978411360555069,-0.1196791264714135,0.0414530296176962,3.0,1.0
9.960171699523926,-11.042598724365234,0.5507211685180664,-0.0,-0.0,-1.0,0.1177083739603277,1.0,1.0
9.481852531433104,-10.493976593017578,0.9289469718933104,-0.0,-0.0,-1.0,0.130242632549469,2.0,1.0
9.552756309509276,-10.391404151916504,0.9309232234954834,-0.0,-0.0,-1.0,0.1700618196660552,1.0,1.0
8.919281959533691,-10.332204818725586,0.8381071090698242,-0.0,-0.0,-1.0,0.2234019008485802,1.0,1.0
8.992755889892578,-9.434514045715332,0.7784113883972168,-0.0,-0.0,-1.0,0.063061976572399,2.0,1.0
8.66433334350586,-9.44877815246582,0.7346045970916748,-0.0,-0.0,-1.0,0.0689817122868323,1.0,1.0
9.933456420898438,-9.771343231201172,0.5417032241821289,-0.0,-0.0,-1.0,0.1441279360783557,2.0,1.0
9.915807723999023,-9.386454582214355,0.5080504417419434,-0.0,-0.0,-1.0,0.0232030286439006,1.0,1.0
9.793429374694824,-11.051125526428224,0.6064305305480957,-0.0,-0.0,-1.0,0.1053488262071673,1.0,1.0
9.868158340454102,-10.63722038269043,0.5929241180419922,0.6453663331480545,0.5237877213391562,-0.5560114378440147,0.2354808467827146,3.0,1.0
9.769493103027344,-10.190224647521973,0.5423545837402344,-0.0,-0.0,-1.0,0.0331169011863392,2.0,1.0
9.70569896697998,-9.90011978149414,0.5089364051818848,-0.0,-0.0,-1.0,0.0742520009170279,1.0,1.0
9.55411148071289,-11.77425765991211,0.6038084030151367,-0.0,-0.0,-1.0,0.0391180141361606,1.0,1.0
9.532504081726074,-11.52782917022705,0.5852017402648926,-0.0,-0.0,-1.0,0.0376956215883316,1.0,1.0
9.921554565429688,-9.695877075195312,1.0141119956970217,-0.0,-0.0,-1.0,0.0867260958812436,2.0,2.0
9.968542098999023,-11.545747756958008,0.6718990802764893,-0.0,-0.0,-1.0,0.0533515499224581,1.0,1.0
9.675577163696287,-11.68984031677246,0.622957706451416,-0.0,-0.0,-1.0,0.0616340619553068,2.0,1.0
9.473978996276855,-10.56752586364746,0.9902207851409912,-0.0,-0.0,-1.0,0.0869056142400249,2.0,1.0
9.38469696044922,-10.51510238647461,0.973238468170166,0.0931732480310029,-0.0048031476359453,-0.9956383257107674,0.1216807926238884,3.0,1.0
8.806462287902832,-9.474809646606444,0.8267061710357666,-0.0,-0.0,-1.0,0.0751686468285359,1.0,1.0
8.626602172851562,-9.419178009033203,0.7952485084533691,-0.0,-0.0,-1.0,0.0689817122868323,1.0,1.0
10.159005165100098,-9.822691917419434,0.5091266632080078,-0.0,-0.0,-1.0,0.0713785544982156,1.0,1.0
10.050658226013184,-11.23149585723877,0.5937986373901367,-0.0,-0.0,-1.0,0.0503011734861626,1.0,1.0
9.984968185424805,-10.72213649749756,0.543856143951416,-0.0,-0.0,-1.0,0.1213421826853158,1.0,1.0
10.009766578674316,-11.655696868896484,0.6118283271789551,-0.0,-0.0,-1.0,0.033685968860771,2.0,1.0
9.909646034240724,-11.067459106445312,0.552241325378418,-0.0,-0.0,-1.0,0.0961926184330027,1.0,1.0
9.918622016906738,-10.980096817016602,0.5481715202331543,-0.0,-0.0,-1.0,0.0901793378419421,1.0,1.0
9.435526847839355,-9.999771118164062,0.8302741050720215,-0.0,-0.0,-1.0,0.1783534330404459,1.0,1.0
9.126319885253906,-9.713626861572266,0.757720947265625,-0.0,-0.0,-1.0,0.1480889299394212,1.0,1.0
8.970279693603516,-9.44118309020996,0.7130248546600342,-0.0,-0.0,-1.0,0.063061976572399,1.0,1.0
8.921536445617676,-9.96646785736084,0.7360720634460449,-0.0,-0.0,-1.0,0.192997120790563,1.0,1.0
9.89292335510254,-9.668183326721191,0.8903417587280273,-0.0,-0.0,-1.0,0.0526668378581343,1.0,1.0
9.441672325134276,-10.506584167480469,0.8606736660003662,-0.3970977895892232,-0.636823248826125,-0.6608853873841457,0.1563710548069112,4.0,1.0
9.75136661529541,-10.348047256469728,1.3430144786834717,-0.0492205714531668,-0.9515036637338938,0.3036743539497542,0.1480086652624018,3.0,2.0
9.482380867004396,-10.442974090576172,1.3068164587020874,-0.0,-0.0,-1.0,0.1349384971729588,1.0,2.0
9.50455379486084,-10.157519340515137,1.2985602617263794,-0.0,-0.0,-1.0,0.2361488938478577,1.0,2.0
9.357959747314451,-10.24118423461914,1.725229024887085,0.6084975058005179,-0.7924402748466141,-0.0420618144588594,0.0795377120827821,6.0,2.0
9.753440856933594,-10.524820327758787,0.699939489364624,-0.0,-0.0,-1.0,0.1786234397027209,1.0,1.0
9.466492652893066,-9.834070205688477,0.5857572555541992,-0.4482267832655531,-0.193219253156486,-0.8727881019887158,0.1094548983088605,4.0,1.0
9.545082092285156,-9.605546951293944,0.5824503898620605,-0.0,-0.0,-1.0,0.0838932679605731,2.0,1.0
9.64653778076172,-10.689200401306152,0.6897456645965576,-0.0,-0.0,-1.0,0.1126535705484469,2.0,1.0
9.638257026672363,-10.51133155822754,0.6749296188354492,-0.2889893768997334,0.605656385067487,-0.7413942832704388,0.0756047084058919,4.0,1.0
9.279403686523438,-9.988415718078612,0.5598726272583008,-0.0,-0.0,-1.0,0.1414160886607236,1.0,1.0
9.469715118408203,-11.142276763916016,0.6835782527923584,-0.0,-0.0,-1.0,0.0942253615438772,2.0,1.0
9.320801734924316,-10.921014785766602,0.6372401714324951,-0.0,-0.0,-1.0,0.1260602632880109,2.0,1.0
9.164019584655762,-10.773250579833984,0.594031810760498,-0.0,-0.0,-1.0,0.1965969563870751,1.0,1.0
9.075302124023438,-11.158075332641602,0.6003119945526123,-0.0,-0.0,-1.0,0.1231286826385871,2.0,1.0
9.919599533081056,-9.639713287353516,1.0742580890655518,-0.0,-0.0,-1.0,0.096294106720999,2.0,2.0
9.29859447479248,-10.485279083251951,1.0209267139434814,-0.0,-0.0,-1.0,0.1817507739627966,1.0,2.0
8.926145553588867,-10.352684020996094,0.9475269317626952,-0.0,-0.0,-1.0,0.2021092509652673,1.0,1.0
9.39591121673584,-10.427644729614258,1.4459655284881592,0.719665112583399,-0.3806747133612376,-0.5806624564561264,0.2020466913732307,5.0,2.0
9.905714988708496,-9.697505950927734,0.7588355541229248,-0.0,-0.0,-1.0,0.1588468965473126,1.0,1.0
10.186213493347168,-11.436301231384276,0.6078376770019531,-0.0,-0.0,-1.0,0.0739288103635143,1.0,1.0
10.097370147705078,-11.243513107299805,0.5694465637207031,-0.0,-0.0,-1.0,0.0541477796196171,1.0,1.0
10.030519485473633,-10.89775848388672,0.522733211517334,-0.0,-0.0,-1.0,0.1033085674897652,1.0,1.0
9.301650047302246,-9.630182266235352,0.624645471572876,-0.0,-0.0,-1.0,0.0861679513746419,1.0,1.0
9.40028953552246,-9.396821975708008,0.6241743564605713,-0.0,-0.0,-1.0,0.1018968032332161,1.0,1.0
10.029644012451172,-11.741086959838867,0.590080738067627,-0.0,-0.0,-1.0,0.0351517160526154,1.0,1.0
9.990992546081545,-11.16840934753418,0.5360488891601562,-0.0,-0.0,-1.0,0.0823699154724452,1.0,1.0
9.452544212341309,-10.540876388549805,0.7333481311798096,-0.0611472774566635,-0.8758319598414781,0.4787268412987443,0.161454615680872,3.0,1.0
9.268159866333008,-10.421030044555664,0.6838159561157227,-0.0,-0.0,-1.0,0.2196094415685581,1.0,1.0
9.101795196533203,-9.88752555847168,0.6043679714202881,-0.0,-0.0,-1.0,0.1130774922846251,2.0,1.0
9.06156063079834,-10.682113647460938,0.6581175327301025,-0.0,-0.0,-1.0,0.211490650185366,1.0,1.0
8.979658126831055,-10.466411590576172,0.6241681575775146,-0.0,-0.0,-1.0,0.2236565486647515,2.0,1.0
9.969383239746094,-9.651090621948242,1.1473736763000488,-0.0,-0.0,-1.0,0.096294106720999,2.0,2.0
10.115739822387695,-10.666136741638184,0.8876702785491943,-0.0,-0.0,-1.0,0.2065508458477848,1.0,1.0
9.697881698608398,-10.406967163085938,1.1525814533233645,-0.4131684655724789,-0.7465269863984939,-0.5215259127169678,0.0760591390075547,3.0,2.0
9.463495254516602,-10.464606285095217,1.1132574081420898,-0.0174740538255787,-0.9555875192838156,-0.2941889706156638,0.0935029637451205,4.0,2.0
9.854838371276855,-9.606730461120604,0.5507419109344482,-0.0,-0.0,-1.0,0.1318510324158389,2.0,1.0
9.834123611450195,-10.641124725341797,0.6354146003723145,-0.0,-0.0,-1.0,0.2283614080524139,2.0,1.0
9.681087493896484,-10.185131072998049,0.5585486888885498,-0.0,-0.0,-1.0,0.0465887168967309,1.0,1.0
9.625161170959473,-9.833131790161133,0.5131564140319824,-0.0,-0.0,-1.0,0.0899338051738993,2.0,1.0
9.707698822021484,-11.254661560058594,0.6434304714202881,-0.9047709534315992,-0.2969067828287596,-0.3053455159925407,0.1282216026246416,3.0,1.0
9.749713897705078,-11.007539749145508,0.638737678527832,-0.0,-0.0,-1.0,0.1144944806437818,1.0,1.0
8.888216972351074,-9.51454734802246,0.683504581451416,-0.0,-0.0,-1.0,0.0924954261071229,2.0,1.0
9.539525032043455,-11.59375,0.616647481918335,-0.0,-0.0,-1.0,0.0291276384627456,2.0,1.0
9.444478034973145,-11.374813079833984,0.5794053077697754,-0.0,-0.0,-1.0,0.0582416864408111,2.0,1.0
8.819478988647461,-9.95162868499756,0.7001099586486816,-0.0,-0.0,-1.0,0.1829481976712155,1.0,1.0
9.712074279785156,-10.463908195495604,0.9385287761688232,-0.7980301677003516,-0.0242501344467693,-0.602129373490002,0.1355754909868826,5.0,1.0
9.534975051879885,-10.32909107208252,0.8890392780303955,-0.0,-0.0,-1.0,0.1577809103085634,1.0,1.0
9.341084480285645,-9.887208938598633,0.8136687278747559,0.2168445026133602,0.1823024866720221,-0.95903298433347,0.13950670003703,3.0,1.0
9.373289108276367,-10.557272911071776,0.8668308258056641,-0.0,-0.0,-1.0,0.1198777392312725,1.0,1.0
9.327532768249512,-10.436670303344728,0.8486688137054443,-0.0,-0.0,-1.0,0.1940909159096597,1.0,1.0
9.730752944946287,-10.3667631149292,1.2800756692886353,-0.0,-0.0,-1.0,0.138336018335911,2.0,2.0
9.288525581359863,-10.43325424194336,1.374097466468811,-0.0,-0.0,-1.0,0.1177487673368541,2.0,2.0
9.521124839782717,-10.39871883392334,1.5869524478912354,0.9458000433990992,0.2917706116769629,0.1425909817201395,0.204679558453761,3.0,2.0
9.749300956726074,-9.754493713378906,0.5786261558532715,-0.1691751854894194,0.2073039391767102,-0.963537665800585,0.1418486414586818,3.0,1.0
9.689579963684082,-9.40522575378418,0.5265378952026367,-0.0890865770343194,0.4101261657835501,-0.907667400500862,0.0455877172047958,4.0,1.0
9.588201522827148,-10.306407928466797,0.5846071243286133,-0.0,-0.0,-1.0,0.0726612290033526,2.0,1.0
9.577610969543455,-9.94848346710205,0.5500056743621826,-0.0,-0.0,-1.0,0.0944864219655664,2.0,1.0
9.60826015472412,-11.182012557983398,0.6546056270599365,-0.0,-0.0,-1.0,0.137967176727921,1.0,1.0
9.68886947631836,-10.781804084777832,0.650256872177124,-0.0,-0.0,-1.0,0.1099830088910754,2.0,1.0
9.485021591186523,-10.349729537963867,0.5596623420715332,-0.0,-0.0,-1.0,0.1102451786082207,1.0,1.0
9.404901504516602,-11.801156044006348,0.629758358001709,-0.0,-0.0,-1.0,0.0488186998057757,1.0,1.0
9.31005573272705,-11.491893768310549,0.587684154510498,-0.7536663696502008,-0.292524378830758,-0.5885715683312999,0.0558731788713782,3.0,1.0
9.940869331359863,-9.750988006591797,0.9528496265411376,-0.0,-0.0,-1.0,0.1107544045231261,2.0,1.0
9.822747230529783,-10.722089767456056,0.6833431720733643,-0.0,-0.0,-1.0,0.2489730480945865,1.0,1.0
9.742846488952637,-10.501270294189451,0.9645864963531494,0.4530170008982843,0.367223178215574,-0.8123562853073625,0.1191968097263741,4.0,1.0
9.308940887451172,-9.860990524291992,0.8113846778869629,0.2168445026133602,0.1823024866720221,-0.95903298433347,0.1680871702471679,3.0,1.0
9.66606903076172,-11.188447952270508,0.6711742877960205,0.0309109978358838,-0.9817688085996324,-0.1875487048039739,0.110742128410124,4.0,1.0
9.614124298095703,-10.765387535095217,0.7916960716247559,-0.0,-0.0,-1.0,0.1735528088819668,1.0,1.0
9.425317764282228,-10.57056999206543,0.8922028541564941,-0.0,-0.0,-1.0,0.1145039134410828,2.0,1.0
9.073081016540527,-10.194812774658203,0.7801790237426758,-0.0,-0.0,-1.0,0.0966366534211027,2.0,1.0
8.932963371276855,-9.64674186706543,0.7038874626159668,-0.0,-0.0,-1.0,0.0864737442846728,2.0,1.0
8.950602531433105,-9.51183032989502,0.6967849731445312,-0.0,-0.0,-1.0,0.095415509504351,2.0,1.0
9.48314094543457,-10.501673698425291,1.225963115692139,-0.0,-0.0,-1.0,0.1740062872088016,2.0,2.0
9.539822578430176,-10.479978561401367,1.5541731119155884,0.6684823574724081,-0.654357130284328,0.3534799623658898,0.1360555034985185,3.0,2.0
9.274568557739258,-10.506359100341797,1.509780764579773,-0.3408692490856102,0.4573710460086015,-0.8213524708070281,0.163422534970524,4.0,2.0
9.96498966217041,-10.475802421569824,0.7131543159484863,-0.0,-0.0,-1.0,0.2471802103490095,1.0,1.0
9.721275329589844,-9.766932487487791,0.5808706283569336,-0.1691751854894194,0.2073039391767102,-0.963537665800585,0.1520554616092806,3.0,1.0
9.674209594726562,-9.460586547851562,0.5373222827911377,-0.0,-0.0,-1.0,0.0522268382288343,2.0,1.0
9.739028930664062,-10.725353240966797,0.6571390628814697,-0.0,-0.0,-1.0,0.1621393682382466,2.0,1.0
9.599115371704102,-10.352178573608398,0.5890357494354248,0.588874908276507,0.0624476657220452,-0.8058080611710231,0.0820523701085231,3.0,1.0
9.57700538635254,-9.99358081817627,0.5550711154937744,-0.0,-0.0,-1.0,0.0848842744483371,2.0,1.0
9.035696983337402,-9.56905746459961,0.6796755790710449,-0.0,-0.0,-1.0,0.0526227568825169,2.0,1.0
9.090519905090332,-9.479026794433594,0.6872944831848145,-0.0,-0.0,-1.0,0.0507931999755995,1.0,1.0
9.694757461547852,-11.190713882446287,0.6662490367889404,0.0309109978358838,-0.9817688085996324,-0.1875487048039739,0.1054141402896588,4.0,1.0
9.701244354248049,-10.946276664733888,0.6572153568267822,-0.2523318198888741,0.5268236048495022,-0.8116560491026631,0.0940823502463443,4.0,1.0
8.8827486038208,-9.767894744873049,0.6529185771942139,-0.0,-0.0,-1.0,0.0905713204013783,1.0,1.0
8.936593055725098,-9.591216087341309,0.6542689800262451,-0.0,-0.0,-1.0,0.087515677534923,2.0,1.0
9.464168548583984,-11.825872421264648,0.6121377944946289,-0.0,-0.0,-1.0,0.0523526259193655,1.0,1.0
9.372153282165527,-11.523690223693848,0.5753109455108643,-0.0,-0.0,-1.0,0.0479630654137844,2.0,1.0
9.894744873046877,-9.706632614135742,0.9260051250457764,-0.0,-0.0,-1.0,0.0858785583137667,1.0,1.0
9.717649459838867,-10.511059761047363,0.9340264797210692,0.6721815497892916,0.1363557497926549,-0.7277218380819342,0.1217482770556492,4.0,1.0
9.483909606933594,-10.06952667236328,0.8407084941864014,-0.0,-0.0,-1.0,0.1481893403153051,1.0,1.0
9.445618629455566,-10.590145111083984,0.8626484870910645,-0.0,-0.0,-1.0,0.1497279107670831,2.0,1.0
9.175788879394531,-10.334697723388672,0.7726473808288574,-0.0,-0.0,-1.0,0.2473965764866588,1.0,1.0
9.038878440856934,-9.9119873046875,0.8677799701690674,-0.0,-0.0,-1.0,0.198713917171213,1.0,1.0
10.083637237548828,-9.726354598999023,1.263088941574097,-0.0,-0.0,-1.0,0.1109648714682186,1.0,2.0
9.57411766052246,-10.46538257598877,1.3337805271148682,-0.0,-0.0,-1.0,0.1032370598482325,1.0,2.0
9.430150985717772,-10.423942565917969,1.4476133584976196,0.3327134471411354,-0.3996095511682295,-0.8541744369311162,0.1836204116052121,4.0,2.0
