x,y,z,nx,ny,nz,curvature,density,label
36.5137825012207,-7.0765228271484375,-0.599350094795227,-0.0,-0.0,-1.0,0.0279204515590254,1.0,0.0
36.409183502197266,-6.885988235473633,-0.5939028263092041,-0.0,-0.0,-1.0,0.0263819881274536,1.0,0.0
37.315895080566406,-7.350801467895508,-0.5688357353210449,-0.4914586923550287,0.8657872050351069,0.0942383643012903,0.090532469014049,3.0,0.0
37.0677490234375,-7.233455657958984,-0.5759551525115967,-0.0,-0.0,-1.0,0.0138563813190841,1.0,0.0
36.74622344970703,-7.1529083251953125,-0.5900416374206543,-0.0,-0.0,-1.0,0.0385104729306888,1.0,0.0
37.519718170166016,-7.604124069213867,-0.5734699964523315,-0.0,-0.0,-1.0,0.0128674643675708,1.0,0.0
35.53866195678711,-8.151955604553223,-0.4637225866317749,-0.0,-0.0,-1.0,0.0223718685483724,1.0,0.0
35.324527740478516,-7.997889518737793,-0.4648308753967285,-0.0,-0.0,-1.0,0.0724560275653059,1.0,0.0
37.27054977416992,-8.737265586853027,-0.422892689704895,-0.0,-0.0,-1.0,0.0155609427134007,1.0,0.0
36.433326721191406,-8.561079978942871,-0.4476907253265381,-0.0,-0.0,-1.0,0.0858928637064973,2.0,0.0
36.06712341308594,-8.38598346710205,-0.4533723592758178,-0.0,-0.0,-1.0,0.0264122540337394,2.0,0.0
35.660888671875,-8.336833000183105,-0.4690322875976562,-0.0,-0.0,-1.0,0.0339614532953061,2.0,0.0
37.15801239013672,-8.880757331848145,-0.4365850687026977,-0.0,-0.0,-1.0,0.0328519348586785,1.0,0.0
36.861595153808594,-8.799723625183105,-0.4439125061035156,-0.0,-0.0,-1.0,0.0262683130543608,1.0,0.0
36.99442672729492,-8.261710166931152,-0.4048846960067749,-0.120870627276251,0.1484655034967851,-0.9815030747446952,0.2141657912933726,3.0,0.0
37.68787384033203,-7.933032989501953,-0.5450273752212524,-0.0,-0.0,-1.0,0.0111296549827321,2.0,0.0
37.25858688354492,-7.810646057128906,-0.5421919822692871,-0.917343818816132,0.2624084341764161,-0.2993695571579002,0.0292092882877029,3.0,0.0
36.99141311645508,-7.751388549804688,-0.5419902801513672,-0.0,-0.0,-1.0,0.0306456142716598,1.0,0.0
37.49261474609375,-7.650203704833984,-0.4982835054397583,-0.0,-0.0,-1.0,0.0175340430699631,1.0,0.0
37.09410858154297,-7.681379318237305,-0.5010221004486084,-0.1936912295200993,0.8499606389534843,-0.489949609487319,0.055708668917104,3.0,0.0
36.55695343017578,-7.558742523193359,-0.4926137924194336,-0.0,-0.0,-1.0,0.0947231372400057,2.0,0.0
36.89480209350586,-7.714118957519531,-0.5038430690765381,-0.0,-0.0,-1.0,0.0576420649106363,2.0,0.0
36.66643905639648,-7.676044464111328,-0.5013964176177979,-0.0,-0.0,-1.0,0.1020741400977068,2.0,0.0
36.20323181152344,-7.6572265625,-0.5012472867965698,0.6195138493413135,-0.6148663325767149,-0.4879979339484636,0.1065220696257778,5.0,0.0
35.884883880615234,-7.689449310302734,-0.5049111843109131,-0.5727209517942863,-0.6361306764800145,-0.5170381744290512,0.0466565989267523,3.0,0.0
37.021095275878906,-7.659578323364258,-0.4994673728942871,-0.0,-0.0,-1.0,0.1308894425212674,1.0,0.0
36.393611907958984,-7.660366058349609,-0.499178409576416,-0.0,-0.0,-1.0,0.073322265781965,2.0,0.0
36.896202087402344,-8.120794296264648,-0.5317971706390381,-0.0,-0.0,-1.0,0.0853083293006589,1.0,0.0
36.68223190307617,-8.036355972290039,-0.5266841650009155,-0.0,-0.0,-1.0,0.0266552243210441,1.0,0.0
36.16700744628906,-7.85136604309082,-0.51619553565979,-0.0,-0.0,-1.0,0.1306309100715509,1.0,0.0
35.88181686401367,-7.88975715637207,-0.5217975378036499,-0.0,-0.0,-1.0,0.0773995770118952,1.0,0.0
35.591983795166016,-7.804193496704102,-0.5177739858627319,-0.0,-0.0,-1.0,0.0451794571194752,2.0,0.0
35.42905807495117,-7.82451057434082,-0.5210208892822266,-0.0,-0.0,-1.0,0.0614502409697858,1.0,0.0
35.234981536865234,-9.19033432006836,0.0560497045516967,-0.0,-0.0,-1.0,0.1233674953681963,1.0,1.0
36.344459533691406,-7.55512809753418,-0.5263808965682983,-0.0,-0.0,-1.0,0.0662654310622286,2.0,0.0
35.2188835144043,-7.38987922668457,-0.5117121934890747,-0.0,-0.0,-1.0,0.0301195050080417,1.0,0.0
35.446617126464844,-7.324016571044922,-0.4577430486679077,-0.0,-0.0,-1.0,0.0539596990814152,2.0,0.0
37.02467727661133,-7.72089958190918,-0.5035791397094727,-0.0,-0.0,-1.0,0.0626628630116603,2.0,0.0
36.74563217163086,-7.648887634277344,-0.4952698945999145,-0.0,-0.0,-1.0,0.0849707410737176,2.0,0.0
35.567909240722656,-7.479894638061523,-0.4696452617645263,-0.0,-0.0,-1.0,0.0441389343429734,1.0,0.0
35.373931884765625,-8.64940357208252,-0.3176937103271484,-0.0,-0.0,-1.0,0.1106549565225286,2.0,0.0
35.290931701660156,-8.688445091247559,-0.3115231990814209,-0.9011696732115382,0.1995464082967371,-0.3848044321726057,0.1693413600350668,4.0,0.0
35.69099807739258,-7.124489784240723,-0.5619369745254517,-0.0,-0.0,-1.0,0.0825704182045279,2.0,0.0
35.58924865722656,-7.653813362121582,-0.534432053565979,-0.0,-0.0,-1.0,0.0506220860783297,2.0,0.0
35.35664749145508,-7.874690055847168,-0.4963773488998413,-0.0,-0.0,-1.0,0.0610749359121569,1.0,0.0
35.92931365966797,-6.874537467956543,-0.6020785570144653,-0.0,-0.0,-1.0,0.0708457154395297,1.0,0.0
36.089134216308594,-7.310910224914551,-0.6136389970779419,-0.0,-0.0,-1.0,0.0644786721922106,1.0,0.0
35.747257232666016,-7.512970924377441,-0.5601868629455566,-0.0,-0.0,-1.0,0.0540443328524139,1.0,0.0
36.78973388671875,-9.072940826416016,0.1234356164932251,-0.0,-0.0,-1.0,0.1636843576987215,1.0,1.0
36.995208740234375,-9.028728485107422,0.1076027154922485,-0.0,-0.0,-1.0,0.1685043511601947,1.0,1.0
36.71932220458984,-8.99913215637207,0.1331098079681396,-0.0,-0.0,-1.0,0.0967733689620744,1.0,1.0
36.776981353759766,-9.211833953857422,0.1294062137603759,-0.0,-0.0,-1.0,0.1687426160033054,1.0,1.0
36.95176315307617,-9.082025527954102,0.0298472642898559,-0.0,-0.0,-1.0,0.1364910314415091,1.0,1.0
35.45079803466797,-7.950386047363281,-0.4505873918533325,0.7576747991582339,0.6342312974025291,0.153881643205531,0.0565077545982484,3.0,0.0
35.73935317993164,-7.560981750488281,-0.4853101968765259,0.0172987329684574,-0.1492696579765999,-0.9886451957326424,0.0615700654091346,3.0,0.0
35.7762451171875,-7.7711181640625,-0.4887759685516357,-0.0,-0.0,-1.0,0.0469664108769748,1.0,0.0
36.20039367675781,-7.644289016723633,-0.5384843349456787,-0.0408514128010296,-0.8107521854861,-0.5839623753305277,0.0673098738943342,4.0,0.0
36.043914794921875,-7.01396369934082,-0.5231422185897827,-0.0,-0.0,-1.0,0.0511151784373437,2.0,0.0
35.38359451293945,-8.81777286529541,-0.2821922302246094,-0.968266684743056,-0.221869424038804,0.1150373239143741,0.0700390383868732,8.0,0.0
35.803829193115234,-9.010567665100098,-0.3238762617111206,-0.1741219482127841,0.8148402056539893,-0.5529167988046204,0.0520174843992789,3.0,0.0
36.109397888183594,-9.18893337249756,-0.3544068336486816,-0.0,-0.0,-1.0,0.1808151198229079,2.0,0.0
36.275848388671875,-8.697604179382324,-0.3688081502914428,-0.0,-0.0,-1.0,0.0573146202681988,2.0,0.0
36.413780212402344,-9.14677906036377,-0.3840006589889526,-0.0,-0.0,-1.0,0.1617900695004939,1.0,0.0
36.56769943237305,-9.339112281799316,-0.3998230695724487,-0.0,-0.0,-1.0,0.1339329647811519,1.0,0.0
36.31373977661133,-8.606768608093262,-0.3722156286239624,-0.1523337652447602,0.1958134749721132,-0.9687370680353364,0.0973478260638807,8.0,0.0
36.62886047363281,-8.644549369812012,-0.4034290313720703,0.5419974725244618,-0.484360269629645,-0.6867560476482119,0.1180793896391075,3.0,0.0
36.79103088378906,-8.839734077453613,-0.4200481176376343,-0.0,-0.0,-1.0,0.0585785779023001,1.0,0.0
36.869483947753906,-8.410841941833496,-0.426570177078247,0.8145978065064805,0.4491340052618797,0.3670273272554132,0.0346922634643073,4.0,0.0
37.03060150146485,-8.177409172058105,-0.442008376121521,-0.7613856949392497,0.5380670817294099,0.3616291458124914,0.1568444926287814,7.0,0.0
37.44062042236328,-8.235978126525879,-0.4831198453903198,-0.0,-0.0,-1.0,0.0163460411371006,1.0,0.0
37.33460998535156,-7.918334007263184,-0.471896767616272,0.320575166398195,-0.2303731339015901,-0.9187816834619252,0.0346666389592486,5.0,0.0
37.656761169433594,-8.01105785369873,-0.5044355392456055,-0.0,-0.0,-1.0,0.0192763557461446,2.0,0.0
35.24354553222656,-8.861652374267578,-0.1889793872833252,0.6303766816775757,-0.2035327647324152,-0.7491326003302403,0.1374815606339481,6.0,0.0
35.55608367919922,-8.943470001220703,-0.2175896167755127,-0.0,-0.0,-1.0,0.0971880119365719,2.0,0.0
35.947296142578125,-9.123489379882812,-0.2545185089111328,-0.0,-0.0,-1.0,0.1117280583493276,1.0,0.0
36.254764556884766,-9.182336807250977,-0.2827155590057373,-0.0,-0.0,-1.0,0.1801615963345557,2.0,0.0
36.42398834228515,-9.138666152954102,-0.2975143194198608,0.0405389526100256,-0.919577430448672,-0.3908119019818872,0.1532551950338725,4.0,0.0
36.69475555419922,-9.073827743530272,-0.3214154243469238,-0.0,-0.0,-1.0,0.2047930803558685,2.0,0.0
37.10475540161133,-9.236154556274414,-0.3604786396026611,-0.0,-0.0,-1.0,0.0168815400498303,2.0,0.0
37.207149505615234,-9.094982147216797,-0.368574857711792,0.919983098901012,-0.1867097716921527,-0.3446310474857921,0.0174807595857009,4.0,0.0
36.98802185058594,-8.29371452331543,-0.3412399291992187,0.4273830366840886,0.7068010151557318,-0.5637162982649286,0.2147589417642462,6.0,0.0
37.055564880371094,-8.178997039794922,-0.3465946912765503,0.4431540959892807,0.7785418834120207,0.4443950753340845,0.235420228554462,5.0,0.0
36.640289306640625,-9.172762870788574,-0.1274125576019287,-0.7540781711804388,0.6257420994519142,-0.19953179376399,0.2155781430613344,7.0,0.0
36.92181396484375,-9.141514778137209,-0.1557592153549194,-0.0,-0.0,-1.0,0.1664647326284555,1.0,0.0
36.389793395996094,-9.32113552093506,-0.0425789356231689,-0.7860075431370126,0.5810621541806524,-0.2110898271131432,0.1744470851575381,3.0,0.0
36.786834716796875,-9.188298225402832,-0.0682687759399414,0.5616815882576707,-0.1718375313660241,-0.8093118411504745,0.1429562946235385,3.0,0.0
36.610260009765625,-9.075060844421388,-0.0536233186721801,-0.5155589539993094,0.6034831869209905,-0.6082820135881241,0.2007564626557869,3.0,0.0
36.823577880859375,-8.95740795135498,-0.0668438673019409,-0.0,-0.0,-1.0,0.1656997767437121,1.0,0.0
35.75184631347656,-9.27572250366211,-0.2121864557266235,0.2147816169402734,0.5213436215302147,-0.8258751027330237,0.0755727394365217,3.0,0.0
36.02296447753906,-9.212072372436523,-0.2252064943313598,-0.1675154523960592,-0.7973903583515908,-0.5797475223029979,0.1156696887756681,4.0,0.0
36.44447708129883,-9.309211730957031,-0.2544925212860107,-0.0,-0.0,-1.0,0.1427401195696863,1.0,0.0
35.29936599731445,-8.940938949584961,-0.1715704202651977,-0.0,-0.0,-1.0,0.1216994341515782,2.0,0.0
36.613800048828125,-9.13667106628418,-0.2575182914733886,0.6877346864255547,-0.5555482992203876,-0.467319043395921,0.2282118232594412,3.0,0.0
36.76507568359375,-9.010204315185549,-0.2616558074951172,-0.0,-0.0,-1.0,0.194353520869156,1.0,0.0
36.64593505859375,-8.930683135986328,0.5322550535202026,-0.0,-0.0,-1.0,0.0450393205154514,2.0,1.0
36.07137680053711,-9.342464447021484,-0.1216132640838623,-0.3470008711080137,-0.5035038143287169,-0.7912485730835235,0.1087217060237552,4.0,0.0
36.400184631347656,-9.261375427246094,-0.1392220258712768,-0.0,-0.0,-1.0,0.2353560878288268,1.0,0.0
36.59379959106445,-9.068262100219728,-0.144181489944458,0.4451102553799553,-0.3940258275122412,-0.8041271714156191,0.2910123590829848,7.0,0.0
36.785186767578125,-9.01970100402832,-0.1549422740936279,-0.0,-0.0,-1.0,0.244722111407704,1.0,0.0
36.87212371826172,-7.387385368347168,-0.5688499212265015,-0.0,-0.0,-1.0,0.0418667639285232,1.0,0.0
37.247989654541016,-7.403672218322754,-0.5612219572067261,0.5023888137088014,0.8067234143007977,-0.3111315038358009,0.0815638311904732,4.0,0.0
37.68253326416016,-7.425154685974121,-0.5540269613265991,-0.1833788759197005,0.0032672145257951,-0.9830368829172532,0.0128989921449683,3.0,0.0
37.34822845458984,-7.334441184997559,-0.5505205392837524,-0.0,-0.0,-1.0,0.0926185508337023,2.0,0.0
37.663818359375,-7.390786170959473,-0.5504215955734253,-0.1833788759197005,0.0032672145257951,-0.9830368829172532,0.0120030882088131,3.0,0.0
36.160438537597656,-9.337443351745604,-0.0913823843002319,-0.0,-0.0,-1.0,0.0832141802498065,2.0,0.0
36.36585998535156,-9.022677421569824,-0.049392819404602,-0.0,-0.0,-1.0,0.1212140837911631,1.0,0.0
36.66941833496094,-9.143902778625488,-0.0447887182235717,-0.0564355338460827,0.7741101161101012,-0.6305303788522113,0.1559602998795542,8.0,0.0
36.849998474121094,-9.168852806091309,-0.0377601385116577,-0.7987015285662818,-0.4984438801969205,-0.3370898493875526,0.1593227318918808,4.0,0.0
35.48919677734375,-6.9708757400512695,-0.5619460344314575,-0.0,-0.0,-1.0,0.0733793963387751,2.0,0.0
36.05051040649414,-8.154120445251465,-0.4362983703613281,-0.0,-0.0,-1.0,0.1755734919891376,2.0,0.0
36.59635925292969,-8.03670597076416,-0.4708201885223388,-0.0,-0.0,-1.0,0.0267852368026743,1.0,0.0
36.86851501464844,-7.884774208068848,-0.4832967519760132,-0.0,-0.0,-1.0,0.0365344576546391,2.0,0.0
37.150875091552734,-7.75411319732666,-0.498356819152832,-0.0,-0.0,-1.0,0.034070354081754,1.0,0.0
37.37621307373047,-7.672579765319824,-0.5121357440948486,-0.0,-0.0,-1.0,0.0196043760081667,1.0,0.0
37.6782341003418,-7.507376670837402,-0.5280364751815796,-0.6275592025955125,-0.0897908629800332,-0.7733738088162707,0.013666114322796,3.0,0.0
35.21867370605469,-8.188515663146973,-0.3782415390014648,-0.0,-0.0,-1.0,0.0605225289866457,1.0,0.0
35.60490036010742,-8.151114463806152,-0.4033973217010498,-0.0,-0.0,-1.0,0.0210107756507368,1.0,0.0
35.868072509765625,-8.163041114807129,-0.423309326171875,-0.0,-0.0,-1.0,0.0488191511108529,2.0,0.0
36.19353485107422,-7.811394691467285,-0.4263689517974853,0.3880678276827817,0.2224700820597578,-0.8943771149274178,0.1402696407903401,7.0,0.0
36.337493896484375,-7.721003532409668,-0.4319906234741211,0.5229875317181367,-0.8083081637590988,-0.2704107136704541,0.0704622569410767,5.0,0.0
36.607330322265625,-9.16210651397705,0.1918092966079712,-0.0,-0.0,-1.0,0.1106293960143812,1.0,1.0
35.24954605102539,-6.97292423248291,-0.4931243658065796,-0.0,-0.0,-1.0,0.0470305813209109,1.0,0.0
36.32244873046875,-6.9598283767700195,-0.5733909606933594,-0.0,-0.0,-1.0,0.0341489866443323,1.0,0.0
36.45843124389648,-6.877140998840332,-0.5780700445175171,-0.0,-0.0,-1.0,0.0252125096140432,1.0,0.0
36.79155731201172,-6.917832374572754,-0.6079792976379395,-0.0,-0.0,-1.0,0.0316553095314145,1.0,0.0
36.641361236572266,-9.1641206741333,-0.0449787378311157,0.468722313290476,0.3962587051024067,-0.7894798487955147,0.2478351051029251,5.0,0.0
36.7811164855957,-9.130444526672363,-0.0522910356521606,0.0835416976374477,-0.2324132908888214,-0.9690226245935032,0.1782357850755426,4.0,0.0
36.22468566894531,-9.27003574371338,-0.3778086900711059,-0.0,-0.0,-1.0,0.1935724503842167,2.0,0.0
36.37387466430664,-9.30362606048584,-0.388588547706604,-0.0,-0.0,-1.0,0.1616701624812632,2.0,0.0
36.1602897644043,-9.072871208190918,-0.3606559038162231,0.6968886680332494,0.6841621463042099,-0.2151007715729082,0.132274438284298,3.0,0.0
36.707366943359375,-8.991209983825684,-0.3868359327316284,0.8091148622365681,-0.5640311793897111,-0.164930192457752,0.1442045185304931,3.0,0.0
36.77434539794922,-8.974024772644043,-0.3896844387054443,0.0694638265290425,0.6100108010883735,-0.7893425108021638,0.0985074582795423,3.0,0.0
36.520904541015625,-8.8700532913208,-0.3675850629806518,-0.0,-0.0,-1.0,0.1076033280811307,2.0,0.0
36.820674896240234,-8.898350715637207,-0.3873788118362427,-0.0,-0.0,-1.0,0.0982619532124036,2.0,0.0
37.47586441040039,-8.69608211517334,-0.4148458242416382,-0.0,-0.0,-1.0,0.0129006800628858,2.0,0.0
35.267242431640625,-8.734261512756348,-0.2888520956039428,-0.8572639769515309,0.0814064602553999,-0.5084008871451065,0.173800707515895,4.0,0.0
35.785804748535156,-8.891541481018066,-0.3273707628250122,-0.2994405945821522,0.4256015404152283,-0.8539312964826101,0.0627322408564373,3.0,0.0
35.98805236816406,-8.972563743591309,-0.3440943956375122,0.1406061258081656,-0.2265945284940023,-0.9637867176101768,0.0712784043274574,3.0,0.0
35.3773307800293,-8.712004661560059,-0.2930189371109009,0.1592587481532435,0.6627405649042872,-0.7317182482123895,0.0633668444277601,6.0,0.0
35.568687438964844,-8.74714183807373,-0.3055943250656128,-0.3090736540769561,-0.9505747046653036,-0.0296851344276825,0.0417913261745477,3.0,0.0
36.252323150634766,-8.599759101867676,-0.333536148071289,-0.6794168094500318,0.3992980808234118,-0.6155922690283554,0.1470616070332389,3.0,0.0
36.503639221191406,-8.81895923614502,-0.363116979598999,-0.0,-0.0,-1.0,0.0952026335403699,1.0,0.0
36.87971115112305,-8.654454231262207,-0.3746052980422973,-0.260760602503658,0.4703257546840675,-0.8430881286453932,0.1132320549607832,6.0,0.0
36.970645904541016,-8.22986125946045,-0.3519062995910644,0.1236297727822173,0.959472207214651,0.2532365748948261,0.2281613129782586,4.0,0.0
36.221946716308594,-9.229779243469238,-0.3858840465545654,-0.0,-0.0,-1.0,0.168435890165742,2.0,0.0
35.46721649169922,-8.715741157531738,-0.3076887130737304,-0.7354549928232266,-0.2293380179207394,-0.6375813885831159,0.0466125807567086,3.0,0.0
35.824031829833984,-8.88842487335205,-0.3392221927642822,-0.0562497194499029,-0.1017995824325375,-0.9932133779195528,0.0726692493223422,5.0,0.0
36.31412124633789,-8.87431812286377,-0.3653750419616699,-0.0,-0.0,-1.0,0.077736874234169,1.0,0.0
36.6417236328125,-8.873461723327637,-0.384249210357666,0.115068967174581,0.3400814855425118,-0.9333293716499944,0.1282917533965156,3.0,0.0
36.27003479003906,-8.582234382629395,-0.3417168855667114,-0.5049709940217294,-0.3702913780814621,-0.7796721044870324,0.0726275135915751,5.0,0.0
36.84956741333008,-8.682707786560059,-0.3829734325408935,0.2361390902416934,0.0356727306998786,-0.9710642544879504,0.0549919254389588,3.0,0.0
36.9262580871582,-8.602322578430176,-0.3819029331207275,-0.0,-0.0,-1.0,0.1320528456706248,1.0,0.0
37.50416946411133,-8.669804573059082,-0.4228817224502563,0.5589523859143498,-0.7250936999603957,-0.4022578234893624,0.0122551298770434,3.0,0.0
36.911006927490234,-8.336043357849121,-0.3620555400848388,0.7093576384864193,0.2411430574298462,0.6623154585047494,0.1693115349537736,5.0,0.0
37.05009078979492,-8.196179389953613,-0.3607867956161499,0.6578957114703144,0.7348204808208001,0.1649608856524995,0.2472390419638211,7.0,0.0
36.6954345703125,-9.050570487976074,0.2833788394927978,0.2846241101971244,-0.111751653617733,-0.9521032947155456,0.1397131920455823,7.0,1.0
35.93988037109375,-8.999444007873535,-0.3337795734405517,-0.0,-0.0,-1.0,0.0887117780843415,2.0,0.0
36.17723846435547,-9.177424430847168,-0.3568758964538574,-0.0,-0.0,-1.0,0.209621583650726,2.0,0.0
36.5672721862793,-9.111611366271973,-0.3672995567321777,0.4339814472383824,0.8662997078441388,-0.2473558562921819,0.2162535215182562,3.0,0.0
35.41116714477539,-8.715821266174316,-0.2923429012298584,0.1592587481532435,0.6627405649042872,-0.7317182482123895,0.0567278315060757,6.0,0.0
35.74690628051758,-8.857455253601074,-0.3154327869415283,0.4146557776058526,-0.3471697062143203,-0.8411502726535537,0.0489554671537504,4.0,0.0
36.6346549987793,-8.94444751739502,-0.3569633960723877,-0.0,-0.0,-1.0,0.0942664350922313,2.0,0.0
36.902137756347656,-8.794573783874512,-0.3567028045654297,-0.0,-0.0,-1.0,0.1318652693926415,2.0,0.0
37.518009185791016,-8.943280220031738,-0.396176815032959,-0.0,-0.0,-1.0,0.0194063370352444,2.0,0.0
36.971885681152344,-8.535046577453613,-0.3396115303039551,-0.0,-0.0,-1.0,0.0731095335598327,1.0,0.0
37.02368927001953,-8.189745903015137,-0.3151779174804687,-0.4512827005348729,0.887401419359212,0.0941416226608003,0.1722248281292711,4.0,0.0
36.72227096557617,-8.989712715148926,0.3064207434654236,-0.1809473401083213,0.6077791953681692,-0.7732156942182071,0.0826275603147854,3.0,1.0
35.24411392211914,-8.791986465454102,-0.2527817487716675,0.219627244505561,-0.5210608230977536,-0.8247784503147416,0.1393714757383183,4.0,0.0
35.75423049926758,-9.034442901611328,-0.2887706756591797,-0.0,-0.0,-1.0,0.0553260844601574,2.0,0.0
36.078948974609375,-9.01129150390625,-0.2985286712646484,-0.0,-0.0,-1.0,0.0907853112239785,2.0,0.0
36.460636138916016,-9.129709243774414,-0.3223063945770263,-0.369254833020178,-0.8599459988878017,-0.3523403855479826,0.2138379516393485,5.0,0.0
36.86328125,-9.14409065246582,-0.339613676071167,-0.8608780186795449,0.4504185641756993,-0.2366688699433923,0.1257511743461217,3.0,0.0
37.237918853759766,-9.164281845092772,-0.3572118282318115,-0.0,-0.0,-1.0,0.0164669035865156,2.0,0.0
37.660919189453125,-9.253423690795898,-0.3831403255462646,0.2786026869867388,-0.7680477476784671,-0.5766135621799089,0.0247601858213334,3.0,0.0
35.43150329589844,-8.746723175048828,-0.2552176713943481,-0.9271130596989424,-0.2916420563930102,-0.2353853977597635,0.0590391626422604,3.0,0.0
37.02710723876953,-8.247537612915039,-0.2770382165908813,0.1799763729457853,0.6350137339682138,-0.7512430118497118,0.2110925242489737,4.0,0.0
35.467315673828125,-7.976015090942383,-0.4262846708297729,0.7576747991582339,0.6342312974025291,0.153881643205531,0.0618757798931507,3.0,0.0
35.80828857421875,-8.036420822143555,-0.440696120262146,-0.0,-0.0,-1.0,0.0918284225025566,1.0,0.0
36.052581787109375,-8.040718078613281,-0.447728157043457,-0.7660059881338942,-0.1239959455445986,-0.630761311140369,0.2752621094422683,4.0,0.0
36.645538330078125,-8.100217819213867,-0.4712833166122436,-0.0,-0.0,-1.0,0.0269498192494927,1.0,0.0
36.27704620361328,-7.768522262573242,-0.4285672903060913,0.8175704333326327,0.1027009297063748,-0.5665960691513289,0.0886929373521022,4.0,0.0
36.79726028442383,-8.071552276611328,-0.4735422134399414,0.1899123107362785,-0.5789410718504449,-0.7929442285277483,0.0486943581473983,4.0,0.0
37.028564453125,-7.925870895385742,-0.4678117036819458,0.2790589616151898,0.1670101229035951,-0.9456393153787436,0.0668108543610917,4.0,0.0
37.43897247314453,-7.849325180053711,-0.4756041765213012,-0.0,-0.0,-1.0,0.0239300926168512,2.0,0.0
36.25362777709961,-9.322113037109377,-0.3190920352935791,-0.0,-0.0,-1.0,0.1836672846724865,1.0,0.0
36.85747528076172,-9.305768966674805,-0.3297940492630005,-0.0,-0.0,-1.0,0.1252299600605318,1.0,0.0
35.53217697143555,-8.923465728759766,-0.273324966430664,-0.0,-0.0,-1.0,0.1298080496924002,1.0,0.0
35.90108871459961,-9.10781478881836,-0.2943851947784424,-0.0,-0.0,-1.0,0.0566471327089687,2.0,0.0
36.43918991088867,-9.149299621582031,-0.3079646825790405,-0.369254833020178,-0.8599459988878017,-0.3523403855479826,0.1598940106792294,5.0,0.0
36.72893905639648,-9.113752365112305,-0.3107634782791137,-0.0,-0.0,-1.0,0.2073462679629425,2.0,0.0
37.16569137573242,-9.251615524291992,-0.3322522640228271,-0.0,-0.0,-1.0,0.0162025893669213,1.0,0.0
37.5751838684082,-9.309280395507812,-0.3473687171936035,-0.0,-0.0,-1.0,0.0241065687363738,1.0,0.0
36.97752380371094,-8.31057357788086,-0.2479326725006103,0.045363040872739,0.41471864202562,-0.908818267025484,0.2161446430633899,4.0,0.0
36.27264404296875,-9.114177703857422,-0.3695541620254516,0.372676444383346,-0.5966027574800206,-0.710758339781548,0.1151086397038147,4.0,0.0
36.43180084228515,-9.270513534545898,-0.384397029876709,-0.0,-0.0,-1.0,0.1918440694081598,2.0,0.0
36.56181335449219,-9.10984230041504,-0.3706812858581543,0.4339814472383824,0.8662997078441388,-0.2473558562921819,0.2162535215182561,3.0,0.0
36.8833122253418,-9.123931884765623,-0.3741105794906616,-0.2361967527171605,-0.8807484506947684,-0.4104793059395733,0.1187004115277549,4.0,0.0
37.36083221435547,-9.12897491455078,-0.3786934614181518,-0.0,-0.0,-1.0,0.0113656212742525,1.0,0.0
35.42360305786133,-8.622747421264648,-0.323337197303772,-0.0,-0.0,-1.0,0.0839919719124106,2.0,0.0
35.776912689208984,-8.775009155273438,-0.3374263048171997,-0.0,-0.0,-1.0,0.0518844994216023,1.0,0.0
36.05615997314453,-8.934911727905273,-0.3525674343109131,-0.0,-0.0,-1.0,0.0509389251467609,1.0,0.0
36.72148513793945,-8.978828430175781,-0.3599175214767456,0.8091148622365681,-0.5640311793897111,-0.164930192457752,0.1173080847183141,3.0,0.0
36.140628814697266,-8.134136199951172,-0.2809267044067383,0.2759645091316677,-0.4737187453316938,-0.836321792147666,0.2070003491737472,3.0,0.0
37.006011962890625,-8.867889404296875,-0.3520478010177612,-0.0,-0.0,-1.0,0.1330223871378777,2.0,0.0
36.113502502441406,-8.033550262451172,-0.2718081474304199,-0.0,-0.0,-1.0,0.2106351384641384,2.0,0.0
37.048736572265625,-8.195331573486328,-0.2919641733169555,0.5977522709247778,-0.3389186980970102,-0.7265165783961842,0.1661630756146397,3.0,0.0
36.7192268371582,-9.026044845581056,0.2785745859146118,0.2576183253690877,0.2649559886455714,-0.9292099453379064,0.1274572391648216,8.0,1.0
37.163551330566406,-9.304254531860352,-0.3587796688079834,-0.0,-0.0,-1.0,0.016542932046572,1.0,0.0
35.32156753540039,-8.634136199951172,-0.3127938508987427,-0.0,-0.0,-1.0,0.1186756836955947,2.0,0.0
35.5313606262207,-8.697954177856445,-0.3160717487335205,0.8153981272722756,-0.2544849706501614,-0.5199647043348736,0.0467521091550536,5.0,0.0
35.853336334228516,-8.924827575683594,-0.3330205678939819,-0.2080096315303131,-0.3246392081436925,-0.9226816231650328,0.0486294284658189,3.0,0.0
36.18729782104492,-9.095592498779297,-0.3454232215881347,0.6968886680332494,0.6841621463042099,-0.2151007715729082,0.133058484845744,3.0,0.0
36.46807098388672,-9.175085067749023,-0.3505241870880127,0.9559120897595832,-0.0575403954207483,0.2879603784312883,0.1772280057422415,4.0,0.0
36.72548294067383,-9.023067474365234,-0.3354040384292602,-0.0,-0.0,-1.0,0.1551522052334272,1.0,0.0
37.08298873901367,-9.252365112304688,-0.3544148206710815,-0.0,-0.0,-1.0,0.015225170729623,2.0,0.0
35.463645935058594,-8.622340202331543,-0.3334105014801025,-0.1384989983052334,0.8450787454076418,-0.516391267866424,0.0720485001038174,3.0,0.0
35.86129379272461,-8.8218412399292,-0.3508732318878174,-0.0,-0.0,-1.0,0.0617088490637248,2.0,0.0
36.18293380737305,-9.10094165802002,-0.3765757083892822,0.6968886680332494,0.6841621463042099,-0.2151007715729082,0.1445443670212858,3.0,0.0
36.32551193237305,-9.296935081481934,-0.3949066400527954,0.1816154275888109,0.5314353365285657,-0.8274009424399419,0.1879525478067367,3.0,0.0
36.24336624145508,-9.12305736541748,-0.3786505460739136,0.3468628181750062,-0.2064178697609483,-0.914919585762074,0.1171601663655687,3.0,0.0
36.488914489746094,-9.159649848937988,-0.3823128938674927,0.1778213133337438,-0.9259975174035108,-0.333028794981451,0.1747077093348799,3.0,0.0
35.98311996459961,-7.856589317321777,-0.2608669996261596,-0.0,-0.0,-1.0,0.1721209697096143,1.0,0.0
36.165374755859375,-8.113247871398926,-0.2845929861068725,0.2759645091316677,-0.4737187453316938,-0.836321792147666,0.2213193913353063,3.0,0.0
36.77027130126953,-9.029248237609863,-0.3708144426345825,-0.2267465849620788,-0.9445888658317098,-0.2373559789741953,0.1378993502162343,3.0,0.0
37.198387145996094,-9.13125705718994,-0.3820399045944214,0.3169663970487711,0.2618107862295469,-0.9115851114162556,0.0176685275840676,3.0,0.0
37.004608154296875,-8.263199806213379,-0.3001149892807007,0.7880849245353049,0.0452115937191775,-0.6139039530036879,0.2222683538028576,5.0,0.0
37.38099670410156,-9.062363624572754,-0.3766323328018188,-0.0,-0.0,-1.0,0.0106033601934839,1.0,0.0
37.124778747558594,-8.275750160217285,-0.3018091917037964,-0.0,-0.0,-1.0,0.1547922929936662,1.0,0.0
36.67243957519531,-9.099421501159668,0.2430582046508789,-0.1957758757556515,0.0816427338460927,-0.9772442225371526,0.144992472146198,4.0,1.0
35.35945129394531,-8.659926414489746,-0.2817108631134033,-0.6620645085882216,-0.6043710266876959,-0.4431774459156248,0.1130325823953732,3.0,0.0
35.604679107666016,-8.826037406921387,-0.2932300567626953,0.6958551331415491,-0.6657609998202437,-0.2693472197720002,0.0453339979773518,3.0,0.0
35.81748962402344,-8.995366096496582,-0.3057754039764404,-0.1741219482127841,0.8148402056539893,-0.5529167988046204,0.0861985260455693,3.0,0.0
36.11545944213867,-9.054274559020996,-0.3075741529464721,-0.0,-0.0,-1.0,0.11552144864824,1.0,0.0
36.36588668823242,-9.283110618591309,-0.3257802724838257,-0.0,-0.0,-1.0,0.1904023115766003,1.0,0.0
36.65289306640625,-9.039828300476074,-0.3008254766464233,-0.0,-0.0,-1.0,0.1816571463237229,2.0,0.0
35.24870681762695,-7.469733715057373,-0.449924111366272,-0.0,-0.0,-1.0,0.027353483468522,1.0,0.0
35.53138732910156,-7.525804042816162,-0.4654343128204345,-0.0,-0.0,-1.0,0.0480188106663745,1.0,0.0
35.70771789550781,-7.598316669464111,-0.4802267551422119,-0.0,-0.0,-1.0,0.0596413196909383,2.0,0.0
36.07408905029297,-7.650750637054443,-0.4994513988494873,-0.2519018054814753,0.1297992157840959,-0.9590086777381142,0.0844915509057314,3.0,0.0
36.49747848510742,-7.525570392608643,-0.4995893239974975,-0.0,-0.0,-1.0,0.108962983814151,1.0,0.0
36.87220764160156,-7.560635089874268,-0.5193139314651489,-0.0,-0.0,-1.0,0.1248567230126741,1.0,0.0
37.264625549316406,-7.396204471588135,-0.5157577991485596,0.5023888137088014,0.8067234143007977,-0.3111315038358009,0.1456310713790431,4.0,0.0
37.62776947021485,-7.314991474151611,-0.5225584506988525,-0.0,-0.0,-1.0,0.0247354155563829,1.0,0.0
35.55972671508789,-9.315736770629885,-0.0939548015594482,-0.0,-0.0,-1.0,0.1414905929939761,1.0,0.0
36.071685791015625,-9.21601676940918,-0.1049274206161499,-0.0,-0.0,-1.0,0.2010740751560755,2.0,0.0
36.34131622314453,-9.229244232177734,-0.1172254085540771,-0.0,-0.0,-1.0,0.2109462190145525,2.0,0.0
36.903472900390625,-8.914569854736328,-0.1128695011138916,-0.0,-0.0,-1.0,0.2312045209191185,1.0,0.0
36.72159194946289,-9.071537017822266,-0.1191321611404419,0.3632637643806984,0.8882244231613619,-0.281241553806741,0.1776124339426998,3.0,0.0
36.57626724243164,-8.961950302124023,0.4745478630065918,-0.4626599859585095,-0.1299544619079163,-0.876959277973097,0.0464875160642279,3.0,1.0
35.362388610839844,-8.007431030273438,-0.4117041826248169,-0.0,-0.0,-1.0,0.0717608039895946,2.0,0.0
35.559051513671875,-8.08279037475586,-0.4283303022384643,-0.0,-0.0,-1.0,0.0241178659979986,1.0,0.0
35.761817932128906,-8.105438232421875,-0.439096450805664,-0.0,-0.0,-1.0,0.0909329184700461,1.0,0.0
36.20960235595703,-7.831894397735596,-0.4238697290420532,0.8872612032618727,0.3785121028391352,-0.2636212153651334,0.1125423013511934,7.0,0.0
36.019020080566406,-8.082942962646484,-0.4468387365341186,-0.1176945720228331,0.6549517423834181,-0.7464490624719726,0.1512822590917334,4.0,0.0
36.37488555908203,-7.873680591583252,-0.4363323450088501,-0.0,-0.0,-1.0,0.0777426445907118,2.0,0.0
36.56376647949219,-8.083045959472656,-0.471089243888855,-0.0,-0.0,-1.0,0.0628643577423943,1.0,0.0
36.99555587768555,-7.926090717315674,-0.4724453687667846,0.130368314851032,0.3055940796000569,-0.9431947630242102,0.0633655083453136,3.0,0.0
37.37353515625,-7.821712017059326,-0.4790000915527344,-0.0,-0.0,-1.0,0.0248279567042604,1.0,0.0
36.28965377807617,-9.35694694519043,-0.0582919120788574,-0.0,-0.0,-1.0,0.1147235631548568,2.0,0.0
36.54840850830078,-9.072511672973633,-0.0456060171127319,0.4406924078067439,0.5264332176353368,-0.7270889003908673,0.1891107425834574,3.0,0.0
36.70172119140625,-9.16757583618164,-0.0618159770965576,-0.1086183989732576,0.673434424327216,-0.7312237137398904,0.1334472785678174,7.0,0.0
36.51961517333984,-9.072694778442385,0.5005446672439575,-0.0,-0.0,-1.0,0.0441889808391432,2.0,1.0
35.592681884765625,-8.5875244140625,-0.3760608434677124,-0.0,-0.0,-1.0,0.0369942550503927,1.0,0.0
35.817928314208984,-8.580068588256836,-0.3821120262145996,-0.3689695201292726,-0.8726254649184829,-0.3199785792695752,0.020776046867527,3.0,0.0
36.03170394897461,-8.638729095458984,-0.3965018987655639,-0.0,-0.0,-1.0,0.0147280280409119,2.0,0.0
36.39717102050781,-8.519598007202148,-0.3946776390075683,-0.0,-0.0,-1.0,0.0705398385631349,1.0,0.0
36.42624282836914,-8.572372436523438,-0.4023386240005493,-0.0,-0.0,-1.0,0.0858928637064973,2.0,0.0
36.88788604736328,-8.238576889038086,-0.3788676261901855,-0.0,-0.0,-1.0,0.1397978509698722,2.0,0.0
36.73633575439453,-8.556108474731445,-0.4122765064239502,-0.1889666695155715,-0.3521637970774895,-0.9166636557866568,0.0834351529124543,3.0,0.0
37.07944107055664,-8.223106384277344,-0.3849977254867553,0.3449921657265715,0.8278711075700171,-0.44227800627895,0.1735293730061879,6.0,0.0
37.3165397644043,-8.514286041259766,-0.4317625761032104,-0.0,-0.0,-1.0,0.0235776810326058,1.0,0.0
37.61783599853515,-8.560678482055664,-0.4515776634216308,-0.0,-0.0,-1.0,0.015767864210072,2.0,0.0
36.57212448120117,-9.205005645751951,0.0318523645401001,0.5890012186605146,0.7841302284621218,0.1954925810059537,0.288247242344351,3.0,1.0
36.77446365356445,-9.219440460205078,0.0218701362609863,-0.0,-0.0,-1.0,0.1745061248459953,2.0,1.0
36.571346282958984,-8.94980239868164,0.5610525608062744,-0.0,-0.0,-1.0,0.0486020397929276,2.0,1.0
35.35563659667969,-6.95005464553833,-0.5578256845474243,-0.1233432325256306,0.2602132960710312,-0.9576405836941008,0.0495303737533749,3.0,0.0
35.49258041381836,-8.666053771972656,-0.3587520122528076,-0.0,-0.0,-1.0,0.0438292944003476,2.0,0.0
35.70003890991211,-8.75361442565918,-0.3735103607177734,-0.0,-0.0,-1.0,0.0253603737498874,2.0,0.0
35.72616958618164,-6.8948235511779785,-0.5508990287780762,-0.0,-0.0,-1.0,0.0583578161815477,1.0,0.0
35.95270538330078,-8.777969360351562,-0.3816666603088379,0.0304879396494091,-0.0301127947214651,-0.9990814306802008,0.0352970973740125,4.0,0.0
36.13330841064453,-6.915480136871338,-0.5584526062011719,-0.0,-0.0,-1.0,0.0442433485027613,1.0,0.0
36.331748962402344,-8.635734558105469,-0.3718490600585937,-0.1525283675533222,0.0052970611786615,-0.9882848973015766,0.0922615901564576,7.0,0.0
36.40291595458984,-8.790472030639648,-0.3935921192169189,-0.0,-0.0,-1.0,0.0242248206100406,1.0,0.0
36.4971923828125,-6.969536304473877,-0.5728375911712646,-0.0,-0.0,-1.0,0.0292197446759743,2.0,0.0
36.66606521606445,-7.070628643035889,-0.5926108360290527,-0.0,-0.0,-1.0,0.0189004565863456,2.0,0.0
36.71651077270508,-8.809648513793945,-0.4042834043502807,0.5657458685594795,0.5077814339879606,0.6496842521602405,0.0273585125936884,3.0,0.0
36.938690185546875,-7.1212477684021,-0.6070767641067505,-0.0,-0.0,-1.0,0.0699618930591627,1.0,0.0
37.2557373046875,-8.789623260498047,-0.4179763793945312,0.9237572258767174,-0.055017592146918,-0.3790061374106053,0.0128347513300374,3.0,0.0
37.33356857299805,-7.034016132354736,-0.6032308340072632,-0.0,-0.0,-1.0,0.0286823210216613,2.0,0.0
37.55706024169922,-8.809808731079102,-0.4309237003326416,-0.0,-0.0,-1.0,0.022878300077958,1.0,0.0
35.892295837402344,-8.01423454284668,-0.2826597690582275,-0.0,-0.0,-1.0,0.1537043960717031,2.0,0.0
36.5557861328125,-9.193750381469728,0.0359328985214233,0.5890012186605146,0.7841302284621218,0.1954925810059537,0.2338730741533236,3.0,1.0
36.90709686279297,-8.462116241455078,-0.3647456169128418,-0.0,-0.0,-1.0,0.0659585801746556,2.0,0.0
36.842552185058594,-9.215513229370115,0.024739384651184,-0.0,-0.0,-1.0,0.1638648105826238,1.0,1.0
37.04845428466797,-8.304033279418945,-0.348514199256897,-0.4907966446471009,0.2116509717847734,-0.8451760288518059,0.218743350968693,3.0,0.0
36.77495574951172,-9.174179077148438,0.0308331251144409,-0.9055368393731978,0.4084564485970477,0.1147447695430442,0.1391572661203574,4.0,1.0
35.55067443847656,-7.124033451080322,-0.5340054035186768,-0.0,-0.0,-1.0,0.1078451547432353,1.0,0.0
35.73583221435547,-7.22572660446167,-0.550666332244873,-0.0,-0.0,-1.0,0.0744074282130235,2.0,0.0
35.982818603515625,-7.10038423538208,-0.528550386428833,-0.0,-0.0,-1.0,0.0367787356511919,1.0,0.0
36.24694061279297,-7.108363628387451,-0.530634880065918,-0.0,-0.0,-1.0,0.0410643032586109,2.0,0.0
36.454227447509766,-7.193236827850342,-0.5471140146255493,-0.0,-0.0,-1.0,0.0232501063424637,1.0,0.0
36.76892852783203,-7.319902896881104,-0.573468804359436,-0.0,-0.0,-1.0,0.0590824608809718,1.0,0.0
37.184078216552734,-7.311947345733643,-0.5798162221908569,-0.0,-0.0,-1.0,0.0831584886894613,1.0,0.0
37.58060073852539,-7.254398822784424,-0.5797411203384399,-0.0,-0.0,-1.0,0.029340782286137,2.0,0.0
35.32367706298828,-8.63210678100586,-0.3564844131469726,-0.0,-0.0,-1.0,0.1293907982504657,2.0,0.0
35.702552795410156,-8.721406936645508,-0.3719749450683594,-0.2727329769606951,0.0670414364933032,-0.9597510974576018,0.026168120703515,3.0,0.0
35.924766540527344,-8.79185676574707,-0.3844358921051025,-0.1938410275884649,0.5517269972182144,-0.8111861540756354,0.0356370975906646,3.0,0.0
35.934749603271484,-8.004150390625,-0.2734701633453369,0.3059394836200733,-0.6964803940159942,-0.6490886635226412,0.1588212290593394,3.0,0.0
36.158897399902344,-8.702947616577148,-0.3753213882446289,-0.351639994549162,-0.6831458097590316,-0.6400477457519416,0.0836293318531869,3.0,0.0
36.06147384643555,-8.808219909667969,-0.3887076377868652,0.5567040804757668,0.287271027911704,-0.779458737396781,0.0255696482536019,3.0,0.0
36.36026763916016,-8.667144775390625,-0.3736367225646972,-0.4529703422198187,-0.3649781139047899,-0.8133934136933754,0.0651981870569539,3.0,0.0
36.56425857543945,-8.84337043762207,-0.4028902053833008,-0.2926267469330803,0.950137215221248,-0.1077444162403522,0.0883543554416859,4.0,0.0
37.01351165771485,-8.395524978637695,-0.3493932485580444,-0.0,-0.0,-1.0,0.1938364509440081,2.0,0.0
36.809844970703125,-8.793952941894531,-0.4013566970825195,-0.0,-0.0,-1.0,0.053263818134946,2.0,0.0
37.13474655151367,-8.41773796081543,-0.3558425903320312,-0.0,-0.0,-1.0,0.1007055090599618,1.0,0.0
37.37245559692383,-8.815044403076172,-0.4202346801757812,-0.0,-0.0,-1.0,0.0103378497785142,1.0,0.0
36.582088470458984,-9.086151123046877,0.0050752162933349,-0.4516472275210057,-0.4189107807325832,-0.7877363389222353,0.228320056542772,5.0,1.0
36.59846878051758,-9.264129638671877,-0.0146453380584716,0.3110628481566795,0.905049409999099,-0.2900439103945075,0.2342647475011061,4.0,0.0
36.83673858642578,-9.163980484008787,-0.0106369256973266,-0.5813546106516029,-0.6444639518051469,-0.4966820225232808,0.1371836051683941,4.0,0.0
35.24038314819336,-7.917141437530518,-0.4725888967514038,-0.0,-0.0,-1.0,0.0626719712193087,1.0,0.0
35.314579010009766,-7.946096897125244,-0.4751331806182861,-0.0,-0.0,-1.0,0.0692809052709047,1.0,0.0
35.48106384277344,-7.91072416305542,-0.4647846221923828,-0.0,-0.0,-1.0,0.046719115346252,1.0,0.0
35.65293884277344,-7.945981502532959,-0.4666339159011841,-0.0,-0.0,-1.0,0.0431194617545726,1.0,0.0
36.10683059692383,-7.840807437896728,-0.4402259588241577,-0.0,-0.0,-1.0,0.14153974785046,1.0,0.0
35.90054702758789,-7.9949774742126465,-0.4697922468185425,-0.0,-0.0,-1.0,0.0687036911456117,2.0,0.0
36.498809814453125,-8.138246536254883,-0.486747145652771,-0.0,-0.0,-1.0,0.0388916613172041,2.0,0.0
36.59625625610352,-8.201942443847656,-0.4970300197601318,-0.0,-0.0,-1.0,0.0399545455577409,1.0,0.0
36.70173645019531,-6.907008647918701,-0.6099706888198853,-0.0,-0.0,-1.0,0.0153007392459001,1.0,0.0
36.920310974121094,-6.973289966583252,-0.6205381155014038,-0.0,-0.0,-1.0,0.0662874516611599,2.0,0.0
36.87140274047851,-8.073711395263672,-0.4741939306259155,-0.1566156101677171,-0.0475658350975556,-0.9865135792188902,0.0611447571823812,3.0,0.0
37.1512565612793,-6.963026523590088,-0.6166315078735352,-0.0,-0.0,-1.0,0.0413593579220683,2.0,0.0
37.19075775146485,-8.083084106445312,-0.4764165878295898,-0.0,-0.0,-1.0,0.0690438532541282,1.0,0.0
37.35047912597656,-8.18497085571289,-0.4953309297561645,-0.0,-0.0,-1.0,0.0213174027944823,1.0,0.0
37.52009963989258,-6.872476100921631,-0.5970752239227295,-0.0,-0.0,-1.0,0.0249883652704317,1.0,0.0
37.579288482666016,-6.910163402557373,-0.6054279804229736,-0.0,-0.0,-1.0,0.0253407958339948,1.0,0.0
37.6996955871582,-8.196155548095703,-0.5014151334762573,-0.0,-0.0,-1.0,0.0163158566581967,1.0,0.0
35.3709831237793,-8.951595306396484,-0.2265777587890625,-0.0,-0.0,-1.0,0.1085210040329812,1.0,0.0
35.52507781982422,-9.256452560424805,-0.2658978700637817,-0.0,-0.0,-1.0,0.0878915733832542,1.0,0.0
35.816226959228516,-9.24201202392578,-0.2620470523834228,-0.0,-0.0,-1.0,0.067480493390336,1.0,0.0
36.18977355957031,-7.811098575592041,-0.4339754581451416,0.3880678276827817,0.2224700820597578,-0.8943771149274178,0.1346086233619951,7.0,0.0
36.204288482666016,-9.336483001708984,-0.2740329504013061,-0.0,-0.0,-1.0,0.1033491362236841,1.0,0.0
36.30887985229492,-7.848336696624756,-0.4387909173965454,-0.4314898165716445,0.5919300841976468,-0.6807608343733763,0.094782099387034,4.0,0.0
36.61288833618164,-9.22529411315918,-0.2598305940628052,-0.0,-0.0,-1.0,0.2262756202656139,1.0,0.0
36.93004608154297,-8.009618759155273,-0.4629868268966675,-0.0,-0.0,-1.0,0.0596051410494712,2.0,0.0
37.12595748901367,-8.03472900390625,-0.4677164554595947,0.3342154508513015,0.756163745425505,0.5625979226022196,0.0577014614618692,4.0,0.0
37.637351989746094,-8.996700286865234,-0.2402085065841674,-0.0,-0.0,-1.0,0.0177474807811938,1.0,0.0
36.572723388671875,-9.235237121582031,0.1496919393539428,-0.0,-0.0,-1.0,0.0857605753735972,2.0,1.0
36.59770584106445,-8.962413787841797,0.5757409334182739,-0.0,-0.0,-1.0,0.0450393205154514,2.0,1.0
35.374210357666016,-6.954763412475586,-0.5614974498748779,-0.0,-0.0,-1.0,0.0495303737533749,2.0,0.0
35.69110107421875,-7.008023738861084,-0.5595296621322632,-0.0,-0.0,-1.0,0.0525391385342897,1.0,0.0
35.21467208862305,-8.885798454284668,-0.217303991317749,0.6175922857058883,-0.7858449936876316,-0.0320533076711668,0.1109305232404297,5.0,0.0
35.47356033325195,-8.039769172668457,-0.4374654293060303,-0.0,-0.0,-1.0,0.0517520316263277,1.0,0.0
35.42108154296875,-8.96039867401123,-0.2273083925247192,-0.0,-0.0,-1.0,0.0833529857075941,2.0,0.0
35.6005744934082,-9.21798610687256,-0.2661182880401611,-0.0,-0.0,-1.0,0.0812925006183368,1.0,0.0
35.72557067871094,-6.956545829772949,-0.5472451448440552,-0.0,-0.0,-1.0,0.0639112041493663,1.0,0.0
35.82724380493164,-8.15534782409668,-0.4525067806243896,-0.0,-0.0,-1.0,0.0581776038762941,2.0,0.0
36.025367736816406,-8.2366361618042,-0.4652391672134399,-0.0,-0.0,-1.0,0.022384790399613,1.0,0.0
36.005001068115234,-9.190876960754396,-0.2627657651901245,-0.0,-0.0,-1.0,0.1343649727968349,2.0,0.0
36.02406692504883,-6.93991756439209,-0.5331723690032959,-0.0,-0.0,-1.0,0.0698125503263924,2.0,0.0
36.22984313964844,-7.0233473777771,-0.5456706285476685,-0.0,-0.0,-1.0,0.0222125014369574,1.0,0.0
36.146995544433594,-7.935400485992432,-0.4074916839599609,-0.0,-0.0,-1.0,0.1495427624500837,1.0,0.0
36.28416442871094,-8.247756958007812,-0.4654415845870971,-0.0,-0.0,-1.0,0.0373641273997923,2.0,0.0
36.39877700805664,-9.22966766357422,-0.2716736793518066,-0.3118911769123264,0.8512451256467017,-0.4220256269789482,0.1692669972002857,3.0,0.0
36.54270553588867,-7.161804676055908,-0.5699682235717773,-0.4370209499781907,0.8344439926369939,-0.3357319055916371,0.0188928404107518,4.0,0.0
36.65660858154297,-8.240964889526367,-0.4634411334991455,-0.0,-0.0,-1.0,0.0229034811684724,2.0,0.0
36.69237518310547,-9.19920825958252,-0.2704000473022461,-0.0,-0.0,-1.0,0.2472302003540105,2.0,0.0
36.886966705322266,-7.263158321380615,-0.5885717868804932,-0.0,-0.0,-1.0,0.0487320488196614,1.0,0.0
37.02241134643555,-7.29335355758667,-0.5945234298706055,-0.0,-0.0,-1.0,0.0592016053970231,1.0,0.0
36.906837463378906,-7.974327564239502,-0.4131515026092529,-0.0,-0.0,-1.0,0.0763687690437585,1.0,0.0
37.09358978271485,-8.170387268066406,-0.452458381652832,-0.0,-0.0,-1.0,0.2006017310582465,1.0,0.0
37.32809066772461,-7.227431774139404,-0.5795836448669434,0.5440823728578369,0.5179418039033973,-0.6600838274906307,0.0824250268060571,3.0,0.0
37.40779113769531,-7.242202281951904,-0.5833079814910889,-0.0,-0.0,-1.0,0.0444142791208281,1.0,0.0
37.49873733520508,-8.312969207763672,-0.4858523607254028,-0.0,-0.0,-1.0,0.0163034990536043,2.0,0.0
36.51496505737305,-9.213732719421388,0.1044278144836425,-0.0,-0.0,-1.0,0.170383512928551,1.0,1.0
36.83524703979492,-9.169608116149902,0.1029052734375,-0.4341309332274861,-0.5931733038139664,-0.6779939265638417,0.1766475267280916,5.0,1.0
36.54846954345703,-9.049729347229004,0.4896941781044006,-0.0,-0.0,-1.0,0.0416575766980253,2.0,1.0
36.8848762512207,-7.1861090660095215,-0.6225571632385254,-0.0,-0.0,-1.0,0.0622974186019794,1.0,0.0
35.335628509521484,-7.432941913604736,-0.5091454982757568,-0.0,-0.0,-1.0,0.0290725559801399,2.0,0.0
35.220123291015625,-8.413103103637695,-0.3774353265762329,-0.0,-0.0,-1.0,0.0536141128651101,1.0,0.0
35.396793365478516,-8.613929748535156,-0.3995896577835083,-0.0,-0.0,-1.0,0.0572809167981535,1.0,0.0
35.61650085449219,-7.636433601379395,-0.5255528688430786,-0.0,-0.0,-1.0,0.0501992596484404,2.0,0.0
35.67231750488281,-8.539939880371094,-0.3704745769500732,-0.0,-0.0,-1.0,0.0370652119470442,2.0,0.0
35.658756256103516,-8.684408187866211,-0.3961005210876465,-0.0,-0.0,-1.0,0.034564267853432,2.0,0.0
36.12638092041016,-7.733195781707764,-0.5066694021224976,0.906679227619248,0.039951293282415,-0.4199246031954141,0.1016364375811241,4.0,0.0
35.91242599487305,-7.85413932800293,-0.3923054933547973,-0.0,-0.0,-1.0,0.1677327826851848,1.0,0.0
36.040000915527344,-8.772590637207031,-0.3909127712249756,0.5567040804757668,0.287271027911704,-0.779458737396781,0.0230768779053703,3.0,0.0
36.23488235473633,-8.973477363586426,-0.4167212247848511,-0.0,-0.0,-1.0,0.0380297491357625,1.0,0.0
36.328277587890625,-6.899134159088135,-0.5951117277145386,-0.0,-0.0,-1.0,0.0310959988028904,1.0,0.0
36.53899383544922,-6.996124744415283,-0.6009349822998047,-0.0,-0.0,-1.0,0.02828927250088,1.0,0.0
36.32035827636719,-7.713011264801025,-0.4897433519363403,0.6932447884369892,-0.7206669497872658,0.0071281687180217,0.0901999334263428,3.0,0.0
36.4610595703125,-7.879885673522949,-0.5159238576889038,-0.0,-0.0,-1.0,0.0323884566257868,1.0,0.0
36.44806289672851,-8.870416641235352,-0.3895922899246216,-0.0,-0.0,-1.0,0.0465716539760157,1.0,0.0
36.42530822753906,-9.022468566894531,-0.4174085855484009,-0.0,-0.0,-1.0,0.079853820448095,1.0,0.0
36.72624206542969,-7.093559741973877,-0.6108454465866089,-0.0,-0.0,-1.0,0.0374573071483511,1.0,0.0
36.81359100341797,-7.932619571685791,-0.5078405141830444,-0.0,-0.0,-1.0,0.0295520063245401,2.0,0.0
37.00316619873047,-8.419297218322754,-0.2887349128723144,-0.0,-0.0,-1.0,0.1592642963633982,2.0,0.0
36.96527862548828,-8.886452674865723,-0.373644471168518,-0.0,-0.0,-1.0,0.0965011445134391,2.0,0.0
36.85407257080078,-9.078939437866213,-0.4118653535842895,-0.0,-0.0,-1.0,0.1159456282964021,1.0,0.0
37.18170166015625,-7.186246395111084,-0.6049778461456299,-0.0,-0.0,-1.0,0.0337134291941943,2.0,0.0
37.21800994873047,-7.977987289428711,-0.4997260570526123,0.3953130284267345,0.6913921449513818,0.6047350754302341,0.0420056284733152,4.0,0.0
37.254425048828125,-9.136075019836426,-0.410840630531311,-0.0,-0.0,-1.0,0.0181149241082002,1.0,0.0
37.568870544433594,-7.235031604766846,-0.5986120700836182,-0.0,-0.0,-1.0,0.0301372050971997,2.0,0.0
37.53107833862305,-8.102334976196289,-0.5158431529998779,-0.0,-0.0,-1.0,0.0104902551846726,1.0,0.0
37.67049789428711,-8.134231567382812,-0.5188742876052856,-0.0,-0.0,-1.0,0.0192985860856122,1.0,0.0
37.63490676879883,-9.23432731628418,-0.4211450815200805,0.2786026869867388,-0.7680477476784671,-0.5766135621799089,0.0247601858213334,3.0,0.0
35.597347259521484,-9.322675704956056,-0.1526920795440673,-0.9973197254087204,0.0726006082634792,-0.0090838863074896,0.1019031126978014,3.0,0.0
36.07392501831055,-9.310870170593262,-0.1330784559249878,0.0564507380291365,-0.4936543828607972,-0.8678240976478421,0.1750035857994614,4.0,0.0
36.54706954956055,-9.228693962097168,-0.1067975759506225,-0.0,-0.0,-1.0,0.2747807523342647,2.0,0.0
36.76187896728515,-9.161046028137209,-0.0913749933242797,-0.4246142028925295,-0.7794163575007907,-0.4606657360409401,0.1432307662487995,3.0,0.0
36.603172302246094,-9.120070457458496,0.2450356483459472,-0.1174359576121516,-0.2679396012377895,-0.956251622716663,0.1240004575264736,5.0,1.0
36.70914459228515,-9.105768203735352,0.2484155893325805,0.2203296506201325,0.6754414704710385,-0.7037284028839048,0.1355648331474255,4.0,1.0
35.29591751098633,-6.961781978607178,-0.5573803186416626,-0.0,-0.0,-1.0,0.0470921949878948,2.0,0.0
35.65478515625,-7.133995532989502,-0.5549936294555664,0.0188183004821707,-0.635495566821345,-0.771875155784522,0.0805905187552842,3.0,0.0
35.46977233886719,-7.968540668487549,-0.4691869020462036,0.7576747991582339,0.6342312974025291,0.153881643205531,0.0624003647610286,3.0,0.0
35.27867126464844,-8.723002433776855,-0.3151121139526367,-0.8388312102260971,0.2026627454526609,-0.5052623203408411,0.1278076469976117,4.0,0.0
36.10785675048828,-7.288108825683594,-0.5450905561447144,-0.0,-0.0,-1.0,0.0634047010003211,2.0,0.0
35.89726257324219,-7.428368091583252,-0.5981040000915527,-0.0,-0.0,-1.0,0.0685883691769341,1.0,0.0
