x,y,z,nx,ny,nz,curvature,density,label
14.317357063293455,20.209434509277344,-1.0803253650665283,-0.0,-0.0,-1.0,0.1964541257886849,2.0,0.0
13.499750137329102,18.497722625732425,-0.756812572479248,-0.0,-0.0,-1.0,0.1496612917155516,1.0,0.0
14.697888374328612,20.633838653564453,-1.2362182140350342,-0.0,-0.0,-1.0,0.1724705586397829,1.0,0.0
14.472519874572754,20.31991958618164,-0.9885752201080322,-0.1560789206989774,0.977779160487876,0.1399545777353037,0.2208227893478284,3.0,0.0
12.928168296813965,18.365703582763672,-0.8899178504943848,-0.0,-0.0,-1.0,0.0620787766609538,1.0,0.0
14.49505615234375,20.3604736328125,-0.908043384552002,-0.2007424216686565,0.1663934756778423,-0.9654095977327192,0.2336956240217918,3.0,0.0
13.992849349975586,20.431028366088867,-0.8904235363006592,0.5237021004832332,-0.6743711327576186,0.5205378807086534,0.2098355654564035,3.0,0.0
13.772326469421388,20.32250213623047,-1.0679748058319092,-0.0,-0.0,-1.0,0.150491887967349,1.0,0.0
14.440714836120604,20.198375701904297,-0.5847160816192627,-0.0,-0.0,-1.0,0.1961131650737145,1.0,0.0
14.177562713623049,18.1469783782959,-0.750056266784668,-0.0,-0.0,-1.0,0.1033632020521199,1.0,0.0
13.971900939941406,20.377580642700195,-0.9401836395263672,0.8875270643809491,0.4497293399998237,0.1001959616684103,0.1421999669038355,3.0,0.0
13.97577953338623,20.261587142944336,-0.9976978302001952,-0.0,-0.0,-1.0,0.2165120985167252,2.0,0.0
14.699736595153809,19.06092643737793,-0.8869185447692871,-0.0,-0.0,-1.0,0.1512244303011804,1.0,0.0
15.167136192321776,18.63081169128418,-0.8981499671936035,-0.4478731125769158,0.3572886575867816,-0.8196063019465508,0.1639295353044945,3.0,0.0
14.351797103881836,18.359872817993164,-0.7701816558837891,-0.0,-0.0,-1.0,0.1856974586889924,1.0,0.0
14.018932342529297,20.25743103027344,-0.9151434898376464,-0.0,-0.0,-1.0,0.1346848684376227,2.0,0.0
15.200824737548828,18.730762481689453,-0.8398971557617188,-0.0,-0.0,-1.0,0.1083864150698852,1.0,0.0
14.672654151916504,19.77634048461914,-0.8952889442443848,-0.0,-0.0,-1.0,0.1097896604462931,1.0,0.0
15.084318161010742,19.397037506103516,-0.8975968360900879,0.2173503808297329,-0.7998880043588487,-0.5594086095476084,0.192891674816182,3.0,0.0
13.980119705200195,20.432661056518555,-0.7880005836486816,-0.0,-0.0,-1.0,0.1430767600225641,1.0,0.0
15.152172088623049,18.832786560058594,-0.766566276550293,-0.0,-0.0,-1.0,0.137248038824895,1.0,0.0
14.22431182861328,20.47753143310547,-0.7008705139160156,-0.0,-0.0,-1.0,0.1416665461148261,1.0,0.0
14.468088150024414,19.085824966430664,-1.0075864791870115,-0.0,-0.0,-1.0,0.1609517229548247,1.0,0.0
14.346183776855469,19.53766632080078,-1.003544807434082,-0.0,-0.0,-1.0,0.0564818127403366,1.0,0.0
13.875099182128906,20.330677032470703,-0.9062957763671876,-0.0,-0.0,-1.0,0.207059031479044,1.0,0.0
13.971965789794922,20.366622924804688,-0.8915743827819824,0.471062477481269,-0.8603718925553568,-0.1945773594484268,0.1477771121187676,3.0,0.0
13.75188446044922,20.552196502685547,-0.8762545585632324,-0.0,-0.0,-1.0,0.110683549987918,1.0,0.0
13.91591453552246,20.3463077545166,-0.9379310607910156,-0.0,-0.0,-1.0,0.1421883146271956,2.0,0.0
14.593011856079102,19.534130096435547,-0.9716343879699708,-0.0,-0.0,-1.0,0.0829057998041441,1.0,0.0
14.695582389831545,20.51636505126953,-0.9648284912109376,-0.0,-0.0,-1.0,0.1898196976890648,1.0,0.0
14.659859657287598,19.250513076782227,-0.9111213684082032,-0.0,-0.0,-1.0,0.0771088485675497,1.0,0.0
13.971856117248535,20.129871368408203,-0.9474878311157228,0.2928014328882115,0.3441707345475592,-0.8920839794434178,0.1887233376388308,3.0,0.0
14.25469970703125,20.302003860473633,-0.9975173473358154,-0.0,-0.0,-1.0,0.164375475666243,1.0,0.0
14.40739917755127,20.22415542602539,-1.0013554096221924,-0.0,-0.0,-1.0,0.1163457359005673,2.0,0.0
15.197763442993164,18.87463760375977,-0.8203885555267334,-0.0,-0.0,-1.0,0.0955024306075697,1.0,0.0
14.179009437561035,20.347827911376953,-0.8754613399505615,0.0566138971223399,-0.3164599258460914,-0.9469149813927898,0.1512894194643962,5.0,0.0
13.989261627197266,20.44701385498047,-0.8661043643951416,-0.0801095869789265,0.4411054217080282,-0.8938727320003941,0.1970953829959176,4.0,0.0
14.494046211242676,18.92283821105957,-0.8816757202148438,-0.0,-0.0,-1.0,0.130085330423952,2.0,0.0
15.119422912597656,18.79104232788086,-0.9736709594726562,-0.0,-0.0,-1.0,0.1581667484840347,1.0,0.0
14.654934883117676,19.282440185546875,-0.9548654556274414,-0.0,-0.0,-1.0,0.0603889681583619,1.0,0.0
15.155415534973145,19.330730438232425,-1.0474262237548828,-0.0,-0.0,-1.0,0.1709220104464458,1.0,0.0
14.117552757263184,20.27355575561523,-0.990638256072998,-0.0,-0.0,-1.0,0.169447947223683,2.0,0.0
14.249383926391602,20.25160217285156,-1.0099406242370603,-0.0,-0.0,-1.0,0.1960742762971207,2.0,0.0
14.045042991638184,20.31839942932129,-0.9843111038208008,-0.0,-0.0,-1.0,0.0957186942587903,1.0,0.0
14.467596054077148,20.34800148010254,-1.0591425895690918,-0.0,-0.0,-1.0,0.1130177492900638,2.0,0.0
14.93463134765625,20.550182342529297,-1.1641945838928225,-0.0,-0.0,-1.0,0.1033489361505729,1.0,0.0
15.173101425170898,20.520029067993164,-1.200967788696289,-0.0,-0.0,-1.0,0.1233029783166909,1.0,0.0
12.8606538772583,18.445953369140625,-0.9423887729644777,-0.0,-0.0,-1.0,0.1158016937792281,1.0,0.0
15.16854190826416,19.4664363861084,-1.0190916061401367,0.4933336656463373,-0.0572826662341851,-0.8679519517168277,0.1442733650989499,4.0,0.0
13.832974433898926,20.096511840820312,-1.0678248405456543,-0.0,-0.0,-1.0,0.1517105594745324,2.0,0.0
14.129941940307615,20.144222259521484,-1.0980224609375,0.2978393823137412,0.5304946787504231,0.7936416686140252,0.1507647761276216,3.0,0.0
14.70358943939209,20.08544158935547,-1.1236333847045898,-0.0,-0.0,-1.0,0.0281900338202617,1.0,0.0
15.014691352844238,20.12957191467285,-1.1558070182800293,-0.0,-0.0,-1.0,0.021375274250818,1.0,0.0
13.11667537689209,20.27070999145508,-1.0648741722106934,-0.0,-0.0,-1.0,0.0651437229828537,2.0,0.0
13.2759370803833,20.40051651000977,-1.104269027709961,-0.0,-0.0,-1.0,0.0627997093718296,2.0,0.0
14.584938049316406,20.368106842041016,-1.179443359375,-0.0,-0.0,-1.0,0.172181516324081,2.0,0.0
14.77781105041504,20.448286056518555,-1.21087646484375,-0.0,-0.0,-1.0,0.0550968213077263,1.0,0.0
12.831138610839844,18.8904972076416,-0.7275700569152832,-0.5014606900213929,0.6979404558134781,-0.5112888581830655,0.149624287243732,7.0,0.0
14.698944091796877,18.94273567199707,-0.8669238090515137,-0.0,-0.0,-1.0,0.1257874612872028,1.0,0.0
12.915878295898438,20.22051048278809,-1.0418472290039062,-0.0,-0.0,-1.0,0.077533137172934,1.0,0.0
14.248964309692385,18.27973365783691,-0.8245296478271484,-0.0,-0.0,-1.0,0.1659890986909491,2.0,0.0
14.245037078857422,18.83068084716797,-0.9438881874084472,-0.0,-0.0,-1.0,0.1394932080293422,1.0,0.0
15.072198867797852,18.57701110839844,-1.0021300315856934,-0.0,-0.0,-1.0,0.0888044775452253,1.0,0.0
14.971717834472656,19.02452850341797,-1.0843920707702637,-0.0,-0.0,-1.0,0.0417424226426284,1.0,0.0
13.522441864013672,19.579599380493164,-1.0154123306274414,-0.0,-0.0,-1.0,0.0322251727864153,1.0,0.0
14.330728530883787,19.440412521362305,-1.088493824005127,-0.0,-0.0,-1.0,0.0329475827001885,1.0,0.0
13.390575408935549,19.654071807861328,-1.0155525207519531,-0.9461468068694736,-0.3137490129823908,0.079798350254091,0.088676837331787,3.0,0.0
13.852567672729492,19.954736709594727,-1.1400203704833984,-0.0,-0.0,-1.0,0.0423670761846665,1.0,0.0
14.221721649169922,19.931425094604492,-1.1820464134216309,-0.0,-0.0,-1.0,0.084124420331238,1.0,0.0
14.040155410766602,20.091154098510746,-1.1939678192138672,-0.0,-0.0,-1.0,0.1130598019983968,1.0,0.0
14.336309432983398,18.169666290283203,-0.803225040435791,-0.0,-0.0,-1.0,0.1199389114433279,1.0,0.0
14.592577934265137,18.35040283203125,-0.8664655685424805,-0.0,-0.0,-1.0,0.0454581542742167,2.0,0.0
15.19163703918457,18.49396324157715,-0.9415016174316406,-0.0,-0.0,-1.0,0.0889927773863826,1.0,0.0
13.018199920654297,18.167404174804688,-0.7365555763244629,-0.2992469330033883,0.612976005777981,-0.7312398303077717,0.1049172601087741,4.0,0.0
13.389814376831056,18.426034927368164,-0.8237004280090332,-0.0,-0.0,-1.0,0.2292726905538175,1.0,0.0
13.82243537902832,18.36166763305664,-0.8273591995239258,-0.0,-0.0,-1.0,0.0572954777685416,1.0,0.0
14.763716697692873,18.50023651123047,-0.9166660308837892,-0.9078170351130248,0.2305747472140854,-0.3502906174960413,0.0247259295142669,6.0,0.0
15.01865577697754,18.54446601867676,-0.9440264701843262,-0.0,-0.0,-1.0,0.0752667682596054,2.0,0.0
12.860549926757812,18.57370948791504,-0.8412785530090332,-0.0,-0.0,-1.0,0.0942578872883891,2.0,0.0
13.394371032714844,18.57406997680664,-0.8642821311950684,-0.0,-0.0,-1.0,0.1287933657645821,1.0,0.0
13.58327293395996,18.548206329345703,-0.8660235404968262,-0.0,-0.0,-1.0,0.0970005371138462,1.0,0.0
14.991203308105469,19.069843292236328,-0.951939582824707,-0.0,-0.0,-1.0,0.0730830525648165,1.0,0.0
14.28268814086914,19.26046562194824,-0.9535231590270996,-0.0,-0.0,-1.0,0.0338470220830907,1.0,0.0
14.80109977722168,19.375385284423828,-1.0171780586242676,-0.0,-0.0,-1.0,0.093679957911808,1.0,0.0
14.237493515014648,19.778156280517575,-1.0849604606628418,-0.0,-0.0,-1.0,0.0641895506489866,1.0,0.0
13.997774124145508,19.930984497070312,-1.1105408668518066,-0.0,-0.0,-1.0,0.041372848129036,1.0,0.0
14.191673278808594,18.320402145385746,-0.7047386169433594,-0.0,-0.0,-1.0,0.1106302789907352,1.0,0.0
15.12465476989746,18.72024726867676,-0.8723011016845703,-0.0,-0.0,-1.0,0.2045371448714058,1.0,0.0
13.069997787475586,18.26711082458496,-0.6233282089233398,-0.0,-0.0,-1.0,0.0760455821802073,1.0,0.0
14.207155227661133,18.65343475341797,-0.791710376739502,-0.8299808383581606,0.4720505330622333,-0.2971533311170286,0.1429366252251855,3.0,0.0
13.526229858398438,18.967924118041992,-0.832028865814209,-0.0,-0.0,-1.0,0.1199538871947608,1.0,0.0
13.000665664672852,19.31872177124023,-0.8959569931030273,-0.0,-0.0,-1.0,0.102086889920636,2.0,0.0
13.22097873687744,19.431385040283203,-0.9368491172790528,-0.0,-0.0,-1.0,0.1794523756820315,1.0,0.0
14.884763717651367,18.642192840576172,-0.9406003952026368,0.2009809629523285,0.5887352015686291,-0.782941578257727,0.0396726744531555,4.0,0.0
15.05586051940918,18.61565589904785,-0.9535188674926758,-0.0,-0.0,-1.0,0.0875864406478273,2.0,0.0
14.181835174560549,18.24565887451172,-0.7644071578979492,-0.0,-0.0,-1.0,0.1022188365259126,2.0,0.0
14.133445739746094,18.51389503479004,-0.8257637023925781,-0.0,-0.0,-1.0,0.1535404825171816,2.0,0.0
14.831663131713867,18.998456954956055,-1.0226211547851562,-0.0,-0.0,-1.0,0.0837088476332481,1.0,0.0
14.1234130859375,19.380046844482425,-1.0403480529785156,-0.0,-0.0,-1.0,0.0258614355723625,1.0,0.0
12.784717559814451,18.98284339904785,-0.8044466972351074,-0.0,-0.0,-1.0,0.1976417576462547,2.0,0.0
13.369443893432615,19.170818328857425,-0.909836769104004,-0.0,-0.0,-1.0,0.0811281584951857,1.0,0.0
13.392168045043944,19.462461471557617,-0.9853558540344238,-0.8922422651413809,0.4117673617892751,0.1853412529915491,0.1123650461576454,3.0,0.0
13.9771146774292,19.57903480529785,-1.0745849609375,-0.0,-0.0,-1.0,0.0184970085892798,1.0,0.0
13.946441650390623,19.820484161376953,-1.1317672729492188,-0.0,-0.0,-1.0,0.0422940304983901,1.0,0.0
13.030768394470217,19.29345703125,-0.906829833984375,-0.0,-0.0,-1.0,0.1294413995667873,2.0,0.0
13.202369689941406,19.48590660095215,-0.9722647666931152,-0.0,-0.0,-1.0,0.0933207122204056,2.0,0.0
13.263419151306152,18.28497886657715,-0.6768956184387207,-0.0,-0.0,-1.0,0.1696968694981995,1.0,0.0
14.896933555603027,18.26989364624023,-0.905341625213623,-0.1259253783265352,0.1351693536344765,-0.9827878941721642,0.0302877892183879,4.0,0.0
14.14345645904541,20.633195877075195,-0.8221774101257324,0.8269594722453673,0.5621847100248613,-0.0092942497237292,0.1090533250747174,3.0,0.0
15.099672317504885,18.80599594116211,-0.9113259315490724,-0.0,-0.0,-1.0,0.1801144955318845,1.0,0.0
15.14643383026123,19.257097244262695,-1.0428786277770996,-0.0,-0.0,-1.0,0.1269444735011923,2.0,0.0
14.374210357666016,18.68884658813477,-0.8062801361083984,-0.0698215084662729,-0.7058747170292259,-0.7048871121068998,0.0992743643382403,3.0,0.0
14.925178527832031,19.32748031616211,-1.040602207183838,-0.0,-0.0,-1.0,0.195111913484506,2.0,0.0
14.244535446166992,18.791776657104492,-0.8234062194824219,-0.0,-0.0,-1.0,0.1354804803807049,2.0,0.0
14.427423477172852,19.110898971557617,-0.9312691688537598,-0.0,-0.0,-1.0,0.1346118096791967,1.0,0.0
14.352582931518556,19.462635040283203,-1.024641990661621,-0.0,-0.0,-1.0,0.0579203013730031,1.0,0.0
13.686366081237791,18.986568450927734,-0.8298625946044922,-0.0,-0.0,-1.0,0.171301198051429,2.0,0.0
14.13843822479248,19.44706344604492,-1.0010027885437012,-0.0,-0.0,-1.0,0.0314601175935799,1.0,0.0
14.139108657836914,19.706693649291992,-1.0755386352539062,-0.0,-0.0,-1.0,0.0307742899038636,1.0,0.0
13.402440071105955,19.466732025146484,-0.9453935623168944,-0.594219297234509,0.774418490190853,-0.2172082614557886,0.1330953989576665,4.0,0.0
13.11191749572754,19.25446891784668,-0.8615474700927734,-0.0,-0.0,-1.0,0.1533664538764746,2.0,0.0
13.305753707885742,19.59467315673828,-0.9749879837036132,-0.5321955073509961,0.7649507080743787,-0.3627924422750873,0.0936960823161044,4.0,0.0
14.34959316253662,18.35583877563477,-0.7094130516052246,-0.0,-0.0,-1.0,0.1393706799526427,1.0,0.0
13.239778518676758,18.287338256835938,-0.591433048248291,-0.0,-0.0,-1.0,0.1921230125130547,1.0,0.0
13.526914596557615,18.795978546142575,-0.7616653442382812,-0.0,-0.0,-1.0,0.1109171885048974,1.0,0.0
12.86706829071045,18.984325408935547,-0.7648978233337402,-0.9544636236639322,0.1573985377862678,-0.2534263036960853,0.1809838635817032,6.0,0.0
15.051406860351562,19.349693298339844,-1.0287530422210691,-0.0,-0.0,-1.0,0.1506341397203628,1.0,0.0
14.911640167236328,19.46705436706543,-1.0523240566253662,-0.2447847831301379,0.4443599454870999,-0.8617567225120047,0.092656468097664,3.0,0.0
14.336841583251951,19.821836471557617,-1.1191871166229248,-0.0,-0.0,-1.0,0.0439548324230297,1.0,0.0
14.17082405090332,19.96866226196289,-1.1520779132843018,-0.0,-0.0,-1.0,0.1329462062708617,1.0,0.0
15.170690536499023,18.88902282714844,-0.9114181995391846,-0.0,-0.0,-1.0,0.1528395268034042,2.0,0.0
15.205266952514648,19.194320678710938,-0.9961793422698976,-0.0,-0.0,-1.0,0.1198699536772363,1.0,0.0
14.431318283081056,18.326597213745117,-0.7132971286773682,-0.0,-0.0,-1.0,0.1116413615351126,1.0,0.0
14.42097282409668,18.690046310424805,-0.8121135234832764,0.026438205643104,-0.2827371474705984,-0.9588330025205444,0.1238278570199209,4.0,0.0
14.556390762329102,19.065202713012695,-0.9223883152008056,-0.0,-0.0,-1.0,0.1682510698696266,1.0,0.0
14.560405731201172,19.500194549560547,-1.0418508052825928,-0.0,-0.0,-1.0,0.0301372624356156,2.0,0.0
14.163785934448242,18.86437225341797,-0.846423864364624,-0.0,-0.0,-1.0,0.1913686738483608,1.0,0.0
14.42347240447998,19.370267868041992,-0.998974084854126,-0.0,-0.0,-1.0,0.0388726809405831,2.0,0.0
13.638153076171877,18.911714553833008,-0.83528733253479,-0.7397643155308654,0.4874798726923429,-0.4638018231820651,0.1827827183460563,3.0,0.0
13.745708465576172,18.984573364257812,-0.860119104385376,-0.0,-0.0,-1.0,0.1409569428380983,1.0,0.0
13.74205207824707,19.549415588378903,-1.0171525478363037,-0.0,-0.0,-1.0,0.0296389042467787,2.0,0.0
13.449991226196287,19.342525482177734,-0.9480907917022704,-0.0,-0.0,-1.0,0.0756400302715442,2.0,0.0
13.337055206298828,19.557788848876953,-1.0043389797210691,-0.0,-0.0,-1.0,0.0857388400163098,1.0,0.0
12.956046104431152,18.97708320617676,-0.8288404941558838,-0.0,-0.0,-1.0,0.1419033935046278,2.0,0.0
13.201095581054688,19.37291145324707,-0.9478938579559326,-0.0,-0.0,-1.0,0.1315107618063518,1.0,0.0
13.114073753356934,18.152427673339844,-0.6027567386627197,0.5571399581880884,-0.7663842931389324,-0.319765824033954,0.065331682568129,3.0,0.0
14.15804672241211,19.846492767333984,-1.1552302837371826,-0.0,-0.0,-1.0,0.0507381982578719,2.0,0.0
15.155872344970703,19.26875686645508,-1.0765292644500732,-0.0,-0.0,-1.0,0.1269444735011923,2.0,0.0
14.982511520385742,19.215906143188477,-1.0512616634368896,-0.0,-0.0,-1.0,0.0706062299636826,1.0,0.0
14.35523509979248,18.42298698425293,-0.8144385814666748,0.0840665844883743,-0.2583610719729769,-0.9623836895237956,0.1438846612516409,3.0,0.0
14.27298355102539,18.80585479736328,-0.9035120010375975,-0.0,-0.0,-1.0,0.1960777253806227,2.0,0.0
14.426624298095703,19.401105880737305,-1.060176134109497,-0.0,-0.0,-1.0,0.0388726809405832,1.0,0.0
14.385540008544922,19.462493896484375,-1.0728766918182373,-0.0,-0.0,-1.0,0.0285404700685676,1.0,0.0
14.21977996826172,18.507999420166016,-0.8266258239746094,-0.0101279196066562,0.8525805922816356,-0.5224976161755546,0.1597720024967197,3.0,0.0
14.160497665405272,19.32575225830078,-1.0256531238555908,-0.0,-0.0,-1.0,0.0298613483610935,1.0,0.0
14.169422149658203,19.617671966552734,-1.0988223552703855,-0.0,-0.0,-1.0,0.0270876190739007,1.0,0.0
13.815295219421388,18.96502685546875,-0.9164228439331056,-0.0,-0.0,-1.0,0.1349972993922501,1.0,0.0
13.211921691894531,19.222850799560547,-0.9518752098083496,-0.0,-0.0,-1.0,0.1005845487775428,1.0,0.0
13.302691459655762,19.44357681274414,-1.0115702152252195,-0.0,-0.0,-1.0,0.1314619075784753,1.0,0.0
12.891230583190918,18.867021560668945,-0.8481850624084473,-0.0,-0.0,-1.0,0.1845921278861317,2.0,0.0
13.50676155090332,18.34803771972656,-0.745673418045044,-0.0,-0.0,-1.0,0.2443794586781143,1.0,0.0
13.35356330871582,18.203067779541016,-0.7014186382293701,-0.0,-0.0,-1.0,0.1601336904340244,1.0,0.0
15.156991958618164,19.427167892456055,-1.0290639400482178,0.9588443257162657,-0.2765637833855868,-0.0642653309426635,0.1635591162232934,4.0,0.0
15.097793579101562,19.778718948364254,-1.1065983772277832,-0.0,-0.0,-1.0,0.0262569667454334,1.0,0.0
14.703554153442385,19.974306106567383,-1.1223359107971191,-0.0,-0.0,-1.0,0.0144707330016195,2.0,0.0
14.518367767333984,20.034059524536133,-1.1231098175048828,-0.0,-0.0,-1.0,0.0714823419105453,1.0,0.0
14.342157363891602,20.232885360717773,-1.1586570739746094,-0.0,-0.0,-1.0,0.1551967422720361,1.0,0.0
13.864778518676758,20.05359649658203,-1.0846679210662842,-0.0,-0.0,-1.0,0.1449971052914109,1.0,0.0
13.961416244506836,20.27696228027344,-1.144924879074097,-0.0,-0.0,-1.0,0.2526645762591628,1.0,0.0
13.346582412719728,19.64080047607422,-0.954143762588501,-0.6527560310374458,0.5049350788700507,-0.564756699890082,0.1179724582554749,6.0,0.0
13.468999862670898,19.863525390625,-1.01532244682312,-0.3503207594926419,0.5525469691616124,-0.7562851395729093,0.1023372110683287,3.0,0.0
12.742020606994627,20.132320404052734,-1.0457007884979248,-0.0,-0.0,-1.0,0.1185305030791087,1.0,0.0
14.626672744750977,18.9779052734375,-0.8803105354309082,-0.6605283903016896,0.1474793843801699,-0.7361739446545936,0.1608963398465448,5.0,0.0
14.49168300628662,18.850004196166992,-0.8395318984985352,-0.3619196921956015,0.9222973036987834,-0.1355795706992601,0.1076620576065517,3.0,0.0
13.023361206054688,19.087987899780273,-0.8015050888061523,-0.7781017261887463,0.099520600449389,-0.620204283916426,0.1587214036815712,6.0,0.0
13.244482040405272,19.48067092895508,-0.9094281196594238,-0.7086007528175791,0.3089005752593571,0.6344016138935953,0.2334076003884495,3.0,0.0
12.814029693603516,18.990421295166016,-0.767099142074585,-0.0,-0.0,-1.0,0.1545382425523001,2.0,0.0
14.907958984375,19.446590423583984,-1.0618305206298828,-0.0,-0.0,-1.0,0.0946159948005195,2.0,0.0
14.490482330322266,19.223735809326172,-1.0487077236175537,-0.0,-0.0,-1.0,0.0832390789973049,1.0,0.0
14.715002059936523,19.36572265625,-1.0505132675170898,-0.0,-0.0,-1.0,0.0460486059740394,1.0,0.0
14.98967742919922,19.540735244750977,-1.0543603897094729,-0.0,-0.0,-1.0,0.0651438121010141,1.0,0.0
15.117321968078612,19.672603607177734,-1.0463995933532717,-0.0,-0.0,-1.0,0.1001928759996281,1.0,0.0
14.565145492553713,19.318910598754883,-1.0389211177825928,-0.0,-0.0,-1.0,0.0524763819061042,1.0,0.0
14.812952995300291,19.429433822631836,-1.0513615608215332,-0.0,-0.0,-1.0,0.0713211571896608,1.0,0.0
14.336503982543944,19.24151611328125,-1.023395299911499,-0.0,-0.0,-1.0,0.0523041210559581,2.0,0.0
14.576054573059082,18.66809463500977,-0.9606142044067384,-0.0,-0.0,-1.0,0.0950642756605315,1.0,0.0
14.830431938171388,18.750646591186523,-0.9725353717803956,0.0086032874430145,-0.6131521178369304,-0.7899180108323014,0.0441816876687655,3.0,0.0
13.960166931152344,18.51396942138672,-0.9282677173614502,-0.0,-0.0,-1.0,0.0368706361378822,1.0,0.0
14.221446990966797,18.635780334472656,-0.929811716079712,-0.0,-0.0,-1.0,0.1918068594401351,1.0,0.0
14.49180030822754,18.74612808227539,-0.9357695579528807,-0.0,-0.0,-1.0,0.172340216343635,2.0,0.0
13.437429428100586,18.416522979736328,-0.8996069431304932,-0.0,-0.0,-1.0,0.1444760531888943,2.0,0.0
13.667821884155272,18.52016830444336,-0.8992092609405518,0.5818716626209365,-0.8026695443639846,-0.1309464424459887,0.0488729846584287,3.0,0.0
13.294815063476562,18.372976303100582,-0.896265983581543,-0.0,-0.0,-1.0,0.1664447109499086,1.0,0.0
12.854971885681152,18.27509117126465,-0.8806679248809814,-0.0,-0.0,-1.0,0.1202188906066983,1.0,0.0
12.725214958190918,19.171295166015625,-0.6815431118011475,-0.0,-0.0,-1.0,0.0589078803052683,1.0,0.0
12.852989196777344,19.23226547241211,-0.6790893077850342,-0.0,-0.0,-1.0,0.0991798497348017,2.0,0.0
14.292743682861328,18.943790435791016,-1.0306315422058103,-0.0,-0.0,-1.0,0.1575800088790973,2.0,0.0
14.540445327758787,19.066650390625,-1.0357747077941897,-0.0,-0.0,-1.0,0.1642582876233541,1.0,0.0
14.934934616088867,19.269800186157227,-1.0445098876953125,-0.0,-0.0,-1.0,0.1393659682245416,1.0,0.0
15.16406536102295,19.457347869873047,-1.0370769500732422,0.4933336656463373,-0.0572826662341851,-0.8679519517168277,0.1442733650989498,4.0,0.0
13.76618480682373,18.83885383605957,-0.9915826320648192,-0.0,-0.0,-1.0,0.1381943344570097,1.0,0.0
14.078060150146484,18.95015335083008,-1.0040926933288574,-0.0,-0.0,-1.0,0.107641284077919,1.0,0.0
13.511611938476562,19.0019588470459,-0.9296503067016602,-0.0,-0.0,-1.0,0.1213532993361219,2.0,0.0
13.25822925567627,19.49100112915039,-0.8004295825958252,-0.0,-0.0,-1.0,0.1416357724752521,2.0,0.0
13.911613464355469,20.393497467041016,-1.1807546615600586,-0.0,-0.0,-1.0,0.1400886568063139,1.0,0.0
14.103799819946287,20.56367874145508,-1.1661436557769775,-0.0,-0.0,-1.0,0.221283503677431,1.0,0.0
12.960920333862305,19.496307373046875,-0.7684211730957031,-0.0,-0.0,-1.0,0.1194095397100789,2.0,0.0
13.609166145324709,20.44024658203125,-1.1303248405456543,-0.0,-0.0,-1.0,0.1333673576967172,1.0,0.0
14.005134582519531,20.55204200744629,-1.155346155166626,-0.0,-0.0,-1.0,0.1857111484844096,1.0,0.0
13.111374855041504,20.42280960083008,-1.0734531879425049,-0.0,-0.0,-1.0,0.1178233825353475,1.0,0.0
13.473865509033203,18.314455032348633,-0.5161128044128418,-0.0,-0.0,-1.0,0.1472973156396902,1.0,0.0
12.933077812194824,19.57346534729004,-0.7495288848876953,-0.0,-0.0,-1.0,0.0943088070601871,2.0,0.0
13.16381549835205,19.579204559326172,-0.7720160484313965,-0.0496635902636894,-0.6200435195261857,0.7829939729625643,0.0843030853297815,5.0,0.0
14.767664909362791,19.3272705078125,-1.077441930770874,-0.0,-0.0,-1.0,0.0697838489511538,1.0,0.0
15.086403846740724,19.416475296020508,-1.0890944004058838,-0.0,-0.0,-1.0,0.1265267220748832,1.0,0.0
13.852134704589844,19.10923194885254,-1.0454645156860352,-0.0,-0.0,-1.0,0.0717811410664255,2.0,0.0
14.163529396057127,19.225515365600582,-1.0454299449920654,-0.0,-0.0,-1.0,0.0342935960470054,1.0,0.0
13.446807861328123,19.273454666137695,-0.97698712348938,-0.0,-0.0,-1.0,0.0546360092724459,1.0,0.0
13.57362174987793,19.20053482055664,-1.003042459487915,-0.0,-0.0,-1.0,0.0604567411050955,1.0,0.0
12.721428871154783,19.3511905670166,-0.9089767932891846,-0.0,-0.0,-1.0,0.1242752212531685,1.0,0.0
12.87545394897461,19.52027130126953,-0.880563497543335,-0.0,-0.0,-1.0,0.0467756809301626,1.0,0.0
13.255766868591309,19.60471534729004,-0.8881030082702637,-0.0,-0.0,-1.0,0.0963560848465124,2.0,0.0
12.959953308105469,19.591716766357425,-0.8700931072235107,-0.0,-0.0,-1.0,0.0970843043869369,2.0,0.0
13.86927318572998,20.620391845703125,-1.1969728469848633,-0.0,-0.0,-1.0,0.1388885314689025,2.0,0.0
13.034016609191896,20.49365234375,-1.1553194522857666,-0.0,-0.0,-1.0,0.1424954873925035,1.0,0.0
13.31370449066162,20.561737060546875,-1.161080837249756,-0.0,-0.0,-1.0,0.0593793569454116,1.0,0.0
13.633638381958008,20.611616134643555,-1.1767642498016355,-0.0,-0.0,-1.0,0.1374242298585166,1.0,0.0
12.816436767578123,20.482328414916992,-1.1412022113800049,-0.0,-0.0,-1.0,0.1856831675560022,1.0,0.0
14.147956848144531,20.255268096923828,-0.815396785736084,0.4233996797951974,0.0069389749689245,-0.9059164209659216,0.1826328422203159,3.0,0.0
14.33002471923828,20.230369567871097,-0.8374969959259033,-0.0,-0.0,-1.0,0.1886736329154761,1.0,0.0
13.088224411010742,19.68682861328125,-0.857496976852417,-0.0,-0.0,-1.0,0.1156383720500935,1.0,0.0
15.091042518615724,19.590641021728516,-1.1183838844299316,-0.0,-0.0,-1.0,0.040701477322002,1.0,0.0
13.491304397583008,19.456897735595703,-1.007636547088623,-0.0,-0.0,-1.0,0.0568763858175896,1.0,0.0
13.75556755065918,19.351028442382812,-1.053253412246704,-0.0,-0.0,-1.0,0.0221247083770021,1.0,0.0
14.682754516601562,19.56011962890625,-1.0854334831237793,-0.0,-0.0,-1.0,0.0235405025275136,1.0,0.0
14.875082015991213,19.615379333496097,-1.0911715030670166,-0.0,-0.0,-1.0,0.0205147197622562,1.0,0.0
12.853424072265623,19.565351486206055,-0.9365277290344238,-0.0,-0.0,-1.0,0.0507443579968666,1.0,0.0
13.275344848632812,19.581459045410156,-0.9621546268463136,-0.461507575114338,0.8631832622012121,-0.2047569631728236,0.1309759764890161,3.0,0.0
13.619409561157228,19.56965446472168,-0.9909191131591796,-0.0,-0.0,-1.0,0.0334899415350165,2.0,0.0
15.014989852905272,18.626638412475582,-0.7716207504272461,-0.0,-0.0,-1.0,0.1597736123982262,2.0,0.0
15.092756271362305,18.741535186767575,-0.7557623386383057,-0.0,-0.0,-1.0,0.1638156258008999,1.0,0.0
13.002199172973633,19.706707000732425,-0.9129774570465088,-0.0,-0.0,-1.0,0.0916063485852668,1.0,0.0
13.911050796508787,20.25500869750977,-0.853938102722168,-0.0,-0.0,-1.0,0.1776236461193877,1.0,0.0
14.20233917236328,20.3192081451416,-0.8645455837249756,0.6875139769563813,0.668554775407714,0.2834767076307367,0.1538429519447793,3.0,0.0
12.806682586669922,18.18955993652344,-0.8533885478973389,-0.0,-0.0,-1.0,0.1494520154828867,2.0,0.0
13.067055702209473,18.21018409729004,-0.8653631210327148,-0.0,-0.0,-1.0,0.1106660260098762,1.0,0.0
13.475921630859377,18.294923782348633,-0.875377893447876,-0.0,-0.0,-1.0,0.1568240711457248,1.0,0.0
13.762086868286133,18.32720947265625,-0.88983154296875,-0.0,-0.0,-1.0,0.0483423531469574,1.0,0.0
14.219392776489258,18.379974365234375,-0.9159197807312012,-0.0,-0.0,-1.0,0.1007660319329474,1.0,0.0
14.527297973632812,18.384258270263672,-0.9418647289276124,-0.0,-0.0,-1.0,0.0685426213948341,2.0,0.0
13.960121154785156,18.41820526123047,-0.8864331245422363,-0.0,-0.0,-1.0,0.0584201957492055,2.0,0.0
14.352659225463867,18.447261810302734,-0.9133033752441406,-0.0,-0.0,-1.0,0.1430249934821497,1.0,0.0
14.681737899780272,18.528919219970703,-0.9261739253997804,-0.0,-0.0,-1.0,0.0301730230534573,2.0,0.0
14.222119331359863,18.565114974975582,-0.877554178237915,-0.0,-0.0,-1.0,0.1769862027998472,1.0,0.0
14.804359436035156,18.684799194335938,-0.9056761264801024,-0.0,-0.0,-1.0,0.0726584550035946,1.0,0.0
14.92058563232422,18.744611740112305,-0.9046931266784668,-0.0,-0.0,-1.0,0.1704176823267523,2.0,0.0
15.108455657958984,18.94649887084961,-0.882300615310669,-0.0,-0.0,-1.0,0.1213146775565301,1.0,0.0
13.463075637817385,19.01799774169922,-1.0014171600341797,-0.0,-0.0,-1.0,0.1192756744052568,2.0,0.0
13.792807579040527,18.935352325439453,-1.0374631881713867,-0.0,-0.0,-1.0,0.1247248285321676,2.0,0.0
12.816038131713867,19.414682388305664,-0.8810982704162598,-0.0,-0.0,-1.0,0.1379667875612287,1.0,0.0
13.346357345581056,19.47602081298828,-0.8895139694213867,0.1132785386639678,0.911197282004972,-0.3960902497473362,0.2060399947345049,4.0,0.0
14.196435928344728,18.992210388183594,-1.0472900867462158,-0.0,-0.0,-1.0,0.1412423890456452,1.0,0.0
14.628146171569824,19.05311584472656,-1.060776948928833,-0.0,-0.0,-1.0,0.1285474580003636,2.0,0.0
14.854186058044434,19.18744468688965,-1.0455005168914795,-0.0,-0.0,-1.0,0.0847626562761047,2.0,0.0
15.100892066955566,19.286399841308594,-1.0411393642425537,-0.0,-0.0,-1.0,0.1277496646524689,2.0,0.0
12.883204460144045,20.456283569335938,-1.1200172901153564,-0.0,-0.0,-1.0,0.1856831675560022,1.0,0.0
13.088358879089355,20.481746673583984,-1.122716188430786,-0.0,-0.0,-1.0,0.1318619784585663,1.0,0.0
13.363555908203123,20.456741333007812,-1.1438698768615725,-0.0,-0.0,-1.0,0.0581003582640955,1.0,0.0
13.763909339904783,20.41521644592285,-1.1786036491394043,-0.0,-0.0,-1.0,0.0977010963988818,1.0,0.0
14.025381088256836,20.48986434936523,-1.1757614612579346,-0.0,-0.0,-1.0,0.1714577437458962,1.0,0.0
15.051461219787598,20.607852935791016,-1.2257130146026611,-0.0,-0.0,-1.0,0.1307028280157743,2.0,0.0
13.132625579833984,18.17616271972656,-0.6273190975189209,-0.0,-0.0,-1.0,0.1007625661236783,2.0,0.0
12.973154067993164,19.55950164794922,-0.8536367416381836,-0.0,-0.0,-1.0,0.1073679392687481,2.0,0.0
13.155960083007812,19.666738510131836,-0.8365211486816406,-0.4054689390086308,-0.6232853127160125,-0.6686631128241767,0.06273859771406,5.0,0.0
12.74394989013672,19.396060943603516,-0.8500192165374756,-0.0,-0.0,-1.0,0.1029830124136574,1.0,0.0
13.263017654418944,19.03631591796875,-0.9593093395233154,-0.0,-0.0,-1.0,0.092372355803827,1.0,0.0
13.511898040771484,19.018997192382812,-0.9767029285430908,-0.0,-0.0,-1.0,0.1050282149000295,1.0,0.0
13.791143417358398,18.947465896606445,-1.0098161697387695,-0.0,-0.0,-1.0,0.1215076378940763,2.0,0.0
13.31169891357422,19.377986907958984,-0.880791187286377,-0.6148311843748342,0.7274080228012989,0.3047296885512529,0.156078186614491,3.0,0.0
14.054285049438477,19.013858795166016,-1.0107791423797607,-0.0,-0.0,-1.0,0.1097788791336485,1.0,0.0
14.326980590820312,18.995174407958984,-1.0337512493133545,-0.0,-0.0,-1.0,0.0962907077070378,2.0,0.0
14.588736534118652,19.11129570007324,-1.0257222652435305,-0.0,-0.0,-1.0,0.1393975132171767,2.0,0.0
14.883766174316406,19.19070053100586,-1.0304200649261477,-0.0,-0.0,-1.0,0.0855703034974704,2.0,0.0
15.120959281921388,19.358795166015625,-1.011284112930298,-0.0,-0.0,-1.0,0.1675793346841776,2.0,0.0
13.105871200561523,18.21179962158203,-0.6028146743774414,-0.0,-0.0,-1.0,0.0859333323324908,1.0,0.0
12.87809944152832,19.54207992553711,-0.8209812641143799,-0.0,-0.0,-1.0,0.0632632331883833,2.0,0.0
13.03332805633545,19.662931442260746,-0.7994081974029541,-0.3826587052572211,-0.4112405533802105,0.8273170628884706,0.0989711522637393,3.0,0.0
13.381421089172363,18.9679012298584,-0.9669976234436036,-0.0,-0.0,-1.0,0.1181825151893683,1.0,0.0
13.696218490600586,18.829689025878903,-1.010901689529419,-0.0,-0.0,-1.0,0.1538055947692526,1.0,0.0
13.967365264892578,18.875879287719727,-1.0100271701812744,-0.0,-0.0,-1.0,0.1068174984843225,1.0,0.0
14.232275009155272,18.879241943359375,-1.020620822906494,-0.0,-0.0,-1.0,0.1367606689219557,2.0,0.0
14.534778594970703,18.944713592529297,-1.0196304321289062,-0.0,-0.0,-1.0,0.1910516408571814,1.0,0.0
14.838038444519045,19.168378829956055,-0.9821295738220216,-0.0,-0.0,-1.0,0.1086824193225112,1.0,0.0
15.00990867614746,19.102886199951172,-1.0082347393035889,-0.0,-0.0,-1.0,0.0612369529630332,1.0,0.0
12.860278129577637,19.5162353515625,-0.8201460838317871,-0.0,-0.0,-1.0,0.0652402609464116,2.0,0.0
13.22572135925293,19.42632484436035,-0.850522518157959,-0.0,-0.0,-1.0,0.1807941155235809,1.0,0.0
13.06015968322754,19.656902313232425,-0.7899947166442871,0.6665572121907749,-0.1491045419805768,-0.7303898400424423,0.1131540103069933,4.0,0.0
13.12803077697754,19.589378356933594,-0.8081450462341309,-0.4130290711083373,-0.633350720349442,0.6544263529628277,0.0620733610790898,5.0,0.0
13.146316528320312,18.229270935058594,-0.8210513591766357,-0.0,-0.0,-1.0,0.0863364189963435,2.0,0.0
12.768597602844238,19.586605072021484,-0.9711470603942872,-0.0,-0.0,-1.0,0.0507443579968664,1.0,0.0
13.434833526611328,18.248329162597656,-0.8273923397064209,-0.0,-0.0,-1.0,0.1411456681397662,2.0,0.0
13.66033172607422,18.219554901123047,-0.843369722366333,-0.0,-0.0,-1.0,0.0845883229618587,2.0,0.0
13.115365982055664,19.90036964416504,-0.8993937969207764,-0.0,-0.0,-1.0,0.0764044393944661,1.0,0.0
12.945255279541016,19.73147201538086,-0.9381766319274902,-0.0,-0.0,-1.0,0.0616752851801011,1.0,0.0
13.429301261901855,19.55091857910156,-1.0039639472961426,-0.2268223584621955,0.0479553267442915,-0.972754801755558,0.0737131046442557,4.0,0.0
13.99345588684082,18.320640563964844,-0.8359735012054443,-0.0,-0.0,-1.0,0.0471682549715731,1.0,0.0
13.330257415771484,19.83327865600586,-0.9252777099609376,-0.0,-0.0,-1.0,0.1206421805259667,2.0,0.0
13.690415382385254,19.455331802368164,-1.0411159992218018,-0.0,-0.0,-1.0,0.0241978136745425,1.0,0.0
13.950193405151367,19.397180557250977,-1.0694279670715332,-0.0,-0.0,-1.0,0.0178287515150958,1.0,0.0
14.352542877197266,18.37899398803711,-0.8413746356964111,-0.0,-0.0,-1.0,0.2317609936321407,1.0,0.0
14.580108642578123,18.296968460083008,-0.8728666305541992,-0.0,-0.0,-1.0,0.0502737724550404,1.0,0.0
14.11426067352295,19.430988311767575,-1.0695509910583496,-0.0,-0.0,-1.0,0.023470998200836,1.0,0.0
14.88604736328125,18.23587417602539,-0.90541410446167,-0.080277790074211,0.0278116223477687,-0.9963844589731344,0.0291384357914419,3.0,0.0
15.115745544433594,18.151744842529297,-0.9392526149749756,-0.0,-0.0,-1.0,0.034684460002939,1.0,0.0
14.290986061096191,20.373363494873047,-0.8322393894195557,-0.0,-0.0,-1.0,0.151302046202668,2.0,0.0
14.704161643981934,19.491436004638672,-1.090686559677124,-0.0,-0.0,-1.0,0.026529350754808,1.0,0.0
15.00034523010254,19.622116088867188,-1.0778563022613523,-0.0,-0.0,-1.0,0.0389347860832112,2.0,0.0
12.942834854125977,19.68565368652344,-0.8647274971008301,-0.0,-0.0,-1.0,0.0677259521969066,1.0,0.0
13.189655303955078,19.884397506713867,-0.8248505592346191,-0.0,-0.0,-1.0,0.1594514933040617,1.0,0.0
13.388177871704102,19.709999084472656,-0.8856399059295654,-0.0,-0.0,-1.0,0.0988512735725472,2.0,0.0
13.52720832824707,19.52019691467285,-0.9473028182983398,-0.0,-0.0,-1.0,0.048429679687905,1.0,0.0
13.790462493896484,19.424938201904297,-0.992812156677246,-0.0,-0.0,-1.0,0.0248610509870723,1.0,0.0
14.070068359375,19.441463470458984,-1.01013445854187,-0.0,-0.0,-1.0,0.0182549767779513,1.0,0.0
14.6937255859375,19.54959297180176,-1.0358333587646484,-0.0,-0.0,-1.0,0.0518374036539762,1.0,0.0
15.007652282714844,19.63692092895508,-1.043160915374756,0.6243321526320275,-0.7572838888839303,0.1916519627519885,0.0975290666523623,3.0,0.0
12.758885383605955,19.01234436035156,-0.5616254806518555,-0.0,-0.0,-1.0,0.1277089449420756,1.0,0.0
12.970196723937988,18.194320678710938,-0.7677688598632812,-0.0,-0.0,-1.0,0.0599950450741963,2.0,0.0
13.263202667236328,18.278425216674805,-0.7655689716339111,-0.0684463773017863,0.9491379362500588,-0.3073308826090225,0.2458205447472219,4.0,0.0
13.359125137329102,18.207275390625,-0.7884626388549805,-0.0,-0.0,-1.0,0.1631904369649557,1.0,0.0
13.224322319030762,19.927921295166016,-0.8150219917297363,-0.0,-0.0,-1.0,0.1062034139685998,1.0,0.0
13.842878341674805,18.382400512695312,-0.7799642086029053,-0.0,-0.0,-1.0,0.0523442640864187,1.0,0.0
13.737269401550291,18.276126861572266,-0.797680139541626,-0.0,-0.0,-1.0,0.0668639007260423,1.0,0.0
14.093430519104004,18.48416519165039,-0.7746310234069824,-0.0,-0.0,-1.0,0.0954790574461836,2.0,0.0
14.14268970489502,18.40766334533691,-0.7967636585235596,-0.0,-0.0,-1.0,0.1078850892823176,2.0,0.0
14.144182205200195,20.393394470214844,-0.7554395198822021,-0.0,-0.0,-1.0,0.119826493017956,1.0,0.0
14.577681541442873,18.368886947631836,-0.8413405418395996,-0.0,-0.0,-1.0,0.0600746931661293,2.0,0.0
14.305907249450684,20.38489532470703,-0.7718770503997803,-0.0,-0.0,-1.0,0.1287347159375992,1.0,0.0
14.96069622039795,18.359378814697266,-0.8774864673614502,-0.0,-0.0,-1.0,0.0573246047333503,1.0,0.0
15.18075180053711,18.334291458129883,-0.9038727283477784,-0.0,-0.0,-1.0,0.0550692854806059,2.0,0.0
14.292407989501951,18.20087432861328,-0.8203225135803223,-0.0,-0.0,-1.0,0.1528032545307021,2.0,0.0
13.345824241638184,18.380542755126953,-0.6196897029876709,-0.0,-0.0,-1.0,0.2796632190349732,1.0,0.0
13.065813064575195,18.19817352294922,-0.2199892997741699,-0.0,-0.0,-1.0,0.0658587941303951,2.0,0.0
13.62725067138672,19.382953643798828,-0.9869371652603148,-0.0,-0.0,-1.0,0.0172152763109916,1.0,0.0
13.562488555908203,19.776350021362305,-1.0067778825759888,-0.0,-0.0,-1.0,0.0703860988540969,2.0,0.0
13.814456939697266,19.605209350585938,-0.985507607460022,-0.0,-0.0,-1.0,0.0471147960764093,1.0,0.0
14.17352294921875,19.804487228393555,-0.9736026525497437,-0.0,-0.0,-1.0,0.0739506499028034,1.0,0.0
14.412578582763672,20.02585792541504,-0.9695206880569458,-0.0,-0.0,-1.0,0.1498510972652555,1.0,0.0
14.46794891357422,18.366540908813477,-0.8990875482559204,-0.3563305058198988,-0.1945279361343264,-0.9138859079149072,0.1303278443405533,3.0,0.0
14.318733215332031,20.59848976135254,-1.121355652809143,-0.0,-0.0,-1.0,0.1042318927313902,1.0,0.0
14.433830261230469,20.12828063964844,-1.0992811918258667,-0.0,-0.0,-1.0,0.1160057207274513,2.0,0.0
14.621002197265623,19.69611358642578,-1.0743910074234009,-0.0,-0.0,-1.0,0.0587950445827473,1.0,0.0
14.63510513305664,19.498462677001953,-1.0675021409988403,-0.0,-0.0,-1.0,0.0295917150389461,1.0,0.0
14.888141632080078,19.327655792236328,-1.0468991994857788,-0.0,-0.0,-1.0,0.1766373956765406,2.0,0.0
15.084754943847656,19.16771125793457,-1.0301092863082886,-0.0,-0.0,-1.0,0.0919539696453477,1.0,0.0
13.030254364013672,18.747926712036133,-0.7590899467468262,-0.0,-0.0,-1.0,0.1020098135123548,1.0,0.0
13.115741729736328,19.000898361206055,-0.7965571880340576,-0.0,-0.0,-1.0,0.1765592268913028,1.0,0.0
12.957286834716797,18.687225341796875,-0.7971398830413818,-0.0,-0.0,-1.0,0.1146252932917607,2.0,0.0
14.49288558959961,20.376808166503903,-0.8312679529190063,-0.0,-0.0,-1.0,0.1788103637666217,1.0,0.0
13.42397689819336,19.701454162597656,-0.8755141496658325,-0.0,-0.0,-1.0,0.0881122154712632,2.0,0.0
13.206958770751951,19.15047836303711,-0.8759781122207642,-0.0,-0.0,-1.0,0.0822036264412381,1.0,0.0
13.130931854248049,18.965436935424805,-0.8764146566390991,-0.0,-0.0,-1.0,0.0978611801064448,1.0,0.0
14.42230987548828,18.495595932006836,-0.7949429750442505,-0.0,-0.0,-1.0,0.1113566833494338,1.0,0.0
14.333480834960938,18.255102157592773,-0.7951112985610962,-0.0,-0.0,-1.0,0.1517523963089136,2.0,0.0
14.63800048828125,20.573719024658203,-1.0194342136383057,-0.0,-0.0,-1.0,0.1224139755952969,1.0,0.0
14.586105346679688,20.457744598388672,-1.019991159439087,-0.0,-0.0,-1.0,0.157393019906184,2.0,0.0
14.405891418457031,20.306934356689453,-1.027690887451172,-0.0,-0.0,-1.0,0.1877316583484002,2.0,0.0
14.052238464355469,20.146533966064453,-1.0459187030792236,-0.0,-0.0,-1.0,0.1646370367373589,1.0,0.0
13.95050048828125,19.97559356689453,-1.048452854156494,-0.0,-0.0,-1.0,0.1115315965881207,2.0,0.0
12.884944915771484,19.203014373779297,-0.6524385213851929,-0.7323633973982466,0.02079457702818,-0.6805963853250447,0.1075069336430159,4.0,0.0
12.920272827148438,18.462324142456055,-0.7764623165130615,-0.0,-0.0,-1.0,0.104866317460405,1.0,0.0
12.739582061767578,18.191431045532227,-0.7924320697784424,-0.0,-0.0,-1.0,0.1647807058726818,2.0,0.0
13.80850601196289,19.880172729492188,-1.043075442314148,0.7515710754890393,0.0776736310683463,-0.655063146211804,0.0768231180078983,4.0,0.0
13.298625946044922,20.220909118652344,-1.0762203931808472,-0.0,-0.0,-1.0,0.0343787477363012,2.0,0.0
14.504890441894531,20.40669631958008,-0.9786452054977416,-0.0,-0.0,-1.0,0.1839301211700175,2.0,0.0
14.278209686279297,20.156919479370117,-1.0008901357650757,0.0073998620614174,0.8675988073676701,-0.4972097660903981,0.1020803855777173,3.0,0.0
15.029544830322266,20.466747283935547,-1.1287527084350586,-0.0,-0.0,-1.0,0.1342553205459618,1.0,0.0
15.113824844360352,20.115163803100582,-1.1266415119171145,-0.0,-0.0,-1.0,0.0248626370205387,1.0,0.0
15.18208122253418,19.989173889160156,-1.122685194015503,-0.0,-0.0,-1.0,0.0291971827530886,1.0,0.0
15.16607666015625,20.212013244628903,-1.1207740306854248,-0.0,-0.0,-1.0,0.0369916191946946,1.0,0.0
14.488525390625,20.434741973876953,-1.0644527673721311,-0.0,-0.0,-1.0,0.1129836192312888,1.0,0.0
15.175333023071287,19.530900955200195,-1.024490237236023,-0.0,-0.0,-1.0,0.1499112156768364,2.0,0.0
14.822126388549805,19.71547508239746,-1.0510245561599731,-0.0,-0.0,-1.0,0.0410300926417009,1.0,0.0
14.573068618774414,19.989545822143555,-1.0666195154190063,-0.4892329073233418,-0.0533406069066379,-0.870520500647045,0.1020634132377487,3.0,0.0
14.457355499267578,20.572982788085938,-1.0887924432754517,-0.0,-0.0,-1.0,0.1627402637801366,1.0,0.0
14.59034538269043,20.019367218017575,-1.078156352043152,-0.5703327330820309,-0.2072581398855623,-0.7948362328343858,0.0824056824693153,4.0,0.0
14.405435562133787,20.270736694335938,-1.093605637550354,-0.0,-0.0,-1.0,0.1882246355795098,2.0,0.0
15.100210189819336,19.596464157104492,-1.0352095365524292,0.5249322539845233,-0.8493385683754744,0.0554087086713598,0.1171060580627297,3.0,0.0
14.630115509033203,19.804502487182617,-1.075172781944275,-0.0,-0.0,-1.0,0.1073038094044725,2.0,0.0
13.098892211914062,18.210689544677734,-0.1685707569122314,-0.0,-0.0,-1.0,0.0627886793385019,1.0,0.0
14.489078521728516,20.499433517456055,-0.9206241369247437,0.3667104255215613,0.9233287675542908,0.1139624974299441,0.1186381200844779,4.0,0.0
14.384292602539062,20.375194549560547,-0.929965615272522,0.1137846779939044,-0.5250867911158985,-0.8434079136748908,0.1354571909018226,6.0,0.0
14.214149475097656,20.266143798828125,-0.9447592496871948,-0.0,-0.0,-1.0,0.1263619976046583,2.0,0.0
14.131338119506836,20.18524932861328,-0.9521132707595824,0.0673925230477233,0.9324236272466622,0.3550273611842336,0.1137980989748632,6.0,0.0
13.110685348510742,20.220043182373047,-1.0377482175827026,-0.0,-0.0,-1.0,0.0568038752263671,1.0,0.0
13.472564697265623,19.87414169311523,-1.009217381477356,-0.3503207594926419,0.5525469691616124,-0.7562851395729093,0.1024276255649045,3.0,0.0
14.774333953857422,18.47188186645508,-0.9088844060897828,0.368637501283916,-0.0505149423873243,-0.9281996731537652,0.0311387020351454,4.0,0.0
14.364276885986328,18.7935848236084,-0.9411071538925172,-0.0,-0.0,-1.0,0.2283305160552732,2.0,0.0
14.864477157592772,18.262466430664062,-0.902933955192566,-0.1259253783265352,0.1351693536344765,-0.9827878941721642,0.0246706677412581,4.0,0.0
13.11785125732422,20.265893936157227,-1.131360650062561,-0.0,-0.0,-1.0,0.0624301543362059,1.0,0.0
13.25485610961914,20.03529357910156,-1.121287226676941,-0.0,-0.0,-1.0,0.0401827793524139,1.0,0.0
14.502201080322266,20.417701721191406,-1.00259268283844,-0.0,-0.0,-1.0,0.1488851396846087,2.0,0.0
14.372169494628906,20.2098445892334,-1.0165396928787231,0.3900913497881846,0.0165108135645749,-0.920628118110602,0.1426554178175929,3.0,0.0
13.548500061035156,19.773218154907227,-1.09724223613739,-0.0,-0.0,-1.0,0.042039985400909,1.0,0.0
15.064956665039062,18.48579788208008,-0.974039912223816,0.8830699668986396,-0.2145976030300887,-0.4172952220375588,0.0777666702031308,3.0,0.0
14.83763313293457,18.43465232849121,-0.9959512948989868,-0.0,-0.0,-1.0,0.0321543111961556,1.0,0.0
14.379247665405272,18.742189407348633,-1.0339523553848269,-0.0,-0.0,-1.0,0.1269662404841164,1.0,0.0
14.879344940185549,18.33574485778809,-0.9936000108718872,-0.0,-0.0,-1.0,0.0315822429025214,1.0,0.0
15.012968063354492,20.589675903320312,-1.125850796699524,-0.0,-0.0,-1.0,0.1169462583253918,1.0,0.0
15.123842239379885,20.24979591369629,-1.1206568479537964,-0.0,-0.0,-1.0,0.0404420354532859,2.0,0.0
12.954216003417969,19.273128509521484,-0.7167922258377075,-0.0,-0.0,-1.0,0.0984973620973795,2.0,0.0
12.911100387573242,19.055246353149418,-0.7245792150497437,-0.398084627785352,-0.4208506136744536,-0.8151155685489229,0.1199438759546809,4.0,0.0
12.958009719848633,18.191808700561523,-0.7379568815231323,-0.6851252128079971,-0.6470311706298301,-0.3345954378173567,0.0850728779715068,3.0,0.0
14.99156379699707,20.308982849121097,-1.1036767959594729,-0.0,-0.0,-1.0,0.0570700810499357,1.0,0.0
14.975435256958008,19.942323684692383,-1.1062636375427246,-0.0,-0.0,-1.0,0.0301387970283104,1.0,0.0
15.158069610595703,19.832984924316406,-1.0865771770477295,-0.0,-0.0,-1.0,0.0238376316065809,2.0,0.0
13.173036575317385,20.30379867553711,-1.046796798706055,-0.0,-0.0,-1.0,0.0576709271091578,1.0,0.0
13.55660629272461,19.802295684814453,-1.0121607780456543,-0.0,-0.0,-1.0,0.0501398906521064,2.0,0.0
13.302515029907228,20.064851760864254,-1.0358357429504397,-0.0,-0.0,-1.0,0.053579628529221,2.0,0.0
13.60584831237793,19.668432235717773,-1.0086290836334229,-0.0,-0.0,-1.0,0.0498124085932284,1.0,0.0
14.51515007019043,20.40180206298828,-0.9050984382629396,-0.2007424216686565,0.1663934756778423,-0.9654095977327192,0.2012209095151574,3.0,0.0
14.458269119262695,20.415760040283203,-0.9109370708465576,-0.3585550703205946,0.7102858504818148,-0.6057493476288017,0.1501252103717743,3.0,0.0
14.336645126342772,20.2429256439209,-0.9253158569335938,0.4839146082592047,-0.3274992589929018,-0.8115238057336582,0.1957786897351511,6.0,0.0
14.266246795654297,18.77652931213379,-0.9513099193572998,-0.0,-0.0,-1.0,0.2215001544935094,2.0,0.0
14.869211196899414,18.295251846313477,-0.895165205001831,-0.1275900995814573,0.2460947494838105,-0.9608111889259484,0.0306012990394448,3.0,0.0
14.705251693725586,18.54850196838379,-0.9083616733551024,-0.0,-0.0,-1.0,0.0285278677470186,2.0,0.0
14.36178207397461,18.681982040405273,-0.942659854888916,-0.0,-0.0,-1.0,0.1374172267990372,1.0,0.0
13.048126220703123,19.45967483520508,-0.7241190671920776,-0.5304346571864038,-0.3699888735132559,-0.7627236117571916,0.141992142712298,3.0,0.0
12.974328994750977,19.189903259277344,-0.733468770980835,-0.0,-0.0,-1.0,0.102761159120342,1.0,0.0
12.853586196899414,18.892078399658203,-0.7477140426635742,-0.6650355439138464,0.5373158499276042,-0.5186708038320561,0.1834539883984154,6.0,0.0
13.059295654296877,18.190282821655273,-0.7374730110168457,-0.0359897513212023,0.2406746840832799,-0.969938366207488,0.1376212464958926,8.0,0.0
13.043304443359377,19.375017166137695,-0.7282941341400146,0.2276389022383017,0.9304352733788854,-0.2871771791770713,0.1265428737824394,4.0,0.0
12.951128005981444,19.051082611083984,-0.7414443492889404,-0.2516806589692967,-0.4898427627620796,-0.8346921071091982,0.0884051350921669,5.0,0.0
13.444515228271484,18.30805015563965,-0.7027556896209717,-0.0,-0.0,-1.0,0.2089790942628875,2.0,0.0
13.102476119995115,18.170825958251953,-0.739194393157959,0.1609534648214548,0.3154691704641831,-0.9351861764636004,0.114667827411603,9.0,0.0
14.439130783081056,20.523868560791016,-0.9187183380126952,0.5743063549830164,0.758984596794114,-0.3067810171040533,0.1373917813034522,3.0,0.0
14.297811508178713,20.280298233032227,-0.940028190612793,0.4132414912547953,0.8529945040075138,-0.3187975000505627,0.1822898746848276,3.0,0.0
15.183145523071287,19.392314910888672,-0.8464961051940918,-0.0,-0.0,-1.0,0.1670050853978032,1.0,0.0
13.661237716674805,19.93095016479492,-1.024824619293213,-0.0,-0.0,-1.0,0.1353651080969323,2.0,0.0
13.360950469970703,20.20813369750977,-1.056955337524414,-0.0,-0.0,-1.0,0.0224275157259062,1.0,0.0
13.65286636352539,19.68447494506836,-1.030587911605835,-0.0,-0.0,-1.0,0.0699754217766233,2.0,0.0
14.53533935546875,18.747661590576172,-0.9408257007598876,-0.1172922197324442,0.0622190262706092,-0.9911464714966068,0.161208385494557,3.0,0.0
14.918792724609377,18.332454681396484,-0.9029557704925536,-0.0,-0.0,-1.0,0.0387583567822206,1.0,0.0
14.715078353881836,18.621950149536133,-0.9213542938232422,-0.0,-0.0,-1.0,0.0294429014551792,1.0,0.0
14.971378326416016,20.52796936035156,-1.0717657804489136,-0.0,-0.0,-1.0,0.1626085562886337,1.0,0.0
14.981246948242188,20.082012176513672,-1.070398449897766,-0.0,-0.0,-1.0,0.0199966239670412,1.0,0.0
14.838996887207031,20.331253051757812,-1.0899661779403689,-0.019242552124312,0.723298037290223,-0.6902678273249119,0.0807271156873744,3.0,0.0
