x,y,z,nx,ny,nz,curvature,density
26.1431884765625,6.92889404296875,-0.7974936962127686,-0.0,-0.0,-1.0,0.2194386511624608,2.0
27.09924697875977,7.284137725830078,-0.8375985622406006,-0.0,-0.0,-1.0,0.1343895252242883,2.0
25.68446922302246,6.130849838256836,-0.875002384185791,-0.0,-0.0,-1.0,0.0819115503523468,2.0
27.250465393066406,7.132641792297363,-0.7392053604125977,-0.0,-0.0,-1.0,0.1317004337169464,1.0
26.22048568725586,6.513887405395508,-0.9852752685546876,-0.5346497634958008,0.1551949995812651,-0.8307009946417879,0.0832145911028607,3.0
27.389402389526367,7.264301300048828,-0.8556525707244873,0.4179981191649687,0.0229977470623835,-0.9081567463850078,0.2157852810787439,8.0
27.644184112548828,8.051397323608398,-0.8056573867797852,-0.0,-0.0,-1.0,0.0529510070720673,1.0
27.076709747314453,7.664373397827148,-1.0329980850219729,-0.0,-0.0,-1.0,0.0271545143764912,1.0
25.71086883544922,6.525871276855469,-0.6833009719848633,-0.0,-0.0,-1.0,0.0911825474747267,1.0
27.129070281982425,7.262628555297852,-0.8667511940002441,-0.6775347636673895,0.0676767910300756,-0.7323704636166362,0.1156531724220195,4.0
25.49622344970703,6.170849800109863,-0.9228878021240234,-0.0,-0.0,-1.0,0.0486062902367213,1.0
26.705821990966797,7.601141929626465,-0.9763591289520264,0.4926873408415335,-0.8655832927985085,-0.0895809544634907,0.0809338888804768,3.0
26.14461898803711,6.780714988708496,-0.7798705101013184,0.3078944579672045,0.439857887669062,-0.8436385727362115,0.1077295603016668,3.0
27.555747985839844,7.115932464599609,-1.0365638732910156,-0.0,-0.0,-1.0,0.0602529254849293,1.0
27.69601058959961,7.717735290527344,-0.9975972175598145,-0.0,-0.0,-1.0,0.0710405084644256,1.0
25.677112579345703,6.184748649597168,-0.9308254718780518,-0.5205420763577169,0.5200014334103993,-0.6772255576928022,0.0846066778560933,3.0
27.45108985900879,6.0531158447265625,-0.8795547485351562,-0.4887884842395691,0.6161342634613421,-0.6176280329322289,0.031881059749449,4.0
26.63523292541504,6.829815864562988,-0.7518637180328369,0.038522093649189,0.8879322284084958,-0.4583583816779246,0.1008323734324701,6.0
26.8651123046875,5.957629203796387,-0.9113433361053468,0.5487410655222243,-0.7551649672550744,-0.358621130498715,0.0141843491245446,3.0
26.01914978027344,6.867932319641113,-0.8463726043701172,-0.0,-0.0,-1.0,0.1456279034827254,2.0
26.815698623657227,6.842586517333984,-0.7691164016723633,0.413266108657531,-0.4594178935227701,-0.7862228199093195,0.1462533214511732,5.0
26.924659729003903,6.025369644165039,-0.9382610321044922,-0.0,-0.0,-1.0,0.0166709119666018,2.0
27.696386337280273,6.050275802612305,-0.8685991764068604,0.8756522738188621,0.1551669500120735,-0.4573361050472695,0.1314569278516473,3.0
26.078201293945312,6.899993896484375,-0.8881371021270752,-0.0,-0.0,-1.0,0.2722698514406166,2.0
26.9523983001709,6.957906723022461,-0.7859251499176025,-0.0243204288064305,0.3929542395833044,-0.9192363582540556,0.1350815527372261,3.0
26.665725708007812,7.204031944274902,-0.9813201427459716,-0.0,-0.0,-1.0,0.0873739884790574,2.0
26.654327392578125,7.55485725402832,-0.9351062774658204,-0.0,-0.0,-1.0,0.1449659547505609,2.0
26.882827758789062,7.258934020996094,-1.027584433555603,0.720321466064028,-0.6359698299293443,-0.2769103843249842,0.1256088946880083,3.0
26.62699317932129,8.016684532165527,-0.973147749900818,0.0995568293465981,-0.0003281552034263,-0.995031823634106,0.0304924777373565,3.0
25.22561264038086,7.438567161560059,-0.8872470855712891,-0.0,-0.0,-1.0,0.0749444232784164,1.0
26.604766845703125,6.7815117835998535,-0.7306588888168335,0.6328874056663321,0.5777040784424247,-0.5154721423121992,0.1214135971955298,3.0
25.73900032043457,7.383305072784424,-0.9539302587509156,-0.0,-0.0,-1.0,0.0449549102190462,1.0
26.56058692932129,8.029809951782227,-0.9542289972305298,0.915973836524254,0.0954723050331501,0.3897139589169171,0.0396429611229915,3.0
26.154335021972656,8.132650375366211,-0.9413422346115112,-0.0,-0.0,-1.0,0.0226346862611594,1.0
27.14590072631836,7.2887492179870605,-0.8801966905593872,0.3112259166735128,0.5951993430258685,-0.7408617758072733,0.1476284639205136,4.0
26.46173095703125,7.477404594421387,-0.9566096067428588,-0.0,-0.0,-1.0,0.0319774602807471,2.0
26.712739944458008,6.8311357498168945,-0.741910457611084,-0.0411171396037866,0.2286089279243639,-0.9726496485909382,0.1144719954197991,5.0
26.147348403930664,6.885822772979736,-0.8065979480743408,-0.9569366132033852,-0.145518957029086,0.2511902694293739,0.2207809280003782,3.0
26.432876586914062,5.814777374267578,-0.8765764236450195,0.6156321900736198,0.7834815396527248,-0.0845794512192781,0.1336955729345918,3.0
25.666080474853516,7.415079116821289,-0.9521992206573486,-0.768402799023005,0.5140951259414644,-0.3811342807159188,0.0516213728285565,4.0
27.4039363861084,6.384218215942383,-0.8863480091094971,-0.0,-0.0,-1.0,0.045282658380153,2.0
27.696636199951172,6.153079986572266,-0.8888111114501953,-0.0,-0.0,-1.0,0.1099918723333099,1.0
27.330944061279297,7.264508247375488,-0.7693541049957275,-0.6993176577238802,0.09534183511195,-0.7084241300753891,0.1495491263673355,3.0
26.48171615600586,7.076784133911133,-0.8251771926879883,-0.0,-0.0,-1.0,0.1853078458565276,1.0
25.62563133239746,7.065947532653809,-0.9315648078918456,-0.0,-0.0,-1.0,0.0451768304967678,2.0
27.085275650024418,6.992354393005371,-0.7672405242919922,0.1811642897430958,-0.3878112314127586,-0.9037598956094474,0.0953854768808233,7.0
25.93731689453125,7.657036781311035,-1.0143890380859375,-0.0,-0.0,-1.0,0.0518047165548021,1.0
25.721900939941406,7.818228721618652,-1.0205037593841553,-0.8809347428034632,-0.4596028693528112,-0.112779348306589,0.0201351702924055,3.0
25.440357208251953,6.140979766845703,-0.9738008975982666,-0.6978032929605664,-0.715405213745295,-0.0355801135388665,0.0430825468944541,3.0
25.456945419311523,6.1240315437316895,-0.9583557844161988,-0.0,-0.0,-1.0,0.0527564540560002,2.0
25.981969833374023,5.825257301330566,-1.0311797857284546,-0.0,-0.0,-1.0,0.1253262125062599,1.0
26.047605514526367,7.932467937469482,-0.9971809387207032,-0.0,-0.0,-1.0,0.0333339496798894,1.0
26.45235252380371,6.437373161315918,-0.9808776378631592,-0.4889646661626308,0.5341449443966647,-0.6896395679048231,0.0474252965075817,4.0
26.998462677001953,7.295137405395508,-1.0399532318115234,-0.0,-0.0,-1.0,0.0753483647052226,1.0
27.078948974609375,7.100618839263916,-0.763953685760498,-0.474461806503025,-0.3655687392686215,-0.8007780535450736,0.0706295646181185,4.0
27.3723201751709,6.430027484893799,-0.8852696418762207,-0.0,-0.0,-1.0,0.0303159137292405,2.0
26.10862159729004,6.826901912689209,-0.8233940601348877,-0.0,-0.0,-1.0,0.1468847334427679,2.0
27.161022186279297,7.0662736892700195,-0.7541294097900391,0.6373776872560316,0.0721636188836902,-0.7671649730649608,0.1423342479726169,5.0
27.344371795654297,7.274180889129639,-0.7813074588775635,-0.6993176577238802,0.09534183511195,-0.7084241300753891,0.1326679820573971,3.0
26.445003509521484,6.41783332824707,-0.9911136627197266,-0.2498632069578661,0.3079009039966379,-0.9180225548028674,0.0503619186925316,4.0
27.077024459838867,6.9620819091796875,-0.7906982898712158,-0.0346517217071197,0.5583347127425439,-0.8288917943431658,0.1418889855072772,8.0
26.08448600769043,5.745781421661377,-0.8987497091293335,-0.0,-0.0,-1.0,0.0625727909957777,1.0
26.535972595214844,6.368229389190674,-0.959746479988098,0.1084464517977126,-0.4845680532484953,-0.8680052815873011,0.0587411512448592,4.0
27.10492897033691,6.988804817199707,-0.7622803449630737,0.2962921076796386,0.5332444043075282,-0.7923770517887725,0.0976468917922269,3.0
26.280946731567383,6.578954696655273,-0.8879519701004028,-0.0,-0.0,-1.0,0.1687959061974261,2.0
27.472938537597656,5.749435901641846,-0.690709114074707,-0.0,-0.0,-1.0,0.1867347556291173,2.0
27.043949127197266,6.93193244934082,-0.7930082082748413,0.7098651035748104,-0.6342230746820761,0.3063537600022846,0.1442533617758166,6.0
27.36780166625977,7.240275382995605,-0.8601697683334351,-0.8490094339615609,0.519044664603778,-0.0988717208842937,0.2338737623380677,4.0
27.6103515625,5.69929838180542,-0.7301678657531738,0.2786570342050222,0.6575028613894738,-0.7000287455188647,0.1979627090472678,4.0
26.268823623657227,6.4347429275512695,-0.924379587173462,-0.0,-0.0,-1.0,0.1396287726657083,2.0
25.41302490234375,8.038381576538086,-0.9973504543304444,-0.0,-0.0,-1.0,0.0356710134395445,1.0
27.694801330566406,6.833794116973877,-0.9631526470184326,-0.0,-0.0,-1.0,0.0659560080184241,1.0
26.80188369750977,6.790510177612305,-0.7699999809265137,-0.0,-0.0,-1.0,0.1486706521879041,2.0
27.642271041870117,7.272242546081543,-0.721163272857666,-0.0,-0.0,-1.0,0.1592606614078813,1.0
25.32255172729492,5.765402317047119,-0.8881651163101196,-0.0,-0.0,-1.0,0.0761982830259949,1.0
25.608295440673828,8.090543746948242,-1.0026521682739258,-0.001242549751816,-0.6263572439914009,-0.7795351556983249,0.1031274255666636,5.0
25.950908660888672,7.754993915557861,-0.9283850193023682,-0.8648634300492841,-0.1855811082612171,-0.4664449588321492,0.0975148690635664,4.0
26.66584014892578,6.822953224182129,-0.7710821628570557,-0.3592030382226756,-0.7330309156837134,-0.5776147972338452,0.1103636256396831,4.0
27.51422119140625,7.75572395324707,-1.005263328552246,-0.0,-0.0,-1.0,0.027768349515984,2.0
25.999794006347656,6.602362632751465,-0.6949996948242188,0.8599112822865974,-0.1355543772773046,0.4921154309683674,0.0893853515330649,4.0
26.638927459716797,6.754100799560547,-0.7194373607635498,-0.0,-0.0,-1.0,0.1066918858110359,2.0
26.409358978271484,6.678915977478027,-0.8255976438522339,-0.0881418819105902,0.4509741207207158,-0.8881741670941778,0.1205204252249617,3.0
26.650341033935547,7.330990314483643,-0.8622156381607056,-0.0,-0.0,-1.0,0.1233037807252736,1.0
27.46379280090332,6.07028865814209,-0.6429792642593384,0.4784040007005243,0.8468763498616245,0.2322284654360542,0.0744276110109426,4.0
26.398761749267575,6.749832630157471,-0.7898612022399902,-0.0,-0.0,-1.0,0.1142416578369429,1.0
25.813955307006836,6.548401832580566,-0.7246057987213135,0.722229447203678,-0.4272407558426976,0.543920915334969,0.0991364370253247,4.0
26.05895233154297,8.132083892822266,-0.3387778997421264,-0.0,-0.0,-1.0,0.0888499294045504,2.0
27.64157485961914,7.70145320892334,-1.033907175064087,-0.0,-0.0,-1.0,0.0434647461274314,1.0
25.477787017822266,7.140571594238281,-1.0316755771636963,-0.0,-0.0,-1.0,0.0501265428406184,1.0
27.419471740722656,7.255795478820801,-0.8279975652694702,0.4634365907240345,0.2800381369798124,-0.8407170559795728,0.2120379662198777,6.0
26.31981658935547,6.893612384796143,-0.7781485319137573,-0.7836135570053745,-0.5532459641113157,-0.28261050311679,0.1044544378960434,3.0
25.9967041015625,6.597102165222168,-0.7166364192962646,0.8599112822865974,-0.1355543772773046,0.4921154309683674,0.0893853515330648,4.0
26.131057739257812,7.018799781799316,-0.8451182842254639,-0.0,-0.0,-1.0,0.1881266142308453,1.0
25.287689208984375,7.070257663726807,-0.9781385660171508,-0.0,-0.0,-1.0,0.0757453799433394,2.0
27.550861358642575,5.864974021911621,-0.8384262323379517,0.4416481972933165,-0.6943298881797139,-0.5682014398150618,0.1989435975807172,3.0
26.876361846923828,6.9487128257751465,-0.7555779218673706,-0.5677559492000531,0.7545506247032912,-0.3290995850921414,0.0673240547352038,3.0
25.87228775024414,6.637257099151611,-0.71891188621521,-0.0,-0.0,-1.0,0.157747013686401,2.0
26.34375,6.875590801239014,-0.8092308044433594,-0.7752352865746203,-0.5693235589976037,-0.2736438115870129,0.0741860206723694,4.0
25.539642333984375,5.875633716583252,-0.7859327793121338,-0.0,-0.0,-1.0,0.2143077032355746,1.0
26.552989959716797,5.644835472106934,-0.9440858364105223,0.7927515224135916,0.2729802199482039,-0.5450016726836378,0.1506583678400952,3.0
26.36219787597656,6.407312870025635,-1.0178136825561523,-0.0,-0.0,-1.0,0.0622604036205411,2.0
27.489717483520508,5.640434741973877,-0.7351686954498291,-0.0,-0.0,-1.0,0.1552537119327713,1.0
25.72243881225586,5.86641788482666,-0.929740309715271,-0.0,-0.0,-1.0,0.0701687412460717,1.0
26.053739547729492,6.519536972045898,-0.9654959440231324,-0.0,-0.0,-1.0,0.1040271131097665,2.0
27.682109832763672,5.7659592628479,-0.8389555215835571,-0.1103197753495869,-0.8049426136208762,-0.5830068060872099,0.2252915350210657,4.0
25.26803398132324,7.346655368804932,-0.9901074171066284,-0.0,-0.0,-1.0,0.036189350995016,1.0
25.55431747436523,5.794859409332275,-0.7936865091323853,-0.3495921706067285,0.465527884207335,-0.8130615617995468,0.1594952085515495,4.0
26.21179962158203,5.9682817459106445,-0.9163004159927368,-0.0,-0.0,-1.0,0.0585738896192525,2.0
26.84290313720703,7.169555187225342,-0.9920746088027954,-0.5972732150266741,0.2990429503738235,-0.7442029430494206,0.0649779875400845,4.0
27.692302703857425,5.73285436630249,-0.7943569421768188,-0.8572131562014822,0.5146470341585178,-0.0180009740551779,0.2014757045246916,5.0
26.469207763671875,6.748183727264404,-0.7391395568847656,-0.3191682862132002,0.1462167362531426,-0.9363505065493412,0.1151185780949984,3.0
27.24968910217285,7.235949993133545,-0.8762491941452026,-0.8460402764523451,0.4279313471569845,0.3179474999757782,0.1054632183369592,4.0
25.80908966064453,6.892795085906982,-0.948933482170105,-0.0,-0.0,-1.0,0.0613212446025818,1.0
25.32898712158203,7.686445713043213,-1.0239020586013794,-0.0,-0.0,-1.0,0.0402139984719829,1.0
25.869630813598633,5.898219108581543,-0.7431418895721436,-0.0,-0.0,-1.0,0.1658019782567434,2.0
26.522632598876953,5.864981174468994,-0.8989945650100708,0.6627279975291698,-0.4725780463756956,-0.580914444109206,0.1213695406656374,3.0
26.297752380371097,6.706356525421143,-0.787244439125061,-0.4897834978880287,-0.3244651011605398,-0.8092184645233004,0.1243972630083665,5.0
25.22443389892578,7.698268890380859,-0.7249143123626709,-0.0,-0.0,-1.0,0.0562856882838386,1.0
27.1810302734375,8.113073348999023,-0.9461554288864136,0.1849922492007988,-0.6823577548030476,-0.7072239830462295,0.0315233746366342,3.0
27.66647720336914,5.739855766296387,-0.8140538930892944,-0.0305068645062897,-0.8469027584226085,-0.530871970435596,0.244059826546069,5.0
26.365835189819336,6.430073261260986,-1.0179247856140137,-0.3095322268220403,0.0448294869463635,-0.9498316259520498,0.0585205177201264,3.0
27.65283203125,7.225869178771973,-1.0453999042510986,-0.0,-0.0,-1.0,0.1350280764186298,1.0
26.484813690185547,6.738574981689453,-0.7459595203399658,0.5970049233359317,0.791854075637984,-0.1286555261470419,0.1129566217898397,6.0
27.252586364746097,7.249610900878906,-0.8945708274841309,-0.8412407167305705,0.4886708937173362,0.2313326914816313,0.1042579946164949,3.0
26.814224243164062,6.841947078704834,-0.7837719917297363,0.413266108657531,-0.4594178935227701,-0.7862228199093195,0.2065126690834043,5.0
27.560760498046875,5.935149192810059,-0.7399660348892212,-0.0,-0.0,-1.0,0.2801810973450798,1.0
26.501249313354492,6.754276275634766,-0.7491099834442139,-0.757747908697941,0.1362807620808327,-0.6381580217709123,0.1185343721220736,7.0
26.29505157470703,6.981966972351074,-1.0401551723480225,-0.0,-0.0,-1.0,0.0971137855646846,2.0
26.480937957763672,6.678258895874023,-0.8276302814483643,0.9417276866596254,0.1530913647480412,-0.299519612410094,0.1590766352575478,5.0
26.60987091064453,8.056466102600098,-0.9748740196228028,-0.0,-0.0,-1.0,0.0356075563341461,2.0
26.62187957763672,6.8247480392456055,-0.7669014930725098,0.038522093649189,0.8879322284084958,-0.4583583816779246,0.1060678950468368,6.0
27.07596015930176,8.027950286865234,-0.9991540908813475,-0.0,-0.0,-1.0,0.0426615661752529,2.0
26.825504302978516,6.887835502624512,-0.7819437980651855,-0.203615475658372,0.1324660432902416,-0.9700481871780612,0.1570640912559885,8.0
27.381908416748047,6.826846122741699,-1.041717529296875,-0.0,-0.0,-1.0,0.0358744978466368,1.0
26.30658531188965,6.845675945281982,-1.0663073062896729,-0.0,-0.0,-1.0,0.0984502028801536,1.0
25.762310028076172,7.015258312225342,-0.9755964279174804,0.776096799162334,0.5440077519608864,-0.3189503474468123,0.0740390710033114,3.0
26.490222930908203,6.550509452819824,-0.9906458854675292,-0.0,-0.0,-1.0,0.0630877420974278,1.0
26.123674392700195,6.774223327636719,-0.9315624237060548,0.1674667377116551,-0.5373313929637152,-0.826577198993469,0.2098605383872134,3.0
26.901708602905273,7.334031105041504,-1.001089572906494,-0.0,-0.0,-1.0,0.1531203008307358,2.0
26.51182746887207,7.986597061157227,-0.9819746017456056,-0.0,-0.0,-1.0,0.0398226251050841,2.0
26.252580642700195,6.894347190856934,-0.8397626876831055,0.5233496844644554,0.0243632187502883,-0.851769652748371,0.2264449167718809,5.0
26.07619857788086,6.758421897888184,-0.9388587474822998,-0.0,-0.0,-1.0,0.2296069201191589,2.0
27.34765625,6.410139560699463,-0.9228065013885498,0.1980642482351242,0.8063120270675632,-0.5573432233168821,0.0296857744371314,3.0
27.00351333618164,7.211658000946045,-0.8795909881591797,-0.1187222756568533,-0.6760442645512903,-0.7272339194716945,0.0919770489458657,3.0
26.57034683227539,6.8447265625,-0.7847583293914795,0.7972082329603281,0.5511361972144183,-0.2463897835144576,0.1282091994388435,6.0
27.338788986206055,7.829578876495361,-1.152362823486328,-0.0,-0.0,-1.0,0.0498063675993589,1.0
26.521045684814453,5.911247253417969,-1.0630168914794922,-0.0,-0.0,-1.0,0.1104101042197854,1.0
26.170862197875977,6.839908599853516,-0.9516429901123048,0.6358196357617918,0.056792704446765,-0.7697453991427069,0.1806979705023283,6.0
26.765823364257812,7.102164268493652,-0.8260865211486816,-0.9401257145247178,-0.3261029888192484,-0.0990983429354011,0.0697271116385483,5.0
26.530075073242188,6.758996963500977,-0.7815995216369629,0.8492939755049684,-0.3037760225162493,0.4317636753076543,0.1181603802299121,4.0
26.652849197387695,7.1173295974731445,-0.856407880783081,0.2386096789943507,-0.9664570108628296,0.0950066694727147,0.0861312705503985,4.0
26.428346633911133,6.871399879455566,-0.7869911193847656,-0.0,-0.0,-1.0,0.0610723407087712,1.0
25.57872772216797,6.6039557456970215,-0.999072790145874,-0.0,-0.0,-1.0,0.0611503954380363,2.0
27.318511962890625,7.353618621826172,-0.8298566341400146,-0.0,-0.0,-1.0,0.2146799878679204,2.0
26.558429718017575,6.933127403259277,-0.755814790725708,-0.5848420119968318,0.3693115886815957,-0.7221971832325114,0.0307848494369738,6.0
26.30678939819336,6.580972671508789,-0.9661743640899658,-0.0,-0.0,-1.0,0.1527437903400484,1.0
25.701007843017575,6.325901031494141,-0.8998215198516846,-0.0,-0.0,-1.0,0.0510227544816502,2.0
27.599437713623047,5.641486167907715,-0.6761453151702881,-0.0,-0.0,-1.0,0.1402487621112936,1.0
26.41981315612793,6.743117332458496,-0.7165954113006592,-0.0,-0.0,-1.0,0.1126060151483515,2.0
26.688610076904297,5.683331489562988,-0.8800003528594971,-0.0,-0.0,-1.0,0.0766962566869549,1.0
27.392345428466797,7.286333084106445,-0.8575928211212158,0.2891972929073173,0.3956839360357054,-0.8716645848824944,0.2688579214695014,6.0
25.456863403320312,5.735581398010254,-0.9034817218780518,-0.0,-0.0,-1.0,0.156270616479019,2.0
25.693912506103516,6.122885704040527,-0.9087803363800048,-0.0,-0.0,-1.0,0.0810669766187955,2.0
26.28129196166992,6.683142185211182,-0.7991392612457275,0.570094952849998,0.3323741342357002,-0.7513449138884399,0.0961153287453996,5.0
27.21599578857422,8.10068416595459,-0.925055742263794,-0.0,-0.0,-1.0,0.0380254870028507,2.0
27.453413009643555,5.726388454437256,-0.6633226871490479,-0.0,-0.0,-1.0,0.1424720113397128,2.0
26.56627082824707,7.587057590484619,-1.0350279808044434,-0.0,-0.0,-1.0,0.0448328281114821,2.0
27.258777618408203,7.102965831756592,-0.7994241714477539,-0.2330412756619506,0.2832697249169441,-0.9302956663251364,0.144164366779555,8.0
25.612180709838867,8.092714309692383,-0.8301982879638672,-0.0,-0.0,-1.0,0.1429820929163926,1.0
26.031099319458008,6.508812427520752,-0.821082592010498,-0.0,-0.0,-1.0,0.1816514937056041,1.0
26.08361053466797,5.671642303466797,-1.0307588577270508,-0.0,-0.0,-1.0,0.1413199874292543,1.0
27.108409881591797,7.272392272949219,-0.7526330947875977,-0.0,-0.0,-1.0,0.1376572012642517,1.0
27.117338180541992,7.471619606018066,-0.9645700454711914,-0.0,-0.0,-1.0,0.0669751207663466,1.0
26.154098510742188,6.964531421661377,-0.7532486915588379,-0.0,-0.0,-1.0,0.1732191105435798,1.0
26.097553253173828,6.767747402191162,-0.9326448440551758,-0.4663725914220507,0.4812715490842326,-0.7422090689370106,0.2592973233872138,5.0
26.648283004760746,7.005064487457275,-0.7837991714477539,-0.0,-0.0,-1.0,0.0567564777893471,2.0
26.31598663330078,5.883187770843506,-1.1890802383422852,-0.0,-0.0,-1.0,0.1828260102098775,1.0
25.645692825317383,7.324476718902588,-0.9316897392272948,-0.0,-0.0,-1.0,0.0469426232322173,2.0
26.174165725708008,6.968552112579346,-0.8502888679504395,-0.0,-0.0,-1.0,0.2279266159869148,2.0
27.07404136657715,6.588171482086182,-0.9741573333740234,-0.2079498069471094,-0.281834696819621,-0.9366568643101124,0.062120089869906,3.0
26.187612533569336,6.8836493492126465,-0.8839902877807617,0.3565105178647194,0.7264546283798142,-0.5875065306508307,0.1803369794506893,6.0
26.30217742919922,6.0849480628967285,-0.7958879470825195,-0.0,-0.0,-1.0,0.2255727875724713,2.0
26.104848861694336,7.743846416473389,-1.0622735023498535,-0.0,-0.0,-1.0,0.0468449880204665,1.0
26.627904891967773,7.466581344604492,-0.7959504127502441,-0.0,-0.0,-1.0,0.1676234443415638,1.0
26.172374725341797,6.753475189208984,-0.8267321586608887,-0.0302747504243502,0.6242432965625979,-0.7806431618757729,0.1378281853653701,5.0
26.578853607177734,6.910255432128906,-0.7882599830627441,-0.3369220598584722,0.6903074265092972,-0.6402805498270546,0.1495522369281277,8.0
25.5057373046875,6.398583889007568,-0.9862909317016602,-0.0,-0.0,-1.0,0.0340471706253629,1.0
25.538515090942383,6.7854485511779785,-1.0112457275390625,-0.0,-0.0,-1.0,0.04167700814855,2.0
25.53853225708008,7.019015312194824,-1.022897720336914,-0.0,-0.0,-1.0,0.0623813148871005,2.0
25.24962043762207,7.499029159545898,-0.9947018623352052,-0.0,-0.0,-1.0,0.0597804728404265,1.0
25.21248435974121,8.00723648071289,-1.014838695526123,-0.0,-0.0,-1.0,0.2431520475334729,1.0
26.29209327697754,5.792243003845215,-0.9417240619659424,-0.9187404996615062,0.0382267603255318,-0.3930071361651597,0.0308561184131201,3.0
26.265567779541016,6.235627174377441,-0.9623620510101318,-0.0,-0.0,-1.0,0.0992799163383807,2.0
26.15671157836914,6.621157646179199,-0.965263605117798,0.1889605870392347,-0.9784142576303136,-0.0836626380860058,0.1613386014536161,3.0
26.242265701293945,6.641676425933838,-0.9825046062469482,-0.1044714609096538,-0.7995403557284492,-0.5914566200635742,0.2234457674908438,3.0
26.068937301635746,7.005460262298584,-0.9730417728424072,-0.0,-0.0,-1.0,0.2107804618852067,2.0
25.92230987548828,7.470040321350098,-0.9763023853302002,-0.0,-0.0,-1.0,0.0271803472367194,1.0
25.85820960998535,8.096494674682617,-1.007453203201294,-0.0,-0.0,-1.0,0.0398778204022707,2.0
25.901134490966797,7.141242980957031,-0.9506933689117432,0.1784403265149839,0.2203328528066999,-0.9589642766272825,0.0869015851279481,4.0
25.989721298217773,5.710067272186279,-1.2050533294677734,-0.0,-0.0,-1.0,0.1351114564329843,1.0
26.02144241333008,6.121126174926758,-1.2496309280395508,-0.0,-0.0,-1.0,0.1783465573324631,1.0
26.00370216369629,6.522278308868408,-1.2845191955566406,-0.0,-0.0,-1.0,0.2393311994569811,1.0
26.11397361755371,6.445095062255859,-1.3001313209533691,-0.0,-0.0,-1.0,0.2262715686300752,1.0
25.608545303344727,6.900202751159668,-1.2396535873413086,-0.0,-0.0,-1.0,0.1964543413411684,1.0
25.842565536499023,6.755916595458984,-1.273897647857666,-0.0,-0.0,-1.0,0.1767865452528082,1.0
25.61858558654785,7.351675510406494,-1.2896089553833008,-0.0,-0.0,-1.0,0.1575696037497896,1.0
25.46990966796875,7.757388114929199,-1.30381441116333,-0.0,-0.0,-1.0,0.1684576237467991,1.0
25.336305618286133,8.011935234069824,-1.3051857948303225,-0.0,-0.0,-1.0,0.2143064425984927,1.0
25.751230239868164,5.71591329574585,-0.9904346466064452,-0.0,-0.0,-1.0,0.0572931677713873,1.0
25.400081634521484,6.689639568328857,-0.9923477172851562,-0.0,-0.0,-1.0,0.0127398772523671,2.0
25.305870056152344,7.052677631378174,-1.0031752586364746,-0.0,-0.0,-1.0,0.0710908899046773,2.0
25.39978408813477,6.853185653686523,-1.0064549446105957,-0.0,-0.0,-1.0,0.049222078545904,1.0
25.483055114746097,6.213353157043457,-0.9706668853759766,-0.0,-0.0,-1.0,0.0314978313024549,1.0
25.419734954833984,6.4856719970703125,-0.9792757034301758,-0.5506309924409861,-0.6582686760950096,-0.5133106858770601,0.0232409559687262,4.0
25.372329711914062,6.020583152770996,-0.9689779281616212,-0.0,-0.0,-1.0,0.0889139026893895,2.0
25.26996612548828,6.337268352508545,-0.9766640663146972,-0.0,-0.0,-1.0,0.0402690630519401,2.0
27.45429039001465,6.052382469177246,-0.6072268486022949,-0.1614319704188624,0.9417997502965372,0.2948778548281707,0.0744276110109425,4.0
25.346622467041016,6.006087303161621,-0.9542794227600098,-0.5863960723821758,0.2631169067335663,-0.7660999541089383,0.0896560273452413,3.0
25.715621948242188,5.673851013183594,-0.9992823600769044,-0.0,-0.0,-1.0,0.0628215497623329,1.0
27.639583587646484,7.988977432250977,-0.941176414489746,0.6267667374948813,0.6177380436259668,0.4749349073580352,0.0580694333572028,4.0
27.250986099243164,5.931056976318359,-0.5963931083679199,-0.0,-0.0,-1.0,0.0973653865723935,1.0
27.26723861694336,5.748763084411621,-0.8658642768859863,-0.0,-0.0,-1.0,0.1735122513454766,1.0
27.30912399291992,6.117194175720215,-0.9236693382263184,-0.1367241252100836,-0.9839424810260544,0.1147332018982753,0.0304956504112047,3.0
27.21237564086914,6.421113014221191,-0.9427556991577148,-0.0,-0.0,-1.0,0.0552333835493348,2.0
26.807567596435547,6.672975063323975,-0.8865327835083008,-0.0,-0.0,-1.0,0.1280498392423886,1.0
27.110889434814453,6.6987810134887695,-0.9582915306091307,-0.0,-0.0,-1.0,0.0738560396389787,1.0
26.55685806274414,7.588159084320068,-0.9652767181396484,-0.0,-0.0,-1.0,0.1006808671108534,1.0
26.684486389160156,7.441133499145508,-0.9711499214172364,-0.6927881285957548,-0.7081333537835984,-0.1363516121502978,0.0714866477002234,4.0
26.446372985839844,7.81953239440918,-0.9766888618469238,-0.0,-0.0,-1.0,0.0135946965341366,1.0
26.319530487060547,6.769838333129883,-0.7910923957824707,0.7826601980182405,0.325315206928497,-0.5306722440255546,0.1614293802841479,5.0
26.48555374145508,6.71455192565918,-0.8202643394470215,0.988969749100496,0.0837894642749084,-0.1221399240241553,0.1331167031835651,5.0
26.197338104248047,6.877208232879639,-0.7794275283813477,-0.0,-0.0,-1.0,0.2314487327302463,2.0
26.48180770874023,7.135015964508057,-0.8805832862854004,-0.0,-0.0,-1.0,0.1716802766809974,1.0
26.210468292236328,7.915356636047363,-0.9400935173034668,-0.0,-0.0,-1.0,0.0283912788248035,1.0
26.93256187438965,6.1506500244140625,-0.9818568229675292,-0.0,-0.0,-1.0,0.0555142509560282,2.0
26.892011642456055,6.367619514465332,-0.9995460510253906,-0.0,-0.0,-1.0,0.0653399179963282,2.0
26.980676651000977,5.672401428222656,-0.9351511001586914,-0.0,-0.0,-1.0,0.0424192790759158,2.0
26.844650268554688,5.896488189697266,-0.9296059608459472,-0.0,-0.0,-1.0,0.0153495881566054,1.0
26.872926712036133,5.980073928833008,-0.9466490745544434,0.5487410655222243,-0.7551649672550744,-0.358621130498715,0.0143962352156993,3.0
26.718549728393555,6.50169563293457,-0.9757308959960938,-0.0,-0.0,-1.0,0.041234525026455,1.0
26.154916763305664,6.646615028381348,-0.8622088432312012,-0.0,-0.0,-1.0,0.0826656072624854,2.0
26.545251846313477,6.593345642089844,-0.946840763092041,-0.0,-0.0,-1.0,0.1361319789880308,2.0
26.06138801574707,6.762454986572266,-0.8558297157287598,-0.0,-0.0,-1.0,0.1320384646167841,2.0
26.41507911682129,7.162087440490723,-0.9929943084716796,-0.0,-0.0,-1.0,0.0975073637059271,2.0
26.204320907592773,7.463775634765625,-0.9865145683288574,-0.0,-0.0,-1.0,0.024617608486652,2.0
26.00737190246582,7.733326911926269,-0.980022430419922,-0.1524574634790392,0.8255620349971045,0.5433268336839039,0.0860603853101,5.0
25.99160385131836,5.815593719482422,-0.8941574096679688,-0.0,-0.0,-1.0,0.092393660313346,2.0
25.83612060546875,6.28434419631958,-0.9334273338317872,-0.0,-0.0,-1.0,0.0744052456796322,2.0
25.605466842651367,6.650078773498535,-0.9399824142456056,-0.0,-0.0,-1.0,0.0804020884425119,2.0
25.504554748535156,6.9481658935546875,-0.9669551849365234,-0.0,-0.0,-1.0,0.0832346553054168,1.0
25.516313552856445,7.103942394256592,-0.9965105056762696,-0.0,-0.0,-1.0,0.0678613362729592,1.0
27.539630889892575,7.845807075500488,-1.0236482620239258,-0.0,-0.0,-1.0,0.0488702541820522,1.0
27.48913192749023,5.935477256774902,-0.6317987442016602,-0.0,-0.0,-1.0,0.0943877919252326,1.0
27.25020980834961,7.182767868041992,-0.8265161514282227,-0.0236843484699592,-0.4689933490567868,-0.8828840751639212,0.1771097133215958,7.0
27.392398834228516,7.980842590332031,-1.0222773551940918,-0.0,-0.0,-1.0,0.066376039753956,2.0
27.343732833862305,5.6583781242370605,-0.8557443618774414,-0.0,-0.0,-1.0,0.1533431785374734,2.0
27.405874252319336,5.981307029724121,-0.8998093605041504,-0.3828046548381675,0.143224593605779,-0.9126594721037474,0.0243472397791516,4.0
27.40056800842285,6.40324068069458,-0.936392307281494,-0.0086651189698556,0.8405588320125956,0.5416509629261813,0.0331540148334783,4.0
27.516637802124023,6.7147321701049805,-0.9962601661682128,-0.0,-0.0,-1.0,0.0891744691593165,1.0
27.372331619262695,6.856969356536865,-0.9723434448242188,-0.0,-0.0,-1.0,0.0596621088947597,1.0
27.253507614135746,7.491785049438477,-1.0067524909973145,-0.0,-0.0,-1.0,0.0736183649821771,1.0
27.209341049194336,7.7551727294921875,-1.0239238739013672,-0.0,-0.0,-1.0,0.0618835398286445,1.0
27.02716827392578,8.01909065246582,-1.006730556488037,-0.3759588898160354,0.9091629356414672,-0.1791023998278175,0.0355443085745661,4.0
26.6767635345459,6.956575870513916,-0.8006319999694824,-0.2736409416281593,-0.0068490746685911,-0.961807530247626,0.1139408402880395,3.0
26.849292755126953,7.146847724914551,-0.8652176856994629,-0.0,-0.0,-1.0,0.053928868339717,1.0
26.644947052001953,6.948302268981934,-0.7915210723876953,0.1409612804550614,-0.8160609750302533,-0.5605126246973764,0.1135580285951534,5.0
27.415191650390625,5.69753885269165,-0.8171579837799072,-0.7436873341329319,-0.653383776889633,-0.1414877703113994,0.2223761455503448,3.0
27.64470100402832,6.102680683135986,-0.8897902965545654,-0.0914275050800742,0.7631273687392169,-0.6397480991734109,0.1066435853483119,4.0
27.181089401245117,7.195586204528809,-0.8478677272796631,-0.2242784617498853,0.8738356028060115,-0.431405274496916,0.1507068393972376,5.0
27.590757369995117,7.856544494628906,-0.988628625869751,0.6834466229740852,0.7041304972640623,0.1926160854341693,0.0506098439405508,3.0
27.458574295043945,8.092592239379883,-0.9769647121429444,0.7061804322589464,-0.5882020070601328,-0.3941162214182505,0.0327994410499271,3.0
27.01908493041992,7.015490531921387,-0.7988588809967041,0.2246524330932098,-0.9115619326625304,-0.3443633651041485,0.0988283893386926,4.0
25.796863555908203,5.743277549743652,-0.9902875423431396,-0.0,-0.0,-1.0,0.0656838487001613,1.0
25.662109375,6.001679420471191,-0.9639065265655518,-0.0,-0.0,-1.0,0.0563792610518674,1.0
25.72878646850586,6.497801780700684,-0.9938032627105712,-0.0,-0.0,-1.0,0.030194881000878,1.0
25.643814086914062,6.878212928771973,-0.9870541095733644,0.0622623076368473,-0.280208662672109,-0.957917799402038,0.1338169079450019,3.0
25.67599868774414,7.260707855224609,-1.01031756401062,-0.0,-0.0,-1.0,0.050633501883462,1.0
27.435962677001953,5.668400764465332,-0.7035884857177734,-0.0,-0.0,-1.0,0.1621589641707763,1.0
27.482505798339844,5.92760705947876,-0.7168459892272949,0.6586195095179515,0.6758496353698841,-0.3308286747740099,0.1711419107500544,3.0
27.51935577392578,7.374720096588135,-1.0543811321258545,-0.2836170738098706,0.8923878912349968,-0.351005992855794,0.0346658893074051,3.0
27.500059127807617,7.437582015991211,-1.0513598918914795,-0.4579373613892872,0.8749061201755433,0.1575837996851033,0.0738383416890191,3.0
27.167543411254883,6.067224502563477,-0.971565008163452,-0.0,-0.0,-1.0,0.0274308027969181,2.0
27.2017879486084,6.416895389556885,-0.9792611598968506,-0.0,-0.0,-1.0,0.0552333835493348,2.0
27.41979598999023,6.687811374664307,-1.026081085205078,-0.0,-0.0,-1.0,0.0304363802278837,1.0
27.404300689697266,7.64838981628418,-1.0352504253387451,-0.2157033417996339,0.9712047478756896,-0.1011602987351681,0.0313247483263657,3.0
27.258464813232425,8.01496696472168,-1.0128412246704102,-0.0120580422603279,0.5470438818527209,-0.8370170816323612,0.0711778338298508,4.0
27.06153678894043,5.8417534828186035,-0.9498465061187744,-0.0,-0.0,-1.0,0.0428977975593362,2.0
27.028785705566406,7.252955436706543,-0.9507501125335692,0.8668191036249983,-0.4226544504980422,-0.264552182120942,0.1028838171360696,3.0
27.509963989257812,6.501569747924805,-0.923759937286377,-0.0,-0.0,-1.0,0.0813530886198175,2.0
27.64519500732422,6.684070110321045,-0.9466733932495116,-0.0,-0.0,-1.0,0.1386520570751034,1.0
27.333385467529297,6.116674900054932,-0.8992109298706055,-0.5426737827538247,-0.8241160966329881,-0.1622893243009594,0.0318661055725074,4.0
27.365589141845703,6.308099746704102,-0.8998262882232666,-0.0,-0.0,-1.0,0.0463085894008638,1.0
27.129558563232425,7.1858229637146,-0.8294394016265869,-0.6855161577761854,0.4807915047569898,-0.5467239947005124,0.1538125294783578,3.0
26.76396942138672,6.918788909912109,-0.759998083114624,0.2167263963325225,0.8317107319641072,-0.5111623298605322,0.1123910607714045,3.0
26.93021011352539,7.0503950119018555,-0.7912774085998535,0.0201585067285274,-0.8111315129440607,-0.5845162985884604,0.1123094241529036,4.0
25.498146057128903,8.104839324951172,-1.0286428928375244,-0.0,-0.0,-1.0,0.0766293469048522,2.0
27.539873123168945,6.183497428894043,-0.915477991104126,-0.0,-0.0,-1.0,0.035673889086125,2.0
27.272932052612305,5.659646987915039,-0.8904440402984619,-0.0,-0.0,-1.0,0.1770242697655591,2.0
27.41239356994629,5.966158866882324,-0.9013080596923828,0.0316338501615209,0.1118793337919205,-0.993218160423094,0.0249734665461862,3.0
27.23366928100586,7.212634086608887,-0.8058512210845947,0.1993798207619333,0.8180325861598328,-0.5395093836566653,0.1189906350237925,5.0
25.484956741333008,7.474021911621094,-1.0450446605682373,-0.0,-0.0,-1.0,0.0355075399946546,2.0
25.47904586791992,8.046550750732422,-1.0255942344665527,-0.0,-0.0,-1.0,0.0383197585410052,1.0
25.222820281982425,7.1678972244262695,-0.9939539432525636,-0.0,-0.0,-1.0,0.0328634690283778,2.0
25.326061248779297,7.434700012207031,-1.0083160400390625,-0.0,-0.0,-1.0,0.0767031696705261,2.0
25.416664123535156,7.901135921478272,-1.0147151947021484,-0.0,-0.0,-1.0,0.0248351562214143,1.0
26.676925659179688,7.288811683654785,-1.0022568702697754,-0.7807627629699601,-0.618146126520012,-0.0911310826656828,0.1153849595311412,3.0
26.772815704345703,7.718360900878906,-0.9989523887634276,0.98773327104608,0.0824130921592832,-0.1326313217507709,0.0847187454370304,4.0
26.909996032714844,8.026633262634277,-1.0125975608825684,0.8596112831032116,0.0335991249928339,-0.5098426627513298,0.0386282840566125,3.0
26.27783966064453,6.201099395751953,-0.9885756969451904,-0.0,-0.0,-1.0,0.0800787048004686,2.0
26.27490234375,6.464345932006836,-0.9692986011505128,-0.0,-0.0,-1.0,0.133693274462317,1.0
26.342395782470703,7.006752014160156,-0.9479668140411376,-0.3742591116081981,-0.2826737976234827,-0.8831906031629639,0.1517141636933389,4.0
26.530826568603516,7.2370758056640625,-0.974261999130249,0.3104246636867256,0.1208755403535551,-0.9428815577362932,0.1189441115619939,3.0
26.61829376220703,7.500678539276123,-0.9776771068572998,-0.0,-0.0,-1.0,0.0559095166293124,2.0
26.200477600097656,6.271697044372559,-0.9671053886413574,-0.0,-0.0,-1.0,0.0865084451479082,1.0
26.21985626220703,6.330331802368164,-0.9670124053955078,-0.4919790466603454,-0.7694570759088405,0.4072989393320277,0.0495946691553622,3.0
27.47196578979492,6.084792137145996,-0.5709893703460693,0.5136066064664631,0.8540713950041924,-0.0822818693856472,0.0764941697079542,4.0
25.945545196533203,5.6676740646362305,-0.9593651294708252,-0.0,-0.0,-1.0,0.1479449320622156,1.0
26.02475357055664,5.992068767547607,-0.9506824016571044,-0.5345411025932334,0.4105300232861681,-0.7387360216065469,0.0508312820443886,3.0
26.118640899658203,6.638559818267822,-0.9242432117462158,-0.0,-0.0,-1.0,0.1528525257954411,2.0
26.089553833007812,6.803422927856445,-0.907219648361206,-0.8473731664524548,0.3889968079317789,-0.3614418351481011,0.1986083753286091,4.0
27.245302200317383,7.357104301452637,-1.0282254219055176,-0.0,-0.0,-1.0,0.1087907946240397,2.0
27.365331649780273,7.639113903045654,-1.0412118434906006,-0.0,-0.0,-1.0,0.0274693643687761,2.0
27.296363830566406,7.994518280029297,-1.0130090713500977,0.3243849657499353,0.7048434869439397,-0.6308486767110807,0.0720365843121728,4.0
26.85438537597656,6.36824369430542,-0.9978034496307372,-0.0,-0.0,-1.0,0.0679158545492014,2.0
26.925615310668945,7.206881523132324,-0.968642234802246,-0.0,-0.0,-1.0,0.1058769048411023,1.0
26.46078109741211,5.722085952758789,-0.9570622444152832,-0.0,-0.0,-1.0,0.0851345717910111,1.0
26.568435668945312,5.993675708770752,-0.9616105556488036,-0.0,-0.0,-1.0,0.0569604902014396,2.0
26.65717124938965,6.404637813568115,-0.9551537036895752,-0.0,-0.0,-1.0,0.0484778435775713,2.0
26.57036018371582,7.066133499145508,-0.9016616344451904,-0.5846049177776848,-0.5680784800002703,0.5792442754751477,0.235248495063321,5.0
26.248573303222656,6.786556720733643,-0.8494298458099365,-0.8213646960994019,-0.0418376084360157,-0.5688669884269011,0.1735463314092102,3.0
26.192209243774418,6.842959403991699,-0.8347024917602539,-0.3470490703897373,-0.5552730244846222,-0.7557968053791435,0.1682466570103691,5.0
27.1912841796875,7.444348335266113,-1.0217549800872805,-0.0,-0.0,-1.0,0.0692339758807608,2.0
27.33230209350586,7.744755744934082,-1.0276696681976318,-0.0,-0.0,-1.0,0.0746482114085436,1.0
26.807327270507812,7.159212589263916,-0.9665520191192628,-0.5972732150266741,0.2990429503738235,-0.7442029430494206,0.0721931293680789,4.0
26.98870849609375,7.253713607788086,-0.995668649673462,-0.0,-0.0,-1.0,0.108556324062243,1.0
27.120136260986328,8.129631042480469,-0.9565200805664062,-0.0,-0.0,-1.0,0.0397409661918898,2.0
26.39371109008789,6.292841911315918,-0.9596436023712158,-0.0014167672056166,0.3653276686944395,-0.9308779121114494,0.0500354692916577,3.0
26.45052719116211,6.469921588897705,-0.954576015472412,-0.9869171949179512,0.0641728520129487,-0.1479063738985128,0.0419818768353836,3.0
26.534412384033203,7.084205627441406,-0.91749906539917,-0.3481151717317813,-0.8995108589315267,-0.2640000793076003,0.2270785484706623,5.0
26.010154724121097,5.823942184448242,-0.928957223892212,-0.0,-0.0,-1.0,0.0630735533715717,2.0
26.265552520751953,6.075079441070557,-0.954887628555298,-0.0,-0.0,-1.0,0.1240304442362421,2.0
26.15462875366211,6.694523811340332,-0.8746678829193115,-0.9042595195134846,-0.1125492736480883,-0.4118827289053638,0.1296682150160338,3.0
26.20581817626953,6.93350076675415,-0.8639178276062012,-0.8157311188664121,-0.4712018850002115,0.3354869971924378,0.2807848435552021,5.0
25.876461029052734,5.673352241516113,-0.9178051948547364,-0.0,-0.0,-1.0,0.0770082778506115,1.0
27.31613540649414,7.397336959838867,-1.001032829284668,0.7189668268634437,0.0676273159852141,-0.6917465200509119,0.1494162973439932,3.0
27.447887420654297,7.666374206542969,-1.0086753368377686,-0.8940741604977511,0.1027890740641254,-0.435965367642065,0.0377446311990056,3.0
27.414100646972656,8.03962516784668,-0.9781053066253662,-0.2473001361886227,0.4292953927151058,-0.8686472865522988,0.0422875893112643,3.0
26.948558807373047,7.250312805175781,-0.9394762516021729,0.2411608799163111,0.7155755560250988,-0.6555860383026477,0.1130211508434476,3.0
26.50306701660156,6.134372234344482,-0.9423093795776368,-0.0,-0.0,-1.0,0.050873455191952,2.0
26.721214294433594,6.355288982391357,-0.965348482131958,0.181658753051248,0.1492383919911236,-0.9719711928837034,0.0364012422507611,3.0
26.679088592529297,7.123317241668701,-0.8962421417236328,-0.3835486186696446,-0.8335993533253468,-0.3974953776488114,0.1331683348691549,4.0
26.18924331665039,5.672414302825928,-0.9243075847625732,-0.6686038609205939,-0.3770571783501217,-0.6409342879084564,0.0434453865432685,3.0
26.38266372680664,5.977889537811279,-0.9330997467041016,-0.0,-0.0,-1.0,0.1122512594015716,2.0
26.274158477783203,6.897489070892334,-0.8349165916442871,0.2194124401327041,0.0756417149025425,-0.972695487848903,0.1577006541394497,4.0
27.703758239746097,6.004753589630127,-0.869929313659668,-0.0,-0.0,-1.0,0.1154421389135201,2.0
27.36226272583008,5.65072774887085,-0.831373929977417,-0.0,-0.0,-1.0,0.1762597049598378,2.0
25.58911895751953,7.691677093505859,-1.0222656726837158,-0.0,-0.0,-1.0,0.0135261530247972,2.0
25.611045837402344,7.963540554046631,-1.0112881660461426,-0.0,-0.0,-1.0,0.0602122613616247,2.0
25.22677993774414,7.038253307342529,-0.9865779876708984,-0.6576047947707558,-0.6867094372497694,0.3098162079146562,0.0682547240144793,4.0
25.410755157470703,7.224033832550049,-1.0134785175323486,-0.1424102026157198,-0.954396738479512,-0.2623855936796451,0.0417380250583912,3.0
25.38046646118164,7.663804531097412,-0.9786825180053712,0.654277452989252,-0.5768622469111789,-0.4890306356441112,0.0440460441287521,3.0
25.564220428466797,7.854394912719727,-1.0072166919708252,-0.4434183333417195,0.1573111395410486,-0.8824020552065529,0.016725163381639,4.0
27.285892486572266,7.633989334106445,-1.0367391109466553,-0.0,-0.0,-1.0,0.015334827610248,1.0
27.329769134521484,8.038467407226562,-1.0263607501983645,-0.0,-0.0,-1.0,0.0529982690961346,1.0
26.922962188720703,7.307041168212891,-0.9822306632995604,0.64427545958552,-0.0267211450322895,-0.7643265745635374,0.1349593922436389,3.0
26.412742614746097,6.138699054718018,-0.9553883075714112,-0.1658214287464915,0.4540067776415241,-0.875431950310264,0.054317601717699,4.0
26.573945999145508,6.355913162231445,-0.97159743309021,-0.3662651227731239,-0.2734430479159858,-0.8894260842736762,0.0614723072729314,3.0
26.59327507019043,7.18471622467041,-0.9246454238891602,-0.4536804725490855,-0.8884343328562263,0.0697026902633643,0.1471909641199028,3.0
26.088104248046875,5.640832901000977,-0.930001974105835,-0.0,-0.0,-1.0,0.0615618332799213,2.0
26.293699264526367,5.9419989585876465,-0.9465711116790771,-0.0,-0.0,-1.0,0.0443918698278863,1.0
26.216629028320312,6.898834228515625,-0.8685891628265381,0.3910869023476244,0.3145694891951913,-0.8649260496017078,0.2388341051288262,7.0
26.332256317138672,7.077613353729248,-0.8801114559173584,-0.0,-0.0,-1.0,0.215176275517008,1.0
25.490842819213867,5.924580097198486,-0.7969412803649902,-0.0,-0.0,-1.0,0.1976888461315557,2.0
27.651058197021484,5.828012466430664,-0.8230550289154053,-0.0,-0.0,-1.0,0.2148131987372794,2.0
25.81871795654297,7.834557056427002,-0.9858884811401368,-0.0,-0.0,-1.0,0.0509834259107283,1.0
25.88323974609375,7.976982116699219,-0.9775521755218506,-0.2279526107785079,-0.0827381048203046,-0.9701505106167838,0.0400103460860092,3.0
25.452960968017575,7.303068161010742,-0.9985895156860352,-0.0,-0.0,-1.0,0.0560222235304515,1.0
25.717430114746097,7.668188095092773,-0.9916694164276124,0.3829845180100772,-0.0008879236939913,-0.923754334526286,0.0276519177386238,3.0
25.873828887939453,8.032453536987305,-1.0451579093933103,-0.0,-0.0,-1.0,0.0492970297389673,2.0
25.54651260375977,7.183500289916992,-1.056554079055786,-0.0,-0.0,-1.0,0.0414550807176271,1.0
25.738182067871097,7.70137357711792,-1.0472431182861328,-0.0,-0.0,-1.0,0.033500230942295,2.0
25.396217346191406,7.042163848876953,-1.0438456535339355,-0.0,-0.0,-1.0,0.0339456279453265,1.0
27.63332748413086,5.910975456237793,-0.740821361541748,-0.0,-0.0,-1.0,0.2207988396999247,2.0
25.864059448242188,8.036843299865723,-1.043201923370361,-0.0,-0.0,-1.0,0.0418078393795729,2.0
25.60200881958008,7.515667915344238,-1.0392892360687256,-0.0,-0.0,-1.0,0.0385653430694566,2.0
25.76422119140625,7.869368553161621,-1.038967847824097,-0.3473038709896265,0.5782326040819676,-0.7382594914880591,0.038914956390158,3.0
25.21889877319336,7.026103973388672,-1.0167582035064695,-0.6817111862407151,-0.5995075274853464,0.4193573452828555,0.0682547240144793,3.0
25.391338348388672,7.687066555023193,-0.9915769100189208,0.654277452989252,-0.5768622469111789,-0.4890306356441112,0.0411047957037315,3.0
27.42438507080078,6.051583290100098,-0.8621728420257568,-0.0,-0.0,-1.0,0.0586968027551862,2.0
27.582378387451172,6.218395233154297,-0.8666543960571289,-0.0,-0.0,-1.0,0.0735950110773615,1.0
27.250877380371097,5.812619209289551,-0.8629682064056396,-0.0,-0.0,-1.0,0.1304009518685763,1.0
27.18696975708008,7.178428649902344,-0.733452320098877,-0.0,-0.0,-1.0,0.1283695450320316,1.0
27.626136779785156,5.826578140258789,-0.7871487140655518,-0.0,-0.0,-1.0,0.2536401874150689,2.0
27.38524627685547,5.660696029663086,-0.777874231338501,-0.0,-0.0,-1.0,0.1499041846028712,1.0
26.865131378173828,8.040929794311523,-0.9871973991394044,-0.0,-0.0,-1.0,0.033429340918313,1.0
26.18578338623047,7.233213424682617,-0.977602481842041,-0.0,-0.0,-1.0,0.0560125382504294,2.0
26.399826049804688,7.566502571105957,-0.97172212600708,-0.8844454082930772,-0.4636158796762814,0.0530719875384323,0.0704375662914901,3.0
26.55243682861328,8.064592361450195,-0.943594217300415,0.7286204612897811,0.6370355782195621,0.2515907301001657,0.0396429611229915,5.0
26.159656524658203,7.467494010925293,-0.9506096839904784,-0.0,-0.0,-1.0,0.0234696613723343,1.0
26.273948669433594,7.524656295776367,-0.9595930576324464,-0.8129076560006001,0.1895593831916038,-0.5506799279614508,0.0225629991742355,3.0
26.002185821533203,7.141883850097656,-0.9636459350585938,-0.0,-0.0,-1.0,0.1024539185541898,1.0
25.55052947998047,6.637139320373535,-0.960719108581543,-0.0,-0.0,-1.0,0.0497985222418669,2.0
25.671417236328125,6.89964485168457,-0.9475545883178712,0.076312829801528,-0.8028941268956636,-0.5912168578483982,0.1466581670524733,3.0
27.10316467285156,6.052651405334473,-0.9357092380523682,0.8203205211894472,-0.565689039703928,-0.0840842010981962,0.0202471300020056,3.0
27.33356285095215,7.337191581726074,-0.838623046875,0.570922788319994,0.7268353705883047,-0.3817820239857886,0.2786412318321986,3.0
26.849639892578125,5.950008392333984,-0.918970823287964,0.5487410655222243,-0.7551649672550744,-0.358621130498715,0.0148857026998952,3.0
26.99884796142578,7.194088935852051,-0.8148007392883301,-0.0,-0.0,-1.0,0.0855502549344533,2.0
26.561296463012695,5.676072120666504,-0.9163575172424316,0.7927515224135916,0.2729802199482039,-0.5450016726836378,0.1255870241999834,3.0
26.625633239746097,5.884951591491699,-0.9019036293029784,-0.0,-0.0,-1.0,0.0918125245740608,1.0
26.574928283691406,6.363439559936523,-0.8487839698791504,-0.0,-0.0,-1.0,0.1393989323617364,1.0
26.45128631591797,6.9843645095825195,-0.774878978729248,-0.0,-0.0,-1.0,0.0493783917202184,2.0
26.67280960083008,7.056964874267578,-0.7919807434082031,-0.0,-0.0,-1.0,0.0622991552399964,1.0
26.26957893371582,6.889174461364746,-0.7645454406738281,-0.0,-0.0,-1.0,0.1183300901531023,2.0
27.499492645263672,7.433155059814453,-1.0284276008605957,-0.4579373613892872,0.8749061201755433,0.1575837996851033,0.0723320883754768,3.0
27.441429138183594,7.673209190368652,-0.9938192367553712,-0.115370310691777,0.1152018438235563,-0.9866195956854577,0.0223800790971271,4.0
27.381526947021484,7.421747207641602,-1.018545389175415,0.343212131409479,0.3088399687321765,-0.8870306119671809,0.0888539950944736,3.0
27.212547302246097,7.454790115356445,-0.998422622680664,0.1863108656788377,0.8222513922740149,-0.5377647340923782,0.0943240387093065,3.0
26.765277862548828,7.252826690673828,-0.9812917709350586,0.8011884196654449,0.0426752860204555,-0.5968885458417337,0.1439811135436129,3.0
26.364486694335938,7.078803062438965,-0.9661681652069092,-0.0,-0.0,-1.0,0.1678748930374058,1.0
26.572837829589844,7.155592918395996,-0.9755914211273192,-0.1014735213348369,-0.5972789195126732,-0.7955884719964726,0.137570261541741,4.0
26.030494689941406,6.609951972961426,-0.9962506294250488,-0.0,-0.0,-1.0,0.0730727570870723,2.0
26.170501708984375,6.89100456237793,-0.9724886417388916,0.4876152249850764,-0.269884165381211,-0.8302974946603418,0.1820881569288327,3.0
27.019134521484375,8.12453842163086,-0.954880714416504,-0.0,-0.0,-1.0,0.0397560391739887,2.0
27.13542366027832,8.134475708007812,-0.9652440547943116,-0.0,-0.0,-1.0,0.0374731532168561,2.0
26.67363548278809,7.9468584060668945,-0.9411089420318604,-0.0,-0.0,-1.0,0.0342574536384576,1.0
