x,y,z,nx,ny,nz,curvature,density
13.808830261230469,-29.55769157409668,2.5109171867370605,-0.0,-0.0,-1.0,0.2204739936234168,1.0
14.096920013427734,-29.58281898498535,2.4893758296966553,-0.0,-0.0,-1.0,0.1221477827728007,1.0
14.292858123779297,-29.852218627929688,2.4640400409698486,-0.0,-0.0,-1.0,0.1059106637932681,1.0
14.34971809387207,-29.310768127441406,2.4825642108917236,-0.0,-0.0,-1.0,0.0765371210191456,1.0
14.461067199707031,-28.959897994995117,2.4890694618225098,-0.0,-0.0,-1.0,0.0890641212226043,1.0
14.500591278076172,-28.58092880249023,2.5018763542175293,-0.0,-0.0,-1.0,0.0685702565331802,1.0
15.518272399902344,-28.94662857055664,2.45253324508667,-0.0,-0.0,-1.0,0.2213204002708668,1.0
13.859159469604492,-29.69596290588379,2.4973573684692383,-0.0,-0.0,-1.0,0.1697953221588407,1.0
14.043285369873049,-28.683616638183594,2.566317558288574,-0.0,-0.0,-1.0,0.1713343196981775,1.0
14.531209945678713,-28.550783157348633,2.574009895324707,-0.0,-0.0,-1.0,0.0663417709119027,1.0
13.766518592834473,-28.405759811401367,2.58560848236084,-0.0,-0.0,-1.0,0.2105488830912583,2.0
15.45676040649414,-28.622774124145508,2.1230084896087646,-0.0,-0.0,-1.0,0.2625917167164322,1.0
15.506916999816896,-28.64930725097656,2.376546859741211,-0.0,-0.0,-1.0,0.1282322143492168,1.0
15.567689895629885,-28.38202667236328,2.210153102874756,-0.0,-0.0,-1.0,0.1387583242496533,1.0
14.961999893188477,-28.440813064575195,2.4271063804626465,-0.0,-0.0,-1.0,0.1495241724698028,2.0
15.249849319458008,-28.376131057739254,2.4143362045288086,-0.0,-0.0,-1.0,0.1749215454260348,1.0
14.880722045898438,-28.427684783935547,2.3705947399139404,-0.0,-0.0,-1.0,0.2691072458718437,2.0
15.620855331420898,-28.57497787475586,2.401989459991455,-0.0,-0.0,-1.0,0.1057598453757501,1.0
15.493711471557615,-28.51382064819336,2.0905964374542236,-0.0,-0.0,-1.0,0.2399912413540154,2.0
15.60407829284668,-28.83285903930664,1.9684959650039673,-0.0,-0.0,-1.0,0.1675077240081135,1.0
14.249967575073242,-28.40129852294922,2.5741333961486816,-0.0,-0.0,-1.0,0.1379059084539352,1.0
15.382272720336914,-28.861291885375977,2.554365873336792,0.9017519967847182,0.0582422330246469,-0.4283120107901202,0.1781579607395479,3.0
15.463136672973633,-28.559743881225582,2.5454626083374023,-0.0,-0.0,-1.0,0.2011016398169392,1.0
14.350238800048828,-28.61878967285156,2.508641242980957,-0.0,-0.0,-1.0,0.1550102581351948,1.0
15.309690475463867,-28.703950881958008,2.485297679901123,-0.0,-0.0,-1.0,0.1835347546432421,2.0
15.436882019042969,-28.941356658935547,2.486933946609497,-0.0,-0.0,-1.0,0.2522902505355699,2.0
15.387866973876951,-29.415300369262695,2.4980900287628174,0.5639843240713454,0.649540707439713,-0.509920142356139,0.1768776106635353,3.0
15.198776245117188,-28.389137268066406,2.4133458137512207,-0.0,-0.0,-1.0,0.168844439122851,1.0
15.487319946289062,-28.43807601928711,2.4025111198425293,-0.0,-0.0,-1.0,0.1400221011720877,1.0
15.288030624389648,-28.86477279663086,2.4135560989379883,-0.0,-0.0,-1.0,0.1971739439368513,1.0
15.674030303955078,-28.827383041381836,2.3983240127563477,-0.0,-0.0,-1.0,0.1669183855697918,2.0
15.24660873413086,-28.73247718811035,2.47119402885437,-0.4646208290853412,0.7295106981745224,-0.5019378710846302,0.1486658858459944,3.0
15.451910018920898,-28.872333526611328,2.463088035583496,-0.0,-0.0,-1.0,0.2512124398861452,1.0
15.407098770141602,-29.30605125427246,2.4681484699249268,-0.6477611228108044,0.7451512928936027,-0.15860352604491,0.1982429159146753,3.0
15.507829666137695,-28.523193359375,2.3134748935699463,0.7926288077933269,0.2146669361693986,-0.5706642441679455,0.2567078987357007,3.0
15.138620376586914,-29.134143829345703,2.3329992294311523,-0.0,-0.0,-1.0,0.2387948863033311,1.0
15.678861618041992,-28.766023635864254,2.036496639251709,-0.0,-0.0,-1.0,0.1012677836810081,2.0
15.644174575805664,-28.771800994873047,2.274514675140381,-0.0,-0.0,-1.0,0.1593092483823701,2.0
15.66493034362793,-30.293603897094727,2.3112878799438477,-0.0,-0.0,-1.0,0.1679969671147986,1.0
15.615997314453123,-28.52652359008789,2.3318071365356445,-0.0,-0.0,-1.0,0.1907871475612525,2.0
15.697546005249023,-28.856990814208984,2.332923412322998,-0.0,-0.0,-1.0,0.1345342797704571,1.0
15.51772117614746,-28.91555404663086,2.3410024642944336,-0.0,-0.0,-1.0,0.1778572135141193,1.0
15.171510696411133,-30.097957611083984,2.3711161613464355,-0.0,-0.0,-1.0,0.1129018576004374,1.0
15.469686508178713,-28.537229537963867,2.601163387298584,-0.0,-0.0,-1.0,0.2103561706591686,1.0
15.334726333618164,-29.40829086303711,2.61274790763855,-0.0,-0.0,-1.0,0.2307322816423886,1.0
15.491544723510742,-28.47474479675293,2.607664108276367,-0.9544136289348784,-0.1129576344565218,-0.2762882511460492,0.1932806298016348,3.0
15.287614822387695,-28.62161636352539,1.74098002910614,-0.0,-0.0,-1.0,0.1088685964323798,1.0
14.68202781677246,-28.638992309570312,1.798935055732727,-0.0,-0.0,-1.0,0.1529206316093693,1.0
15.532575607299805,-29.28999900817871,2.432964324951172,-0.0,-0.0,-1.0,0.1244631954858101,1.0
15.453296661376951,-28.84600830078125,2.349360942840576,-0.0,-0.0,-1.0,0.1995533403322966,2.0
15.26663875579834,-28.748065948486328,2.3651442527770996,-0.0,-0.0,-1.0,0.1277249258403349,1.0
15.634241104125977,-28.803707122802734,2.1494040489196777,-0.0,-0.0,-1.0,0.1030278158797886,1.0
14.552308082580566,-28.931365966796875,2.5270488262176514,-0.0,-0.0,-1.0,0.096654810906183,1.0
14.534093856811523,-28.91734313964844,2.6687493324279785,-0.0,-0.0,-1.0,0.0748025178317001,1.0
15.071703910827637,-28.697607040405273,2.6257243156433105,-0.0,-0.0,-1.0,0.1405882246198432,1.0
15.435467720031738,-28.44062232971191,2.5941247940063477,-0.0,-0.0,-1.0,0.1793570232742506,1.0
14.255632400512695,-28.420448303222656,2.3750863075256348,-0.0,-0.0,-1.0,0.2048333896201709,1.0
15.635672569274902,-28.523529052734375,2.312892436981201,-0.7415489389243848,-0.2956245111615128,-0.6022551947311336,0.1907871475612525,4.0
15.629178047180176,-28.785343170166016,2.3133606910705566,-0.0,-0.0,-1.0,0.1513410357374166,2.0
15.638354301452637,-28.967470169067383,1.848597764968872,-0.0,-0.0,-1.0,0.1700577402538022,1.0
15.254919052124023,-28.534923553466797,2.558058738708496,-0.0,-0.0,-1.0,0.1873334694000257,1.0
15.383761405944824,-29.406585693359375,2.5657551288604736,-0.0,-0.0,-1.0,0.1778616130046888,2.0
15.472908973693848,-28.617637634277344,2.4146323204040527,-0.0,-0.0,-1.0,0.150185501198674,1.0
14.29527187347412,-28.607852935791016,2.4811198711395264,-0.0,-0.0,-1.0,0.1581145538366957,1.0
13.731117248535156,-29.26162338256836,2.5124764442443848,-0.0,-0.0,-1.0,0.11857592888448,1.0
15.279520988464355,-29.269309997558594,2.4250338077545166,-0.0,-0.0,-1.0,0.1417832672125462,1.0
15.634808540344238,-29.203224182128903,2.405214786529541,-0.0,-0.0,-1.0,0.1079634302334439,1.0
15.69056224822998,-29.848434448242188,2.401794195175171,-0.0,-0.0,-1.0,0.121805222060444,1.0
14.306506156921388,-28.40397071838379,2.368377208709717,-0.0,-0.0,-1.0,0.204833389620171,1.0
14.903420448303224,-28.438655853271484,2.352254629135132,-0.0,-0.0,-1.0,0.268727369664896,2.0
15.560070037841797,-28.50264358520508,2.335084915161133,-0.0,-0.0,-1.0,0.21632552877021,2.0
15.478560447692873,-28.820323944091797,2.3409457206726074,-0.7295542226574714,0.6642516446499707,-0.1628508175676786,0.1816401012205031,3.0
15.708356857299805,-28.78656959533691,2.3343722820281982,-0.0,-0.0,-1.0,0.1375582644269196,1.0
15.598739624023438,-28.458789825439453,2.130589246749878,-0.0,-0.0,-1.0,0.23334611088505,1.0
15.486377716064451,-28.44378662109375,2.612856149673462,-0.9544136289348784,-0.1129576344565218,-0.2762882511460492,0.1898933634761253,3.0
15.1220064163208,-28.70275115966797,2.635557174682617,-0.0,-0.0,-1.0,0.1869207604425915,1.0
15.34864902496338,-29.234161376953125,2.6382436752319336,-0.0,-0.0,-1.0,0.1824258548486535,1.0
14.817960739135742,-28.57490921020508,2.156646728515625,-0.0,-0.0,-1.0,0.1731753205004563,1.0
15.59848403930664,-28.581348419189453,2.1074798107147217,-0.0,-0.0,-1.0,0.1921008061229032,1.0
14.858760833740234,-28.38002014160156,2.088343381881714,-0.0,-0.0,-1.0,0.1364878362951809,1.0
15.584491729736328,-28.58474349975586,2.0515615940093994,-0.0,-0.0,-1.0,0.1304657724515938,2.0
15.531234741210938,-28.96349334716797,2.045111894607544,-0.0,-0.0,-1.0,0.238845868797025,1.0
15.350241661071776,-28.363265991210938,2.631797790527344,-0.0,-0.0,-1.0,0.1310389026056639,1.0
15.094383239746094,-28.803071975708008,2.6506876945495605,-0.0,-0.0,-1.0,0.1603424712858717,1.0
15.367446899414062,-28.777456283569336,2.634136915206909,-0.0,-0.0,-1.0,0.2103404012301493,1.0
15.26304054260254,-29.401691436767575,2.6455116271972656,-0.0,-0.0,-1.0,0.1780291089240969,1.0
15.628585815429688,-28.87731552124023,2.0022497177124023,-0.0,-0.0,-1.0,0.1620097709234007,1.0
15.055606842041016,-28.78221893310547,2.5760059356689453,-0.0,-0.0,-1.0,0.1530649257873974,2.0
15.438404083251951,-28.504817962646484,2.5544726848602295,-0.0,-0.0,-1.0,0.2025744786879243,1.0
15.3070707321167,-28.725830078125,2.5616395473480225,-0.0,-0.0,-1.0,0.1836901440774086,1.0
15.376522064208984,-29.38261604309082,2.5565781593322754,-0.0,-0.0,-1.0,0.1839071858711731,2.0
14.338822364807127,-28.421432495117188,2.462843179702759,-0.0,-0.0,-1.0,0.2092928980504284,1.0
14.95112419128418,-28.44484519958496,2.422938823699951,-0.0,-0.0,-1.0,0.1495241724698028,2.0
15.59202766418457,-28.768857955932617,2.374237298965454,-0.0,-0.0,-1.0,0.1620193204148462,1.0
15.680047988891602,-28.4178466796875,1.8329004049301147,-0.0,-0.0,-1.0,0.1713470309748213,1.0
15.65855598449707,-28.805850982666016,1.7986191511154177,-0.0,-0.0,-1.0,0.1455529314706696,1.0
14.921394348144531,-28.388294219970703,2.353832721710205,-0.0,-0.0,-1.0,0.1176819667088961,1.0
14.90464687347412,-28.67403030395508,2.3385133743286133,-0.0,-0.0,-1.0,0.1976792017630852,1.0
15.07088851928711,-30.123802185058594,2.2556400299072266,-0.0,-0.0,-1.0,0.2011044337511251,1.0
15.37014389038086,-28.883325576782227,2.309372901916504,-0.0,-0.0,-1.0,0.2527485364686111,1.0
15.647655487060549,-28.559249877929688,2.3098607063293457,-0.0,-0.0,-1.0,0.1497109013494073,2.0
15.632930755615234,-28.658092498779297,2.304955005645752,-0.0,-0.0,-1.0,0.1230339114632489,1.0
14.55754280090332,-28.37645721435547,2.366544723510742,-0.0,-0.0,-1.0,0.0619848571842307,1.0
14.745895385742188,-28.397727966308594,2.3628039360046387,-0.0,-0.0,-1.0,0.2622128632271412,1.0
15.513671875,-29.772245407104492,2.2907984256744385,-0.0,-0.0,-1.0,0.234739176077257,1.0
15.61596393585205,-28.617019653320312,2.337982654571533,-0.0,-0.0,-1.0,0.1560572819084012,2.0
15.521072387695312,-28.487398147583008,2.3453335762023926,0.0562351017617715,0.6520971020879134,-0.7560469448244522,0.2042147839729245,3.0
15.688642501831056,-28.547821044921875,2.3393826484680176,-0.0,-0.0,-1.0,0.1250657483808149,1.0
15.068859100341797,-28.41461181640625,2.164302349090576,-0.0,-0.0,-1.0,0.1226096937528054,1.0
15.507914543151855,-28.592620849609375,2.154355525970459,-0.0,-0.0,-1.0,0.2092119276332714,1.0
15.668129920959473,-29.255104064941406,2.123268365859986,-0.0,-0.0,-1.0,0.1116622279648375,1.0
15.071944236755373,-28.594207763671875,2.6390271186828613,-0.0,-0.0,-1.0,0.108843082598675,1.0
15.286027908325195,-29.21973419189453,2.625465154647827,-0.0,-0.0,-1.0,0.1620455442405615,1.0
15.30316162109375,-28.672653198242188,2.632598876953125,-0.0,-0.0,-1.0,0.1517287748318876,1.0
15.589879035949709,-28.376480102539062,2.0416502952575684,-0.0,-0.0,-1.0,0.2191924118042417,1.0
15.625030517578123,-28.690256118774418,2.032900810241699,-0.0,-0.0,-1.0,0.1467184541272706,1.0
14.907344818115234,-29.35533142089844,2.499166488647461,-0.0,-0.0,-1.0,0.0991600003697856,1.0
14.570587158203123,-28.454811096191406,2.4942359924316406,-0.0,-0.0,-1.0,0.0687453762095675,1.0
14.883283615112305,-29.028507232666016,2.49918270111084,-0.0,-0.0,-1.0,0.0907826523636607,1.0
15.28551197052002,-29.268165588378903,2.5038466453552246,-0.1168673072988139,0.7168917199185063,-0.6873196449956971,0.1822137828286194,3.0
15.568195343017578,-29.418148040771484,2.506377696990967,-0.0,-0.0,-1.0,0.0961037759476982,1.0
14.839111328125,-28.406267166137695,2.498534679412842,-0.0,-0.0,-1.0,0.1306751872901505,2.0
15.166818618774414,-28.64642333984375,2.503305673599243,-0.0,-0.0,-1.0,0.2161118866059583,2.0
15.427748680114746,-28.814533233642575,2.5064237117767334,-0.0,-0.0,-1.0,0.1449683433465659,1.0
15.027810096740724,-28.38936996459961,2.5014188289642334,-0.0,-0.0,-1.0,0.0776255708378539,1.0
15.266489028930664,-28.538753509521484,2.504754066467285,-0.0,-0.0,-1.0,0.168158773081944,1.0
15.53481674194336,-30.08091926574707,1.912201166152954,-0.0,-0.0,-1.0,0.1859568886685962,1.0
15.089865684509276,-30.196022033691406,2.4240729808807373,-0.0,-0.0,-1.0,0.11645664233567,1.0
15.432997703552246,-30.12836456298828,2.4320788383483887,-0.0,-0.0,-1.0,0.0655298265893189,1.0
15.591243743896484,-29.718429565429688,2.4371814727783203,-0.0,-0.0,-1.0,0.1407110482898917,2.0
14.960540771484377,-29.033750534057617,2.423147201538086,-0.0,-0.0,-1.0,0.1615510872480585,1.0
15.27601432800293,-28.64383888244629,2.432037353515625,-0.0,-0.0,-1.0,0.2201741840983503,2.0
15.514678955078123,-28.867706298828125,2.4378411769866943,-0.0,-0.0,-1.0,0.2107402800748897,1.0
15.22463035583496,-28.445144653320312,2.4307947158813477,-0.0,-0.0,-1.0,0.2470431609137472,2.0
15.61155128479004,-28.717254638671875,2.4406299591064453,-0.0,-0.0,-1.0,0.1362643832086814,1.0
15.371273040771484,-28.401222229003903,2.4348223209381104,-0.0,-0.0,-1.0,0.1176314287010348,1.0
15.614513397216797,-28.764617919921875,1.825161695480347,-0.0,-0.0,-1.0,0.1235667971667577,1.0
15.643622398376465,-29.298500061035156,2.310296058654785,-0.0,-0.0,-1.0,0.0969099746861845,1.0
15.063560485839844,-28.43467712402344,2.2941510677337646,-0.0,-0.0,-1.0,0.1321713975292086,1.0
15.51241683959961,-28.548568725585938,2.310300827026367,-0.0,-0.0,-1.0,0.2614177523310458,2.0
15.501867294311523,-28.435741424560547,2.310494899749756,-0.0,-0.0,-1.0,0.2174729380644159,1.0
14.332989692687988,-28.638702392578125,2.2145190238952637,-0.0,-0.0,-1.0,0.1911046352889036,1.0
15.619786262512209,-28.70576858520508,2.249011993408203,-0.0,-0.0,-1.0,0.1693369711818565,1.0
15.544917106628418,-28.4775333404541,2.2499423027038574,-0.0,-0.0,-1.0,0.1754526333138649,1.0
15.47036838531494,-28.393125534057617,2.7513961791992188,-0.0,-0.0,-1.0,0.1450645259330627,1.0
15.570674896240234,-28.65118408203125,2.0442655086517334,-0.0,-0.0,-1.0,0.170974599953653,1.0
15.49807834625244,-28.373058319091797,2.046407461166382,-0.0,-0.0,-1.0,0.1909001418394626,1.0
15.691685676574709,-28.491840362548828,2.051652431488037,-0.0,-0.0,-1.0,0.1589098708172296,1.0
14.034956932067873,-29.632055282592773,2.561091423034668,-0.0,-0.0,-1.0,0.1142965060298827,1.0
15.36988353729248,-29.333599090576172,2.5775983333587646,-0.0,-0.0,-1.0,0.1898644708027278,2.0
15.100655555725098,-29.02037048339844,2.571383476257324,-0.0,-0.0,-1.0,0.128102657628631,1.0
15.415072441101074,-29.07172966003418,2.576178550720215,-0.0,-0.0,-1.0,0.1065353939933098,2.0
14.832613945007324,-28.550228118896484,2.563143253326416,-0.0,-0.0,-1.0,0.1454045671908681,2.0
15.05408763885498,-28.78788185119629,2.5686960220336914,-0.0,-0.0,-1.0,0.1530649257873974,2.0
15.403676986694336,-28.79618263244629,2.5738117694854736,-0.0,-0.0,-1.0,0.1403101361268064,2.0
15.567487716674805,-28.379051208496097,2.572629451751709,-0.0,-0.0,-1.0,0.1807701080996213,1.0
15.096710205078123,-29.844762802124023,2.120361089706421,-0.0,-0.0,-1.0,0.2203285211978965,1.0
15.302464485168455,-28.968727111816406,2.129938840866089,-0.0,-0.0,-1.0,0.1594253208333589,1.0
15.647637367248535,-28.982603073120117,2.14501428604126,-0.0,-0.0,-1.0,0.0793709642356385,1.0
15.495731353759766,-28.696107864379883,2.13847017288208,-0.0,-0.0,-1.0,0.2039778634322208,1.0
14.661837577819824,-28.849124908447266,2.6833481788635254,-0.0,-0.0,-1.0,0.1064829551622091,1.0
15.041411399841309,-28.718101501464844,2.687852382659912,-0.0,-0.0,-1.0,0.0966154891391835,1.0
15.31568431854248,-28.764877319335938,2.6946451663970947,-0.0,-0.0,-1.0,0.1676407535188041,1.0
15.460068702697754,-28.38239288330078,2.6878256797790527,-0.0,-0.0,-1.0,0.147330191531158,1.0
15.439519882202148,-29.30628204345703,2.1342732906341553,-0.0,-0.0,-1.0,0.1871108976068654,1.0
15.27325439453125,-28.43038558959961,2.120434522628784,-0.0,-0.0,-1.0,0.1077371280950281,1.0
15.61655330657959,-28.646503448486328,2.1383306980133057,-0.0,-0.0,-1.0,0.1509173672860499,1.0
15.709105491638184,-29.754009246826172,2.1516664028167725,-0.0,-0.0,-1.0,0.1575421761470204,1.0
15.5736083984375,-29.077579498291016,1.8538172245025637,-0.0,-0.0,-1.0,0.1995739505453701,1.0
15.702875137329102,-28.426422119140625,1.880759358406067,-0.0,-0.0,-1.0,0.1703263584106883,1.0
14.059497833251951,-30.091554641723633,2.55210018157959,-0.0,-0.0,-1.0,0.1418875848919323,2.0
14.286558151245115,-30.124774932861328,2.550079107284546,-0.0,-0.0,-1.0,0.0863260443899013,1.0
14.701766967773438,-30.21737289428711,2.54585599899292,-0.0,-0.0,-1.0,0.0989663111231096,1.0
14.307373046875,-29.49159049987793,2.561609268188477,-0.0,-0.0,-1.0,0.1230854754392947,1.0
15.62344741821289,-30.30423927307129,2.538844347000122,-0.0,-0.0,-1.0,0.0851039812041381,1.0
14.629037857055664,-29.03964614868164,2.5679709911346436,-0.0,-0.0,-1.0,0.122550372830961,1.0
14.116212844848633,-28.576066970825195,2.5801830291748047,-0.0,-0.0,-1.0,0.1332840983874259,1.0
14.545740127563477,-28.83346176147461,2.5724003314971924,-0.0,-0.0,-1.0,0.1056146071515097,1.0
15.066465377807615,-28.90656280517578,2.567624807357788,-0.0,-0.0,-1.0,0.1218262496747053,1.0
14.980226516723633,-28.502748489379883,2.5757970809936523,-0.0,-0.0,-1.0,0.0895285090407655,2.0
15.588186264038086,-28.96375274658203,2.563227415084839,-0.0,-0.0,-1.0,0.2001102412900978,2.0
15.56313133239746,-29.413822174072266,1.8027818202972412,-0.0,-0.0,-1.0,0.1102332821560312,1.0
15.641763687133787,-28.86717987060547,1.8105108737945557,-0.0,-0.0,-1.0,0.1768138504928132,1.0
14.409732818603516,-30.284618377685547,2.5140411853790283,-0.0,-0.0,-1.0,0.1741649302032782,1.0
14.57773208618164,-30.179588317871097,2.515371084213257,-0.0,-0.0,-1.0,0.2034974645927591,1.0
15.119302749633787,-30.28069496154785,2.5240156650543213,-0.0,-0.0,-1.0,0.0687670208037738,1.0
14.002702713012695,-29.162439346313477,2.496476888656616,-0.0,-0.0,-1.0,0.0797410147623053,1.0
14.73406219482422,-28.457355499267575,2.4995458126068115,-0.0,-0.0,-1.0,0.1331659309242795,2.0
15.019287109375,-28.759464263916016,2.50701904296875,-0.0,-0.0,-1.0,0.1686452035058722,1.0
15.511552810668944,-28.76630401611328,2.514258623123169,-0.0,-0.0,-1.0,0.1961337168603101,1.0
15.514755249023438,-30.24383544921875,1.9002861976623535,-0.0,-0.0,-1.0,0.1910004511395124,1.0
15.079376220703123,-29.21155166625977,2.6249780654907227,-0.0,-0.0,-1.0,0.1265374498882633,1.0
15.404830932617188,-29.529081344604492,2.629986524581909,-0.0,-0.0,-1.0,0.1197657174521729,1.0
15.39046859741211,-28.556961059570312,2.6210031509399414,-0.0,-0.0,-1.0,0.1581955746435815,1.0
15.474409103393556,-28.916820526123047,2.6249465942382812,-0.0,-0.0,-1.0,0.1941661126687036,1.0
15.386640548706056,-28.747976303100582,2.199347496032715,-0.0,-0.0,-1.0,0.2312679035001975,1.0
14.887014389038086,-30.101627349853516,2.076558828353882,-0.0,-0.0,-1.0,0.1379046934796414,1.0
15.092828750610352,-29.441143035888672,2.0767836570739746,-0.0,-0.0,-1.0,0.1891820283868699,1.0
15.591833114624023,-28.692058563232425,2.0863497257232666,-0.0,-0.0,-1.0,0.1548904673207691,1.0
15.358037948608398,-29.724458694458008,2.158447265625,-0.0,-0.0,-1.0,0.1287087556951083,1.0
15.665931701660156,-28.44239616394043,2.1502299308776855,-0.0,-0.0,-1.0,0.1597419333003336,1.0
15.700088500976562,-28.856475830078125,2.15754771232605,-0.0,-0.0,-1.0,0.1109169778114679,1.0
15.450115203857422,-28.55936813354492,2.095980167388916,-0.0,-0.0,-1.0,0.2353220892890653,1.0
15.36252212524414,-28.77571678161621,2.0969250202178955,-0.0,-0.0,-1.0,0.2269508525983261,1.0
15.372032165527344,-29.108413696289062,2.103790044784546,-0.0,-0.0,-1.0,0.2561667914149446,1.0
15.214237213134766,-28.583711624145508,2.5251405239105225,-0.0,-0.0,-1.0,0.2007863187240106,1.0
14.866201400756836,-28.830076217651367,2.526607036590576,-0.0,-0.0,-1.0,0.1486422758660715,1.0
14.443212509155272,-29.659313201904297,2.544381856918335,-0.0,-0.0,-1.0,0.1472162769506642,1.0
15.37181282043457,-28.83711624145508,2.5356314182281494,0.9017519967847182,0.0582422330246469,-0.4283120107901202,0.1275157591782709,3.0
15.393022537231444,-29.08150863647461,2.5434064865112305,-0.0,-0.0,-1.0,0.1252977587742445,2.0
14.97921371459961,-29.380332946777344,2.5452542304992676,-0.0,-0.0,-1.0,0.1458066567403689,1.0
15.612974166870115,-28.931821823120117,2.5426948070526123,-0.0,-0.0,-1.0,0.1925706147611313,2.0
15.44754409790039,-29.468128204345703,2.555964708328247,-0.0,-0.0,-1.0,0.1149425805836153,2.0
15.415630340576172,-28.39917755126953,2.0531229972839355,-0.0,-0.0,-1.0,0.2491022770250341,2.0
15.603401184082031,-28.604217529296875,2.0604710578918457,-0.0,-0.0,-1.0,0.1534773957829039,2.0
15.286951065063477,-29.116188049316406,2.050692081451416,-0.0,-0.0,-1.0,0.1842829842641124,1.0
15.60635757446289,-28.399864196777344,2.0832462310791016,-0.0,-0.0,-1.0,0.2465920514948963,1.0
15.234540939331056,-28.61405372619629,2.069782257080078,-0.0,-0.0,-1.0,0.1972943827678472,1.0
15.651163101196287,-28.88692855834961,2.079020738601685,-0.0,-0.0,-1.0,0.1066600565290031,2.0
15.05558967590332,-29.22660255432129,2.057288646697998,-0.0,-0.0,-1.0,0.2021240162891135,1.0
15.313243865966797,-28.416431427001953,2.5084052085876465,-0.0,-0.0,-1.0,0.1128414098386475,1.0
15.169197082519531,-28.637001037597656,2.509937286376953,-0.0,-0.0,-1.0,0.215391619755123,2.0
15.525691986083984,-28.893770217895508,2.5178439617156982,-0.0,-0.0,-1.0,0.2044443464743796,2.0
15.19015121459961,-29.194469451904297,2.518204689025879,-0.0,-0.0,-1.0,0.1588300711518145,1.0
15.03546905517578,-29.31627655029297,2.518122434616089,-0.0,-0.0,-1.0,0.084267484185276,1.0
15.480558395385742,-29.329832077026367,2.5234739780426025,-0.0,-0.0,-1.0,0.154113086866374,1.0
14.332338333129885,-29.70410919189453,2.5153961181640625,-0.0,-0.0,-1.0,0.1209338986432082,1.0
15.55868911743164,-29.60475730895996,2.5281753540039062,-0.0,-0.0,-1.0,0.0807968042317635,1.0
14.249078750610352,-30.312854766845703,2.5227999687194824,-0.0,-0.0,-1.0,0.174876272217601,1.0
15.643147468566896,-28.502370834350582,2.286762237548828,-0.0,-0.0,-1.0,0.174025002439719,2.0
15.17506980895996,-28.522563934326172,2.2810091972351074,-0.0,-0.0,-1.0,0.118702882740191,1.0
15.540864944458008,-28.905534744262695,2.2705705165863037,-0.0,-0.0,-1.0,0.121899096963709,1.0
15.126951217651367,-29.818784713745117,2.231553554534912,-0.0,-0.0,-1.0,0.2539605684090936,1.0
15.673810958862305,-28.451175689697266,1.9512872695922852,-0.0,-0.0,-1.0,0.1751365946972029,1.0
15.500927925109863,-28.50329208374023,1.9420404434204104,-0.0,-0.0,-1.0,0.1774449434530652,1.0
15.435423851013184,-29.04876136779785,1.916430711746216,-0.0,-0.0,-1.0,0.1520450412042982,1.0
15.708819389343262,-29.15365219116211,1.9229449033737185,-0.0,-0.0,-1.0,0.1355917513109228,1.0
15.665067672729492,-29.583024978637695,1.9022672176361084,-0.0,-0.0,-1.0,0.1240891041760655,1.0
15.066407203674316,-28.694704055786133,2.4816033840179443,-0.0,-0.0,-1.0,0.1408078724038937,1.0
14.754155158996582,-28.76859664916992,2.476961135864258,-0.0,-0.0,-1.0,0.1829318009968541,2.0
15.487570762634276,-28.81852149963379,2.480858564376831,-0.55880968795649,-0.5681429685074452,-0.6041070269261221,0.2254322833610337,3.0
15.135025024414062,-29.099864959716797,2.4693713188171387,-0.0,-0.0,-1.0,0.1158065166437688,1.0
14.971521377563477,-29.244672775268555,2.4635791778564453,-0.0,-0.0,-1.0,0.1837791669023117,1.0
15.423724174499512,-29.2381591796875,2.467088460922241,-0.0,-0.0,-1.0,0.1692029265469515,1.0
15.135194778442385,-29.490556716918945,2.4569268226623535,-0.0,-0.0,-1.0,0.1889817144046244,1.0
15.39643383026123,-29.77380752563477,2.4496655464172363,-0.0,-0.0,-1.0,0.0873341567881652,1.0
14.96851921081543,-29.85494613647461,2.444002628326416,-0.0,-0.0,-1.0,0.108280399620032,1.0
14.565096855163574,-29.94543838500977,2.43819522857666,-0.0,-0.0,-1.0,0.1998558260736959,1.0
15.551697731018066,-30.240699768066406,2.435513734817505,-0.0,-0.0,-1.0,0.088083378132228,1.0
15.120315551757812,-30.354127883911133,2.428804874420166,-0.0,-0.0,-1.0,0.0986442034214995,1.0
15.522866249084473,-29.05185317993164,1.8850431442260744,-0.0,-0.0,-1.0,0.210195357992506,1.0
14.15940761566162,-28.631023406982425,2.372711181640625,-0.0,-0.0,-1.0,0.2214909883824868,1.0
14.814411163330078,-28.673383712768555,2.3944971561431885,-0.0,-0.0,-1.0,0.2024392819149911,1.0
15.068527221679688,-29.18111801147461,2.3845138549804688,-0.0,-0.0,-1.0,0.2002003867932802,1.0
14.732559204101562,-29.207399368286133,2.371764659881592,-0.0,-0.0,-1.0,0.1449217191877863,1.0
15.06033420562744,-29.78429412841797,2.360635757446289,-0.0,-0.0,-1.0,0.15517483637159,1.0
15.100903511047363,-29.881824493408203,2.358104944229126,-0.0,-0.0,-1.0,0.2527456013031455,1.0
15.247552871704102,-28.71251678466797,2.4083986282348633,-0.0,-0.0,-1.0,0.1854352392470032,1.0
15.304515838623049,-29.301254272460938,2.388108491897583,-0.0,-0.0,-1.0,0.1964020000587424,1.0
15.625836372375488,-29.79500389099121,2.379525661468506,-0.0,-0.0,-1.0,0.1163953737709079,1.0
15.375341415405272,-28.83845329284668,1.9737515449523928,-0.0,-0.0,-1.0,0.1358868043551676,1.0
15.42771339416504,-29.12627220153809,1.9643635749816897,-0.0,-0.0,-1.0,0.1611103932711448,1.0
15.183710098266602,-29.833972930908203,1.912152647972107,-0.0,-0.0,-1.0,0.1886029910247647,1.0
15.636816024780272,-28.370323181152344,2.013770818710327,-0.0,-0.0,-1.0,0.2191924118042415,1.0
15.401113510131836,-28.432395935058594,1.99352765083313,-0.0,-0.0,-1.0,0.189533622745036,1.0
15.568455696105955,-28.883548736572266,1.985945463180542,-0.0,-0.0,-1.0,0.180241676827749,1.0
15.509295463562012,-28.363582611083984,2.480221748352051,-0.0,-0.0,-1.0,0.1200796909150856,2.0
15.211934089660645,-28.47463035583496,2.46445369720459,-0.0,-0.0,-1.0,0.2244639286737056,2.0
14.968178749084473,-28.54482650756836,2.452223300933838,-0.0,-0.0,-1.0,0.2158974062121539,1.0
15.484100341796877,-28.797466278076172,2.4642670154571533,-0.55880968795649,-0.5681429685074452,-0.6041070269261221,0.1758608249593226,3.0
15.08102321624756,-29.090824127197266,2.437812089920044,-0.0,-0.0,-1.0,0.1307575654355955,1.0
15.539451599121094,-29.225372314453125,2.4511072635650635,-0.0,-0.0,-1.0,0.1775744007039727,1.0
15.105884552001951,-29.34210968017578,2.429666757583618,-0.0,-0.0,-1.0,0.1749536652828574,1.0
14.35556983947754,-29.367809295654297,2.3990416526794434,-0.0,-0.0,-1.0,0.2391024044942823,1.0
15.162652969360352,-29.74043846130371,2.41707992553711,-0.0,-0.0,-1.0,0.1583414230588377,1.0
14.673388481140137,-29.92126846313477,2.39107084274292,-0.0,-0.0,-1.0,0.2825502819871815,1.0
14.458911895751951,-30.10772705078125,2.375638961791992,-0.0,-0.0,-1.0,0.2124921765771629,2.0
15.647331237792969,-30.052227020263672,2.423733711242676,-0.0,-0.0,-1.0,0.128376379486996,1.0
15.503864288330078,-30.066173553466797,2.4176461696624756,-0.0,-0.0,-1.0,0.1219624840483424,1.0
15.38505744934082,-28.410022735595703,2.0625557899475098,-0.0,-0.0,-1.0,0.2219041665512556,2.0
15.617684364318848,-28.835445404052734,2.061879396438598,-0.0,-0.0,-1.0,0.1057197605306279,1.0
15.709250450134276,-29.26090431213379,2.0490524768829346,-0.0,-0.0,-1.0,0.1128023764701227,1.0
15.000595092773438,-29.16310691833496,2.0005686283111572,-0.0,-0.0,-1.0,0.2062928778990198,1.0
15.675175666809082,-29.54030418395996,2.0329599380493164,-0.0,-0.0,-1.0,0.1277940176795952,2.0
15.099635124206545,-29.879539489746097,1.973596692085266,-0.0,-0.0,-1.0,0.266058175387128,2.0
14.987509727478027,-28.462078094482425,2.485496997833252,-0.0,-0.0,-1.0,0.1254038385997472,2.0
15.4900541305542,-28.88762664794922,2.4923064708709717,-0.0,-0.0,-1.0,0.269216380919194,2.0
15.138383865356444,-28.788116455078125,2.480989456176758,-0.0,-0.0,-1.0,0.1231451014854625,1.0
14.74656581878662,-28.7855281829834,2.4645891189575195,-0.0,-0.0,-1.0,0.1819045067379379,2.0
14.00324249267578,-29.291093826293945,2.416067123413086,-0.0,-0.0,-1.0,0.1517706379393591,1.0
15.446154594421388,-29.19255256652832,2.4796876907348633,-0.0,-0.0,-1.0,0.1565060685828226,1.0
15.279219627380373,-29.30282974243164,2.4687609672546387,-0.0,-0.0,-1.0,0.2097225832032179,2.0
14.669416427612305,-29.343158721923828,2.442030429840088,-0.0,-0.0,-1.0,0.1304541761253031,1.0
15.568053245544434,-29.57155418395996,2.4707915782928467,-0.0,-0.0,-1.0,0.1066261136111804,1.0
15.394895553588867,-29.44471740722656,2.468392133712769,-0.0,-0.0,-1.0,0.1169515480824177,2.0
14.79523468017578,-29.895875930786133,2.426968574523926,-0.0,-0.0,-1.0,0.103890044307369,1.0
15.572283744812012,-29.80986976623535,2.4619219303131104,-0.0,-0.0,-1.0,0.1524384664607287,1.0
15.010879516601562,-30.1423282623291,2.426311492919922,-0.0,-0.0,-1.0,0.1188640727328581,1.0
14.655746459960938,-30.10177993774414,2.4134645462036133,-0.0,-0.0,-1.0,0.2015446365801146,1.0
15.44717502593994,-28.50896453857422,2.0865142345428467,-0.081072133470592,-0.9699084919946206,-0.2295753173388791,0.2540335805613312,3.0
15.104263305664062,-28.566680908203125,2.0561788082122803,-0.0,-0.0,-1.0,0.1988351029770193,1.0
15.65784740447998,-28.893779754638672,2.0827882289886475,-0.0,-0.0,-1.0,0.1066600565290031,2.0
14.93099594116211,-29.179136276245117,2.009697675704956,-0.0,-0.0,-1.0,0.2017056300455378,1.0
15.676461219787598,-29.50205993652344,2.049603223800659,-0.0,-0.0,-1.0,0.1441608657177507,2.0
15.103226661682127,-29.884180068969727,1.982394814491272,-0.0,-0.0,-1.0,0.2224587812744768,2.0
15.502113342285156,-28.39260482788086,2.497281789779663,-0.0,-0.0,-1.0,0.1942069658734663,2.0
15.21808910369873,-28.597660064697266,2.475433349609375,-0.0,-0.0,-1.0,0.2033577962709119,1.0
14.807902336120604,-28.717039108276367,2.451502799987793,-0.0,-0.0,-1.0,0.1648275424164718,2.0
15.509690284729004,-28.83755874633789,2.478301525115967,-0.55880968795649,-0.5681429685074452,-0.6041070269261221,0.2044443464743797,3.0
15.248186111450195,-29.00934600830078,2.458739757537842,-0.0,-0.0,-1.0,0.1133765890677539,1.0
14.915033340454102,-29.281877517700195,2.431388139724731,-0.0,-0.0,-1.0,0.1367139441202392,1.0
14.303751945495604,-29.37963104248047,2.3993043899536133,-0.0,-0.0,-1.0,0.2351563699657306,1.0
15.382817268371582,-29.330982208251953,2.4501872062683105,-0.6477611228108044,0.7451512928936027,-0.15860352604491,0.1982429159146753,3.0
15.018071174621582,-29.427566528320312,2.429361581802368,-0.0,-0.0,-1.0,0.2355834290519863,1.0
14.652204513549805,-29.73121452331543,2.398831844329834,-0.0,-0.0,-1.0,0.1693459966067375,1.0
15.56332015991211,-29.738569259643555,2.439018487930298,-0.0,-0.0,-1.0,0.1407110482898917,2.0
15.223576545715332,-29.984432220458984,2.4121463298797607,-0.0,-0.0,-1.0,0.0867447884871656,2.0
14.65284252166748,-30.027448654174805,2.384815454483032,-0.0,-0.0,-1.0,0.2686386795791588,2.0
15.570268630981444,-30.029888153076172,2.425170421600342,-0.0,-0.0,-1.0,0.1251967766149565,1.0
15.164494514465332,-30.32891082763672,2.392617464065552,-0.0,-0.0,-1.0,0.0955502254931259,1.0
15.247644424438477,-28.66939353942871,2.011158227920532,-0.0,-0.0,-1.0,0.2144421692677254,1.0
15.125081062316896,-29.141130447387695,1.9755654335021973,-0.0,-0.0,-1.0,0.1696648478988059,1.0
15.034890174865724,-29.265605926513672,1.9603400230407717,-0.0,-0.0,-1.0,0.163740407227887,1.0
15.435259819030762,-28.489112854003903,2.2201170921325684,-0.0,-0.0,-1.0,0.204225879682275,1.0
15.115344047546388,-28.634143829345703,2.3756349086761475,-0.0,-0.0,-1.0,0.1875052789685023,1.0
14.861019134521484,-28.65908432006836,2.359367847442627,-0.0,-0.0,-1.0,0.1902205464661416,1.0
15.533317565917969,-28.81966781616211,2.213376998901367,-0.0,-0.0,-1.0,0.2299412678694897,1.0
15.3860502243042,-29.051584243774418,2.374638795852661,-0.0,-0.0,-1.0,0.1733660972328428,1.0
14.858951568603516,-29.246105194091797,2.335082769393921,-0.0,-0.0,-1.0,0.2246380133646643,1.0
14.229726791381836,-29.348642349243164,2.2936511039733887,-0.0,-0.0,-1.0,0.1988199221492108,1.0
15.652212142944336,-29.26704978942871,2.199901580810547,-0.0,-0.0,-1.0,0.0980336121213193,1.0
14.322114944458008,-29.65677070617676,2.2848129272460938,-0.0,-0.0,-1.0,0.2341671944229501,1.0
15.364770889282228,-29.767885208129883,2.3379971981048584,-0.0,-0.0,-1.0,0.1897297429794795,1.0
15.002408981323242,-29.8408260345459,2.3139984607696533,-0.0,-0.0,-1.0,0.2314793253905158,1.0
14.575762748718262,-29.824512481689453,2.290910005569458,-0.0,-0.0,-1.0,0.2144591537152925,1.0
15.370110511779783,-29.07603645324707,1.8386471271514893,-0.0,-0.0,-1.0,0.1304703215193772,1.0
15.532938957214355,-28.77863883972168,2.051107168197632,-0.0,-0.0,-1.0,0.1904566793040946,1.0
15.03794002532959,-29.257150650024418,2.164564371109009,-0.0,-0.0,-1.0,0.2142225863542123,1.0
15.65855312347412,-29.565446853637695,2.199404716491699,-0.0,-0.0,-1.0,0.1331295157748437,1.0
14.651467323303224,-29.51561737060547,2.119724750518799,-0.0,-0.0,-1.0,0.1958771177704312,1.0
14.585542678833008,-30.114952087402344,2.082261562347412,-0.0,-0.0,-1.0,0.1721059896803714,1.0
15.638596534729004,-30.145946502685547,2.164276123046875,-0.0,-0.0,-1.0,0.1276340799155171,1.0
15.49682331085205,-28.47356605529785,2.5889477729797363,-0.9544136289348784,-0.1129576344565218,-0.2762882511460492,0.1898933634761253,3.0
14.830522537231444,-28.53636932373047,2.553044080734253,-0.0,-0.0,-1.0,0.1795819170988655,2.0
14.270713806152344,-28.423891067504883,2.528043270111084,-0.0,-0.0,-1.0,0.1982057007956872,1.0
15.388235092163086,-28.832021713256836,2.57089900970459,0.8632180132582833,-0.1520191820557865,-0.4813988262070358,0.1411584854846037,4.0
15.104936599731444,-28.69610595703125,2.561487913131714,-0.0,-0.0,-1.0,0.1477912488102468,1.0
15.412708282470703,-29.318395614624023,2.5534958839416504,-0.0,-0.0,-1.0,0.1988406479862349,1.0
14.995293617248535,-29.20582389831543,2.537393569946289,-0.0,-0.0,-1.0,0.138779862053769,1.0
14.859164237976074,-29.18169593811035,2.531569480895996,-0.0,-0.0,-1.0,0.1165569769087594,1.0
15.638327598571776,-29.54243278503418,2.555147647857666,-0.0,-0.0,-1.0,0.0597605247335379,1.0
15.079180717468262,-29.503726959228516,2.5297188758850098,-0.0,-0.0,-1.0,0.088692910653846,1.0
14.295995712280272,-29.61512756347656,2.4869978427886963,-0.0,-0.0,-1.0,0.2246116726431825,1.0
14.40553379058838,-29.85133934020996,2.482698917388916,-0.0,-0.0,-1.0,0.0978260114598947,1.0
14.082651138305664,-30.091703414916992,2.4569778442382812,-0.0,-0.0,-1.0,0.1418875848919323,1.0
15.672919273376465,-28.72610092163086,1.968051552772522,-0.0,-0.0,-1.0,0.1035385964107501,1.0
15.127969741821287,-28.632692337036133,2.0853359699249268,-0.0,-0.0,-1.0,0.1881539763668042,2.0
14.94739818572998,-28.73546600341797,2.0628857612609863,-0.0,-0.0,-1.0,0.2291967365523725,1.0
15.566773414611816,-29.004497528076172,1.9402554035186768,-0.0,-0.0,-1.0,0.1932937717314963,1.0
15.16446018218994,-29.13554000854492,2.066080093383789,-0.0,-0.0,-1.0,0.2112992771927757,1.0
15.395502090454102,-29.522300720214844,2.0695855617523193,-0.0,-0.0,-1.0,0.1681217138861708,1.0
14.94080924987793,-29.302330017089844,2.0360796451568604,-0.0,-0.0,-1.0,0.1670758488755665,1.0
15.601079940795898,-29.817995071411133,2.0738916397094727,-0.0,-0.0,-1.0,0.2097963722707642,1.0
14.477593421936035,-30.109956741333008,1.950003981590271,-0.0,-0.0,-1.0,0.2136759909269322,1.0
15.561383247375488,-28.816734313964844,2.4589242935180664,-0.0,-0.0,-1.0,0.2093580286562191,1.0
15.25063419342041,-28.62523078918457,2.445258617401123,-0.6211237898054315,-0.3483703287159786,-0.7020280277938045,0.1932980406717766,3.0
14.834925651550291,-28.620098114013672,2.4181365966796875,-0.0,-0.0,-1.0,0.1694590523358058,1.0
15.480643272399902,-29.096153259277344,2.4434735774993896,-0.0,-0.0,-1.0,0.1551917251464684,1.0
15.042832374572754,-29.232769012451172,2.4100191593170166,-0.0,-0.0,-1.0,0.2209479994455276,1.0
15.379764556884766,-29.462486267089844,2.4230728149414062,-0.0,-0.0,-1.0,0.1354390481070386,1.0
14.785409927368164,-29.20136451721191,2.3944411277770996,-0.0,-0.0,-1.0,0.165141503396278,1.0
15.479147911071776,-29.932676315307617,2.4107069969177246,-0.0,-0.0,-1.0,0.1293868429595643,1.0
15.094400405883787,-29.816421508789062,2.390918731689453,-0.0,-0.0,-1.0,0.1400157142783678,1.0
15.430182456970217,-30.17828941345215,2.3974623680114746,-0.0,-0.0,-1.0,0.0635324541920448,1.0
14.441289901733398,-30.12566566467285,2.3368735313415527,-0.0,-0.0,-1.0,0.1919150213183831,2.0
15.66793441772461,-28.365562438964844,1.6285371780395508,-0.0,-0.0,-1.0,0.2290292183679636,1.0
15.21857738494873,-29.876323699951172,1.7991535663604736,-0.0,-0.0,-1.0,0.1761858508004146,1.0
15.166369438171388,-30.32219123840332,1.7624918222427368,-0.0,-0.0,-1.0,0.1524056351635437,1.0
15.407060623168944,-28.500900268554688,2.066610336303711,-0.0,-0.0,-1.0,0.2157436622455983,2.0
15.605705261230469,-28.984968185424805,1.9016395807266235,-0.0,-0.0,-1.0,0.168397339547489,1.0
15.300312995910645,-28.804601669311523,2.0383658409118652,-0.0,-0.0,-1.0,0.1738450578854627,1.0
15.549668312072754,-29.392358779907227,2.034460067749023,-0.0,-0.0,-1.0,0.20490145876026,1.0
15.23019790649414,-29.258020401000977,2.0094354152679443,-0.0,-0.0,-1.0,0.1798049607424943,1.0
15.701412200927734,-29.95306968688965,2.0180461406707764,-0.0,-0.0,-1.0,0.1271027560299215,1.0
15.323431015014648,-29.755414962768555,1.992353439331055,-0.0,-0.0,-1.0,0.1608939335761915,1.0
14.340542793273926,-29.48391914367676,2.0853872299194336,-0.0,-0.0,-1.0,0.1844085274264794,1.0
15.368985176086426,-30.1824951171875,1.796250820159912,-0.0,-0.0,-1.0,0.2383084961201469,1.0
14.458124160766602,-30.1426944732666,2.0640220642089844,-0.0,-0.0,-1.0,0.2079002343659202,1.0
15.39389419555664,-28.432064056396484,2.3873016834259033,-0.0,-0.0,-1.0,0.1279017465360817,1.0
15.1257963180542,-28.440900802612305,2.530191659927368,-0.0,-0.0,-1.0,0.1163495689200146,2.0
15.255809783935549,-28.818193435668945,2.526170015335083,-0.0,-0.0,-1.0,0.2492209238172366,1.0
14.902280807495115,-28.757816314697266,2.507533073425293,-0.0,-0.0,-1.0,0.1368804455675736,1.0
14.320928573608398,-28.36949920654297,2.4849653244018555,-0.0,-0.0,-1.0,0.2092928980504284,1.0
15.427972793579102,-29.43666076660156,2.5152390003204346,-0.2342706610355092,-0.8369492482285806,-0.4946040975038516,0.109068561047385,3.0
15.026708602905272,-29.216421127319336,2.4999513626098633,-0.0,-0.0,-1.0,0.1784243173012105,1.0
14.754105567932127,-29.108680725097656,2.4878242015838623,-0.0,-0.0,-1.0,0.0908634237867107,1.0
14.954252243041992,-29.510906219482425,2.4857990741729736,-0.0,-0.0,-1.0,0.1571367607142686,1.0
14.442879676818848,-29.48475646972656,2.457496881484986,-0.0,-0.0,-1.0,0.2540494754728785,1.0
13.98816204071045,-29.336631774902344,2.436213970184326,-0.0,-0.0,-1.0,0.1526350927018278,2.0
15.418603897094728,-30.275711059570312,2.4836068153381348,-0.0,-0.0,-1.0,0.0904413231424165,1.0
14.365640640258787,-29.87716484069824,2.439487934112549,-0.0,-0.0,-1.0,0.1135869089847438,1.0
14.876530647277832,-29.96255111694336,1.8001593351364136,-0.0,-0.0,-1.0,0.1389573825399621,1.0
15.613407135009766,-28.41907501220703,1.966135025024414,-0.0,-0.0,-1.0,0.2041808097982621,1.0
15.46976089477539,-28.75846290588379,1.933441400527954,-0.0,-0.0,-1.0,0.1840521278760289,1.0
15.127964973449709,-28.63317108154297,2.058959722518921,-0.0,-0.0,-1.0,0.2312334716742527,2.0
15.594181060791016,-29.270187377929688,1.9248194694519043,-0.0,-0.0,-1.0,0.2124584117801625,1.0
15.27393627166748,-29.160186767578125,1.8904178142547607,-0.0,-0.0,-1.0,0.1100289898543503,1.0
15.685970306396484,-29.989398956298828,2.059014797210694,-0.0,-0.0,-1.0,0.1031605539006897,1.0
15.39071273803711,-29.60856819152832,2.0451548099517822,-0.0,-0.0,-1.0,0.1906736263982382,1.0
15.059144020080566,-29.461519241333008,2.1853649616241455,-0.0,-0.0,-1.0,0.1538524814170436,1.0
14.385978698730469,-29.646224975585938,2.1169633865356445,-0.0,-0.0,-1.0,0.2421808240397986,1.0
15.592957496643066,-28.417631149291992,2.421412944793701,-0.0,-0.0,-1.0,0.1371711165056842,1.0
15.435860633850098,-28.82937240600586,2.399258613586426,-0.0,-0.0,-1.0,0.2306759006254007,1.0
15.1729154586792,-28.560537338256836,2.3864316940307617,-0.0,-0.0,-1.0,0.1778629064277857,1.0
14.922354698181152,-28.390525817871097,2.531480073928833,-0.0,-0.0,-1.0,0.1261052076974935,1.0
15.447612762451172,-29.45836067199707,2.542656183242798,-0.0641486981379485,-0.8043570206031558,-0.5906731142803276,0.1090685610473849,3.0
15.25447940826416,-29.406726837158203,2.5323550701141357,-0.0,-0.0,-1.0,0.1985430835683954,1.0
14.916241645812988,-28.96310043334961,2.520991563796997,-0.0,-0.0,-1.0,0.086159721503031,1.0
14.653680801391602,-28.79536819458008,2.508132219314575,-0.0,-0.0,-1.0,0.1229748008977158,1.0
14.24016284942627,-28.39105987548828,2.489284038543701,-0.0,-0.0,-1.0,0.2214674017251762,1.0
14.920536994934082,-29.481016159057617,2.5108489990234375,-0.0,-0.0,-1.0,0.1867570526619455,1.0
14.678933143615724,-29.26488494873047,2.5007948875427246,-0.0,-0.0,-1.0,0.1365845266511096,1.0
14.26150894165039,-28.7465877532959,2.484933614730835,-0.0,-0.0,-1.0,0.1310262352264294,1.0
13.976927757263184,-29.379131317138672,2.456155300140381,-0.0,-0.0,-1.0,0.1142134418101135,2.0
14.496465682983398,-30.057859420776367,2.4728682041168213,-0.0,-0.0,-1.0,0.1774437999104829,1.0
14.105525970458984,-29.735431671142575,2.4567384719848633,-0.0,-0.0,-1.0,0.1583349999220235,2.0
14.030458450317385,-30.11838150024414,2.4439618587493896,-0.0,-0.0,-1.0,0.1418875848919323,1.0
14.864831924438477,-28.370952606201172,2.4464073181152344,-0.0,-0.0,-1.0,0.1681030660450623,1.0
14.277738571166992,-28.373756408691406,2.4044461250305176,-0.0,-0.0,-1.0,0.2048333896201709,1.0
13.969054222106934,-28.62767791748047,2.7279438972473145,-0.0,-0.0,-1.0,0.1049424306188072,1.0
15.687484741210938,-29.6940975189209,2.1890134811401367,-0.0,-0.0,-1.0,0.1693020823290985,1.0
15.185354232788086,-29.788536071777344,2.138850688934326,-0.0,-0.0,-1.0,0.2472740809663654,1.0
15.091889381408691,-30.309654235839844,2.1043686866760254,-0.0,-0.0,-1.0,0.1976133896859998,1.0
14.31814193725586,-28.363250732421875,2.1176061630249023,-0.0,-0.0,-1.0,0.1693256980660865,1.0
15.046236991882324,-28.457595825195312,2.507761001586914,-0.0,-0.0,-1.0,0.1138309394962261,2.0
14.731294631958008,-28.488285064697266,2.4846248626708984,-0.0,-0.0,-1.0,0.1307237710620652,2.0
14.98147678375244,-30.300031661987305,2.462682723999023,-0.0,-0.0,-1.0,0.1068152886078186,1.0
13.95991325378418,-28.440818786621097,2.4293839931488037,-0.0,-0.0,-1.0,0.2140532588909769,1.0
14.24920654296875,-28.500476837158203,2.528080940246582,-0.0,-0.0,-1.0,0.1982057007956872,1.0
14.111202239990234,-28.550235748291016,2.517686367034912,-0.0,-0.0,-1.0,0.1681318213229078,1.0
15.189000129699709,-28.376789093017575,2.289137601852417,-0.0,-0.0,-1.0,0.1432354421763902,1.0
13.920831680297852,-28.66822052001953,2.5689735412597656,-0.0,-0.0,-1.0,0.1513525889428765,1.0
13.941400527954102,-28.36543655395508,2.2501509189605713,-0.0,-0.0,-1.0,0.1359690418869602,1.0
14.385367393493652,-28.6614990234375,2.4424633979797363,-0.0,-0.0,-1.0,0.1221587072043897,1.0
15.425105094909668,-28.498924255371097,2.4922266006469727,-0.0,-0.0,-1.0,0.2182753491115754,1.0
15.417677879333496,-29.297840118408203,2.463519334793091,-0.6477611228108044,0.7451512928936027,-0.15860352604491,0.1621128889747793,3.0
15.425823211669922,-28.9636173248291,2.475776195526123,-0.0,-0.0,-1.0,0.2456732236447512,2.0
15.263429641723633,-28.71788787841797,2.476827621459961,0.0983198383370467,0.257797475248014,-0.9611834742363846,0.1419541690472361,3.0
15.246509552001951,-29.204923629760746,2.4587697982788086,-0.0,-0.0,-1.0,0.1581313752412295,1.0
15.210681915283203,-29.992542266845703,2.429105520248413,-0.0,-0.0,-1.0,0.0867447884871656,2.0
14.64238739013672,-30.043441772460938,2.400515079498291,-0.0,-0.0,-1.0,0.2460594371629191,2.0
15.558180809020996,-29.176095962524418,2.112752676010132,-0.0,-0.0,-1.0,0.2058116232163623,1.0
15.031560897827148,-28.575817108154297,2.1232879161834717,-0.0,-0.0,-1.0,0.1808749208506728,1.0
15.46751880645752,-28.58788299560547,2.6265714168548584,-0.0,-0.0,-1.0,0.136426263445552,1.0
15.335186004638672,-29.33025360107422,2.601383924484253,-0.0,-0.0,-1.0,0.1778012272449261,2.0
14.978689193725586,-28.816978454589844,2.6017813682556152,-0.0,-0.0,-1.0,0.0905771610454355,1.0
14.74994659423828,-29.47398376464844,2.575262546539306,-0.0,-0.0,-1.0,0.0809830491774486,1.0
15.080821990966797,-28.47344970703125,2.5594515800476074,-0.0,-0.0,-1.0,0.1143568580536931,1.0
15.65386199951172,-28.813446044921875,2.3835928440093994,-0.0,-0.0,-1.0,0.202879767587312,2.0
14.290647506713867,-29.461685180664062,2.293668746948242,-0.0,-0.0,-1.0,0.2158986133154581,1.0
14.51742172241211,-30.159814834594727,1.7105717658996582,-0.0,-0.0,-1.0,0.2226335816716797,1.0
14.298460006713867,-29.258638381958008,1.8053193092346191,-0.0,-0.0,-1.0,0.1319005219839608,1.0
13.820878982543944,-28.393997192382812,1.593797206878662,-0.0,-0.0,-1.0,0.1568660301866856,1.0
14.14405632019043,-29.517498016357425,2.1603360176086426,-0.0,-0.0,-1.0,0.2187162880918318,1.0
15.643882751464844,-28.612163543701172,2.338462829589844,-0.0,-0.0,-1.0,0.1294858471617851,2.0
14.131122589111328,-28.689544677734375,2.38797378540039,-0.0,-0.0,-1.0,0.2797293340328599,1.0
14.82167625427246,-28.71854019165039,2.420647621154785,-0.0,-0.0,-1.0,0.2265425822427318,2.0
14.214299201965332,-28.43438720703125,2.4267516136169434,-0.0,-0.0,-1.0,0.1957619951798144,1.0
14.889089584350586,-28.42578125,2.4634437561035156,-0.0,-0.0,-1.0,0.1681030660450622,1.0
15.237997055053713,-28.761890411376953,2.4364166259765625,-0.0,-0.0,-1.0,0.1678709431932034,2.0
14.784929275512695,-28.871337890625,2.3366928100585938,-0.0,-0.0,-1.0,0.1765671741477177,1.0
14.27161979675293,-29.695829391479492,2.436131000518799,-0.0,-0.0,-1.0,0.2166978215642237,1.0
14.563342094421388,-30.126649856567383,2.372702121734619,-0.0,-0.0,-1.0,0.2475813831476225,1.0
14.57489013671875,-29.71025657653809,2.4304566383361816,-0.0,-0.0,-1.0,0.1816631908482233,1.0
13.779791831970217,-29.36153221130371,2.4877114295959473,-0.0,-0.0,-1.0,0.1862484962304125,1.0
13.779647827148438,-28.44016456604004,2.616638660430908,-0.0,-0.0,-1.0,0.2075822051385934,2.0
14.674806594848633,-29.19197654724121,2.5009827613830566,-0.0,-0.0,-1.0,0.1112875284494263,1.0
14.754176139831545,-28.624231338500977,2.578300952911377,-0.0,-0.0,-1.0,0.0968991635059615,1.0
14.890057563781738,-29.112722396850582,2.508591651916504,-0.0,-0.0,-1.0,0.094726301224292,1.0
15.19691276550293,-28.53163146972656,2.583181381225586,-0.0,-0.0,-1.0,0.1459299646211393,1.0
15.084538459777832,-28.95984649658203,2.526430130004883,-0.0,-0.0,-1.0,0.104719914800364,1.0
13.806340217590332,-29.751314163208008,2.047671318054199,-0.0,-0.0,-1.0,0.1562649394993877,1.0
15.681105613708496,-28.779088973999023,2.0514674186706543,-0.0,-0.0,-1.0,0.1012677836810081,2.0
15.5018892288208,-29.149085998535156,2.3375930786132812,-0.0,-0.0,-1.0,0.1891123345141586,1.0
15.320823669433594,-28.997175216674805,2.3733739852905273,-0.0,-0.0,-1.0,0.2191185720975519,1.0
15.667254447937012,-28.420894622802734,2.4079065322875977,-0.0,-0.0,-1.0,0.1437741214557545,1.0
15.480721473693848,-28.808273315429688,2.380417823791504,-0.0,-0.0,-1.0,0.258163601278049,2.0
15.47685432434082,-29.567392349243164,2.494044780731201,-0.0,-0.0,-1.0,0.0886145858068498,1.0
15.420166969299316,-28.68585777282715,2.2595572471618652,-0.0,-0.0,-1.0,0.2553426765208014,1.0
15.086013793945312,-29.284685134887695,2.2543163299560547,-0.0,-0.0,-1.0,0.2094545512052349,1.0
15.409626007080078,-29.167163848876953,2.2191972732543945,-0.0,-0.0,-1.0,0.1541981847978471,1.0
15.236516952514648,-29.33831214904785,2.2285637855529785,-0.0,-0.0,-1.0,0.2240242888400226,1.0
15.172041893005373,-29.727895736694336,2.2032065391540527,-0.0,-0.0,-1.0,0.2491890049472915,1.0
15.685681343078612,-29.4710750579834,2.153631687164306,-0.0,-0.0,-1.0,0.0974852544844082,1.0
14.118678092956545,-28.368757247924805,1.725555419921875,-0.0,-0.0,-1.0,0.1454246894016942,1.0
