x,y,z,nx,ny,nz,curvature,density,label
26.339698791503903,29.98295211791992,-1.6419886350631714,-0.0,-0.0,-1.0,0.1443402220410199,1.0,0.0
25.99067115783691,30.01336669921875,-1.6851471662521362,-0.0,-0.0,-1.0,0.1124328399713395,1.0,0.0
27.45444107055664,30.274255752563477,-2.3332972526550293,-0.0,-0.0,-1.0,0.0478841639907524,1.0,0.0
27.1661319732666,30.396371841430664,-2.3851099014282227,-0.0,-0.0,-1.0,0.0935127379756728,1.0,0.0
26.736141204833984,29.951793670654297,-2.38814926147461,-0.0,-0.0,-1.0,0.0180401035750585,1.0,0.0
26.71693992614746,29.53009033203125,-2.341395378112793,-0.0,-0.0,-1.0,0.0497015017545395,1.0,0.0
26.686511993408203,29.455707550048828,-2.3368945121765137,-0.0,-0.0,-1.0,0.0886577154200123,1.0,0.0
27.614105224609375,29.670106887817383,-2.23931884765625,-0.0,-0.0,-1.0,0.0636129461236741,1.0,0.0
27.63005828857422,29.330415725708008,-2.1964292526245117,-0.0016084577577113,-0.4820755081514254,-0.876128196843468,0.0967245365746886,4.0,0.0
27.33895492553711,29.46149444580078,-2.2502899169921875,-0.0,-0.0,-1.0,0.1677168762881674,1.0,0.0
27.46086311340332,29.20834732055664,-2.2041711807250977,-0.0,-0.0,-1.0,0.0670393307123285,1.0,0.0
27.145994186401367,29.25396156311035,-2.251519203186035,-0.0,-0.0,-1.0,0.0682511494494372,1.0,0.0
26.658618927001953,29.32498550415039,-2.325620651245117,-0.0390202770195648,-0.8671274764747058,-0.4965554928947267,0.130928020444477,3.0,0.0
26.581512451171875,29.249984741210938,-2.3275575637817383,-0.0,-0.0,-1.0,0.0872066111191033,1.0,0.0
26.66377830505371,28.871356964111328,-2.2732396125793457,-0.0,-0.0,-1.0,0.0677503259215556,2.0,0.0
26.54943084716797,28.561553955078125,-2.254432201385498,-0.0,-0.0,-1.0,0.0285372214754643,1.0,0.0
26.71495819091797,28.189990997314453,-2.189967632293701,-0.0,-0.0,-1.0,0.0289527952799535,1.0,0.0
26.27785873413086,30.014236450195312,-1.6921955347061155,-0.0,-0.0,-1.0,0.1937996882664011,2.0,0.0
25.92909049987793,30.06926155090332,-1.7361127138137815,-0.0,-0.0,-1.0,0.1071470921477273,1.0,0.0
25.524463653564453,28.47529983520508,-1.6481858491897583,-0.9182240153383768,-0.1881928562170625,0.3484940552215099,0.1183175389311722,3.0,0.0
26.5479736328125,30.548667907714844,-2.3176846504211426,-0.0,-0.0,-1.0,0.0886548965840888,1.0,0.0
26.10043716430664,30.43413734436035,-2.3685598373413086,-0.0,-0.0,-1.0,0.1077252741860408,1.0,0.0
25.83353805541992,30.114940643310547,-2.372636318206787,-0.0,-0.0,-1.0,0.1367144858946226,1.0,0.0
26.31478500366211,30.095046997070312,-2.3006510734558105,-0.0,-0.0,-1.0,0.1060733008234707,2.0,0.0
26.25753402709961,29.834308624267575,-2.28063440322876,-0.0,-0.0,-1.0,0.2471413687935759,2.0,0.0
25.922561645507812,29.90008544921875,-2.336625576019287,0.7411998536746622,-0.511705487232918,-0.4344885168199284,0.1505859153244801,3.0,0.0
26.223106384277344,29.386981964111328,-2.23782730102539,-0.0,-0.0,-1.0,0.210841519094641,1.0,0.0
26.36383819580078,29.06574821472168,-2.183055877685547,-0.8406960999645131,-0.039423415155711,-0.5400702378782947,0.1250540990971118,4.0,0.0
26.041427612304688,29.09167098999023,-2.233950138092041,-0.0,-0.0,-1.0,0.1344602921361825,1.0,0.0
25.97537612915039,28.73711395263672,-2.2074451446533203,-0.0,-0.0,-1.0,0.1175389378200748,1.0,0.0
25.95393180847168,28.31457901000977,-2.1681346893310547,-0.0,-0.0,-1.0,0.0527146253181747,1.0,0.0
26.27671241760254,30.10525703430176,-1.5712918043136597,-0.0,-0.0,-1.0,0.0644602072350035,2.0,0.0
25.99563217163086,29.99432945251465,-1.5964981317520142,-0.0,-0.0,-1.0,0.1847438027593029,2.0,0.0
26.387432098388672,30.370746612548828,-2.455530166625977,-0.0,-0.0,-1.0,0.0496116030280139,1.0,0.0
26.36545181274414,30.629074096679688,-2.4915366172790527,-0.0,-0.0,-1.0,0.0834254379311782,1.0,0.0
26.46603012084961,29.98556137084961,-2.3952136039733887,-0.0,-0.0,-1.0,0.0538147237271758,1.0,0.0
26.68592834472656,29.365550994873047,-2.284313201904297,0.922844250052244,-0.3334034986750552,-0.1928745634259322,0.1309280204444769,3.0,0.0
26.486812591552734,29.734031677246097,-2.3606457710266113,-0.0,-0.0,-1.0,0.0948602735875912,2.0,0.0
26.539222717285156,29.274917602539062,-2.2958946228027344,-0.0,-0.0,-1.0,0.0900282597098826,1.0,0.0
26.42328834533691,29.331602096557617,-2.3208260536193848,-0.0,-0.0,-1.0,0.1157143673823171,2.0,0.0
27.543560028076172,29.41995620727539,-2.161667823791504,-0.0,-0.0,-1.0,0.1129253364681857,1.0,0.0
26.472335815429688,28.708776473999023,-2.2376294136047363,-0.0,-0.0,-1.0,0.0489381001587394,1.0,0.0
26.382347106933594,28.420894622802734,-2.217670440673828,-0.0,-0.0,-1.0,0.0116737849293788,2.0,0.0
26.276594161987305,30.077484130859375,-1.7292767763137815,-0.0,-0.0,-1.0,0.1347200274647573,1.0,0.0
26.068042755126953,29.682544708251953,-1.7191084623336792,-0.0,-0.0,-1.0,0.2109052422397925,1.0,0.0
25.568500518798828,28.51554298400879,-1.6808265447616575,-0.0,-0.0,-1.0,0.0870487580775876,2.0,0.0
26.159141540527344,30.46377944946289,-2.322417974472046,-0.0,-0.0,-1.0,0.1439086627714288,1.0,0.0
26.034648895263672,30.55677032470703,-2.352120876312256,-0.0,-0.0,-1.0,0.1193218972472758,1.0,0.0
26.31705093383789,29.88622283935547,-2.2226366996765137,-0.0,-0.0,-1.0,0.0901695760382416,1.0,0.0
26.100662231445312,29.9606990814209,-2.262876272201538,-0.0,-0.0,-1.0,0.1777838082458931,2.0,0.0
25.77627944946289,30.009939193725582,-2.3152756690979004,-0.0,-0.0,-1.0,0.1928388336253276,1.0,0.0
25.674583435058594,29.822832107543945,-2.3052618503570557,-0.0,-0.0,-1.0,0.1364011746637672,1.0,0.0
25.53171157836914,29.366275787353516,-2.266900062561035,-0.0,-0.0,-1.0,0.0731530721457408,1.0,0.0
26.332134246826172,29.378925323486328,-2.152876615524292,0.8728823467926754,-0.1056659994382425,-0.4763518712259137,0.1548825442739713,4.0,0.0
26.44131851196289,29.181529998779297,-2.1113104820251465,-0.0,-0.0,-1.0,0.1052506439963989,1.0,0.0
25.91840362548828,29.141992568969727,-2.181398868560791,-0.6615348649517113,0.5853945652113718,-0.4687054783916122,0.1354272778867145,3.0,0.0
25.619792938232425,28.859203338623047,-2.189253807067871,-0.0,-0.0,-1.0,0.0898479016501159,1.0,0.0
25.587505340576172,28.996021270751953,-2.2114098072052,-0.0,-0.0,-1.0,0.0301654432234915,1.0,0.0
25.64689826965332,28.415996551513672,-2.1295077800750732,-0.0,-0.0,-1.0,0.1577348732655511,2.0,0.0
25.460872650146484,28.18060302734375,-2.1287755966186523,-0.0,-0.0,-1.0,0.1050711545271564,1.0,0.0
26.014375686645508,30.442039489746097,-1.6471574306488037,-0.0,-0.0,-1.0,0.1315499361729908,1.0,0.0
26.46862411499023,30.03852081298828,-1.5512573719024658,-0.0,-0.0,-1.0,0.0993371999737796,1.0,0.0
25.996807098388672,30.075733184814453,-1.6107099056243896,-0.0,-0.0,-1.0,0.1030777590592761,2.0,0.0
26.087718963623047,29.679256439208984,-1.5585319995880127,-0.0,-0.0,-1.0,0.1709798503442882,1.0,0.0
25.552452087402344,28.52469253540039,-1.5084810256958008,-0.0,-0.0,-1.0,0.0750266704868435,2.0,0.0
27.5404052734375,30.15003204345703,-2.4052820205688477,-0.0,-0.0,-1.0,0.0753968163375725,2.0,0.0
27.645511627197266,30.082435607910156,-2.379580020904541,0.6960860495468609,0.0882812134145048,-0.7125100974612975,0.0610149800774214,4.0,0.0
27.04128646850586,29.756845474243164,-2.409541606903076,-0.0,-0.0,-1.0,0.041607987865398,1.0,0.0
27.64368438720703,29.345149993896484,-2.2560575008392334,-0.0,-0.0,-1.0,0.1099406144374224,2.0,0.0
27.302738189697266,29.307708740234375,-2.2983763217926025,-0.0,-0.0,-1.0,0.0808207005234566,1.0,0.0
26.79938507080078,29.41559410095215,-2.3891587257385254,-0.0,-0.0,-1.0,0.0935809946866354,1.0,0.0
26.701173782348633,29.23866081237793,-2.3752448558807373,-0.0,-0.0,-1.0,0.0910799998576356,1.0,0.0
26.64678955078125,29.21306800842285,-2.379312515258789,-0.0,-0.0,-1.0,0.1181380549810637,1.0,0.0
26.628398895263672,28.725629806518555,-2.30485200881958,-0.0,-0.0,-1.0,0.0518642092186437,2.0,0.0
26.58996963500977,28.243261337280273,-2.2353906631469727,-0.0,-0.0,-1.0,0.011138364263756,2.0,0.0
26.3768310546875,29.80202293395996,-1.871016025543213,0.2965147869439996,-0.7794902447948159,-0.5517915724195799,0.1267675058674027,4.0,0.0
26.00564956665039,30.010047912597656,-1.9461541175842283,-0.0,-0.0,-1.0,0.0923614751678569,1.0,0.0
25.705408096313477,29.888757705688477,-1.9701025485992432,-0.0,-0.0,-1.0,0.2123643847924433,1.0,0.0
25.40298080444336,29.77128028869629,-1.995889663696289,-0.0,-0.0,-1.0,0.0930757095103155,1.0,0.0
26.105289459228516,29.125932693481445,-1.81958532333374,-0.8033311984826688,0.4825520991921158,-0.3490020875434427,0.2093899773237175,3.0,0.0
25.42510223388672,29.63528060913086,-1.9758148193359375,-0.0,-0.0,-1.0,0.0788088826768591,2.0,0.0
25.556385040283203,28.466705322265625,-1.8135290145874023,-0.5001722736933378,-0.8619029172211886,-0.0833730047080082,0.1526671876924671,11.0,0.0
25.67742156982422,30.011199951171875,-1.3338067531585691,-0.0,-0.0,-1.0,0.0526801878870765,1.0,0.0
25.41232109069824,29.83975601196289,-1.3468642234802246,-0.0,-0.0,-1.0,0.0388909282735645,2.0,0.0
25.474267959594727,28.545495986938477,-1.2162156105041504,-0.9153145513303802,0.4027288026739985,-0.0029637171984391,0.0862689764911371,4.0,0.0
26.55661392211914,30.59948348999023,-2.426680326461792,-0.0,-0.0,-1.0,0.060428367865701,1.0,0.0
26.284406661987305,30.61630630493164,-2.462608814239502,-0.0,-0.0,-1.0,0.1558138544307264,1.0,0.0
26.26344108581543,30.266881942749023,-2.4047091007232666,-0.0,-0.0,-1.0,0.0972612980366993,1.0,0.0
26.30791282653809,29.85218048095703,-2.3279428482055664,0.4827048759830585,0.1380773389201508,-0.8648298394360071,0.2508818703939062,3.0,0.0
25.996278762817383,29.842979431152344,-2.3664581775665283,-0.0,-0.0,-1.0,0.0957599194248305,2.0,0.0
26.293895721435547,29.293336868286133,-2.234835624694824,-0.0,-0.0,-1.0,0.243649282722352,2.0,0.0
25.94559860229492,29.332599639892575,-2.2872560024261475,-0.0,-0.0,-1.0,0.2090312855050319,1.0,0.0
25.86164665222168,29.006420135498047,-2.2445924282073975,0.4732475980545104,0.7225279957527954,-0.5039742119286312,0.1376232028750851,3.0,0.0
25.716259002685547,28.70178604125977,-2.214723587036133,-0.0,-0.0,-1.0,0.0800314205188252,1.0,0.0
25.59266471862793,28.254539489746097,-2.1603550910949707,-0.7231292714150732,0.6844015914534289,0.0931585661048871,0.1306644653959958,3.0,0.0
26.308948516845703,29.83711624145508,-1.710859298706055,-0.1524661550481655,-0.9792978260902758,0.1331534429884864,0.1388281175942533,3.0,0.0
26.023303985595703,29.95350646972656,-1.7580928802490234,0.90173333081263,0.1701537052073449,-0.3973974291635163,0.1086465979671244,3.0,0.0
26.240663528442383,29.884841918945312,-2.1556296348571777,0.5108493515161633,0.8249897948333438,-0.2417121810673856,0.1510147168096764,4.0,0.0
25.808801651000977,30.00226593017578,-2.2307660579681396,-0.0,-0.0,-1.0,0.1755790481138767,2.0,0.0
26.176441192626953,29.695241928100582,-2.1308164596557617,0.3478216655903453,0.5163762799875294,-0.7825443287202324,0.2059247234455703,3.0,0.0
25.805681228637695,29.778179168701172,-2.1927239894866943,-0.0,-0.0,-1.0,0.1614094858252468,1.0,0.0
25.43838119506836,29.82602882385254,-2.249377965927124,-0.0,-0.0,-1.0,0.1286995981609216,2.0,0.0
27.632701873779297,28.66461181640625,-2.3093860149383545,-0.0,-0.0,-1.0,0.0468560509729271,2.0,0.0
26.355121612548828,29.27199363708496,-2.0348267555236816,-0.0,-0.0,-1.0,0.1984489822055353,2.0,0.0
25.96484375,29.302566528320312,-2.0907177925109863,-0.0,-0.0,-1.0,0.222710859331219,2.0,0.0
25.322284698486328,29.516098022460938,-2.213104248046875,0.8150991081534912,0.4315312742272295,0.3865154631463102,0.1463905538706413,3.0,0.0
27.37364959716797,28.491924285888672,-2.3082175254821777,-0.0,-0.0,-1.0,0.0171688405098358,1.0,0.0
27.178272247314453,28.336219787597656,-2.30306339263916,-0.0,-0.0,-1.0,0.0674706623421054,2.0,0.0
25.959548950195312,30.052154541015625,-1.6176953315734863,-0.0,-0.0,-1.0,0.1823790165488744,2.0,0.0
25.423629760742188,29.71542739868164,-1.6307427883148191,-0.0,-0.0,-1.0,0.0160691586688933,2.0,0.0
25.56947898864746,28.467052459716797,-2.0046896934509277,0.8467461845489762,-0.337371105675312,0.41134126465402,0.1273148874099701,3.0,0.0
25.51947784423828,28.449914932250977,-2.008958578109741,0.0235590015304583,-0.9993337584634524,0.0278749464967795,0.1352320661944464,4.0,0.0
26.198320388793945,29.976865768432617,-1.5812654495239258,-0.0,-0.0,-1.0,0.119745619349571,1.0,0.0
26.09095764160156,29.60087203979492,-1.5395300388336182,-0.0658793037659304,-0.9465918080013064,0.3156324862243022,0.1644137655502703,3.0,0.0
25.747373580932617,30.223979949951172,-2.1590702533721924,-0.0,-0.0,-1.0,0.2192714156684755,1.0,0.0
25.287181854248047,30.254146575927734,-2.23252534866333,0.9339205964248454,-0.1251338238425592,-0.3348639211739613,0.0796302536457141,3.0,0.0
27.457080841064453,29.35868453979492,-2.3103506565093994,-0.0,-0.0,-1.0,0.0959967038293585,2.0,0.0
27.15165328979492,29.291358947753903,-2.3415236473083496,-0.0,-0.0,-1.0,0.0614707581080111,1.0,0.0
25.634313583374023,29.967853546142575,-2.1331787109375,-0.0,-0.0,-1.0,0.1979691595629782,2.0,0.0
26.96759033203125,29.15030288696289,-2.3406970500946045,-0.0,-0.0,-1.0,0.0281588296733036,2.0,0.0
26.762428283691406,29.09589385986328,-2.3614161014556885,-0.0,-0.0,-1.0,0.0316488499291735,1.0,0.0
25.45159912109375,29.672849655151367,-2.1119256019592285,0.9658121341659842,0.2371832253354887,0.1046472126585395,0.1860719203087527,3.0,0.0
27.122291564941406,28.46275329589844,-2.176088333129883,-0.0,-0.0,-1.0,0.0886887222165937,1.0,0.0
26.71016502380371,28.800628662109375,-2.310032844543457,-0.0,-0.0,-1.0,0.0403695316884892,1.0,0.0
26.559778213500977,28.658313751220703,-2.305866956710815,-0.0,-0.0,-1.0,0.043358535223461,1.0,0.0
26.578826904296875,28.253631591796875,-2.222141742706299,-0.4551042476115428,0.4740182248169159,-0.7537816967447215,0.0116115308593607,3.0,0.0
26.488054275512695,28.378965377807617,-2.2622933387756348,-0.0,-0.0,-1.0,0.0130064500503622,1.0,0.0
26.310571670532227,29.963342666625977,-2.034098863601685,-0.0,-0.0,-1.0,0.1725895612581136,2.0,0.0
26.178058624267575,29.865062713623047,-2.0362846851348877,-0.62486150745891,0.0492778230306099,-0.7791789221055343,0.2177426511912206,3.0,0.0
26.33829116821289,29.314373016357425,-1.9203064441680908,-0.0,-0.0,-1.0,0.2856055943864025,1.0,0.0
25.916015625,29.32745933532715,-1.9846851825714111,-0.0,-0.0,-1.0,0.1480490502262382,1.0,0.0
25.55116271972656,28.461029052734375,-1.900031566619873,0.5124116480716618,-0.574465951442169,-0.6382970887871312,0.1260752045991811,4.0,0.0
26.49445343017578,30.02252769470215,-1.4534029960632324,-0.0,-0.0,-1.0,0.0999487165155798,2.0,0.0
25.42378044128418,29.72500228881836,-1.5505454540252686,-0.0,-0.0,-1.0,0.0490891512518176,2.0,0.0
25.54839324951172,28.47000503540039,-1.3689961433410645,0.5515995191427997,0.8257308858247978,-0.1179257167730035,0.0613037460706889,3.0,0.0
26.34329414367676,30.55384826660156,-2.5277061462402344,-0.0,-0.0,-1.0,0.0907187787932369,1.0,0.0
27.640430450439453,30.434776306152344,-2.357672691345215,-0.0,-0.0,-1.0,0.0623441835964705,1.0,0.0
27.506383895874023,30.40652084350586,-2.3649206161499023,-0.0,-0.0,-1.0,0.0629230808735429,2.0,0.0
26.35965347290039,29.86658096313477,-2.3759145736694336,-0.0,-0.0,-1.0,0.1337205873877572,1.0,0.0
26.27408218383789,29.801738739013672,-2.37258243560791,-0.1404406443843169,0.8202853899528352,-0.5544441400491515,0.1359562472430216,3.0,0.0
26.24525451660156,29.31178092956543,-2.270803928375244,-0.0,-0.0,-1.0,0.1776672913917986,2.0,0.0
25.986087799072266,29.395509719848633,-2.3227319717407227,-0.0,-0.0,-1.0,0.1440974284838628,1.0,0.0
26.371631622314453,29.02851104736328,-2.193513870239258,-0.8558601251676975,-0.0363874287481682,-0.5159257709952374,0.1592608248257788,4.0,0.0
25.899789810180664,28.980152130126953,-2.246434211730957,-0.0,-0.0,-1.0,0.144919029728476,2.0,0.0
25.746742248535156,28.654605865478516,-2.1995067596435547,-0.0,-0.0,-1.0,0.0994887898029719,1.0,0.0
25.59014320373535,28.33538818359375,-2.15602445602417,-0.0,-0.0,-1.0,0.112380743587647,2.0,0.0
25.410245895385746,28.261066436767575,-2.1675519943237305,-0.0,-0.0,-1.0,0.0996149565114922,1.0,0.0
26.26784896850586,29.986896514892575,-1.863099455833435,-0.0,-0.0,-1.0,0.1199590168322163,1.0,0.0
26.399370193481445,29.80923843383789,-1.816111445426941,-0.0,-0.0,-1.0,0.1093539242704381,1.0,0.0
26.169235229492188,29.889991760253903,-1.8563851118087769,-0.0,-0.0,-1.0,0.1183380272872558,1.0,0.0
25.367252349853516,29.794376373291016,-1.3832093477249146,-0.0,-0.0,-1.0,0.0353031403408394,1.0,0.0
25.5197696685791,28.444805145263672,-1.6770213842391968,-0.0,-0.0,-1.0,0.1009955938262223,2.0,0.0
26.96474838256836,29.1954345703125,-2.395026683807373,-0.0,-0.0,-1.0,0.0358269430970084,1.0,0.0
26.243423461914062,29.89329719543457,-2.1174066066741943,0.800488221188556,0.5822231947448181,-0.14224893405407,0.1676056718658624,4.0,0.0
25.855363845825195,30.0272216796875,-2.1873245239257812,-0.0,-0.0,-1.0,0.1974504535146199,2.0,0.0
25.452537536621097,30.052326202392575,-2.237592935562134,-0.0,-0.0,-1.0,0.0877288277258345,1.0,0.0
27.626800537109375,29.2083797454834,-2.3304803371429443,-0.0,-0.0,-1.0,0.103668267490338,1.0,0.0
27.317607879638672,29.150554656982425,-2.3465676307678223,-0.0,-0.0,-1.0,0.0751954176686022,1.0,0.0
27.07817840576172,29.14392471313477,-2.3698370456695557,0.3218667105585557,-0.8845827101521412,-0.3375133323797864,0.0594869125295464,3.0,0.0
26.05521774291992,29.752056121826172,-2.1072707176208496,-0.0,-0.0,-1.0,0.1686276779344487,1.0,0.0
25.867656707763672,29.411787033081055,-2.055973529815674,-0.0,-0.0,-1.0,0.1178692042226078,1.0,0.0
25.44437789916992,29.733970642089844,-2.1719155311584473,-0.0,-0.0,-1.0,0.2111141939428999,1.0,0.0
26.758411407470703,28.93826675415039,-2.3536717891693115,-0.0,-0.0,-1.0,0.0196563714316389,1.0,0.0
27.093847274780273,28.50210952758789,-2.2069003582000732,-0.0,-0.0,-1.0,0.0699107738326688,1.0,0.0
26.62273406982422,28.771896362304688,-2.3278729915618896,-0.0,-0.0,-1.0,0.0697558402906057,2.0,0.0
26.466140747070312,28.600801467895508,-2.3043229579925537,-0.0,-0.0,-1.0,0.025172337918691,1.0,0.0
26.2742862701416,28.22588348388672,-2.236021041870117,-0.0,-0.0,-1.0,0.0129884639444586,1.0,0.0
26.016822814941406,29.969390869140625,-1.627331018447876,-0.0,-0.0,-1.0,0.2010480276322576,2.0,0.0
25.372276306152344,29.811500549316406,-1.662771463394165,-0.0,-0.0,-1.0,0.0213176722897385,1.0,0.0
26.3846435546875,29.135414123535156,-1.940993070602417,-0.0,-0.0,-1.0,0.2346335024644182,2.0,0.0
26.030580520629883,29.128986358642575,-1.9781765937805176,-0.0,-0.0,-1.0,0.1899393398056667,2.0,0.0
25.495756149291992,28.467334747314453,-1.903080701828003,0.36570488533986,-0.2999597324524223,-0.8810698586069274,0.1607345483333843,5.0,0.0
26.31139373779297,29.892711639404297,-1.5863561630249023,-0.0,-0.0,-1.0,0.1250880871526177,1.0,0.0
26.01784896850586,29.82106590270996,-1.600813865661621,-0.0,-0.0,-1.0,0.1213541850733482,1.0,0.0
26.048078536987305,29.597633361816406,-1.5581927299499512,0.386358704770667,0.139003872959511,-0.911814057004052,0.1807644409320695,3.0,0.0
25.532609939575195,28.474220275878903,-1.4133071899414062,0.9206601974401096,0.2439845601016979,-0.3047233750166193,0.0613925461373225,3.0,0.0
26.40142250061035,30.61995506286621,-2.3356361389160156,-0.0,-0.0,-1.0,0.1438629013643233,1.0,0.0
26.21247100830078,29.89313507080078,-2.184448719024658,0.2092023643588271,0.852299327911222,-0.4793956887465256,0.1144733087744477,4.0,0.0
25.839813232421875,29.878259658813477,-2.2178292274475098,-0.0,-0.0,-1.0,0.2071971153584439,2.0,0.0
25.460630416870117,29.86812210083008,-2.255415439605713,0.8760281503005256,-0.4782723907572839,-0.0618886105866934,0.1167796363031981,4.0,0.0
26.1975040435791,29.674388885498047,-2.1352148056030273,-0.0,-0.0,-1.0,0.2028630724394512,2.0,0.0
25.616796493530273,29.783401489257812,-2.2192907333374023,-0.0,-0.0,-1.0,0.147009787019918,1.0,0.0
25.311031341552734,29.747074127197266,-2.244636058807373,0.613149811471102,-0.0225215976555266,0.7896455447426991,0.107768880997103,3.0,0.0
25.972946166992188,30.600759506225582,-1.8309460878372192,-0.0,-0.0,-1.0,0.1958623035092921,1.0,0.0
26.267927169799805,29.930234909057617,-1.6745284795761108,-0.0,-0.0,-1.0,0.2187991983132118,2.0,0.0
26.48679542541504,29.266098022460938,-2.0132389068603516,-0.0,-0.0,-1.0,0.1423924407710789,1.0,0.0
25.956710815429688,29.343929290771484,-2.0833053588867188,0.9323892343957004,0.2328709429770717,-0.2764442791955889,0.1489880300537181,3.0,0.0
25.32222366333008,29.72636032104492,-1.7216044664382937,-0.0,-0.0,-1.0,0.0696209294321285,1.0,0.0
26.328453063964844,29.065345764160156,-1.9819809198379517,0.0131658201086742,-0.1054488973367337,-0.9943375640250814,0.1619388808024274,3.0,0.0
25.956274032592773,29.047801971435547,-2.015634536743164,-0.0,-0.0,-1.0,0.1734296071968958,1.0,0.0
25.557865142822266,28.353904724121097,-1.9026035070419312,-0.0,-0.0,-1.0,0.1158973197550474,1.0,0.0
26.00589942932129,29.63397216796875,-1.6393014192581177,-0.0,-0.0,-1.0,0.1867194072718656,2.0,0.0
25.4664363861084,28.383304595947266,-1.451064944267273,-0.0,-0.0,-1.0,0.0567741835154267,1.0,0.0
25.959426879882812,30.067007064819336,-2.108013153076172,-0.0,-0.0,-1.0,0.1687903937464863,1.0,0.0
25.829221725463867,30.107337951660156,-2.126772403717041,-0.0,-0.0,-1.0,0.2367351584201913,1.0,0.0
25.299638748168945,30.28364944458008,-2.208808422088623,-0.0,-0.0,-1.0,0.0889308155213946,2.0,0.0
26.190166473388672,29.87024688720703,-2.0456666946411133,-0.62486150745891,0.0492778230306099,-0.7791789221055343,0.2278842678304316,3.0,0.0
25.715179443359375,29.96669578552246,-2.102011203765869,-0.0,-0.0,-1.0,0.2030145732936822,1.0,0.0
25.828763961791992,30.41943359375,-1.680214524269104,-0.0,-0.0,-1.0,0.1244295614671596,1.0,0.0
26.33702850341797,29.71057891845703,-1.9983075857162476,-0.0,-0.0,-1.0,0.2055435936703877,1.0,0.0
25.873315811157227,29.60116195678711,-2.0041918754577637,-0.0,-0.0,-1.0,0.142982751657431,1.0,0.0
25.53184509277344,29.644309997558594,-2.0404934883117676,-0.0,-0.0,-1.0,0.0849931526868633,1.0,0.0
26.3521671295166,29.24169158935547,-1.886067271232605,-0.0,-0.0,-1.0,0.2232409103939186,1.0,0.0
25.600868225097656,28.43570327758789,-1.7526100873947144,0.467436201817765,-0.3697143635145007,-0.803003540864702,0.1583869056626394,3.0,0.0
26.50634002685547,29.953807830810547,-1.5470908880233765,-0.0,-0.0,-1.0,0.0968779681413658,1.0,0.0
26.03394317626953,30.036466598510746,-1.5907458066940308,-0.0,-0.0,-1.0,0.1126108017126171,1.0,0.0
26.428712844848633,29.86777114868164,-1.5338934659957886,-0.0,-0.0,-1.0,0.1046461471316646,2.0,0.0
25.60857582092285,28.469053268432617,-1.306841254234314,-0.0,-0.0,-1.0,0.0864405118766488,2.0,0.0
26.42542839050293,29.773582458496097,-1.8595483303070068,-0.0,-0.0,-1.0,0.1277861262447543,2.0,0.0
25.440750122070312,29.64111328125,-1.872142553329468,0.7965508563464092,-0.346691925205382,0.4952892510959513,0.0528351628347383,3.0,0.0
26.544633865356445,30.00123405456543,-1.4190645217895508,-0.0604610526897842,-0.0974084476129883,-0.9934062892096416,0.0999487165155798,4.0,0.0
26.33808135986328,30.16581153869629,-1.4578897953033447,-0.0,-0.0,-1.0,0.0465531664037261,2.0,0.0
25.572782516479492,28.440834045410156,-1.5862083435058594,0.7093783346629298,-0.4573002309651161,-0.5363383979076083,0.120645497680852,4.0,0.0
26.438961029052734,29.935546875,-1.550472617149353,-0.0,-0.0,-1.0,0.1192805208113994,2.0,0.0
25.86355781555176,30.106578826904297,-1.5895196199417114,-0.0,-0.0,-1.0,0.1790632093008067,1.0,0.0
25.510923385620117,28.545021057128903,-1.2613147497177124,0.0780082652230682,0.7872799209955281,0.6116412645940122,0.0792809912937151,5.0,0.0
26.302207946777344,30.090736389160156,-1.54433274269104,-0.0,-0.0,-1.0,0.0935787029550026,2.0,0.0
25.868804931640625,30.134674072265625,-1.5477612018585205,-0.0,-0.0,-1.0,0.1714910787438336,2.0,0.0
26.374435424804688,29.888011932373047,-1.838681936264038,-0.0,-0.0,-1.0,0.1306530556587945,2.0,0.0
26.446090698242188,29.755760192871097,-1.8128039836883545,-0.0,-0.0,-1.0,0.1245119836282106,1.0,0.0
25.417293548583984,29.682865142822266,-1.7527103424072266,0.3043673844506158,0.0674554103163561,-0.950163282231924,0.0397060915067385,3.0,0.0
25.54764175415039,28.42115020751953,-1.4727468490600586,0.4939828647857979,0.6665047172021559,-0.5583479123676296,0.0604158181565846,3.0,0.0
27.60079765319824,30.517288208007812,-2.4084596633911133,-0.0,-0.0,-1.0,0.0629230808735429,1.0,0.0
26.71861457824707,30.62227439880371,-2.36344575881958,-0.0,-0.0,-1.0,0.0588914946460918,1.0,0.0
25.938486099243164,30.062847137451172,-2.181309700012207,-0.0,-0.0,-1.0,0.2384880813473578,1.0,0.0
25.705915451049805,30.08290100097656,-2.172922134399414,-0.0,-0.0,-1.0,0.2353068114297788,2.0,0.0
25.359704971313477,30.168025970458984,-2.1751694679260254,-0.0,-0.0,-1.0,0.0985530548109185,1.0,0.0
27.639019012451172,30.275341033935547,-2.3562657833099365,-0.0,-0.0,-1.0,0.0715477330733769,1.0,0.0
26.13062286376953,29.935253143310547,-2.1631741523742676,-0.5489578654674157,0.4506772187502775,-0.7039426869006973,0.0908450603834437,3.0,0.0
25.46526527404785,29.708171844482425,-2.0712766647338867,0.8488332042748766,-0.0963813107422434,-0.5198007640048758,0.1290651295495431,4.0,0.0
26.256452560424805,29.42430877685547,-2.051292657852173,-0.0,-0.0,-1.0,0.1786650447167019,1.0,0.0
26.002225875854492,29.46175765991211,-2.0436089038848877,-0.0,-0.0,-1.0,0.1154650408387339,1.0,0.0
25.812095642089844,30.43462371826172,-1.727097988128662,0.356135543791163,0.6022489378569615,-0.7144674179406182,0.1149437454307027,3.0,0.0
26.432037353515625,29.96581268310547,-1.6677327156066897,-0.0,-0.0,-1.0,0.1342609240791981,1.0,0.0
26.24610137939453,29.942779541015625,-1.652291774749756,-0.0,-0.0,-1.0,0.1762658569486395,2.0,0.0
26.258712768554688,29.21141815185547,-2.001523017883301,-0.0,-0.0,-1.0,0.2082196486065044,2.0,0.0
26.065732955932617,29.17416000366211,-1.97997784614563,-0.0,-0.0,-1.0,0.2078705756789489,2.0,0.0
25.769487380981445,28.342937469482425,-1.765800714492798,0.0726820712870233,-0.4319707568080195,-0.898954159997124,0.080836781630535,3.0,0.0
25.567768096923828,28.45254898071289,-1.7796339988708496,-0.4506903056084497,-0.8924973852153812,0.0180738987014315,0.1842575088299629,10.0,0.0
26.1119441986084,29.587947845458984,-1.5739097595214844,-0.0,-0.0,-1.0,0.1685918125140978,2.0,0.0
25.540422439575195,28.48196792602539,-1.3225140571594238,-0.3521936861163633,0.8900405815214233,-0.2894604821124559,0.079280991293715,3.0,0.0
25.72258758544922,29.470731735229492,-2.308788299560547,-0.0,-0.0,-1.0,0.102722710788272,1.0,0.0
25.592174530029297,29.21778106689453,-2.235553741455078,-0.0,-0.0,-1.0,0.0396102554414881,1.0,0.0
25.26413345336914,29.071638107299805,-2.164517402648926,-0.0,-0.0,-1.0,0.0336862853703584,1.0,0.0
26.362651824951172,29.108137130737305,-2.30643081665039,-0.0,-0.0,-1.0,0.1464065057293408,1.0,0.0
25.98326873779297,29.004608154296875,-2.2342867851257324,-0.0,-0.0,-1.0,0.1859843649989589,2.0,0.0
25.88202476501465,28.89933204650879,-2.197761058807373,-0.0,-0.0,-1.0,0.0903828466194206,1.0,0.0
26.556396484375,28.85633087158203,-2.275743007659912,-0.150106523398035,-0.9681183871754344,-0.2005363309881548,0.0667743906497361,4.0,0.0
25.870670318603516,28.287296295166016,-2.057361125946045,-0.0,-0.0,-1.0,0.1919512536058282,2.0,0.0
25.67780113220215,28.445585250854492,-2.06937837600708,0.3633671526427594,-0.6097374331348798,0.7044037017324521,0.1362898562799174,3.0,0.0
27.646644592285156,29.276432037353516,-2.2213034629821777,-0.0,-0.0,-1.0,0.1401050260072319,2.0,0.0
26.347259521484375,30.508853912353516,-2.403689384460449,-0.0,-0.0,-1.0,0.0968960405305212,1.0,0.0
26.278369903564453,29.67087745666504,-2.312741756439209,0.2124460755729714,0.9146582722540676,0.3438995637840313,0.1372092926976712,3.0,0.0
26.65699577331543,29.32660865783691,-2.271860122680664,-0.2694628546649428,-0.8043551341732852,0.5295305355547463,0.130928020444477,4.0,0.0
26.584251403808594,29.18580436706543,-2.2571001052856445,-0.0,-0.0,-1.0,0.1035311279310915,1.0,0.0
26.40123748779297,28.82075309753418,-2.218984603881836,-0.0,-0.0,-1.0,0.0288995700263782,1.0,0.0
27.66956329345703,29.227081298828125,-2.2541232109069824,-0.0,-0.0,-1.0,0.1102384034977051,1.0,0.0
27.57748794555664,28.80625915527344,-2.2081992626190186,-0.0,-0.0,-1.0,0.0551621425795504,1.0,0.0
26.324079513549805,29.8410701751709,-2.145242214202881,-0.0,-0.0,-1.0,0.1801991929244659,2.0,0.0
26.420833587646484,30.077980041503903,-2.33227276802063,-0.0,-0.0,-1.0,0.124894099566639,1.0,0.0
27.663021087646484,29.392417907714844,-2.1979386806488037,0.5939852798601697,-0.7596464295214921,0.2647995268588762,0.1350848012641922,3.0,0.0
26.734935760498047,29.41490173339844,-2.253727674484253,-0.0,-0.0,-1.0,0.1310580494072148,1.0,0.0
27.049802780151367,30.370832443237305,-1.9007052183151243,-0.0,-0.0,-1.0,0.157247083696138,1.0,0.0
25.55307388305664,29.260419845581055,-1.732486367225647,-0.0,-0.0,-1.0,0.1277421512335815,1.0,0.0
25.59728240966797,28.229764938354492,-1.6437827348709106,-0.0,-0.0,-1.0,0.0818360097667591,1.0,0.0
26.373748779296875,30.558902740478516,-1.8393486738204956,-0.0,-0.0,-1.0,0.114621737123656,1.0,0.0
26.173717498779297,29.551061630249023,-2.1551437377929688,-0.0,-0.0,-1.0,0.1785442524632129,1.0,0.0
26.138328552246097,29.88332176208496,-2.1884689331054688,-0.0,-0.0,-1.0,0.1355347485369897,2.0,0.0
25.329936981201172,29.47984504699707,-2.1887664794921875,0.8150991081534912,0.4315312742272295,0.3865154631463102,0.1738515136424455,3.0,0.0
25.901199340820312,29.963165283203125,-1.7894179821014404,-0.0,-0.0,-1.0,0.1200521283124724,1.0,0.0
25.57771110534668,28.416767120361328,-1.6515257358551023,-0.0,-0.0,-1.0,0.1342869559723915,1.0,0.0
26.18858528137207,29.725746154785156,-2.105289936065674,-0.9429652123522946,0.3280450019331944,0.0565958037317456,0.2707966374159754,3.0,0.0
26.403032302856445,29.00575256347656,-2.0419580936431885,-0.0,-0.0,-1.0,0.1067341785854197,2.0,0.0
25.73828887939453,29.78017807006836,-2.0864078998565674,-0.0,-0.0,-1.0,0.1938086466528559,2.0,0.0
25.665538787841797,28.31463050842285,-1.9296953678131104,-0.0,-0.0,-1.0,0.1458603690091861,1.0,0.0
25.881755828857425,30.035438537597656,-1.6037129163742063,-0.0,-0.0,-1.0,0.1855798215621089,1.0,0.0
25.6555233001709,28.424989700317383,-1.4660075902938845,-0.0,-0.0,-1.0,0.0645092047422704,1.0,0.0
26.0364933013916,29.624114990234375,-1.5590646266937256,0.2751338263380238,-0.6733098964012001,-0.6862617292351392,0.1966728328253763,4.0,0.0
25.806350708007812,29.97522735595703,-1.6006748676300049,-0.0,-0.0,-1.0,0.1850293720767879,2.0,0.0
25.38905143737793,29.785799026489254,-1.602003812789917,-0.0,-0.0,-1.0,0.0160691586688932,1.0,0.0
26.55048942565918,30.57612419128418,-2.380162239074707,-0.0,-0.0,-1.0,0.060428367865701,1.0,0.0
26.378421783447266,29.055774688720703,-2.206542491912842,-0.8554476567399429,-0.033901695659292,-0.5167784647308412,0.1253684163147239,3.0,0.0
26.149898529052734,29.735380172729492,-2.297337055206299,-0.0,-0.0,-1.0,0.1935651979293115,1.0,0.0
26.06575584411621,29.223331451416016,-2.240088939666748,-0.0,-0.0,-1.0,0.1202859440309128,1.0,0.0
26.33399200439453,29.45441436767578,-1.800665020942688,-0.0,-0.0,-1.0,0.1554298057719431,1.0,0.0
25.924516677856445,30.007394790649418,-1.8780704736709597,-0.0,-0.0,-1.0,0.1228314263429684,1.0,0.0
25.795732498168945,28.167707443237305,-1.6864131689071655,-0.0,-0.0,-1.0,0.1417676190965038,2.0,0.0
25.545297622680664,28.514039993286133,-1.73501455783844,-0.0,-0.0,-1.0,0.15527870695936,1.0,0.0
26.063566207885746,29.923673629760746,-1.7495100498199463,-0.0,-0.0,-1.0,0.1449683972639926,2.0,0.0
25.54136657714844,28.449861526489254,-1.6173865795135498,0.698431071827493,-0.3737021032220711,-0.6103611848350938,0.0795759105977618,5.0,0.0
25.39767265319824,29.68497085571289,-1.7588460445404053,0.5035533860093763,-0.0811821275975893,-0.8601415288179154,0.0397060915067385,4.0,0.0
26.747892379760746,29.327219009399418,-2.330972194671631,0.5398200847015142,-0.8385980468260211,0.0731272316748872,0.1056443950090497,3.0,0.0
26.60652732849121,28.8165340423584,-2.264289617538452,0.5603550568546707,0.2244887896797522,-0.797249643189333,0.0677805567195936,7.0,0.0
26.254348754882812,28.16313934326172,-2.184589147567749,-0.0,-0.0,-1.0,0.012505196693818,2.0,0.0
26.457353591918945,30.025468826293945,-1.4990050792694092,-0.0,-0.0,-1.0,0.1020378299116939,1.0,0.0
25.808650970458984,30.094945907592773,-1.527324676513672,-0.0,-0.0,-1.0,0.1485531616641854,2.0,0.0
26.35503196716309,29.92365074157715,-1.9161067008972168,-0.0,-0.0,-1.0,0.1276434733667252,1.0,0.0
26.135847091674805,29.640247344970703,-1.889148473739624,-0.0,-0.0,-1.0,0.19832742049595,2.0,0.0
25.445165634155273,29.6127986907959,-1.915184736251831,-0.0,-0.0,-1.0,0.0588245218485698,2.0,0.0
25.96798324584961,29.50425910949707,-1.8789212703704832,-0.0,-0.0,-1.0,0.1075089702202734,1.0,0.0
25.55652618408203,28.47661781311035,-1.767780303955078,-0.0802868039556853,-0.7942905327208322,-0.6022097464676558,0.1783579706582641,9.0,0.0
26.671987533569336,29.31989097595215,-2.272087574005127,0.7748706406184208,-0.4820662465036704,-0.4088858328304626,0.1099156581949745,5.0,0.0
26.32914352416992,29.014801025390625,-2.244112968444824,-0.0,-0.0,-1.0,0.177077484051302,2.0,0.0
26.22131729125977,29.74625587463379,-2.3613715171813965,-0.0,-0.0,-1.0,0.1422700455259523,1.0,0.0
26.1158447265625,28.558849334716797,-2.1864876747131348,-0.0,-0.0,-1.0,0.0374974147533551,1.0,0.0
26.09950256347656,29.9599666595459,-1.5321441888809204,-0.0,-0.0,-1.0,0.1450490723733906,1.0,0.0
25.973445892333984,30.14254570007324,-1.5605374574661257,-0.0,-0.0,-1.0,0.1100062172923386,1.0,0.0
25.59526634216309,28.49334716796875,-1.3898006677627563,-0.0,-0.0,-1.0,0.0625187626964774,1.0,0.0
25.415451049804688,29.75406837463379,-1.5473171472549438,-0.0,-0.0,-1.0,0.0571775072337213,2.0,0.0
26.340282440185547,29.454265594482425,-1.944959282875061,-0.0,-0.0,-1.0,0.1946915563573038,1.0,0.0
26.236980438232425,29.920236587524418,-2.010498046875,-0.0,-0.0,-1.0,0.2179706365615531,1.0,0.0
25.99515914916992,29.95672035217285,-2.0147480964660645,-0.7519071774959792,0.6334295066600202,-0.1827639366025837,0.1074166274438909,3.0,0.0
25.914337158203125,30.02911949157715,-2.02474594116211,-0.0,-0.0,-1.0,0.0991331070349974,2.0,0.0
25.66548538208008,29.96462059020996,-2.014937400817871,-0.0,-0.0,-1.0,0.1834807411260816,1.0,0.0
25.74971580505371,30.070276260375977,-2.030107021331787,-0.0,-0.0,-1.0,0.2091483811822192,1.0,0.0
26.446189880371097,29.13626480102539,-1.9004429578781128,-0.0,-0.0,-1.0,0.1973693519640358,1.0,0.0
25.56793212890625,28.452791213989254,-1.8004719018936155,-0.5654759596460206,-0.8247179935324779,-0.0087846574307351,0.132329488664853,10.0,0.0
27.643871307373047,29.386184692382812,-2.1728644371032715,0.234645461550805,-0.970104708700626,-0.0619545117847195,0.1350848012641922,3.0,0.0
26.199735641479492,29.921974182128903,-2.2641348838806152,0.4243840458160695,0.1593246653193976,-0.8913550542166944,0.1390500405294267,3.0,0.0
25.938844680786133,29.20739364624023,-2.153596878051758,-0.0,-0.0,-1.0,0.176235814810461,2.0,0.0
25.841054916381836,29.986297607421875,-2.2772817611694336,-0.4009437041047414,0.1950818309948223,-0.8950906241015362,0.2103252548099141,3.0,0.0
25.60992431640625,28.457420349121097,-2.038370132446289,0.152356117892431,-0.6266396483010223,-0.7642711328566055,0.1748390176517368,7.0,0.0
25.406328201293945,29.56186294555664,-2.214672088623047,-0.0,-0.0,-1.0,0.1824459648167227,1.0,0.0
26.523164749145508,30.10445022583008,-1.4875973463058472,-0.0,-0.0,-1.0,0.0857614696009777,1.0,0.0
25.406890869140625,29.79753875732422,-1.4610761404037476,0.0351557560297504,-0.7576174981104441,0.6517513324687937,0.037514643808367,3.0,0.0
27.3499755859375,29.459732055664062,-2.3423120975494385,-0.0,-0.0,-1.0,0.0736064061023514,1.0,0.0
27.178043365478516,29.23350524902344,-2.3012473583221436,-0.0,-0.0,-1.0,0.0641822432211281,1.0,0.0
27.095861434936523,30.267589569091797,-2.4791386127471924,-0.0,-0.0,-1.0,0.0751532894713051,1.0,0.0
26.565563201904297,28.851619720458984,-2.2294397354125977,-0.0867760391186391,-0.9793978850956748,-0.1823450073487068,0.066774390649736,5.0,0.0
26.710065841674805,29.30478286743164,-2.3090293407440186,-0.0,-0.0,-1.0,0.1025054724796073,2.0,0.0
26.787315368652344,29.353713989257812,-2.318154573440552,-0.0,-0.0,-1.0,0.0961037866121813,2.0,0.0
26.399084091186523,29.023666381835938,-2.2580418586730957,-0.0,-0.0,-1.0,0.1357737882949952,1.0,0.0
25.832002639770508,28.335235595703125,-2.1359174251556396,-0.0,-0.0,-1.0,0.1648701328578709,1.0,0.0
25.982440948486328,28.57801818847656,-2.178574323654175,-0.0,-0.0,-1.0,0.0570104934725379,1.0,0.0
25.544557571411133,28.38251495361328,-2.1434500217437744,-0.929460463815062,-0.0999744505641196,0.3551173826202998,0.1760284997348246,4.0,0.0
26.19329071044922,29.825035095214844,-1.6385390758514404,-0.0,-0.0,-1.0,0.1770641466482779,1.0,0.0
25.946786880493164,30.147960662841797,-1.6823184490203855,-0.0,-0.0,-1.0,0.0787815857164348,1.0,0.0
25.806697845458984,30.443038940429688,-1.7226951122283936,0.356135543791163,0.6022489378569615,-0.7144674179406182,0.1149437454307026,3.0,0.0
25.52516746520996,28.45764923095703,-1.449061155319214,0.495131425143387,0.7072950074571678,-0.5045578700819596,0.0636655834362348,4.0,0.0
25.414514541625977,29.734424591064453,-1.6248586177825928,-0.0,-0.0,-1.0,0.0160691586688933,2.0,0.0
26.302579879760746,29.736499786376953,-2.0957441329956055,-0.0,-0.0,-1.0,0.2591604286067429,2.0,0.0
26.09545135498047,29.87144470214844,-2.12009334564209,-0.0,-0.0,-1.0,0.2297618305140009,1.0,0.0
25.45576858520508,29.645160675048828,-2.087649345397949,0.9658121341659842,0.2371832253354887,0.1046472126585395,0.1174438383408975,3.0,0.0
25.787155151367188,30.012561798095703,-2.146617889404297,-0.0436233335989362,-0.9005442384592247,-0.4325703172243919,0.1994399074618844,3.0,0.0
26.055702209472656,29.134307861328125,-1.9952441453933716,-0.5697885323111724,0.4151076942335417,-0.7092437032746867,0.1644504316921587,3.0,0.0
25.52686882019043,28.452198028564453,-1.884226679801941,0.1076572893715362,-0.5179539079492127,-0.8486068920797849,0.1512037987732118,5.0,0.0
26.52724266052246,30.035579681396484,-1.421475529670715,0.5745131902663323,-0.0978083991297887,-0.8126303657073548,0.0999487165155798,6.0,0.0
26.330095291137695,30.29135513305664,-1.4573010206222534,-0.2872476813320284,0.9492846756353924,0.1278568503177722,0.0457396487640259,3.0,0.0
25.961410522460938,30.108680725097656,-1.4361814260482788,-0.0,-0.0,-1.0,0.1130954696537588,1.0,0.0
25.48926544189453,28.52233123779297,-1.2285181283950806,0.3678961248402946,0.8739961996425296,0.3174635165462479,0.0792809912937151,7.0,0.0
25.451709747314453,29.77629852294922,-1.3971940279006958,-0.0,-0.0,-1.0,0.0771598866631953,2.0,0.0
27.283323287963867,28.811479568481445,-2.3227992057800293,-0.0,-0.0,-1.0,0.0182666471225722,1.0,0.0
26.57025146484375,28.448997497558594,-2.271599531173706,-0.0,-0.0,-1.0,0.0154612965764705,2.0,0.0
26.668964385986328,28.18362617492676,-2.214216709136963,-0.0,-0.0,-1.0,0.0085154231119002,1.0,0.0
26.81110382080078,28.40987205505371,-2.2555532455444336,-0.0,-0.0,-1.0,0.0414141147606811,1.0,0.0
26.395511627197266,28.179027557373047,-2.222790479660034,-0.0,-0.0,-1.0,0.0151293180944736,1.0,0.0
26.38683700561523,29.748598098754883,-1.8624448776245115,-0.0,-0.0,-1.0,0.1229607252433472,2.0,0.0
26.21367454528809,29.18718910217285,-1.7750835418701172,-0.0,-0.0,-1.0,0.2004508140115762,1.0,0.0
25.97370147705078,29.47273826599121,-1.832796335220337,-0.0,-0.0,-1.0,0.1110947101701277,1.0,0.0
25.80897521972656,30.311328887939453,-1.9805800914764404,-0.0,-0.0,-1.0,0.1606142758427973,1.0,0.0
27.170034408569336,28.38166046142578,-2.296720504760742,-0.3342908250451526,0.0705834425498631,-0.9398231865241684,0.0674706623421055,3.0,0.0
27.23362922668457,28.42615127563477,-2.3035995960235596,-0.0,-0.0,-1.0,0.0705906235649519,1.0,0.0
27.09123992919922,28.21695327758789,-2.263467788696289,-0.0,-0.0,-1.0,0.069801049651719,1.0,0.0
26.259567260742188,29.77679443359375,-2.011051893234253,-0.0,-0.0,-1.0,0.2024625330663574,1.0,0.0
25.92043113708496,30.03473663330078,-2.080615282058716,-0.0,-0.0,-1.0,0.1381204641496589,1.0,0.0
25.47121810913086,29.684551239013672,-2.0437660217285156,0.8537483952546561,-0.2891625156851565,-0.4330112205506121,0.0829577156645467,3.0,0.0
25.67828369140625,30.161178588867188,-2.119978427886963,-0.0,-0.0,-1.0,0.1615804406417615,1.0,0.0
26.4224853515625,29.208297729492188,-1.8943212032318115,-0.0,-0.0,-1.0,0.1487135276319493,1.0,0.0
26.375579833984375,29.38671112060547,-1.9306576251983645,-0.0,-0.0,-1.0,0.2057777823465755,2.0,0.0
25.72681999206543,28.358623504638672,-1.7767879962921145,0.0726820712870233,-0.4319707568080195,-0.898954159997124,0.0943417868251236,3.0,0.0
25.53278350830078,28.512096405029297,-1.818420171737671,-0.9925182406596684,0.0130186901760418,-0.1214003940023945,0.1273037295708665,5.0,0.0
26.57763671875,30.072803497314453,-1.3985280990600586,-0.0,-0.0,-1.0,0.0999487165155798,1.0,0.0
26.336116790771484,30.239410400390625,-1.4385335445404053,-0.0,-0.0,-1.0,0.0393210292414383,2.0,0.0
25.52804183959961,28.51272964477539,-1.2266998291015625,0.1729242306897329,0.8523828143152141,-0.4934984785188699,0.0792809912937151,5.0,0.0
25.436668395996097,29.823139190673828,-1.4329235553741455,0.0351557560297504,-0.7576174981104441,0.6517513324687937,0.0309579112500374,3.0,0.0
27.33840560913086,28.915557861328125,-2.361135482788086,-0.0,-0.0,-1.0,0.0205323248425053,2.0,0.0
26.967578887939453,28.91358757019043,-2.378699541091919,-0.0,-0.0,-1.0,0.0220894702228243,2.0,0.0
26.59988021850586,28.147520065307617,-2.2164692878723145,-0.0,-0.0,-1.0,0.0119441763192728,1.0,0.0
26.567100524902344,28.4508056640625,-2.2903358936309814,-0.0,-0.0,-1.0,0.0154612965764705,2.0,0.0
26.109298706054688,29.91809463500977,-2.0496652126312256,0.8638777730779256,0.5006980166915757,-0.0549243958824002,0.1170563255911756,3.0,0.0
26.37521743774414,28.283477783203125,-2.2615718841552734,-0.0,-0.0,-1.0,0.0129302092767472,1.0,0.0
25.82227325439453,30.02934455871582,-2.0916006565093994,-0.0,-0.0,-1.0,0.1514363299435256,2.0,0.0
26.385160446166992,29.114734649658203,-1.8701820373535156,-0.0,-0.0,-1.0,0.2160115642389293,1.0,0.0
26.137271881103516,29.50955390930176,-1.965484857559204,-0.0,-0.0,-1.0,0.1856926581675306,1.0,0.0
25.7277889251709,28.31001663208008,-1.7511711120605469,-0.4774778383350956,0.3310915061866237,-0.8138754993424467,0.1066755618424948,5.0,0.0
25.578079223632812,28.464284896850582,-1.7928595542907717,-0.7464968283225187,-0.6548930237050733,0.1177183622331097,0.132329488664853,9.0,0.0
25.52424430847168,28.457897186279297,-1.7954363822937012,-0.3965054541543671,-0.895122939165407,-0.2038095890916868,0.1727041191693869,8.0,0.0
26.496288299560547,30.08558464050293,-1.442974090576172,-0.0,-0.0,-1.0,0.0857614696009777,2.0,0.0
26.332237243652344,30.29619789123535,-1.4884443283081057,-0.0,-0.0,-1.0,0.0433456604925682,2.0,0.0
25.42169761657715,29.791751861572266,-1.4686017036437988,0.0351557560297504,-0.7576174981104441,0.6517513324687937,0.037514643808367,3.0,0.0
25.49075508117676,28.55829620361328,-1.2590339183807373,0.0113002724231418,0.9790036684804144,0.2035291648512651,0.086268976491137,7.0,0.0
27.626848220825195,30.216217041015625,-2.411268711090088,-0.0,-0.0,-1.0,0.0827758579141523,1.0,0.0
27.40435218811035,30.321033477783203,-2.4329137802124023,-0.0,-0.0,-1.0,0.0382698669733623,2.0,0.0
27.62286376953125,29.35633087158203,-2.21897554397583,-0.8153029426049508,-0.3692893569489855,-0.4459893301682377,0.1104504878184421,5.0,0.0
27.172016143798828,30.16765022277832,-2.3973965644836426,-0.0,-0.0,-1.0,0.0617411034157446,1.0,0.0
27.29717445373535,30.38564109802246,-2.4468512535095215,-0.0,-0.0,-1.0,0.0697693808946584,2.0,0.0
27.013816833496097,29.90781593322754,-2.33858060836792,-0.0,-0.0,-1.0,0.0375179066469521,1.0,0.0
26.288047790527344,29.790794372558594,-2.314572811126709,-0.2070616328968954,0.6529597954574857,0.7285389390404534,0.237890560991878,4.0,0.0
26.231590270996097,29.548192977905273,-2.260213851928711,-0.0,-0.0,-1.0,0.1275270935160241,1.0,0.0
26.04534912109375,29.88327407836914,-2.3381686210632324,-0.0,-0.0,-1.0,0.1249824443872662,1.0,0.0
25.525047302246097,29.56661605834961,-2.2741074562072754,-0.0,-0.0,-1.0,0.1402886035226751,2.0,0.0
25.409048080444336,29.482696533203125,-2.2573399543762207,-0.0,-0.0,-1.0,0.1319294409304568,1.0,0.0
26.343414306640625,29.082447052001953,-2.153898239135742,-0.0,-0.0,-1.0,0.1312052231196212,2.0,0.0
25.96747589111328,29.11003875732422,-2.163567543029785,-0.0,-0.0,-1.0,0.1930518299967065,2.0,0.0
25.87118148803711,29.20015335083008,-2.1852474212646484,-0.0,-0.0,-1.0,0.1338454289614767,2.0,0.0
25.645923614501953,28.4261531829834,-2.012829303741455,0.2246601422262319,-0.6913030210323091,-0.686751740883481,0.1528909022494367,6.0,0.0
25.285926818847656,29.26305770874023,-2.2099976539611816,-0.0,-0.0,-1.0,0.0638478454847177,1.0,0.0
25.52098846435547,28.42908096313477,-2.0156078338623047,-0.582406995386828,-0.7947468310242829,0.1708202748544422,0.1476267460982512,5.0,0.0
26.033193588256836,29.90610694885254,-1.755947470664978,0.2078448511054292,-0.0009083175678251,-0.9781613838361018,0.115382238265552,3.0,0.0
25.934160232543945,30.057004928588867,-1.7862740755081177,-0.0,-0.0,-1.0,0.1047160423512009,1.0,0.0
27.62628936767578,30.052143096923828,-2.4025373458862305,0.7031051786629339,0.0885466283888559,-0.7055512754848722,0.0589025979795922,3.0,0.0
27.439666748046875,30.21935272216797,-2.439631938934326,-0.0,-0.0,-1.0,0.0470942158621221,1.0,0.0
27.251121520996097,30.381790161132812,-2.4761147499084473,-0.0,-0.0,-1.0,0.0758357476670774,2.0,0.0
27.10250473022461,30.50259017944336,-2.50376558303833,-0.0,-0.0,-1.0,0.0765409959456049,1.0,0.0
27.61871337890625,29.42800521850586,-2.256441116333008,-0.0,-0.0,-1.0,0.1589507562091881,2.0,0.0
26.28895568847656,29.824296951293945,-2.342975616455078,0.6612428104364021,-0.3048062323997894,-0.6854568595735354,0.1873838069911084,6.0,0.0
26.342132568359375,29.201168060302734,-2.194657802581787,-0.0,-0.0,-1.0,0.0685517856120811,1.0,0.0
26.14132499694824,29.571279525756836,-2.283613681793213,-0.0,-0.0,-1.0,0.1781454623212236,1.0,0.0
25.929763793945312,29.7479190826416,-2.3275294303894043,-0.0,-0.0,-1.0,0.0969067939041452,1.0,0.0
25.95271110534668,29.173633575439453,-2.19030237197876,-0.0,-0.0,-1.0,0.1303680550266711,2.0,0.0
25.809663772583008,29.221397399902344,-2.2031025886535645,-0.0,-0.0,-1.0,0.1411452450173466,1.0,0.0
25.517004013061523,29.58327865600586,-2.293668270111084,0.9455402793051478,0.2950558144881939,-0.1374614365858723,0.1333230862355829,3.0,0.0
25.23720932006836,29.10883903503418,-2.185023307800293,-0.0,-0.0,-1.0,0.0325368290782692,2.0,0.0
26.049259185791016,29.978775024414062,-1.819801926612854,0.2360077442885031,-0.0584450340738918,-0.9699920219403632,0.1441731647749619,3.0,0.0
25.959980010986328,30.099151611328125,-1.8454173803329468,-0.0,-0.0,-1.0,0.0948227940836515,1.0,0.0
25.37862968444824,29.704620361328125,-1.7759507894515991,0.5607823375841334,-0.1631349946884394,-0.8117328029355954,0.0463011863856003,3.0,0.0
25.57961654663086,28.466941833496097,-2.025648593902588,-0.2052107848720443,-0.931447899262442,0.300488510149362,0.2153086964298656,5.0,0.0
27.692426681518555,30.08482360839844,-2.242097854614258,-0.0,-0.0,-1.0,0.0619106748055053,1.0,0.0
27.319440841674805,29.36528778076172,-2.0628747940063477,-0.0,-0.0,-1.0,0.1393102877071231,1.0,0.0
26.45427894592285,29.30651473999023,-2.037295341491699,-0.0,-0.0,-1.0,0.1687362434784189,1.0,0.0
26.130054473876953,29.904890060424805,-2.1821699142456055,-0.9734376706622032,-0.01768550620355,-0.2282680972148068,0.1125890557304659,4.0,0.0
26.03187561035156,30.17671775817871,-2.2488484382629395,-0.0,-0.0,-1.0,0.1344449367811257,1.0,0.0
26.355453491210938,29.08900451660156,-1.984132409095764,0.0131658201086742,-0.1054488973367337,-0.9943375640250814,0.2313451469851995,3.0,0.0
26.127534866333008,29.383575439453125,-2.0553202629089355,-0.0,-0.0,-1.0,0.256903973265444,1.0,0.0
25.817646026611328,29.576087951660156,-2.1033740043640137,-0.0,-0.0,-1.0,0.1863609753402353,1.0,0.0
25.72039222717285,30.004676818847656,-2.209258556365967,-0.0,-0.0,-1.0,0.1771590254744179,1.0,0.0
25.57293128967285,30.364578247070312,-2.299274444580078,-0.0,-0.0,-1.0,0.1028374811656338,2.0,0.0
