x,y,z,nx,ny,nz,curvature,density
20.188711166381836,-36.89353561401367,1.9300751686096191,-0.0,-0.0,-1.0,0.1279358944520197,1.0
21.18425941467285,-36.89332580566406,1.9539153575897217,-0.0,-0.0,-1.0,0.2286242345127742,1.0
21.08296012878418,-36.82206726074219,1.936742067337036,-0.0,-0.0,-1.0,0.1652315034773296,2.0
20.64265251159668,-36.57579803466797,1.793762445449829,-0.0,-0.0,-1.0,0.1840866518418229,1.0
21.43680191040039,-37.52764129638672,1.7894845008850098,-0.0,-0.0,-1.0,0.0144679866192751,1.0
20.330867767333984,-36.6571044921875,1.84452486038208,-0.0,-0.0,-1.0,0.1575944318809862,1.0
20.517009735107425,-36.60246276855469,1.837411403656006,-0.0,-0.0,-1.0,0.2061640097454213,1.0
19.956207275390625,-36.8272819519043,1.8805357217788696,-0.0,-0.0,-1.0,0.2295297185770582,2.0
20.23634910583496,-36.764591217041016,1.8759945631027224,-0.0,-0.0,-1.0,0.1983301279955833,1.0
21.51352882385254,-38.261322021484375,1.8565608263015747,-0.0,-0.0,-1.0,0.0122758518675174,1.0
20.18404769897461,-36.685813903808594,2.096593141555786,-0.0,-0.0,-1.0,0.1909595946143538,1.0
19.8686580657959,-36.81341552734375,2.101973533630371,-0.0,-0.0,-1.0,0.1259656997048525,2.0
21.316492080688477,-36.76911163330078,2.0288116931915283,-0.0,-0.0,-1.0,0.2424455083130514,1.0
20.923471450805664,-36.82168960571289,1.8489196300506592,-0.0,-0.0,-1.0,0.1274821694145993,1.0
21.09023666381836,-36.68246078491211,1.8433754444122312,-0.0,-0.0,-1.0,0.2746723711253701,2.0
20.22604751586914,-36.99725341796875,1.952065110206604,-0.0,-0.0,-1.0,0.12376072236992,1.0
19.82714080810547,-36.86141204833984,1.955725908279419,-0.0,-0.0,-1.0,0.2727069058029266,1.0
20.68438720703125,-36.656341552734375,1.942399263381958,-0.0,-0.0,-1.0,0.1839416443343686,1.0
20.558109283447266,-36.49260711669922,1.9422721862792969,-0.0,-0.0,-1.0,0.1690625015848756,1.0
20.37534523010254,-36.91089630126953,2.1256253719329834,-0.0,-0.0,-1.0,0.2021293073027606,2.0
20.569061279296875,-36.87687683105469,2.1229026317596436,-0.0,-0.0,-1.0,0.1756301624264019,1.0
19.907041549682617,-37.365821838378906,1.986217141151428,-0.0,-0.0,-1.0,0.1830105225913737,1.0
19.95046043395996,-36.78234100341797,1.977786898612976,-0.0,-0.0,-1.0,0.1832122266684607,1.0
20.34711456298828,-36.877716064453125,1.9781101942062376,-0.0,-0.0,-1.0,0.2034123435828187,1.0
20.9173583984375,-36.78498077392578,1.9753769636154177,-0.0,-0.0,-1.0,0.1640960902765978,2.0
21.17884826660156,-36.80672454833984,1.9750771522521973,-0.0,-0.0,-1.0,0.2264319896207093,1.0
20.765098571777344,-36.45698547363281,1.971042275428772,-0.0,-0.0,-1.0,0.204314830865079,1.0
21.381664276123047,-36.73712921142578,1.973616361618042,-0.0,-0.0,-1.0,0.2009892067391375,2.0
19.98204040527344,-36.89338684082031,1.960676431655884,-0.0,-0.0,-1.0,0.1553094240070723,1.0
20.39035415649414,-37.014102935791016,1.9568673372268677,-0.0,-0.0,-1.0,0.1259386938866273,1.0
20.305011749267575,-36.759769439697266,1.9552526473999023,-0.0,-0.0,-1.0,0.2396710367728938,1.0
20.803951263427734,-36.64067840576172,1.9478437900543213,-0.0,-0.0,-1.0,0.1443792368577772,1.0
21.10770606994629,-36.813011169433594,1.945956468582153,-0.0,-0.0,-1.0,0.17372555202132,2.0
21.38895606994629,-36.76279830932617,1.942016839981079,-0.0,-0.0,-1.0,0.1885360769666589,2.0
19.753732681274418,-36.88191223144531,1.863640308380127,-0.0,-0.0,-1.0,0.2533632588121802,1.0
19.988510131835938,-36.74701690673828,1.8613276481628416,-0.0,-0.0,-1.0,0.1924850546313637,1.0
20.171884536743164,-36.73955154418945,1.86069917678833,-0.0,-0.0,-1.0,0.1972935846261848,2.0
20.3908748626709,-36.859806060791016,1.8615124225616455,-0.0,-0.0,-1.0,0.1077987365282786,1.0
20.78704833984375,-36.48994064331055,1.8559646606445312,-0.0,-0.0,-1.0,0.1397894590833739,1.0
20.87193298339844,-36.80831527709961,1.8595669269561768,-0.0,-0.0,-1.0,0.1067921084547012,1.0
20.14440536499023,-36.7381591796875,2.5185904502868652,-0.0,-0.0,-1.0,0.1455398941021959,1.0
19.82571792602539,-37.85834503173828,2.5441856384277344,-0.0,-0.0,-1.0,0.1625364497440711,1.0
19.99947166442871,-36.78395080566406,1.9051568508148191,-0.7228587015738109,0.111223067245885,-0.6819858699939767,0.1888002302609828,3.0
20.031694412231445,-36.7833251953125,1.8711049556732176,-0.7247389487507201,0.1222978894288703,-0.6780830940267898,0.1253781388438318,4.0
20.199922561645508,-36.805442810058594,2.543642044067383,-0.0,-0.0,-1.0,0.1207854506177949,1.0
20.131433486938477,-37.23170852661133,2.5549752712249756,-0.0,-0.0,-1.0,0.2247386617552919,1.0
19.77116584777832,-37.024356842041016,2.319969654083252,-0.0,-0.0,-1.0,0.1377807094374976,1.0
20.225595474243164,-36.893096923828125,2.302504539489746,-0.0,-0.0,-1.0,0.1815870554651562,2.0
20.074689865112305,-37.0327262878418,2.3338723182678223,-0.0,-0.0,-1.0,0.2053445426614452,1.0
19.750808715820312,-37.07645034790039,2.326712131500244,-0.0,-0.0,-1.0,0.1421263442909392,2.0
20.19597816467285,-36.94865036010742,2.312978744506836,-0.9462786715797036,0.0443742462681417,-0.3202929939625372,0.1747316914594278,4.0
19.734376907348633,-36.802452087402344,1.9152777194976809,-0.0,-0.0,-1.0,0.2118506931488706,1.0
20.480968475341797,-36.620872497558594,1.904386043548584,-0.0,-0.0,-1.0,0.2014773962604838,2.0
20.095476150512695,-36.825904846191406,1.911439299583435,-0.0,-0.0,-1.0,0.1510550745767443,2.0
20.520965576171875,-36.484901428222656,2.0766074657440186,-0.0,-0.0,-1.0,0.1755824422726251,1.0
21.1415958404541,-36.68587493896485,2.0704050064086914,-0.0,-0.0,-1.0,0.1979172348643286,2.0
20.654964447021484,-36.79894256591797,2.0799005031585693,-0.0,-0.0,-1.0,0.2053982931173331,1.0
20.119667053222656,-36.70358657836914,2.0866715908050537,-0.0,-0.0,-1.0,0.1567863653824879,1.0
19.93035316467285,-37.369720458984375,2.101046562194824,-0.0,-0.0,-1.0,0.2131732614900407,1.0
20.30109405517578,-36.85883712768555,2.3786919116973877,-0.0,-0.0,-1.0,0.1801345661797659,2.0
20.290010452270508,-37.18548202514648,2.381021499633789,-0.0,-0.0,-1.0,0.1705220950041906,1.0
20.42099380493164,-37.81992721557617,2.376687526702881,-0.0,-0.0,-1.0,0.1402067548499397,1.0
20.283390045166016,-37.82025909423828,2.3847029209136963,-0.0,-0.0,-1.0,0.1096031296708619,1.0
20.76625061035156,-38.0334587097168,2.3577098846435547,-0.0,-0.0,-1.0,0.076068594711858,1.0
19.82476043701172,-36.86670684814453,2.4321699142456055,-0.0,-0.0,-1.0,0.1494973089028814,1.0
20.72743225097656,-36.97688674926758,2.4265952110290527,-0.0,-0.0,-1.0,0.0962497035610818,1.0
20.198524475097656,-37.57794570922851,2.450106382369995,-0.0,-0.0,-1.0,0.1892486867888317,1.0
20.24448013305664,-37.74273681640625,2.4547297954559326,-0.0,-0.0,-1.0,0.1228126662058842,1.0
20.24933624267578,-37.06961441040039,2.3155524730682373,-0.0,-0.0,-1.0,0.1943638530111913,1.0
19.81795883178711,-37.265167236328125,2.3322231769561768,-0.0,-0.0,-1.0,0.120835618953509,2.0
20.211246490478516,-36.98657989501953,2.3379926681518555,-0.5414040347205525,-0.6037903252012173,-0.585080263196183,0.2450619201509817,3.0
19.80564308166504,-37.03193664550781,2.3628764152526855,-0.0,-0.0,-1.0,0.182615867756541,1.0
20.377958297729492,-37.21553421020508,2.330030918121338,-0.0,-0.0,-1.0,0.1696243890167608,1.0
20.113521575927734,-36.95286178588867,2.289076328277588,-0.0,-0.0,-1.0,0.2574625209757183,1.0
19.761234283447266,-37.20957946777344,2.3172779083251953,-0.0,-0.0,-1.0,0.1383512390115151,1.0
21.012283325195312,-37.22783279418945,1.7268955707550049,-0.0,-0.0,-1.0,0.1130487149234468,1.0
21.307292938232425,-37.36408615112305,1.683046817779541,-0.0,-0.0,-1.0,0.0650818626239385,1.0
20.584686279296875,-37.531883239746094,1.7734075784683228,-0.0,-0.0,-1.0,0.0649523594216507,1.0
20.24720001220703,-38.15457534790039,1.7972174882888794,-0.0,-0.0,-1.0,0.0550623178397659,1.0
20.069721221923828,-38.303096771240234,1.8157049417495728,-0.0,-0.0,-1.0,0.1033483502070953,1.0
19.891225814819336,-36.86020278930664,2.3370656967163086,-0.0,-0.0,-1.0,0.1602680014489207,1.0
19.838943481445312,-36.78436279296875,1.748249888420105,-0.0,-0.0,-1.0,0.1783240468077638,1.0
21.03266334533691,-36.534664154052734,2.0337252616882324,-0.0,-0.0,-1.0,0.1731775088384478,1.0
20.887958526611328,-36.860374450683594,2.047389268875122,-0.0,-0.0,-1.0,0.1373180974272033,1.0
20.996950149536133,-36.846092224121094,2.0801663398742676,-0.0,-0.0,-1.0,0.1038024970296458,2.0
21.156522750854492,-36.702110290527344,2.067505121231079,-0.0,-0.0,-1.0,0.2118296953446583,2.0
21.542160034179688,-37.51227188110352,1.8083651065826416,-0.0,-0.0,-1.0,0.0485123997949508,1.0
21.51405334472656,-38.29655838012695,1.9465744495391848,-0.0,-0.0,-1.0,0.0495114729616329,1.0
20.651607513427734,-36.72312545776367,1.9747917652130127,-0.0,-0.0,-1.0,0.1916147800171393,1.0
21.122974395751953,-36.67254257202149,1.9464120864868164,-0.0,-0.0,-1.0,0.248395845536569,1.0
19.8435001373291,-36.92127227783203,2.0217597484588623,-0.0,-0.0,-1.0,0.2072060506675202,1.0
20.245471954345703,-36.59903335571289,2.009002208709717,-0.0,-0.0,-1.0,0.2440699822697303,1.0
20.543310165405273,-36.868160247802734,2.0077290534973145,-0.0,-0.0,-1.0,0.2160826784342114,2.0
20.861242294311523,-36.743377685546875,1.9997994899749756,-0.0,-0.0,-1.0,0.1245618130997447,1.0
20.01226043701172,-38.04378128051758,2.036538600921631,-0.0,-0.0,-1.0,0.1295076725873915,1.0
20.526885986328125,-37.1333122253418,2.1480467319488525,-0.0,-0.0,-1.0,0.1408599349844758,1.0
20.270023345947266,-36.82488250732422,1.7980037927627563,-0.0,-0.0,-1.0,0.1074629003949509,1.0
20.718629837036133,-36.67323303222656,1.7761282920837402,-0.0,-0.0,-1.0,0.1027933336890293,1.0
20.115140914916992,-36.94761657714844,2.4764842987060547,-0.0,-0.0,-1.0,0.1338346505658313,1.0
19.86931610107422,-38.00159454345703,2.5184226036071777,-0.0,-0.0,-1.0,0.2575860703680541,2.0
20.25886344909668,-36.89147186279297,2.465477466583252,-0.0,-0.0,-1.0,0.0960692922809437,2.0
19.87803077697754,-36.85126876831055,2.5227389335632324,-0.0,-0.0,-1.0,0.0991878498018853,1.0
20.115623474121097,-36.90892791748047,2.5082342624664307,-0.0,-0.0,-1.0,0.1262071739641004,1.0
20.499906539916992,-36.81758117675781,2.482991933822632,-0.0,-0.0,-1.0,0.1345858154512345,1.0
20.007444381713867,-36.5589599609375,1.777538180351257,-0.0,-0.0,-1.0,0.0581973564154862,1.0
20.222713470458984,-36.71536636352539,1.7569514513015747,-0.0,-0.0,-1.0,0.0771195708508958,1.0
20.021942138671875,-37.45404815673828,2.985243320465088,-0.0,-0.0,-1.0,0.2295942661419041,1.0
19.744348526000977,-37.30704879760742,2.118473529815674,-0.0,-0.0,-1.0,0.1180355375188424,1.0
20.06335067749023,-36.80434036254883,2.1029834747314453,-0.0,-0.0,-1.0,0.1954840334488739,2.0
19.847576141357425,-37.40236282348633,2.11336898803711,-0.0,-0.0,-1.0,0.1541331391991993,1.0
20.31313705444336,-36.93009185791016,2.0906221866607666,-0.0,-0.0,-1.0,0.2472862697943061,1.0
21.049530029296875,-36.83415603637695,2.0541999340057373,-0.0,-0.0,-1.0,0.1319097546349567,1.0
21.206729888916016,-36.96689224243164,2.0463175773620605,-0.0,-0.0,-1.0,0.1842917212566941,2.0
19.919780731201172,-37.011375427246094,2.523195505142212,-0.0,-0.0,-1.0,0.1887046639905644,1.0
19.72959899902344,-37.50764083862305,2.189889430999756,-0.0,-0.0,-1.0,0.1453282459729088,1.0
20.17575454711914,-36.85743713378906,2.1663832664489746,-0.0,-0.0,-1.0,0.1903148890275545,2.0
19.830699920654297,-37.53260803222656,2.184730291366577,-0.0,-0.0,-1.0,0.1778787073168277,1.0
20.60965156555176,-36.7132453918457,2.144102096557617,-0.0,-0.0,-1.0,0.2189387770157869,2.0
21.0456600189209,-36.854270935058594,2.122126579284668,-0.0,-0.0,-1.0,0.1651905601170896,2.0
19.716222763061523,-37.073883056640625,2.339500665664673,-0.0,-0.0,-1.0,0.1195733209334967,2.0
20.23398208618164,-36.996192932128906,2.3268747329711914,-0.0,-0.0,-1.0,0.242871181852307,2.0
19.948558807373047,-37.275726318359375,2.336925983428955,-0.0,-0.0,-1.0,0.2245539973367982,2.0
19.913318634033203,-37.668006896972656,2.3428502082824707,-0.0,-0.0,-1.0,0.1757263980566231,1.0
20.024694442749023,-36.80257797241211,1.8753845691680908,-0.7247389487507201,0.1222978894288703,-0.6780830940267898,0.1548554349179177,4.0
19.759885787963867,-36.93193054199219,1.8853106498718264,-0.0,-0.0,-1.0,0.2004843911682277,1.0
20.542232513427734,-36.546173095703125,1.8561241626739504,-0.0,-0.0,-1.0,0.2300653905904973,1.0
20.262466430664062,-36.89312744140625,1.8650500774383545,0.5250644278336803,0.5980307968230437,-0.6055299436649564,0.1235705242854789,3.0
20.61123275756836,-36.66902160644531,1.8524625301361084,-0.0,-0.0,-1.0,0.2105807671285867,1.0
21.174571990966797,-36.69813919067383,1.829540729522705,-0.0,-0.0,-1.0,0.2004402303193052,1.0
21.415775299072266,-37.70118713378906,1.8129059076309204,-0.0,-0.0,-1.0,0.010204640196399,1.0
21.15709114074707,-38.220001220703125,1.8196370601654053,-0.0,-0.0,-1.0,0.0533185666288058,1.0
19.963409423828125,-36.68315887451172,1.813073992729187,-0.0,-0.0,-1.0,0.1633756596446944,1.0
20.50884246826172,-36.6888313293457,1.7952632904052734,-0.0,-0.0,-1.0,0.1532725825383512,2.0
20.1803035736084,-36.72572708129883,1.8056501150131223,-0.0,-0.0,-1.0,0.1283257892858702,2.0
21.560020446777344,-37.42589569091797,1.7559266090393066,-0.2495613990944332,0.2207254432030232,-0.9428676401302876,0.0705466735395308,3.0
21.34980583190918,-37.6374626159668,1.7609670162200928,-0.0,-0.0,-1.0,0.0127734827627643,1.0
20.613527297973633,-36.62461471557617,1.7872599363327026,-0.0,-0.0,-1.0,0.1569294403036136,1.0
20.473255157470703,-36.706783294677734,1.790123701095581,-0.0,-0.0,-1.0,0.1259206414916379,2.0
21.40895652770996,-36.50641250610352,1.7694616317749023,-0.0,-0.0,-1.0,0.1895188577990155,1.0
21.386898040771484,-37.59737777709961,1.764367699623108,-0.0,-0.0,-1.0,0.0127734827627644,1.0
19.7381649017334,-37.28451919555664,2.699488639831543,-0.0,-0.0,-1.0,0.2219516915897526,1.0
20.607330322265625,-36.76561737060547,2.659271240234375,-0.0,-0.0,-1.0,0.1856613241205278,2.0
19.91617202758789,-36.37308120727539,1.750223159790039,-0.0,-0.0,-1.0,0.0540903492543045,2.0
19.79812240600586,-36.92301940917969,2.59889817237854,-0.0,-0.0,-1.0,0.1162754137854931,1.0
20.317821502685547,-36.840354919433594,2.564984083175659,-0.0,-0.0,-1.0,0.091437123985208,1.0
20.182069778442383,-36.914642333984375,2.574979305267334,0.2756039040157764,-0.959435545104212,0.0593794819937511,0.1286238945847413,4.0
20.559064865112305,-36.414302825927734,2.412424325942993,-0.0,-0.0,-1.0,0.1612932425546765,1.0
20.226472854614254,-36.95552444458008,2.4356541633605957,-0.0,-0.0,-1.0,0.1316328488513848,1.0
19.91391372680664,-37.2043571472168,2.4549853801727295,-0.0,-0.0,-1.0,0.1899126995270755,1.0
19.80742454528809,-37.40684509277344,2.46273136138916,-0.0,-0.0,-1.0,0.1492161513763379,1.0
20.598358154296875,-36.87156677246094,2.4148457050323486,-0.0,-0.0,-1.0,0.1076894818458678,1.0
19.900203704833984,-37.68641662597656,2.4604690074920654,-0.0,-0.0,-1.0,0.2003374669659979,1.0
20.621728897094727,-36.38909912109375,2.271158456802368,-0.0,-0.0,-1.0,0.2256688302634228,1.0
20.233552932739254,-36.940940856933594,2.2910001277923584,-0.5192270041422582,0.117203301854405,-0.8465616954504146,0.1767057360101197,3.0
19.954818725585938,-37.822120666503906,2.3053054809570312,-0.0,-0.0,-1.0,0.1971549136595561,2.0
20.29082679748535,-36.77301025390625,1.8664054870605469,-0.0,-0.0,-1.0,0.187236203108275,1.0
20.71584129333496,-36.53089141845703,1.841609239578247,-0.0,-0.0,-1.0,0.2427063976741729,1.0
20.545766830444336,-36.864776611328125,1.845955491065979,-0.0,-0.0,-1.0,0.142285117281956,1.0
21.022933959960938,-37.225555419921875,1.8075013160705569,-0.0,-0.0,-1.0,0.1435498303598524,1.0
21.24785804748535,-37.28004837036133,1.7899718284606934,-0.0,-0.0,-1.0,0.1082946158539285,2.0
21.09334373474121,-37.35057830810547,1.7994916439056396,-0.0,-0.0,-1.0,0.1156020438940223,1.0
21.550262451171875,-37.30405807495117,1.7675118446350098,-0.0,-0.0,-1.0,0.0876610982685028,1.0
19.736724853515625,-37.680904388427734,2.666642427444458,-0.0,-0.0,-1.0,0.1029711118596652,1.0
20.266984939575195,-36.866600036621094,2.6178834438323975,-0.0,-0.0,-1.0,0.09784786257526,2.0
20.144798278808594,-37.42424011230469,2.6332850456237793,-0.0,-0.0,-1.0,0.2175001268233643,1.0
20.004846572875977,-38.13863754272461,2.6517863273620605,-0.0,-0.0,-1.0,0.2415896797936635,1.0
20.421403884887695,-36.80655288696289,2.605720043182373,-0.0,-0.0,-1.0,0.0718299970177937,1.0
19.733943939208984,-37.776512145996094,2.116050958633423,-0.0,-0.0,-1.0,0.1349426307850038,1.0
20.022933959960938,-36.76485061645508,2.120887756347656,-0.0,-0.0,-1.0,0.1780680699732232,1.0
20.411128997802734,-36.37012481689453,2.0944395065307617,-0.0,-0.0,-1.0,0.1896577340411734,1.0
20.56016731262207,-36.70635223388672,2.0675783157348633,-0.0,-0.0,-1.0,0.2589578629044995,1.0
20.88425064086914,-36.78160858154297,2.0313005447387695,-0.0,-0.0,-1.0,0.1520772795556366,1.0
21.094951629638672,-36.539573669433594,2.0176498889923096,-0.0,-0.0,-1.0,0.1671577932681541,2.0
19.8211669921875,-37.16942596435547,2.474374294281006,-0.0,-0.0,-1.0,0.138589608818964,1.0
19.98826026916504,-37.26448822021485,2.4637303352355957,-0.0,-0.0,-1.0,0.2211106309067766,1.0
19.97569465637207,-37.01920318603515,2.24814510345459,-0.0,-0.0,-1.0,0.1541262289641521,2.0
20.175939559936523,-36.80152893066406,2.241875410079956,-0.1157458194727442,0.9568652928835318,-0.266480236695887,0.1460032787323602,5.0
21.050209045410156,-36.825828552246094,2.1873373985290527,0.9605420373005236,-0.218388381833152,0.1722367825374613,0.1859720871202014,3.0
21.42376136779785,-37.04856872558594,1.6543112993240356,-0.0,-0.0,-1.0,0.0884616874417733,1.0
20.42517471313477,-36.39410400390625,1.7100470066070557,-0.0,-0.0,-1.0,0.1726440004242539,1.0
21.36847686767578,-36.398773193359375,1.6883001327514648,-0.0,-0.0,-1.0,0.1704922330281156,1.0
19.761899948120117,-37.704315185546875,2.385076999664306,-0.0,-0.0,-1.0,0.1377016237641138,1.0
20.06452178955078,-36.857810974121094,2.3906123638153076,-0.0,-0.0,-1.0,0.1588143538213912,2.0
21.36532974243164,-36.864036560058594,1.6730371713638306,-0.0,-0.0,-1.0,0.1706758568856438,1.0
21.324934005737305,-36.55952835083008,1.6890227794647217,-0.0,-0.0,-1.0,0.115635739322168,1.0
19.925704956054688,-37.255279541015625,2.3740077018737793,-0.0,-0.0,-1.0,0.2335103368988872,2.0
20.01971435546875,-36.89533233642578,2.3786563873291016,-0.0,-0.0,-1.0,0.1546148784970617,1.0
19.7755126953125,-37.32330322265625,3.086214065551758,-0.0,-0.0,-1.0,0.2091574004756573,1.0
20.25078392028809,-37.93300247192383,2.24315881729126,-0.0,-0.0,-1.0,0.0890272048012354,1.0
20.020217895507812,-36.93170928955078,2.2630081176757812,-0.0,-0.0,-1.0,0.2051734298178623,1.0
20.1805477142334,-36.80976867675781,2.265566110610962,-0.261382868908419,0.8947635850082166,0.362045746811709,0.1426179405051366,3.0
20.93860626220703,-36.8370361328125,2.264186382293701,-0.0,-0.0,-1.0,0.1085600044393893,2.0
19.88776206970215,-37.325462341308594,2.080247402191162,-0.0,-0.0,-1.0,0.2158386815629679,1.0
20.09978485107422,-37.0318489074707,2.0867037773132324,-0.0,-0.0,-1.0,0.2059415467573925,1.0
20.37129783630371,-36.94440841674805,2.086562156677246,-0.0,-0.0,-1.0,0.2357417498361856,1.0
20.112972259521484,-36.79838943481445,2.093362331390381,-0.0,-0.0,-1.0,0.1747097514107559,2.0
20.62441635131836,-36.72468566894531,2.0901947021484375,-0.0,-0.0,-1.0,0.2008007904923713,1.0
20.920318603515625,-36.82178497314453,2.0837576389312744,-0.0,-0.0,-1.0,0.1120501405862616,1.0
21.196216583251953,-36.835052490234375,2.079681396484375,-0.0,-0.0,-1.0,0.1873562176382867,1.0
20.56929397583008,-36.50151443481445,2.0973401069641113,-0.0,-0.0,-1.0,0.1821727840950551,1.0
21.11452865600586,-37.95419692993164,1.8488842248916624,-0.0,-0.0,-1.0,0.0568402050945336,1.0
21.485097885131836,-37.85893630981445,1.851449489593506,-0.0,-0.0,-1.0,0.0116110303674154,1.0
19.953277587890625,-36.84920501708984,1.88910710811615,-0.6376881678606875,-0.2050794182713884,-0.742493254361242,0.1743395875983192,3.0
20.275728225708008,-36.880615234375,1.8889068365097048,-0.0,-0.0,-1.0,0.1336526565149265,2.0
20.064350128173828,-36.71858978271485,1.89422345161438,-0.0,-0.0,-1.0,0.176304679476899,1.0
20.529075622558594,-36.61219024658203,1.8992875814437864,-0.0,-0.0,-1.0,0.1954513682594364,2.0
21.265409469604492,-36.78098678588867,1.8929526805877688,-0.0,-0.0,-1.0,0.21488866894612,1.0
20.01443862915039,-37.69061279296875,2.5983328819274902,-0.0,-0.0,-1.0,0.1306927415377017,1.0
20.005300521850582,-37.179412841796875,2.5999279022216797,-0.0,-0.0,-1.0,0.1845747728495358,1.0
20.17565536499023,-36.8366813659668,2.599837064743042,-0.0,-0.0,-1.0,0.1203944940639564,2.0
20.562368392944336,-36.75645065307617,2.5973610877990723,-0.0,-0.0,-1.0,0.1716576435741423,1.0
19.7752685546875,-36.909141540527344,2.1599836349487305,-0.0,-0.0,-1.0,0.1159211552012608,1.0
20.192543029785156,-36.87730407714844,2.1654558181762695,-0.0,-0.0,-1.0,0.2020576104631381,2.0
20.59813690185547,-36.76940155029297,2.171788454055786,-0.0,-0.0,-1.0,0.2510374106232253,1.0
21.046958923339844,-36.85076522827149,2.173844337463379,0.7687744072007738,0.2239338879386227,-0.5990321566208203,0.219952418243665,3.0
20.630779266357425,-36.55717468261719,2.1764957904815674,-0.0,-0.0,-1.0,0.1970043160695581,1.0
21.182865142822266,-36.76087188720703,2.176766872406006,-0.0,-0.0,-1.0,0.2146646822896139,1.0
20.408145904541016,-37.94842529296875,2.2091898918151855,-0.0,-0.0,-1.0,0.1108472130472232,1.0
19.79665184020996,-37.250953674316406,2.2118420600891113,-0.0,-0.0,-1.0,0.1159085210039913,1.0
20.18451499938965,-36.88777542114258,2.2231078147888184,-0.0,-0.0,-1.0,0.2073811169056663,2.0
20.494686126708984,-36.87176513671875,2.22762393951416,-0.0,-0.0,-1.0,0.1715426061883782,1.0
21.04025650024414,-36.83208084106445,2.2349138259887695,-0.0,-0.0,-1.0,0.219952418243665,2.0
20.463844299316406,-36.560340881347656,2.2321267127990723,-0.0,-0.0,-1.0,0.1636414730560157,2.0
20.692365646362305,-36.75354766845703,2.232062816619873,-0.0,-0.0,-1.0,0.1959400205067136,2.0
20.41636085510254,-37.886016845703125,2.239377975463867,-0.0,-0.0,-1.0,0.1153313464622002,1.0
19.797916412353516,-37.17689514160156,2.380733013153076,-0.0,-0.0,-1.0,0.1256404996151855,1.0
20.1735782623291,-37.11406326293945,2.385714054107666,-0.0,-0.0,-1.0,0.1972923195191087,1.0
20.143531799316406,-36.91909408569336,2.386681318283081,-0.0,-0.0,-1.0,0.2168679464156547,1.0
20.09228515625,-37.44493103027344,2.4701151847839355,-0.0,-0.0,-1.0,0.2502042180529932,1.0
19.82485580444336,-37.28104782104492,2.4670934677124023,-0.0,-0.0,-1.0,0.1335958823693505,1.0
20.227996826171875,-36.89433288574219,2.4728493690490723,-0.0,-0.0,-1.0,0.1116942281290464,2.0
20.21826934814453,-37.865142822265625,2.252033233642578,-0.0,-0.0,-1.0,0.0982111261988994,1.0
19.95465660095215,-36.991981506347656,2.2672781944274902,-0.0,-0.0,-1.0,0.2154193153812783,2.0
20.47402572631836,-36.702415466308594,2.275998115539551,-0.0,-0.0,-1.0,0.2311424714592684,1.0
20.52045440673828,-38.31901550292969,2.403364419937134,-0.0,-0.0,-1.0,0.1337972649660502,1.0
21.087902069091797,-38.35118865966797,1.8393596410751345,-0.0,-0.0,-1.0,0.046980034879202,1.0
21.355995178222656,-38.297611236572266,1.8477848768234253,-0.0,-0.0,-1.0,0.0479492281698959,1.0
19.862258911132812,-36.86783218383789,1.841081976890564,-0.0,-0.0,-1.0,0.1865874617427242,1.0
21.26968765258789,-38.20645904541016,1.8478662967681885,-0.0,-0.0,-1.0,0.0541234439457571,1.0
20.048263549804688,-36.81194305419922,1.8479267358779907,-0.7333068554283269,0.1177705502463535,-0.6696201559664179,0.0994641166242617,3.0
20.237468719482425,-36.88460540771485,1.8517906665802,-0.0,-0.0,-1.0,0.1141131760911339,2.0
20.820587158203125,-36.905975341796875,1.8680965900421145,-0.0,-0.0,-1.0,0.1280187688666114,1.0
21.26583480834961,-36.94839859008789,1.879532814025879,-0.0,-0.0,-1.0,0.1628165378469958,1.0
21.61077117919922,-36.61976623535156,1.8972126245498655,-0.0,-0.0,-1.0,0.1879629845315852,1.0
20.15190887451172,-37.32770538330078,2.6335456371307373,-0.0,-0.0,-1.0,0.2394199124588075,1.0
19.812232971191406,-36.82121276855469,1.9111807346343992,-0.0,-0.0,-1.0,0.2235466189719235,1.0
19.92920684814453,-36.86055374145508,1.912914752960205,-0.0,-0.0,-1.0,0.1796519960299945,2.0
20.024883270263672,-36.86295318603515,1.9150410890579224,-0.0,-0.0,-1.0,0.1479365099770959,1.0
21.231067657470703,-38.260498046875,1.9043307304382324,-0.0,-0.0,-1.0,0.0534399862228627,2.0
20.386951446533203,-36.75203704833984,1.925954818725586,-0.0,-0.0,-1.0,0.2322714009232252,1.0
20.747983932495117,-36.780548095703125,1.9331965446472168,-0.0,-0.0,-1.0,0.1444332221184425,1.0
21.652042388916016,-38.18448638916016,1.914414644241333,-0.0,-0.0,-1.0,0.0122758518675174,1.0
20.93842506408691,-36.77408981323242,1.9374737739562988,-0.0,-0.0,-1.0,0.1379715427886019,2.0
21.250444412231445,-36.97908020019531,1.9387531280517576,-0.0,-0.0,-1.0,0.1866331553417941,1.0
21.299957275390625,-36.64339447021485,1.9485065937042236,-0.0,-0.0,-1.0,0.2193525471109722,1.0
20.192476272583008,-37.26713562011719,2.692953586578369,-0.0,-0.0,-1.0,0.1267399357262972,1.0
19.913780212402344,-37.81718444824219,2.1787891387939453,-0.0,-0.0,-1.0,0.1738294978624924,1.0
19.977737426757812,-37.86292266845703,2.1784749031066895,-0.0,-0.0,-1.0,0.188506240491678,1.0
19.876461029052734,-36.77816009521485,2.1980607509613037,-0.0,-0.0,-1.0,0.1233942236220725,1.0
20.190731048583984,-37.11067199707031,2.1949777603149414,-0.0,-0.0,-1.0,0.2102505168460274,1.0
20.269258499145508,-37.01456451416016,2.1975531578063965,-0.0,-0.0,-1.0,0.2568832703530416,1.0
20.43249893188477,-36.579627990722656,2.2073912620544434,-0.0,-0.0,-1.0,0.1515233214090412,2.0
20.676753997802734,-36.74258804321289,2.2066051959991455,-0.0,-0.0,-1.0,0.1593623655253099,2.0
21.14042282104492,-36.80751037597656,2.2094316482543945,-0.0,-0.0,-1.0,0.2095934227041907,1.0
19.85061264038086,-38.06047058105469,2.302980899810791,-0.0,-0.0,-1.0,0.1399001708054514,1.0
19.970264434814453,-37.800025939941406,2.305488109588623,-0.0,-0.0,-1.0,0.197154913659556,2.0
20.081098556518555,-37.906944274902344,2.309448719024658,-0.0,-0.0,-1.0,0.2230294364056719,1.0
20.34391975402832,-36.920257568359375,2.312959909439087,-0.0,-0.0,-1.0,0.1844763901165677,1.0
20.28365707397461,-37.267967224121094,2.3127548694610596,-0.0,-0.0,-1.0,0.1512302613586742,1.0
21.196205139160156,-36.429344177246094,1.7239116430282593,-0.0,-0.0,-1.0,0.1958205836514553,2.0
21.240711212158203,-36.5368766784668,1.7242588996887207,-0.0,-0.0,-1.0,0.193925407611785,1.0
21.433395385742188,-37.292236328125,1.7198060750961304,-0.0,-0.0,-1.0,0.0749067733958391,2.0
21.157886505126953,-37.291133880615234,1.705749273300171,-0.0,-0.0,-1.0,0.0960418901521134,1.0
21.626323699951172,-37.224510192871094,1.730931043624878,-0.0,-0.0,-1.0,0.0862401144384092,1.0
21.611059188842773,-37.41683578491211,1.7263493537902832,-0.0,-0.0,-1.0,0.0708572777077976,2.0
20.091861724853516,-36.88490676879883,2.389005422592163,-0.0,-0.0,-1.0,0.1795981290338722,2.0
20.164825439453125,-37.40166473388672,2.3953914642333984,-0.0,-0.0,-1.0,0.2673512051525971,1.0
20.698970794677734,-36.481956481933594,2.403674602508545,-0.0,-0.0,-1.0,0.219408495810072,1.0
20.422006607055664,-36.897178649902344,2.398883581161499,-0.0,-0.0,-1.0,0.1072977058970218,2.0
21.18174743652344,-36.46916198730469,1.7470712661743164,-0.0,-0.0,-1.0,0.1958205836514553,2.0
21.39392852783203,-37.29044342041016,1.7473270893096924,-0.0,-0.0,-1.0,0.0749067733958391,2.0
21.577072143554688,-37.23423767089844,1.758210062980652,-0.0,-0.0,-1.0,0.0862401144384092,1.0
21.708576202392575,-37.343536376953125,1.7637479305267334,-0.0,-0.0,-1.0,0.0850900542878399,1.0
19.957775115966797,-36.84406280517578,2.3925905227661133,-0.0,-0.0,-1.0,0.1568696036547185,1.0
20.28927230834961,-36.855743408203125,2.403843879699707,-0.0,-0.0,-1.0,0.1241119895751959,2.0
19.913684844970703,-37.10188293457031,2.394455909729004,-0.0,-0.0,-1.0,0.1594055591743986,1.0
20.03918075561523,-37.49665832519531,2.4037046432495117,-0.0,-0.0,-1.0,0.2841602071077058,1.0
20.38128662109375,-36.91324996948242,2.40765380859375,-0.0,-0.0,-1.0,0.0648104032184727,2.0
19.89432144165039,-36.81904983520508,2.114253044128418,-0.0,-0.0,-1.0,0.1544376201514322,2.0
20.538497924804688,-36.657447814941406,2.138363838195801,-0.0,-0.0,-1.0,0.2238282243172917,1.0
20.348201751708984,-37.06277084350586,2.130509853363037,-0.0,-0.0,-1.0,0.2515779048269915,1.0
20.73650550842285,-36.94411087036133,2.1448516845703125,-0.0,-0.0,-1.0,0.1867866201953542,1.0
20.06459045410156,-37.85597229003906,2.1181886196136475,-0.0,-0.0,-1.0,0.1892905562916663,1.0
21.08819580078125,-36.80491638183594,2.157838821411133,-0.0,-0.0,-1.0,0.190889742404092,1.0
21.22698211669922,-37.05299377441406,2.1619300842285156,-0.0,-0.0,-1.0,0.163001141884993,1.0
20.495662689208984,-38.016578674316406,2.1328959465026855,-0.0,-0.0,-1.0,0.1174149968766846,2.0
20.100852966308594,-36.755741119384766,2.1251749992370605,-0.0,-0.0,-1.0,0.2087067341830581,2.0
19.79020118713379,-36.7813720703125,2.1178975105285645,-0.0,-0.0,-1.0,0.1487753330242422,1.0
20.51455307006836,-36.61260223388672,2.136713981628418,-0.0,-0.0,-1.0,0.2195937169469921,2.0
20.393213272094727,-36.89264297485352,2.128906726837158,-0.0,-0.0,-1.0,0.1798136321351389,2.0
21.02941131591797,-36.793739318847656,2.143982410430908,-0.0,-0.0,-1.0,0.1532592923184364,1.0
20.690738677978516,-36.91764068603515,2.1346492767333984,-0.0,-0.0,-1.0,0.2188206456513115,2.0
19.98818588256836,-37.6985969543457,2.105138778686523,-0.0,-0.0,-1.0,0.1368796325549585,1.0
21.28310775756836,-36.65480041503906,2.1518325805664062,-0.0,-0.0,-1.0,0.1975153547327345,1.0
21.199947357177734,-36.85017395019531,2.146307945251465,-0.0,-0.0,-1.0,0.2201609896674789,1.0
20.47193145751953,-38.001243591308594,2.108917236328125,-0.0,-0.0,-1.0,0.1174149968766847,2.0
19.790435791015625,-36.90272521972656,1.989791989326477,-0.0,-0.0,-1.0,0.2145935068729924,2.0
20.52309799194336,-36.65201950073242,2.0097267627716064,-0.0,-0.0,-1.0,0.1661564939626143,1.0
20.13323211669922,-36.83167266845703,1.9976109266281128,-0.0,-0.0,-1.0,0.2061554247379398,1.0
21.034915924072266,-36.70155715942383,2.0156784057617188,-0.0,-0.0,-1.0,0.2168081368848678,1.0
20.574031829833984,-36.88318634033203,2.002638816833496,0.183424723851766,0.6305126151958244,-0.7541944131050202,0.1931693073667499,3.0
21.19502639770508,-37.00193405151367,2.007467269897461,-0.0,-0.0,-1.0,0.1734184687490958,1.0
20.411182403564453,-38.25384521484375,1.952507257461548,-0.0,-0.0,-1.0,0.0946451865518531,1.0
20.60900115966797,-36.80000305175781,2.657195568084717,-0.0,-0.0,-1.0,0.1716576435741423,2.0
19.891441345214844,-37.0914421081543,2.660738945007324,-0.0,-0.0,-1.0,0.1182858988940841,1.0
20.10888671875,-37.253719329833984,2.657647609710694,-0.0,-0.0,-1.0,0.1840742077740023,1.0
20.686744689941406,-36.4925651550293,2.0230588912963867,-0.0,-0.0,-1.0,0.1932119613469852,1.0
19.893613815307617,-36.69725799560547,1.9949513673782349,-0.0,-0.0,-1.0,0.1575694056904923,2.0
21.10688018798828,-36.77130126953125,2.029996395111084,-0.0,-0.0,-1.0,0.1417935418990332,1.0
20.77756118774414,-36.79743576049805,2.019829511642456,-0.0,-0.0,-1.0,0.1453644986155723,2.0
20.308685302734375,-36.91183090209961,2.0036261081695557,-0.0,-0.0,-1.0,0.173774280710871,1.0
20.029216766357425,-36.929786682128906,1.9948172569274905,-0.0,-0.0,-1.0,0.2069605611666359,2.0
20.364744186401367,-38.05782699584961,1.9824559688568115,-0.0,-0.0,-1.0,0.060847049653907,1.0
20.21499252319336,-36.70811462402344,2.6442174911499023,-0.0,-0.0,-1.0,0.0958632184499149,1.0
20.24063491821289,-36.77488708496094,2.644857168197632,-0.0,-0.0,-1.0,0.0958632184499149,1.0
21.264711380004883,-36.68302154541016,1.9901082515716553,-0.0,-0.0,-1.0,0.2711530268222275,1.0
20.801761627197266,-36.788848876953125,1.9829957485198977,-0.0,-0.0,-1.0,0.1200203017064326,2.0
20.57123374938965,-36.759185791015625,1.983167052268982,-0.0,-0.0,-1.0,0.2258484663328819,1.0
20.063522338867188,-36.9135856628418,1.9734721183776855,-0.3218997080896438,0.9281059237569436,0.187082795091029,0.1966852810986344,3.0
20.630775451660156,-37.14406204223633,1.9659152030944824,-0.0,-0.0,-1.0,0.1505523920825598,1.0
21.03868865966797,-37.61644744873047,1.9461545944213867,-0.0,-0.0,-1.0,0.0575461950420136,1.0
21.59960174560547,-38.102108001708984,1.9260094165802,-0.0,-0.0,-1.0,0.0122758518675175,2.0
21.28723526000977,-38.24247741699219,1.9182517528533936,-0.0,-0.0,-1.0,0.0534399862228627,2.0
21.10583877563477,-38.209041595458984,1.919063925743103,-0.0,-0.0,-1.0,0.0514782812103036,2.0
20.55072021484375,-36.886207580566406,2.5827245712280273,-0.0,-0.0,-1.0,0.0610822116043493,2.0
20.18632125854492,-36.8963623046875,2.5888214111328125,-0.0,-0.0,-1.0,0.1211248435107875,2.0
20.045103073120117,-37.35395812988281,2.5826730728149414,-0.0,-0.0,-1.0,0.1502254488237052,1.0
21.274311065673828,-36.45362854003906,1.6891603469848633,-0.0,-0.0,-1.0,0.1584547545447627,1.0
20.161144256591797,-36.806129455566406,2.216747045516968,0.2615708547367313,0.9103548147031028,-0.3206786542618245,0.1699991650975475,3.0
19.849695205688477,-36.91087341308594,2.2120118141174316,-0.0,-0.0,-1.0,0.1448972955140484,1.0
21.08046531677246,-36.86628341674805,2.2156715393066406,-0.0,-0.0,-1.0,0.2034571166309383,2.0
20.69921112060547,-36.81391143798828,2.217292308807373,-0.0,-0.0,-1.0,0.200561909146719,1.0
20.323673248291016,-37.03403091430664,2.2079339027404785,-0.0,-0.0,-1.0,0.1471241072756329,1.0
20.0294189453125,-37.34539794921875,2.1950478553771973,-0.0,-0.0,-1.0,0.258286003083046,1.0
20.01150131225586,-37.90949249267578,2.172452688217163,-0.0,-0.0,-1.0,0.2240802430259658,1.0
21.587352752685547,-36.38356018066406,1.670801877975464,-0.0,-0.0,-1.0,0.1497893085125762,1.0
21.345624923706055,-36.65040588378906,1.6373395919799805,-0.0,-0.0,-1.0,0.1482369007817112,1.0
20.4140625,-36.801300048828125,2.131748914718628,-0.0,-0.0,-1.0,0.2188550987216753,1.0
20.10290145874023,-36.803924560546875,2.126481533050537,-0.0610998862449748,0.4559405506197052,-0.887910478709116,0.2101780423224612,4.0
20.53299331665039,-37.09056091308594,2.115055799484253,-0.0,-0.0,-1.0,0.1631958131211792,1.0
20.298789978027344,-37.1354866027832,2.1084465980529785,-0.0,-0.0,-1.0,0.2435193259063264,1.0
20.1241455078125,-37.863006591796875,2.058772087097168,-0.0,-0.0,-1.0,0.1580175228874799,2.0
20.26620101928711,-38.008636474609375,2.0514261722564697,-0.0,-0.0,-1.0,0.0669320909474881,1.0
20.577388763427734,-36.40240859985352,2.1599693298339844,-0.0,-0.0,-1.0,0.1830916617991703,1.0
20.736507415771484,-36.8092041015625,2.136411190032959,-0.0,-0.0,-1.0,0.1795904209133206,1.0
20.514713287353516,-36.577537536621094,2.147718667984009,-0.0,-0.0,-1.0,0.2068618160002968,2.0
21.187898635864254,-36.94495391845703,2.1343648433685303,-0.0,-0.0,-1.0,0.1871464875948151,1.0
21.022180557250977,-36.86358642578125,2.137251853942871,0.625648399577803,-0.7800823417945277,-0.0059682598887254,0.136069973882054,4.0
20.09720230102539,-36.86962127685547,2.670255661010742,-0.0,-0.0,-1.0,0.1440204547874384,1.0
20.063894271850582,-37.2852668762207,2.655404567718506,-0.0,-0.0,-1.0,0.2305167672508637,1.0
19.881593704223633,-38.11922836303711,2.6261935234069824,-0.0,-0.0,-1.0,0.2036956054497996,1.0
21.056663513183594,-36.52178192138672,1.7543413639068604,-0.0,-0.0,-1.0,0.1541117300001252,2.0
20.217769622802734,-36.44388961791992,1.7285902500152588,-0.0,-0.0,-1.0,0.0495424955336884,1.0
21.3313045501709,-36.74706268310547,1.743093490600586,-0.0,-0.0,-1.0,0.2113803953919593,1.0
21.11588478088379,-36.600067138671875,1.7491930723190308,-0.0,-0.0,-1.0,0.1405321622908089,1.0
21.32387924194336,-37.10454559326172,1.7088245153427124,-0.0,-0.0,-1.0,0.1372664516970271,2.0
19.927467346191406,-37.67389678955078,2.1472413539886475,-0.0,-0.0,-1.0,0.1586592060064056,1.0
20.09847640991211,-37.977569580078125,2.1310460567474365,-0.0,-0.0,-1.0,0.1378436028847022,1.0
20.513837814331055,-36.5512809753418,2.2298145294189453,-0.0,-0.0,-1.0,0.2141062352456436,1.0
20.20447540283203,-36.82215881347656,2.2065865993499756,-0.0091139901384603,0.8056694334090361,-0.5922952804590957,0.1830640899279462,4.0
21.109800338745117,-36.897979736328125,2.218710422515869,-0.0,-0.0,-1.0,0.2131557643853566,2.0
20.55302047729492,-36.83943939208984,2.212264060974121,-0.0,-0.0,-1.0,0.2719290200845189,1.0
20.14715576171875,-36.89886474609375,2.2006025314331055,-0.0,-0.0,-1.0,0.1375514659681104,2.0
19.789289474487305,-37.06452941894531,2.1829495429992676,-0.0,-0.0,-1.0,0.1058096127154294,1.0
20.194515228271484,-37.280906677246094,2.177342176437378,-0.0,-0.0,-1.0,0.1974473849149019,1.0
20.11480140686035,-37.18035125732422,2.7051432132720947,-0.0,-0.0,-1.0,0.1109550484939678,1.0
20.069656372070312,-36.83018112182617,1.7515031099319458,-0.0,-0.0,-1.0,0.0942693603656945,1.0
20.014490127563477,-36.3760986328125,1.7914440631866455,-0.0,-0.0,-1.0,0.1755353820434156,1.0
21.09147071838379,-36.50464630126953,1.8205206394195557,-0.0,-0.0,-1.0,0.1945247841375132,2.0
20.29709815979004,-36.56727981567383,1.784990906715393,-0.0,-0.0,-1.0,0.0968615569645408,1.0
20.15047836303711,-36.491641998291016,1.7862519025802612,-0.0,-0.0,-1.0,0.0853822439817336,1.0
21.20932388305664,-36.63253402709961,1.8123291730880735,-0.0,-0.0,-1.0,0.1490360320625208,1.0
21.036935806274418,-36.82805633544922,1.7874213457107544,-0.0,-0.0,-1.0,0.1478540873608551,1.0
21.22064781188965,-37.28761291503906,1.7492523193359375,-0.0,-0.0,-1.0,0.0987216541951992,2.0
21.596620559692383,-37.41641998291016,1.748457431793213,-0.3095701224135139,0.8528219245800129,-0.4205485753923377,0.0708572777077976,4.0
20.421567916870117,-36.640323638916016,2.2541308403015137,-0.0,-0.0,-1.0,0.1487586984079727,1.0
20.21411895751953,-36.789794921875,2.2404398918151855,-0.5023833290055739,0.740262461046776,-0.4467913153836447,0.1266250692041878,4.0
20.953819274902344,-36.841400146484375,2.250943422317505,-0.0,-0.0,-1.0,0.1161380507915334,2.0
20.492645263671875,-36.97441101074219,2.233924865722656,-0.0,-0.0,-1.0,0.2005261850677379,1.0
20.19287109375,-37.032989501953125,2.224393844604492,-0.0,-0.0,-1.0,0.2656270046065341,1.0
19.70977783203125,-37.14854049682617,2.2073144912719727,-0.0,-0.0,-1.0,0.1237862358082081,1.0
20.12158966064453,-37.878997802734375,2.1683101654052734,-0.0,-0.0,-1.0,0.1364271577263326,1.0
20.08376121520996,-38.14611053466797,2.150217056274414,-0.0,-0.0,-1.0,0.0857801685658597,1.0
20.027339935302734,-37.27110290527344,2.700939416885376,-0.0,-0.0,-1.0,0.2090055953946045,1.0
21.217758178710938,-36.59866714477539,1.7546288967132568,-0.0,-0.0,-1.0,0.1939254076117849,1.0
20.22555351257324,-36.53494644165039,1.725277543067932,-0.0,-0.0,-1.0,0.1055892120051336,1.0
21.312755584716797,-36.796382904052734,1.73622727394104,-0.0,-0.0,-1.0,0.2158508074780383,1.0
21.45741844177246,-37.10530471801758,1.7069376707077026,-0.0,-0.0,-1.0,0.0956850631526777,1.0
21.3341121673584,-37.11165618896485,1.702379822731018,-0.0,-0.0,-1.0,0.1158032963897239,2.0
20.098466873168945,-36.49845886230469,2.1683571338653564,-0.0,-0.0,-1.0,0.114360438632186,2.0
20.652442932128903,-36.71989440917969,2.1632277965545654,-0.0,-0.0,-1.0,0.1701405952906187,2.0
20.250913619995117,-36.896629333496094,2.141636848449707,-0.0,-0.0,-1.0,0.2035018584304182,1.0
19.94089126586914,-36.81867980957031,2.140852928161621,-0.0,-0.0,-1.0,0.1925425499132574,1.0
20.79125213623047,-36.94845199584961,2.1484463214874268,-0.0,-0.0,-1.0,0.1731503112460915,1.0
19.868501663208008,-37.10821914672851,2.1175496578216553,-0.0,-0.0,-1.0,0.1938622499158799,2.0
20.055330276489254,-37.53044891357422,2.089576244354248,-0.0,-0.0,-1.0,0.2281893290796829,1.0
19.75583839416504,-37.62818145751953,2.075972318649292,-0.0,-0.0,-1.0,0.1349778426095096,1.0
20.1650390625,-38.035037994384766,2.0532891750335693,-0.0,-0.0,-1.0,0.0685306874020621,1.0
20.65183448791504,-36.80340194702149,2.598574161529541,-0.0,-0.0,-1.0,0.1600020605664268,1.0
20.242755889892575,-36.83052444458008,2.595914363861084,-0.0,-0.0,-1.0,0.1157152941834194,2.0
20.100933074951172,-36.8541259765625,2.594313144683838,-0.0,-0.0,-1.0,0.1357430487990835,1.0
19.95392417907715,-37.24501419067383,2.576146125793457,-0.0,-0.0,-1.0,0.1632088087615587,1.0
19.9280948638916,-37.59843063354492,3.0370607376098633,-0.0,-0.0,-1.0,0.172964785678237,1.0
20.30611228942871,-36.36750030517578,1.756840467453003,-0.0,-0.0,-1.0,0.1220893284536142,1.0
21.258956909179688,-36.38672637939453,1.7272030115127563,-0.0,-0.0,-1.0,0.2075105487838278,1.0
20.285364151000977,-36.5300178527832,1.7342593669891355,-0.0,-0.0,-1.0,0.0696554938569398,1.0
21.518146514892575,-36.67192459106445,1.6756092309951782,-0.0,-0.0,-1.0,0.1688928041206517,1.0
20.51052474975586,-38.30427551269531,1.9376046657562256,-0.0,-0.0,-1.0,0.0669388434964296,1.0
20.175857543945312,-38.32652282714844,1.9505510330200195,-0.0,-0.0,-1.0,0.1468297537683981,1.0
20.09912109375,-36.51596450805664,2.155327796936035,-0.0,-0.0,-1.0,0.1143604386321859,2.0
21.234375,-36.62466812133789,2.095430850982666,-0.0,-0.0,-1.0,0.2356465438725291,1.0
20.529172897338867,-36.72882080078125,2.1149327754974365,-0.0,-0.0,-1.0,0.2336746396504923,1.0
20.085866928100582,-36.92902755737305,2.1104345321655273,-0.0,-0.0,-1.0,0.194434867413392,1.0
21.34637451171875,-36.996131896972656,2.0474016666412354,-0.0,-0.0,-1.0,0.1819249786013703,1.0
21.0323429107666,-36.877342224121094,2.076056957244873,-0.0,-0.0,-1.0,0.087549716392809,2.0
20.647716522216797,-37.044151306152344,2.0745368003845215,-0.0,-0.0,-1.0,0.1516700644856191,1.0
20.14459228515625,-37.1708984375,2.0813980102539062,-0.0,-0.0,-1.0,0.1609851714241098,1.0
19.871017456054688,-37.14535903930664,2.094813823699951,-0.0,-0.0,-1.0,0.178050533631406,2.0
19.884021759033203,-37.60980987548828,2.0430901050567627,-0.0,-0.0,-1.0,0.1514592150528,2.0
21.61763572692871,-38.06326675415039,1.9089703559875488,-0.0,-0.0,-1.0,0.0118693701068977,2.0
21.27206039428711,-38.237586975097656,1.9073896408081057,0.3626798777105097,-0.54830352065503,-0.7535426700202109,0.0534399862228627,3.0
21.094398498535156,-38.22228240966797,1.9185084104537964,-0.0,-0.0,-1.0,0.0514782812103036,2.0
20.16653060913086,-36.909873962402344,2.533442974090576,0.0965324707290312,-0.9841006464172526,-0.1490885636663469,0.1150364739857546,3.0
20.527013778686523,-36.92351531982422,2.5124623775482178,-0.0,-0.0,-1.0,0.0830178937597379,1.0
20.172483444213867,-37.39166259765625,2.4950194358825684,-0.0,-0.0,-1.0,0.2014973008988285,1.0
19.83189392089844,-37.33543014526367,2.5179576873779297,-0.0,-0.0,-1.0,0.1465041218870546,1.0
20.040367126464844,-37.46208572387695,2.496732711791992,-0.0,-0.0,-1.0,0.205453169726023,1.0
19.885149002075195,-37.89686965942383,2.470841646194458,-0.0,-0.0,-1.0,0.2121787483561348,1.0
19.933046340942383,-36.36540985107422,1.792861819267273,-0.0,-0.0,-1.0,0.1884631345993968,2.0
21.178756713867188,-36.57184982299805,1.7864110469818115,-0.0,-0.0,-1.0,0.2009555554994826,1.0
21.06133460998535,-36.504268646240234,1.7937194108963013,0.3779366015825742,0.8284659216822046,-0.4132894165055153,0.2093273461270733,3.0
20.584157943725582,-36.42225646972656,1.797824501991272,-0.0,-0.0,-1.0,0.2046964029330301,1.0
20.215641021728516,-36.494590759277344,1.782500982284546,-0.0,-0.0,-1.0,0.077860538042947,1.0
19.755970001220703,-36.47200393676758,1.7758820056915283,-0.0,-0.0,-1.0,0.0927423213646869,1.0
21.2453556060791,-36.73250579833984,1.7663689851760864,-0.0,-0.0,-1.0,0.2042386446942665,1.0
21.17150115966797,-36.81095886230469,1.7556567192077637,-0.0,-0.0,-1.0,0.1945478175415974,1.0
20.582313537597656,-36.65582275390625,2.17309045791626,-0.0,-0.0,-1.0,0.197998926914744,1.0
20.38519859313965,-36.74541473388672,2.164522171020508,-0.0,-0.0,-1.0,0.1612683444589699,1.0
20.99743270874023,-36.892337799072266,2.150402069091797,-0.0,-0.0,-1.0,0.2365039208627059,2.0
20.651308059692383,-36.89606475830078,2.1505918502807617,-0.0,-0.0,-1.0,0.2349398257328074,2.0
20.17251205444336,-36.919921875,2.14778208732605,-0.0,-0.0,-1.0,0.176733923947402,1.0
19.7281551361084,-37.0001335144043,2.1387290954589844,-0.0,-0.0,-1.0,0.0949220828789899,1.0
19.801982879638672,-37.3052978515625,2.110966444015503,-0.0,-0.0,-1.0,0.1180355375188424,1.0
20.13341522216797,-37.84295654296875,2.0616097450256348,-0.0,-0.0,-1.0,0.1580175228874799,2.0
19.89415168762207,-37.61223220825195,2.082900285720825,-0.0,-0.0,-1.0,0.1527884103010677,2.0
20.333581924438477,-38.053855895996094,2.0416922569274902,-0.0,-0.0,-1.0,0.0608470496539069,1.0
20.868858337402344,-36.88640213012695,2.5570738315582275,-0.0,-0.0,-1.0,0.0824971713660401,1.0
20.552780151367188,-36.8552131652832,2.5634584426879883,-0.0,-0.0,-1.0,0.0951711110296856,2.0
20.13901138305664,-36.91734313964844,2.564927101135254,0.0965324707290312,-0.9841006464172526,-0.1490885636663469,0.1263350030658564,3.0
19.828840255737305,-37.40633392333984,2.538856267929077,-0.0,-0.0,-1.0,0.1953183536571927,1.0
20.049055099487305,-37.7369270324707,2.5159902572631836,-0.0,-0.0,-1.0,0.1700063298578554,1.0
19.890411376953125,-37.976783752441406,2.5033485889434814,-0.0,-0.0,-1.0,0.257586070368054,2.0
20.013654708862305,-37.5134162902832,2.966379404067993,-0.0,-0.0,-1.0,0.2057202435930356,1.0
21.2188777923584,-37.004207611083984,2.0651895999908447,-0.0,-0.0,-1.0,0.1901100474694756,2.0
20.862455368041992,-37.083396911621094,2.047060012817383,-0.0,-0.0,-1.0,0.2163721066247892,1.0
21.290435791015625,-37.027801513671875,2.4758429527282715,-0.0,-0.0,-1.0,0.1937188352516764,1.0
20.787050247192383,-36.543914794921875,2.488522529602051,-0.0,-0.0,-1.0,0.2315250462984286,1.0
20.459976196289062,-37.02186584472656,2.4558191299438477,-0.0,-0.0,-1.0,0.1446551980691485,1.0
20.37342643737793,-37.4320182800293,2.4327821731567383,-0.0,-0.0,-1.0,0.223257985727397,1.0
20.22918128967285,-36.94622421264648,1.9271190166473389,-0.0,-0.0,-1.0,0.1129343367989795,1.0
20.10087203979492,-36.73918151855469,1.9399728775024416,-0.0,-0.0,-1.0,0.166924368738666,1.0
19.84268569946289,-36.96291732788086,1.9080227613449097,-0.0,-0.0,-1.0,0.1687761247302525,1.0
20.209152221679688,-36.93260192871094,2.3544700145721436,-0.0,-0.0,-1.0,0.2485971209671235,2.0
19.80440902709961,-37.259124755859375,2.321756362915039,-0.0,-0.0,-1.0,0.120835618953509,2.0
19.873876571655273,-37.822509765625,2.292760848999023,-0.0,-0.0,-1.0,0.1721987479943904,1.0
19.9467716217041,-37.557960510253906,2.3101744651794434,-0.0,-0.0,-1.0,0.188359513454742,1.0
19.829574584960938,-38.153106689453125,2.2726986408233643,-0.0,-0.0,-1.0,0.155179477954555,1.0
19.90736961364746,-36.617393493652344,1.876622438430786,-0.0,-0.0,-1.0,0.113872446066342,1.0
19.76240921020508,-36.698936462402344,1.8594311475753784,-0.0,-0.0,-1.0,0.2256789556490419,1.0
20.76722526550293,-36.47190475463867,1.7715258598327637,-0.0,-0.0,-1.0,0.0923273924844683,1.0
21.564910888671875,-37.41499710083008,1.75718355178833,-0.2495613990944332,0.2207254432030232,-0.9428676401302876,0.0705466735395307,3.0
21.667724609375,-38.02739715576172,1.9367897510528564,-0.0,-0.0,-1.0,0.0117080775770927,1.0
21.52906608581543,-38.17741394042969,1.9379847049713137,-0.0,-0.0,-1.0,0.0122758518675174,1.0
20.989154815673828,-36.84968948364258,1.994182825088501,-0.0,-0.0,-1.0,0.08135254137175,1.0
20.288734436035156,-37.34800338745117,1.96785831451416,-0.0,-0.0,-1.0,0.2027790781627508,1.0
19.789533615112305,-37.03650665283203,2.017531394958496,-0.0,-0.0,-1.0,0.1723336864065681,1.0
19.874605178833008,-36.76312255859375,2.037067413330078,-0.0,-0.0,-1.0,0.1897815468409724,2.0
20.23845672607422,-36.69034957885742,2.0266051292419434,-0.0,-0.0,-1.0,0.1533352131696216,1.0
20.514047622680664,-36.79500579833984,1.8538012504577637,-0.0,-0.0,-1.0,0.1540719823087763,2.0
20.855627059936523,-36.67152404785156,1.862734317779541,-0.0,-0.0,-1.0,0.1339692112557213,1.0
19.758739471435547,-36.86644744873047,1.985145092010498,-0.0,-0.0,-1.0,0.1667539698419414,2.0
19.8815975189209,-36.725860595703125,2.0074143409729004,0.7238080481822321,-0.5076891761236022,-0.467283222289829,0.177120559555772,3.0
20.096529006958008,-36.90550231933594,1.9901633262634275,-0.0,-0.0,-1.0,0.1875762587756081,2.0
19.883377075195312,-36.72698593139648,1.8457889556884768,-0.0,-0.0,-1.0,0.2056610578142284,2.0
20.188217163085938,-36.713077545166016,1.8514299392700195,-0.8507779787075403,0.5255220029662215,0.0018588557454822,0.1832356171456678,3.0
20.909698486328125,-38.24039459228515,1.8743553161621096,-0.0,-0.0,-1.0,0.0644724948113269,1.0
