x,y,z,nx,ny,nz,curvature,density,label
14.323896408081056,9.10837173461914,-0.6566104888916016,-0.0,-0.0,-1.0,0.0068790985111275,1.0,0.0
12.722768783569336,8.536020278930664,-0.5725116729736328,-0.0,-0.0,-1.0,0.0087349268636156,2.0,0.0
14.331672668457031,8.557621002197266,-0.5990183353424072,-0.0,-0.0,-1.0,0.1223194153309617,2.0,0.0
14.076553344726562,8.32857894897461,-0.6147160530090332,0.4033712914974979,-0.4673421783571882,-0.786691101719092,0.0607396178264006,5.0,0.0
14.02664566040039,8.137903213500977,-0.5834202766418457,-0.0,-0.0,-1.0,0.0390593120596966,1.0,0.0
14.360366821289062,8.447805404663086,-0.5655612945556641,0.5169499978668329,0.6952957254983491,-0.4993260996675474,0.1029170488209955,5.0,0.0
13.506803512573242,8.539318084716797,-0.4863650798797607,-0.0,-0.0,-1.0,0.1019135143134956,1.0,0.0
14.652953147888184,8.412317276000977,-0.5488309860229492,-0.0,-0.0,-1.0,0.0612816323454727,1.0,0.0
13.958090782165527,8.18817138671875,-0.5946977138519287,-0.0,-0.0,-1.0,0.0450716915978524,1.0,0.0
14.377424240112305,8.534292221069336,-0.5564932823181152,-0.3382348661234839,0.0269125608923086,-0.9406768251661388,0.1319844273974667,4.0,0.0
13.44172191619873,10.293253898620604,-0.605755090713501,-0.0,-0.0,-1.0,0.0444026947062659,1.0,0.0
14.385398864746094,8.527278900146484,-0.5560438632965088,0.0362618401116698,-0.5664288738877834,-0.8233124618138203,0.1411330517418783,5.0,0.0
13.605485916137695,8.546796798706055,-0.5427002906799316,0.2403075186654928,-0.9703348424886532,-0.0265064129099859,0.1449654779115796,5.0,0.0
14.371649742126465,8.457069396972656,-0.5346145629882812,0.7281025071328184,0.3036644081079266,-0.6145361391776456,0.1141507015829171,5.0,0.0
13.300345420837402,8.779425621032715,-0.3682503700256347,-0.0,-0.0,-1.0,0.0971237162427287,1.0,0.0
14.560997009277344,9.389716148376465,-0.5953335762023926,-0.0,-0.0,-1.0,0.0640759285540627,2.0,0.0
13.29537868499756,8.516151428222656,-0.5113248825073242,-0.0,-0.0,-1.0,0.0647558230506398,1.0,0.0
14.564699172973633,9.430932998657228,-0.477151870727539,-0.0,-0.0,-1.0,0.0777914684819601,1.0,0.0
14.615968704223633,10.30367946624756,-0.5460271835327148,-0.0,-0.0,-1.0,0.1076318210877438,1.0,0.0
14.32585906982422,8.13941764831543,-0.3297514915466308,-0.0,-0.0,-1.0,0.1970450647132977,1.0,0.0
14.621583938598633,10.352174758911133,-0.6698856353759766,-0.0,-0.0,-1.0,0.1216422424432615,1.0,0.0
13.365097045898438,8.8360595703125,-0.391301155090332,-0.0,-0.0,-1.0,0.0975091808485538,1.0,0.0
14.330958366394045,8.84096908569336,-0.6492805480957031,-0.0,-0.0,-1.0,0.0196653388444131,2.0,0.0
13.422829627990724,9.964239120483398,-0.6550302505493164,-0.0,-0.0,-1.0,0.0282910710149833,2.0,0.0
13.126531600952148,8.166776657104492,-0.5204081535339355,0.1685925717182902,0.98547911844457,0.0201854371051567,0.0799536392618756,5.0,0.0
14.123729705810549,10.24717903137207,-0.665346622467041,-0.0,-0.0,-1.0,0.030510278333657,1.0,0.0
14.211612701416016,9.862100601196287,-0.6696305274963379,-0.0,-0.0,-1.0,0.0095332143533316,1.0,0.0
13.233270645141602,8.80908203125,-0.5145740509033203,-0.0,-0.0,-1.0,0.2364544071720464,1.0,0.0
15.032227516174316,10.120525360107422,-0.8063054084777832,-0.0,-0.0,-1.0,0.0267178170565518,1.0,0.0
14.879557609558104,10.06928539276123,-0.7941789627075195,-0.0,-0.0,-1.0,0.0476132332080754,2.0,0.0
14.96693229675293,10.013148307800291,-0.8012778759002686,-0.0,-0.0,-1.0,0.0333143033515969,1.0,0.0
14.738733291625977,10.124727249145508,-0.7797799110412598,-0.0,-0.0,-1.0,0.0637156215835736,1.0,0.0
14.408421516418455,8.274605751037598,-0.579110860824585,-0.0,-0.0,-1.0,0.073218023584768,2.0,0.0
13.321913719177246,8.88193416595459,-0.4759185314178467,-0.0,-0.0,-1.0,0.1659415201360996,2.0,0.0
13.434816360473633,8.753517150878906,-0.4805715084075928,-0.0,-0.0,-1.0,0.1625686232426621,2.0,0.0
15.188034057617188,8.705911636352539,-0.7244839668273926,-0.0,-0.0,-1.0,0.1046963475201212,1.0,0.0
14.726490020751951,9.207209587097168,-0.6992411613464355,-0.0,-0.0,-1.0,0.0350197112120353,1.0,0.0
15.167462348937988,9.085341453552246,-0.751591682434082,-0.0,-0.0,-1.0,0.0265811304157356,1.0,0.0
14.477344512939451,10.396539688110352,-0.7688286304473877,0.1902614160657348,-0.8436274624441092,-0.502088934519348,0.0483575040203018,3.0,0.0
14.613717079162598,10.227289199829102,-0.7719149589538574,-0.0,-0.0,-1.0,0.0505709820694193,1.0,0.0
14.390643119812012,10.52760410308838,-0.7692327499389648,-0.0,-0.0,-1.0,0.053292382742559,2.0,0.0
13.175944328308104,8.286189079284668,-0.601876974105835,-0.0,-0.0,-1.0,0.0895743616998692,1.0,0.0
13.578533172607422,8.175512313842773,-0.6731293201446533,-0.0,-0.0,-1.0,0.0548713835138434,1.0,0.0
13.142239570617676,8.49167537689209,-0.6199808120727539,-0.0,-0.0,-1.0,0.0789540961265474,2.0,0.0
13.125249862670898,9.007841110229492,-0.6813926696777344,-0.0,-0.0,-1.0,0.0370012735666077,2.0,0.0
12.9007568359375,9.4296236038208,-0.6907877922058105,-0.0,-0.0,-1.0,0.0249989356166511,1.0,0.0
13.0595121383667,9.265969276428224,-0.701279878616333,-0.0,-0.0,-1.0,0.0284927409798826,1.0,0.0
12.79714584350586,9.73701000213623,-0.7112939357757568,-0.0,-0.0,-1.0,0.0252704386530379,1.0,0.0
13.610615730285645,8.291177749633789,-0.653630256652832,-0.0,-0.0,-1.0,0.0458445238165896,1.0,0.0
13.193889617919922,8.573311805725098,-0.5808472633361816,-0.0,-0.0,-1.0,0.0617852400993212,1.0,0.0
13.439555168151855,8.377571105957031,-0.6194953918457031,-0.0,-0.0,-1.0,0.0517182610436833,2.0,0.0
13.215960502624512,8.896053314208984,-0.6312141418457031,-0.0,-0.0,-1.0,0.1563622818148052,2.0,0.0
13.26744556427002,8.98483943939209,-0.6570444107055664,-0.0,-0.0,-1.0,0.0841292536833727,2.0,0.0
13.099205017089844,9.375636100769045,-0.6688089370727539,-0.0,-0.0,-1.0,0.0328238361414795,1.0,0.0
13.243783950805664,9.173598289489746,-0.6774201393127441,-0.0,-0.0,-1.0,0.0606661588412487,1.0,0.0
12.766164779663086,9.887076377868652,-0.6586093902587891,-0.0,-0.0,-1.0,0.0216107313575281,1.0,0.0
12.97433376312256,9.734816551208496,-0.6890583038330078,-0.0,-0.0,-1.0,0.0242685399056491,1.0,0.0
14.118402481079102,8.453655242919922,-0.62227463722229,-0.0,-0.0,-1.0,0.068639316715179,1.0,0.0
13.683469772338867,8.978229522705078,-0.6046755313873291,-0.0,-0.0,-1.0,0.0271293368602274,1.0,0.0
13.56977653503418,9.277543067932127,-0.6315643787384033,-0.0,-0.0,-1.0,0.0325680636429949,1.0,0.0
13.270723342895508,9.667500495910645,-0.6326773166656494,-0.0,-0.0,-1.0,0.0286636840851648,2.0,0.0
12.847504615783691,10.03930377960205,-0.6052720546722412,0.23782675571093,0.263300086159853,-0.9349393022524124,0.0197987886570378,4.0,0.0
13.093379974365234,9.892677307128906,-0.6339375972747803,-0.0,-0.0,-1.0,0.0285968650708538,1.0,0.0
13.7045259475708,8.594887733459473,-0.5412662029266357,-0.0,-0.0,-1.0,0.1595213151868247,2.0,0.0
13.644241333007812,8.741874694824219,-0.5521509647369385,-0.0,-0.0,-1.0,0.0823883852517171,1.0,0.0
12.849714279174805,9.954113006591797,-0.5885336399078369,-0.0,-0.0,-1.0,0.0234723111566006,1.0,0.0
14.593989372253418,10.14023780822754,-0.7817144393920898,-0.0,-0.0,-1.0,0.0500022875782185,1.0,0.0
14.742573738098145,9.99808120727539,-0.7902736663818359,-0.0,-0.0,-1.0,0.0782630434170751,2.0,0.0
14.359112739562988,10.380839347839355,-0.773735523223877,-0.0,-0.0,-1.0,0.05618760183167,1.0,0.0
14.92870044708252,9.676752090454102,-0.7705631256103516,-0.0,-0.0,-1.0,0.0196489739930647,1.0,0.0
15.103047370910645,9.490753173828123,-0.7789616584777832,-0.0,-0.0,-1.0,0.0141199394953085,1.0,0.0
14.548828125,10.169266700744627,-0.7760829925537109,-0.0,-0.0,-1.0,0.043880628645399,1.0,0.0
14.859415054321287,9.821537971496582,-0.783085823059082,-0.0,-0.0,-1.0,0.0219224140307292,1.0,0.0
12.802916526794434,10.582293510437012,-0.4208612442016601,-0.0,-0.0,-1.0,0.0796000967758204,1.0,0.0
14.132423400878906,10.51797103881836,-0.7454700469970703,-0.0,-0.0,-1.0,0.0377347721166657,2.0,0.0
14.396912574768066,10.31944751739502,-0.7696542739868164,-0.0,-0.0,-1.0,0.0453927763237256,1.0,0.0
15.13426113128662,8.327339172363281,-0.6058869361877441,-0.0,-0.0,-1.0,0.0108893124426468,1.0,0.0
14.43760871887207,8.376689910888672,-0.5504565238952637,0.3706394757479009,-0.4880028996281376,-0.7902401843565353,0.090051089820042,3.0,0.0
14.7902250289917,8.386137008666992,-0.5745377540588379,-0.0,-0.0,-1.0,0.0282188411041824,2.0,0.0
14.079442977905272,8.160911560058594,-0.5484187602996826,0.9099367140597086,0.0045371767897015,0.4147223052031315,0.0424500021419749,3.0,0.0
14.380379676818848,8.45964241027832,-0.5375432968139648,0.3806655799570747,0.1036548222660223,-0.9188848644182486,0.1141507015829171,6.0,0.0
13.69968605041504,8.628639221191406,-0.4727678298950195,-0.0,-0.0,-1.0,0.1497670545618525,1.0,0.0
14.750765800476074,9.422916412353516,-0.675900936126709,-0.0,-0.0,-1.0,0.0129656179871671,2.0,0.0
14.980684280395508,9.358110427856444,-0.6944293975830078,-0.0,-0.0,-1.0,0.012336497513421,1.0,0.0
13.688875198364258,9.381420135498049,-0.6346819400787354,0.2488665178369802,-0.8167642182182518,0.5205397853555713,0.025500842897331,3.0,0.0
13.30582046508789,9.38677215576172,-0.6187479496002197,-0.0,-0.0,-1.0,0.0243052741635393,1.0,0.0
13.51747989654541,9.384613037109377,-0.6273477077484131,0.7372976869958316,-0.0810818820758655,-0.6706846122803414,0.0380309702649346,5.0,0.0
13.031898498535156,9.56692123413086,-0.5862815380096436,-0.0,-0.0,-1.0,0.0236022055566032,1.0,0.0
14.724711418151855,10.419904708862305,-0.7135047912597656,-0.0,-0.0,-1.0,0.0725027178492204,2.0,0.0
14.995317459106444,10.517097473144531,-0.7150213718414307,-0.0,-0.0,-1.0,0.0169350366153194,1.0,0.0
13.418960571289062,9.41217803955078,-0.6435928344726562,-0.0,-0.0,-1.0,0.0220611995837634,2.0,0.0
13.674615859985352,9.362743377685549,-0.6571698188781738,0.2488665178369802,-0.8167642182182518,0.5205397853555713,0.0235679823258273,3.0,0.0
13.96967601776123,9.334396362304688,-0.6696298122406006,-0.0,-0.0,-1.0,0.0064570810054646,1.0,0.0
14.93415355682373,9.43526840209961,-0.6894872188568115,-0.0,-0.0,-1.0,0.0180458923674913,1.0,0.0
13.605523109436035,9.781187057495115,-0.6445882320404053,-0.0,-0.0,-1.0,0.0413890773101689,2.0,0.0
13.227982521057127,10.211023330688477,-0.5746753215789795,-0.7418530293653701,0.6560236282228717,-0.1388779393378314,0.0259471443771082,3.0,0.0
13.383588790893556,10.200546264648438,-0.5818424224853516,-0.0,-0.0,-1.0,0.0390505630131912,2.0,0.0
13.71534824371338,9.93543815612793,-0.6289956569671631,-0.0,-0.0,-1.0,0.0237015034436302,1.0,0.0
14.824813842773438,9.806852340698242,-0.6940560340881348,-0.0,-0.0,-1.0,0.0249336995554203,1.0,0.0
15.112627029418944,9.81513786315918,-0.7069499492645264,-0.0,-0.0,-1.0,0.0201870177375916,1.0,0.0
13.280749320983888,10.352249145507812,-0.64617919921875,0.5982014545928144,-0.1551277381968449,-0.7861872579512924,0.0612788129928268,4.0,0.0
14.7686128616333,10.18855094909668,-0.7049052715301514,-0.0,-0.0,-1.0,0.0463099442484633,2.0,0.0
15.06549072265625,9.991703033447266,-0.7406046390533447,-0.0,-0.0,-1.0,0.0264172614914367,1.0,0.0
13.115447998046877,8.265439987182617,-0.4880547523498535,-0.0,-0.0,-1.0,0.0869086344863683,1.0,0.0
13.478157997131348,8.755285263061523,-0.441596508026123,-0.8207100942599856,-0.5129292892952597,-0.2516713836788474,0.1349120014116835,3.0,0.0
14.387491226196287,8.293476104736328,-0.5295157432556152,0.4945867056445613,-0.5108321046502515,0.703160402367948,0.0718674523230173,4.0,0.0
13.15554141998291,8.751375198364258,-0.5169310569763184,-0.0,-0.0,-1.0,0.16838300655557,1.0,0.0
13.317588806152344,8.635244369506836,-0.5415184497833252,-0.0,-0.0,-1.0,0.1502159472497588,1.0,0.0
13.557461738586426,8.803916931152344,-0.5342638492584229,-0.0,-0.0,-1.0,0.1775620591453806,1.0,0.0
13.879232406616213,8.801328659057617,-0.5544853210449219,-0.0,-0.0,-1.0,0.0492098260628631,2.0,0.0
14.522560119628906,8.818267822265625,-0.5937585830688477,-0.0,-0.0,-1.0,0.0368239252509119,1.0,0.0
14.752473831176758,8.970525741577148,-0.5895400047302246,-0.0,-0.0,-1.0,0.042009043912033,1.0,0.0
15.15676498413086,8.947021484375,-0.6202757358551025,-0.0,-0.0,-1.0,0.0277199508474137,2.0,0.0
13.2683744430542,9.303272247314451,-0.6127698421478271,-0.0,-0.0,-1.0,0.050510144768988,2.0,0.0
13.64383316040039,9.314712524414062,-0.635772705078125,-0.0,-0.0,-1.0,0.0283469970557438,1.0,0.0
14.595474243164062,9.537527084350586,-0.6718313694000244,-0.0,-0.0,-1.0,0.0425425916769435,1.0,0.0
14.85418701171875,9.546546936035156,-0.6900386810302734,-0.3986689399686382,-0.0314220417227177,-0.9165564530339954,0.016723406082198,5.0,0.0
13.001009941101074,10.536174774169922,-0.5336055755615234,-0.0,-0.0,-1.0,0.1734160871305653,2.0,0.0
13.260822296142578,10.24461555480957,-0.591416597366333,-0.2819838399237366,-0.4749137094105302,-0.8336318627762466,0.0313840552676268,4.0,0.0
14.594135284423828,10.233781814575195,-0.6692078113555908,-0.0,-0.0,-1.0,0.0931116671756629,2.0,0.0
14.886245727539062,10.147159576416016,-0.7011172771453857,-0.0,-0.0,-1.0,0.0657133328371487,1.0,0.0
15.153076171875,10.057085037231444,-0.7324299812316895,-0.0,-0.0,-1.0,0.0246557678460915,1.0,0.0
12.879039764404297,8.142736434936523,-0.5557818412780762,-0.0,-0.0,-1.0,0.0364516494269036,1.0,0.0
13.204833030700684,8.262651443481445,-0.557213306427002,-0.3108239625779393,0.5667317931410399,-0.7630226333015877,0.110538318875646,3.0,0.0
13.6473388671875,8.46673583984375,-0.5545029640197754,-0.737539208638991,-0.159518739575053,-0.6561933308443157,0.0500409627608268,3.0,0.0
13.852140426635742,8.23149299621582,-0.6012969017028809,-0.2519367038583308,-0.881514486229882,-0.3993245645034465,0.0376460230718335,3.0,0.0
14.213022232055664,8.392402648925781,-0.6015105247497559,0.837797911680783,-0.4938961861467028,-0.2327256249171125,0.0626857585611773,5.0,0.0
14.068920135498049,8.303651809692383,-0.6048679351806641,-0.0328863350837336,-0.721246830933498,-0.6918970283453647,0.072433600261887,4.0,0.0
14.430553436279297,8.474233627319336,-0.6043257713317871,0.2446235405767868,-0.1740350973548289,-0.9538716414090378,0.1168237328582825,5.0,0.0
14.606950759887695,8.433111190795898,-0.6223876476287842,-0.0,-0.0,-1.0,0.0786965440444503,2.0,0.0
14.892813682556152,8.429306030273438,-0.6431620121002197,0.413335921476431,-0.3493046965040662,-0.8409159559774283,0.0180059733913752,6.0,0.0
13.198529243469238,10.453052520751951,-0.6139585971832275,-0.0,-0.0,-1.0,0.1643538272586369,1.0,0.0
13.259122848510742,10.443506240844728,-0.6185617446899414,-0.0,-0.0,-1.0,0.1245497040871923,1.0,0.0
14.725308418273926,10.605087280273438,-0.6729586124420166,-0.0,-0.0,-1.0,0.0640386001806482,1.0,0.0
14.814194679260254,10.46591567993164,-0.703484296798706,-0.0,-0.0,-1.0,0.0616431251501358,1.0,0.0
15.086883544921877,10.474132537841797,-0.7204864025115967,-0.0,-0.0,-1.0,0.0174701481111745,1.0,0.0
13.174317359924316,8.820846557617188,-0.4420278072357178,-0.0,-0.0,-1.0,0.1983859281505353,1.0,0.0
13.591814994812012,8.544301986694336,-0.5045428276062012,0.2492647255770853,-0.9603089879276272,-0.1251948253259545,0.1334988529415465,5.0,0.0
13.74850082397461,8.140628814697266,-0.5764896869659424,-0.0,-0.0,-1.0,0.0295187975968009,1.0,0.0
14.082389831542969,8.250743865966797,-0.5750603675842285,-0.0,-0.0,-1.0,0.0857317363380225,2.0,0.0
14.503541946411133,8.366151809692383,-0.5783793926239014,0.3803670082356662,-0.7044599052360644,0.5992138023782864,0.0458476504294987,3.0,0.0
14.798749923706056,8.264968872070312,-0.6107590198516846,-0.0,-0.0,-1.0,0.0234054505818633,1.0,0.0
14.994026184082031,8.223819732666016,-0.6285409927368164,-0.0,-0.0,-1.0,0.0202130483986551,2.0,0.0
12.948010444641112,9.351905822753906,-0.6044254302978516,-0.0,-0.0,-1.0,0.031931885639492,2.0,0.0
13.214606285095217,9.394502639770508,-0.6057999134063721,-0.0,-0.0,-1.0,0.0239105482223453,1.0,0.0
13.5173978805542,9.36894416809082,-0.6220173835754395,0.7372976869958316,-0.0810818820758655,-0.6706846122803414,0.0380309702649346,5.0,0.0
14.226188659667969,9.39043426513672,-0.6489911079406738,-0.0,-0.0,-1.0,0.0073883275547224,2.0,0.0
14.40546417236328,9.471305847167969,-0.6426119804382324,0.7484095170129491,0.5602610064323681,0.3549518270354929,0.0286631293462151,3.0,0.0
14.436531066894531,9.435131072998049,-0.6510171890258789,-0.0,-0.0,-1.0,0.0301595975646626,2.0,0.0
14.827181816101074,9.427030563354492,-0.6731421947479248,-0.0,-0.0,-1.0,0.0125754777094249,2.0,0.0
13.05628490447998,10.628647804260254,-0.4880297183990478,0.8180587149109436,-0.3880769205476291,-0.4244717219044452,0.1351871832691039,6.0,0.0
13.12742519378662,10.112163543701172,-0.593987226486206,-0.0,-0.0,-1.0,0.0213980476714104,1.0,0.0
13.339544296264648,10.139657974243164,-0.5911967754364014,-0.0,-0.0,-1.0,0.0165233844633025,1.0,0.0
13.465595245361328,9.819742202758787,-0.6587631702423096,-0.0,-0.0,-1.0,0.0384851391216571,2.0,0.0
14.403966903686523,9.776374816894531,-0.6910727024078369,-0.0,-0.0,-1.0,0.016489746707887,1.0,0.0
14.76425552368164,9.744391441345217,-0.7102799415588379,-0.6707673116079753,0.0320527973130478,-0.7409749198607317,0.0545114166944107,3.0,0.0
15.17893123626709,9.725714683532717,-0.7310540676116943,-0.0,-0.0,-1.0,0.0183397037680534,2.0,0.0
13.059843063354492,8.668950080871582,-0.5831172466278076,-0.0,-0.0,-1.0,0.0504352315686769,2.0,0.0
13.48748016357422,8.66429615020752,-0.5918357372283936,-0.0,-0.0,-1.0,0.2672048083133972,1.0,0.0
13.19455623626709,10.557613372802734,-0.6982264518737793,-0.0,-0.0,-1.0,0.1053192520730203,2.0,0.0
13.774311065673828,8.628945350646973,-0.6057188510894775,0.2452842600097146,-0.4614851896604123,-0.8525649837493793,0.1196610058752225,3.0,0.0
13.997821807861328,8.544790267944336,-0.6288907527923584,-0.0,-0.0,-1.0,0.0480525262604083,2.0,0.0
14.318779945373535,8.557401657104492,-0.6365885734558105,0.6454308321616913,-0.7322824725151901,-0.2172128480134338,0.087471717524941,3.0,0.0
14.74044132232666,8.56235122680664,-0.651278018951416,-0.0,-0.0,-1.0,0.0180534452408914,2.0,0.0
14.646843910217283,10.464393615722656,-0.7452259063720703,-0.0,-0.0,-1.0,0.0844978075188599,1.0,0.0
14.820072174072266,10.39134693145752,-0.7684860229492188,-0.0,-0.0,-1.0,0.0302239848087977,2.0,0.0
15.127705574035645,8.541291236877441,-0.6723589897155762,-0.0,-0.0,-1.0,0.0163998813788324,2.0,0.0
15.060280799865724,10.38483715057373,-0.7792165279388428,-0.0,-0.0,-1.0,0.0200348867637028,2.0,0.0
12.7301664352417,9.463698387145996,-0.6197681427001953,0.7082432962081016,-0.516047424246081,-0.481753556608842,0.0238931174395617,3.0,0.0
12.952296257019045,9.465642929077148,-0.616809606552124,-0.0,-0.0,-1.0,0.0274770138798178,2.0,0.0
13.266609191894531,9.457212448120115,-0.6164638996124268,-0.5187140830920045,-0.7799704103204141,-0.3501169219369811,0.0142603834961462,3.0,0.0
13.503211975097656,9.348191261291504,-0.6409347057342529,0.8672376636409197,-0.1644145944217833,-0.4699645474966806,0.0249482905578273,3.0,0.0
13.763423919677734,9.337355613708496,-0.6443438529968262,0.7255907409672553,-0.2526241856459864,-0.640077415200139,0.0139604160211796,3.0,0.0
15.06138801574707,9.178862571716309,-0.705066442489624,-0.0,-0.0,-1.0,0.0189155322449996,2.0,0.0
13.416229248046877,9.486059188842772,-0.6094443798065186,-0.0,-0.0,-1.0,0.0209110215245861,2.0,0.0
13.966099739074709,9.388168334960938,-0.6341080665588379,-0.0,-0.0,-1.0,0.0055958174662283,1.0,0.0
14.193355560302734,9.343175888061523,-0.6473023891448975,-0.8650671957856501,0.3989341095354735,-0.3041550969894976,0.0060734975726442,3.0,0.0
14.61925220489502,9.375596046447754,-0.6474642753601074,-0.0,-0.0,-1.0,0.0665795766202727,1.0,0.0
15.081069946289062,9.224851608276367,-0.695098876953125,-0.0,-0.0,-1.0,0.0179579233585948,1.0,0.0
12.75667953491211,9.50193691253662,-0.6217508316040039,-0.0,-0.0,-1.0,0.0237521912573684,2.0,0.0
12.931526184082031,9.47549057006836,-0.6264975070953369,-0.0,-0.0,-1.0,0.0340733421181376,2.0,0.0
13.270483016967772,9.46018123626709,-0.6288168430328369,-0.5187140830920045,-0.7799704103204141,-0.3501169219369811,0.0129491129025696,3.0,0.0
13.69731330871582,9.373172760009766,-0.6516568660736084,0.2488665178369802,-0.8167642182182518,0.5205397853555713,0.0229211800253511,3.0,0.0
14.014029502868652,9.390559196472168,-0.6505570411682129,-0.0,-0.0,-1.0,0.0064935018667221,2.0,0.0
14.20773696899414,9.364566802978516,-0.6601488590240479,-0.8232625675576849,0.5338904209231045,-0.1928724016153641,0.0071669970058764,4.0,0.0
14.49921703338623,9.399605751037598,-0.6574442386627197,-0.0,-0.0,-1.0,0.0403486140395967,2.0,0.0
14.943461418151855,9.323968887329102,-0.6894845962524414,-0.276302468473602,-0.1515998829006765,-0.9490386827837396,0.012370614283193,4.0,0.0
12.94748878479004,8.850041389465332,-0.5990200042724609,-0.0,-0.0,-1.0,0.0603674213518193,1.0,0.0
13.383737564086914,8.837858200073242,-0.593231201171875,-0.0,-0.0,-1.0,0.167343297204547,1.0,0.0
13.641749382019045,8.816547393798828,-0.5949676036834717,-0.0,-0.0,-1.0,0.1063879958059829,1.0,0.0
13.84230613708496,8.745207786560059,-0.6112759113311768,-0.0,-0.0,-1.0,0.0652556236119403,2.0,0.0
14.210003852844238,8.657705307006836,-0.6326601505279541,-0.0,-0.0,-1.0,0.0340305309299684,1.0,0.0
14.605120658874512,8.597307205200195,-0.6504645347595215,-0.0,-0.0,-1.0,0.0245414982880484,2.0,0.0
14.951372146606444,8.613155364990234,-0.6512694358825684,-0.0,-0.0,-1.0,0.0157890164587718,1.0,0.0
15.154326438903809,8.553055763244629,-0.6707596778869629,-0.0,-0.0,-1.0,0.0191484500660464,2.0,0.0
14.197513580322266,9.339883804321287,-0.6634464263916016,-0.8650671957856501,0.3989341095354735,-0.3041550969894976,0.0060734975726441,3.0,0.0
14.115081787109377,9.972208023071287,-0.679388165473938,-0.1214050970235682,-0.9730955164475362,-0.1958211385075717,0.0104212767331338,3.0,0.0
14.071548461914062,9.773761749267578,-0.6782137155532837,-0.0,-0.0,-1.0,0.0134566808100426,2.0,0.0
14.814685821533203,8.144832611083984,-0.6100358963012695,-0.0,-0.0,-1.0,0.0157365508049028,1.0,0.0
14.382564544677734,10.32315444946289,-0.6708486080169678,-0.0,-0.0,-1.0,0.0498268407888269,1.0,0.0
13.027351379394531,9.63045597076416,-0.6079143285751343,-0.0,-0.0,-1.0,0.0173634260112963,1.0,0.0
12.793556213378906,9.343500137329102,-0.6171196699142456,-0.0,-0.0,-1.0,0.0195344028147826,1.0,0.0
13.117938995361328,10.496223449707031,-0.6126848459243774,0.8710483493116524,0.0331031438139142,0.4900805597359283,0.2196085359010646,4.0,0.0
13.142471313476562,10.23824691772461,-0.6084829568862915,-0.0,-0.0,-1.0,0.0848828817577735,1.0,0.0
13.400348663330078,9.989727020263672,-0.5923646688461304,-0.0,-0.0,-1.0,0.0225365246055571,1.0,0.0
13.491680145263672,9.7978515625,-0.5855745077133179,-0.0,-0.0,-1.0,0.0350499786148913,2.0,0.0
13.910404205322266,8.269704818725586,-0.5494462251663208,-0.0,-0.0,-1.0,0.0506579611801757,1.0,0.0
12.784347534179688,9.438108444213867,-0.6400326490402222,-0.0,-0.0,-1.0,0.0280369729818207,2.0,0.0
13.174015045166016,10.32111358642578,-0.6302634477615356,-0.0,-0.0,-1.0,0.1191506928637427,2.0,0.0
12.922393798828123,9.58169651031494,-0.6344296932220459,-0.0,-0.0,-1.0,0.0294651870334768,2.0,0.0
13.49124526977539,10.015400886535645,-0.609630823135376,-0.0,-0.0,-1.0,0.0194908239452478,1.0,0.0
13.407577514648438,9.812915802001951,-0.6115756034851074,-0.0,-0.0,-1.0,0.0392575804952535,1.0,0.0
13.236114501953123,8.156220436096191,-0.602444052696228,-0.0,-0.0,-1.0,0.0671719404960366,1.0,0.0
13.92416763305664,8.354700088500977,-0.5681986808776855,-0.0,-0.0,-1.0,0.0587841000000485,2.0,0.0
14.063411712646484,10.281793594360352,-0.6987737417221069,-0.0,-0.0,-1.0,0.0314397264948154,1.0,0.0
14.106887817382812,9.97614288330078,-0.6938616037368774,-0.0,-0.0,-1.0,0.0104212767331338,2.0,0.0
14.766273498535156,8.827497482299805,-0.6485626697540283,-0.7103587855847878,0.6507801482602723,-0.2680962408778675,0.0355273528797637,3.0,0.0
14.922286987304688,8.479183197021484,-0.6377218961715698,-0.0,-0.0,-1.0,0.0198323479166139,2.0,0.0
13.46506118774414,8.647111892700195,-0.4425002336502075,0.4695600676594597,-0.50408841507382,-0.7248504760624829,0.143412681149445,5.0,0.0
13.452510833740234,8.534028053283691,-0.4464728832244873,-0.0,-0.0,-1.0,0.0934370897077762,2.0,0.0
14.352766036987305,8.155519485473633,-0.4217256307601928,-0.0,-0.0,-1.0,0.2067279594287429,1.0,0.0
13.386070251464844,8.53463363647461,-0.4588323831558227,-0.0,-0.0,-1.0,0.1466251079021888,1.0,0.0
12.94925308227539,8.192962646484375,-0.4942036867141723,-0.0,-0.0,-1.0,0.0515423907984482,2.0,0.0
13.525861740112305,8.721487045288086,-0.4566822052001953,0.3770787573540006,0.3416774730432348,-0.8608531321701468,0.1141076982550031,5.0,0.0
14.265661239624023,10.418888092041016,-0.6765192747116089,-0.6439273311035056,-0.6450399980688158,-0.4114377147871819,0.0468518246491735,3.0,0.0
14.445388793945312,9.865354537963867,-0.6906155347824097,0.748130109917494,0.5821629198505076,-0.3184143109000759,0.0202012472033598,3.0,0.0
14.215446472167969,10.096128463745115,-0.6957415342330933,-0.035130889338008,0.587918611504516,-0.8081568702058547,0.0172581279471593,3.0,0.0
14.918907165527344,9.329383850097656,-0.683597207069397,-0.7441796941996753,-0.2166835853874279,-0.6318582171377745,0.0128185200918588,5.0,0.0
14.80876922607422,9.53034210205078,-0.6813396215438843,-0.0,-0.0,-1.0,0.042635792359835,2.0,0.0
14.536441802978516,9.70663833618164,-0.6919602155685425,-0.0,-0.0,-1.0,0.0471059358525772,2.0,0.0
13.47812843322754,10.129340171813965,-0.6307996511459351,-0.0,-0.0,-1.0,0.0405800428952288,1.0,0.0
13.276161193847656,10.307109832763672,-0.6403604745864868,-0.8595788804630085,0.1503272873993285,0.4883910880893718,0.0578950712685207,3.0,0.0
13.030202865600586,10.520917892456056,-0.6522243022918701,-0.0,-0.0,-1.0,0.1360240421936651,2.0,0.0
13.424991607666016,9.858610153198242,-0.6437456607818604,-0.0,-0.0,-1.0,0.0373581102697816,1.0,0.0
13.708013534545898,9.274133682250977,-0.6421225070953369,-0.0,-0.0,-1.0,0.0255838091304211,1.0,0.0
13.546422958374023,9.495830535888672,-0.6467347145080566,-0.0,-0.0,-1.0,0.0419104642207155,2.0,0.0
14.031124114990234,8.970254898071289,-0.6283960342407227,-0.0,-0.0,-1.0,0.0147060573555788,1.0,0.0
13.807573318481444,9.124329566955566,-0.6398144960403442,0.4122908151812015,-0.2744559631016825,-0.8687290763150207,0.0061813671075025,3.0,0.0
13.06484031677246,10.616952896118164,-0.5026867389678955,0.5047140557316036,-0.8225492332073323,-0.2620619791136934,0.1628101182867302,7.0,0.0
12.778287887573242,10.39104461669922,-0.5320308208465576,0.1870311380141567,0.3296167315919013,-0.925403784122262,0.1366348621046766,3.0,0.0
14.333927154541016,8.25509262084961,-0.5138468742370605,0.4218455833979208,-0.8589536268044439,0.290249841976115,0.1903841810937009,3.0,0.0
13.703350067138672,8.537836074829102,-0.5451269149780273,-0.048704609457866,-0.6127897339453741,0.7887436864968963,0.0737523231665734,6.0,0.0
13.235359191894531,8.747076034545898,-0.5686659812927246,-0.0,-0.0,-1.0,0.1821450680898,2.0,0.0
13.004938125610352,8.897513389587402,-0.5782748460769653,-0.0,-0.0,-1.0,0.0793931347281921,1.0,0.0
12.71571922302246,9.04023551940918,-0.5924512147903442,-0.0,-0.0,-1.0,0.0103931932496891,1.0,0.0
13.738628387451172,8.421939849853516,-0.5478229522705078,-0.5262289304264306,0.1380857516673985,-0.8390562781891954,0.0533400521112366,3.0,0.0
13.296144485473633,8.284886360168457,-0.5848649740219116,-0.0,-0.0,-1.0,0.0682591536348193,1.0,0.0
15.17595672607422,10.618371963500977,-0.7613327503204346,-0.0,-0.0,-1.0,0.0213698327953536,1.0,0.0
13.859615325927734,10.315640449523926,-0.6703588962554932,-0.2631226481943564,-0.9613222942124848,0.0813997460514067,0.0180216521088254,3.0,0.0
13.98000144958496,9.83810043334961,-0.6842114925384521,-0.0,-0.0,-1.0,0.0152229058352369,2.0,0.0
13.89200210571289,10.067890167236328,-0.6800930500030518,-0.0,-0.0,-1.0,0.0235271422596846,2.0,0.0
14.854984283447266,9.007121086120605,-0.651935338973999,-0.5826173600976736,0.4555107808036623,-0.6731024738362321,0.0213738693222574,4.0,0.0
14.76369285583496,9.22512149810791,-0.6480820178985596,-0.0,-0.0,-1.0,0.0362087013443364,1.0,0.0
14.397214889526367,9.496841430664062,-0.6655242443084717,-0.0,-0.0,-1.0,0.0284469833753966,2.0,0.0
14.139829635620115,9.59441375732422,-0.6828908920288086,-0.0,-0.0,-1.0,0.0088207425844879,2.0,0.0
14.925365447998049,8.84499740600586,-0.6547043323516846,-0.0,-0.0,-1.0,0.0242728239339958,2.0,0.0
15.12704086303711,10.632112503051758,-0.7368975877761841,-0.0,-0.0,-1.0,0.0210883814220403,1.0,0.0
14.855207443237305,10.084342002868652,-0.7010887861251831,-0.0,-0.0,-1.0,0.0857343847998756,1.0,0.0
14.755285263061523,10.301267623901367,-0.7042717933654785,-0.0,-0.0,-1.0,0.0686954872358267,1.0,0.0
15.139189720153809,9.546286582946776,-0.6906635761260986,-0.0,-0.0,-1.0,0.0171015602327249,1.0,0.0
14.966876983642578,9.76914119720459,-0.700674295425415,-0.0,-0.0,-1.0,0.0168940569792894,1.0,0.0
14.801403045654297,9.99804973602295,-0.7100014686584473,-0.0,-0.0,-1.0,0.074323901782946,1.0,0.0
14.196298599243164,10.37009048461914,-0.6966186761856079,-0.4916981252765923,0.7675499669103447,-0.4112177062036763,0.0426667732377239,3.0,0.0
14.470292091369627,9.828099250793455,-0.7002185583114624,-0.0,-0.0,-1.0,0.0204198288468424,2.0,0.0
14.207672119140623,10.072555541992188,-0.7125524282455444,-0.035130889338008,0.587918611504516,-0.8081568702058547,0.0174422314586111,3.0,0.0
15.007194519042969,9.205087661743164,-0.6844274997711182,-0.0,-0.0,-1.0,0.01625835156453,2.0,0.0
14.828725814819336,9.472347259521484,-0.6856034994125366,-0.0,-0.0,-1.0,0.013199253476947,2.0,0.0
15.15876579284668,8.989847183227539,-0.6831396818161011,-0.0,-0.0,-1.0,0.0259060996387505,2.0,0.0
12.952292442321776,10.458574295043944,-0.5542715787887573,-0.0,-0.0,-1.0,0.1149612854084522,1.0,0.0
12.851478576660156,10.049885749816896,-0.5867601633071899,0.23782675571093,0.263300086159853,-0.9349393022524124,0.0197987886570378,4.0,0.0
12.723600387573242,9.592529296875,-0.6251710653305054,-0.0,-0.0,-1.0,0.0266357126532627,2.0,0.0
13.229768753051758,9.114956855773926,-0.6073898077011108,-0.0,-0.0,-1.0,0.0578129224408886,1.0,0.0
12.925176620483398,9.362859725952148,-0.6202086210250854,-0.0,-0.0,-1.0,0.0283154874509904,2.0,0.0
13.748577117919922,8.592635154724121,-0.593468189239502,-0.0,-0.0,-1.0,0.1388183308848133,2.0,0.0
13.557941436767578,8.796853065490723,-0.5975360870361328,-0.0,-0.0,-1.0,0.1856304462538169,1.0,0.0
13.333901405334473,8.949201583862305,-0.6081838607788086,-0.0,-0.0,-1.0,0.1266868774122611,1.0,0.0
14.39258098602295,8.27114486694336,-0.5574463605880737,0.6532382943242164,-0.5652033207112667,0.5038104178015237,0.0718674523230173,4.0,0.0
13.782200813293455,8.338869094848633,-0.6071025133132935,-0.0,-0.0,-1.0,0.0651876564364448,1.0,0.0
14.902654647827148,10.470067977905272,-0.7570648193359375,-0.0,-0.0,-1.0,0.0274617452341363,2.0,0.0
15.109798431396484,10.230632781982422,-0.7530879974365234,-0.0,-0.0,-1.0,0.0205718047555268,2.0,0.0
13.061405181884766,10.581398963928224,-0.4034042358398437,0.5849994691547477,-0.6109772089142352,-0.5333689822965285,0.1765187462662491,4.0,0.0
13.178361892700195,8.349509239196777,-0.5461269617080688,-0.4241137038187887,0.7531775548116941,-0.5028430542037805,0.099316477360517,4.0,0.0
12.784783363342283,8.53769302368164,-0.5652408599853516,-0.0,-0.0,-1.0,0.0086092507895269,2.0,0.0
14.366235733032228,10.507305145263672,-0.6841763257980347,-0.0,-0.0,-1.0,0.0584324668062709,1.0,0.0
14.602721214294434,10.14333724975586,-0.6996593475341797,-0.0,-0.0,-1.0,0.0455530343815248,1.0,0.0
15.042436599731444,9.652191162109377,-0.7112632989883423,-0.7205045539101274,-0.3235421508985038,-0.6133462842365133,0.0247715023868624,4.0,0.0
14.76721477508545,9.85032081604004,-0.7158899307250977,-0.0187350928713136,0.5185993121641462,-0.8548121136939846,0.0490464250690999,4.0,0.0
13.178163528442385,8.895782470703125,-0.4286965131759643,-0.0,-0.0,-1.0,0.1823523865748525,2.0,0.0
13.427040100097656,8.695961952209473,-0.4306694269180298,0.7193532972791407,-0.6504500627609321,-0.2438145802611636,0.1645036692257354,4.0,0.0
13.173314094543455,8.377896308898926,-0.4790076017379761,0.9296448968729448,0.3635472964045982,-0.0599477188473318,0.1135077531910443,3.0,0.0
13.138134956359863,8.159927368164062,-0.502768874168396,0.1685925717182902,0.98547911844457,0.0201854371051567,0.0799536392618756,5.0,0.0
13.880086898803713,10.308368682861328,-0.6900638341903687,-0.2631226481943564,-0.9613222942124848,0.0813997460514067,0.0180216521088254,3.0,0.0
13.625558853149414,10.515087127685549,-0.6932885646820068,-0.0,-0.0,-1.0,0.030657119420137,2.0,0.0
14.26564121246338,9.862329483032228,-0.7025901079177856,-0.0,-0.0,-1.0,0.0118229344873842,1.0,0.0
14.055343627929688,10.006467819213867,-0.7070798873901367,-0.0,-0.0,-1.0,0.0203179802401849,1.0,0.0
14.492230415344238,9.676576614379885,-0.7021936178207397,-0.0,-0.0,-1.0,0.0149756333491783,2.0,0.0
14.744046211242676,9.513198852539062,-0.6970484256744385,-0.0,-0.0,-1.0,0.0488037915082635,1.0,0.0
14.131500244140623,10.626060485839844,-0.6272857189178467,-0.0,-0.0,-1.0,0.0349955338826708,1.0,0.0
14.920950889587402,9.356830596923828,-0.6992282867431641,-0.7603762466257136,-0.4157993360564297,-0.4989377473216718,0.0129942849754257,4.0,0.0
13.210166931152344,8.839082717895508,-0.4116686582565307,-0.0,-0.0,-1.0,0.249036782162952,1.0,0.0
15.125916481018066,9.085968017578123,-0.7137727737426758,-0.0,-0.0,-1.0,0.0281817733559947,2.0,0.0
13.318778038024902,8.756790161132812,-0.4125041961669922,-0.0,-0.0,-1.0,0.1240684134270509,2.0,0.0
14.353532791137695,10.592567443847656,-0.678149938583374,-0.0,-0.0,-1.0,0.0624716957692677,2.0,0.0
14.59925365447998,10.238323211669922,-0.6912634372711182,-0.0,-0.0,-1.0,0.0900685791969646,2.0,0.0
14.448814392089844,10.387818336486816,-0.6910359859466553,-0.0,-0.0,-1.0,0.0476919930286897,1.0,0.0
14.77872085571289,9.866584777832031,-0.7169791460037231,-0.0187350928713136,0.5185993121641462,-0.8548121136939846,0.0489232676945743,4.0,0.0
15.189120292663574,9.527181625366213,-0.714276909828186,-0.0,-0.0,-1.0,0.0144969291946265,1.0,0.0
15.025476455688477,9.686891555786133,-0.7116131782531738,-0.8114028811125517,-0.3922113481902478,0.4333539233386941,0.025726844042863,3.0,0.0
12.807373046875,8.881629943847656,-0.5757720470428467,-0.0,-0.0,-1.0,0.0084212615904254,2.0,0.0
13.368975639343262,8.70747184753418,-0.5453946590423584,-0.0,-0.0,-1.0,0.1899335951493426,1.0,0.0
13.07437229156494,8.64497184753418,-0.5778272151947021,-0.0,-0.0,-1.0,0.0593938938112633,2.0,0.0
13.736740112304688,8.471902847290039,-0.539962649345398,-0.3893674756974203,-0.3931725352424252,-0.8329515750630784,0.0577125454368111,4.0,0.0
13.546388626098633,8.30220890045166,-0.5752248764038086,-0.0,-0.0,-1.0,0.0570365977494142,1.0,0.0
13.25460147857666,8.451125144958496,-0.5833756923675537,-0.0,-0.0,-1.0,0.1055791606810277,1.0,0.0
14.808484077453612,10.50860595703125,-0.7704706192016602,-0.0,-0.0,-1.0,0.0298523380194993,1.0,0.0
13.290130615234377,10.240612030029297,-0.6160012483596802,0.0037977249329184,-0.9862633321902502,0.1651369639490749,0.0396916566351279,3.0,0.0
13.051116943359377,10.270950317382812,-0.6429100036621094,-0.0,-0.0,-1.0,0.0849796867749065,1.0,0.0
14.92575454711914,10.422386169433594,-0.764362096786499,-0.0,-0.0,-1.0,0.0193065759960628,2.0,0.0
13.372774124145508,9.971867561340332,-0.6345326900482178,-0.0,-0.0,-1.0,0.0222863566555744,1.0,0.0
13.323813438415527,9.78056526184082,-0.6614044904708862,0.1527464517260586,0.0710064239353978,-0.985711220005639,0.0369410120866917,3.0,0.0
15.18301773071289,10.120485305786133,-0.7677314281463623,-0.0,-0.0,-1.0,0.0227621745897089,1.0,0.0
13.550539016723633,9.605478286743164,-0.6534857749938965,0.4393253334684743,-0.7963210266788323,-0.4157716607009003,0.0506343807862101,4.0,0.0
14.002406120300291,9.243562698364258,-0.6419543027877808,-0.0,-0.0,-1.0,0.0063945604006509,1.0,0.0
13.771889686584473,9.382553100585938,-0.652585506439209,-0.0,-0.0,-1.0,0.0107122619714874,2.0,0.0
14.267210006713867,8.985359191894531,-0.6429213285446167,-0.0,-0.0,-1.0,0.0097395592421871,1.0,0.0
14.68564224243164,8.565882682800293,-0.649476170539856,-0.0,-0.0,-1.0,0.0142624530860374,1.0,0.0
14.498368263244627,8.700897216796875,-0.6526412963867188,0.6902885660415699,-0.6717689210406863,-0.2687530694077848,0.0328859958895947,3.0,0.0
14.914196968078612,8.367415428161621,-0.651153564453125,-0.0,-0.0,-1.0,0.025257509552042,2.0,0.0
15.111600875854492,8.218849182128906,-0.6503137350082397,-0.0,-0.0,-1.0,0.016819254407856,1.0,0.0
13.955840110778809,10.426593780517578,-0.7069610357284546,-0.0,-0.0,-1.0,0.0286666760806923,2.0,0.0
13.747350692749023,10.525060653686523,-0.7221611738204956,-0.0,-0.0,-1.0,0.0242973704600921,1.0,0.0
14.052988052368164,10.202366828918455,-0.727676510810852,-0.0,-0.0,-1.0,0.0251825976136215,1.0,0.0
14.34486484527588,9.90011215209961,-0.7359369993209839,-0.0,-0.0,-1.0,0.0110804661688757,1.0,0.0
12.937546730041504,9.104954719543455,-0.6371772289276123,-0.0,-0.0,-1.0,0.018740846816148,1.0,0.0
14.848499298095703,9.57461166381836,-0.725234866142273,-0.5979341605330498,-0.5038407988397569,-0.6233932860499487,0.0161125493794192,4.0,0.0
14.627227783203123,9.681641578674316,-0.7350927591323853,-0.0,-0.0,-1.0,0.0451048456555556,2.0,0.0
13.435420989990234,8.857545852661133,-0.6212557554244995,-0.0,-0.0,-1.0,0.1558125693952014,1.0,0.0
13.193276405334473,8.935236930847168,-0.6345635652542114,-0.0,-0.0,-1.0,0.1193168084340927,2.0,0.0
15.04693603515625,9.368054389953612,-0.7372454404830933,-0.0,-0.0,-1.0,0.015648974452325,1.0,0.0
13.737730026245115,8.642433166503906,-0.6235440969467163,-0.0,-0.0,-1.0,0.1027515423790001,2.0,0.0
14.32411766052246,8.368612289428711,-0.6111080646514893,-0.0,-0.0,-1.0,0.0686708014829498,2.0,0.0
13.961090087890623,8.351766586303711,-0.6470897197723389,-0.0,-0.0,-1.0,0.0503568108601817,2.0,0.0
14.730589866638184,8.17447280883789,-0.6069616079330444,-0.0,-0.0,-1.0,0.0213223360971736,2.0,0.0
14.509232521057127,8.273506164550781,-0.6099244356155396,-0.0,-0.0,-1.0,0.0323185279159242,2.0,0.0
14.286806106567385,10.417526245117188,-0.707477331161499,-0.0,-0.0,-1.0,0.0492347076170201,2.0,0.0
14.420845985412598,10.232446670532228,-0.7170971632003784,-0.0,-0.0,-1.0,0.0542573086639493,2.0,0.0
14.598966598510742,9.971525192260742,-0.7337450981140137,-0.0,-0.0,-1.0,0.0321995686550364,2.0,0.0
13.103078842163086,10.63722038269043,-0.5193763971328735,0.5637907462663112,-0.5774008482922457,0.5905491129583303,0.1458404169265936,3.0,0.0
12.728994369506836,10.275609970092772,-0.4372648000717163,-0.0,-0.0,-1.0,0.1014721769160248,1.0,0.0
13.055774688720703,10.051554679870604,-0.6072970628738403,-0.0,-0.0,-1.0,0.023765990070918,2.0,0.0
14.320743560791016,10.557624816894531,-0.6785560846328735,-0.0,-0.0,-1.0,0.0624716957692677,2.0,0.0
13.345381736755373,9.985877990722656,-0.577942967414856,-0.0,-0.0,-1.0,0.0167981966963948,2.0,0.0
13.327942848205566,9.739322662353516,-0.6171144247055054,-0.0,-0.0,-1.0,0.039382457847413,2.0,0.0
14.50064468383789,10.220691680908203,-0.706708550453186,-0.0,-0.0,-1.0,0.097042544423277,1.0,0.0
13.51120662689209,9.409318923950195,-0.6429988145828247,0.3563262873562475,-0.3897954431378919,-0.8491708246565277,0.0291964540711316,4.0,0.0
14.76603889465332,9.849401473999023,-0.7304638624191284,-0.0187350928713136,0.5185993121641462,-0.8548121136939846,0.0490464250690999,4.0,0.0
13.822832107543944,9.159385681152344,-0.6436480283737183,0.4122908151812015,-0.2744559631016825,-0.8687290763150207,0.0074987791805471,3.0,0.0
12.976141929626465,8.17253303527832,-0.5106183290481567,-0.0,-0.0,-1.0,0.0515423907984482,2.0,0.0
15.025833129882812,9.671028137207031,-0.7253026962280273,-0.8114028811125517,-0.3922113481902478,0.4333539233386941,0.025726844042863,3.0,0.0
14.16124439239502,8.891345977783203,-0.6479065418243408,-0.0,-0.0,-1.0,0.0092657724424869,1.0,0.0
14.567479133605955,8.659649848937988,-0.6415911912918091,-0.0,-0.0,-1.0,0.0237539355099833,2.0,0.0
14.357110977172852,8.746646881103516,-0.6500170230865479,-0.0,-0.0,-1.0,0.0341829915655719,1.0,0.0
14.867718696594238,8.440181732177734,-0.6483311653137207,0.5690152496166805,-0.5904921183836503,-0.5723117191098364,0.0178041978103874,5.0,0.0
12.82564640045166,10.56180191040039,-0.2101905345916748,-0.6955743256425062,-0.6527695209164905,-0.3001138285208269,0.0786477462834675,3.0,0.0
12.793871879577637,10.491106033325195,-0.2219831943511963,-0.0,-0.0,-1.0,0.0769781899514609,1.0,0.0
12.982683181762695,10.593225479125977,-0.4623126983642578,0.2568260789166223,-0.0485555826955972,-0.9652371317854508,0.238552013705187,4.0,0.0
13.629646301269531,10.43924331665039,-0.6855067014694214,-0.0,-0.0,-1.0,0.0294370086048404,2.0,0.0
12.91997241973877,9.5564546585083,-0.6111910343170166,-0.0,-0.0,-1.0,0.0347933653080007,2.0,0.0
13.841056823730469,10.19447135925293,-0.6836936473846436,-0.0,-0.0,-1.0,0.0253209512033081,1.0,0.0
13.905384063720703,10.070323944091797,-0.6920394897460938,-0.0,-0.0,-1.0,0.0239027831858706,2.0,0.0
13.176148414611816,9.306748390197754,-0.6102550029754639,-0.0,-0.0,-1.0,0.043832203265936,1.0,0.0
14.14319133758545,9.7962646484375,-0.6955246925354004,-0.0,-0.0,-1.0,0.0115082277495354,1.0,0.0
13.55657958984375,9.058233261108398,-0.5946335792541504,-0.0,-0.0,-1.0,0.0310638200102712,1.0,0.0
14.477428436279297,9.576932907104492,-0.6767585277557373,-0.0,-0.0,-1.0,0.0113642307394809,1.0,0.0
13.843111038208008,8.77999496459961,-0.6011101007461548,-0.0,-0.0,-1.0,0.058811558050352,2.0,0.0
14.769193649291992,9.459268569946287,-0.6499037742614746,-0.0,-0.0,-1.0,0.0136924832737925,2.0,0.0
14.861263275146484,9.284778594970703,-0.6687556505203247,-0.0,-0.0,-1.0,0.0174009270666749,2.0,0.0
14.10499382019043,8.537944793701172,-0.6082226037979126,-0.0,-0.0,-1.0,0.0480730235945033,1.0,0.0
15.082403182983398,9.031803131103516,-0.6848416328430176,-0.0,-0.0,-1.0,0.0297830089897285,2.0,0.0
14.448559761047363,8.436843872070312,-0.5827075242996216,-0.1819989936948147,-0.752633098800619,-0.6327873140983884,0.0744152566362725,6.0,0.0
14.580692291259766,8.395853042602539,-0.5740921497344971,0.2423584923606345,-0.9371553721831302,0.2510023298078704,0.1026877922853544,4.0,0.0
14.873174667358398,8.151540756225586,-0.5853803157806396,-0.0,-0.0,-1.0,0.0190464722309631,1.0,0.0
12.80986785888672,9.46067714691162,-0.6071523427963257,-0.0,-0.0,-1.0,0.0260513324452732,2.0,0.0
12.984601974487305,9.182147979736328,-0.6079832315444946,-0.0,-0.0,-1.0,0.0482165772402698,1.0,0.0
13.354175567626951,8.879721641540527,-0.5808674097061157,-0.0,-0.0,-1.0,0.1699825555094212,2.0,0.0
13.673694610595703,8.63868522644043,-0.5595914125442505,0.7770386028848646,-0.0078458259900424,-0.6294040456187676,0.1124040259741687,3.0,0.0
13.657110214233398,8.3333740234375,-0.6076287031173706,-0.0,-0.0,-1.0,0.0472890293280779,2.0,0.0
13.839252471923828,8.231740951538086,-0.5937131643295288,-0.0,-0.0,-1.0,0.0376460230718335,2.0,0.0
14.384506225585938,8.205495834350586,-0.5115038156509399,-0.0,-0.0,-1.0,0.0856924980067184,2.0,0.0
12.774419784545898,10.592598915100098,-0.2586886882781982,-0.0,-0.0,-1.0,0.0946185012352188,2.0,0.0
14.23387336730957,8.421526908874512,-0.6173855066299438,0.800029053989022,-0.2849972600626598,0.5279489317445459,0.080150058947532,3.0,0.0
14.474054336547852,8.303831100463867,-0.5986785888671875,0.8904657764580813,0.4309610813979494,-0.1460932827929342,0.0388873227942493,5.0,0.0
13.066144943237305,10.62803554534912,-0.4930963516235351,0.5047140557316036,-0.8225492332073323,-0.2620619791136934,0.1456773007510538,7.0,0.0
12.87729835510254,10.305933952331545,-0.577161431312561,-0.0,-0.0,-1.0,0.085514278810365,2.0,0.0
12.916292190551758,9.987605094909668,-0.5678352117538452,-0.0,-0.0,-1.0,0.0210669279370935,1.0,0.0
13.173870086669922,8.369144439697266,-0.5234603881835938,-0.428858941958459,0.8399098810530655,-0.332612987737546,0.1128791218106467,5.0,0.0
13.016277313232422,10.592105865478516,-0.5738687515258789,-0.0,-0.0,-1.0,0.1512546209108925,2.0,0.0
13.17953109741211,10.028830528259276,-0.5503642559051514,-0.0,-0.0,-1.0,0.0213111314516417,2.0,0.0
14.535148620605469,9.891030311584473,-0.689202070236206,-0.0,-0.0,-1.0,0.0226114357225843,2.0,0.0
14.62129020690918,9.784584045410156,-0.6803947687149048,-0.0,-0.0,-1.0,0.0150810255758477,1.0,0.0
14.796167373657228,9.616287231445312,-0.6635496616363525,-0.0,-0.0,-1.0,0.0525102166095817,1.0,0.0
14.911832809448242,9.187108993530272,-0.6467182636260986,-0.0,-0.0,-1.0,0.0190703458656407,1.0,0.0
15.05622673034668,8.813197135925293,-0.6292775869369507,-0.0,-0.0,-1.0,0.0298023868732122,2.0,0.0
15.022912979125977,9.76436996459961,-0.7009679079055786,-0.0,-0.0,-1.0,0.0168828564076303,1.0,0.0
15.063268661499023,9.27151107788086,-0.6759124994277954,-0.0,-0.0,-1.0,0.0162657559611968,1.0,0.0
15.092525482177734,9.051369667053224,-0.6642773151397705,-0.0,-0.0,-1.0,0.0298098853034714,2.0,0.0
15.152366638183594,8.777853965759277,-0.6483988761901855,-0.0,-0.0,-1.0,0.0233224127052696,2.0,0.0
14.472816467285156,9.93881893157959,-0.6725244522094727,-0.0,-0.0,-1.0,0.016358750363035,1.0,0.0
14.630060195922852,8.65656852722168,-0.6150424480438232,-0.0,-0.0,-1.0,0.0424717011813769,2.0,0.0
14.625822067260742,10.079017639160156,-0.6680184602737427,-0.0,-0.0,-1.0,0.0745990316534934,1.0,0.0
14.702707290649414,9.478825569152832,-0.6396129131317139,-0.0,-0.0,-1.0,0.0698778096059949,2.0,0.0
14.853065490722656,9.187005043029783,-0.6187721490859985,-0.0,-0.0,-1.0,0.0172603484820743,1.0,0.0
14.767229080200195,8.843503952026367,-0.6122403144836426,-0.0,-0.0,-1.0,0.0380720042163887,2.0,0.0
14.831710815429688,8.364407539367676,-0.5915908813476562,-0.0,-0.0,-1.0,0.0302277236975261,2.0,0.0
15.122184753417969,10.439736366271973,-0.7400972843170166,-0.0,-0.0,-1.0,0.0166110078322307,1.0,0.0
15.171751022338867,10.3137788772583,-0.7313475608825684,-0.0,-0.0,-1.0,0.014907543738691,1.0,0.0
15.14670181274414,10.22542953491211,-0.7291247844696045,-0.0,-0.0,-1.0,0.0209155184700945,2.0,0.0
14.920597076416016,9.485477447509766,-0.7199447154998779,-0.0,-0.0,-1.0,0.0211750460127753,1.0,0.0
14.956554412841797,9.228822708129885,-0.7070791721343994,-0.0,-0.0,-1.0,0.0180268386083767,1.0,0.0
14.976198196411133,8.978231430053711,-0.6956725120544434,-0.0,-0.0,-1.0,0.0372186977594231,2.0,0.0
13.911733627319336,10.5341796875,-0.6752068996429443,0.6023315018906205,0.3020125973447972,-0.7389080814791775,0.0146341193402842,3.0,0.0
13.859315872192385,10.399818420410156,-0.6723923683166504,-0.0,-0.0,-1.0,0.0203632877982916,1.0,0.0
13.695499420166016,10.164894104003906,-0.6718997955322266,-0.0,-0.0,-1.0,0.0289712191732463,1.0,0.0
13.621564865112305,9.83115577697754,-0.6621673107147217,0.6560784555455602,-0.4542493406183959,-0.6026761955782761,0.0482069192743501,3.0,0.0
13.673765182495115,9.538667678833008,-0.6469771862030029,-0.0,-0.0,-1.0,0.0323291752798179,1.0,0.0
13.980159759521484,9.123472213745115,-0.6117740869522095,0.3941721299252231,0.2641479985779397,-0.8802580115156478,0.0066403453429661,3.0,0.0
13.959468841552734,8.926334381103516,-0.6051169633865356,-0.0,-0.0,-1.0,0.0167671471794519,1.0,0.0
13.89537239074707,8.803293228149414,-0.6041064262390137,-0.0,-0.0,-1.0,0.0402043400528535,1.0,0.0
14.402549743652344,8.359090805053711,-0.5560318231582642,-0.0,-0.0,-1.0,0.076750728496123,2.0,0.0
13.92184829711914,10.536052703857422,-0.6661962270736694,-0.0,-0.0,-1.0,0.0152472427971739,2.0,0.0
13.720308303833008,10.41629123687744,-0.6702802181243896,-0.0,-0.0,-1.0,0.0248598186242541,1.0,0.0
13.610107421875,10.093342781066896,-0.6587313413619995,-0.0,-0.0,-1.0,0.0274341363111297,2.0,0.0
13.519729614257812,9.718550682067873,-0.6439259052276611,-0.0,-0.0,-1.0,0.0497989112945892,2.0,0.0
13.649953842163086,9.847452163696287,-0.6435457468032837,-0.0,-0.0,-1.0,0.0408723389122097,2.0,0.0
13.582849502563477,9.613114356994627,-0.6350384950637817,0.4209189265247589,-0.8139969474787584,-0.4002951745755969,0.0499860924700336,3.0,0.0
13.912099838256836,9.080279350280762,-0.5896402597427368,-0.0,-0.0,-1.0,0.00998223425892,1.0,0.0
13.636297225952148,9.238555908203123,-0.612977147102356,-0.0,-0.0,-1.0,0.0258395277744539,1.0,0.0
14.443561553955078,8.336721420288086,-0.5229824781417847,-0.0,-0.0,-1.0,0.0435157559350213,2.0,0.0
12.937824249267578,10.62297534942627,-0.5164182186126709,-0.0,-0.0,-1.0,0.1157133242446129,2.0,0.0
12.743080139160156,10.409913063049316,-0.5324258804321289,0.1870311380141567,0.3296167315919013,-0.925403784122262,0.153877840253267,3.0,0.0
