x,y,z,nx,ny,nz,curvature,density,label
7.010832786560059,19.808815002441406,-0.7869172096252441,-0.0,-0.0,-1.0,0.0868873588148406,1.0,0.0
6.520900726318359,20.093324661254883,-0.8238091468811035,-0.0,-0.0,-1.0,0.2398186794321266,2.0,0.0
7.653590202331543,18.96681785583496,-0.6004853248596191,-0.0,-0.0,-1.0,0.1479692542205444,1.0,0.0
6.43626070022583,18.144672393798828,-0.5182394981384277,-0.087570888679729,0.9067291220656372,-0.4125210766178149,0.1544218393521402,3.0,0.0
7.22758150100708,19.748001098632812,-0.6225519180297852,-0.0,-0.0,-1.0,0.1371334530794168,1.0,0.0
7.454734802246094,18.765735626220703,-0.6358680725097656,-0.0,-0.0,-1.0,0.1221027816560785,1.0,0.0
7.375640392303467,19.0017032623291,-0.7012815475463867,-0.0,-0.0,-1.0,0.1231909167181916,1.0,0.0
5.347709655761719,18.590105056762695,-0.6403379440307617,-0.0,-0.0,-1.0,0.2541753447527248,1.0,0.0
6.325968265533447,18.14156913757324,-0.4864983558654785,-0.0,-0.0,-1.0,0.0946762400022519,1.0,0.0
6.591624736785889,18.33670234680176,-0.5333919525146484,-0.0,-0.0,-1.0,0.1305802919610705,2.0,0.0
6.906710147857666,18.533164978027344,-0.5805950164794922,-0.0,-0.0,-1.0,0.0999042400661986,1.0,0.0
5.9195756912231445,18.436025619506836,-0.5785784721374512,-0.0,-0.0,-1.0,0.0778401063318571,1.0,0.0
6.058212757110596,18.301977157592773,-0.5377583503723145,-0.0,-0.0,-1.0,0.174324449806172,2.0,0.0
6.740910530090332,18.57991600036621,-0.5966377258300781,-0.0,-0.0,-1.0,0.0679506341220366,2.0,0.0
5.424548149108887,18.469141006469727,-0.6044621467590332,-0.0,-0.0,-1.0,0.2340233045995593,1.0,0.0
5.671499252319336,18.531171798706055,-0.6126999855041504,-0.0,-0.0,-1.0,0.1276398564444886,2.0,0.0
6.354663848876953,20.122425079345703,-0.2708415985107422,-0.0,-0.0,-1.0,0.2369271278816662,1.0,0.0
6.424937725067139,20.17339515686035,-0.281254768371582,-0.0,-0.0,-1.0,0.1688859661263697,1.0,0.0
7.208918571472168,19.682418823242188,-0.5622568130493164,-0.0,-0.0,-1.0,0.1017176750349182,1.0,0.0
7.391963958740234,19.995786666870117,-0.6532974243164062,-0.0,-0.0,-1.0,0.141604982090859,1.0,0.0
6.149051666259766,20.506563186645508,-0.7236404418945312,-0.0,-0.0,-1.0,0.1764472133520848,1.0,0.0
6.4719438552856445,20.607986450195312,-0.764918327331543,-0.0,-0.0,-1.0,0.1332705717357545,2.0,0.0
7.520185470581055,19.439115524291992,-0.5162353515625,-0.0,-0.0,-1.0,0.1480496437011536,2.0,0.0
7.136456489562988,18.67975425720215,-0.4710307121276855,-0.0,-0.0,-1.0,0.1995666785654815,1.0,0.0
7.308272838592529,19.31835174560547,-0.6377253532409668,-0.0,-0.0,-1.0,0.0867403480713166,2.0,0.0
7.421957015991211,19.370338439941406,-0.6460156440734863,-0.0,-0.0,-1.0,0.1072650970707667,2.0,0.0
6.192620277404785,18.311548233032227,-0.4255280494689941,-0.0,-0.0,-1.0,0.2042258710338291,1.0,0.0
6.9052815437316895,19.545202255249023,-0.7222018241882324,-0.0,-0.0,-1.0,0.0566873137552174,1.0,0.0
7.0006103515625,19.629777908325195,-0.7401480674743652,-0.0,-0.0,-1.0,0.0857952349920909,2.0,0.0
6.75181770324707,19.8829288482666,-0.8239402770996094,-0.0,-0.0,-1.0,0.0622270027991111,1.0,0.0
5.426039218902588,18.56478500366211,-0.5462245941162109,-0.0,-0.0,-1.0,0.2030576085161593,1.0,0.0
5.712549209594727,18.829036712646484,-0.5990118980407715,-0.0,-0.0,-1.0,0.156322543875446,2.0,0.0
6.000364780426025,19.18478012084961,-0.6777491569519043,-0.0,-0.0,-1.0,0.0361994858565195,2.0,0.0
6.475295543670654,19.91861343383789,-0.8499932289123535,-0.0,-0.0,-1.0,0.1739306105166998,1.0,0.0
6.490790367126465,20.038057327270508,-0.8819832801818848,-0.0,-0.0,-1.0,0.1598573504889017,1.0,0.0
5.335793495178223,18.956865310668945,-0.6599268913269043,-0.0,-0.0,-1.0,0.1405256310116982,1.0,0.0
6.203285217285156,20.38031768798828,-0.993537425994873,-0.0,-0.0,-1.0,0.1578010366738735,1.0,0.0
6.569638729095459,20.268890380859375,-0.2129855155944824,-0.0,-0.0,-1.0,0.1443378089094166,1.0,0.0
7.288100719451904,18.84560775756836,-0.5506134033203125,-0.0,-0.0,-1.0,0.1790494206865767,2.0,0.0
7.471697330474853,19.09941864013672,-0.6249103546142578,-0.0,-0.0,-1.0,0.1030689812975325,1.0,0.0
6.731137275695801,18.364681243896484,-0.4159550666809082,-0.0,-0.0,-1.0,0.2325683925142829,2.0,0.0
6.738758087158203,18.47145652770996,-0.4478564262390136,-0.0,-0.0,-1.0,0.1169898459177347,2.0,0.0
6.967044353485107,18.90499687194824,-0.573331356048584,-0.0,-0.0,-1.0,0.076210869393804,1.0,0.0
7.088479995727539,19.143718719482425,-0.6429181098937988,-0.0,-0.0,-1.0,0.0738213846372011,1.0,0.0
6.3831400871276855,18.315410614013672,-0.4098739624023437,-0.0,-0.0,-1.0,0.167157249765936,1.0,0.0
6.493589878082275,18.66446304321289,-0.511350154876709,-0.0,-0.0,-1.0,0.2019061767103694,1.0,0.0
5.783262252807617,18.81472396850586,-0.5780739784240723,-0.0,-0.0,-1.0,0.204054663212236,2.0,0.0
6.00687313079834,18.965312957763672,-0.6154336929321289,-0.0,-0.0,-1.0,0.1509801960188955,1.0,0.0
5.245214462280273,18.542049407958984,-0.5188884735107422,-0.0,-0.0,-1.0,0.1481427462090901,2.0,0.0
5.5133466720581055,18.77779006958008,-0.5775861740112305,-0.0,-0.0,-1.0,0.1640120827446134,1.0,0.0
6.550121307373047,20.558883666992188,-0.6829733848571777,-0.0,-0.0,-1.0,0.2110276768389358,1.0,0.0
5.922627925872803,20.261354446411133,-0.6304550170898438,-0.0,-0.0,-1.0,0.0848650326972385,1.0,0.0
6.251023292541504,20.567934036254883,-0.7007260322570801,-0.0,-0.0,-1.0,0.1552630863294714,1.0,0.0
6.805431842803955,20.47766876220703,-0.0212893486022949,-0.0,-0.0,-1.0,0.1526928032106587,1.0,0.0
6.789163589477539,20.186750411987305,0.055908203125,-0.0,-0.0,-1.0,0.2099426310814364,2.0,1.0
7.442968368530273,19.66950035095215,-0.5325219631195068,-0.0,-0.0,-1.0,0.1037070120161708,2.0,0.0
7.6174821853637695,20.16826438903809,-0.6475098133087158,-0.0,-0.0,-1.0,0.1275360126952943,1.0,0.0
6.982549667358398,20.178438186645508,-0.6890408992767334,-0.0,-0.0,-1.0,0.1717739905289881,1.0,0.0
6.599474906921387,20.42957305908203,-0.7779338359832764,-0.0,-0.0,-1.0,0.1527972924273741,2.0,0.0
6.365041255950928,20.54814910888672,-0.8244736194610596,-0.7738250514186964,0.6139719118454566,-0.1556704251349204,0.1876580476952315,3.0,0.0
6.069892883300781,20.41319274902344,-0.8131849765777588,-0.0,-0.0,-1.0,0.2092210624800993,2.0,0.0
6.665789604187012,20.28026580810547,-0.129596471786499,-0.0,-0.0,-1.0,0.1489051952680737,2.0,0.0
5.502123832702637,18.774059295654297,-0.4560141563415527,-0.0,-0.0,-1.0,0.1473753684687017,1.0,0.0
5.303215026855469,18.691871643066406,-0.4542093276977539,-0.0,-0.0,-1.0,0.2079504256152973,2.0,0.0
6.730759620666504,20.235143661499023,-0.1158411502838134,0.2447412749730386,-0.0631442759842079,-0.9675301074049332,0.1888769780499239,3.0,0.0
7.463335037231445,19.76377868652344,-0.5428893566131592,0.1563189331234507,0.0973735496904573,-0.9828951027285802,0.1079489623240876,3.0,0.0
7.666721820831299,20.285179138183594,-0.6501784324645996,-0.0,-0.0,-1.0,0.1097932282815508,2.0,0.0
6.374256134033203,20.471927642822266,-0.7646312713623047,-0.0,-0.0,-1.0,0.1989756687459169,1.0,0.0
6.48032283782959,20.58224868774414,-0.7823457717895508,-0.0,-0.0,-1.0,0.1420943348737574,2.0,0.0
6.493816375732422,20.23218536376953,-0.1093945503234863,-0.0,-0.0,-1.0,0.215721446180952,2.0,0.0
7.506912231445312,18.755531311035156,-0.7092952728271484,-0.0,-0.0,-1.0,0.0624976249610754,1.0,0.0
7.661498546600342,18.879379272460938,-0.7328853607177734,-0.0,-0.0,-1.0,0.1238388027940604,2.0,0.0
7.128012180328369,18.543197631835938,-0.6763594150543213,-0.0,-0.0,-1.0,0.1107090947696916,1.0,0.0
6.336726188659668,20.59069061279297,-0.6657435894012451,-0.0,-0.0,-1.0,0.1652965097050027,1.0,0.0
5.660273551940918,18.234455108642575,-0.7081120014190674,-0.0,-0.0,-1.0,0.1264067584265543,1.0,0.0
5.239372253417969,18.258665084838867,-0.7529842853546143,-0.0,-0.0,-1.0,0.1918522998828479,1.0,0.0
7.585548877716064,18.143943786621097,-0.5497710704803467,-0.0,-0.0,-1.0,0.1690616794889583,1.0,0.0
7.214870929718018,18.25765609741211,-0.5990030765533447,-0.0,-0.0,-1.0,0.0582676811565235,2.0,0.0
7.055455207824707,18.39908218383789,-0.6443102359771729,-0.0,-0.0,-1.0,0.0828702496494418,1.0,0.0
6.776515007019043,18.168746948242188,-0.6043291091918945,-0.0,-0.0,-1.0,0.1860884036483326,1.0,0.0
6.67057466506958,20.217674255371097,-0.5654435157775879,-0.0,-0.0,-1.0,0.1494832300160091,1.0,0.0
6.656786918640137,20.522769927978516,-0.632251501083374,-0.5506454059063859,0.7391821790934636,0.3878135416212668,0.2008918456873138,3.0,0.0
6.388395309448242,20.503223419189453,-0.6437742710113525,-0.0,-0.0,-1.0,0.2351236695223802,2.0,0.0
5.970582962036133,18.13890838623047,-0.6576745510101318,-0.0,-0.0,-1.0,0.0889667180866398,1.0,0.0
6.5531907081604,20.277809143066406,-0.5630993843078613,0.3811121630911496,-0.2161212634404113,-0.8989132987295856,0.2279604261548072,3.0,0.0
6.680988311767578,20.5703182220459,-0.622046709060669,0.6363768784507399,0.6007576315728076,-0.4838540448113696,0.2182268107861535,4.0,0.0
6.3872880935668945,20.50163459777832,-0.6270630359649658,0.8893603940093536,0.2275358749817129,0.3965671634967191,0.2370665874064388,4.0,0.0
6.717456817626953,20.12893867492676,-2.7179718017578125e-05,0.0166173374760715,-0.9927656994395524,-0.1189122790610905,0.1925270022968978,3.0,0.0
6.299117088317871,20.245473861694336,-0.0504188537597656,-0.0,-0.0,-1.0,0.1096416608703662,1.0,0.0
6.859482288360596,20.23125267028809,-0.1489875316619873,-0.0,-0.0,-1.0,0.1663318095857925,1.0,0.0
6.642114639282227,20.23303985595703,-0.1652874946594238,-0.0,-0.0,-1.0,0.1587518292946283,1.0,0.0
6.638167858123779,20.273975372314453,0.0699508190155029,0.8490847398174906,0.4446411663299723,0.2852180530993549,0.2189779590235827,3.0,1.0
6.735774040222168,20.122594833374023,0.0718891620635986,-0.0,-0.0,-1.0,0.1586254436271577,2.0,1.0
6.620000839233398,20.38487434387207,-0.0007822513580322,-0.0,-0.0,-1.0,0.1820277766401096,1.0,0.0
7.080395698547363,19.735902786254883,-0.7912774085998535,-0.0,-0.0,-1.0,0.0848943806105798,1.0,0.0
7.300607681274414,19.772186279296875,-0.7767136096954346,-0.0,-0.0,-1.0,0.1372896821213539,1.0,0.0
5.601666450500488,19.834075927734375,-0.8285391330718994,-0.0,-0.0,-1.0,0.1326209513712728,1.0,0.0
6.940249443054199,19.913009643554688,-0.7545130252838135,-0.0,-0.0,-1.0,0.1179295883742631,2.0,0.0
5.236265659332275,19.820138931274418,-0.8513011932373047,-0.0,-0.0,-1.0,0.0958416345707404,1.0,0.0
5.6139020919799805,19.93059539794922,-0.8061025142669678,-0.0,-0.0,-1.0,0.1060896693118356,1.0,0.0
5.861084938049316,20.169227600097656,-0.7398686408996582,-0.0,-0.0,-1.0,0.1017171844764932,1.0,0.0
7.356409072875977,18.214038848876953,-0.5745570659637451,-0.0,-0.0,-1.0,0.0569995536569228,1.0,0.0
6.980352878570557,18.469398498535156,-0.5294408798217773,-0.0,-0.0,-1.0,0.1206669183316887,1.0,0.0
7.631498336791992,18.71721649169922,-0.4713385105133056,-0.0,-0.0,-1.0,0.1564222710813404,1.0,0.0
5.851615905761719,18.58450698852539,-0.5336649417877197,-0.0,-0.0,-1.0,0.1596127164528895,1.0,0.0
6.072103977203369,18.518177032470703,-0.5402207374572754,-0.0,-0.0,-1.0,0.1331036794716689,1.0,0.0
6.5071916580200195,18.54745101928711,-0.5234251022338867,-0.0,-0.0,-1.0,0.1482946392970867,1.0,0.0
5.271601676940918,18.708715438842773,-0.5295364856719971,-0.0,-0.0,-1.0,0.1112512771114984,1.0,0.0
5.6197662353515625,18.827037811279297,-0.4944047927856445,-0.0,-0.0,-1.0,0.196627338652542,1.0,0.0
5.82820463180542,18.76713180541992,-0.4990620613098144,-0.0,-0.0,-1.0,0.1824689135944517,2.0,0.0
7.294012069702148,19.939960479736328,-0.7379546165466309,-0.0,-0.0,-1.0,0.1854709010086869,1.0,0.0
7.599460601806641,20.079357147216797,-0.6977748870849609,-0.0,-0.0,-1.0,0.1526032524972809,1.0,0.0
6.448884010314941,20.55208396911621,-0.625922441482544,-0.9036343263526844,0.0997751288160455,0.416521221436401,0.2450193327645035,3.0,0.0
6.689266204833984,20.539955139160156,-0.6188905239105225,-0.2852964750363047,-0.0619677838522758,-0.9564339575194394,0.1919973159618282,5.0,0.0
6.2062201499938965,20.628259658813477,-0.6194844245910645,-0.0,-0.0,-1.0,0.1369288503809402,1.0,0.0
6.583238124847412,20.166349411010746,-0.2052607536315918,-0.0,-0.0,-1.0,0.1443199090121996,1.0,0.0
6.648222923278809,20.059864044189453,-0.2242119312286377,-0.0,-0.0,-1.0,0.2018626144612559,1.0,0.0
6.267110347747803,18.81604385375977,-0.7092084884643555,-0.0,-0.0,-1.0,0.0784580020303652,1.0,0.0
6.624359607696533,18.809307098388672,-0.6919384002685547,-0.0,-0.0,-1.0,0.09298920422721,1.0,0.0
5.464263439178467,19.211158752441406,-0.6815228462219238,-0.0,-0.0,-1.0,0.0718602510492107,1.0,0.0
6.003294467926025,19.088214874267575,-0.6705121994018555,0.2489643292798601,0.0406801564134923,-0.9676579393672144,0.0454956586751153,3.0,0.0
6.777918338775635,18.961002349853516,-0.6541142463684082,-0.0,-0.0,-1.0,0.059255133698859,1.0,0.0
6.956341743469238,18.925687789916992,-0.6531209945678711,-0.0,-0.0,-1.0,0.0580845149468326,2.0,0.0
7.527307510375977,18.975126266479492,-0.620448112487793,-0.0,-0.0,-1.0,0.1299146935750998,1.0,0.0
5.6908369064331055,19.28408432006836,-0.6520490646362305,-0.0,-0.0,-1.0,0.0496460538253556,1.0,0.0
6.846440315246582,19.007583618164062,-0.6415462493896484,-0.5447811252862018,0.2137555630150905,-0.8108773549754621,0.0617354187005328,3.0,0.0
7.1387457847595215,19.15536117553711,-0.5988180637359619,-0.0,-0.0,-1.0,0.0808810274607226,2.0,0.0
7.532273769378662,19.128381729125977,-0.589003324508667,-0.0,-0.0,-1.0,0.0877648593645024,1.0,0.0
7.363452911376953,19.429340362548828,-0.5340430736541748,-0.0,-0.0,-1.0,0.080624564801291,1.0,0.0
5.747676372528076,20.3472900390625,-0.4430105686187744,-0.0,-0.0,-1.0,0.1709303799245975,2.0,0.0
6.305201053619385,20.326417922973633,-0.4093689918518066,-0.0,-0.0,-1.0,0.0706361654524517,1.0,0.0
6.4700236320495605,20.213043212890625,-0.4215188026428222,-0.0,-0.0,-1.0,0.1361683577895635,2.0,0.0
6.448215484619141,20.56983184814453,-0.3528356552124023,-0.0,-0.0,-1.0,0.1905425244766989,1.0,0.0
5.280271053314209,20.058612823486328,-0.9131669998168944,-0.0,-0.0,-1.0,0.0922843402856576,1.0,0.0
5.49269962310791,20.23125457763672,-0.859811544418335,-0.0,-0.0,-1.0,0.0644369907240361,1.0,0.0
6.648010730743408,20.080795288085938,-0.8102641105651855,-0.0,-0.0,-1.0,0.1779703019501184,1.0,0.0
6.97812557220459,19.95349502563477,-0.8183696269989014,-0.0,-0.0,-1.0,0.1080383924723464,1.0,0.0
6.783328533172607,20.161666870117188,-0.7840907573699951,-0.0,-0.0,-1.0,0.1711686793023891,1.0,0.0
7.033526420593262,20.148597717285156,-0.7723305225372314,-0.0,-0.0,-1.0,0.1791459408689361,1.0,0.0
5.622159004211426,18.74822235107422,-0.5928189754486084,-0.0,-0.0,-1.0,0.1383022626301682,2.0,0.0
5.751375198364258,18.70853042602539,-0.5930495262145996,-0.0,-0.0,-1.0,0.165604069861912,1.0,0.0
7.189509391784668,18.318603515625,-0.6007442474365234,-0.0,-0.0,-1.0,0.0875185185942638,2.0,0.0
5.489071846008301,19.017898559570312,-0.5514752864837646,-0.0,-0.0,-1.0,0.1246927188587115,1.0,0.0
5.973783493041992,18.75322151184082,-0.5731616020202637,-0.0,-0.0,-1.0,0.1060430295604562,1.0,0.0
6.258808612823486,18.752113342285156,-0.5591907501220703,-0.0,-0.0,-1.0,0.1292453023828115,1.0,0.0
6.663038730621338,18.689754486083984,-0.5521955490112305,-0.0,-0.0,-1.0,0.0937053156315493,1.0,0.0
7.015602111816406,18.52765655517578,-0.5679750442504883,-0.0,-0.0,-1.0,0.1393917797815827,1.0,0.0
7.506148338317871,18.51990509033203,-0.551671028137207,-0.0,-0.0,-1.0,0.2389014535044757,1.0,0.0
7.286777973175049,19.073341369628903,-0.4547376632690429,-0.0,-0.0,-1.0,0.0911672918686659,1.0,0.0
7.270436286926269,20.24148750305176,-0.7384202480316162,-0.0,-0.0,-1.0,0.1202918042895647,1.0,0.0
7.350035190582275,20.256038665771484,-0.7309238910675049,-0.0,-0.0,-1.0,0.1012194840937135,1.0,0.0
7.687207221984863,20.533313751220703,-0.651986837387085,-0.0,-0.0,-1.0,0.1245486528012966,2.0,0.0
6.053528308868408,20.285701751708984,-0.2892906665802002,-0.0,-0.0,-1.0,0.1393914910385352,1.0,0.0
7.694655895233154,19.55411720275879,-0.3491020202636719,-0.0,-0.0,-1.0,0.1037619150860922,1.0,0.0
7.581866264343262,20.568347930908203,-0.1620421409606933,-0.0,-0.0,-1.0,0.1166405411710066,1.0,0.0
5.230055332183838,18.327598571777344,-0.7024030685424805,-0.0,-0.0,-1.0,0.1110982503059446,1.0,0.0
5.443697452545166,18.690786361694336,-0.6225864887237549,-0.0,-0.0,-1.0,0.183226444636718,1.0,0.0
5.876413822174072,18.262914657592773,-0.6715824604034424,-0.0,-0.0,-1.0,0.1142523520062487,1.0,0.0
6.0564775466918945,18.354145050048828,-0.6440107822418213,-0.0,-0.0,-1.0,0.0964916805019593,1.0,0.0
5.68018102645874,18.770116806030273,-0.592214822769165,-0.0,-0.0,-1.0,0.2162262710778662,2.0,0.0
5.883793830871582,18.627700805664062,-0.6047306060791016,-0.0,-0.0,-1.0,0.1117591970688091,2.0,0.0
6.270336151123047,18.412372589111328,-0.6208012104034424,-0.0,-0.0,-1.0,0.0940836435554232,1.0,0.0
6.498404502868652,18.39048767089844,-0.6119856834411621,-0.0,-0.0,-1.0,0.067782888128858,1.0,0.0
7.197354316711426,18.14586067199707,-0.6231968402862549,-0.0,-0.0,-1.0,0.0568738872146369,1.0,0.0
5.2878899574279785,19.89687156677246,-0.9626224040985109,-0.0,-0.0,-1.0,0.099020757372332,1.0,0.0
5.6280059814453125,19.91082763671875,-0.9281439781188964,-0.0,-0.0,-1.0,0.1031190471353033,1.0,0.0
6.052554607391357,20.61920928955078,-0.7415838241577148,-0.0,-0.0,-1.0,0.169667503074958,2.0,0.0
6.825393199920654,20.10811996459961,-0.787935733795166,-0.0,-0.0,-1.0,0.1369499874452234,1.0,0.0
7.118080139160156,19.988401412963867,-0.7935271263122559,-0.0,-0.0,-1.0,0.1064991290957091,1.0,0.0
7.388672828674316,19.87967300415039,-0.7997560501098633,-0.0,-0.0,-1.0,0.2119340478098333,1.0,0.0
7.635847568511963,20.135597229003903,-0.7279093265533447,-0.0,-0.0,-1.0,0.1405332690481195,1.0,0.0
5.763346195220947,18.82730484008789,-0.5763843059539795,-0.0,-0.0,-1.0,0.2399785220698118,2.0,0.0
5.8892598152160645,18.90864944458008,-0.5534489154815674,-0.7677965407305843,-0.1674241505147192,-0.6184315854373649,0.1912691620556471,5.0,0.0
6.395240306854248,18.501632690429688,-0.5971565246582031,-0.0,-0.0,-1.0,0.1781068284916027,1.0,0.0
6.760645866394043,18.468029022216797,-0.5837802886962891,-0.0,-0.0,-1.0,0.0892925527372608,1.0,0.0
6.984358787536621,18.285396575927734,-0.6067383289337158,-0.0,-0.0,-1.0,0.08914236373184,1.0,0.0
6.787017822265625,18.516780853271484,-0.5732309818267822,0.8696211820898352,0.4921117845841699,0.0398119471272299,0.0900839747511903,3.0,0.0
7.220945835113525,18.30489730834961,-0.5921471118927002,0.3379172379902309,0.1081612000829304,-0.9349401558739864,0.0851101051555812,4.0,0.0
7.464554309844971,18.193580627441406,-0.602851152420044,-0.0,-0.0,-1.0,0.0342903599170615,2.0,0.0
6.672238349914551,20.23828125,-0.2622737884521484,-0.1818660858209828,-0.9806523694005498,-0.07242690948289,0.1531835036667521,5.0,0.0
5.432154178619385,20.21523666381836,-1.0560247898101809,-0.0,-0.0,-1.0,0.0374297799459,1.0,0.0
6.238457202911377,20.61785888671875,-0.878453254699707,-0.0,-0.0,-1.0,0.1028263118267296,1.0,0.0
6.8874993324279785,20.331037521362305,-0.8726770877838135,-0.0,-0.0,-1.0,0.1213356390046768,1.0,0.0
7.156779766082764,20.123302459716797,-0.8928649425506592,-0.0,-0.0,-1.0,0.0780812175134391,1.0,0.0
7.337303161621094,19.94032859802246,-0.9172773361206056,-0.0,-0.0,-1.0,0.1334807173992779,1.0,0.0
5.458698749542236,19.107372283935547,-0.7245321273803711,-0.0,-0.0,-1.0,0.0820447922856724,1.0,0.0
5.73858642578125,19.21389961242676,-0.6794431209564209,-0.0,-0.0,-1.0,0.0586073058756387,1.0,0.0
6.1693925857543945,19.094581604003903,-0.6636273860931396,-0.9137252894384712,0.2900187023077906,-0.2845966404444837,0.0783705481390598,3.0,0.0
6.394211292266846,18.843496322631836,-0.6919598579406738,-0.0,-0.0,-1.0,0.1355747327438589,1.0,0.0
6.849512100219727,18.83725357055664,-0.6579992771148682,-0.0,-0.0,-1.0,0.0560956613825768,1.0,0.0
7.396736145019531,18.457447052001953,-0.6924972534179688,-0.0,-0.0,-1.0,0.0814293573435153,2.0,0.0
5.963897228240967,20.215641021728516,-0.4770450592041015,-0.0,-0.0,-1.0,0.1706907483877823,2.0,0.0
7.163156986236572,18.860998153686523,-0.6306672096252441,-0.0,-0.0,-1.0,0.1003966364390481,1.0,0.0
7.276279449462891,18.863746643066406,-0.6222586631774902,-0.0,-0.0,-1.0,0.1324795293343164,1.0,0.0
7.468367576599121,18.4999942779541,-0.6796305179595947,-0.0,-0.0,-1.0,0.067834979108601,2.0,0.0
7.622681140899658,19.34590530395508,-0.5060698986053467,-0.0,-0.0,-1.0,0.1544743833923032,2.0,0.0
7.571790218353272,20.19727325439453,-0.8392834663391113,-0.0,-0.0,-1.0,0.0799321216938605,1.0,0.0
5.442878246307373,18.4348087310791,-0.2722287178039551,-0.0,-0.0,-1.0,0.0931863864503792,1.0,0.0
6.544654369354248,20.229537963867188,-0.4219498634338379,-0.0,-0.0,-1.0,0.1037747506365405,2.0,0.0
5.24201774597168,20.59882354736328,-1.0795674324035645,-0.0,-0.0,-1.0,0.0691731717060673,1.0,0.0
5.561029434204102,20.6016845703125,-1.042893409729004,-0.0,-0.0,-1.0,0.0382001977066816,1.0,0.0
5.80584716796875,20.5411376953125,-1.0298101902008057,-0.0,-0.0,-1.0,0.0733218866702369,2.0,0.0
5.969665050506592,20.535655975341797,-1.013704776763916,-0.0,-0.0,-1.0,0.1673835929522231,1.0,0.0
5.220268249511719,19.261756896972656,-0.8227334022521973,-0.0,-0.0,-1.0,0.0471442159815352,1.0,0.0
5.507260322570801,19.26354598999023,-0.7983317375183105,-0.0,-0.0,-1.0,0.0579444761164007,1.0,0.0
5.576593399047852,19.958086013793945,-0.6565992832183838,-0.0,-0.0,-1.0,0.1078573048117086,1.0,0.0
5.881262302398682,19.37072372436523,-0.7468500137329102,-0.0,-0.0,-1.0,0.0258750597277747,1.0,0.0
6.121829986572266,19.39164924621582,-0.7240238189697266,-0.0,-0.0,-1.0,0.0785949942034394,1.0,0.0
5.98336935043335,20.259904861450195,-0.5630760192871094,-0.0,-0.0,-1.0,0.0940357761939982,2.0,0.0
6.292516708374023,19.221263885498047,-0.7456240653991699,-0.0,-0.0,-1.0,0.1044160666803914,1.0,0.0
6.6073899269104,19.05364227294922,-0.7575697898864746,-0.0,-0.0,-1.0,0.0778409104538497,1.0,0.0
6.903388977050781,19.025440216064453,-0.7437765598297119,-0.0,-0.0,-1.0,0.0712671384107707,1.0,0.0
7.50537109375,19.4041748046875,-0.6284811496734619,-0.0,-0.0,-1.0,0.158219150310464,1.0,0.0
7.230738162994385,20.473417282104492,-0.908855676651001,-0.0,-0.0,-1.0,0.1092505045944315,1.0,0.0
7.608166217803955,19.39762306213379,-0.6239709854125977,-0.0,-0.0,-1.0,0.1431945439832207,1.0,0.0
5.258485317230225,18.664810180664062,-0.3689234256744385,-0.0,-0.0,-1.0,0.2722629143674381,2.0,0.0
6.118810176849365,18.444660186767575,-0.3549172878265381,-0.0,-0.0,-1.0,0.1866581950848181,1.0,0.0
6.431424140930176,18.413841247558594,-0.343719482421875,-0.0,-0.0,-1.0,0.0978844767529897,1.0,0.0
6.717761039733887,18.197275161743164,-0.3671283721923828,-0.0,-0.0,-1.0,0.1532112556365794,1.0,0.0
6.8066020011901855,18.265918731689453,-0.3510193824768066,-0.0,-0.0,-1.0,0.1645477211341362,1.0,0.0
6.545652866363525,20.081802368164062,-0.5536441802978516,-0.0,-0.0,-1.0,0.1827071944667519,1.0,0.0
7.316072940826416,19.68991470336914,-0.5804638862609863,-0.0,-0.0,-1.0,0.1427385398016418,1.0,0.0
7.402994632720947,19.767024993896484,-0.5591099262237549,-0.0,-0.0,-1.0,0.085664315090058,1.0,0.0
7.45037317276001,19.63708877563477,-0.5832099914550781,-0.0,-0.0,-1.0,0.1227149557676402,2.0,0.0
6.354304790496826,20.309560775756836,-0.0267479419708251,-0.0,-0.0,-1.0,0.118520531553698,1.0,0.0
6.683598041534424,20.121986389160156,-0.038506269454956,-0.0,-0.0,-1.0,0.2503984827179616,1.0,0.0
5.27021598815918,19.98612403869629,-0.9480547904968262,-0.0,-0.0,-1.0,0.0948444417632535,1.0,0.0
5.210845947265625,18.952861785888672,-0.6370551586151123,-0.0,-0.0,-1.0,0.1440196159814655,1.0,0.0
5.417218208312988,18.84732437133789,-0.6462702751159668,-0.0,-0.0,-1.0,0.1037806493892016,1.0,0.0
5.711143970489502,19.038978576660156,-0.5902256965637207,-0.0,-0.0,-1.0,0.1195262320666928,1.0,0.0
5.515655040740967,18.80773544311523,-0.6487655639648438,-0.0,-0.0,-1.0,0.1303464542064774,1.0,0.0
5.894665241241455,19.05497360229492,-0.5768961906433105,-0.0,-0.0,-1.0,0.130598651318453,1.0,0.0
6.1203932762146,18.805065155029297,-0.6175432205200195,-0.0,-0.0,-1.0,0.069959925579061,1.0,0.0
6.329113960266113,18.779464721679688,-0.6127758026123047,-0.0,-0.0,-1.0,0.1301425963954894,1.0,0.0
6.516290187835693,18.699228286743164,-0.6214163303375244,-0.0,-0.0,-1.0,0.1694775048025374,1.0,0.0
6.981690883636475,18.784217834472656,-0.5841507911682129,-0.0,-0.0,-1.0,0.0822339828210569,1.0,0.0
6.815668106079102,20.347667694091797,-0.7424895763397217,-0.0,-0.0,-1.0,0.1772489793042957,1.0,0.0
7.054654121398926,20.00080680847168,-0.811413049697876,-0.0,-0.0,-1.0,0.1084844322323032,1.0,0.0
7.209341526031494,19.75196075439453,-0.8633627891540527,-0.0,-0.0,-1.0,0.1173775252845596,1.0,0.0
7.310691833496094,18.84334945678711,-0.5594027042388916,-0.0,-0.0,-1.0,0.1650135321538053,2.0,0.0
7.385081291198731,18.515613555908203,-0.6283259391784668,-0.0,-0.0,-1.0,0.0924466881609699,1.0,0.0
7.275302410125732,20.62973976135254,-0.6438980102539062,-0.0,-0.0,-1.0,0.0660135453289401,1.0,0.0
7.36555290222168,19.9857177734375,-0.7967953681945801,-0.0,-0.0,-1.0,0.205806933654756,1.0,0.0
5.903334140777588,20.306827545166016,-0.3202333450317383,-0.0,-0.0,-1.0,0.1754435138328515,1.0,0.0
6.6031012535095215,20.18558883666992,-0.3047912120819092,0.2022512630279926,-0.1608230442415906,-0.966038495632782,0.2014008945668348,5.0,0.0
6.708685398101807,20.012252807617188,-0.3353919982910156,-0.0,-0.0,-1.0,0.2436235079239534,1.0,0.0
7.62403678894043,19.30453872680664,-0.4486415386199951,-0.0,-0.0,-1.0,0.1459623814703828,1.0,0.0
5.448274612426758,18.99295425415039,-0.6894280910491943,-0.0,-0.0,-1.0,0.107381501498259,1.0,0.0
6.064395427703857,18.81574249267578,-0.6769723892211914,-0.0,-0.0,-1.0,0.0321995283116836,1.0,0.0
6.315454483032227,18.713499069213867,-0.6803598403930664,-0.0,-0.0,-1.0,0.1036855778897427,1.0,0.0
6.544740676879883,18.674087524414062,-0.6730039119720459,-0.0,-0.0,-1.0,0.1330903164453258,1.0,0.0
6.7589802742004395,18.66132354736328,-0.6620082855224609,-0.0,-0.0,-1.0,0.0459501561925407,1.0,0.0
7.2297043800354,18.624675750732425,-0.6421239376068115,-0.0,-0.0,-1.0,0.1695514487609392,1.0,0.0
5.903306007385254,20.24269676208496,-0.401796817779541,-0.0,-0.0,-1.0,0.1849004011336996,1.0,0.0
6.537360668182373,20.22284698486328,-0.3520636558532715,0.8236126202710209,0.3362655427831156,-0.4567140642317461,0.1793950733146969,3.0,0.0
6.665384292602539,20.177337646484375,-0.3512697219848633,-0.0,-0.0,-1.0,0.1581741815978169,1.0,0.0
7.634567737579346,18.727256774902344,-0.5982284545898438,-0.0,-0.0,-1.0,0.1389790349496017,1.0,0.0
6.671759128570557,20.238178253173828,0.1203908920288086,0.4093224836458444,0.7394843700892253,-0.5344323818554959,0.2208405411193217,5.0,1.0
5.274557113647461,19.12628936767578,-0.7741873264312744,-0.0,-0.0,-1.0,0.0800327798940858,1.0,0.0
5.543243408203125,19.193012237548828,-0.7316882610321045,-0.0,-0.0,-1.0,0.0791553211915923,1.0,0.0
5.468367576599121,19.869468688964844,-0.6042022705078125,-0.0,-0.0,-1.0,0.1378866084535319,1.0,0.0
5.94051456451416,18.230667114257812,-0.3707811832427978,-0.0,-0.0,-1.0,0.1672634285656837,1.0,0.0
5.959601402282715,20.30549430847168,-0.4621591567993164,-0.2728955646790723,-0.96105276280997,-0.043653154225254,0.1848224005178346,3.0,0.0
6.183964729309082,19.123836517333984,-0.6806004047393799,-0.0,-0.0,-1.0,0.0760502182063507,2.0,0.0
6.293008804321289,18.187732696533203,-0.3539040088653564,-0.0,-0.0,-1.0,0.0829064061668595,1.0,0.0
6.539829730987549,18.82882308959961,-0.710003137588501,-0.0,-0.0,-1.0,0.1251093411048792,1.0,0.0
6.6063232421875,20.18838882446289,-0.4161746501922607,-0.6584145190216335,-0.1194605485075791,-0.7431147276778868,0.1088499846891523,4.0,0.0
7.037134647369385,18.92377662658691,-0.6456348896026611,-0.0,-0.0,-1.0,0.0610295957497316,1.0,0.0
7.245915412902832,19.038795471191406,-0.6028802394866943,-0.0,-0.0,-1.0,0.0951159056730438,1.0,0.0
7.396041393280029,18.731739044189453,-0.6592373847961426,-0.0,-0.0,-1.0,0.1096588402648754,1.0,0.0
7.564045429229736,19.343992233276367,-0.5093648433685303,0.586436081090479,0.3644416931612235,-0.7233774775876162,0.156222158500961,3.0,0.0
7.701443672180176,19.09237289428711,-0.5550003051757812,-0.0,-0.0,-1.0,0.1272544273865698,1.0,0.0
6.658843040466309,18.219022750854492,-0.3237698078155517,-0.0,-0.0,-1.0,0.2016384619675166,1.0,0.0
6.722092151641846,20.12518310546875,0.0319747924804687,0.2535543104850756,-0.9557934905692416,-0.1488926291657938,0.1552117014827286,3.0,1.0
6.667072296142578,20.36634063720703,0.0703635215759277,-0.0,-0.0,-1.0,0.1726650391766036,1.0,1.0
6.8283281326293945,20.19561004638672,0.0529701709747314,-0.0,-0.0,-1.0,0.1983108741542119,2.0,1.0
5.644869804382324,18.387359619140625,-0.5809884071350098,-0.0,-0.0,-1.0,0.1868497698163587,1.0,0.0
6.332938194274902,18.2088680267334,-0.5489647388458252,-0.0,-0.0,-1.0,0.1692414882422458,1.0,0.0
5.726274490356445,18.830177307128903,-0.4891607761383056,-0.0,-0.0,-1.0,0.1712965105746211,2.0,0.0
6.399137496948242,18.701473236083984,-0.4461512565612793,-0.0,-0.0,-1.0,0.2212396239474427,2.0,0.0
6.516840934753418,18.179855346679688,-0.5381338596343994,-0.0,-0.0,-1.0,0.1191143021230178,1.0,0.0
6.7728400230407715,18.255046844482425,-0.5005121231079102,-0.0,-0.0,-1.0,0.2628376255384365,2.0,0.0
7.238945960998535,18.634029388427734,-0.3839969635009765,-0.0,-0.0,-1.0,0.1449391334913838,2.0,0.0
6.51763916015625,20.28379821777344,-0.1360235214233398,-0.0,-0.0,-1.0,0.1381490833679481,1.0,0.0
6.751112937927246,20.270408630371097,-0.1129941940307617,0.6898533487742559,-0.1026038022132978,-0.7166413447159741,0.1588427151056572,4.0,0.0
6.785120964050293,20.035091400146484,-0.1529197692871093,-0.0,-0.0,-1.0,0.1647795776784635,1.0,0.0
5.229865074157715,18.148677825927734,-0.4588868618011474,-0.0,-0.0,-1.0,0.1914125085412429,1.0,0.0
5.616145133972168,18.322452545166016,-0.3836336135864258,-0.0,-0.0,-1.0,0.1279889935474518,1.0,0.0
6.132244110107422,18.400407791137695,-0.3114042282104492,-0.0,-0.0,-1.0,0.1266720211233785,1.0,0.0
6.200104713439941,18.407546997070312,-0.3026230335235595,-0.0,-0.0,-1.0,0.104126036517483,1.0,0.0
6.751708030700684,20.246604919433594,0.0801489353179931,-0.0,-0.0,-1.0,0.2271885133326769,2.0,1.0
5.219025611877441,18.648767471313477,-0.5437159538269043,-0.0,-0.0,-1.0,0.1468403951201317,1.0,0.0
5.426070213317871,19.09923553466797,-0.437140941619873,-0.0,-0.0,-1.0,0.0970717561865497,1.0,0.0
5.635225296020508,18.7879638671875,-0.4599709510803222,-0.0,-0.0,-1.0,0.189918086839975,1.0,0.0
5.671289443969727,18.55685043334961,-0.4954309463500976,-0.0,-0.0,-1.0,0.1801795544389906,1.0,0.0
5.523796081542969,18.25093460083008,-0.5703170299530029,-0.0,-0.0,-1.0,0.1316991148062216,1.0,0.0
6.2841291427612305,18.6334285736084,-0.3974087238311767,-0.0,-0.0,-1.0,0.1946192307337489,1.0,0.0
6.550229072570801,18.23871612548828,-0.4360256195068359,-0.0,-0.0,-1.0,0.1824393375711909,2.0,0.0
6.6074371337890625,20.216880798339844,-0.0758805274963378,-0.0,-0.0,-1.0,0.2573111821127528,2.0,0.0
6.563118934631348,20.137020111083984,-0.0956852436065673,-0.0,-0.0,-1.0,0.2052377512882849,1.0,0.0
6.820420265197754,20.04615592956543,-0.0729713439941406,-0.0,-0.0,-1.0,0.1292693970701394,1.0,0.0
7.266657829284668,18.426856994628903,-0.3101561069488525,-0.0,-0.0,-1.0,0.163036251792647,1.0,0.0
5.370364189147949,18.40929794311523,-0.318681001663208,-0.0,-0.0,-1.0,0.0913220470177113,1.0,0.0
5.738075256347656,18.248985290527344,-0.2882313728332519,-0.0,-0.0,-1.0,0.1743063364028908,1.0,0.0
6.695085525512695,20.412595748901367,0.0209794044494628,-0.0,-0.0,-1.0,0.1775044624973802,2.0,1.0
6.704413414001465,20.2548828125,0.0374476909637451,-0.0,-0.0,-1.0,0.234369786806237,1.0,1.0
7.050636291503906,18.31914520263672,-0.6277170181274414,-0.0,-0.0,-1.0,0.080511451357765,1.0,0.0
5.898624420166016,18.757843017578125,-0.5229086875915527,-0.0,-0.0,-1.0,0.1896972059026654,1.0,0.0
6.633274078369141,20.192930221557617,-0.2050198316574096,-0.0,-0.0,-1.0,0.1883561345227664,2.0,0.0
6.451301574707031,20.22671127319336,-0.4987928867340088,-0.0,-0.0,-1.0,0.2263748356591588,1.0,0.0
7.267711639404297,18.46109390258789,-0.4993932247161865,-0.0,-0.0,-1.0,0.223424928759623,1.0,0.0
5.766429901123047,18.95592880249023,-0.5645461082458496,-0.0,-0.0,-1.0,0.1677010459403546,1.0,0.0
6.873043060302734,18.38471412658691,-0.5215725898742676,0.7259477254385202,0.3059529583425891,0.6159486076062327,0.1249977331779893,3.0,0.0
5.857307434082031,18.80971908569336,-0.5634357929229736,-0.0,-0.0,-1.0,0.2157756501924592,1.0,0.0
6.6537017822265625,20.193864822387695,-0.4293457269668579,-0.3485733708275603,0.2944830896570595,-0.8898181359446121,0.136192779163129,4.0,0.0
5.764381408691406,18.98789978027344,-0.5129643678665161,-0.0,-0.0,-1.0,0.1551266743702569,1.0,0.0
6.853145599365234,18.309356689453125,-0.4766372442245483,-0.6598136010105129,0.7459766419629891,-0.0903596235448276,0.1964532864816857,4.0,0.0
6.724704742431641,18.458709716796875,-0.4787647724151611,-0.0,-0.0,-1.0,0.1198089157998091,2.0,0.0
6.630321502685547,20.163557052612305,-0.4836972951889038,-0.0,-0.0,-1.0,0.2446790489109484,2.0,0.0
5.815021514892578,18.86628532409668,-0.5403245687484741,-0.4943689274794238,-0.8691817109207887,0.0110687372204186,0.2297598027725627,3.0,0.0
6.860870361328125,18.33045768737793,-0.4919629096984863,-0.8916403839070769,0.4297903267729076,0.142329549983401,0.1812780982388749,3.0,0.0
6.744297027587891,18.21283531188965,-0.4993888139724731,-0.0,-0.0,-1.0,0.2077961498876538,1.0,0.0
5.7435455322265625,18.621116638183594,-0.5468298196792603,-0.0,-0.0,-1.0,0.1857810088925183,1.0,0.0
5.8415985107421875,18.88317108154297,-0.6028902530670166,-0.1475047099639756,-0.636280351033786,-0.7572249833614614,0.1594393181097296,3.0,0.0
6.768100738525391,18.27948570251465,-0.5624947547912598,-0.0,-0.0,-1.0,0.1683801749864163,2.0,0.0
6.639619827270508,20.077617645263672,-0.1093313694000244,-0.0,-0.0,-1.0,0.1738996853119924,2.0,0.0
6.613866806030273,20.624555587768555,-0.6734795570373535,0.5885197334753532,0.6375644525841002,0.4971479579674796,0.1665175714266735,3.0,0.0
6.620019912719727,20.15755271911621,-0.2917542457580566,-0.0595800831816462,-0.45023700216035,-0.8909191071998227,0.2417962605065512,3.0,0.0
6.61009407043457,20.17218017578125,-0.3788690567016601,-0.0,-0.0,-1.0,0.1071646288231822,2.0,0.0
5.818992614746094,18.7984619140625,-0.4574217796325683,-0.0,-0.0,-1.0,0.2032790811165151,2.0,0.0
6.607196807861328,20.29772567749023,0.0014666318893432,-0.0,-0.0,-1.0,0.1671993766042112,1.0,1.0
6.643823623657227,20.054370880126953,-0.0045442581176757,-0.0,-0.0,-1.0,0.1636155132725629,1.0,0.0
5.865762710571289,18.87707901000977,-0.495144248008728,-0.0,-0.0,-1.0,0.148657806339072,2.0,0.0
6.575925827026367,18.175342559814453,-0.4612758159637451,-0.2990786023638824,0.789667715523413,0.5357022388119179,0.1219869037330224,3.0,0.0
5.721452713012695,18.70838165283203,-0.509242057800293,-0.0,-0.0,-1.0,0.1435635252156002,2.0,0.0
6.5973968505859375,20.205230712890625,-0.6518770456314087,-0.0,-0.0,-1.0,0.1889509070486018,1.0,0.0
7.646800994873047,19.206571578979492,-0.5668082237243652,-0.0,-0.0,-1.0,0.1082550746183302,1.0,0.0
7.703592300415039,18.95664978027344,-0.5618563890457153,-0.0,-0.0,-1.0,0.1717234710936138,2.0,0.0
7.279336929321289,18.527008056640625,-0.5946524143218994,-0.0,-0.0,-1.0,0.1692162314792707,2.0,0.0
7.1484832763671875,18.470693588256836,-0.6048669815063477,-0.0,-0.0,-1.0,0.1558831805116084,1.0,0.0
6.588735580444336,20.236661911010746,-0.3662096261978149,-0.0,-0.0,-1.0,0.1472872998368441,1.0,0.0
5.852457046508789,18.891454696655273,-0.4448022842407226,-0.0,-0.0,-1.0,0.2273370817154078,1.0,0.0
5.442098617553711,18.66977310180664,-0.4793823957443237,-0.0,-0.0,-1.0,0.1194222389587041,1.0,0.0
6.813470840454102,20.28266334533691,-0.072076678276062,-0.0,-0.0,-1.0,0.1476639593833487,2.0,0.0
6.660148620605469,20.109304428100582,-0.0845861434936523,-0.0,-0.0,-1.0,0.2224756093648585,2.0,0.0
7.460903167724609,19.068849563598633,-0.584984302520752,-0.0,-0.0,-1.0,0.144285785452099,1.0,0.0
7.395179748535156,18.71700096130371,-0.5982778072357178,-0.0,-0.0,-1.0,0.1360589046034795,1.0,0.0
7.318527221679688,18.509605407714844,-0.6099512577056885,-0.0,-0.0,-1.0,0.1394329043001522,2.0,0.0
6.703395843505859,20.193519592285156,0.1133128404617309,-0.0,-0.0,-1.0,0.1774063753429276,2.0,1.0
6.587770462036133,20.21721649169922,-0.2267323732376098,-0.0,-0.0,-1.0,0.2206848447484222,1.0,0.0
6.573894500732422,20.108139038085938,-0.2318319082260131,-0.0,-0.0,-1.0,0.1474364164777588,2.0,0.0
5.256261825561523,18.579444885253903,-0.4002993106842041,0.9567905153148408,-0.2579012891500644,-0.1343087296429235,0.2149162970404603,3.0,0.0
6.629453659057617,20.28313636779785,-0.1591042280197143,-0.0,-0.0,-1.0,0.1505713114775369,2.0,0.0
6.390232086181641,20.12449073791504,-0.1852428913116455,-0.0,-0.0,-1.0,0.1915832221063285,1.0,0.0
6.523571014404297,20.60782814025879,-0.5764132738113403,-0.0,-0.0,-1.0,0.1232080345073089,1.0,0.0
7.595674514770508,19.346750259399418,-0.4823338985443115,-0.0287067089711773,0.9972611270582218,-0.0681628147790948,0.1639495412920097,3.0,0.0
6.193698883056641,18.946582794189453,-0.6405991315841675,-0.0,-0.0,-1.0,0.0843766878775579,2.0,0.0
7.63441276550293,18.919828414916992,-0.4869146347045898,-0.0,-0.0,-1.0,0.1656302820790128,1.0,0.0
7.271282196044922,18.755653381347656,-0.5295190811157227,-0.0,-0.0,-1.0,0.1503086948691321,1.0,0.0
6.972492218017578,18.57291030883789,-0.566014289855957,-0.0,-0.0,-1.0,0.1192271551267724,1.0,0.0
7.294530868530273,18.57514381408691,-0.5313589572906494,-0.0,-0.0,-1.0,0.1319806441220569,1.0,0.0
7.043107986450195,18.29610252380371,-0.5655817985534668,-0.0,-0.0,-1.0,0.1301631182195726,1.0,0.0
6.687036514282227,20.419235229492188,0.0830421447753906,-0.0,-0.0,-1.0,0.1726650391766036,1.0,1.0
6.457790374755859,20.570554733276367,-0.5620167255401611,-0.0,-0.0,-1.0,0.1916922208078823,1.0,0.0
6.596134185791016,20.28274917602539,-0.5460803508758545,0.157769425299272,-0.0153850138007698,-0.9873561210581964,0.159094020717266,5.0,0.0
6.329477310180664,20.413360595703125,-0.5750157833099365,-0.0,-0.0,-1.0,0.2260947678166739,1.0,0.0
5.8131103515625,19.20153427124023,-0.6315547227859497,0.6990775079246345,0.2973981843298563,-0.6502652980677867,0.0418115282029108,3.0,0.0
5.878742218017578,18.937971115112305,-0.6259510517120361,0.835683671102521,-0.4082759833433004,-0.3673465982933212,0.1672133301992514,4.0,0.0
6.782619476318359,18.521099090576172,-0.5305342674255371,-0.0,-0.0,-1.0,0.0989928256245428,2.0,0.0
6.509391784667969,18.651073455810547,-0.559285044670105,-0.0,-0.0,-1.0,0.1752908133024759,1.0,0.0
7.158872604370117,18.60928726196289,-0.4887406826019287,-0.0,-0.0,-1.0,0.2387244686914257,1.0,0.0
6.798952102661133,18.300844192504883,-0.530858039855957,0.7750768940385093,0.4350301780445429,-0.4582625366731948,0.1788599165034575,5.0,0.0
6.616329193115234,20.36183738708496,0.0683345794677734,-0.0,-0.0,-1.0,0.1629992294887799,1.0,1.0
6.713286399841309,20.16507148742676,-0.3177140951156616,-0.0,-0.0,-1.0,0.1349508411388189,2.0,0.0
5.840324401855469,18.892847061157227,-0.39458167552948,-0.0,-0.0,-1.0,0.1964562006651481,1.0,0.0
5.340337753295898,18.56291961669922,-0.4450886249542236,0.0614247910202914,0.8218776235073004,-0.5663427999243084,0.2192451916761115,3.0,0.0
6.356437683105469,18.671127319335938,-0.3432153463363647,-0.0,-0.0,-1.0,0.1964220575983655,2.0,0.0
5.477592468261719,18.174118041992188,-0.4332925081253052,-0.0,-0.0,-1.0,0.1771018358288901,1.0,0.0
6.7061309814453125,20.09274101257324,-0.4733858108520508,-0.0,-0.0,-1.0,0.2338674721536044,1.0,0.0
5.857179641723633,18.998767852783203,-0.5761840343475342,-0.0,-0.0,-1.0,0.1836040209885307,1.0,0.0
5.81407356262207,18.950775146484375,-0.5817523002624512,-0.0,-0.0,-1.0,0.1733306258034173,1.0,0.0
5.905905723571777,18.8680419921875,-0.5718362331390381,-0.0,-0.0,-1.0,0.1673241894739044,2.0,0.0
5.901027679443359,18.734363555908203,-0.5740072727203369,-0.0,-0.0,-1.0,0.1724807525021309,2.0,0.0
6.412749290466309,18.573535919189453,-0.515514612197876,-0.0,-0.0,-1.0,0.2300536513822062,1.0,0.0
6.030961990356445,18.43267822265625,-0.5626989603042603,-0.0,-0.0,-1.0,0.137430074788651,1.0,0.0
6.7086591720581055,18.26061630249023,-0.4848319292068481,-0.0,-0.0,-1.0,0.2478553905304677,1.0,0.0
6.428877830505371,18.22587203979492,-0.5185816287994385,-0.0,-0.0,-1.0,0.1484315232802582,2.0,0.0
6.653270721435547,20.233354568481445,0.0883159637451171,0.8654618914965846,0.2014250456956255,-0.4586977930333532,0.2239940578664198,5.0,1.0
5.82111930847168,20.129180908203125,-0.3416908979415893,-0.0,-0.0,-1.0,0.2275347043313159,1.0,0.0
6.614138603210449,20.046310424804688,-0.2646632194519043,-0.0,-0.0,-1.0,0.1936932946679204,1.0,0.0
6.351816177368164,19.976478576660156,-0.2876009941101074,-0.0,-0.0,-1.0,0.1594824324259215,1.0,0.0
7.703802108764648,18.825172424316406,-0.6393072605133057,-0.0,-0.0,-1.0,0.1479900797380318,2.0,0.0
7.545046806335449,18.544116973876953,-0.6519110202789307,-0.0,-0.0,-1.0,0.0926349910419583,1.0,0.0
7.704939842224121,18.17926788330078,-0.6215875148773193,-0.0,-0.0,-1.0,0.1635987046473315,1.0,0.0
5.887784004211426,19.98077392578125,-0.4896570444107055,-0.0,-0.0,-1.0,0.1631684375466208,1.0,0.0
6.084671974182129,20.015792846679688,-0.4744466543197632,-0.0,-0.0,-1.0,0.1516421416735898,1.0,0.0
5.247744560241699,18.421432495117188,-0.4590375423431396,-0.0,-0.0,-1.0,0.0961566756504892,1.0,0.0
6.56922721862793,20.03042984008789,-0.4326908588409424,-0.0,-0.0,-1.0,0.2188309258447444,1.0,0.0
5.781572341918945,18.69810485839844,-0.4229109287261963,-0.0,-0.0,-1.0,0.1685384778467876,1.0,0.0
7.693562507629395,19.23155975341797,-0.6810885667800903,-0.0,-0.0,-1.0,0.1111313743117573,1.0,0.0
7.535356521606445,19.26274299621582,-0.7004808187484741,-0.0,-0.0,-1.0,0.1032103430326362,1.0,0.0
7.302803993225098,18.712669372558594,-0.6820907592773438,0.9704461628642004,0.0859255544415888,0.2255017606939157,0.1417906425869128,3.0,0.0
7.662945747375488,18.933441162109375,-0.659927487373352,-0.0,-0.0,-1.0,0.1455384873339771,2.0,0.0
7.348966598510742,18.481245040893555,-0.6597849130630493,0.9731573812284172,0.2251519039202848,-0.0476584884539993,0.0844131768342309,3.0,0.0
6.388477325439453,20.590604782104492,-0.3735339641571045,-0.0,-0.0,-1.0,0.1513914901853131,1.0,0.0
6.550256729125977,20.051557540893555,-0.3233493566513061,-0.0,-0.0,-1.0,0.2258190843158044,1.0,0.0
7.511858940124512,18.346046447753903,-0.6317329406738281,-0.0,-0.0,-1.0,0.0482309346546983,2.0,0.0
6.580681800842285,20.115394592285156,0.2256978750228881,-0.0,-0.0,-1.0,0.2226686738884369,1.0,1.0
7.109640121459961,18.62079429626465,-0.7176989316940308,-0.0,-0.0,-1.0,0.1030025843312845,1.0,0.0
6.724457740783691,20.254966735839844,-0.4521358013153076,-0.0,-0.0,-1.0,0.1578813424863909,1.0,0.0
7.388064384460449,18.97382354736328,-0.7593417167663574,-0.0,-0.0,-1.0,0.0842593159453613,1.0,0.0
7.312249183654785,18.70247459411621,-0.7188534736633301,-0.0,-0.0,-1.0,0.1428124456056737,2.0,0.0
7.1529951095581055,18.40430450439453,-0.6801910400390625,-0.0,-0.0,-1.0,0.067515286291171,1.0,0.0
5.455615997314453,18.615325927734375,-0.4691219329833984,-0.0,-0.0,-1.0,0.0996521361028535,1.0,0.0
5.330620765686035,18.265478134155273,-0.4465250968933105,-0.5749706627347252,-0.6454535247464211,-0.5027906964004125,0.205268242617941,3.0,0.0
5.815777778625488,18.94403839111328,-0.4737236499786377,-0.0,-0.0,-1.0,0.1647143502859452,2.0,0.0
6.460572242736816,20.528961181640625,-0.5950261354446411,-0.6079528307887634,0.5080058174319628,0.6101831241448853,0.198278323901119,3.0,0.0
6.365030288696289,20.362850189208984,-0.5828180313110352,-0.0,-0.0,-1.0,0.1942107203513578,2.0,0.0
6.600768089294434,20.63612365722656,-0.5980865955352783,-0.0,-0.0,-1.0,0.1308062207898166,2.0,0.0
6.627347946166992,20.24908447265625,-0.5532660484313965,-0.0,-0.0,-1.0,0.1685673148408425,2.0,0.0
6.714451789855957,18.32376480102539,-0.3479363918304443,-0.0,-0.0,-1.0,0.1937088850022713,2.0,0.0
6.871390342712402,20.281455993652344,0.013862133026123,-0.0,-0.0,-1.0,0.1792905881233744,1.0,1.0
5.558200836181641,18.515403747558594,-0.4670920372009277,-0.0,-0.0,-1.0,0.1499445122130523,1.0,0.0
5.362611770629883,18.24713706970215,-0.4595634937286377,-0.5749706627347252,-0.6454535247464211,-0.5027906964004125,0.231669380134693,3.0,0.0
6.027965545654297,20.260589599609375,-0.5987597703933716,-0.0,-0.0,-1.0,0.0722868216403145,2.0,0.0
6.2778120040893555,18.29066276550293,-0.3899011611938476,-0.0,-0.0,-1.0,0.1466528447935358,2.0,0.0
6.681032180786133,18.36641311645508,-0.3650937080383301,-0.0,-0.0,-1.0,0.196698247583739,1.0,0.0
7.387722969055176,18.594520568847656,-0.332608699798584,-0.0,-0.0,-1.0,0.2047350227760014,1.0,0.0
7.438520431518555,19.59087181091309,-0.5153776407241821,-0.0,-0.0,-1.0,0.1183026355835599,1.0,0.0
6.7772369384765625,20.26012420654297,-0.2876604795455932,-0.0,-0.0,-1.0,0.1669962741867354,1.0,0.0
7.671047210693359,19.602392196655273,-0.5391228199005127,-0.0,-0.0,-1.0,0.0868408858551838,1.0,0.0
5.575237274169922,18.481592178344727,-0.4057885408401489,-0.0,-0.0,-1.0,0.1699830746690685,1.0,0.0
6.757305145263672,20.1971378326416,-0.1750860214233398,-0.0,-0.0,-1.0,0.1816028704801878,1.0,0.0
6.8483734130859375,20.174884796142575,-0.2535990476608276,-0.0,-0.0,-1.0,0.1764864769033,1.0,0.0
6.688026428222656,20.56854248046875,-0.7206424474716187,-0.0,-0.0,-1.0,0.1577676254795767,2.0,0.0
6.509317398071289,20.366743087768555,-0.7183340787887573,-0.0,-0.0,-1.0,0.217135888356162,1.0,0.0
5.984003067016602,18.85575294494629,-0.6656514406204224,-0.0,-0.0,-1.0,0.0789685746234086,1.0,0.0
5.762979507446289,18.40974235534668,-0.653314471244812,-0.0,-0.0,-1.0,0.0987695620501988,1.0,0.0
5.386011123657227,18.187576293945312,-0.6593247652053833,-0.0,-0.0,-1.0,0.1909904022745708,1.0,0.0
6.617063522338867,20.18611717224121,-0.1409610509872436,-0.0,-0.0,-1.0,0.2725544079639753,2.0,0.0
6.510509490966797,20.587162017822266,-0.4786697626113891,-0.1779859847479352,0.8782648629234301,0.443815073862297,0.1011365500615258,4.0,0.0
6.607700347900391,18.172605514526367,-0.3979865312576294,-0.0,-0.0,-1.0,0.14692438327709,2.0,0.0
6.388568878173828,20.301193237304688,-0.4762642383575439,-0.0,-0.0,-1.0,0.1339366727831157,1.0,0.0
5.237514495849609,18.55983543395996,-0.4853547811508178,-0.1490894211418537,0.9346645781254276,-0.3227607022256631,0.1423022335282936,4.0,0.0
7.394168853759766,19.692970275878903,-0.5101865530014038,0.1327786419489464,0.3790992449042697,-0.9157803201397192,0.1011977440532879,3.0,0.0
6.6813201904296875,20.581571578979492,-0.5835798978805542,-0.0,-0.0,-1.0,0.1706259761299752,2.0,0.0
6.727170944213867,20.044313430786133,-0.0933365821838378,-0.0,-0.0,-1.0,0.1992306096388872,2.0,0.0
6.712375640869141,20.251689910888672,0.2211213111877441,-0.0,-0.0,-1.0,0.1771273744709654,1.0,1.0
6.477909088134766,20.45278549194336,-0.6563570499420166,0.9795705066959158,-0.1913886388994982,-0.0617414877671746,0.1720639185126941,3.0,0.0
7.643611907958984,19.25411605834961,-0.5266250371932983,-0.0,-0.0,-1.0,0.1462770107213098,1.0,0.0
6.519384384155273,20.252696990966797,-0.63347327709198,-0.0,-0.0,-1.0,0.2353993142104255,1.0,0.0
6.572702407836914,20.517972946166992,-0.6538187265396118,-0.0,-0.0,-1.0,0.1658262258891617,2.0,0.0
5.723628997802734,18.40850067138672,-0.5144914388656616,-0.0,-0.0,-1.0,0.1630228777692008,1.0,0.0
5.743354797363281,18.772319793701172,-0.5432287454605103,0.6094872826639722,-0.7777178022475095,0.1538839573775988,0.1842713950598224,3.0,0.0
5.3636016845703125,18.196420669555664,-0.5132590532302856,-0.0,-0.0,-1.0,0.2475611286640866,1.0,0.0
5.310842514038086,18.558670043945312,-0.5447765588760376,-0.0,-0.0,-1.0,0.2197874922125365,2.0,0.0
7.449790954589844,19.71752166748047,-0.5496259927749634,-0.0,-0.0,-1.0,0.1037070120161709,2.0,0.0
6.733959197998047,18.331613540649418,-0.4641872644424438,-0.0,-0.0,-1.0,0.2658293861944153,1.0,0.0
6.590240478515625,20.084272384643555,-0.2254282236099243,-0.0,-0.0,-1.0,0.1513555997969276,2.0,0.0
6.645793914794922,20.14102554321289,-0.2284682989120483,-0.0,-0.0,-1.0,0.2119659054329892,2.0,0.0
6.316677093505859,20.078189849853516,-0.2321115732192993,-0.0,-0.0,-1.0,0.174558486820116,1.0,0.0
5.870317459106445,18.83623504638672,-0.4020998477935791,-0.0,-0.0,-1.0,0.2158306208090569,1.0,0.0
5.2400970458984375,18.33608627319336,-0.3958525657653808,-0.0,-0.0,-1.0,0.082967481891688,1.0,0.0
5.3050994873046875,18.52663803100586,-0.4065943956375122,-0.0,-0.0,-1.0,0.1944738713433094,1.0,0.0
