x,y,z,nx,ny,nz,curvature,density,label
17.271623611450195,24.77263641357422,-0.6967921257019043,-0.0,-0.0,-1.0,0.0710117930106402,1.0,0.0
16.786815643310547,24.840179443359375,-0.7553722858428955,-0.0,-0.0,-1.0,0.2157554625126337,2.0,0.0
17.299264907836914,25.15915298461914,-0.7758898735046387,-0.0,-0.0,-1.0,0.1076397421972476,1.0,0.0
15.308685302734377,24.69546890258789,-1.2158571481704712,-0.0,-0.0,-1.0,0.237518195873041,2.0,0.0
15.379356384277344,25.558292388916016,-1.249003529548645,-0.0,-0.0,-1.0,0.1662213061628102,1.0,0.0
15.444831848144531,24.98663330078125,-1.2203341722488403,-0.0,-0.0,-1.0,0.2781275352226943,1.0,0.0
15.370628356933594,24.873769760131836,-1.2198139429092407,-0.4367345942364463,0.3290114346696928,-0.8372660091355179,0.2379380048665701,6.0,0.0
16.376895904541016,23.511873245239254,-1.104481816291809,-0.0,-0.0,-1.0,0.1425693180343201,1.0,0.0
17.200103759765625,23.908103942871097,-1.0725177526474,-0.0,-0.0,-1.0,0.195013305472576,1.0,0.0
15.246219635009766,24.462718963623047,-1.305919528007507,-0.0,-0.0,-1.0,0.165495797848615,2.0,0.0
15.358654022216797,23.35165786743164,-1.276079535484314,-0.0,-0.0,-1.0,0.1261030847783018,1.0,0.0
15.447093963623049,25.42391014099121,-1.31395161151886,-0.0,-0.0,-1.0,0.1312026297619293,1.0,0.0
15.511455535888672,24.927196502685547,-1.298324465751648,-0.0,-0.0,-1.0,0.1936681816499373,2.0,0.0
15.451614379882812,24.740365982055664,-1.298181653022766,-0.0,-0.0,-1.0,0.2094483177722531,2.0,0.0
15.491596221923828,23.717872619628903,-1.2741800546646118,-0.0,-0.0,-1.0,0.1334347765976896,2.0,0.0
16.42315673828125,23.695327758789062,-1.211026310920715,-0.0,-0.0,-1.0,0.1700358410187415,2.0,0.0
16.380355834960938,23.582786560058594,-1.2116323709487915,-0.0,-0.0,-1.0,0.1621631503465438,1.0,0.0
17.211334228515625,23.96552276611328,-1.163833737373352,-0.0,-0.0,-1.0,0.1352810325310844,1.0,0.0
17.422565460205078,25.315082550048828,-1.180925726890564,-0.0,-0.0,-1.0,0.2486262831409747,2.0,0.0
17.521507263183594,23.42456817626953,-1.484588623046875,-0.0,-0.0,-1.0,0.0476473258695558,1.0,0.0
17.25763702392578,23.253875732421875,-1.4991443157196045,-0.0,-0.0,-1.0,0.0248719372912676,2.0,0.0
17.44263458251953,23.532758712768555,-1.4536350965499878,-0.0,-0.0,-1.0,0.0347704018941431,2.0,0.0
17.194782257080078,23.30050277709961,-1.467816948890686,0.7267014369499812,-0.1077256471590215,-0.6784542773680499,0.0253600919497221,3.0,0.0
15.695152282714844,24.951229095458984,-0.8846789598464966,-0.0,-0.0,-1.0,0.2045072137482875,1.0,0.0
15.62517547607422,24.77474594116211,-0.8832870721817017,-0.0,-0.0,-1.0,0.2267089291487465,1.0,0.0
15.42059326171875,24.65733528137207,-0.8908003568649292,-0.0,-0.0,-1.0,0.2444904316652052,2.0,0.0
15.552494049072266,25.47571182250977,-1.0926942825317385,-0.0,-0.0,-1.0,0.1823589080556756,1.0,0.0
15.401748657226562,24.917102813720703,-1.0853631496429443,-0.0,-0.0,-1.0,0.1873988060285089,2.0,0.0
15.629280090332031,24.075944900512695,-1.047987937927246,-0.3564868576458583,-0.9199406137311532,-0.1631759404254528,0.2117767441476712,3.0,0.0
16.419071197509766,23.90556526184082,-0.9960367679595948,-0.7441472000960935,-0.4309258451458478,-0.5104388901469806,0.2646573622911987,5.0,0.0
16.22174835205078,23.197742462158203,-0.9884064197540284,-0.0,-0.0,-1.0,0.2041525776204985,2.0,0.0
17.35151481628418,24.962581634521484,0.829322338104248,-0.0,-0.0,-1.0,0.0680332166729707,1.0,1.0
15.342483520507812,25.57313537597656,0.7868151664733887,-0.0,-0.0,-1.0,0.0761822900558341,1.0,1.0
15.234203338623049,25.352802276611328,0.7783219814300537,-0.0,-0.0,-1.0,0.0724509896496548,1.0,1.0
16.37540054321289,24.491621017456055,0.7896416187286377,-0.0,-0.0,-1.0,0.1509505459570514,1.0,1.0
15.430400848388672,24.612510681152344,0.7649500370025635,-0.0,-0.0,-1.0,0.0842825843386766,1.0,1.0
16.251850128173828,23.83818817138672,0.7682645320892334,-0.0,-0.0,-1.0,0.0578216813470843,1.0,1.0
16.13861656188965,23.75607681274414,0.762502908706665,-0.0,-0.0,-1.0,0.0562841666872988,1.0,1.0
17.596466064453125,25.597888946533203,-1.3605647087097168,-0.0,-0.0,-1.0,0.2535659245501355,1.0,0.0
16.995582580566406,25.49125289916992,-1.4059131145477295,-0.0,-0.0,-1.0,0.1642986279150649,1.0,0.0
17.34288787841797,24.57862663269043,-1.3591997623443604,-0.0,-0.0,-1.0,0.1040917842900581,1.0,0.0
17.006134033203125,24.84682846069336,-1.391561508178711,-0.0,-0.0,-1.0,0.1868017875169292,1.0,0.0
17.270280838012695,24.051265716552734,-1.354475736618042,0.0767097396238349,0.8910106720395389,0.4474545766426938,0.0771273953728602,3.0,0.0
16.973966598510742,24.42066192626953,-1.385512113571167,-0.0,-0.0,-1.0,0.0886921998859605,1.0,0.0
16.413211822509766,25.234872817993164,-1.446842908859253,-0.0,-0.0,-1.0,0.1692695363426251,2.0,0.0
16.849149703979492,23.9038143157959,-1.385413408279419,-0.0,-0.0,-1.0,0.0808937977105781,2.0,0.0
16.854433059692383,24.025917053222656,-1.3873393535614014,-0.0657757285455206,-0.0103191561165335,-0.9977810724559514,0.1224696547329604,4.0,0.0
16.014789581298828,25.00933074951172,-1.4740314483642578,-0.0,-0.0,-1.0,0.0419236408662302,1.0,0.0
16.72956085205078,23.64818572998047,-1.3901984691619873,0.8000431103896803,0.5531113143400146,-0.2323766241838177,0.0656008167181988,3.0,0.0
16.563365936279297,23.335832595825195,-1.397810697555542,-0.0,-0.0,-1.0,0.1681050176934452,1.0,0.0
15.55390167236328,25.323043823242188,-1.1814310550689695,-0.0,-0.0,-1.0,0.2011536926313319,2.0,0.0
15.473211288452148,25.033653259277344,-1.186466932296753,-0.0,-0.0,-1.0,0.1708102851395988,2.0,0.0
16.473440170288086,23.841978073120117,-1.103280544281006,-0.0,-0.0,-1.0,0.1396365165199283,2.0,0.0
15.368267059326172,24.573467254638672,-1.1929073333740234,-0.0,-0.0,-1.0,0.1700595551578282,1.0,0.0
15.328166961669922,24.779016494750977,-1.1968307495117188,-0.4893359603650434,0.6004767113589237,-0.6324381685265307,0.2635855192664056,5.0,0.0
16.24293327331543,23.26518440246582,-1.1199603080749512,-0.0,-0.0,-1.0,0.1931525646500871,2.0,0.0
15.507667541503906,23.96001243591309,-1.1799402236938477,-0.0,-0.0,-1.0,0.2169735962151366,1.0,0.0
16.163625717163086,23.173583984375,-1.1260557174682615,0.1954929319429394,-0.9572120605494148,0.2133719398119083,0.2096616934172488,5.0,0.0
15.330574035644531,24.902202606201172,-0.873604416847229,-0.763734158099588,-0.602576618911611,0.231541689751468,0.2276260949385949,4.0,0.0
15.529483795166016,24.761173248291016,-0.8593360185623169,-0.0,-0.0,-1.0,0.2354657919488464,1.0,0.0
15.553997039794922,24.02706527709961,-0.8596576452255249,-0.0,-0.0,-1.0,0.1640918483172834,1.0,0.0
16.116785049438477,23.359134674072266,-0.8213413953781128,-0.0,-0.0,-1.0,0.1510303804937061,1.0,0.0
15.368537902832031,25.202423095703125,-1.0509216785430908,-0.0,-0.0,-1.0,0.1482345751462315,1.0,0.0
15.40247917175293,24.822362899780273,-1.050809621810913,0.371637854483451,-0.8052598676961223,0.4619976737960491,0.1765103014100675,4.0,0.0
15.336956024169922,25.02910614013672,-1.054743766784668,-0.0,-0.0,-1.0,0.1927347422823012,1.0,0.0
15.222341537475586,24.715797424316406,-1.0665452480316162,-0.0,-0.0,-1.0,0.1300827489277405,2.0,0.0
16.393360137939453,23.95454788208008,-0.9752466678619384,-0.0,-0.0,-1.0,0.1770881728332593,2.0,0.0
16.3365478515625,23.86255645751953,-0.9807195663452148,-0.0,-0.0,-1.0,0.2579294576211565,2.0,0.0
15.27275848388672,25.128101348876953,-0.9177404642105104,-0.0,-0.0,-1.0,0.1963133461406646,2.0,0.0
15.408550262451172,24.787857055664062,-0.9109147787094116,0.4460517290281292,-0.538846800562894,-0.7146201652305574,0.2012239592409211,6.0,0.0
17.307811737060547,24.542461395263672,-0.7549430131912231,-0.0,-0.0,-1.0,0.0882296052171322,2.0,0.0
15.505859375,24.85705184936523,-0.90180504322052,0.7315846679908382,0.1238192867783696,-0.6704123043190887,0.2670681918016869,3.0,0.0
15.455568313598633,25.545997619628903,-1.0211979150772097,-0.0,-0.0,-1.0,0.1419029782422055,1.0,0.0
15.507665634155272,25.224353790283203,-1.0145498514175415,-0.0,-0.0,-1.0,0.1930828441640351,1.0,0.0
15.297866821289062,24.87237548828125,-1.02961003780365,0.0335067736717894,-0.4856446748560368,-0.8735139071028473,0.2243504291980148,5.0,0.0
16.30986213684082,23.86310386657715,-0.9391592741012572,-0.8396692050908183,0.0586577323057702,-0.5399211946783509,0.1667155628805517,3.0,0.0
16.796085357666016,24.86880111694336,-0.730976939201355,-0.4121474556013442,0.6646537987511826,-0.6231932305849931,0.2044014377430409,3.0,0.0
15.659137725830078,25.06114959716797,-0.8237501382827759,-0.0,-0.0,-1.0,0.1137740506506305,2.0,0.0
15.393587112426758,24.907564163208008,-0.8446954488754272,-0.0,-0.0,-1.0,0.2177108860420613,2.0,0.0
16.24506950378418,23.359542846679688,-0.7711294889450073,-0.0,-0.0,-1.0,0.0725169102999031,2.0,0.0
15.958101272583008,23.36787223815918,-0.7946733236312866,-0.0,-0.0,-1.0,0.1891996019507866,1.0,0.0
17.488574981689453,23.26607131958008,-1.5937565565109253,-0.0,-0.0,-1.0,0.0442752224013077,1.0,0.0
15.477424621582031,24.979503631591797,-0.904037594795227,-0.7886319516026327,-0.0525451094644504,-0.6126162390785862,0.207997669731452,3.0,0.0
15.515462875366213,24.81005859375,-0.900004506111145,0.7983779546248806,0.1407231766674103,-0.5854823901003555,0.1650054263461854,3.0,0.0
15.60179328918457,24.11294174194336,-0.8902229070663452,-0.0,-0.0,-1.0,0.2114730940350979,2.0,0.0
16.423057556152344,23.291765213012695,-0.8164995908737183,-0.0,-0.0,-1.0,0.1036179061536785,2.0,0.0
17.297300338745117,25.14376449584961,-0.8481899499893188,-0.5532553179483554,0.2828105221041506,-0.7835347865596279,0.1660106640378909,4.0,0.0
15.496665954589844,25.468280792236328,-1.025265097618103,-0.0,-0.0,-1.0,0.1386831454072895,1.0,0.0
17.250886917114258,24.409852981567383,-0.8547428846359253,-0.7169749702433084,0.5984479075415252,0.3575010405632091,0.1726919509650328,4.0,0.0
15.578502655029297,25.077457427978516,-1.0185288190841677,-0.0,-0.0,-1.0,0.1806657128997698,1.0,0.0
15.363317489624023,25.07952880859375,-1.0399585962295532,-0.0,-0.0,-1.0,0.1873292619052023,1.0,0.0
15.463953018188477,24.83417701721191,-1.0310438871383667,-0.0,-0.0,-1.0,0.1906855766507799,2.0,0.0
15.304271697998049,24.779632568359375,-1.0473209619522097,-0.0,-0.0,-1.0,0.24515539340966,1.0,0.0
16.48090362548828,23.906063079833984,-0.934301495552063,-0.0,-0.0,-1.0,0.1701005386322543,1.0,0.0
15.594533920288086,24.08485984802246,-1.0223387479782104,-0.4253604320449724,-0.2428465433455623,-0.8718337337105203,0.2159053874225328,5.0,0.0
15.455665588378906,24.044775009155273,-1.0366235971450806,-0.6168170847537395,-0.7538494696557879,0.226379462530472,0.1990173227394179,6.0,0.0
17.298524856567383,25.15341567993164,-1.1156550645828247,0.8686557855331797,-0.3569519060023263,0.3435439754398862,0.2326600925444397,3.0,0.0
16.483631134033203,25.42205047607422,-1.2093151807785034,-0.0,-0.0,-1.0,0.1350117005937317,2.0,0.0
16.837677001953125,24.731426239013672,-1.1629592180252075,-0.0,-0.0,-1.0,0.108922533605882,1.0,0.0
15.57418441772461,25.42831802368164,-1.311057209968567,-0.0,-0.0,-1.0,0.1990589137319968,2.0,0.0
17.273590087890625,24.3028564453125,-1.1102555990219116,-0.0,-0.0,-1.0,0.2084799484755505,2.0,0.0
16.825977325439453,24.645307540893555,-1.1635102033615112,-0.580518655463923,-0.4441575046219285,-0.6824384234100397,0.1793477786820868,4.0,0.0
15.335351943969728,24.913753509521484,-1.3336249589920044,-0.0,-0.0,-1.0,0.1925692483127631,1.0,0.0
16.457265853881836,24.042572021484375,-1.200600028038025,-0.0,-0.0,-1.0,0.1969536376089914,2.0,0.0
15.598024368286133,24.65248107910156,-1.3020302057266235,-0.0,-0.0,-1.0,0.208476650057124,1.0,0.0
15.259321212768556,24.707019805908203,-1.3407458066940308,-0.0,-0.0,-1.0,0.193567799130401,2.0,0.0
16.502418518066406,23.887514114379883,-1.1945170164108276,-0.0,-0.0,-1.0,0.2091494780057646,1.0,0.0
16.440975189208984,23.823659896850582,-1.2011319398880005,-0.9433565432333944,-0.1680621270598661,0.2860656459396239,0.1760401706775345,3.0,0.0
15.68959617614746,23.86427116394043,-1.286941647529602,-0.0,-0.0,-1.0,0.2363329877553116,2.0,0.0
15.500638961791992,24.082080841064453,-1.30958092212677,-0.0,-0.0,-1.0,0.2267070582651118,1.0,0.0
16.510791778564453,23.34807586669922,-1.1908279657363892,-0.0,-0.0,-1.0,0.1100621758979733,1.0,0.0
16.293357849121094,23.25806427001953,-1.2153431177139282,-0.1372588861943666,-0.808279217304373,-0.5725772480936633,0.1855998694986939,3.0,0.0
15.566755294799805,23.729732513427734,-1.3003629446029663,-0.0,-0.0,-1.0,0.2436893755038857,1.0,0.0
16.1790828704834,23.169574737548828,-1.2281404733657837,-0.463497062053445,-0.8678029172329893,0.1791328286767624,0.1706938427628656,3.0,0.0
16.46830177307129,25.54452133178711,-0.9896352291107178,-0.0,-0.0,-1.0,0.1084483685636535,2.0,0.0
15.603612899780272,25.41928482055664,-1.076331615447998,-0.0,-0.0,-1.0,0.1459718025334117,1.0,0.0
15.56985092163086,25.12441062927246,-1.075268030166626,0.2568147259488201,0.2600586223929729,-0.9308145408484448,0.228016187740721,4.0,0.0
15.33720588684082,24.86691665649414,-1.0956933498382568,0.1124778133608579,-0.4192630184752758,-0.9008702808065993,0.2258461746895773,3.0,0.0
15.412012100219728,24.04162216186523,-1.077364444732666,-0.994614002934399,0.0990416540848223,0.0305570928419855,0.2138805906149651,4.0,0.0
17.372737884521484,25.34711265563965,-0.8937950134277344,0.5339380572922211,0.8379515598088247,-0.1129040937653132,0.1194519897882409,4.0,0.0
17.178865432739258,24.304956436157227,-0.8963789939880371,-0.8925222167333969,-0.2073629658054128,0.4005055468400982,0.1952389154305463,5.0,0.0
16.45145606994629,23.946922302246097,-0.9672260284423828,-0.0,-0.0,-1.0,0.1757280515007482,1.0,0.0
16.16417121887207,23.164749145507812,-0.9887533187866212,-0.0,-0.0,-1.0,0.1448961252410109,1.0,0.0
17.04804229736328,25.611196517944336,-1.4313924312591553,-0.0,-0.0,-1.0,0.095981902499123,2.0,0.0
16.794641494750977,25.61773681640625,-1.4639332294464111,-0.0,-0.0,-1.0,0.0776333471038172,1.0,0.0
16.5700740814209,25.39538955688477,-1.4866001605987549,-0.0,-0.0,-1.0,0.2518152362036818,2.0,0.0
17.488367080688477,24.692176818847656,-1.349740743637085,-0.0,-0.0,-1.0,0.0947115384706502,2.0,0.0
17.231487274169922,24.684179306030273,-1.3827803134918213,-0.0,-0.0,-1.0,0.0457443892327165,1.0,0.0
17.377674102783203,24.22157859802246,-1.3525097370147705,0.2908110741186774,-0.8546773276977464,-0.4300646285029495,0.1221093243639269,3.0,0.0
17.28447914123535,24.391620635986328,-1.368673324584961,-0.0,-0.0,-1.0,0.1877143485388593,1.0,0.0
17.3156795501709,24.048450469970703,-1.3566527366638184,-0.0,-0.0,-1.0,0.0949276948187968,2.0,0.0
17.137067794799805,23.889171600341797,-1.3766169548034668,-0.0,-0.0,-1.0,0.0529698925445248,2.0,0.0
16.983579635620117,23.579166412353516,-1.3905842304229736,-0.0,-0.0,-1.0,0.057790822598317,1.0,0.0
16.828903198242188,23.18191909790039,-1.4038560390472412,-0.0,-0.0,-1.0,0.0839763173065573,1.0,0.0
15.666284561157228,25.025890350341797,-0.7862868309020996,-0.0,-0.0,-1.0,0.1010879726344477,1.0,0.0
15.492544174194336,24.794544219970703,-0.8016700744628906,-0.0,-0.0,-1.0,0.2873644007426529,2.0,0.0
15.229127883911133,24.843036651611328,-0.8281207084655762,-0.0,-0.0,-1.0,0.1350105531575192,2.0,0.0
16.431577682495117,24.06267547607422,-0.7036616802215576,-0.0,-0.0,-1.0,0.0415106478222515,1.0,0.0
16.24104881286621,23.897565841674805,-0.7216815948486328,0.157913121116079,-0.382334588719503,-0.9104305072041838,0.1258843217545463,4.0,0.0
15.516910552978516,24.12963104248047,-0.7951755523681641,-0.3381611514860111,-0.7913268703143221,0.5093611881015232,0.1551030912321339,3.0,0.0
16.103649139404297,23.216632843017575,-0.7326767444610596,-0.0,-0.0,-1.0,0.1708309592953985,1.0,0.0
16.51699447631836,25.461769104003903,-1.190318584442139,-0.0,-0.0,-1.0,0.1293101935870238,1.0,0.0
15.633451461791992,25.33054542541504,-1.287285089492798,-0.0,-0.0,-1.0,0.2627424368167963,2.0,0.0
16.963176727294922,24.570106506347656,-1.1107258796691897,-0.0,-0.0,-1.0,0.1464841461776076,1.0,0.0
15.462459564208984,25.06948471069336,-1.2992520332336426,-0.0,-0.0,-1.0,0.154769618683645,1.0,0.0
15.291532516479492,24.76708221435547,-1.3105642795562744,-0.0,-0.0,-1.0,0.2158265964242008,2.0,0.0
16.472566604614258,23.853506088256836,-1.1478137969970703,-0.8979734385603828,-0.1092932058381113,0.4262613034251065,0.1723919848120926,5.0,0.0
16.425525665283203,23.872692108154297,-1.153825044631958,-0.5755534385703663,0.8174243306484663,0.0235733538923543,0.1906701277152655,6.0,0.0
15.52406120300293,24.0791015625,-1.2652685642242432,-0.0,-0.0,-1.0,0.2139955016551334,2.0,0.0
15.579317092895508,23.766082763671875,-1.251194953918457,0.8821315468818827,0.4665467231152144,-0.0646381400276344,0.2112892259816904,3.0,0.0
15.415731430053713,23.99959945678711,-1.2761247158050537,-0.0,-0.0,-1.0,0.2200484816023274,2.0,0.0
16.338607788085938,23.286394119262695,-1.149954080581665,-0.1808291088594945,-0.3840601601630319,-0.9054273172180234,0.1805752601160904,4.0,0.0
16.183834075927734,23.19723892211914,-1.1664297580718994,-0.2484936876356469,-0.3969420232433155,-0.8835654573311142,0.2215144560073771,5.0,0.0
16.073368072509766,23.229557037353516,-0.4516764879226684,0.2039114162917077,0.8811361281670962,-0.4266371502162096,0.160187362828171,5.0,0.0
16.505680084228516,25.37897491455078,-1.121187448501587,-0.0,-0.0,-1.0,0.1034909597231719,1.0,0.0
15.546560287475586,25.272056579589844,-1.2343740463256836,-0.0,-0.0,-1.0,0.2099600362215035,2.0,0.0
15.398326873779297,24.952438354492188,-1.243415355682373,-0.0,-0.0,-1.0,0.2682034251642729,2.0,0.0
15.284502029418944,24.68614196777344,-1.2502448558807373,-0.0,-0.0,-1.0,0.2280001982479061,2.0,0.0
16.404539108276367,23.91598892211914,-1.0913925170898438,-0.7760264420453917,-0.2685177381194046,-0.5706848390851199,0.2146515460739562,4.0,0.0
15.440034866333008,24.014915466308594,-1.2142319679260254,-0.0,-0.0,-1.0,0.1655978675427206,2.0,0.0
16.139986038208008,23.25299835205078,-1.1092875003814695,-0.740360540514126,-0.3183062178158777,-0.5920704533663057,0.2591792731725864,5.0,0.0
16.84783363342285,24.639381408691406,-1.056598424911499,-0.8245378088147114,0.4066991222630239,0.3933614442030641,0.0999087247868592,3.0,0.0
16.46137237548828,23.88936233520508,-1.0836801528930664,-0.0,-0.0,-1.0,0.1904556199895893,2.0,0.0
16.329343795776367,23.241859436035156,-1.085151433944702,-0.0,-0.0,-1.0,0.1981775101614402,2.0,0.0
15.728328704833984,25.575336456298828,-1.4500362873077393,-0.0,-0.0,-1.0,0.2019310857609733,1.0,0.0
15.843938827514648,25.202375411987305,-1.4248225688934326,-0.0,-0.0,-1.0,0.1261759398508301,1.0,0.0
15.815929412841797,24.869380950927734,-1.4220149517059326,-0.0,-0.0,-1.0,0.1345013881515312,1.0,0.0
17.23386001586914,25.226964950561523,-1.2228844165802002,-0.0,-0.0,-1.0,0.1710758995787718,2.0,0.0
17.18401336669922,25.402240753173828,-1.2346150875091553,-0.0,-0.0,-1.0,0.0945868342865356,2.0,0.0
16.517553329467773,25.40762710571289,-1.3311760425567627,-0.2444202686268818,0.8014556201663954,-0.5458274646699827,0.1846271116964539,3.0,0.0
16.977767944335938,25.00117874145508,-1.2544887065887451,-0.0,-0.0,-1.0,0.0688806759293474,1.0,0.0
17.2601375579834,24.233570098876953,-1.1961991786956787,-0.3791416663655577,-0.9215197935810756,0.0839813483092526,0.220522826052568,4.0,0.0
16.87473487854004,24.65221786499023,-1.2616631984710691,-0.0,-0.0,-1.0,0.1638505310398273,1.0,0.0
16.147445678710938,24.549388885498047,-1.3667738437652588,-0.0,-0.0,-1.0,0.0855605433999123,1.0,0.0
17.11969757080078,24.129310607910156,-1.2148444652557373,0.8784842589949209,-0.4701570636443294,0.0849572963522653,0.1758656096115437,3.0,0.0
16.536983489990234,23.99131774902344,-1.2988064289093018,-0.0,-0.0,-1.0,0.1007057515661498,1.0,0.0
16.25322723388672,24.311689376831055,-1.346684217453003,-0.0,-0.0,-1.0,0.10333121432437,2.0,0.0
16.468828201293945,23.761743545532227,-1.3052504062652588,-0.0,-0.0,-1.0,0.2271322456456601,1.0,0.0
16.314830780029297,23.77403259277344,-1.3284642696380615,-0.0,-0.0,-1.0,0.2148607381424799,1.0,0.0
16.343124389648438,23.513423919677734,-1.3203859329223633,-0.0,-0.0,-1.0,0.0851393112961901,1.0,0.0
16.239986419677734,23.38498306274414,-1.334178447723389,-0.0,-0.0,-1.0,0.1835661871913283,2.0,0.0
16.236164093017578,23.175756454467773,-1.332146167755127,0.4436008963190034,-0.8774871078122825,0.182303648916341,0.141746889847492,8.0,0.0
15.499650955200195,24.88064193725586,-0.7666287422180176,-0.0,-0.0,-1.0,0.1501876326083764,1.0,0.0
16.264347076416016,23.94598388671875,-0.6751124858856201,-0.0,-0.0,-1.0,0.1186781519055887,2.0,0.0
15.502391815185549,24.15542984008789,-0.7647342681884766,-0.3381611514860111,-0.7913268703143221,0.5093611881015232,0.1361540157815598,3.0,0.0
16.3283748626709,23.385950088500977,-0.6673749685287476,-0.0,-0.0,-1.0,0.1705442060015346,2.0,0.0
17.107650756835938,25.587318420410156,-1.5202149152755735,-0.0,-0.0,-1.0,0.1141076371434443,1.0,0.0
17.40365982055664,25.510066986083984,-1.470553994178772,-0.0,-0.0,-1.0,0.2388471325811956,1.0,0.0
17.559223175048828,24.572654724121097,-1.3968418836593628,-0.0,-0.0,-1.0,0.1074046206528021,1.0,0.0
17.494487762451172,24.15411949157715,-1.3867393732070925,0.2291680637048543,-0.9411655631277812,0.2483734715305429,0.1289882715364564,3.0,0.0
17.343212127685547,23.807775497436523,-1.395184874534607,-0.0,-0.0,-1.0,0.0474290399729086,2.0,0.0
17.180490493774414,23.629627227783203,-1.413650631904602,-0.0,-0.0,-1.0,0.0399130399531464,1.0,0.0
17.025157928466797,23.501144409179688,-1.4335235357284546,-0.0,-0.0,-1.0,0.0704216076475475,1.0,0.0
16.952537536621094,23.1898250579834,-1.4332317113876345,-0.0,-0.0,-1.0,0.0323726144689406,1.0,0.0
17.286636352539062,25.38666725158691,-0.8597630262374878,-0.0,-0.0,-1.0,0.0971810543148618,1.0,0.0
15.48944091796875,25.484216690063477,-1.0874234437942505,-0.0,-0.0,-1.0,0.173569324900166,1.0,0.0
17.010751724243164,24.568857192993164,-0.8667796850204468,-0.0,-0.0,-1.0,0.0818339450937002,1.0,0.0
15.566373825073242,25.16796112060547,-1.068015217781067,-0.5903526205802415,0.0865119565474493,-0.8024957724177577,0.212562167144817,3.0,0.0
15.384502410888672,25.017417907714844,-1.0867363214492798,-0.0,-0.0,-1.0,0.2130027896298746,2.0,0.0
15.246295928955078,24.828195571899418,-1.0991240739822388,-0.0,-0.0,-1.0,0.1461675132011267,1.0,0.0
16.45836639404297,24.039159774780273,-0.9220815896987916,-0.0,-0.0,-1.0,0.0900821393731498,2.0,0.0
16.283010482788086,23.92374038696289,-0.9417318105697632,-0.2136546448474779,0.1024204327887835,-0.9715254745411755,0.1688302768100311,3.0,0.0
15.582347869873049,24.118152618408203,-1.0373305082321167,-0.0,-0.0,-1.0,0.2421496511353876,2.0,0.0
15.40011215209961,24.065643310546875,-1.0597385168075562,-0.9213685820515908,-0.2226741451202858,-0.3185846215735952,0.1596568210344264,3.0,0.0
16.29240608215332,23.309494018554688,-0.9260574579238892,-0.0,-0.0,-1.0,0.1420169663504585,2.0,0.0
17.601001739501953,23.507936477661133,-1.4704806804656982,-0.0,-0.0,-1.0,0.0323169419529008,1.0,0.0
17.39022445678711,23.236587524414062,-1.4870877265930176,-0.0,-0.0,-1.0,0.0864668364177316,2.0,0.0
17.29244613647461,25.339427947998047,-1.072221279144287,-0.1377277884453961,0.4796555874323079,-0.866580390809132,0.1656789541593985,4.0,0.0
16.442893981933594,25.531837463378903,-1.1945700645446775,-0.0,-0.0,-1.0,0.1201470675711429,1.0,0.0
15.513489723205566,25.1934757232666,-1.2991125583648682,-0.0,-0.0,-1.0,0.1068797986107964,1.0,0.0
16.84566879272461,24.667388916015625,-1.0900933742523191,0.269301249573577,-0.7301717178592356,-0.6279538991172862,0.1176187528518391,3.0,0.0
15.439346313476562,24.986373901367188,-1.2974650859832764,-0.0,-0.0,-1.0,0.2119091565663125,2.0,0.0
16.537914276123047,24.081214904785156,-1.1002459526062012,-0.0,-0.0,-1.0,0.1400965443656903,1.0,0.0
15.529342651367188,24.688804626464844,-1.269043207168579,-0.0,-0.0,-1.0,0.192583381764077,2.0,0.0
16.450714111328125,23.964828491210938,-1.105862379074097,-0.0,-0.0,-1.0,0.1779018452708097,2.0,0.0
15.513870239257812,24.07711410522461,-1.2391045093536377,-0.5967374952882233,-0.7928736531057395,0.1235140960696276,0.2032036089790071,4.0,0.0
15.57949447631836,23.77079200744629,-1.2147836685180664,0.7859638205795162,0.1838819452379999,-0.5902950981971128,0.2112892259816904,4.0,0.0
16.151416778564453,23.17876434326172,-1.1074581146240234,0.4141737678831022,-0.9095507623442636,-0.034314730313431,0.2202052989345062,4.0,0.0
17.367856979370117,24.29722785949707,-0.9994678497314452,-0.0,-0.0,-1.0,0.1787980832000084,1.0,0.0
17.5302677154541,24.142913818359375,-0.969041347503662,-0.3078488479074597,-0.7495462629977128,0.5860115071124574,0.235774577575924,3.0,0.0
16.33563804626465,23.28177261352539,-1.0869715213775637,0.8096485061338289,-0.1535126927580909,-0.5664831415650597,0.2086314778504447,3.0,0.0
15.221709251403809,25.28173828125,-0.699821949005127,-0.0,-0.0,-1.0,0.0726899759796261,2.0,0.0
15.40943717956543,24.890037536621097,-0.6654520034790039,-0.917893083076088,-0.2662137839716645,0.2942830427744031,0.10645555068322,4.0,0.0
16.240558624267578,23.903732299804688,-0.5428565740585327,0.8155214709077985,-0.5759053708681776,-0.0570765651871877,0.0916618549242502,3.0,0.0
17.4294376373291,25.60451889038086,-1.2216874361038208,-0.0,-0.0,-1.0,0.1408445559516905,1.0,0.0
17.325279235839844,25.27593994140625,-1.215572714805603,-0.0,-0.0,-1.0,0.2164369307974128,1.0,0.0
17.09412384033203,25.4813232421875,-1.263919711112976,-0.0,-0.0,-1.0,0.1556523544237439,1.0,0.0
16.684463500976562,25.42880630493164,-1.3230077028274536,-0.0,-0.0,-1.0,0.1507476789867486,1.0,0.0
15.822223663330078,25.547807693481445,-1.463239312171936,-0.0,-0.0,-1.0,0.1955572644197685,1.0,0.0
17.072750091552734,24.971424102783203,-1.2350393533706665,-0.6252950218876541,0.7533126464840774,-0.2037797640828799,0.0786172217127316,3.0,0.0
15.728805541992188,25.12839126586914,-1.4534865617752075,-0.0,-0.0,-1.0,0.1893812928113013,2.0,0.0
16.902442932128906,24.697345733642575,-1.2450212240219116,-0.0,-0.0,-1.0,0.1795709514470882,1.0,0.0
15.719971656799316,24.800657272338867,-1.43683922290802,-0.0,-0.0,-1.0,0.1475395887130983,1.0,0.0
16.564239501953125,24.02672004699707,-1.2614279985427856,-0.0,-0.0,-1.0,0.184061712443518,1.0,0.0
15.766494750976562,24.153610229492188,-1.3958779573440552,-0.0,-0.0,-1.0,0.1112486871592012,1.0,0.0
16.549489974975586,23.942602157592773,-1.2594629526138306,-0.0,-0.0,-1.0,0.1535284673466892,2.0,0.0
16.487607955932617,23.855472564697266,-1.264983296394348,-0.0,-0.0,-1.0,0.2074008843251344,1.0,0.0
15.800152778625488,23.964012145996097,-1.381240963935852,-0.0,-0.0,-1.0,0.0759968669706476,1.0,0.0
16.49359893798828,23.372228622436523,-1.2408064603805542,-0.8408229021046094,-0.3792170306277107,-0.3862787736574253,0.2086262062291996,3.0,0.0
16.268775939941406,23.351696014404297,-1.2764970064163208,-0.0,-0.0,-1.0,0.1545892888391216,1.0,0.0
15.770415306091309,23.705095291137695,-1.373848557472229,-0.0,-0.0,-1.0,0.1028267654121769,1.0,0.0
16.210981369018555,23.187341690063477,-1.2786225080490112,0.6204951126029588,-0.1185800365072878,-0.7751932598892822,0.1717066830836447,5.0,0.0
15.636530876159668,23.189197540283203,-1.3734170198440552,-0.0,-0.0,-1.0,0.0904835836143646,1.0,0.0
15.640257835388184,25.097864151000977,-0.8681544065475464,-0.8985398628392541,0.4306004408145907,0.0849080400144477,0.1086033562488386,3.0,0.0
15.331313133239746,25.149917602539062,-0.9093257188796996,-0.0,-0.0,-1.0,0.1965871203023758,1.0,0.0
17.41506004333496,24.257259368896484,-1.139445424079895,-0.4119682141002906,0.4780661240593402,-0.7757157801655814,0.2089131036755923,5.0,0.0
17.364931106567383,24.286731719970703,-1.148997187614441,0.4208427509486637,-0.3149255141251409,-0.8507134062226694,0.2548593281058999,5.0,0.0
15.564160346984863,24.873306274414062,-0.8695288896560669,-0.0,-0.0,-1.0,0.2285965522431436,2.0,0.0
17.185993194580078,24.159523010253903,-1.1698814630508425,-0.0,-0.0,-1.0,0.2058983852455402,1.0,0.0
15.622262001037598,24.148740768432617,-0.8371938467025757,-0.0,-0.0,-1.0,0.158273959535839,1.0,0.0
17.169849395751953,24.453203201293945,-0.6501734256744385,-0.0,-0.0,-1.0,0.0541155890259762,1.0,0.0
16.386280059814453,23.379364013671875,-0.7135679721832275,-0.2833684505041147,0.3615622377122542,-0.8882426861615044,0.1524242997783424,6.0,0.0
16.922264099121094,25.278972625732425,-1.528316617012024,-0.0,-0.0,-1.0,0.1230077295901729,2.0,0.0
17.370731353759766,25.139328002929688,-1.4396780729293823,-0.0,-0.0,-1.0,0.2201145945456001,1.0,0.0
16.532377243041992,25.45667266845703,-1.0636593103408811,-0.0,-0.0,-1.0,0.0973076053324365,2.0,0.0
15.720913887023926,25.32242202758789,-1.1708701848983765,-0.0,-0.0,-1.0,0.228306769250564,1.0,0.0
15.502461433410645,25.336660385131836,-1.2034136056900024,-0.0,-0.0,-1.0,0.109700781602626,1.0,0.0
17.298748016357422,24.755184173583984,-1.4176594018936155,-0.0,-0.0,-1.0,0.0598509481780718,1.0,0.0
15.544488906860352,25.142406463623047,-1.185311198234558,-0.4844258576057508,-0.843790580202861,0.2309741224549884,0.1951219744399135,3.0,0.0
15.436490058898926,25.064849853515625,-1.1964679956436155,-0.0,-0.0,-1.0,0.1179760648567442,2.0,0.0
17.285926818847656,24.474401473999023,-1.395757079124451,-0.0,-0.0,-1.0,0.0926426200353555,1.0,0.0
15.352667808532717,24.813520431518555,-1.1939469575881958,-0.728133603499123,0.0955817942634692,-0.6787382235153384,0.2400595772066958,6.0,0.0
17.13079261779785,24.030349731445312,-1.3866225481033323,-0.0,-0.0,-1.0,0.1282885033652437,2.0,0.0
15.583040237426758,24.086700439453125,-1.1191056966781616,-0.0,-0.0,-1.0,0.2222833569538133,2.0,0.0
16.95555305480957,23.82260513305664,-1.4015556573867798,-0.0,-0.0,-1.0,0.0652176202022863,1.0,0.0
16.833539962768555,23.641637802124023,-1.4100157022476196,-0.0,-0.0,-1.0,0.0412995815286974,2.0,0.0
15.468300819396973,24.028350830078125,-1.1333297491073608,-0.0,-0.0,-1.0,0.1658923423793257,2.0,0.0
16.65266227722168,23.298250198364254,-1.4185258150100708,-0.0,-0.0,-1.0,0.171726074957988,2.0,0.0
17.357494354248047,25.352121353149418,-0.9408520460128784,0.2201639027858174,0.9699892327871658,0.1031927525899138,0.1513153914927119,6.0,0.0
16.824451446533203,24.685617446899418,-0.97111976146698,-0.0,-0.0,-1.0,0.1331354045735409,2.0,0.0
16.48763656616211,23.97976303100586,-0.9778531789779664,-0.8106454380022381,-0.2231498004269828,-0.5413484463961794,0.1865467062664001,3.0,0.0
16.393735885620117,23.85806655883789,-0.9850391149520874,0.8450904636190821,-0.0915127363427419,-0.5267328804879648,0.2595664789728796,4.0,0.0
16.253740310668945,23.251934051513672,-0.9744588136672974,-0.2487814568342598,0.6277650768406946,-0.7375762977717085,0.2058057033722716,3.0,0.0
16.059165954589844,23.327802658081055,-1.0078994035720823,-0.0,-0.0,-1.0,0.1608473552609293,1.0,0.0
15.455852508544922,24.86760711669922,-0.6202878952026367,-0.0160087281665683,-0.9851503284216532,0.1709460471411888,0.1144085472678664,3.0,0.0
16.100753784179688,23.23926544189453,-0.4839614629745483,0.5563125992582502,0.7706681512517601,0.3107843183829004,0.160187362828171,4.0,0.0
15.713425636291504,25.266218185424805,-1.4292728900909424,-0.0,-0.0,-1.0,0.2151678144583133,1.0,0.0
15.69565486907959,25.08932304382324,-1.417827606201172,-0.0981161739940873,0.1007322321978833,-0.990063752390316,0.2126626955589529,3.0,0.0
15.517019271850586,24.96356964111328,-1.4376366138458252,-0.2343777568515166,-0.2887545386389376,-0.9282714492586024,0.1577495584637079,3.0,0.0
15.45041275024414,24.761024475097656,-1.4331951141357422,-0.0,-0.0,-1.0,0.2091676364323722,1.0,0.0
17.635330200195312,23.93081283569336,-1.4547119140625,-0.0,-0.0,-1.0,0.0489872913357282,2.0,0.0
15.477805137634276,24.261005401611328,-1.3914928436279297,-0.0,-0.0,-1.0,0.1245029797488835,1.0,0.0
15.27851104736328,24.447633743286133,-1.4392309188842771,-0.0,-0.0,-1.0,0.127299529614008,1.0,0.0
17.4613037109375,23.70992851257324,-1.4662854671478271,-0.472257502375356,-0.2571067274658343,-0.8431304656706452,0.0637741219820193,3.0,0.0
17.28509521484375,23.564239501953125,-1.487156867980957,-0.0,-0.0,-1.0,0.0179316181514683,1.0,0.0
15.224390029907228,24.063100814819336,-1.4215738773345947,-0.0,-0.0,-1.0,0.1465636507195043,1.0,0.0
17.086191177368164,23.228586196899418,-1.4960973262786863,-0.0,-0.0,-1.0,0.0329319827393343,1.0,0.0
16.646278381347656,25.599628448486328,-1.307204246520996,-0.0,-0.0,-1.0,0.104331625487799,1.0,0.0
17.346187591552734,25.22750473022461,-1.162522792816162,0.3620486828387168,0.7307482429760888,0.5787294330186685,0.1670689791379518,5.0,0.0
16.5423526763916,25.430625915527344,-1.3085112571716309,-0.0,-0.0,-1.0,0.1754529810567611,2.0,0.0
17.006948471069336,24.91908264160156,-1.1886231899261477,-0.0,-0.0,-1.0,0.0775643391290163,1.0,0.0
17.259429931640625,24.354881286621097,-1.099013328552246,-0.0,-0.0,-1.0,0.1895988366392671,2.0,0.0
17.296192169189453,24.133529663085938,-1.074582576751709,-0.0,-0.0,-1.0,0.1988747964808336,2.0,0.0
16.657508850097656,24.074691772460938,-1.176436185836792,-0.0,-0.0,-1.0,0.1597604686272817,1.0,0.0
16.47736358642578,23.991334915161133,-1.2006003856658936,-0.0,-0.0,-1.0,0.2182431966294512,2.0,0.0
15.623872756958008,24.115177154541016,-1.3558855056762695,-0.0,-0.0,-1.0,0.2672121347598638,1.0,0.0
16.44158935546875,23.8310489654541,-1.194765567779541,-0.4767499171900438,-0.8765105430835362,0.0666242022293002,0.1626914815448748,4.0,0.0
15.574101448059082,23.929149627685547,-1.351510763168335,0.7554819649347864,-0.6215795852418732,-0.2070889177836779,0.1015558254858334,5.0,0.0
16.688108444213867,23.408288955688477,-1.1218822002410889,-0.0,-0.0,-1.0,0.2040798152301082,2.0,0.0
16.259174346923828,23.242658615112305,-1.185401201248169,0.3955381437924248,-0.9005476169203736,-0.1804537793017352,0.2480817365836643,5.0,0.0
16.121206283569336,23.161293029785156,-1.204387664794922,-0.0,-0.0,-1.0,0.1365527267368902,2.0,0.0
17.325672149658203,25.13245964050293,-0.6751627922058105,-0.0,-0.0,-1.0,0.1079067126127214,1.0,0.0
17.019702911376953,25.13546562194824,-0.7153129577636719,-0.9462846403659724,0.3229001699294505,0.0167588683082835,0.084857629925676,3.0,0.0
15.62242603302002,25.066650390625,-0.8985629081726074,-0.0,-0.0,-1.0,0.1567928688833096,2.0,0.0
15.355497360229492,25.038314819335938,-0.9336402416229248,-0.0,-0.0,-1.0,0.1937920508635751,1.0,0.0
17.085378646850586,24.385244369506836,-0.6575665473937988,-0.4844322650847353,-0.5728640912377237,0.6611747980037119,0.0981009871697948,3.0,0.0
15.5567626953125,24.497581481933594,-0.8748373985290527,-0.0,-0.0,-1.0,0.1494206321754338,1.0,0.0
15.38436222076416,24.759620666503903,-0.9136264324188232,0.6184154011085337,-0.7844317139870922,-0.0472152280842109,0.1883576928550155,4.0,0.0
16.482057571411133,24.070796966552734,-0.7216247320175171,-0.0,-0.0,-1.0,0.0394169198822013,2.0,0.0
15.537857055664062,24.125713348388672,-0.8574833869934082,-0.0,-0.0,-1.0,0.2032812541472394,1.0,0.0
16.375152587890625,23.39955139160156,-0.7007297277450562,-0.7376162217791051,0.3639190677900027,-0.5687576122278923,0.1467725716888948,4.0,0.0
16.130571365356445,23.41367530822754,-0.7365398406982422,-0.0,-0.0,-1.0,0.1953901588095819,2.0,0.0
15.620251655578612,25.566059112548828,-1.4613269567489624,-0.0,-0.0,-1.0,0.1582712418895161,1.0,0.0
16.44671630859375,25.564163208007812,-1.3189064264297483,-0.0,-0.0,-1.0,0.1471322917702241,1.0,0.0
17.363075256347656,25.2506103515625,-1.1344672441482544,0.8276554536361702,0.0710609701396973,-0.5567196678662524,0.2580622924735515,3.0,0.0
16.691776275634766,25.46045684814453,-1.2674716711044312,-0.0,-0.0,-1.0,0.1410519134004387,1.0,0.0
15.68830108642578,25.327823638916016,-1.427998661994934,-0.0,-0.0,-1.0,0.1411353537341293,1.0,0.0
16.999637603759766,25.031658172607425,-1.1734164953231812,-0.0,-0.0,-1.0,0.05967750160709,1.0,0.0
15.649813652038574,25.085599899291992,-1.4136635065078735,0.0552895254315804,-0.965472532133075,-0.2545699473113407,0.208237134524698,3.0,0.0
15.492433547973633,24.96421813964844,-1.4316307306289673,-0.2343777568515166,-0.2887545386389376,-0.9282714492586024,0.1222972835976705,3.0,0.0
17.6610164642334,24.591552734375,-1.4530073404312134,-0.0,-0.0,-1.0,0.078049431834072,1.0,0.0
17.570220947265625,24.425148010253903,-1.4509388208389282,-0.0,-0.0,-1.0,0.0456303088434655,1.0,0.0
16.81275177001953,24.67466163635254,-1.1719597578048706,-0.8840290108462909,-0.4420423445040848,-0.1519581312317977,0.1571942535547056,3.0,0.0
15.24270248413086,24.499671936035156,-1.440216898918152,-0.0,-0.0,-1.0,0.1128123977702627,1.0,0.0
17.49788475036621,24.142799377441406,-1.4327691793441772,0.2291680637048543,-0.9411655631277812,0.2483734715305429,0.080769129096315,3.0,0.0
16.448780059814453,24.026809692382812,-1.1812173128128052,-0.8909948211079219,-0.4535128755301889,-0.0213143258678691,0.1960635812810535,5.0,0.0
15.517258644104004,24.108173370361328,-1.35975444316864,0.4235392785469025,0.1380776966411447,-0.8952927058891105,0.2155447686580476,3.0,0.0
17.328584671020508,23.837154388427734,-1.4336687326431274,-0.0,-0.0,-1.0,0.0499785369272182,1.0,0.0
17.11841583251953,23.64147567749023,-1.4571622610092163,-0.0,-0.0,-1.0,0.039319222516717,2.0,0.0
16.426849365234375,23.883087158203125,-1.173810601234436,-0.5755534385703663,0.8174243306484663,0.0235733538923543,0.1818335430866268,6.0,0.0
16.323989868164062,23.901033401489254,-1.1941527128219604,-0.0,-0.0,-1.0,0.2077824469448623,1.0,0.0
15.550310134887695,23.82785987854004,-1.3332520723342896,-0.0,-0.0,-1.0,0.1761051512920985,1.0,0.0
16.92786407470703,23.359230041503903,-1.4700716733932495,-0.0,-0.0,-1.0,0.0452195450388928,1.0,0.0
16.16794776916504,23.25774574279785,-1.1764167547225952,0.8351659007170836,-0.4738221548894626,0.279267763652249,0.2455462362596022,7.0,0.0
17.02968406677246,25.165069580078125,-0.7221218347549438,-0.9462846403659724,0.3229001699294505,0.0167588683082835,0.0980927206976052,3.0,0.0
16.810434341430664,24.770729064941406,-0.7247918844223022,-0.5895649266364437,0.3372317507247601,-0.7339536385789484,0.2056982719276477,3.0,0.0
15.440136909484863,24.9990234375,-0.9432030916213988,-0.0,-0.0,-1.0,0.2186418437750489,1.0,0.0
17.40377426147461,24.40353202819824,-1.044434905052185,-0.0,-0.0,-1.0,0.1984694855574723,2.0,0.0
15.43988037109375,24.6065616607666,-0.9192804098129272,-0.0,-0.0,-1.0,0.2537679274156021,1.0,0.0
17.139625549316406,24.20209312438965,-1.0721248388290403,-0.0,-0.0,-1.0,0.1650815453652845,2.0,0.0
16.507080078125,24.07225799560547,-0.7240496873855591,-0.0,-0.0,-1.0,0.0387552804024321,2.0,0.0
16.295785903930664,23.95494842529297,-0.7494055032730103,-0.0,-0.0,-1.0,0.1046590192614999,2.0,0.0
15.608304977416992,24.094789505004883,-0.8640455007553101,-0.0,-0.0,-1.0,0.1659641955315263,2.0,0.0
15.551239967346191,24.18793487548828,-0.8780988454818726,-0.0,-0.0,-1.0,0.1910441244313728,2.0,0.0
16.646472930908203,23.27843856811523,-1.0872567892074585,-0.0,-0.0,-1.0,0.1714625579346135,1.0,0.0
16.32440185546875,23.285419464111328,-1.1485542058944702,-0.0607062519642948,-0.4174286775200047,-0.906679684429042,0.1805752601160904,3.0,0.0
16.345542907714844,23.3564510345459,-0.7085781097412109,-0.3238031751541801,0.3360052137575609,-0.8844501117009409,0.1386854006952855,5.0,0.0
17.179950714111328,25.505512237548828,-1.45009446144104,-0.0,-0.0,-1.0,0.1709744131854183,1.0,0.0
16.567874908447266,25.611610412597656,-1.5771763324737549,-0.0,-0.0,-1.0,0.1490662888320693,2.0,0.0
16.964115142822266,25.253158569335938,-1.45684552192688,-0.0,-0.0,-1.0,0.1467464088833699,1.0,0.0
16.472396850585938,25.287452697753903,-1.5539865493774414,-0.0,-0.0,-1.0,0.2240964829117923,1.0,0.0
16.50760269165039,24.67525291442871,-1.4724924564361572,-0.0,-0.0,-1.0,0.1401919238521358,1.0,0.0
16.40959930419922,24.678539276123047,-1.4922120571136477,-0.0,-0.0,-1.0,0.0595400907197729,1.0,0.0
15.566683769226074,25.351062774658203,-1.2561070919036863,-0.0,-0.0,-1.0,0.2320511382006787,1.0,0.0
15.457873344421388,25.30652618408203,-1.2706794738769531,-0.0,-0.0,-1.0,0.1092849841016623,1.0,0.0
17.292552947998047,25.215396881103516,-1.3905246257781982,-0.0,-0.0,-1.0,0.2073579564368332,2.0,0.0
15.555099487304688,25.1346492767334,-1.2381269931793213,-0.540131133900939,-0.71654718191744,-0.441382480709261,0.1920710394568387,3.0,0.0
15.352953910827637,25.009719848632812,-1.2623920440673828,-0.0,-0.0,-1.0,0.1950491740222744,1.0,0.0
16.96294403076172,24.902830123901367,-1.4116358757019043,-0.0,-0.0,-1.0,0.1209501089409017,1.0,0.0
16.640825271606445,24.639081954956055,-1.4417412281036377,-0.0,-0.0,-1.0,0.1138989813444804,2.0,0.0
17.166807174682617,24.358041763305664,-1.3047261238098145,-0.0,-0.0,-1.0,0.2175172847900352,1.0,0.0
16.567581176757812,24.274282455444336,-1.413872003555298,-0.0,-0.0,-1.0,0.0423522394863091,2.0,0.0
15.5192232131958,24.08867835998535,-1.1554663181304932,-0.3300632861164609,-0.9431302675434766,0.0395414415692363,0.2266014120736573,3.0,0.0
17.139087677001953,24.125547409057617,-1.2822177410125732,-0.0,-0.0,-1.0,0.2231159868974442,1.0,0.0
16.597349166870117,23.9614200592041,-1.3727302551269531,-0.0,-0.0,-1.0,0.1372673781272596,1.0,0.0
16.48682403564453,23.845294952392575,-1.3830780982971191,-0.0,-0.0,-1.0,0.1701595202251566,1.0,0.0
16.405567169189453,23.48279190063477,-1.3624703884124756,-0.0,-0.0,-1.0,0.1260325223067143,1.0,0.0
16.41657257080078,23.208911895751953,-1.332982301712036,-0.0,-0.0,-1.0,0.1898687519338974,1.0,0.0
15.22787857055664,25.235374450683594,-0.8210148811340332,-0.0,-0.0,-1.0,0.0941318645768523,2.0,0.0
17.295486450195312,25.28182601928711,-0.9643855094909668,0.2973600620302751,-0.1637412136460439,-0.940619906478207,0.0874863337789477,4.0,0.0
16.968788146972656,25.051891326904297,-0.992241621017456,-0.3656856128253203,-0.2215450614852414,-0.9039866250692372,0.0768134313224713,3.0,0.0
15.76996898651123,25.01988983154297,-0.7272675037384033,-0.0,-0.0,-1.0,0.1017842857562218,2.0,0.0
15.352547645568848,24.984464645385746,-0.7860608100891113,-0.0,-0.0,-1.0,0.200751412807108,2.0,0.0
16.978412628173828,24.987892150878903,-0.9840900897979736,-0.4231827983238962,-0.7076367714118098,0.565832589153918,0.0792576458254321,3.0,0.0
16.770233154296875,24.727458953857425,-0.992384910583496,-0.0,-0.0,-1.0,0.1183030228161711,2.0,0.0
15.31662940979004,24.69766616821289,-0.7730157375335693,-0.0,-0.0,-1.0,0.2277700041513126,1.0,0.0
17.273643493652344,24.428516387939453,-0.8789458274841309,-0.0,-0.0,-1.0,0.154178106764782,2.0,0.0
16.56301498413086,23.944732666015625,-0.9556174278259276,-0.0,-0.0,-1.0,0.1655471283374751,2.0,0.0
16.317806243896484,23.95368766784668,-0.9999885559082032,-0.0,-0.0,-1.0,0.1950292853375001,2.0,0.0
16.133201599121094,23.31148147583008,-0.9824225902557372,-0.0,-0.0,-1.0,0.1918524755094356,2.0,0.0
16.25023651123047,23.92153549194336,-0.584212064743042,-0.3483812529156996,-0.916576495882784,-0.1962601075413051,0.0973894979195644,4.0,0.0
16.513877868652344,25.481164932250977,-1.4795587062835691,0.5035618718861793,0.4803268774186339,-0.7181305814486327,0.2072051961160065,3.0,0.0
16.20743179321289,25.49158477783203,-1.5317339897155762,-0.0,-0.0,-1.0,0.1063607876975569,1.0,0.0
16.090492248535156,25.08955192565918,-1.490097999572754,-0.0,-0.0,-1.0,0.070058653971658,2.0,0.0
15.945843696594238,24.96109390258789,-1.4960441589355469,-0.0,-0.0,-1.0,0.0594406493367864,1.0,0.0
17.160402297973633,25.61402130126953,-1.399162530899048,-0.0,-0.0,-1.0,0.1347364462640061,1.0,0.0
15.644362449645996,25.284847259521484,-1.137702465057373,-0.0,-0.0,-1.0,0.1959611523784474,1.0,0.0
17.34415626525879,25.13888931274414,-1.2920479774475098,0.621983888379085,-0.5271494916501642,-0.5790073022422144,0.2193837508794659,3.0,0.0
17.099292755126953,25.37152099609375,-1.3684697151184082,-0.0,-0.0,-1.0,0.1801177494486589,1.0,0.0
15.658166885375977,25.089309692382812,-1.11183762550354,-0.0,-0.0,-1.0,0.2330902014825518,2.0,0.0
15.381266593933104,24.912588119506836,-1.133378028869629,-0.0,-0.0,-1.0,0.2331341322614283,1.0,0.0
17.014659881591797,24.951419830322266,-1.3141326904296875,-0.0,-0.0,-1.0,0.1364278406168577,2.0,0.0
16.159748077392578,24.60596466064453,-1.406564474105835,-0.0,-0.0,-1.0,0.0783540246233009,2.0,0.0
15.998382568359377,24.591562271118164,-1.433135747909546,-0.0,-0.0,-1.0,0.083446654846129,1.0,0.0
15.677884101867676,24.386436462402344,-1.46252179145813,-0.0,-0.0,-1.0,0.0885772775235423,1.0,0.0
17.13703155517578,24.36023330688477,-1.2013859748840332,-0.0,-0.0,-1.0,0.2142976977343433,2.0,0.0
16.2669734954834,24.39016914367676,-1.3563416004180908,-0.0,-0.0,-1.0,0.0830033913258801,1.0,0.0
15.703631401062012,24.125511169433594,-1.42240571975708,-0.0,-0.0,-1.0,0.0893724995347477,2.0,0.0
17.369888305664062,24.24544906616211,-1.1447548866271973,0.1381592670933512,-0.0848128720471495,-0.9867719055847414,0.240170088816108,3.0,0.0
16.500350952148438,23.90353775024414,-1.2452869415283203,-0.0,-0.0,-1.0,0.1792752396185426,2.0,0.0
16.045869827270508,23.64069938659668,-1.293600082397461,-0.0,-0.0,-1.0,0.0471833792489402,2.0,0.0
15.817890167236328,23.6282958984375,-1.3353688716888428,-0.0,-0.0,-1.0,0.0593110203552744,1.0,0.0
15.253520965576172,23.538408279418945,-1.4341332912445068,-0.0,-0.0,-1.0,0.051072650743453,1.0,0.0
16.637033462524414,23.475337982177734,-1.1609585285186768,-0.0,-0.0,-1.0,0.1381299078422727,1.0,0.0
16.25114631652832,23.23131561279297,-1.2014036178588867,0.7171848865943476,-0.6553698162773055,0.2369308809617361,0.2196551232927693,5.0,0.0
15.254486083984377,23.222503662109375,-1.3965308666229248,-0.0,-0.0,-1.0,0.0766878049693864,1.0,0.0
16.52884864807129,25.523643493652344,-1.041032791137695,-0.7865920900413514,0.2406208143231792,-0.5686602743280287,0.1070671376056609,3.0,0.0
17.36758041381836,25.353822708129883,-0.9057791233062744,0.5884137286738463,0.8006203347028261,-0.1130325774654185,0.1371596366198352,5.0,0.0
15.708588600158691,24.74609375,-1.063502311706543,-0.0,-0.0,-1.0,0.2384486325190781,2.0,0.0
15.414953231811523,24.956993103027344,-0.6825766563415527,-0.0,-0.0,-1.0,0.1360937446988123,2.0,0.0
16.9755859375,24.843446731567383,-0.8900976181030273,-0.0,-0.0,-1.0,0.0650730742449043,1.0,0.0
16.772865295410156,24.71633529663086,-0.90210223197937,-0.5187875048792312,-0.7586706774947221,-0.3940537119364325,0.1403498929666894,3.0,0.0
15.597674369812012,24.50849151611328,-1.0532639026641846,-0.0,-0.0,-1.0,0.245295166964934,2.0,0.0
17.200708389282227,24.312334060668945,-0.7895393371582031,-0.9100319633658268,-0.0660789401395294,0.4092375829790993,0.1118477280719014,6.0,0.0
15.616379737854004,24.157487869262695,-1.0110840797424316,-0.0,-0.0,-1.0,0.2377159544124243,2.0,0.0
17.405162811279297,24.15043830871582,-1.1241390705108645,-0.1138779191870526,-0.6364396989793751,-0.7628737307606476,0.1904270794020017,4.0,0.0
16.417236328125,23.956512451171875,-0.8627049922943115,-0.0,-0.0,-1.0,0.1027437588803775,2.0,0.0
16.384395599365234,23.29896545410156,-0.7943451404571533,-0.0,-0.0,-1.0,0.0945831412846931,2.0,0.0
16.049976348876953,23.455421447753903,-0.8653252124786377,-0.0,-0.0,-1.0,0.2264176769228254,2.0,0.0
15.8590669631958,25.063575744628903,-0.6370127201080322,-0.4717774514661452,0.6032141719479116,0.6430852968691668,0.1794273833564886,3.0,0.0
15.632000923156738,24.243976593017575,-0.5904356241226196,-0.0,-0.0,-1.0,0.1478007374884434,1.0,0.0
16.12438201904297,23.263032913208008,-0.4413886070251465,-0.1987209559168949,0.3178523793608224,-0.9270813592205048,0.160187362828171,4.0,0.0
15.529382705688477,25.527803421020508,-1.2239696979522705,-0.0,-0.0,-1.0,0.1652772987691514,2.0,0.0
17.035533905029297,25.5495662689209,-1.457160711288452,-0.0,-0.0,-1.0,0.1970084228916904,2.0,0.0
16.55036163330078,25.529090881347656,-1.5217502117156982,-0.0,-0.0,-1.0,0.2615648762186456,2.0,0.0
16.197284698486328,25.225330352783203,-1.518244743347168,-0.0,-0.0,-1.0,0.0431910932406537,1.0,0.0
16.119239807128906,25.09558868408203,-1.506896734237671,-0.0,-0.0,-1.0,0.0479073545949413,2.0,0.0
17.32110595703125,25.1759033203125,-1.3454012870788574,-0.0,-0.0,-1.0,0.2142041223389159,1.0,0.0
17.011268615722656,24.96095085144043,-1.3478446006774902,-0.0,-0.0,-1.0,0.1602169667434117,2.0,0.0
16.046573638916016,24.899490356445312,-1.4833292961120603,-0.0,-0.0,-1.0,0.0264728465678637,1.0,0.0
15.693132400512695,24.491575241088867,-1.4706554412841797,-0.0,-0.0,-1.0,0.0891229192370995,1.0,0.0
16.822406768798828,24.677104949951172,-1.3227531909942627,-0.0,-0.0,-1.0,0.1849234915264989,2.0,0.0
16.208179473876953,24.497886657714844,-1.386603832244873,-0.0,-0.0,-1.0,0.0910211624569066,1.0,0.0
