x,y,z,nx,ny,nz,curvature,density,label
7.347969055175781,8.69926929473877,-0.1156929731369018,0.7935747421688824,0.2634510089769588,0.5484821733298307,0.2040255344449676,3.0,0.0
7.156749725341797,9.012916564941406,-0.1092844009399414,0.1974679916910522,0.9273857761405352,-0.3177452036927066,0.147982151992085,3.0,0.0
6.340618133544922,9.175395965576172,-0.1325019598007202,-0.0,-0.0,-1.0,0.0416242472186698,1.0,0.0
7.144802093505859,8.257538795471191,-0.1422455310821533,-0.0,-0.0,-1.0,0.1359116812744751,1.0,0.0
7.381425857543945,10.360599517822266,-0.0286653041839599,-0.0,-0.0,-1.0,0.0895035261334681,1.0,0.0
7.554347991943359,10.12613010406494,-0.0273534059524536,0.8103061770652231,0.5475975886185563,-0.2086642766481262,0.1223979913244228,3.0,0.0
7.531375885009766,9.535350799560549,-0.0432559251785278,-0.0,-0.0,-1.0,0.2241073345848519,2.0,0.0
7.076221466064453,9.078757286071776,-0.0738027095794677,-0.0,-0.0,-1.0,0.1712322985857056,2.0,0.0
7.572616577148437,8.742294311523438,-0.0619206428527832,0.420701816441713,-0.5258233844837463,-0.7392697410098035,0.2417817152456355,4.0,0.0
7.057861328125,8.856353759765625,-0.0802891254425048,-0.0,-0.0,-1.0,0.1023468459600328,2.0,0.0
6.302864074707031,9.099600791931152,-0.1053265333175659,-0.0,-0.0,-1.0,0.0780765398290926,1.0,0.0
7.106868743896484,8.31719970703125,-0.0922462940216064,-0.0,-0.0,-1.0,0.1537855103904478,1.0,0.0
6.107547760009766,8.329190254211426,-0.1332771778106689,-0.0,-0.0,-1.0,0.1007807993859239,2.0,0.0
7.289667129516602,10.371862411499023,0.1053817272186279,-0.0,-0.0,-1.0,0.1349417128481277,2.0,1.0
7.680074691772461,9.767118453979492,0.0999453067779541,-0.0,-0.0,-1.0,0.1046077434538253,1.0,1.0
7.475650787353516,9.988807678222656,0.099717378616333,-0.0,-0.0,-1.0,0.1808111343285635,2.0,1.0
7.316905975341797,10.22060203552246,0.1014635562896728,-0.0,-0.0,-1.0,0.1215163699228014,2.0,1.0
7.51420783996582,9.528160095214844,0.0860027074813842,-0.0,-0.0,-1.0,0.109158444932128,1.0,1.0
6.237693786621094,9.062979698181152,0.0239036083221435,0.7346781231034517,0.407003070228729,-0.5427674974218497,0.1100872201721065,3.0,1.0
7.460886001586914,8.307744979858398,0.0433802604675293,-0.0,-0.0,-1.0,0.0939318057380443,1.0,1.0
6.272869110107422,8.851800918579102,0.0181891918182373,-0.9939651857125118,0.0892645948386174,-0.0637576795357978,0.1546446655624921,3.0,1.0
5.801794052124023,8.531362533569336,-0.0096957683563232,-0.0,-0.0,-1.0,0.1347528071703597,1.0,0.0
5.450170516967773,9.239152908325195,0.4211772680282593,-0.9699999787099304,-0.2412304131495794,0.0301318614495922,0.191027376387291,5.0,1.0
6.568750381469727,9.737792015075684,0.3107067346572876,-0.0,-0.0,-1.0,0.1329926577190993,2.0,1.0
7.179817199707031,10.360258102416992,0.2330349683761596,-0.0,-0.0,-1.0,0.0879018979053657,1.0,1.0
6.949073791503906,9.930767059326172,0.2110960483551025,-0.0,-0.0,-1.0,0.0921844075292027,1.0,1.0
6.845308303833008,10.092117309570312,0.2126140594482422,-0.0,-0.0,-1.0,0.1248542016745769,1.0,1.0
5.272453308105469,10.499977111816406,0.1655646562576294,-0.2183164973823151,-0.8967270698078637,-0.3849915184059515,0.213607279699428,4.0,1.0
6.506832122802734,9.539007186889648,0.1828210353851318,-0.0,-0.0,-1.0,0.0933933671162267,1.0,1.0
7.230070114135742,10.433753967285156,0.1936671733856201,-0.0,-0.0,-1.0,0.1355307842324258,2.0,1.0
7.154058456420898,10.281747817993164,0.1891134977340698,-0.0,-0.0,-1.0,0.0756976529371935,1.0,1.0
6.955345153808594,9.82677936553955,0.1766536235809326,0.2211314593368504,-0.9063538463046844,-0.3600327526493384,0.13240730371539,4.0,1.0
6.878194808959961,10.031652450561523,0.1751072406768798,-0.0,-0.0,-1.0,0.1204840795062514,1.0,1.0
6.440814971923828,9.502300262451172,0.1516910791397094,-0.0,-0.0,-1.0,0.0541835400946257,1.0,1.0
6.940818786621094,10.334415435791016,0.2208162546157837,0.2568014801988012,-0.95044105380267,-0.1752563922205822,0.0824623127979892,4.0,1.0
5.352304458618164,9.22245979309082,0.389121413230896,0.1365921591882129,-0.1396801500745881,-0.9807303593360628,0.2131442341671992,6.0,1.0
7.591159820556641,10.194395065307615,-0.1685471534729004,-0.0,-0.0,-1.0,0.1201717338140974,2.0,0.0
7.481487274169922,10.315105438232422,-0.1692713499069214,-0.9321939069661572,-0.2996979747765609,-0.2029671001172327,0.114283394235613,3.0,0.0
7.689510345458984,9.400232315063477,-0.2000265121459961,0.3436124813623004,-0.5985245516288141,-0.723670383358038,0.1064185646217626,3.0,0.0
7.604364395141602,9.126136779785156,-0.217902660369873,-0.0,-0.0,-1.0,0.1284638643901678,1.0,0.0
7.595134735107422,8.67729377746582,-0.2402029037475586,-0.0,-0.0,-1.0,0.1846377650629551,1.0,0.0
7.435628890991211,10.232177734375,-0.0226227045059204,-0.8070164075232914,-0.1468522035073264,-0.5719781012532242,0.039195941423066,4.0,0.0
7.622127532958984,9.92225742340088,-0.0356419086456298,-0.0,-0.0,-1.0,0.0543800439852399,1.0,0.0
7.439964294433594,9.551994323730469,-0.0690762996673584,-0.2996051451865837,-0.92242368098936,0.2436622862237107,0.1976159345479482,7.0,0.0
7.073545455932617,9.024969100952148,-0.1216726303100586,0.0852545104669067,-0.1538794358741208,-0.9844047885194944,0.167996910667802,3.0,0.0
6.3380279541015625,9.01712703704834,-0.1538904905319214,-0.3398529407214087,-0.8035606795262801,-0.4886616549334251,0.0773219443702568,3.0,0.0
7.362874984741211,8.690312385559082,-0.1329574584960937,0.7168632004946973,-0.1280370779282094,0.6853565921854878,0.1873650178440334,3.0,0.0
7.266290664672852,8.703068733215332,-0.1361526250839233,-0.0,-0.0,-1.0,0.1850180291531363,1.0,0.0
7.340051651000977,8.173856735229492,-0.170953631401062,-0.0,-0.0,-1.0,0.182655412533267,2.0,0.0
7.172359466552734,8.302066802978516,-0.168800950050354,0.4227477267498697,-0.1540129567179606,-0.8930645937953251,0.0680344554603364,3.0,0.0
7.408506393432617,10.29387092590332,-0.036885380744934,-0.0,-0.0,-1.0,0.1265509064330364,2.0,0.0
7.604469299316406,10.04291534423828,-0.0462312698364257,-0.0,-0.0,-1.0,0.1496980530864251,2.0,0.0
7.522579193115234,9.61506462097168,-0.0816709995269775,0.890094128742049,-0.4212207819527057,0.1740847346268003,0.2191759861729658,3.0,0.0
7.103401184082031,9.07810115814209,-0.1409845352172851,0.8103072142239687,-0.4443336091296821,-0.3820600245699386,0.160212653862367,3.0,0.0
7.027116775512695,9.04657745361328,-0.1468279361724853,-0.0,-0.0,-1.0,0.1671337878668699,1.0,0.0
6.335859298706055,9.03342056274414,-0.1791754961013794,-0.3398529407214087,-0.8035606795262801,-0.4886616549334251,0.0717901197134132,3.0,0.0
7.281408309936523,8.750414848327637,-0.1578363180160522,-0.0694074482997076,-0.2528589266042388,-0.965010346761668,0.1700386289238394,4.0,0.0
7.269035339355469,8.347989082336426,-0.1892845630645752,-0.0,-0.0,-1.0,0.0846515778408718,2.0,0.0
7.218574523925781,8.249846458435059,-0.199081540107727,-0.0,-0.0,-1.0,0.1257073208561652,1.0,0.0
7.350803375244141,10.594043731689451,0.3350077867507934,0.1300478966961689,0.9614148375189736,0.2424232966595181,0.0978891062404923,4.0,1.0
5.677167892456055,9.36117172241211,0.2060033082962036,-0.0,-0.0,-1.0,0.0796713150654719,2.0,1.0
5.350658416748047,9.162946701049805,0.1831847429275512,0.95775709201902,0.2577339690528942,-0.1275717597413802,0.2297540008032293,3.0,1.0
7.476345062255859,10.33270263671875,-0.1716377735137939,-0.6267582225522541,-0.2808912389796265,-0.7268247672772506,0.1111233357179797,3.0,0.0
7.651145935058594,10.081480979919434,-0.1736602783203125,-0.0,-0.0,-1.0,0.0914733396442699,2.0,0.0
7.681002616882324,9.722867012023926,-0.192457914352417,-0.0,-0.0,-1.0,0.1413797309913076,2.0,0.0
7.649056434631348,9.182632446289062,-0.2271566390991211,-0.0,-0.0,-1.0,0.0936613332330675,1.0,0.0
7.600037574768066,9.216182708740234,-0.228469967842102,-0.958838608460464,-0.2453448817669012,0.1429489836143873,0.1153689149014949,4.0,0.0
7.621719360351563,8.868782997131348,-0.2484865188598632,-0.0,-0.0,-1.0,0.1940598546337495,2.0,0.0
7.32032585144043,10.613886833190918,0.4309074878692627,-0.0597629103617507,0.8597473545022329,-0.5072108841216888,0.0495198835196673,3.0,1.0
5.393091201782227,9.184350967407228,0.2960691452026367,0.14620115659188,0.1934270942440893,-0.9701603893292516,0.1631364232509556,4.0,1.0
6.422483444213867,8.952363967895508,-0.1819201707839965,-0.0,-0.0,-1.0,0.0496699732847614,1.0,0.0
7.161399841308594,9.003129959106445,-0.1349581480026245,-0.0,-0.0,-1.0,0.120444100968858,2.0,0.0
6.510168075561523,8.888981819152832,-0.1817282438278198,-0.0,-0.0,-1.0,0.076928487043188,1.0,0.0
7.316625595092773,8.721707344055176,-0.1486538648605346,0.2457843721186038,-0.0085195481145107,-0.9692870883913536,0.1888075488877702,3.0,0.0
7.292780876159668,8.310529708862305,-0.1839188337326049,-0.0,-0.0,-1.0,0.1210000464582611,2.0,0.0
7.234753608703613,8.169540405273438,-0.198938250541687,-0.0,-0.0,-1.0,0.1010065831933201,2.0,0.0
7.505508422851563,10.197626113891602,-0.0242344141006469,-0.8331958256807616,-0.5317410633805493,0.1517766700882476,0.0774980165928791,3.0,0.0
7.672360420227051,9.766073226928713,-0.0461395978927612,-0.9543197609577696,-0.2352858622046634,-0.1841585102353778,0.0806876220825003,4.0,0.0
7.470444679260254,9.467565536499023,-0.0806924104690551,-0.0,-0.0,-1.0,0.2357509345668592,1.0,0.0
7.681422233581543,10.020784378051758,-0.3133327960968017,-0.0,-0.0,-1.0,0.089806427525467,1.0,0.0
5.60687255859375,10.253555297851562,0.1301491260528564,-0.0,-0.0,-1.0,0.1464621903764476,1.0,1.0
6.895570755004883,10.501437187194824,0.211599588394165,-0.3540808830065468,-0.5818656283582068,-0.7321605826761044,0.0959673161638831,5.0,1.0
5.63129997253418,9.179615020751951,0.0496885776519775,-0.0,-0.0,-1.0,0.1531509040100137,2.0,1.0
5.512224197387695,9.014019966125488,0.0309894084930419,-0.0,-0.0,-1.0,0.2178190369148427,1.0,1.0
7.0963945388793945,10.310843467712402,0.2071549892425537,0.4555539233935595,-0.5089892007449781,-0.7303428074580616,0.0612042560854425,3.0,1.0
7.120128631591797,10.20595932006836,0.2003662586212158,-0.8074193517213741,0.3842091138401824,-0.4477246333495377,0.1338717413346874,4.0,1.0
6.9145917892456055,9.825435638427734,0.161270260810852,0.2211314593368504,-0.9063538463046844,-0.3600327526493384,0.1243367953387373,4.0,1.0
6.525778770446777,9.432537078857422,0.1120421886444091,-0.0,-0.0,-1.0,0.0946950303304801,1.0,1.0
6.231767654418945,9.084583282470703,0.070534348487854,0.7187060953330697,0.5272620136524707,-0.4532728951638676,0.1254824317322187,3.0,1.0
5.972857475280762,9.083640098571776,0.058267593383789,0.2566580949711607,0.2601283709755749,-0.9308382528126832,0.093121965405001,4.0,1.0
7.024405479431152,9.716712951660156,0.1580524444580078,-0.0,-0.0,-1.0,0.2334782478989887,2.0,1.0
6.235987663269043,8.993507385253906,0.0634268522262573,-0.0,-0.0,-1.0,0.1105595749800602,1.0,1.0
6.182860374450684,8.852605819702148,0.0495752096176147,-0.0,-0.0,-1.0,0.1653817959833468,2.0,1.0
5.905198097229004,8.527462005615234,0.0101959705352783,-0.0,-0.0,-1.0,0.0960264417763972,1.0,1.0
7.583831787109375,10.43896198272705,0.125018835067749,-0.0,-0.0,-1.0,0.2186660011829276,1.0,1.0
7.332125663757324,10.1912841796875,0.0918681621551513,-0.7333225938064236,-0.6707852817173442,-0.1108380766902876,0.1614536209146447,4.0,1.0
6.276693344116211,9.238273620605469,-0.0419914722442626,-0.2549470382704209,-0.4177067107326321,-0.8720797621124262,0.1426854107629719,8.0,0.0
6.317462921142578,9.105334281921388,-0.0488879680633544,-0.0,-0.0,-1.0,0.0861346300700234,2.0,0.0
7.599414825439453,9.954305648803713,0.0943872928619384,-0.0,-0.0,-1.0,0.1136374564400895,2.0,1.0
7.065871238708496,9.1856689453125,0.0053331851959228,-0.0,-0.0,-1.0,0.1435497600164939,1.0,1.0
6.539872169494629,8.808080673217773,-0.0564429759979248,-0.0,-0.0,-1.0,0.1026389105891433,1.0,0.0
6.168922424316406,8.3592529296875,-0.1140885353088378,-0.0,-0.0,-1.0,0.0687452573844743,2.0,0.0
7.353559494018555,8.911611557006836,0.0032320022583007,-0.0,-0.0,-1.0,0.1830514156714628,1.0,1.0
6.872133255004883,8.225862503051758,-0.0804991722106933,-0.0,-0.0,-1.0,0.1089918507766279,1.0,0.0
6.844376564025879,8.15690803527832,-0.0877363681793212,-0.0,-0.0,-1.0,0.1089918507766279,1.0,0.0
7.583019256591797,8.809056282043457,0.0098446607589721,-0.0,-0.0,-1.0,0.1746457103822368,1.0,1.0
7.225106239318848,8.588468551635742,-0.0298237800598144,-0.0,-0.0,-1.0,0.1268934696754832,1.0,0.0
7.058178901672363,8.197454452514648,-0.0713415145874023,-0.0,-0.0,-1.0,0.1465755567463866,1.0,0.0
7.328764915466309,10.526622772216797,-0.1567885875701904,-0.0613303557570904,-0.6392825341500793,-0.7665222951704415,0.2574811823717488,5.0,0.0
7.613539695739746,10.302736282348633,-0.1352794170379638,-0.0,-0.0,-1.0,0.0897866200245473,2.0,0.0
7.687341690063477,9.729991912841797,-0.1492499113082885,0.3530043779765146,-0.9182742034077042,0.1793331996183651,0.1013602440708223,6.0,0.0
7.558078765869141,9.406667709350586,-0.1757689714431762,-0.0,-0.0,-1.0,0.1862987653871105,1.0,0.0
7.601990699768066,9.222796440124512,-0.1795729398727417,-0.654687670081239,-0.7506542661381469,-0.0888944732376471,0.1014766064130372,5.0,0.0
7.540513038635254,8.927746772766113,-0.199586272239685,-0.0,-0.0,-1.0,0.2131248292673046,1.0,0.0
7.517707824707031,8.649234771728516,-0.2157540321350097,-0.0,-0.0,-1.0,0.1801190922717891,1.0,0.0
5.343667030334473,10.634334564208984,0.1904305219650268,-0.0,-0.0,-1.0,0.1734636372835374,2.0,1.0
5.513723373413086,9.384879112243652,0.1702419519424438,-0.0,-0.0,-1.0,0.1283251246353497,1.0,1.0
6.817519187927246,10.47575569152832,0.2862099409103393,-0.0,-0.0,-1.0,0.0954160363398155,1.0,1.0
7.1219282150268555,10.606152534484863,0.309686541557312,-0.0,-0.0,-1.0,0.0948697887636347,1.0,1.0
5.826092720031738,8.411935806274414,0.1573529243469238,-0.0,-0.0,-1.0,0.1502712117705485,2.0,1.0
7.27507209777832,10.546553611755373,-0.1275430917739868,-0.7843701030402418,-0.122895753587223,-0.6079968546027759,0.1776156750523509,3.0,0.0
7.521306991577148,10.311452865600586,-0.1161073446273803,0.4970314122447717,-0.6356331383843009,0.5907032153541167,0.1013531540456706,3.0,0.0
7.053339004516602,9.506657600402832,-0.2121191024780273,-0.0,-0.0,-1.0,0.1539939460245316,1.0,0.0
6.953936576843262,9.323010444641112,-0.2344186305999755,-0.0,-0.0,-1.0,0.1235867396806656,1.0,0.0
7.693923950195312,10.11893081665039,-0.1102453470230102,0.9853963775414628,0.0767015565200059,0.1520225323942866,0.0594729953193185,3.0,0.0
7.606143951416016,9.737127304077148,-0.1429477930068969,-0.0,-0.0,-1.0,0.1150246745991405,2.0,0.0
7.477404594421387,9.183094024658203,-0.1939696073532104,-0.0,-0.0,-1.0,0.0655367182414271,1.0,0.0
7.366650581359863,9.076481819152832,-0.2125673294067382,-0.0,-0.0,-1.0,0.0688622467222175,1.0,0.0
7.398799896240234,8.82239818572998,-0.2288554906845092,-0.0,-0.0,-1.0,0.1105610076705116,1.0,0.0
7.407218933105469,8.638873100280762,-0.2426656484603881,-0.0,-0.0,-1.0,0.0982658842240579,2.0,0.0
5.357529640197754,10.618684768676758,0.2052597999572754,-0.0,-0.0,-1.0,0.2016602181471454,2.0,1.0
5.685901641845703,9.575841903686523,0.1732620000839233,-0.0,-0.0,-1.0,0.1097182696251891,1.0,1.0
5.320059776306152,9.190061569213867,0.1278200149536132,-0.0,-0.0,-1.0,0.1627792468168789,2.0,1.0
6.525029182434082,10.24660587310791,0.263028621673584,-0.7702884621858006,-0.1423391713945438,-0.6216069862140783,0.1858756524826995,3.0,1.0
6.514496803283691,9.719894409179688,0.2340826988220214,-0.0,-0.0,-1.0,0.1784724779783239,2.0,1.0
5.791745185852051,8.356447219848633,0.1030517816543579,0.4419269052713462,-0.7729476237395702,-0.4552500207058125,0.23180849592444,6.0,1.0
6.776617050170898,9.334261894226074,-0.2413015365600586,-0.0,-0.0,-1.0,0.0900359320464362,1.0,0.0
7.263496398925781,10.535310745239258,-0.2331725358963012,-0.0,-0.0,-1.0,0.1511445072375102,2.0,0.0
7.024226188659668,9.186545372009276,-0.207486867904663,-0.0,-0.0,-1.0,0.1145593661075781,1.0,0.0
7.395705223083496,9.569384574890137,-0.1751168966293335,-0.0518732067172016,-0.9926310563848484,-0.1095114438091917,0.259576707871299,3.0,0.0
7.53438663482666,8.953697204589844,-0.1409667730331421,-0.9467674400309938,-0.2904541120792247,0.1388085850134194,0.1848272141583552,4.0,0.0
7.294927597045898,8.788799285888672,-0.1656032800674438,-0.1569341948960374,-0.1424755295950476,-0.977278047404598,0.1510684875266088,3.0,0.0
7.084506034851074,8.365448951721191,-0.1827563047409057,-0.0,-0.0,-1.0,0.1223165380357741,1.0,0.0
5.263416290283203,9.801164627075195,0.0720933675765991,-0.0,-0.0,-1.0,0.1680526984864514,2.0,1.0
5.489853858947754,10.16883659362793,0.073783278465271,-0.0,-0.0,-1.0,0.1614330187945404,1.0,1.0
5.408885955810547,9.768976211547852,0.0859863758087158,-0.0,-0.0,-1.0,0.139095634312637,1.0,1.0
6.496584892272949,9.65458869934082,0.1836596727371215,-0.0,-0.0,-1.0,0.1146986985110293,2.0,1.0
6.968451499938965,10.502677917480469,0.1834853887557983,0.1358491263720167,-0.9373122398457716,-0.3209217660104442,0.0769375778587545,4.0,1.0
6.951297760009766,10.327608108520508,0.1912612915039062,0.2568014801988012,-0.95044105380267,-0.1752563922205822,0.0638848451145512,4.0,1.0
7.492340087890625,10.361506462097168,-0.1965622901916504,-0.0,-0.0,-1.0,0.0980358659824071,2.0,0.0
7.616128921508789,10.184659004211426,-0.1732281446456909,-0.0,-0.0,-1.0,0.1373242037246263,2.0,0.0
7.468914031982422,9.622215270996094,-0.1681998968124389,0.4866807745187687,-0.6884809576806776,-0.537713487486513,0.1854074157478549,4.0,0.0
5.620704650878906,8.631200790405273,-0.0033382177352905,-0.0,-0.0,-1.0,0.1449110440623978,1.0,0.0
5.7515153884887695,8.232413291931152,0.0041701793670654,-0.0,-0.0,-1.0,0.1416468365587513,1.0,1.0
6.140142440795898,9.28008270263672,0.0474834442138671,-0.0,-0.0,-1.0,0.1227608065728659,1.0,1.0
6.177977561950684,9.021025657653809,0.0499415397644043,-0.0,-0.0,-1.0,0.1301675993540938,1.0,1.0
5.82020378112793,8.196738243103027,0.0098531246185302,-0.0,-0.0,-1.0,0.1267454110638199,1.0,1.0
6.979345321655273,10.017815589904783,0.1236605644226074,-0.0,-0.0,-1.0,0.0952559987115923,2.0,1.0
7.366215705871582,10.438613891601562,-0.2801899909973144,-0.0,-0.0,-1.0,0.1231437875636068,1.0,0.0
7.448659896850586,10.24122142791748,-0.2682334184646606,-0.0,-0.0,-1.0,0.1261193746781871,1.0,0.0
7.623956680297852,9.521900177001951,-0.2464324235916137,-0.0,-0.0,-1.0,0.2006132225650815,2.0,0.0
7.622754096984863,9.266154289245604,-0.2488603591918945,-0.0,-0.0,-1.0,0.1462689650414162,2.0,0.0
7.690692901611328,8.893194198608398,-0.2453571557998657,-0.0,-0.0,-1.0,0.1550117101395522,1.0,0.0
5.255144119262695,9.367568016052246,0.4771690964698791,-0.0,-0.0,-1.0,0.2147748024430394,2.0,1.0
5.274385452270508,9.21986961364746,0.4788098931312561,-0.0,-0.0,-1.0,0.1848115083526465,1.0,1.0
7.065055847167969,9.895501136779783,0.1321315765380859,-0.0,-0.0,-1.0,0.0884041871772848,1.0,1.0
7.265230178833008,10.474008560180664,0.1464396715164184,-0.2868361764992471,0.955401796203854,-0.0702311587669023,0.2593978281401884,7.0,1.0
7.256365776062012,10.129480361938477,0.1485440731048584,-0.0,-0.0,-1.0,0.1560164285087199,1.0,1.0
7.366691589355469,9.788335800170898,0.1602160930633545,-0.0,-0.0,-1.0,0.0647151732697701,1.0,1.0
5.6401777267456055,8.517181396484375,-0.0633294582366943,-0.0,-0.0,-1.0,0.1708469561157073,1.0,0.0
5.650214195251465,8.217300415039062,-0.0671824216842651,-0.0,-0.0,-1.0,0.1804506779140053,1.0,0.0
5.890018463134766,9.348965644836426,-0.0311644077301025,-0.0,-0.0,-1.0,0.0796290194102323,2.0,0.0
6.020219802856445,8.661413192749023,-0.0253263711929321,0.2882272278220895,-0.9295541761005888,0.2299001932055474,0.1054823899859687,3.0,0.0
6.154865264892578,9.336880683898926,-0.0058033466339111,-0.0,-0.0,-1.0,0.1572190690489039,1.0,0.0
6.21663761138916,9.106849670410156,-0.0017075538635253,-0.8625927847795062,0.0670740649477595,-0.501432704814634,0.1295964659812826,6.0,0.0
6.271883010864258,8.828329086303711,0.0007002353668212,-0.9939651857125118,0.0892645948386174,-0.0637576795357978,0.210740614859255,3.0,1.0
7.485808372497559,10.40345573425293,-0.3096404075622558,-0.0,-0.0,-1.0,0.1211783413996964,1.0,0.0
7.597383499145508,10.285343170166016,-0.2946453094482422,-0.0,-0.0,-1.0,0.1075515407642068,1.0,0.0
5.433287620544434,9.343949317932127,0.4306320548057556,-0.0,-0.0,-1.0,0.0863790603984561,1.0,1.0
7.284679412841797,8.789945602416992,0.0962193012237548,-0.0,-0.0,-1.0,0.1490341025296447,1.0,1.0
7.272174835205078,10.440662384033203,0.1025862693786621,-0.0,-0.0,-1.0,0.1989046925341165,1.0,1.0
7.457066535949707,10.071401596069336,0.1217312812805175,-0.0,-0.0,-1.0,0.0682983086984501,1.0,1.0
7.613632202148437,9.769323348999023,0.1365325450897216,-0.0,-0.0,-1.0,0.0869489875128984,2.0,1.0
6.394804000854492,9.27738094329834,-0.208509087562561,-0.774791414901499,0.2043390218580002,-0.598284069268979,0.0356830241805454,3.0,0.0
6.917544364929199,8.186699867248535,-0.1350398063659668,-0.0,-0.0,-1.0,0.0824348287737274,2.0,0.0
7.097338676452637,9.052348136901855,-0.1238918304443359,0.7629581434362899,-0.5365315525072499,-0.360595014563998,0.1502446997426509,4.0,0.0
7.183141708374023,8.730464935302734,-0.1097557544708252,-0.0,-0.0,-1.0,0.0901019010288634,1.0,0.0
7.113432884216309,8.438156127929688,-0.1146914958953857,-0.1864264303223328,-0.7550571691521092,-0.6285967366995128,0.1075424850436813,4.0,0.0
5.41318416595459,9.312701225280762,0.1879529953002929,-0.0,-0.0,-1.0,0.2202039575435325,1.0,1.0
5.699675559997559,9.399803161621094,0.2087354660034179,-0.438721528597296,0.3151284008397945,-0.8415566001935968,0.1511226811058328,3.0,1.0
6.521097183227539,9.688581466674805,0.2671182155609131,-0.0,-0.0,-1.0,0.1622371116473944,2.0,1.0
7.394069671630859,8.588138580322266,-0.0842363834381103,-0.0,-0.0,-1.0,0.2108089943920012,2.0,0.0
7.40017032623291,9.552108764648438,-0.0982177257537841,-0.0993693034140406,-0.9907141223243112,0.0927969254133896,0.2280120816447766,8.0,0.0
7.471128463745117,8.823920249938965,-0.0780031681060791,-0.0,-0.0,-1.0,0.2122820193432271,1.0,0.0
7.326601982116699,10.493401527404783,-0.1323491334915161,0.881689552523629,-0.2928508476261948,-0.3699485288730068,0.2128958147386825,4.0,0.0
7.565695762634277,10.189631462097168,-0.0950992107391357,0.5449908380697219,-0.7129099931666841,-0.4412984569009283,0.0784703598886967,4.0,0.0
7.600129127502441,9.720647811889648,-0.0789006948471069,-0.0,-0.0,-1.0,0.0997595633612492,1.0,0.0
6.365278244018555,9.213906288146973,-0.1813772916793823,-0.0,-0.0,-1.0,0.0388441947097025,2.0,0.0
6.511308670043945,8.499945640563965,-0.156045913696289,-0.0,-0.0,-1.0,0.0742683413400933,1.0,0.0
6.9445600509643555,8.170133590698242,-0.1079338788986206,-0.0,-0.0,-1.0,0.1505787764773322,2.0,0.0
6.38212776184082,9.358713150024414,-0.1823141574859619,-0.0,-0.0,-1.0,0.0595878371008208,1.0,0.0
7.092949867248535,8.929756164550781,-0.0975956916809082,-0.0,-0.0,-1.0,0.1217755259354858,1.0,0.0
7.210912704467773,8.485940933227539,-0.0807036161422729,-0.0,-0.0,-1.0,0.0657941137395492,1.0,0.0
7.054896354675293,9.19569969177246,-0.1056114435195922,-0.0,-0.0,-1.0,0.1623241966671026,1.0,0.0
7.200174331665039,8.948822021484375,-0.08628511428833,-0.0,-0.0,-1.0,0.1699831774257164,2.0,0.0
7.560922622680664,8.745593070983887,-0.0449510812759399,0.420701816441713,-0.5258233844837463,-0.7392697410098035,0.2012048561526293,4.0,0.0
7.342181205749512,10.52028465270996,-0.1088186502456665,-0.4851930651159613,0.7170671334253857,-0.5004022539162654,0.1825583044638329,4.0,0.0
5.403773307800293,9.180288314819336,0.2299733161926269,-0.0,-0.0,-1.0,0.1378127890800889,2.0,1.0
5.639123916625977,9.383987426757812,0.2425276041030883,-0.0,-0.0,-1.0,0.1140800455569086,1.0,1.0
5.403881072998047,10.581653594970703,0.1859513521194458,-0.4545402837395557,0.6740662708194197,-0.5822609320584412,0.2001151669274837,4.0,1.0
5.577048301696777,10.344086647033691,0.2080482244491577,-0.0,-0.0,-1.0,0.1354984574428891,1.0,1.0
6.572911262512207,9.77190113067627,0.3020774126052856,0.861342017622376,-0.220822378241755,-0.4575231206680917,0.1379161782046827,3.0,1.0
6.624946594238281,9.847810745239258,0.3037683963775635,-0.0,-0.0,-1.0,0.1160478304893647,1.0,1.0
7.537681579589844,9.65523910522461,-0.0616819858551025,0.6631680631650932,-0.5180735096193415,0.54019251996724,0.1894690499998856,3.0,0.0
7.468705177307129,10.376490592956545,-0.0896854400634765,-0.0,-0.0,-1.0,0.0765203499964515,1.0,0.0
7.600813865661621,10.1940336227417,-0.0691962242126464,-0.0,-0.0,-1.0,0.0871563080196042,2.0,0.0
5.273227691650391,8.144316673278809,-0.1012479066848754,-0.0,-0.0,-1.0,0.0814320562875023,1.0,0.0
5.234646797180176,8.617815017700195,-0.1114499568939209,-0.0,-0.0,-1.0,0.1091083737549903,1.0,0.0
5.4087724685668945,8.32364273071289,-0.0911417007446289,-0.0,-0.0,-1.0,0.075379975702291,1.0,0.0
5.780854225158691,8.253143310546875,-0.0565022230148315,-0.0,-0.0,-1.0,0.1994686222074949,1.0,0.0
5.791698455810547,8.586159706115723,-0.0601264238357543,-0.0,-0.0,-1.0,0.0906199601696007,2.0,0.0
6.2625322341918945,8.976805686950684,-0.0238705873489379,-0.9746470829851532,0.0358134940772609,-0.2208629830245652,0.1046821910530318,5.0,0.0
6.275651931762695,8.855205535888672,-0.0204275846481323,-0.9706106507210728,-0.2289693867101491,-0.0740809331501285,0.1760162272838727,5.0,0.0
5.936365127563477,9.39216423034668,-0.0628079175949096,-0.0,-0.0,-1.0,0.0772327430531213,1.0,0.0
6.2387542724609375,9.195022583007812,-0.0305451154708862,-0.8650884006014528,0.4466686544408298,0.2282743355807634,0.1434809760465107,3.0,0.0
7.340292930603027,8.80411148071289,0.0776547193527221,0.7998326000227878,-0.157258093675375,-0.5792561643300606,0.1648141121864308,6.0,1.0
7.381841659545898,8.338842391967773,-0.1206661462783813,-0.0,-0.0,-1.0,0.2128416454829121,1.0,0.0
6.991390228271484,10.23571491241455,0.1499389410018921,-0.0,-0.0,-1.0,0.0888181164526619,1.0,1.0
7.183832168579102,10.395790100097656,0.1191022396087646,-0.0,-0.0,-1.0,0.1155956542364484,1.0,1.0
6.481178283691406,9.533893585205078,-0.183225393295288,-0.0,-0.0,-1.0,0.0773634917181149,1.0,0.0
6.74799919128418,9.32798957824707,-0.1700536012649536,-0.0,-0.0,-1.0,0.0835219979243853,1.0,0.0
7.294513702392578,10.56309986114502,-0.1559690237045288,-0.7843701030402418,-0.122895753587223,-0.6079968546027759,0.2247634381431856,3.0,0.0
7.289028167724609,10.452009201049805,-0.1551295518875122,-0.0,-0.0,-1.0,0.2082212486500647,1.0,0.0
7.382686614990234,9.009110450744627,-0.1399620771408081,-0.0,-0.0,-1.0,0.1129784025975901,1.0,0.0
7.351652145385742,8.738615036010742,-0.1399207115173339,0.4301107145683101,-0.501525069669322,-0.7506513023413197,0.1907680921723895,4.0,0.0
7.194694519042969,8.429572105407715,-0.1455138921737671,-0.0,-0.0,-1.0,0.1027483486191596,2.0,0.0
7.590118408203125,10.282617568969728,-0.1403449773788452,-0.0,-0.0,-1.0,0.1011836063421993,2.0,0.0
7.5595703125,9.63047218322754,-0.1362364292144775,0.6072308219474706,-0.7935384501137259,0.0395911236024567,0.1543575726364987,3.0,0.0
7.539073944091797,9.095516204833984,-0.1335223913192749,-0.0,-0.0,-1.0,0.0855922753554681,2.0,0.0
6.367698669433594,9.487613677978516,-0.1675688028335571,-0.0,-0.0,-1.0,0.1257941934864395,2.0,0.0
7.079988479614258,8.446086883544922,-0.1096013784408569,-0.0,-0.0,-1.0,0.1075424850436813,2.0,0.0
7.340747833251953,10.544697761535645,-0.163114309310913,-0.6855602778068246,0.2106056717726484,-0.6968876211489348,0.2262605862369216,3.0,0.0
7.481639862060547,9.604110717773438,-0.1275691986083984,0.3017804265605707,-0.8690053818865496,-0.3921201606614113,0.1791130579243976,4.0,0.0
7.22960090637207,8.873100280761719,-0.1157021522521972,-0.0,-0.0,-1.0,0.1177377941198188,2.0,0.0
7.2978668212890625,8.632347106933594,-0.1061574220657348,-0.0,-0.0,-1.0,0.1564516547835586,2.0,0.0
7.463418960571289,10.401914596557615,-0.1536762714385986,-0.0,-0.0,-1.0,0.0892008900196494,2.0,0.0
7.668880462646484,10.179393768310549,-0.1384886503219604,-0.0,-0.0,-1.0,0.0914789178366305,2.0,0.0
7.673826217651367,9.73305320739746,-0.1240901947021484,0.3496536081623085,-0.8504281435893531,0.3930831043052413,0.0858351314633319,5.0,0.0
5.717658996582031,9.65703010559082,-0.0512800216674804,-0.0,-0.0,-1.0,0.2493454217449392,1.0,0.0
6.536014556884766,9.62643051147461,-0.0216482877731323,-0.0,-0.0,-1.0,0.1955120534388752,1.0,0.0
6.973026275634766,8.915785789489746,0.0074193477630615,-0.0,-0.0,-1.0,0.1252872470731683,1.0,1.0
7.124847412109375,8.996418952941895,0.0113630294799804,-0.0,-0.0,-1.0,0.1247380020416867,1.0,1.0
7.401468276977539,8.234084129333496,0.0347726345062255,-0.0,-0.0,-1.0,0.1268715173406499,1.0,1.0
7.303281784057617,10.485193252563477,-0.0128188133239746,-0.0,-0.0,-1.0,0.1683902656400823,2.0,0.0
7.427877426147461,10.268630027770996,-0.0037010908126831,-0.7433576314950237,-0.606943163433171,-0.2811395170726518,0.0722914301944393,6.0,0.0
7.620565414428711,10.040085792541504,0.0079818964004516,-0.0,-0.0,-1.0,0.090334005920367,2.0,1.0
7.558647155761719,9.531850814819336,0.0163921117782592,-0.0,-0.0,-1.0,0.1441158519736411,1.0,1.0
7.563060760498047,8.602141380310059,0.0342262983322143,-0.0,-0.0,-1.0,0.1392838612506027,1.0,1.0
7.473188400268555,8.449463844299316,0.0336891412734985,0.3078900179187278,-0.3724290073730567,-0.8755000692936153,0.1554712747747344,3.0,1.0
5.981452941894531,10.117544174194336,-0.1236987113952636,-0.0,-0.0,-1.0,0.1636280713816212,1.0,0.0
6.416683197021484,9.480581283569336,-0.0931681394577026,-0.0,-0.0,-1.0,0.1447849457547356,1.0,0.0
7.331535339355469,9.459120750427246,-0.0606067180633544,-0.0,-0.0,-1.0,0.2218892421819675,1.0,0.0
7.682762145996094,9.35097599029541,-0.0457078218460083,-0.0,-0.0,-1.0,0.0878513989618565,1.0,0.0
5.7111663818359375,9.473770141601562,-0.1210967302322387,-0.0,-0.0,-1.0,0.1528445936970539,2.0,0.0
6.211448669433594,8.700685501098633,-0.0862451791763305,-0.0,-0.0,-1.0,0.1014139836285678,1.0,0.0
6.4949493408203125,9.478206634521484,-0.0935156345367431,-0.0,-0.0,-1.0,0.1138078876871624,1.0,0.0
7.253503799438477,10.27898406982422,-0.0858601331710815,-0.0,-0.0,-1.0,0.1825750912744485,1.0,0.0
7.023540496826172,8.894864082336426,-0.0616536140441894,-0.0,-0.0,-1.0,0.1224490784625839,1.0,0.0
7.483543395996094,10.019942283630373,-0.071570873260498,-0.0,-0.0,-1.0,0.1756839418262914,1.0,0.0
7.59661865234375,9.66066551208496,-0.0590581893920898,-0.2474364781436266,-0.9646845590786888,0.0903265783644768,0.1263068806900202,4.0,0.0
7.377235412597656,9.38814640045166,-0.0603692531585693,-0.0,-0.0,-1.0,0.2169349540710328,1.0,0.0
7.519811630249023,8.505450248718262,-0.0354251861572265,-0.0,-0.0,-1.0,0.1850236498979302,2.0,0.0
7.307636260986328,10.51010513305664,0.0920625925064086,-0.2936484129849592,-0.6590032752988247,-0.6924487653948387,0.2071292484003163,6.0,1.0
7.358753204345703,10.175926208496094,0.1008853912353515,0.3654676132119318,0.0896657257561381,-0.9264952678334624,0.115240194485515,3.0,1.0
7.588628768920898,9.770135879516602,0.1164880990982055,0.6138680254351804,-0.7884113943921169,-0.0396676258552307,0.1281634070886142,4.0,1.0
7.399921417236328,9.601007461547852,0.114331841468811,-0.0,-0.0,-1.0,0.1175790100473465,1.0,1.0
7.697364807128906,8.593497276306152,-0.2698537111282348,-0.0,-0.0,-1.0,0.1992427434199922,2.0,0.0
7.434793472290039,8.87379264831543,-0.2152998447418213,-0.0,-0.0,-1.0,0.1282295151102868,2.0,0.0
7.447830200195312,8.74765396118164,-0.2120708227157592,-0.0,-0.0,-1.0,0.1079290869852204,1.0,0.0
5.862451553344727,9.379677772521973,0.0731680393218994,-0.0,-0.0,-1.0,0.1714663429826036,1.0,1.0
7.330698013305664,10.445757865905762,0.0878463983535766,-0.9663120849481506,-0.2010503069934813,-0.1606851845721472,0.2195566237571412,3.0,1.0
6.8390960693359375,10.515802383422852,0.2446614503860473,0.5514387464923721,-0.6972660644302162,-0.4579687153735708,0.1281981029843534,3.0,1.0
7.349445343017578,10.61677360534668,0.3231403827667236,-0.3170157843054367,-0.4537640825446123,-0.8328260021719153,0.0636728888407649,3.0,1.0
7.308637619018555,10.042563438415527,0.0902467966079711,-0.0,-0.0,-1.0,0.1614537160161156,1.0,1.0
6.792346954345703,10.027762413024902,0.1015390157699585,-0.0,-0.0,-1.0,0.1370558455873136,2.0,1.0
6.559236526489258,10.18274211883545,0.0896919965744018,-0.0,-0.0,-1.0,0.2145469861200548,2.0,1.0
7.657621383666992,10.046990394592283,0.0828806161880493,-0.0,-0.0,-1.0,0.0690280378985831,1.0,1.0
7.224920272827148,9.501818656921388,0.148377776145935,-0.0,-0.0,-1.0,0.1047804422254977,1.0,1.0
7.696676254272461,9.077048301696776,0.1838802099227905,-0.0,-0.0,-1.0,0.0835476563230013,1.0,1.0
7.64668083190918,8.992932319641113,0.193395733833313,-0.0,-0.0,-1.0,0.1604626320430298,1.0,1.0
7.544206619262695,8.826350212097168,0.2121399641036987,-0.0,-0.0,-1.0,0.1271656229922378,1.0,1.0
7.672990798950195,9.74714469909668,-0.4897205829620361,-0.0,-0.0,-1.0,0.1397758479947457,1.0,0.0
7.494438171386719,9.437484741210938,-0.4828153848648071,-0.0,-0.0,-1.0,0.1420049861510439,1.0,0.0
7.034265518188477,9.439035415649414,-0.5010597705841064,-0.0,-0.0,-1.0,0.0933153947783614,1.0,0.0
7.402280807495117,8.957418441772461,-0.4651963710784912,-0.0,-0.0,-1.0,0.1165006103618139,1.0,0.0
7.670391082763672,9.618335723876951,-0.2376143932342529,-0.0,-0.0,-1.0,0.1248499546299712,2.0,0.0
7.2558441162109375,10.628369331359863,-0.1700299978256225,-0.0,-0.0,-1.0,0.213022332405513,1.0,0.0
7.582021713256836,9.452415466308594,-0.132303237915039,-0.0,-0.0,-1.0,0.1786555789383931,1.0,0.0
7.520208358764648,9.076462745666504,-0.1289854049682617,-0.0,-0.0,-1.0,0.0778439003888222,2.0,0.0
7.578630447387695,9.20164966583252,-0.1281081438064575,-0.0,-0.0,-1.0,0.1252219664041261,1.0,0.0
7.566741943359375,10.18616008758545,-0.1058756113052368,0.8818792234749144,-0.4170268098487012,0.2199492556720685,0.0861130250442581,3.0,0.0
7.383100509643555,10.52973747253418,-0.1346879005432129,-0.0552853364598894,-0.8126623917484594,-0.5801063425012609,0.23870129134804,4.0,0.0
7.693206787109375,9.743247985839844,-0.0695453882217407,-0.8983770292574611,0.018097931927595,-0.4388521142281114,0.0559812015398041,4.0,0.0
7.511253356933594,9.600333213806152,-0.0594066381454467,-0.0,-0.0,-1.0,0.1726800869972436,2.0,0.0
7.399814605712891,9.566497802734377,-0.0574984550476074,-0.2948468395050887,-0.8650092395053399,0.4059856608357667,0.2577935031248934,6.0,0.0
6.919055938720703,9.712013244628906,-0.0725393295288086,-0.0,-0.0,-1.0,0.141739657513829,2.0,0.0
6.655145645141602,9.612078666687012,-0.0664860010147094,-0.0,-0.0,-1.0,0.1823911068310559,1.0,0.0
6.270881652832031,9.26554012298584,-0.0417776107788085,-0.5216146482390005,-0.0592376480665268,-0.8511222355185238,0.1334252541604258,8.0,0.0
5.793384552001953,9.706266403198242,-0.0802716016769409,-0.0,-0.0,-1.0,0.1591634870193314,1.0,0.0
5.455207824707031,10.121265411376951,-0.1157143115997314,-0.0,-0.0,-1.0,0.1473819835158499,2.0,0.0
5.288219451904297,10.276748657226562,-0.1292991638183593,-0.0,-0.0,-1.0,0.1189077704249012,1.0,0.0
6.250406265258789,9.119699478149414,-0.0303716659545898,-0.5560652943987087,0.8158279540741156,-0.1587958995582687,0.1305923726760575,7.0,0.0
7.401556015014648,10.51319694519043,-0.1186680793762207,-0.0,-0.0,-1.0,0.2726528510180322,2.0,0.0
7.627353668212891,9.68124771118164,-0.0252799987792968,-0.0,-0.0,-1.0,0.1178640767165039,2.0,0.0
7.018245697021484,9.745925903320312,-0.026071548461914,0.2013326804964587,-0.5692124901526798,-0.7971588880632874,0.1634495125812748,3.0,0.0
6.842922210693359,9.704729080200195,-0.0195025205612182,-0.0,-0.0,-1.0,0.1417780297825354,1.0,0.0
6.300191879272461,9.21829605102539,0.0411994457244873,-0.0,-0.0,-1.0,0.0904568206465982,1.0,1.0
5.372119903564453,10.42660903930664,-0.0863504409790039,-0.0,-0.0,-1.0,0.2356774711795041,1.0,0.0
7.686365127563477,9.712998390197754,-0.0780251026153564,-0.9265819276090904,0.2799657081562938,-0.2511277238473823,0.0815212237819593,3.0,0.0
7.629583358764648,8.555732727050781,0.0487004518508911,-0.0,-0.0,-1.0,0.126133075127564,1.0,1.0
7.465299606323242,8.873942375183105,0.0146443843841552,-0.0,-0.0,-1.0,0.1002766833047957,1.0,1.0
7.233148574829102,9.202957153320312,-0.0205930471420288,-0.0,-0.0,-1.0,0.1588306695602663,1.0,0.0
7.037298202514648,9.744159698486328,-0.0793266296386718,-0.0,-0.0,-1.0,0.1193326889517742,2.0,0.0
7.1639862060546875,9.143343925476074,-0.0139588117599487,-0.0,-0.0,-1.0,0.1955038750752522,1.0,0.0
6.673393249511719,9.718253135681152,-0.0754780769348144,-0.0,-0.0,-1.0,0.1827581786397389,1.0,0.0
7.549625396728516,10.304636001586914,-0.1762325763702392,0.563040605889186,-0.7642457358965816,-0.3145055345837827,0.1103417330748279,3.0,0.0
7.598379135131836,9.659799575805664,-0.1436496973037719,0.2544611021014546,-0.4884387510976407,-0.8346718720212687,0.1690264435237442,4.0,0.0
7.374698638916016,10.508218765258787,-0.1941101551055908,-0.0,-0.0,-1.0,0.2464216269744894,2.0,0.0
7.387666702270508,8.810871124267578,-0.114235520362854,-0.0,-0.0,-1.0,0.229400881495989,1.0,0.0
6.9580230712890625,9.742111206054688,-0.1779772043228149,-0.0,-0.0,-1.0,0.1201471419472702,1.0,0.0
6.631980895996094,9.685075759887695,-0.1908718347549438,-0.0,-0.0,-1.0,0.1465351638186086,1.0,0.0
6.352254867553711,9.023120880126951,-0.1736413240432739,-0.3398529407214087,-0.8035606795262801,-0.4886616549334251,0.0448047342390715,3.0,0.0
6.320756912231445,9.233041763305664,-0.1848229169845581,-0.0,-0.0,-1.0,0.0457251783462615,2.0,0.0
5.647556304931641,9.979131698608398,-0.2515358924865722,-0.0,-0.0,-1.0,0.1473169360952214,1.0,0.0
5.470941543579102,9.924907684326172,-0.2574702501296997,-0.0,-0.0,-1.0,0.1193286608755034,1.0,0.0
7.266269683837891,10.43264389038086,0.0235766172409057,-0.0,-0.0,-1.0,0.1972866150726526,2.0,1.0
7.252941131591797,10.624688148498535,0.0206984281539917,-0.0,-0.0,-1.0,0.1679158126449105,1.0,1.0
6.78050422668457,9.640665054321287,0.0058693885803222,-0.0,-0.0,-1.0,0.2033607335502303,2.0,1.0
6.465412139892578,9.478297233581545,-0.0095672607421875,-0.0,-0.0,-1.0,0.0865779465839956,1.0,0.0
6.453651428222656,9.622360229492188,-0.011707067489624,-0.0,-0.0,-1.0,0.1481925196947302,1.0,0.0
5.678136825561523,9.767851829528809,-0.0554225444793701,-0.0,-0.0,-1.0,0.1933044605919148,1.0,0.0
7.561624526977539,9.64399242401123,0.0482265949249267,-0.4336346458212534,0.8746503863249527,-0.2166741693074809,0.2748950764287745,3.0,1.0
7.680902481079102,9.806302070617676,0.0529243946075439,0.2413674982410497,-0.8868390822350442,0.3940281373371215,0.1046431717037751,6.0,1.0
7.414268493652344,10.214521408081056,0.0340021848678588,-0.0,-0.0,-1.0,0.1110223014149685,2.0,1.0
7.433418273925781,8.369455337524414,0.0544809103012084,0.1967263833043412,0.0157531810654687,-0.9803318659506648,0.1355308154600706,3.0,1.0
7.403596878051758,8.640501022338867,0.0501351356506347,-0.0,-0.0,-1.0,0.1102414684214079,1.0,1.0
6.980838775634766,9.66765308380127,0.0164651870727539,-0.0,-0.0,-1.0,0.1606598823496834,1.0,1.0
7.016628265380859,8.995327949523926,0.0254266262054443,-0.0,-0.0,-1.0,0.1359500195925744,1.0,1.0
7.465293884277344,8.898082733154297,-0.1942347288131714,-0.3760359802652241,0.8297917214371278,-0.4123622686187242,0.1525034501605373,3.0,0.0
7.611763000488281,9.230884552001951,-0.1987274885177612,-0.654687670081239,-0.7506542661381469,-0.0888944732376471,0.1215090708629212,5.0,0.0
7.36652946472168,8.777266502380371,-0.1952053308486938,-0.0,-0.0,-1.0,0.1406613282271449,2.0,0.0
7.470090866088867,10.318115234375,-0.1213737726211547,-0.6405731497585254,-0.7607383168979485,-0.1046100043577007,0.0662268342530479,3.0,0.0
7.312591552734375,8.749651908874512,-0.0891036987304687,-0.0,-0.0,-1.0,0.267440218163271,1.0,0.0
7.279630661010742,8.918214797973633,-0.0953648090362548,-0.0,-0.0,-1.0,0.2106112896111477,1.0,0.0
7.286224365234375,10.524614334106444,-0.1374958753585815,-0.5112442662586787,-0.3333140267915627,-0.7921685803928471,0.1955149913963775,4.0,0.0
7.157758712768555,8.574226379394531,-0.0935641527175903,-0.0,-0.0,-1.0,0.0532725487171041,1.0,0.0
7.672195434570312,9.452223777770996,-0.1874866485595703,-0.0,-0.0,-1.0,0.1269749072995294,1.0,0.0
7.528112411499023,10.306795120239258,-0.2199926376342773,0.563040605889186,-0.7642457358965816,-0.3145055345837827,0.1121178246313997,3.0,0.0
7.53437614440918,9.12733554840088,-0.1880073547363281,-0.0,-0.0,-1.0,0.0880937403606326,2.0,0.0
7.089406967163086,10.18040657043457,0.1677579879760742,-0.0,-0.0,-1.0,0.1023729639942771,2.0,1.0
7.083635330200195,10.466930389404297,0.1612484455108642,-0.0,-0.0,-1.0,0.1263662574002955,1.0,1.0
6.722698211669922,9.816974639892578,0.1578456163406372,-0.0,-0.0,-1.0,0.1496653755301971,1.0,1.0
6.621061325073242,9.963592529296877,0.1498087644577026,-0.0,-0.0,-1.0,0.1501396465227815,1.0,1.0
5.410123825073242,9.05263614654541,0.1100949048995971,-0.0,-0.0,-1.0,0.2079048778246665,1.0,1.0
7.61335563659668,8.96787166595459,-0.1845847368240356,-0.0,-0.0,-1.0,0.171173401551023,1.0,0.0
7.663795471191406,9.224727630615234,-0.1658241748809814,-0.0,-0.0,-1.0,0.1330834731557585,1.0,0.0
7.58317756652832,10.213493347167969,-0.119949460029602,0.8818792234749144,-0.4170268098487012,0.2199492556720685,0.1054288329078082,3.0,0.0
7.3893890380859375,10.449243545532228,-0.1250381469726562,-0.0,-0.0,-1.0,0.1492578695506486,1.0,0.0
7.639928817749023,9.643354415893556,-0.1781291961669922,0.5335394276800529,0.0180612539737604,-0.8455823261018035,0.1909479795070498,3.0,0.0
7.66248893737793,10.071118354797363,-0.190487265586853,-0.0,-0.0,-1.0,0.0914733396442699,2.0,0.0
7.431173324584961,10.3322114944458,-0.2162109613418579,-0.0,-0.0,-1.0,0.096584947546059,1.0,0.0
6.911415100097656,9.414419174194336,-0.224624752998352,-0.0,-0.0,-1.0,0.1482007573554689,1.0,0.0
7.3705596923828125,10.55917739868164,0.4380804300308227,-0.0654736494921098,0.0018629805809788,-0.9978525595124456,0.0683432110170097,4.0,1.0
5.677906036376953,10.444280624389648,-0.0130293369293212,-0.0,-0.0,-1.0,0.1771704543495492,1.0,0.0
5.445186614990234,10.447378158569336,-0.0284157991409301,-0.0,-0.0,-1.0,0.2368042621400633,1.0,0.0
7.613245010375977,10.020606994628906,0.033332347869873,0.1661879185592874,-0.5530935163671523,-0.8163756107806935,0.0851061921097051,4.0,1.0
7.528118133544922,10.130230903625488,0.0319732427597045,0.5363303627459269,-0.7740564093385632,0.3364318908170167,0.0780716844031887,6.0,1.0
7.61533260345459,9.96186637878418,0.0310394763946533,-0.7125950263922519,-0.0449778631620698,-0.7001323590482019,0.1158540280931064,3.0,1.0
7.647420883178711,10.03725528717041,-0.0427836179733276,0.0492108596497535,-0.2200007541882693,-0.9742576453121244,0.0934421882552704,3.0,0.0
5.396243095397949,9.14891242980957,0.3812543153762817,-0.0,-0.0,-1.0,0.2595035618888784,1.0,1.0
5.322484970092773,9.2471342086792,0.3854334354400635,-0.0268552028428224,-0.3430185705946908,-0.9389446513546188,0.2470249738947714,6.0,1.0
7.685648918151856,9.944647789001465,-0.0182111263275146,-0.0,-0.0,-1.0,0.0572193534394874,2.0,0.0
7.117703437805176,9.086296081542969,-0.1201816797256469,0.8103072142239687,-0.4443336091296821,-0.3820600245699386,0.160212653862367,3.0,0.0
5.710500717163086,10.019611358642578,-0.0911405086517334,-0.0,-0.0,-1.0,0.2085408681276195,1.0,0.0
7.373102188110352,8.656750679016113,-0.1499247550964355,-0.0,-0.0,-1.0,0.1545140956536403,2.0,0.0
7.210619926452637,8.877655982971191,-0.1358296871185302,-0.0,-0.0,-1.0,0.067158290909407,2.0,0.0
7.630679130554199,8.187908172607422,-0.1835219860076904,-0.0,-0.0,-1.0,0.1934782847069957,2.0,0.0
7.362536430358887,8.277917861938477,-0.1856167316436767,-0.0,-0.0,-1.0,0.1874857893846323,2.0,0.0
5.443275451660156,9.141127586364746,0.4125560522079468,-0.0,-0.0,-1.0,0.2531891069379488,2.0,1.0
5.297656059265137,9.277636528015137,0.4205586314201355,-0.0,-0.0,-1.0,0.195840569944257,2.0,1.0
7.704486846923828,9.994242668151855,-0.1084570884704589,-0.0,-0.0,-1.0,0.0669999890149445,1.0,0.0
6.280710220336914,10.428149223327637,-0.123081088066101,-0.0,-0.0,-1.0,0.1503427638149956,1.0,0.0
6.132779121398926,10.320290565490724,-0.1405689716339111,-0.0,-0.0,-1.0,0.127358906173073,1.0,0.0
7.570025444030762,9.239283561706545,-0.1944198608398437,-0.1973263817184413,-0.77075593381379,-0.6058032597871529,0.1195806565469692,4.0,0.0
7.570493698120117,8.854435920715332,-0.2358671426773071,0.1850965896402837,0.0888779274646658,-0.9786929888954564,0.1858964445624409,3.0,0.0
7.442636489868164,9.05167007446289,-0.2196202278137207,-0.0,-0.0,-1.0,0.0640862106444524,1.0,0.0
7.666365623474121,8.59826946258545,-0.2599818706512451,-0.0,-0.0,-1.0,0.2003173971962844,2.0,0.0
7.3093414306640625,10.610949516296388,0.4272228479385376,-0.0,-0.0,-1.0,0.060203988981995,2.0,1.0
5.354247093200684,9.15767765045166,0.2790201902389526,-0.0987845172047284,-0.927433425702494,-0.3607060576845998,0.1990338306630144,3.0,1.0
6.271720886230469,8.158669471740723,-0.1745197772979736,-0.0,-0.0,-1.0,0.0616618941028508,1.0,0.0
7.195847511291504,10.548657417297363,0.0956318378448486,0.1753759716709521,0.5454194152290185,-0.8196102305679847,0.1394514424246698,3.0,1.0
5.889857292175293,10.57784652709961,0.0565673112869262,-0.0,-0.0,-1.0,0.193198632600325,1.0,1.0
7.644179344177246,9.843557357788086,0.0377488136291503,-0.9984304893564628,-0.0385246490005233,0.0406498381645107,0.0784302393228933,4.0,1.0
7.0765380859375,9.05683135986328,-0.0592401027679443,-0.0,-0.0,-1.0,0.1528125887847045,2.0,0.0
7.559033393859863,8.771787643432617,-0.0753716230392456,0.420701816441713,-0.5258233844837463,-0.7392697410098035,0.2183130395470655,4.0,0.0
7.325430870056152,8.631693840026855,-0.0963276624679565,0.2971579790176419,-0.4133064070585212,-0.8607409304724195,0.2352225471035046,3.0,0.0
7.085349082946777,8.78309440612793,-0.0872153043746948,-0.0,-0.0,-1.0,0.1168249126043842,2.0,0.0
7.165229797363281,8.431597709655762,-0.1214834451675415,-0.0,-0.0,-1.0,0.0896318516200823,2.0,0.0
6.9326324462890625,8.361137390136719,-0.1351684331893921,-0.0,-0.0,-1.0,0.0635224637869591,1.0,0.0
5.423680305480957,9.274284362792969,0.4527480602264404,-0.336324465876438,-0.9342637866263314,-0.1184779753859646,0.1272623049834814,4.0,1.0
5.257274627685547,9.445474624633787,-0.0890619754791259,-0.0,-0.0,-1.0,0.1350327407387123,1.0,0.0
6.816608428955078,8.265707015991211,-0.1045047044754028,-0.0,-0.0,-1.0,0.0553866334514809,1.0,0.0
7.171609878540039,10.57810878753662,0.1100443601608276,-0.566007985023752,-0.0635759065482086,-0.8219446848760112,0.1162735907419367,3.0,1.0
7.650608062744141,9.815237998962402,0.071959376335144,0.2947808657703967,-0.2132313447253164,-0.931470147026886,0.1061707855003867,4.0,1.0
7.2864990234375,8.738883018493652,-0.0398573875427246,-0.0,-0.0,-1.0,0.1529142898635383,2.0,0.0
7.494880676269531,8.6600980758667,-0.0367428064346313,-0.0,-0.0,-1.0,0.2068272790429911,2.0,0.0
7.115527153015137,8.406185150146484,-0.0775321722030639,0.2727742837992871,-0.7216438198244577,-0.6362581138240612,0.0886489430799583,3.0,0.0
5.384139060974121,9.216994285583496,0.4022253751754761,0.2045083715584353,0.5525362429703358,-0.8080099171215309,0.2516610253537994,4.0,1.0
5.270219802856445,10.509992599487305,0.1172561645507812,-0.5533654467855372,-0.8207918546531193,-0.1417300731635155,0.1871756360419824,4.0,1.0
7.359860897064209,10.500394821166992,0.1406272649765014,-0.0851129624597472,-0.0508798502852519,-0.9950713665141188,0.2031976176025253,3.0,1.0
7.07875394821167,10.603582382202148,0.1523168087005615,0.3130404960408957,0.1852647315871088,-0.9314948346976628,0.1897243766146625,5.0,1.0
7.245434284210205,10.315885543823242,0.1141195297241211,-0.0,-0.0,-1.0,0.1319354780245726,1.0,1.0
7.642237186431885,9.79643440246582,0.0434038639068603,-0.8257427425918491,-0.360922292770747,0.43345590506763,0.1387051028042341,5.0,1.0
7.672412872314453,9.742046356201172,0.0357661247253418,0.1223069376378291,-0.989694335174254,0.07447238367105,0.1360030933554767,3.0,1.0
7.081467151641846,8.829280853271484,-0.0966502428054809,-0.7019439095201288,-0.1987146084941205,-0.6839497439568394,0.12130168753509,3.0,0.0
7.552449226379395,8.87159538269043,-0.0896815061569213,-0.0,-0.0,-1.0,0.1822108316177343,2.0,0.0
7.223984241485596,8.656355857849121,-0.1212453842163086,-0.0,-0.0,-1.0,0.1412766850068369,1.0,0.0
6.7018632888793945,8.516725540161133,-0.1425334215164184,-0.0,-0.0,-1.0,0.0492745367272954,1.0,0.0
7.381023406982422,8.166475296020508,-0.1923848390579223,-0.0,-0.0,-1.0,0.1508631295079726,2.0,0.0
7.140482425689697,8.215537071228027,-0.1851382255554199,-0.0,-0.0,-1.0,0.1402340368352591,1.0,0.0
5.351110458374023,9.295839309692385,0.4198133945465088,-0.0,-0.0,-1.0,0.1889534384528152,1.0,1.0
