x,y,z,nx,ny,nz,curvature,density,label
45.68404006958008,2.7662220001220703,-0.8553705215454102,-0.0,-0.0,-1.0,0.2443765496953123,1.0,0.0
47.08539581298828,1.4700803756713867,-0.9510271549224854,-0.0,-0.0,-1.0,0.0944906932936578,2.0,0.0
47.089542388916016,1.139500617980957,-0.9436144828796388,-0.3792061079839418,-0.8260810228774926,-0.4168847218468763,0.0712199661753254,3.0,0.0
47.187530517578125,0.8319902420043945,-0.9453911781311036,-0.2114030613993499,-0.0940672156645326,-0.9728618116506088,0.1088966763613018,5.0,0.0
47.48897933959961,1.6449718475341797,-0.9918603897094728,-0.0,-0.0,-1.0,0.1200683256554869,2.0,0.0
45.708641052246094,2.644352912902832,-0.9354575872421264,-0.0,-0.0,-1.0,0.2334975323731566,1.0,0.0
46.77877426147461,1.0274810791015625,-0.9786492586135864,-0.0,-0.0,-1.0,0.14226235552662,2.0,0.0
46.838287353515625,0.7930450439453125,-0.9756113290786744,-0.0,-0.0,-1.0,0.1466596597494651,2.0,0.0
46.99720764160156,1.5926971435546875,-1.0215801000595093,-0.0,-0.0,-1.0,0.115433609414711,1.0,0.0
46.914493560791016,1.3562736511230469,-1.00444495677948,0.7782894249397826,-0.0520273454879089,-0.6257465352268313,0.1350723283405955,3.0,0.0
47.34311294555664,1.9524927139282229,-1.0693386793136597,-0.0,-0.0,-1.0,0.1095576116458282,2.0,0.0
47.6182861328125,2.176698684692383,-1.105021834373474,-0.6840116643244459,0.6897203254630118,-0.2375161377913062,0.0332577360134707,4.0,0.0
47.7070198059082,2.5798511505126953,-1.1293810606002808,-0.0,-0.0,-1.0,0.0174695815024611,1.0,0.0
47.69801330566406,1.504399299621582,-0.8876867294311523,-0.0,-0.0,-1.0,0.1730512003876153,1.0,0.0
47.69740295410156,1.6513795852661133,-0.8981480598449707,-0.0,-0.0,-1.0,0.1633638130377619,1.0,0.0
45.68262481689453,2.625713348388672,-0.7462716102600098,-0.0,-0.0,-1.0,0.1428126006058291,1.0,0.0
46.71110916137695,0.7062978744506836,-0.966020941734314,-0.0,-0.0,-1.0,0.173212536055912,2.0,0.0
45.748409271240234,1.3172111511230469,-0.8800822496414185,-0.0,-0.0,-1.0,0.1376833205325397,1.0,0.0
46.86137390136719,1.1626710891723633,-0.991820216178894,-0.0,-0.0,-1.0,0.1844132486337454,2.0,0.0
47.698577880859375,1.541337966918945,-1.0753499269485474,-0.0,-0.0,-1.0,0.1408822296571273,1.0,0.0
46.31742858886719,2.2039794921875,-0.948914647102356,-0.0,-0.0,-1.0,0.1644129436195038,1.0,0.0
46.41773986816406,2.2588868141174316,-0.9609318971633912,-0.5420625989668585,0.5779988731393327,-0.6099880666463536,0.2011197806411902,9.0,0.0
46.62019348144531,0.7318172454833984,-0.9966024160385132,-0.0,-0.0,-1.0,0.1660377329822304,2.0,0.0
46.64846420288086,1.0295896530151367,-1.004245638847351,-0.0,-0.0,-1.0,0.1646636037494539,2.0,0.0
46.786659240722656,1.2018766403198242,-1.0223616361618042,-0.2462124125835074,-0.109476668421399,-0.963013139557898,0.1749269686452347,5.0,0.0
46.88764190673828,1.468667984008789,-1.0382548570632937,0.0429757242085437,-0.0865785905444326,-0.9953176552177152,0.0729364911641791,4.0,0.0
47.17689514160156,1.5750579833984375,-1.0724400281906128,-0.0,-0.0,-1.0,0.1691931275146633,2.0,0.0
47.426143646240234,1.8894939422607424,-1.106873631477356,0.4833294130496862,-0.1219561839941629,-0.8669021672983798,0.1101264471106437,3.0,0.0
47.57096862792969,2.1498818397521973,-1.1289323568344116,-0.0,-0.0,-1.0,0.05301023986268,2.0,0.0
47.66304397583008,2.3406691551208496,-1.1438261270523071,0.3769865426464487,-0.593856621800137,-0.7107851007214532,0.0633743290101955,3.0,0.0
45.56206512451172,2.5526556968688965,-0.911861538887024,0.0875881249308538,-0.9331228595214196,-0.3487263245148924,0.200713285877632,5.0,0.0
46.86565780639648,0.6404790878295898,-1.0094387531280518,-0.0,-0.0,-1.0,0.1339161267365404,1.0,0.0
47.24013137817383,1.5136823654174805,-1.073009729385376,-0.0,-0.0,-1.0,0.090966599615184,2.0,0.0
47.477745056152344,1.9008374214172363,-1.11147141456604,-0.0,-0.0,-1.0,0.1226714623015127,1.0,0.0
47.63299560546875,2.2563605308532715,-1.139993667602539,0.315554817156958,-0.7396903700706575,-0.5943764075009812,0.0618683932791821,3.0,0.0
47.70102310180664,2.303372859954834,-1.1496005058288574,-0.0,-0.0,-1.0,0.0626498251371832,2.0,0.0
46.784889221191406,0.7909536361694336,-1.0028905868530271,-0.0,-0.0,-1.0,0.2171409622716812,2.0,0.0
46.84724044799805,1.1663360595703125,-1.0180881023406982,0.8381086427217554,0.3719289621438653,-0.3990523150085514,0.1837798356639681,3.0,0.0
47.022369384765625,1.545903205871582,-1.04770827293396,-0.0,-0.0,-1.0,0.0886814667176632,1.0,0.0
47.20182800292969,1.6139068603515625,-1.070840835571289,0.7503894253236768,-0.4621392309414938,-0.472591834025099,0.1689451468756956,3.0,0.0
45.58480072021485,2.555243968963623,-0.8996984958648682,0.7801622219519931,-0.6255306337962696,-0.0076376450144005,0.2249367864794799,6.0,0.0
46.60564422607422,0.6546840667724609,-0.9995406866073608,-0.1004112054772871,0.9942846553510488,-0.0362713929708266,0.1441567540872227,3.0,0.0
46.759971618652344,0.8966093063354492,-1.007386326789856,-0.0,-0.0,-1.0,0.1643686986712172,2.0,0.0
46.92982482910156,1.2725467681884766,-1.0141416788101196,-0.0,-0.0,-1.0,0.1605992713288984,2.0,0.0
47.27241516113281,1.4448127746582031,-1.0454665422439575,-0.3061111444753507,0.7084511182537112,-0.6359190044911825,0.0641179867551581,3.0,0.0
46.96868896484375,1.4908342361450195,-1.012773871421814,-0.0,-0.0,-1.0,0.0856625886095713,2.0,0.0
47.28643798828125,1.5994577407836914,-1.0436357259750366,-0.0,-0.0,-1.0,0.0738679952179655,2.0,0.0
45.55633544921875,2.444581985473633,-0.8445390462875366,0.7612149671762097,0.3060553968628554,-0.5717358374267283,0.1627291350925105,3.0,0.0
45.59210205078125,2.5031228065490723,-0.8472412824630737,0.1804177620262153,-0.6958205772050771,-0.6951856985607839,0.2038403430788459,4.0,0.0
45.87151336669922,0.8391084671020508,-1.1778435707092283,-0.0,-0.0,-1.0,0.1118039093631479,2.0,0.0
45.78329849243164,1.2303133010864258,-1.16481351852417,-0.0,-0.0,-1.0,0.1507687813965557,1.0,0.0
46.241416931152344,2.176227569580078,-1.2285220623016355,-0.0,-0.0,-1.0,0.1675616988731632,1.0,0.0
46.18092727661133,2.2796387672424316,-1.2205944061279297,-0.0174122642512886,-0.0605959784236015,-0.9980104911535398,0.1156455970937578,4.0,0.0
46.704132080078125,2.322340488433838,-1.2934110164642334,-0.0,-0.0,-1.0,0.1471601606199084,1.0,0.0
45.71331787109375,2.5466909408569336,-1.1570706367492676,-0.5262144192593834,-0.8428869117102792,-0.1124279281629693,0.151345834869832,3.0,0.0
45.73322296142578,0.9148387908935548,-1.2380415201187134,-0.0,-0.0,-1.0,0.0557777903743,2.0,0.0
45.81098175048828,1.1922636032104492,-1.2437373399734497,-0.0,-0.0,-1.0,0.0912691135687951,1.0,0.0
45.78394317626953,2.488214015960694,-1.2216051816940308,-0.0,-0.0,-1.0,0.1613572015916821,1.0,0.0
46.12327575683594,2.422240734100342,-1.270907282829285,-0.0,-0.0,-1.0,0.0672343076054866,1.0,0.0
46.3799934387207,2.405341148376465,-1.307813048362732,-0.0,-0.0,-1.0,0.0930132399047445,1.0,0.0
45.3531494140625,3.1133103370666504,-1.1539353132247925,-0.0,-0.0,-1.0,0.0330581677107269,1.0,0.0
46.96489715576172,0.9573354721069336,-0.9577840566635132,-0.0,-0.0,-1.0,0.1188564105061277,1.0,0.0
47.093448638916016,1.2752704620361328,-0.9720190763473512,-0.0,-0.0,-1.0,0.102389992212532,1.0,0.0
47.33455657958984,1.3273420333862305,-1.0029224157333374,0.1072336352123962,0.8153440167578152,-0.5689596486714733,0.0883569880804405,3.0,0.0
47.48046112060547,1.4888391494750977,-1.021098017692566,-0.0,-0.0,-1.0,0.1050331669553539,1.0,0.0
46.49959564208984,2.1529154777526855,-0.8903824090957642,-0.0,-0.0,-1.0,0.2513237073627459,1.0,0.0
45.211124420166016,3.109989643096924,-1.2163801193237305,-0.0,-0.0,-1.0,0.0394531402227218,1.0,0.0
47.05229187011719,0.7869691848754883,-0.9425444602966307,-0.1590643346153351,-0.9142577169705248,0.3726008110742974,0.0942765583405275,4.0,0.0
46.991180419921875,1.116130828857422,-0.9300651550292968,-0.1814244827349753,0.4076589780832663,-0.8949297819675316,0.151385238524408,5.0,0.0
47.40275573730469,1.197495460510254,-0.9841444492340088,-0.0,-0.0,-1.0,0.0473502796813148,1.0,0.0
47.448543548583984,1.4210443496704102,-0.98803448677063,-0.0,-0.0,-1.0,0.1166649743419885,2.0,0.0
46.4000244140625,2.154336452484131,-0.8396039009094238,-0.0,-0.0,-1.0,0.2073612182345117,2.0,0.0
46.498165130615234,2.2397470474243164,-0.8522427082061768,0.2628851584680021,0.8010955713451251,-0.5377148677770412,0.146741284634054,6.0,0.0
45.93501663208008,0.8456325531005859,-1.107285976409912,-0.0253070669455248,-0.0126418334756134,-0.9995997881197196,0.1550821492594592,4.0,0.0
46.13411331176758,0.9810333251953124,-1.130932092666626,0.2716287366827624,-0.8167139693846357,-0.5091130735112969,0.0921201329814135,3.0,0.0
46.50431823730469,1.8289494514465332,-1.1536731719970703,-0.0,-0.0,-1.0,0.1070830696281127,1.0,0.0
46.6822509765625,1.5990047454833984,-1.1893045902252195,-0.2304981937204399,-0.5512939146367096,-0.801838888041823,0.0899691920076816,3.0,0.0
46.16490173339844,2.08553695678711,-1.092315435409546,-0.0,-0.0,-1.0,0.1225989147596048,1.0,0.0
46.57441329956055,2.1703124046325684,-1.1529130935668943,0.6683104649070652,0.1788781819048544,-0.7220552046305849,0.117890196550315,3.0,0.0
46.870567321777344,2.011575698852539,-1.2041819095611572,-0.0,-0.0,-1.0,0.1352775753030507,1.0,0.0
47.14008712768555,2.109328269958496,-1.2431788444519043,-0.0,-0.0,-1.0,0.0546688319663451,1.0,0.0
46.98138046264648,2.2688755989074707,-1.2134153842926023,-0.0,-0.0,-1.0,0.1093898840883622,1.0,0.0
47.233360290527344,2.2998385429382324,-1.252117156982422,-0.0,-0.0,-1.0,0.0594291450697041,1.0,0.0
46.466827392578125,2.9003615379333496,-1.1142199039459229,-0.0,-0.0,-1.0,0.1414839708322923,1.0,0.0
46.983673095703125,2.829750061035156,-1.1981358528137207,-0.0,-0.0,-1.0,0.0868522197907154,2.0,0.0
47.1319694519043,2.759385108947754,-1.223519802093506,-0.0,-0.0,-1.0,0.0685917274118914,1.0,0.0
45.641380310058594,2.4939846992492676,-0.997323751449585,0.8283027119525512,0.0352411657790708,-0.5591714205917369,0.249581081470907,4.0,0.0
46.71101379394531,0.9854097366333008,-1.1285123825073242,-0.0,-0.0,-1.0,0.1853932349346155,2.0,0.0
46.60997009277344,1.5115175247192385,-1.0908687114715576,-0.0,-0.0,-1.0,0.1048569935359649,1.0,0.0
46.81855010986328,1.4199790954589844,-1.1270091533660889,-0.0,-0.0,-1.0,0.1238488439345191,1.0,0.0
46.986202239990234,1.7236528396606443,-1.1415510177612305,0.5577745885172193,-0.713089571692203,0.4247243472515761,0.1530683417946335,3.0,0.0
47.34964370727539,1.891831874847412,-1.1930155754089355,-0.0,-0.0,-1.0,0.1306859384253988,2.0,0.0
47.500301361083984,2.0833840370178223,-1.210803747177124,-0.8682695874004817,-0.4915669298125384,-0.0668571395594515,0.0540892499951497,3.0,0.0
47.47620391845703,2.532011032104492,-1.1932311058044434,-0.0,-0.0,-1.0,0.0468817248658762,2.0,0.0
45.65028381347656,1.3936824798583984,-0.9486336708068848,-0.0,-0.0,-1.0,0.2588944925676904,2.0,0.0
46.21452331542969,1.3567523956298828,-1.0363032817840576,-0.0,-0.0,-1.0,0.1508860047065984,1.0,0.0
46.58401870727539,2.204188346862793,-1.0608127117156982,-0.0,-0.0,-1.0,0.1421927412016275,1.0,0.0
45.67374038696289,2.5845937728881836,-0.9034881591796876,-0.0,-0.0,-1.0,0.2821970934152459,2.0,0.0
46.860713958740234,2.5860390663146973,-1.0924761295318604,-0.0,-0.0,-1.0,0.1172526549774353,1.0,0.0
45.29863739013672,2.7926759719848633,-1.2070664167404177,0.1178302174573299,0.4624075897513243,-0.8788033117793367,0.0331948946714644,3.0,0.0
45.46197509765625,2.5279955863952637,-1.257104754447937,-0.0,-0.0,-1.0,0.1192119094311142,1.0,0.0
46.69857025146485,0.9438085556030272,-1.0729221105575562,-0.0,-0.0,-1.0,0.2137702163075069,1.0,0.0
46.8397331237793,1.118391036987305,-1.0828527212142944,-0.0,-0.0,-1.0,0.1343466034595405,1.0,0.0
46.77017974853515,1.2507829666137695,-1.0643922090530396,-0.0,-0.0,-1.0,0.1515697988929829,1.0,0.0
46.94637680053711,1.3711748123168943,-1.0835531949996948,-0.0,-0.0,-1.0,0.1294035233697008,1.0,0.0
47.16089630126953,1.7243914604187012,-1.0957659482955933,0.4341800028129926,0.4851608849567369,-0.7590168910276673,0.1291052163546632,3.0,0.0
45.61759185791016,2.466893196105957,-0.8184829950332642,-0.4808738904369942,0.3518112191876777,-0.8031121761931327,0.1999597004979945,4.0,0.0
46.47924041748047,2.2274317741394043,-0.9633933305740356,-0.7464769636472337,-0.6351151884676158,-0.1984964486376302,0.2118618539502933,7.0,0.0
47.31797409057617,1.9195637702941897,-1.1091145277023315,-0.7930294615631421,0.001269355015774,-0.6091819611829594,0.1255056577986008,3.0,0.0
47.56098175048828,2.046377182006836,-1.1401814222335815,-0.787628799771486,0.3817300683569179,-0.4836558990467821,0.1093618223378768,4.0,0.0
45.91180419921875,0.6600971221923828,-1.146230936050415,-0.0,-0.0,-1.0,0.1136019037196271,2.0,0.0
45.99747467041016,0.9868669509887696,-1.131878137588501,-0.0,-0.0,-1.0,0.0823262822755523,1.0,0.0
46.16162872314453,1.5677080154418943,-1.1117970943450928,-0.0,-0.0,-1.0,0.1661971988080745,2.0,0.0
46.482330322265625,1.4635419845581057,-1.174558162689209,-0.0,-0.0,-1.0,0.1443733517985951,1.0,0.0
46.72859954833984,1.9161052703857424,-1.1834735870361328,-0.8555354580008314,-0.090733663442954,-0.509731774977319,0.1581091925682242,3.0,0.0
46.805809020996094,1.8619093894958496,-1.2008678913116455,-0.0,-0.0,-1.0,0.0859144063740527,1.0,0.0
46.65753173828125,2.107347011566162,-1.157515287399292,-0.0,-0.0,-1.0,0.1024149048912558,1.0,0.0
47.0611572265625,2.036200046539306,-1.233757257461548,-0.0,-0.0,-1.0,0.1092614314438299,2.0,0.0
47.25147247314453,2.1076016426086426,-1.2628278732299805,-0.0,-0.0,-1.0,0.0334199678233545,1.0,0.0
46.73811340332031,2.646214008331299,-1.1359150409698486,-0.0,-0.0,-1.0,0.107291946553839,2.0,0.0
47.023197174072266,2.6321191787719727,-1.188257932662964,-0.0,-0.0,-1.0,0.1821451079364597,2.0,0.0
46.98357772827149,2.739090919494629,-1.1744983196258545,-0.5212421177256554,-0.2447065311890486,-0.8175728519846394,0.1647793087673645,5.0,0.0
47.67851257324219,0.8633823394775391,-0.8946752548217773,0.4869789038844083,0.4254431783010135,-0.7627906981660645,0.0743828956476193,3.0,0.0
47.66501235961914,1.689467430114746,-0.850283145904541,-0.0,-0.0,-1.0,0.1210032480934866,1.0,0.0
45.589691162109375,2.3896684646606445,-0.9508790969848632,-0.0,-0.0,-1.0,0.149431679688843,2.0,0.0
45.56900405883789,2.5567374229431152,-0.9349732398986816,0.0334251322333607,-0.933224253743362,0.3577362894092902,0.1743786452135264,6.0,0.0
45.747039794921875,0.7613134384155273,-1.2274683713912964,0.6701400945586233,-0.1639763779586527,-0.7238950207982651,0.0747473875688733,3.0,0.0
46.36174774169922,1.697676181793213,-1.2019399404525757,-0.0,-0.0,-1.0,0.0894641687095997,1.0,0.0
46.71903991699219,1.865417003631592,-1.2395738363265991,-0.0,-0.0,-1.0,0.0667191782219778,1.0,0.0
46.87324523925781,2.1015424728393555,-1.237709641456604,0.4558406327580783,-0.6573492418919273,-0.6000844038223484,0.1043150812784067,3.0,0.0
47.1745719909668,2.166149139404297,-1.2805382013320925,-0.0,-0.0,-1.0,0.0395093031185229,1.0,0.0
47.018287658691406,2.661562442779541,-1.2001835107803345,-0.9420786430337856,-0.2483751569025136,-0.2253832553080928,0.0954340799246011,3.0,0.0
45.455474853515625,1.0659399032592771,-1.1430095434188845,-0.0,-0.0,-1.0,0.096782037205774,1.0,0.0
45.494659423828125,1.2044153213500977,-1.1303235292434692,-0.0,-0.0,-1.0,0.1484130524944923,1.0,0.0
47.02777862548828,0.8788700103759766,-0.9249695539474488,-0.0,-0.0,-1.0,0.1004114423520364,1.0,0.0
47.107383728027344,0.6537275314331055,-0.9583157300949096,-0.0,-0.0,-1.0,0.0882589772350998,2.0,0.0
46.15849304199219,1.611173152923584,-1.180309176445007,-0.0,-0.0,-1.0,0.0628257193868758,2.0,0.0
47.40856170654297,1.0171613693237305,-0.9610010385513306,-0.0,-0.0,-1.0,0.0240033801982301,2.0,0.0
45.59328842163086,2.3450803756713867,-1.0003653764724731,0.2639556800320903,-0.8479201369590523,0.4597377951812729,0.148574577663714,3.0,0.0
46.202335357666016,1.740459442138672,-1.1712990999221802,-0.4741600193189634,-0.3536145502595183,-0.8063057893406195,0.1449266682973939,3.0,0.0
47.609153747558594,1.3645153045654297,-0.9541326761245728,-0.0,-0.0,-1.0,0.1393448624750491,1.0,0.0
45.5513916015625,2.5019493103027344,-0.9747430086135864,0.8374811071875709,-0.5447963652679644,0.0426885874057129,0.1310511358214026,5.0,0.0
46.55211639404297,2.1462597846984863,-1.1795090436935425,0.8164364207402697,-0.1364225832601884,-0.5610886290644596,0.0529397994614899,3.0,0.0
46.65658187866211,2.6941213607788086,-1.1353334188461304,-0.6770032887861922,-0.5802377629503803,-0.4527589705560991,0.1482621035791839,5.0,0.0
46.956199645996094,2.6245131492614746,-1.1935995817184448,-0.0,-0.0,-1.0,0.1098773347936547,2.0,0.0
46.98052215576172,2.7338857650756836,-1.1860448122024536,-0.7745485883622706,-0.5058609368705702,-0.3797093583445664,0.1044486577116246,5.0,0.0
46.309268951416016,0.7537469863891602,-1.108335018157959,0.0210003679164048,0.990077234003528,0.1389462315260799,0.0755885555401939,3.0,0.0
46.490379333496094,0.7093076705932617,-1.1398627758026123,-0.0,-0.0,-1.0,0.034769699533262,1.0,0.0
46.56980895996094,0.9265575408935548,-1.1232571601867676,0.5468466000781725,0.7386402619201434,-0.3941692015537052,0.2091544287329414,3.0,0.0
46.60281753540039,0.8975963592529297,-1.1317338943481443,-0.0,-0.0,-1.0,0.1886318487398872,2.0,0.0
45.54378509521485,2.2249698638916016,-1.2044048309326172,-0.0,-0.0,-1.0,0.1735461625401208,2.0,0.0
45.65778350830078,2.2289562225341797,-1.2240254878997805,-0.5631816038289654,-0.591035835247462,0.5774972922550973,0.0759126519669643,3.0,0.0
46.74465560913086,1.2302589416503906,-1.1105430126190186,-0.0,-0.0,-1.0,0.1195268084232079,1.0,0.0
45.67700958251953,2.5722126960754395,-1.1784710884094238,-0.0,-0.0,-1.0,0.214967273792707,2.0,0.0
45.77997589111328,2.362548828125,-1.2267887592315674,-0.0,-0.0,-1.0,0.0915443199830254,1.0,0.0
46.13185501098633,2.282676696777344,-1.3016929626464844,-0.0,-0.0,-1.0,0.1075066844125256,1.0,0.0
46.99900436401367,1.577773094177246,-1.106520652770996,-0.0,-0.0,-1.0,0.1008293503954796,2.0,0.0
45.7130126953125,2.957758903503418,-1.1320946216583252,-0.0,-0.0,-1.0,0.1900937000560613,2.0,0.0
46.22679138183594,2.676314353942871,-1.2654452323913574,-0.0,-0.0,-1.0,0.1189939770259205,1.0,0.0
46.33638000488281,2.4860482215881348,-1.3114244937896729,-0.0,-0.0,-1.0,0.0563719841824179,1.0,0.0
47.384666442871094,1.8898820877075195,-1.1300532817840576,-0.0,-0.0,-1.0,0.1209119830648725,2.0,0.0
46.36820983886719,2.93295955657959,-1.2584576606750488,-0.0,-0.0,-1.0,0.133117360776045,1.0,0.0
47.610321044921875,2.1560745239257812,-1.136404514312744,-0.2259507030703017,0.8394126578866266,-0.4943001816323214,0.0396403816234278,3.0,0.0
46.145240783691406,0.6996231079101562,-1.092475175857544,-0.0,-0.0,-1.0,0.023645931753866,1.0,0.0
45.60169982910156,1.4385027885437012,-0.9181299209594728,-0.3022492781615362,0.3651301955283755,-0.8805255897270907,0.2708268102040148,5.0,0.0
46.70203399658203,1.3305058479309082,-1.0918805599212646,-0.0,-0.0,-1.0,0.1273606000145209,1.0,0.0
46.41494369506836,2.215118408203125,-0.9423234462738036,0.9049129021357644,0.0275259959180411,-0.4247057323570616,0.2798833082476157,5.0,0.0
46.468528747558594,2.1286215782165527,-0.960639238357544,-0.0,-0.0,-1.0,0.170405294777718,2.0,0.0
46.88819122314453,1.6008315086364746,-1.0870082378387451,-0.0,-0.0,-1.0,0.0792574998352393,2.0,0.0
46.43751525878906,2.2731924057006836,-0.939070463180542,0.0229809832807674,-0.7373659193914022,-0.6751024924613457,0.2317846223152588,7.0,0.0
45.70403289794922,2.268221855163574,-1.222456455230713,-0.0,-0.0,-1.0,0.107229336733113,2.0,0.0
45.83601379394531,2.3750481605529785,-1.2323293685913086,-0.0,-0.0,-1.0,0.0689965074651374,1.0,0.0
46.19290542602539,2.316786766052246,-1.3097617626190186,-0.0,-0.0,-1.0,0.1001925678829254,1.0,0.0
46.273658752441406,2.7070045471191406,-1.272322177886963,-0.0,-0.0,-1.0,0.143095207321236,1.0,0.0
46.29654312133789,2.4314379692077637,-1.314058780670166,-0.0,-0.0,-1.0,0.0991250814304171,1.0,0.0
46.408416748046875,3.004016876220703,-1.260576248168945,-0.0,-0.0,-1.0,0.1570636005974628,1.0,0.0
45.98875045776367,0.7568879127502441,-1.0839972496032717,-0.0793986885262598,-0.1520350525051,-0.9851807910582108,0.0628241503921152,3.0,0.0
45.583152770996094,1.4357309341430664,-0.9305801391601562,-0.3022492781615362,0.3651301955283755,-0.8805255897270907,0.2708268102040148,5.0,0.0
46.35603713989258,0.8243532180786133,-1.130763292312622,-0.0,-0.0,-1.0,0.0846911572519771,1.0,0.0
45.63883209228515,2.259298801422119,-1.211453199386597,-0.5631816038289654,-0.591035835247462,0.5774972922550973,0.1451399435396385,3.0,0.0
46.56098937988281,1.3069114685058594,-1.0999290943145752,-0.0,-0.0,-1.0,0.1060123222579089,1.0,0.0
46.59750747680664,1.043403148651123,-1.1394245624542236,-0.7845476316707739,0.6078183810553364,0.1226451356191884,0.1535067191278769,3.0,0.0
45.73906707763672,2.967146873474121,-1.131089210510254,-0.0,-0.0,-1.0,0.135367532090226,2.0,0.0
45.84986877441406,2.499821662902832,-1.2172906398773191,-0.0,-0.0,-1.0,0.1164754714031732,1.0,0.0
46.81388473510742,1.5771417617797852,-1.1069397926330566,-0.1220542689729472,0.3157051038301568,-0.9409745176364074,0.0786511879701028,3.0,0.0
46.79193878173828,1.335254192352295,-1.1331467628479004,-0.0,-0.0,-1.0,0.1321793582930193,2.0,0.0
47.65007781982422,0.6413731575012207,-0.8910689353942871,0.6497908737281223,0.7008376223839629,-0.2942761415249923,0.0504978925206269,3.0,0.0
46.477195739746094,2.280470848083496,-0.9674851894378662,-0.1009173671977158,0.6167772546516244,-0.7806417252122042,0.2012859471863624,7.0,0.0
46.673587799072266,2.048250198364258,-1.0273089408874512,-0.0,-0.0,-1.0,0.0953914086676182,1.0,0.0
46.97565460205078,1.837552547454834,-1.1022450923919678,0.5967139384798242,-0.1905143652581236,-0.7795105850815567,0.1296190986639644,7.0,0.0
47.29640197753906,1.7888422012329102,-1.161125421524048,-0.0,-0.0,-1.0,0.111835988294915,2.0,0.0
47.47211837768555,2.096701145172119,-1.1558465957641602,-0.5179314530545027,0.3589679473266276,-0.7764592859441884,0.0834027251665809,4.0,0.0
47.41807556152344,1.933962345123291,-1.1649177074432373,-0.0,-0.0,-1.0,0.1172835439751014,1.0,0.0
47.66926193237305,2.39976167678833,-1.1567714214324951,-0.0,-0.0,-1.0,0.0366256517014747,1.0,0.0
45.60565185546875,2.4976015090942383,-0.7982077598571777,-0.4808738904369942,0.3518112191876777,-0.8031121761931327,0.1614631022105845,4.0,0.0
45.810791015625,1.050527572631836,-1.205142855644226,-0.0,-0.0,-1.0,0.1014917427539649,1.0,0.0
45.77601623535156,0.8278460502624512,-1.2340275049209597,-0.3153416436764185,0.0858688454178016,-0.9450852814164806,0.0530821174414845,4.0,0.0
45.44293594360352,2.707125663757324,-1.2474099397659302,-0.0,-0.0,-1.0,0.0827941912410675,1.0,0.0
45.437591552734375,2.4697561264038086,-1.2838197946548462,-0.0,-0.0,-1.0,0.1117685569892025,1.0,0.0
46.13337707519531,1.6206989288330078,-1.1765283346176147,-0.0,-0.0,-1.0,0.0530985538060728,2.0,0.0
45.73810577392578,2.7691521644592285,-1.302378535270691,-0.0,-0.0,-1.0,0.0702653811960193,1.0,0.0
46.274192810058594,1.7881622314453125,-1.1783090829849243,-0.0,-0.0,-1.0,0.0984557334198315,1.0,0.0
46.5004997253418,2.1972241401672363,-1.1646157503128052,-0.0,-0.0,-1.0,0.1505565074102733,1.0,0.0
46.723411560058594,2.049623966217041,-1.226270079612732,-0.0,-0.0,-1.0,0.1358968390613059,1.0,0.0
46.62939453125,2.7200093269348145,-1.122784972190857,-0.444247900192577,-0.5518140035938285,-0.7057939562026845,0.1802562049569775,5.0,0.0
46.88923263549805,2.672433853149414,-1.179345965385437,-0.0,-0.0,-1.0,0.1347202890801208,1.0,0.0
47.05394744873047,2.199277400970459,-1.2699090242385864,-0.0,-0.0,-1.0,0.0431165150658917,2.0,0.0
47.01088333129883,2.882946014404297,-1.1783608198165894,-0.5953637194062166,-0.1207014769439744,-0.7943382120220197,0.0787553188138356,4.0,0.0
47.0175895690918,2.7704620361328125,-1.1928805112838743,-0.6816614053712114,0.3687417001064196,-0.6319551305511907,0.0790285932683003,3.0,0.0
45.59270477294922,1.3734345436096191,-1.1177383661270142,-0.0,-0.0,-1.0,0.1912205450434649,2.0,0.0
45.549949645996094,2.6275525093078613,-0.928637146949768,-0.0,-0.0,-1.0,0.2195572372703125,2.0,0.0
45.60293197631836,2.427586555480957,-0.96583092212677,0.6304063958506315,-0.4651822594520074,-0.6214444798706819,0.1294115400991216,3.0,0.0
46.83585739135742,1.005772590637207,-0.9702743291854858,-0.0,-0.0,-1.0,0.1672983304278762,2.0,0.0
46.79368209838867,0.8332300186157227,-0.9854713678359984,-0.969519311833115,0.2329433554532675,-0.0759585224501901,0.1606452747082493,3.0,0.0
46.37931060791016,2.788191318511963,-1.0657647848129272,-0.0,-0.0,-1.0,0.1796314282102352,1.0,0.0
46.49085998535156,2.243208885192871,-0.771774172782898,-0.9795358775054496,0.1372321444152748,-0.1472304425681528,0.2011479547128362,6.0,0.0
46.47520446777344,2.120387554168701,-0.7830408811569214,-0.6114634949668895,-0.7507186514175621,-0.2500677922817617,0.220638869892701,5.0,0.0
47.11717987060547,1.199845314025879,-0.9897643327713012,-0.0,-0.0,-1.0,0.0455575115567897,1.0,0.0
46.977691650390625,1.0504217147827148,-0.986258864402771,-0.4636467175305355,-0.3789799665583661,-0.8008782093867829,0.1366197443196896,3.0,0.0
47.37529754638672,1.41544771194458,-1.004693627357483,-0.0,-0.0,-1.0,0.1098660147145039,1.0,0.0
47.42647933959961,1.256361961364746,-1.0309604406356812,-0.0,-0.0,-1.0,0.060291336665054,1.0,0.0
45.60051727294922,2.983412742614746,-1.1709928512573242,-0.0,-0.0,-1.0,0.0326685079437167,1.0,0.0
45.63986587524414,2.581240653991699,-1.22981858253479,-0.0,-0.0,-1.0,0.1298357267386835,1.0,0.0
45.58320617675781,2.3522820472717285,-1.2447130680084229,-0.0,-0.0,-1.0,0.1612379194768123,1.0,0.0
45.98856735229492,1.4172849655151367,-1.089172601699829,-0.0,-0.0,-1.0,0.1269172670951924,1.0,0.0
45.94000244140625,0.918510913848877,-1.1398990154266355,0.4926940761576096,-0.8388039675294627,-0.2316472563533433,0.1738691961402082,6.0,0.0
46.03929138183594,3.0251731872558594,-1.277836561203003,-0.0,-0.0,-1.0,0.0753690295842714,2.0,0.0
46.18272018432617,1.482597827911377,-1.1221697330474854,-0.0,-0.0,-1.0,0.138934235516213,1.0,0.0
46.185245513916016,1.1483755111694336,-1.1620893478393557,-0.0,-0.0,-1.0,0.1101129448420634,2.0,0.0
46.52323532104492,2.1560239791870117,-1.1209025382995603,-0.006172639634765,0.9148289812286998,-0.4037942961756628,0.1206025706489961,3.0,0.0
46.54918670654297,1.5569868087768557,-1.1912200450897217,-0.0,-0.0,-1.0,0.0885176456733584,2.0,0.0
46.921607971191406,2.708235740661621,-1.1547319889068604,-0.0,-0.0,-1.0,0.1879875673219662,2.0,0.0
46.98170852661133,2.5862016677856445,-1.179407835006714,-0.0,-0.0,-1.0,0.2033709155215031,2.0,0.0
46.948280334472656,2.0617756843566895,-1.2234838008880615,-0.8616659467416824,-0.0946849033243151,-0.4985645046613585,0.1415503622274811,4.0,0.0
46.83258438110352,1.7307014465332031,-1.2328002452850342,-0.0,-0.0,-1.0,0.0596107411452818,1.0,0.0
47.0084342956543,2.800222873687744,-1.165639877319336,-0.0,-0.0,-1.0,0.092019107184855,2.0,0.0
47.12152862548828,2.407374858856201,-1.227541208267212,-0.0,-0.0,-1.0,0.0838374587371038,1.0,0.0
47.2247314453125,2.1585440635681152,-1.2745141983032229,-0.0,-0.0,-1.0,0.028830429691109,1.0,0.0
45.58558654785156,2.5360231399536133,-0.8776440620422363,0.2971554789881842,-0.6727512741929484,-0.6775723905082518,0.2236002122942969,5.0,0.0
45.59479904174805,2.313432216644287,-0.9037022590637208,-0.0,-0.0,-1.0,0.1259271175635344,1.0,0.0
45.71916198730469,1.3051190376281738,-1.0470001697540283,-0.0,-0.0,-1.0,0.1473397232434062,1.0,0.0
46.35932922363281,2.7197766304016113,-1.0282278060913086,-0.0,-0.0,-1.0,0.1331654077499223,1.0,0.0
46.88174819946289,1.0770740509033203,-0.9084718227386476,0.2636795323244368,-0.2281236970365728,-0.9372473969467892,0.1130369419720114,5.0,0.0
46.78605270385742,0.6447157859802246,-0.9330806732177734,-0.0,-0.0,-1.0,0.156726546937652,2.0,0.0
46.63551712036133,2.687873363494873,-1.0926282405853271,-0.305549986916303,-0.7165051157132724,-0.6271041577378973,0.1535473603234144,5.0,0.0
47.1283073425293,1.2119574546813965,-0.94073486328125,-0.0,-0.0,-1.0,0.0455575115567898,1.0,0.0
47.070106506347656,0.7688941955566406,-0.9717445373535156,-0.965138518163911,-0.0817764059230385,-0.2486368037734566,0.0889828546245507,6.0,0.0
47.52243423461914,1.508509635925293,-0.9870407581329346,-0.0,-0.0,-1.0,0.1216986809433875,2.0,0.0
47.32548522949219,1.3557696342468262,-0.9638941287994384,-0.0,-0.0,-1.0,0.0857938916499519,2.0,0.0
45.27032470703125,1.3869686126708984,-1.2559248208999634,-0.0,-0.0,-1.0,0.1170607900825305,1.0,0.0
45.2429313659668,1.2889275550842283,-1.2619532346725464,-0.0,-0.0,-1.0,0.0788432352459794,1.0,0.0
45.722389221191406,2.696262836456299,-1.2224737405776978,-0.0,-0.0,-1.0,0.1171057648796626,1.0,0.0
45.629119873046875,2.4157419204711914,-1.2264705896377563,-0.0,-0.0,-1.0,0.2108231875498741,1.0,0.0
46.11790084838867,2.935553550720215,-1.3069905042648315,-0.0,-0.0,-1.0,0.1067296992226303,1.0,0.0
47.097320556640625,2.085477352142334,-1.2723675966262815,-0.0,-0.0,-1.0,0.0615973009590078,1.0,0.0
47.192169189453125,2.2601027488708496,-1.2804614305496216,-0.0,-0.0,-1.0,0.0581622118365278,1.0,0.0
45.55661392211914,2.583249807357788,-0.8677545785903931,0.0119835638428994,-0.5835954255777632,-0.8119561400976857,0.2468857443247176,3.0,0.0
45.60255432128906,2.4579293727874756,-0.8896514177322388,-0.256351543810672,-0.966581130751406,-0.0021917256257276,0.1872796557171526,3.0,0.0
45.95158004760742,1.5740489959716797,-1.0543729066848757,-0.0,-0.0,-1.0,0.2266013217018661,1.0,0.0
45.77022933959961,1.257988452911377,-1.0466200113296509,-0.0,-0.0,-1.0,0.2011446878779547,1.0,0.0
45.94355773925781,0.8183059692382812,-1.1334034204483032,-0.4280700058325954,0.4761605010995201,-0.7681323110630981,0.145206673415609,4.0,0.0
46.13995742797851,1.5335841178894043,-1.101252198219299,0.5820399764877736,-0.5536742687166073,-0.5955453550580694,0.1764759744390426,3.0,0.0
46.230655670166016,1.2030925750732422,-1.155664563179016,-0.0,-0.0,-1.0,0.1385789350979966,2.0,0.0
46.12016296386719,0.9903774261474608,-1.1533647775650024,-0.0,-0.0,-1.0,0.0866619158446908,2.0,0.0
46.66642379760742,2.6397180557250977,-1.1253076791763306,-0.0,-0.0,-1.0,0.122764051533847,1.0,0.0
46.58522033691406,1.6490464210510254,-1.1920768022537231,-0.0,-0.0,-1.0,0.0834482316769161,1.0,0.0
46.84169387817383,0.955942153930664,-0.9328345060348512,-0.1151897195734026,0.5379157995097453,-0.8350915645259464,0.1487100175842569,5.0,0.0
46.97312927246094,2.9585578441619873,-1.175327181816101,-0.0,-0.0,-1.0,0.0778274768351432,1.0,0.0
46.86489486694336,2.6118056774139404,-1.1748369932174685,-0.0,-0.0,-1.0,0.1259771808213477,1.0,0.0
46.947303771972656,2.1497631072998047,-1.2316936254501345,-0.0,-0.0,-1.0,0.1010339349982816,1.0,0.0
47.07075119018555,1.2095599174499512,-0.9569195508956908,-0.0,-0.0,-1.0,0.0733573904067758,1.0,0.0
47.00999450683594,0.9934358596801758,-0.9625672101974488,-0.0,-0.0,-1.0,0.1735009449813742,2.0,0.0
47.10692596435547,2.9453773498535156,-1.2085474729537964,0.8058534059554419,-0.250905775732544,-0.5363269337018828,0.0475342797128499,5.0,0.0
47.103309631347656,2.631846189498902,-1.2305124998092651,-0.0,-0.0,-1.0,0.1448248513425855,1.0,0.0
47.387664794921875,1.3510866165161133,-1.0087007284164429,0.975008681670478,-0.097755930844483,0.1995040066061953,0.0961789738316534,3.0,0.0
46.47673416137695,2.1440834999084473,-0.768034815788269,0.2856239317790501,-0.233810147527137,-0.9293824748231564,0.1897924772248563,4.0,0.0
45.2545166015625,3.055593490600586,-1.1615424156188965,-0.8961335978262877,0.4238620707468361,0.1314744075062435,0.0394531402227219,3.0,0.0
45.437538146972656,2.641214370727539,-1.2553625106811523,-0.0,-0.0,-1.0,0.1009538107275454,1.0,0.0
45.739139556884766,1.2573275566101074,-1.1699159145355225,-0.0,-0.0,-1.0,0.1725128693838102,1.0,0.0
45.74728012084961,1.0908246040344238,-1.1909425258636477,-0.0,-0.0,-1.0,0.1037678957078259,2.0,0.0
45.58791732788086,2.834174394607544,-1.283743381500244,-0.0,-0.0,-1.0,0.0416571240492016,1.0,0.0
45.54286575317383,2.788135528564453,-1.273949146270752,-0.0,-0.0,-1.0,0.0371446629876769,1.0,0.0
46.02506256103515,1.9900636672973633,-1.1698658466339111,-0.0,-0.0,-1.0,0.0674907838330268,2.0,0.0
45.89065170288086,1.3338651657104492,-1.200650930404663,0.230384208560105,-0.41544935792766,-0.8799573554687914,0.0863704360876313,4.0,0.0
45.82014465332031,0.9299511909484864,-1.2281570434570312,-0.0,-0.0,-1.0,0.0439935546427214,1.0,0.0
46.32329177856445,2.939877986907959,-1.1742751598358154,-0.0,-0.0,-1.0,0.1824161713980651,1.0,0.0
46.087677001953125,2.2134735584259033,-1.1665053367614746,-0.0,-0.0,-1.0,0.0691420000388125,1.0,0.0
46.2698974609375,1.989797830581665,-1.2352280616760254,-0.0,-0.0,-1.0,0.0975890032170758,2.0,0.0
46.548004150390625,3.0996811389923096,-1.2260630130767822,-0.0,-0.0,-1.0,0.0730728395895809,2.0,0.0
46.57976531982422,2.7310876846313477,-1.2593505382537842,-0.0,-0.0,-1.0,0.2027946059847137,1.0,0.0
46.6806640625,2.38459849357605,-1.3128845691680908,-0.0,-0.0,-1.0,0.1250500696513027,1.0,0.0
45.57691955566406,2.4670722484588623,-1.0071625709533691,-0.4490961740754619,-0.733831707973615,-0.5097093787672631,0.1491024902999553,6.0,0.0
45.56569290161133,2.327829360961914,-1.016338586807251,-0.0,-0.0,-1.0,0.1404282323444161,2.0,0.0
45.866397857666016,2.5777106285095215,-1.0764787197113037,-0.0,-0.0,-1.0,0.1621880315435716,1.0,0.0
45.619197845458984,2.337161064147949,-1.0298471450805664,-0.0,-0.0,-1.0,0.1521841484468235,2.0,0.0
46.00421524047851,2.472339868545532,-1.1220948696136477,-0.0,-0.0,-1.0,0.0749101873010407,1.0,0.0
46.423004150390625,2.1534552574157715,-0.9265122413635254,-0.9082220546594384,-0.1205431677966591,-0.4007518485643382,0.249217201248176,3.0,0.0
46.471343994140625,2.21979022026062,-0.9331293106079102,-0.7385490548181202,-0.5901080511245202,-0.3260640759502373,0.2632282837285376,7.0,0.0
46.651275634765625,1.995069980621338,-0.9915392398834229,-0.0,-0.0,-1.0,0.1277668697254571,1.0,0.0
46.843963623046875,1.451533555984497,-1.078571319580078,-0.0,-0.0,-1.0,0.0828991718898193,2.0,0.0
46.78950500488281,1.1546168327331543,-1.091257095336914,-0.1193516326601147,0.8686873501780976,0.4807675898206121,0.1304670994103261,3.0,0.0
46.699615478515625,0.8246569633483887,-1.1004905700683594,0.4776419397720675,-0.3773995095432236,-0.7933648514821606,0.1588382157787555,4.0,0.0
46.97774887084961,1.841637372970581,-1.0792462825775146,0.780434976606492,-0.6239716263794608,0.0397574742984854,0.1399885861195179,3.0,0.0
46.97178268432617,1.6281492710113523,-1.0941081047058103,-0.738140833875726,-0.1797053451507717,-0.6502723262522322,0.085556864963037,3.0,0.0
47.40593719482422,0.6441817283630371,-0.8914580345153809,-0.0,-0.0,-1.0,0.0424301994371909,2.0,0.0
47.56881332397461,2.6805689334869385,-1.1651053428649902,-0.0,-0.0,-1.0,0.0262859008259719,1.0,0.0
47.54838180541992,2.4263558387756348,-1.175015211105347,-0.0,-0.0,-1.0,0.0724950810134428,1.0,0.0
47.4885368347168,2.1001651287078857,-1.1814014911651611,-0.6726843038116754,0.5236421594284654,-0.5227759714012262,0.0854344189768648,5.0,0.0
47.62078475952149,1.6614770889282229,-0.8658828735351562,-0.0,-0.0,-1.0,0.131334795298339,1.0,0.0
47.62266540527344,0.881899356842041,-0.9167697429656982,-0.0,-0.0,-1.0,0.0745020796288877,2.0,0.0
47.6317138671875,2.8270387649536133,-1.1723926067352295,-0.0,-0.0,-1.0,0.0248337090090144,1.0,0.0
47.63317108154297,2.516759157180786,-1.189915418624878,-0.0,-0.0,-1.0,0.0348617720470826,1.0,0.0
45.46794891357422,0.948627471923828,-1.219532132148743,-0.0,-0.0,-1.0,0.0463633656865162,2.0,0.0
45.63105392456055,2.380383014678955,-1.1202155351638794,-0.613041333552027,-0.36966937269676,-0.6982298176436873,0.0936407194064242,4.0,0.0
45.76962661743164,1.4009923934936523,-1.2542966604232788,-0.0,-0.0,-1.0,0.0953828970962849,1.0,0.0
45.70965576171875,1.1018116474151611,-1.270811676979065,-0.0,-0.0,-1.0,0.0701455992700022,1.0,0.0
45.59520721435547,0.7102339267730713,-1.2862955331802368,-0.0,-0.0,-1.0,0.0445777944892482,1.0,0.0
45.90721893310547,2.2576205730438232,-1.2139242887496948,-0.0,-0.0,-1.0,0.0317673084714743,1.0,0.0
46.23133850097656,1.0167515277862549,-1.105521559715271,-0.0,-0.0,-1.0,0.0973189742315791,1.0,0.0
46.18974304199219,0.751694917678833,-1.1220968961715698,-0.0,-0.0,-1.0,0.0241517086235017,1.0,0.0
46.42169570922851,2.2971041202545166,-1.3670822381973269,-0.0,-0.0,-1.0,0.122870180532763,1.0,0.0
46.417259216308594,1.482201099395752,-1.1105202436447144,-0.0,-0.0,-1.0,0.1293585199148228,1.0,0.0
46.5621337890625,1.297213792800903,-1.1646262407302856,-0.0,-0.0,-1.0,0.1067130016325107,1.0,0.0
46.89830017089844,1.9263381958007812,-1.202349305152893,0.6736027410230065,0.1088096865220163,-0.7310402173651409,0.1316739665931871,3.0,0.0
46.83576202392578,1.6531531810760498,-1.206493258476257,-0.0,-0.0,-1.0,0.134728558026136,1.0,0.0
46.635894775390625,1.3528170585632324,-1.1789215803146362,-0.0,-0.0,-1.0,0.0897161348314673,1.0,0.0
47.02522659301758,1.788193702697754,-1.2462068796157837,-0.0,-0.0,-1.0,0.1441879312296135,1.0,0.0
45.66586685180664,2.396963596343994,-0.8403934240341187,-0.0,-0.0,-1.0,0.1160692755223145,1.0,0.0
46.137001037597656,1.3478171825408936,-1.0495067834854126,-0.7013141534157666,-0.0753288767048351,-0.7088610714047671,0.2123876647574412,7.0,0.0
46.17160415649414,1.2214586734771729,-1.0703154802322388,-0.0,-0.0,-1.0,0.1410439033466231,2.0,0.0
46.36213302612305,1.593010663986206,-1.0866342782974243,-0.0,-0.0,-1.0,0.1447863063326898,2.0,0.0
46.95499038696289,1.0855441093444824,-0.941576361656189,-0.6354637023688127,0.7045559013822453,-0.3158905899186816,0.175295644876274,5.0,0.0
46.988468170166016,0.7949068546295166,-0.9723964929580688,-0.0,-0.0,-1.0,0.0876755305545517,1.0,0.0
47.3569221496582,1.2601265907287598,-1.0195738077163696,-0.0,-0.0,-1.0,0.0485515723246872,1.0,0.0
47.621551513671875,1.627326488494873,-1.0553017854690552,-0.0,-0.0,-1.0,0.1228325833218409,1.0,0.0
47.47331619262695,1.3702178001403809,-1.038267731666565,-0.0,-0.0,-1.0,0.0894868842032495,1.0,0.0
45.98845672607422,0.9250969886779784,-1.1358873844146729,-0.1339168739210448,0.2814892224304356,-0.9501737149251837,0.0987547342302472,4.0,0.0
45.91383361816406,0.8039350509643555,-1.121328592300415,-0.5221046039709893,0.4983348929081709,-0.6921481900738442,0.130474205864242,3.0,0.0
46.15120315551758,1.0920116901397705,-1.1757314205169678,-0.0,-0.0,-1.0,0.0873500115853526,1.0,0.0
46.721290588378906,1.0427348613739014,-1.0348975658416748,-0.0,-0.0,-1.0,0.2065632881003246,2.0,0.0
46.656700134277344,0.813248872756958,-1.0287959575653076,-0.032147597081484,0.9991202527022864,0.0269305150713005,0.1859806846180705,4.0,0.0
47.516353607177734,0.8003830909729004,-0.9183473587036132,-0.0,-0.0,-1.0,0.0457043392613534,2.0,0.0
47.6781005859375,0.8417155742645264,-0.955115795135498,-0.0,-0.0,-1.0,0.0561939252150506,2.0,0.0
47.02301025390625,3.0342793464660645,-1.2340514659881592,0.0534678603770086,0.997200478448812,0.0522723032605739,0.0560443101217581,3.0,0.0
47.20426559448242,1.1106719970703125,-0.9690395593643188,-0.0,-0.0,-1.0,0.0432028289821286,1.0,0.0
47.067649841308594,1.008902072906494,-0.928946852684021,-0.0,-0.0,-1.0,0.113181352308451,2.0,0.0
47.45912551879883,1.4327523708343506,-1.0522702932357788,-0.0,-0.0,-1.0,0.1128000099966911,1.0,0.0
47.29161071777344,1.184798002243042,-0.9953314065933228,-0.0,-0.0,-1.0,0.0446432932794907,1.0,0.0
47.200401306152344,0.8743257522583008,-0.9552680253982544,-0.8489289245431195,0.350396163137691,0.3956541544486126,0.1038126926053674,3.0,0.0
46.93955993652344,1.0820727348327637,-0.90095317363739,-0.3959156338326334,-0.8891219981137579,-0.2295928643427376,0.1064492001381555,4.0,0.0
46.40269088745117,3.1269736289978027,-1.2367286682128906,-0.0,-0.0,-1.0,0.130594087558217,1.0,0.0
46.52301788330078,2.705589771270752,-1.215547800064087,-0.0,-0.0,-1.0,0.1604540624214397,2.0,0.0
46.25040817260742,2.75370454788208,-1.1894023418426514,-0.0,-0.0,-1.0,0.1540473455214435,1.0,0.0
45.83895111083984,0.8303565979003906,-1.2090319395065308,0.6088244461306417,-0.4746196876124059,-0.6356641770026212,0.0762980838812177,4.0,0.0
45.594139099121094,1.1483440399169922,-1.21129047870636,-0.0,-0.0,-1.0,0.087736207568984,1.0,0.0
45.29521179199219,1.3671026229858398,-1.1983722448349,-0.0,-0.0,-1.0,0.1266385946330116,2.0,0.0
45.567405700683594,0.7386417388916016,-1.167513728141785,-0.0,-0.0,-1.0,0.0559416655093362,1.0,0.0
46.57301330566406,2.99808931350708,-0.889633297920227,-0.0,-0.0,-1.0,0.0948286009593633,1.0,0.0
46.77621841430664,1.5512280464172363,-0.7813469171524048,-0.0,-0.0,-1.0,0.2333566140615448,1.0,0.0
47.62631607055664,1.6063590049743652,-0.914690375328064,-0.0,-0.0,-1.0,0.1626031737146578,1.0,0.0
47.570945739746094,1.4154324531555176,-0.8897522687911987,-0.0,-0.0,-1.0,0.1214456800805887,1.0,0.0
45.27872467041016,0.8923687934875488,-1.2176209688186646,-0.0,-0.0,-1.0,0.0461527568419153,1.0,0.0
46.44631576538086,2.2260146141052246,-0.8917001485824585,-0.2694169545442197,-0.9340856106936352,-0.2343044525808599,0.2418508592227747,8.0,0.0
45.639671325683594,2.5477523803710938,-0.869463324546814,0.5555906427841727,0.0999747600807043,-0.8254235791382966,0.2272936653894062,7.0,0.0
45.590484619140625,2.5881524085998535,-0.8707784414291382,0.3456817680518068,0.1786556888035735,-0.9211874185499374,0.2811948543113873,8.0,0.0
47.14434051513672,2.5468063354492188,-1.103603482246399,-0.0,-0.0,-1.0,0.1478483181802423,1.0,0.0
46.94554901123047,2.8492040634155273,-1.1033607721328735,-0.0,-0.0,-1.0,0.1139609671713561,2.0,0.0
46.75153350830078,2.109743595123291,-1.0311797857284546,-0.0,-0.0,-1.0,0.1197402464438167,1.0,0.0
46.70283126831055,1.624250888824463,-0.9942907094955444,-0.0,-0.0,-1.0,0.2699261459712108,1.0,0.0
46.67095184326172,1.1826233863830566,-0.9636293649673462,-0.0,-0.0,-1.0,0.1495286342558563,1.0,0.0
46.61050796508789,1.38869047164917,-0.9693557024002076,-0.0,-0.0,-1.0,0.107600369373688,1.0,0.0
46.592041015625,0.961205005645752,-0.941675066947937,-0.0,-0.0,-1.0,0.1320699395126017,1.0,0.0
46.24082946777344,1.7443313598632812,-0.9510990381240844,-0.0,-0.0,-1.0,0.113558395583892,1.0,0.0
45.68270111083984,2.482818603515625,-0.9154411554336548,-0.0,-0.0,-1.0,0.1477686923068847,1.0,0.0
46.41356658935547,0.7741050720214844,-0.9107917547225952,-0.0,-0.0,-1.0,0.1020342808219655,1.0,0.0
46.08384704589844,1.4890923500061035,-0.9172960519790648,-0.0,-0.0,-1.0,0.1946185974104174,1.0,0.0
47.249481201171875,2.3885254859924316,-1.1595337390899658,-0.0,-0.0,-1.0,0.0659764129560386,1.0,0.0
47.00278854370117,2.6947436332702637,-1.1658985614776611,-0.8427552606608769,-0.4992393141452702,-0.2013049374460989,0.1702026006573745,4.0,0.0
46.919921875,2.103151321411133,-1.101452112197876,-0.0,-0.0,-1.0,0.194630191462772,2.0,0.0
46.84662628173828,1.4914698600769043,-1.0371577739715576,-0.1599517148115806,-0.2416695008952216,-0.9570847931431622,0.0798747566823785,3.0,0.0
46.4155387878418,2.204054355621338,-1.063703536987305,-0.0,-0.0,-1.0,0.1477612574979968,1.0,0.0
46.20835876464844,2.2348594665527344,-1.0472755432128906,-0.0,-0.0,-1.0,0.0653361423976912,1.0,0.0
45.56012344360352,3.1127610206604004,-1.0735042095184326,-0.0,-0.0,-1.0,0.0318309941941681,2.0,0.0
46.7621955871582,1.193955898284912,-1.001725196838379,-0.5247760741252447,-0.3728861279423239,-0.7652228483349648,0.2396356768669537,3.0,0.0
46.362937927246094,1.546912670135498,-0.9966120719909668,-0.0,-0.0,-1.0,0.14871680303055,1.0,0.0
46.17594909667969,1.721485614776611,-0.9953413009643556,-0.0,-0.0,-1.0,0.1461170421073994,1.0,0.0
46.71905517578125,0.7709612846374512,-0.9592149257659912,-0.0782074282214447,0.9629622482831052,0.2580451637844322,0.2114121861625444,3.0,0.0
46.73052978515625,0.9511089324951172,-0.976557731628418,-0.0,-0.0,-1.0,0.1825415822483894,2.0,0.0
46.16558837890625,1.4505681991577148,-0.9689428806304932,-0.0,-0.0,-1.0,0.1966700469072722,1.0,0.0
46.163360595703125,1.516538143157959,-0.9748966693878174,-0.0,-0.0,-1.0,0.2183533832806523,1.0,0.0
45.60578918457031,1.47190523147583,-0.9181113243103028,-0.2998026683447964,0.3516915106764371,-0.8868096985100384,0.2105336568839867,4.0,0.0
45.98432159423828,1.835637092590332,-1.1975483894348145,-0.0,-0.0,-1.0,0.0432824053686409,2.0,0.0
46.10493087768555,1.297529697418213,-1.156477689743042,-0.0,-0.0,-1.0,0.1707183272911031,2.0,0.0
45.9468879699707,1.5914573669433594,-1.1689748764038086,-0.0,-0.0,-1.0,0.1897999753206148,1.0,0.0
45.713905334472656,1.9945459365844729,-1.184863805770874,0.4719792786392243,-0.5975181436309696,-0.6482342389653581,0.0609134237044082,4.0,0.0
45.46105194091797,2.1516480445861816,-1.1739869117736816,-0.0,-0.0,-1.0,0.093457777603098,2.0,0.0
46.09123992919922,0.7640292644500732,-1.1022992134094238,-0.0,-0.0,-1.0,0.0506584078003403,2.0,0.0
45.946502685546875,0.9954771995544434,-1.1095590591430664,-0.0,-0.0,-1.0,0.1466127090865383,2.0,0.0
47.62947845458984,1.491924524307251,-0.960634469985962,-0.0,-0.0,-1.0,0.1573913894882285,2.0,0.0
47.61553192138672,0.9860057830810548,-0.9248096942901612,-0.0,-0.0,-1.0,0.0440176715092168,1.0,0.0
47.5913200378418,1.287135362625122,-0.9430067539215088,-0.0,-0.0,-1.0,0.0876633488904672,2.0,0.0
46.41624069213867,2.309718370437622,-0.9013454914093018,-0.0,-0.0,-1.0,0.1874081444052134,2.0,0.0
45.55104064941406,2.4828741550445557,-0.8310904502868652,-0.4550332397716981,0.2384073878137078,-0.8579665891739121,0.17778959970846,3.0,0.0
46.35943603515625,1.415949821472168,-1.1754499673843384,-0.0,-0.0,-1.0,0.1034168715916808,1.0,0.0
46.22107696533203,1.7355663776397705,-1.180174469947815,-0.4741600193189634,-0.3536145502595183,-0.8063057893406195,0.0976128079129024,3.0,0.0
46.24469757080078,1.896925926208496,-1.1943122148513794,-0.0,-0.0,-1.0,0.0944479760634519,1.0,0.0
45.986122131347656,0.7940220832824707,-1.089516043663025,-0.0,-0.0,-1.0,0.0829786692807502,2.0,0.0
46.17534637451172,1.187851905822754,-1.1378198862075806,-0.0,-0.0,-1.0,0.1077919487845385,2.0,0.0
46.04113006591797,1.6558268070220947,-1.1525896787643433,-0.0,-0.0,-1.0,0.1514193439093833,1.0,0.0
45.89136505126953,2.022319793701172,-1.1601547002792358,-0.0,-0.0,-1.0,0.043564214551585,2.0,0.0
45.48912811279297,2.9834280014038086,-1.1848992109298706,-0.0,-0.0,-1.0,0.0336639792177716,1.0,0.0
45.89500427246094,0.7816648483276367,-1.0774325132369995,0.9005859485819897,0.432202026292338,-0.0463287997413597,0.1016781142074368,3.0,0.0
45.49762725830078,1.418915033340454,-1.0697280168533323,-0.0,-0.0,-1.0,0.1374249257126287,2.0,0.0
45.26758575439453,3.1175107955932617,-1.1693557500839231,-0.0,-0.0,-1.0,0.0330581677107269,2.0,0.0
47.42293548583984,2.1685025691986084,-1.190267562866211,-0.56070929148631,0.6708548251102865,-0.4853440986219648,0.1387119915049558,3.0,0.0
47.05157852172851,2.985598087310791,-1.17022967338562,-0.0,-0.0,-1.0,0.0806170248329872,2.0,0.0
46.73173522949219,0.8817267417907715,-1.082322120666504,-0.5419624437713406,0.3403577435055299,-0.7683965876923329,0.1577827767719015,4.0,0.0
46.76861953735352,1.1517562866210938,-1.091273307800293,-0.1193516326601147,0.8686873501780976,0.4807675898206121,0.1384397980931186,3.0,0.0
46.934226989746094,1.7527925968170166,-1.1228837966918943,-0.0,-0.0,-1.0,0.0704999844825877,2.0,0.0
46.891578674316406,1.885120153427124,-1.1209280490875244,-0.0,-0.0,-1.0,0.1601827733034262,2.0,0.0
46.523223876953125,2.1719489097595215,-1.0848231315612793,0.0498143890707983,0.8972791804696665,-0.4386440458243873,0.1136207496956442,4.0,0.0
46.59540939331055,0.6729511022567749,-1.063076734542847,-0.0,-0.0,-1.0,0.1341067753678546,2.0,0.0
46.63295364379883,1.1802574396133425,-1.0756852626800537,-0.3658184071010259,-0.4092023374387686,-0.8359009152170587,0.1654752610065417,3.0,0.0
46.43814468383789,1.589576005935669,-1.0608558654785156,-0.0,-0.0,-1.0,0.1491129015897074,1.0,0.0
46.13245391845703,1.3550794124603271,-1.0199148654937744,-0.3292589908234921,-0.2673926580001005,-0.9055880318387256,0.1888794214619539,5.0,0.0
45.59368896484375,1.39204740524292,-0.9571092128753662,-0.0,-0.0,-1.0,0.2615891646367442,2.0,0.0
47.4276008605957,2.1565961837768555,-1.212114691734314,-0.56070929148631,0.6708548251102865,-0.4853440986219648,0.0698534684717327,3.0,0.0
46.90958404541016,1.9041996002197263,-1.140313982963562,-0.0,-0.0,-1.0,0.1444233271501419,2.0,0.0
46.70945739746094,0.8067218065261841,-1.0732871294021606,0.4776419397720675,-0.3773995095432236,-0.7933648514821606,0.1651086766213357,4.0,0.0
