x,y,z,nx,ny,nz,curvature,density
42.06816864013672,1.4176673889160156,-1.2584619522094729,-0.9653928259457242,-0.0491811237063376,-0.2561208868552319,0.0172352525238326,3.0
42.4465446472168,1.322657585144043,-1.2566275596618652,-0.0,-0.0,-1.0,0.010823477931174,1.0
40.511844635009766,2.4455251693725586,-1.190850019454956,-0.0,-0.0,-1.0,0.0246911759064953,2.0
40.61656188964844,2.1925182342529297,-1.2211833000183103,-0.0,-0.0,-1.0,0.0103970835583559,1.0
41.06425094604492,1.9249658584594729,-1.233396291732788,-0.0,-0.0,-1.0,0.0054158864768379,1.0
40.4285774230957,2.7771034240722656,-1.148393154144287,0.7007240931086283,-0.6471833971917085,-0.3002322363379553,0.0511174726731842,3.0
40.29710388183594,2.4293413162231445,-1.155472755432129,-0.1251117996679546,-0.8046399716837297,-0.5804322127110558,0.0188625272294995,3.0
40.56985855102539,2.1542835235595703,-1.180621862411499,-0.0,-0.0,-1.0,0.0092064400336891,1.0
40.87982940673828,1.876755714416504,-1.2060539722442627,-0.0,-0.0,-1.0,0.0095298945891165,2.0
41.216590881347656,1.6422719955444336,-1.2255115509033203,-0.0,-0.0,-1.0,0.027744141387057,2.0
41.61063766479492,1.557516098022461,-1.220844268798828,-0.0,-0.0,-1.0,0.0253716345809479,2.0
41.97515106201172,1.3739080429077148,-1.2350566387176514,0.4251908544480034,-0.844193362586243,0.3264204403206218,0.0220047277787184,3.0
42.26155853271485,1.2734012603759766,-1.2404513359069824,-0.2221519409926302,-0.5032683336442306,-0.8350865221425661,0.0087259087313646,3.0
40.45199203491211,2.7456960678100586,-1.0993037223815918,0.572481284364232,-0.4547298253581509,-0.6822653186132394,0.0584777337771573,4.0
42.46661758422851,1.2567081451416016,-1.2360422611236572,-0.0,-0.0,-1.0,0.0092474888369088,2.0
40.53192901611328,0.9380283355712892,-1.134386658668518,-0.0,-0.0,-1.0,0.0149632074647065,2.0
40.882118225097656,0.7337770462036133,-1.129008650779724,-0.0,-0.0,-1.0,0.0745572309676684,2.0
41.47900390625,3.000211715698242,-1.3308185338974,-0.0,-0.0,-1.0,0.0136562192234288,2.0
41.81941986083984,2.891852378845215,-1.3087064027786257,-0.0,-0.0,-1.0,0.0300675682136353,2.0
42.013858795166016,2.8018503189086914,-1.3010283708572388,-0.0,-0.0,-1.0,0.036362352999883,1.0
42.21881866455078,2.619206428527832,-1.3070794343948364,-0.0,-0.0,-1.0,0.0195202587252786,1.0
42.60891342163086,2.4376659393310547,-1.2960048913955688,0.6559497710582797,0.1630401115485731,-0.736985630711223,0.0166604681570681,4.0
41.81754302978515,3.035403251647949,-1.3295706510543823,-0.2800347908023287,-0.5178288152109686,-0.808352543187377,0.1387143879820907,3.0
41.94694137573242,2.9506120681762695,-1.3276454210281372,-0.0,-0.0,-1.0,0.0418286090193616,2.0
42.223533630371094,2.7276687622070312,-1.3312848806381226,-0.0,-0.0,-1.0,0.0261153504326942,2.0
42.570064544677734,2.5924339294433594,-1.3157588243484497,-0.0,-0.0,-1.0,0.0459201556381954,2.0
40.51808166503906,1.1748762130737305,-1.1699010133743286,-0.0,-0.0,-1.0,0.0135770339344565,2.0
40.70735168457031,1.0061159133911133,-1.1738876104354858,-0.843294566963513,-0.3730578368276711,-0.3868877404509986,0.0393325566837557,5.0
40.952735900878906,0.911611557006836,-1.1645549535751345,-0.0,-0.0,-1.0,0.0137701289120706,2.0
41.2788200378418,0.694849967956543,-1.1650432348251345,-0.0,-0.0,-1.0,0.04452745246464,1.0
42.47953414916992,2.673604965209961,-1.3123732805252075,-0.2590443444075396,-0.8033858246651502,-0.5361597190740509,0.0278236287013088,4.0
42.53767395019531,2.6302194595336914,-1.3131369352340698,-0.3971276612106571,-0.2797753765543136,-0.8740797214071755,0.0508843376963253,3.0
42.69731903076172,2.5230751037597656,-1.3138247728347778,-0.0,-0.0,-1.0,0.0358632587203095,1.0
40.40008544921875,2.936060905456543,-1.1245297193527222,-0.0,-0.0,-1.0,0.0988911840153753,2.0
40.56804656982422,2.847235679626465,-1.1167720556259155,0.4526544673372216,-0.6103982652458716,-0.6500137621500692,0.0520816620913867,3.0
40.56356048583984,2.3126773834228516,-1.1837948560714722,-0.0,-0.0,-1.0,0.0130937088332111,1.0
40.812278747558594,1.954538345336914,-1.203574538230896,-0.0,-0.0,-1.0,0.0075888251277575,1.0
41.07072067260742,1.7255916595458984,-1.2074531316757202,-0.0,-0.0,-1.0,0.0127451864366931,1.0
41.208396911621094,1.5542402267456057,-1.2167621850967407,-0.0,-0.0,-1.0,0.0222211169349524,2.0
41.50099182128906,1.4943904876708984,-1.196865439414978,-0.0,-0.0,-1.0,0.0212449304789059,2.0
41.70128631591797,1.3583135604858398,-1.1968480348587036,-0.0,-0.0,-1.0,0.0174071081249877,2.0
41.968502044677734,1.163557052612305,-1.1999191045761108,-0.0,-0.0,-1.0,0.0067473561685829,1.0
42.20929718017578,1.0755691528320312,-1.1912673711776731,-0.0,-0.0,-1.0,0.0065749002177988,2.0
42.44827651977539,0.8535604476928711,-1.2031537294387815,0.3798185587025063,0.8523402554072388,-0.3595190557918643,0.0060197226046368,3.0
40.33073806762695,0.8334245681762695,-1.1260842084884644,-0.0,-0.0,-1.0,0.0183839536409483,2.0
40.49159240722656,0.6769132614135742,-1.1315711736679075,-0.0,-0.0,-1.0,0.0162171436559541,1.0
41.06060028076172,3.033384323120117,-1.3011902570724487,-0.5934008411652597,0.6155552511168931,-0.5186204532476336,0.0191587286984571,4.0
41.26187896728515,2.92306137084961,-1.292850136756897,-0.0,-0.0,-1.0,0.0060106150380396,1.0
41.44487380981445,2.701549530029297,-1.3038946390151978,-0.0,-0.0,-1.0,0.0103508723510225,1.0
41.76423645019531,2.521458625793457,-1.2942661046981812,-0.0,-0.0,-1.0,0.0172078993973201,2.0
41.97450256347656,2.422560691833496,-1.285934329032898,-0.0,-0.0,-1.0,0.0238763374560695,1.0
42.1577033996582,2.2139759063720703,-1.2982231378555298,-0.0,-0.0,-1.0,0.0097082182467829,1.0
42.37405014038086,2.099301338195801,-1.2932690382003784,-0.0,-0.0,-1.0,0.004882682881258,1.0
42.67704772949219,1.9339570999145508,-1.2885998487472534,-0.0,-0.0,-1.0,0.0074720325668206,1.0
40.82867813110352,3.106022834777832,-1.2301993370056152,-0.0,-0.0,-1.0,0.0197961616358767,1.0
40.93799591064453,2.805140495300293,-1.2503669261932373,-0.0,-0.0,-1.0,0.0150864185354325,1.0
41.086334228515625,2.608013153076172,-1.2534592151641846,-0.0,-0.0,-1.0,0.0132554839994472,1.0
41.25968933105469,2.395671844482422,-1.2561397552490234,-0.0,-0.0,-1.0,0.0122327190945191,1.0
41.46783447265625,2.151442527770996,-1.2590396404266355,-0.0,-0.0,-1.0,0.0145375490171583,1.0
41.646759033203125,1.942721366882324,-1.2626779079437256,-0.0,-0.0,-1.0,0.0687493030764253,2.0
41.89143371582031,1.6604652404785156,-1.2687437534332275,-0.0,-0.0,-1.0,0.0133931278010209,2.0
42.09236526489258,1.5883827209472656,-1.2533977031707764,-0.0,-0.0,-1.0,0.0295050645313392,2.0
42.26982498168945,1.414926528930664,-1.2555251121520996,-0.0,-0.0,-1.0,0.0142969157766659,2.0
42.63227844238281,1.1994028091430664,-1.2426097393035889,-0.0,-0.0,-1.0,0.0067600061240812,2.0
40.633399963378906,3.1200714111328125,-1.1958832740783691,-0.0,-0.0,-1.0,0.0581921771565089,1.0
40.82825469970703,2.843280792236328,-1.1992428302764893,-0.0,-0.0,-1.0,0.0301263914773967,1.0
40.903228759765625,2.5165462493896484,-1.2269885540008545,-0.0,-0.0,-1.0,0.0061176962627227,2.0
41.09915542602539,2.196836471557617,-1.2384746074676514,-0.0,-0.0,-1.0,0.0119145010190953,2.0
41.36162185668945,1.8684043884277344,-1.2439508438110352,-0.0,-0.0,-1.0,0.0231657773010773,1.0
41.73621368408203,1.5933732986450195,-1.2304949760437012,-0.8426163265208554,0.4811316238965355,0.2418885833750366,0.0152317433158011,3.0
42.030799865722656,1.321636199951172,-1.229382038116455,-0.0,-0.0,-1.0,0.0191538443018931,1.0
42.10753631591797,1.1939783096313477,-1.23707914352417,-0.3420459528654834,-0.3214414407308424,-0.8829948846449925,0.0092018498641969,4.0
42.262359619140625,1.1911087036132812,-1.2186355590820312,-0.922268484198584,-0.2366161124499783,0.3056691976354586,0.007779873344237,3.0
42.386512756347656,1.038966178894043,-1.2246983051300049,-0.0,-0.0,-1.0,0.006733425911391,1.0
42.6634521484375,0.8312664031982422,-1.2213246822357178,-0.044460350313675,-0.5611042218681539,-0.8265502582733362,0.0062466371592747,3.0
42.434181213378906,3.118088722229004,-1.3567469120025637,0.2774161601674065,-0.0339939997439615,-0.960148260457404,0.0241309112064987,4.0
40.63150405883789,3.0674943923950195,-1.1595478057861328,-0.0,-0.0,-1.0,0.0537548938546663,1.0
40.78911590576172,2.922574043273926,-1.1560969352722168,-0.0,-0.0,-1.0,0.0382856381577434,1.0
40.810447692871094,2.621244430541992,-1.1921017169952393,-0.0,-0.0,-1.0,0.0216887185985179,1.0
40.97384262084961,2.27108383178711,-1.2166781425476074,-0.0,-0.0,-1.0,0.0093861470669623,1.0
41.0028076171875,2.2100772857666016,-1.2209584712982178,-0.0,-0.0,-1.0,0.0093429239513996,1.0
41.20903778076172,2.1104698181152344,-1.2078344821929932,-0.0,-0.0,-1.0,0.0065609031153758,1.0
41.3077507019043,1.899867057800293,-1.224354267120361,-0.0,-0.0,-1.0,0.0134139702664006,1.0
42.69434356689453,3.056793212890625,-1.3281331062316897,-0.0,-0.0,-1.0,0.0298599804958056,1.0
42.523948669433594,3.0897836685180664,-1.347934007644653,-0.2737673189295188,-0.2091933493425488,-0.93877025819792,0.029767316312889,6.0
41.6139030456543,1.7011346817016602,-1.2143735885620115,-0.6780647515440706,0.6905929868851615,-0.2516138294659282,0.0232503888125998,3.0
41.91173553466797,1.4570493698120115,-1.2137882709503174,-0.0,-0.0,-1.0,0.0227153427192976,1.0
42.25541687011719,1.2330503463745115,-1.2071166038513184,-0.0,-0.0,-1.0,0.0086951035611272,2.0
42.58451843261719,0.9915409088134766,-1.2070262432098389,-0.0,-0.0,-1.0,0.0065546638388257,1.0
40.664344787597656,2.9802331924438477,-1.1921008825302124,-0.0,-0.0,-1.0,0.0442319780565996,2.0
40.85528945922851,2.602380752563477,-1.2181507349014282,-0.0,-0.0,-1.0,0.0155912877152659,1.0
41.067665100097656,2.2385244369506836,-1.2417787313461304,-0.0,-0.0,-1.0,0.0125308110633181,1.0
42.627723693847656,3.005335807800293,-1.3470650911331177,-0.1280287214773378,-0.7149574023682418,-0.6873460258674184,0.0295447033818076,3.0
41.35807037353515,1.9807853698730469,-1.2419384717941284,-0.0,-0.0,-1.0,0.016494942327838,2.0
41.62990188598633,1.7040081024169922,-1.2496017217636108,-0.6780647515440706,0.6905929868851615,-0.2516138294659282,0.0216868773453832,3.0
41.96893310546875,1.4673347473144531,-1.2450987100601196,-0.0,-0.0,-1.0,0.0229533586300756,2.0
42.356319427490234,1.2214899063110352,-1.239052414894104,0.2282668939506974,0.3184740105616379,-0.9200372436607592,0.0092741386009291,3.0
42.14734649658203,1.3273334503173828,-1.2461026906967163,-0.0,-0.0,-1.0,0.0167181827865851,1.0
40.372283935546875,2.846473693847656,-1.1071988344192505,-0.0,-0.0,-1.0,0.0381456862306935,2.0
41.86600875854492,2.859630584716797,-1.3139132261276243,0.1512017153546279,-0.7777532466971454,-0.6101130456938839,0.0399221822847035,3.0
41.62965393066406,2.966592788696289,-1.3367174863815308,-0.0,-0.0,-1.0,0.0203884532100651,1.0
40.226043701171875,2.3170156478881836,-1.1927634477615356,-0.0,-0.0,-1.0,0.0130114772799569,1.0
42.020111083984375,2.69667911529541,-1.314773440361023,0.673779285666098,0.3845305934206697,-0.6309973826655945,0.0377109578157018,3.0
40.51300811767578,1.9861345291137695,-1.1921840906143188,-0.0,-0.0,-1.0,0.0070460351970654,2.0
40.44084167480469,2.011895179748535,-1.1993640661239624,-0.0,-0.0,-1.0,0.0051508933437102,2.0
42.33260726928711,2.3735218048095703,-1.3181358575820925,-0.0,-0.0,-1.0,0.0349054379133449,2.0
40.74588394165039,1.5656604766845703,-1.2137542963027954,-0.0,-0.0,-1.0,0.0135646004057324,1.0
40.58293151855469,1.6967144012451172,-1.2193366289138794,-0.0,-0.0,-1.0,0.0066790202442917,2.0
42.59496307373047,2.14923095703125,-1.3158015012741089,-0.0,-0.0,-1.0,0.0078019233798552,2.0
41.02430725097656,1.3525466918945312,-1.2042990922927856,-0.0,-0.0,-1.0,0.0232149074643583,2.0
41.38606262207031,1.036087989807129,-1.2000480890274048,-0.0,-0.0,-1.0,0.050159390397814,2.0
41.317752838134766,1.0844106674194336,-1.2021104097366333,-0.0,-0.0,-1.0,0.0630241707644956,1.0
41.72322082519531,0.8090887069702148,-1.1894129514694214,-0.0,-0.0,-1.0,0.030586206220078,2.0
41.94506072998047,0.6777439117431641,-1.1809426546096802,-0.0,-0.0,-1.0,0.0063262418346246,1.0
41.30103302001953,2.9456100463867188,-1.3411579132080078,-0.0,-0.0,-1.0,0.0061737108411556,1.0
41.110015869140625,3.133755683898926,-1.3452606201171875,-0.0,-0.0,-1.0,0.018374117715637,1.0
41.72537612915039,2.5791969299316406,-1.3282227516174316,-0.0,-0.0,-1.0,0.0127183768906776,2.0
41.52410507202149,2.743992805480957,-1.334869146347046,-0.0,-0.0,-1.0,0.0093836197046515,2.0
42.24623489379883,2.2677478790283203,-1.2975566387176514,-0.0,-0.0,-1.0,0.0281357490925858,1.0
41.94215393066406,2.401543617248535,-1.3225932121276855,-0.0,-0.0,-1.0,0.0206737061961622,1.0
40.25505828857422,2.0472021102905273,-1.1921348571777344,-0.0,-0.0,-1.0,0.007246909526391,1.0
42.644920349121094,1.8685007095336912,-1.3076176643371582,-0.0,-0.0,-1.0,0.0089052074525173,1.0
42.443809509277344,2.0672731399536133,-1.3021390438079834,-0.0,-0.0,-1.0,0.0052070922843152,1.0
40.58585357666016,1.673630714416504,-1.1928730010986328,-0.0,-0.0,-1.0,0.0067394734988317,2.0
40.4154052734375,1.8253822326660156,-1.19732666015625,0.1130790226644987,0.7481824379277267,-0.6537860309074868,0.0060948536353007,4.0
41.02216339111328,1.213597297668457,-1.1952919960021973,-0.0,-0.0,-1.0,0.0339812836271067,2.0
40.785797119140625,1.3533906936645508,-1.2083544731140137,0.0054545769573909,-0.6802321421890861,-0.7329764527753007,0.0224524251558476,3.0
41.21815490722656,0.9825963973999025,-1.2019689083099363,-0.0,-0.0,-1.0,0.0348658360002102,1.0
41.7005615234375,0.6591930389404297,-1.187154769897461,-0.0,-0.0,-1.0,0.0302653667474524,2.0
41.428707122802734,0.8065223693847656,-1.199794054031372,-0.0711876303848024,0.1354133353354799,-0.98822849073153,0.0410133654508236,3.0
42.064918518066406,3.1335716247558594,-1.370531678199768,-0.0,-0.0,-1.0,0.0164170222979702,1.0
42.58089828491211,2.7504940032958984,-1.3640965223312378,-0.0,-0.0,-1.0,0.0424660440900208,1.0
42.25355911254883,2.9971017837524414,-1.3664120435714722,-0.1764774528762693,0.958159355001415,0.2253582903945982,0.0193968933448471,3.0
40.689002990722656,2.9142160415649414,-1.2276722192764282,-0.0,-0.0,-1.0,0.041360969746581,2.0
40.223045349121094,3.061821937561035,-1.2805215120315552,-0.0,-0.0,-1.0,0.1024790670890669,1.0
40.999549865722656,2.6590118408203125,-1.2196093797683716,-0.0,-0.0,-1.0,0.0112601748580182,1.0
40.63771057128906,2.8617992401123047,-1.243865132331848,-0.0,-0.0,-1.0,0.0451007444035457,1.0
40.39570236206055,2.8742122650146484,-1.2803255319595337,-0.0,-0.0,-1.0,0.064681170405061,1.0
41.30815887451172,2.143749237060547,-1.25764000415802,-0.0,-0.0,-1.0,0.0084318072163889,2.0
41.14541244506836,2.370157241821289,-1.243929743766785,-0.0,-0.0,-1.0,0.0168730067067296,2.0
41.92057800292969,1.5723514556884766,-1.2714382410049438,-0.0,-0.0,-1.0,0.0200782246072804,2.0
41.71685028076172,1.778609275817871,-1.2626811265945437,-0.0,-0.0,-1.0,0.011949354015705,1.0
41.47289276123047,1.9655981063842771,-1.264013171195984,-0.0,-0.0,-1.0,0.0605264803372918,2.0
42.45659637451172,1.213515281677246,-1.269054293632507,-0.0,-0.0,-1.0,0.0096756978872453,1.0
42.07567596435547,1.3967266082763672,-1.2827380895614624,-0.9653928259457242,-0.0491811237063376,-0.2561208868552319,0.0169439308585803,3.0
40.37293243408203,0.7078485488891602,-1.1429182291030884,-0.0,-0.0,-1.0,0.0203621886478884,1.0
42.61336135864258,1.817622184753418,-1.2885308265686035,-0.0,-0.0,-1.0,0.0092730934584924,2.0
41.86729431152344,2.677596092224121,-1.286552667617798,-0.0,-0.0,-1.0,0.0224354740731614,1.0
41.68605041503906,2.5901031494140625,-1.2888779640197754,-0.5725513202588902,-0.3746427160784839,-0.7292652610395882,0.0179630022377795,3.0
41.46433639526367,2.5316267013549805,-1.2843303680419922,-0.0,-0.0,-1.0,0.0147639100357824,2.0
41.10717010498047,2.5367202758789062,-1.2612249851226809,-0.0,-0.0,-1.0,0.0136137473481993,1.0
40.916282653808594,2.9832868576049805,-1.201946496963501,-0.0,-0.0,-1.0,0.0199114196162925,1.0
40.49543762207031,3.137547492980957,-1.1507694721221924,-0.0,-0.0,-1.0,0.0332059152846209,1.0
41.036983489990234,0.9562139511108398,-1.132620930671692,-0.0,-0.0,-1.0,0.0267600315669704,1.0
40.693084716796875,0.9423713684082032,-1.1200238466262815,-0.0,-0.0,-1.0,0.0784992361369509,1.0
40.29645538330078,0.9758062362670898,-1.099570870399475,-0.0,-0.0,-1.0,0.0167656246261562,1.0
40.45443344116211,2.2874107360839844,-1.2121031284332275,-0.0,-0.0,-1.0,0.0150896249322712,1.0
42.627960205078125,3.081218719482422,-1.307779312133789,-0.0,-0.0,-1.0,0.0310480154075551,1.0
42.384857177734375,0.7266378402709961,-1.2097642421722412,-0.0,-0.0,-1.0,0.0044628833567718,2.0
42.66612243652344,0.8901033401489258,-1.2391207218170166,-0.0,-0.0,-1.0,0.0056364833417297,2.0
40.38179397583008,1.1513566970825195,-1.1510405540466309,-0.0,-0.0,-1.0,0.0155783031012049,2.0
40.778472900390625,1.6257438659667969,-1.2009384632110596,-0.0,-0.0,-1.0,0.0136512123467358,1.0
40.694374084472656,1.401906967163086,-1.1896896362304688,-0.0,-0.0,-1.0,0.0148448678618531,2.0
40.78205108642578,2.179767608642578,-1.20489501953125,-0.0,-0.0,-1.0,0.0042258611947397,1.0
40.85007095336914,1.770223617553711,-1.2104454040527344,-0.4411379593892631,0.5746845748544814,-0.6893003265705018,0.0115202315367824,3.0
40.27157974243164,2.9166040420532227,-1.1482298374176023,-0.0,-0.0,-1.0,0.0833308438322853,2.0
40.48991012573242,2.447389602661133,-1.1711101531982422,-0.0,-0.0,-1.0,0.026166738115646,2.0
40.307586669921875,3.026991844177246,-1.1536481380462646,-0.0,-0.0,-1.0,0.1051910973641121,2.0
40.637664794921875,2.4710893630981445,-1.1893854141235352,-0.0,-0.0,-1.0,0.0163564940973516,1.0
40.65930938720703,2.2035083770751953,-1.190009593963623,-0.8099742723496636,-0.4458033235844002,-0.3810525879885024,0.0090872193601801,3.0
40.343284606933594,1.139020919799805,-1.1550129652023315,-0.0,-0.0,-1.0,0.0161642043318673,2.0
40.30801010131836,2.152120590209961,-1.1728676557540894,-0.1466539921051509,-0.3871747337212124,-0.9102682748330464,0.0084290845660793,3.0
40.5912971496582,1.5532960891723633,-1.196100831031799,-0.0,-0.0,-1.0,0.0058109944318178,1.0
40.528472900390625,1.3622865676879885,-1.183757185935974,-0.0,-0.0,-1.0,0.0086612700701523,1.0
40.322906494140625,2.444211959838867,-1.1816493272781372,0.0688585063579746,-0.8950591413137902,-0.4405991825375632,0.0199274788398502,3.0
40.43317031860352,2.225214958190918,-1.1908539533615112,-0.0,-0.0,-1.0,0.0102529730840582,1.0
40.64904022216797,1.8315315246582031,-1.209850192070007,-0.0,-0.0,-1.0,0.007957991432051,2.0
41.22364044189453,0.9788618087768556,-1.117252230644226,-0.0,-0.0,-1.0,0.052027253894534,2.0
41.403770446777344,0.7684993743896484,-1.1411744356155396,-0.0,-0.0,-1.0,0.0381525445111258,1.0
41.34484100341797,1.267181396484375,-1.133095622062683,-0.0,-0.0,-1.0,0.0308653521305966,1.0
41.538089752197266,1.3997488021850586,-1.158882737159729,-0.0,-0.0,-1.0,0.0172778967243451,1.0
41.641563415527344,1.5456552505493164,-1.172951579093933,-0.0,-0.0,-1.0,0.0144111760655508,1.0
41.956199645996094,1.6916790008544922,-1.2155503034591677,-0.0,-0.0,-1.0,0.0146595516015553,1.0
42.08145523071289,2.0949959754943848,-1.2345319986343384,-0.0,-0.0,-1.0,0.0077954616546268,1.0
42.1658935546875,2.4722423553466797,-1.2488209009170532,-0.0,-0.0,-1.0,0.0293875600705456,2.0
42.360809326171875,2.5261096954345703,-1.275771975517273,-0.0,-0.0,-1.0,0.0402839025774793,2.0
42.24159622192383,2.724602699279785,-1.2614375352859497,-0.0,-0.0,-1.0,0.0194023214093199,1.0
42.444297790527344,2.8734130859375,-1.2907823324203491,-0.6139939912540806,0.4511541539143366,-0.6476660467476449,0.0245696794575916,4.0
42.572059631347656,3.052281379699707,-1.3104122877120972,-0.0,-0.0,-1.0,0.0310746926565326,2.0
42.11819839477539,0.8224020004272461,-1.2093437910079956,-0.0,-0.0,-1.0,0.0062978123029018,2.0
42.39354705810547,1.1786508560180664,-1.243965744972229,0.1205939572187038,0.0620167863272821,-0.9907628453348306,0.0084247799186141,3.0
42.62144470214844,1.4890213012695312,-1.273648381233215,-0.0,-0.0,-1.0,0.0059552448195119,2.0
41.548622131347656,0.8028526306152344,-1.1878159046173096,-0.0,-0.0,-1.0,0.0585816766325327,1.0
41.666046142578125,0.8604707717895508,-1.2042913436889648,0.4519634775426744,-0.4957519081174933,-0.7415922468347392,0.0325229173696455,4.0
41.84962463378906,1.2103328704833984,-1.2216753959655762,-0.0,-0.0,-1.0,0.015274037035789,2.0
42.06879425048828,1.370682716369629,-1.2517979145050049,-0.9653928259457242,-0.0491811237063376,-0.2561208868552319,0.0162792378499067,3.0
42.18425750732422,1.5961008071899414,-1.2640266418457031,-0.0,-0.0,-1.0,0.0250728538257248,1.0
42.398231506347656,1.9613251686096191,-1.2895042896270752,-0.6788326435414798,0.6919297347266291,-0.2458037515247132,0.0099305347605154,3.0
42.502586364746094,2.3524341583251953,-1.2979543209075928,-0.0,-0.0,-1.0,0.0344479790627414,1.0
42.59313201904297,2.3998007774353027,-1.3120460510253906,0.3769521686623794,-0.1711014550227662,-0.9102919062750264,0.0144799441015665,4.0
42.70773696899414,2.754694938659668,-1.3246591091156006,-0.0,-0.0,-1.0,0.0356525213009981,1.0
41.403541564941406,0.7694005966186523,-1.2030678987503052,-0.1544983068286354,0.1902399282720195,-0.9695045347383074,0.0350172238990334,3.0
41.57257843017578,0.9921445846557616,-1.2180668115615845,-0.0,-0.0,-1.0,0.0520800880703251,2.0
41.69922637939453,0.9855728149414062,-1.238685965538025,-0.0,-0.0,-1.0,0.0329343398946636,2.0
41.66661834716797,1.3281240463256836,-1.2160407304763794,-0.0,-0.0,-1.0,0.0176241668059499,2.0
41.93768310546875,1.4361324310302734,-1.2550057172775269,-0.0,-0.0,-1.0,0.0219946146332679,2.0
42.08375930786133,1.630549430847168,-1.269877314567566,-0.915911900824251,-0.2938072127017926,-0.2734642786414908,0.0274286698950643,3.0
42.26647186279297,1.7975502014160156,-1.292786955833435,-0.0,-0.0,-1.0,0.0211590515608335,1.0
42.43749237060547,2.16080904006958,-1.306273102760315,-0.0,-0.0,-1.0,0.0053826943624201,1.0
42.567481994628906,2.440610408782959,-1.3174842596054075,0.4629234206815043,0.1751705057505545,-0.8689172575680782,0.0188359580495178,3.0
41.06313705444336,0.6605005264282227,-1.155551791191101,0.2648964248158372,0.5110436160116356,-0.8177189655704085,0.0461998839410546,3.0
41.20974349975586,1.0715227127075195,-1.1558736562728882,-0.0796589399793631,-0.4608398239676273,-0.8839010747401832,0.0449719297995774,6.0
41.5569953918457,1.2111234664916992,-1.2042056322097778,-0.0,-0.0,-1.0,0.0204515183105444,1.0
41.622581481933594,1.2941598892211914,-1.2106014490127563,-0.211220545628696,-0.1463770720155308,-0.9664158700541274,0.0182461682151082,3.0
40.30562973022461,0.7171001434326172,-1.1205023527145386,-0.0,-0.0,-1.0,0.0187051584144994,2.0
40.56620788574219,0.8964920043945312,-1.149930119514465,0.0948672282818405,-0.7140370367986103,-0.6936507183575753,0.0343327065897387,3.0
40.93115234375,1.2157354354858398,-1.1882468461990356,-0.0,-0.0,-1.0,0.0294637210725017,1.0
41.20683288574219,1.4966974258422852,-1.2166260480880735,-0.0,-0.0,-1.0,0.0271238335602995,2.0
41.327674865722656,1.6573152542114258,-1.2273575067520142,-0.0,-0.0,-1.0,0.038493977603251,2.0
41.54610061645508,1.9650554656982424,-1.2471903562545776,-0.0,-0.0,-1.0,0.0691885131097716,1.0
41.70972442626953,2.229316234588623,-1.2612794637680054,0.8003406923484659,-0.0766990903120453,-0.5946192275031836,0.0136949558219287,3.0
41.85555267333984,2.39037561416626,-1.279150366783142,-0.0,-0.0,-1.0,0.0194103830340756,2.0
42.03525924682617,2.700194835662842,-1.29645574092865,-0.0,-0.0,-1.0,0.0426795708832081,2.0
42.15262985229492,2.934201240539551,-1.307113528251648,-0.0,-0.0,-1.0,0.0327268970794932,2.0
42.42292404174805,3.0596165657043457,-1.352833867073059,-0.0097121538678596,0.2921623763339525,-0.956319413126255,0.0229474331336505,4.0
41.32901763916016,0.7464065551757812,-1.1773767471313477,-0.0,-0.0,-1.0,0.0322026841531913,2.0
41.12123107910156,0.8399543762207031,-1.134209394454956,-0.4178045588998438,-0.2654393465510511,-0.8688966013658116,0.0599108918411955,4.0
41.48453521728515,0.8959770202636719,-1.191955327987671,-0.0,-0.0,-1.0,0.0387243806770344,1.0
41.650596618652344,1.0477876663208008,-1.2087502479553225,-0.0,-0.0,-1.0,0.0272386720084137,1.0
41.62397003173828,1.221416473388672,-1.190664529800415,0.0644235653916008,-0.9349607716469344,-0.3488523465645639,0.0292409879065993,3.0
41.86512756347656,1.3543939590454102,-1.223499059677124,0.3074290796699814,-0.7559716445904344,-0.5779223421433908,0.0195248765116037,3.0
42.05780792236328,1.5286598205566406,-1.2453985214233398,-0.0,-0.0,-1.0,0.0288376663830998,2.0
42.247100830078125,1.705378532409668,-1.267664670944214,-0.0,-0.0,-1.0,0.0255615162008397,1.0
42.45072937011719,2.0198450088500977,-1.284562587738037,-0.0,-0.0,-1.0,0.0042317667370012,2.0
42.57038497924805,2.193781852722168,-1.2960636615753174,-0.0,-0.0,-1.0,0.0089309324104419,2.0
42.56877517700195,2.2792153358459473,-1.2905964851379397,-0.0,-0.0,-1.0,0.012067786031662,1.0
40.36716079711914,1.0327234268188477,-1.1703543663024902,-0.0,-0.0,-1.0,0.0185558872134884,1.0
40.63480758666992,1.1889467239379885,-1.1971473693847656,-0.0,-0.0,-1.0,0.0120445032193142,1.0
40.837425231933594,1.4148969650268557,-1.2053241729736328,-0.0,-0.0,-1.0,0.0202116496499902,1.0
41.06939697265625,1.5541000366210938,-1.2310967445373535,-0.0,-0.0,-1.0,0.0232529556027116,1.0
41.24971389770508,1.7199411392211914,-1.2452852725982666,-0.0,-0.0,-1.0,0.0845851803314059,1.0
41.449684143066406,1.9245367050170896,-1.2604944705963137,-0.0,-0.0,-1.0,0.0620203364036251,2.0
41.69419860839844,2.1994924545288086,-1.278329849243164,-0.0,-0.0,-1.0,0.0138644227591268,2.0
41.85482025146485,2.3298416137695312,-1.2965736389160156,-0.0,-0.0,-1.0,0.0143602730507563,1.0
42.018089294433594,2.590640068054199,-1.3037776947021484,-0.0,-0.0,-1.0,0.0359185367379511,2.0
42.14065170288086,2.802690029144287,-1.3086392879486084,-0.0,-0.0,-1.0,0.0321729387316182,1.0
42.42280578613281,2.9579672813415527,-1.3529729843139648,-0.0,-0.0,-1.0,0.0188377041446093,1.0
40.89899063110352,0.728123664855957,-1.1624667644500732,-0.3264542802684914,0.8911111842981532,-0.3151959075132866,0.0746624964960607,3.0
41.12477111816406,0.8416814804077148,-1.185784101486206,-0.9595758985514332,0.1272341744325316,-0.2510489190888538,0.0596879268417489,3.0
41.48614883422851,0.9863204956054688,-1.2301759719848633,0.7504327992724328,0.5514765242522874,0.3643134048793102,0.0361738884481805,3.0
41.2752799987793,1.053640365600586,-1.1845407485961914,-0.0,-0.0,-1.0,0.0687977209836662,2.0
41.60710525512695,1.2317657470703125,-1.2215161323547363,0.7481461112165444,0.5965639266616575,-0.2904976379896864,0.0190096252681103,4.0
41.82891082763672,1.3574018478393557,-1.246699333190918,-0.0,-0.0,-1.0,0.0228420611008719,2.0
42.07276916503906,1.5449466705322266,-1.2704756259918213,-0.0,-0.0,-1.0,0.0268881050285208,2.0
42.3126335144043,1.7105059623718262,-1.297283172607422,-0.0,-0.0,-1.0,0.0230735851957846,1.0
42.46859359741211,1.900348663330078,-1.3070545196533203,-0.0,-0.0,-1.0,0.0167797889426241,2.0
40.33045196533203,2.4557738304138184,-1.2039575576782229,0.4699313575657293,-0.8385567689655057,-0.2756575128643556,0.025597826677494,3.0
40.44693374633789,2.426422595977783,-1.23222017288208,-0.0,-0.0,-1.0,0.0229492748885156,2.0
40.36919021606445,2.830364227294922,-1.1568410396575928,-0.4421898680934623,0.4286049035372846,-0.7878870205932328,0.0906346202702885,3.0
40.57664489746094,2.9397730827331543,-1.1854908466339111,-0.0,-0.0,-1.0,0.0943887664019859,2.0
41.13325881958008,2.7643747329711914,-1.330713987350464,-0.0,-0.0,-1.0,0.0108850940600944,2.0
41.36098098754883,2.9187307357788086,-1.3609123229980469,-0.0,-0.0,-1.0,0.0069564515000406,1.0
41.446983337402344,0.7268495559692383,-1.1950918436050415,-0.0,-0.0,-1.0,0.0438716766044371,2.0
41.72348403930664,0.8160257339477539,-1.226403832435608,-0.0,-0.0,-1.0,0.0272988218787841,2.0
41.91196060180664,0.9992361068725586,-1.2304500341415403,-0.0,-0.0,-1.0,0.0124335033722897,2.0
42.146297454833984,1.180283546447754,-1.244442105293274,-0.3422729224440667,-0.5651974982703081,-0.7506004493141362,0.0080911790342453,3.0
40.343204498291016,1.7173800468444824,-1.225814938545227,-0.0,-0.0,-1.0,0.0059679802784627,2.0
42.38198471069336,1.298121452331543,-1.268955111503601,-0.0,-0.0,-1.0,0.0120429957687693,1.0
42.58833312988281,1.4869260787963867,-1.280164361000061,-0.0,-0.0,-1.0,0.0066097088127922,2.0
40.69590377807617,2.00687026977539,-1.2369190454483032,-0.0,-0.0,-1.0,0.0065002543432621,1.0
41.00101089477539,2.167048454284668,-1.266750454902649,-0.0,-0.0,-1.0,0.0062842129199338,2.0
41.21320724487305,2.338679313659668,-1.2792118787765503,-0.0,-0.0,-1.0,0.0157673785467558,2.0
41.50531005859375,2.4548521041870117,-1.3192089796066284,-0.0,-0.0,-1.0,0.0636964782012113,1.0
41.71728515625,2.679603576660156,-1.327428698539734,-0.0,-0.0,-1.0,0.069657456899983,2.0
41.90347671508789,2.883986473083496,-1.335675835609436,-0.0,-0.0,-1.0,0.04289382407217,2.0
42.13445281982422,3.046814441680908,-1.3620821237564087,-0.0,-0.0,-1.0,0.0143724526020734,1.0
40.82428741455078,0.7409276962280273,-1.1592941284179688,0.1169329278531119,-0.3514139118935491,-0.9288890961311644,0.0918432304802115,3.0
41.17803955078125,0.9028434753417968,-1.1839356422424316,-0.0,-0.0,-1.0,0.0469332148206107,1.0
41.514591217041016,0.947744369506836,-1.2303688526153564,0.7504327992724328,0.5514765242522874,0.3643134048793102,0.0349499848707895,3.0
41.21347427368164,1.0451173782348633,-1.1630444526672363,0.8338711525699705,0.3310411051148875,-0.441668074051027,0.0496519065980464,4.0
41.6684455871582,1.1632490158081057,-1.2178514003753662,-0.0,-0.0,-1.0,0.0293727608214109,2.0
41.94916915893555,1.2943038940429688,-1.2438929080963137,-0.0,-0.0,-1.0,0.0202480282511942,2.0
42.17885971069336,1.437335968017578,-1.2610855102539062,-0.0,-0.0,-1.0,0.0198511147691101,1.0
42.421630859375,1.595341682434082,-1.2800581455230713,-0.0,-0.0,-1.0,0.0136435955415581,2.0
42.62825775146485,1.741769790649414,-1.2960147857666016,-0.0,-0.0,-1.0,0.0082531834330067,2.0
40.238033294677734,1.0286588668823242,-1.1809207201004028,-0.0,-0.0,-1.0,0.016573629864822,2.0
40.46046447753906,1.0769281387329102,-1.195409893989563,0.6897682402893986,-0.5167622824207129,-0.5071257419569646,0.0141300513528607,4.0
40.796974182128906,1.1420059204101562,-1.221558690071106,0.2088546098606475,-0.0591402190402087,-0.9761568452005206,0.020528855953966,3.0
41.09618377685547,1.2940325736999512,-1.2254546880722046,-0.0,-0.0,-1.0,0.0193787658940809,1.0
41.273197174072266,1.434417724609375,-1.21727192401886,0.8993597804140319,-0.1703618225662683,-0.4026522504413997,0.0241933383710496,4.0
42.56458282470703,0.6560859680175781,-1.2001601457595823,-0.0,-0.0,-1.0,0.0063347398114898,2.0
41.493404388427734,1.5047359466552734,-1.233487248420715,-0.0,-0.0,-1.0,0.0212449304789059,2.0
41.850791931152344,1.5764031410217283,-1.271931290626526,-0.0,-0.0,-1.0,0.0202977934744671,1.0
42.08523941040039,1.6963152885437012,-1.2829633951187134,-0.0,-0.0,-1.0,0.0248407295758181,1.0
42.34623718261719,1.7855300903320312,-1.307040810585022,-0.0,-0.0,-1.0,0.0169000805060232,2.0
42.590118408203125,1.9566216468811035,-1.3128708600997925,-0.0,-0.0,-1.0,0.0079005523096163,2.0
40.730926513671875,0.664463996887207,-1.15985107421875,-0.0,-0.0,-1.0,0.0828195359949373,1.0
40.988807678222656,0.7668228149414062,-1.162503004074097,-0.0,-0.0,-1.0,0.0193218635844434,1.0
41.31535339355469,0.7574977874755859,-1.2022089958190918,-0.0,-0.0,-1.0,0.0342218216616296,2.0
41.5609245300293,0.8468551635742188,-1.2109436988830566,-0.0,-0.0,-1.0,0.0550809382823559,1.0
41.81194305419922,0.8994321823120117,-1.2307283878326416,-0.0,-0.0,-1.0,0.0284816536746511,2.0
42.07293701171875,1.0682806968688965,-1.2272133827209473,-0.0,-0.0,-1.0,0.0063746995093039,2.0
42.367034912109375,1.1587553024291992,-1.2484381198883057,0.1205939572187038,0.0620167863272821,-0.9907628453348306,0.0090900703885363,3.0
42.573970794677734,1.2657365798950195,-1.255551815032959,-0.0,-0.0,-1.0,0.0079334747694565,2.0
41.85854721069336,0.7662267684936523,-1.2090132236480713,-0.0,-0.0,-1.0,0.0104191476921576,2.0
42.10237503051758,0.8149151802062988,-1.232250452041626,-0.0,-0.0,-1.0,0.0062978123029018,2.0
42.4349250793457,0.967827320098877,-1.2464606761932373,-0.0,-0.0,-1.0,0.0050976000057313,1.0
41.726905822753906,0.7349748611450195,-1.198452711105347,-0.0,-0.0,-1.0,0.0304562656910845,1.0
41.891136169433594,0.8037571907043457,-1.2045977115631104,0.0945346774963118,0.0349646691578553,-0.9949073658694816,0.0097797679380017,3.0
42.702880859375,0.6936969757080078,-1.192892074584961,-0.0,-0.0,-1.0,0.0070237103463163,1.0
40.76792907714844,0.7842364311218262,-1.2690823078155518,-0.0,-0.0,-1.0,0.060971459122439,1.0
40.71686553955078,0.8474974632263184,-1.2695302963256836,-0.0,-0.0,-1.0,0.053334271895133,1.0
42.08456802368164,0.7002229690551758,-1.2162655591964722,-0.0,-0.0,-1.0,0.0055938311417781,1.0
41.750606536865234,0.9617819786071776,-1.205617070198059,-0.0,-0.0,-1.0,0.0306076748817069,2.0
41.64706039428711,1.361483097076416,-1.2479685544967651,-0.0,-0.0,-1.0,0.0205156218843564,1.0
41.296539306640625,1.5348939895629885,-1.226962685585022,-0.0,-0.0,-1.0,0.0314830563700695,2.0
41.68304443359375,0.879427433013916,-1.1847642660140991,0.8249260958653729,-0.5256613643654432,-0.207790919854008,0.0479462869315746,3.0
40.30300521850586,2.3064417839050293,-1.223542332649231,-0.0,-0.0,-1.0,0.0179995555445361,2.0
40.81577682495117,0.7021899223327637,-1.1457103490829468,0.8238888220715385,-0.3400072781335181,-0.4534338537006354,0.0867705277557542,3.0
40.422813415527344,0.8074650764465332,-1.1132596731185913,-0.4597585823540976,0.3076587558137719,-0.833047499199699,0.0220162340666798,3.0
41.083290100097656,0.7660350799560547,-1.203999638557434,-0.0,-0.0,-1.0,0.058314573018818,1.0
41.05191421508789,1.085008144378662,-1.2343693971633911,-0.0,-0.0,-1.0,0.0328200684570732,2.0
41.028114318847656,0.6379437446594238,-1.1809943914413452,-0.0,-0.0,-1.0,0.0233425837629815,2.0
42.00775909423828,2.798036575317383,-1.2464570999145508,-0.0,-0.0,-1.0,0.0363623529998829,1.0
41.80902862548828,3.0557327270507812,-1.2543220520019531,-0.0,-0.0,-1.0,0.0356389099685587,1.0
42.7088623046875,1.942488670349121,-1.2313039302825928,-0.0,-0.0,-1.0,0.0068030753396209,1.0
41.97661590576172,2.6395630836486816,-1.2233757972717283,-0.0,-0.0,-1.0,0.0392180495378083,1.0
40.449928283691406,2.8465099334716797,-1.0660955905914309,-0.0,-0.0,-1.0,0.0514383262002862,1.0
41.296051025390625,2.166435718536377,-1.2471611499786377,-0.0,-0.0,-1.0,0.0102946625154767,2.0
41.12855529785156,2.3791956901550293,-1.2497522830963137,-0.0,-0.0,-1.0,0.0172427085509648,2.0
42.02555847167969,0.827350378036499,-1.1939966678619385,-0.0,-0.0,-1.0,0.006952090167491,2.0
41.8983039855957,1.111070156097412,-1.2079012393951416,-0.0,-0.0,-1.0,0.0130016000680975,1.0
41.360103607177734,2.01089859008789,-1.2373592853546145,-0.0,-0.0,-1.0,0.0168991942583389,2.0
41.18192672729492,2.186243057250977,-1.233764410018921,-0.0,-0.0,-1.0,0.010769167992124,2.0
40.88603210449219,2.490878105163574,-1.2301480770111084,-0.0,-0.0,-1.0,0.0057877213652787,2.0
40.573123931884766,2.562929630279541,-1.1962807178497314,-0.0,-0.0,-1.0,0.0328259591976026,2.0
40.38100051879883,2.6580305099487305,-1.1819374561309814,-0.0,-0.0,-1.0,0.0361328147332514,1.0
40.27182388305664,2.712984561920166,-1.173977613449097,-0.0,-0.0,-1.0,0.0401336757399192,2.0
40.262725830078125,1.6954925060272217,-1.219867706298828,0.6555856809557002,-0.4181856579434139,-0.6287512786597617,0.004853698019736,3.0
42.48040390014648,0.8405897617340088,-1.1999629735946655,0.3798185587025063,0.8523402554072388,-0.3595190557918643,0.0067455371212201,3.0
42.42204284667969,1.849513292312622,-1.2724148035049438,-0.0,-0.0,-1.0,0.0117859848384425,1.0
42.32284927368164,2.0683915615081787,-1.2765430212020874,-0.0,-0.0,-1.0,0.0064724363858105,1.0
42.16500473022461,2.44065523147583,-1.2867218255996704,-0.0,-0.0,-1.0,0.0263317889244942,2.0
41.950439453125,2.8304553031921387,-1.2921587228775024,-0.0,-0.0,-1.0,0.0366270634487495,1.0
40.3689079284668,1.463148832321167,-1.2138183116912842,-0.0,-0.0,-1.0,0.0028319415428858,1.0
40.386016845703125,1.8216944932937624,-1.2194373607635498,0.3878308691358925,0.6746768872086214,-0.628011397039722,0.0058635042924699,3.0
40.27626037597656,2.221686840057373,-1.2051305770874023,0.5161987048537596,-0.0634616813506624,-0.8541144607764514,0.0105658550680146,3.0
40.275611877441406,1.2564563751220703,-1.1966350078582764,-0.0,-0.0,-1.0,0.0079428646280977,1.0
42.323341369628906,3.050670623779297,-1.347018480300903,-0.0,-0.0,-1.0,0.0264730461366931,2.0
42.087013244628906,2.800344944000244,-1.306718826293945,-0.0,-0.0,-1.0,0.0380144372743939,1.0
41.81161880493164,1.725198745727539,-1.2619857788085938,-0.0,-0.0,-1.0,0.0145783580827667,1.0
41.760555267333984,2.000112533569336,-1.2525408267974854,-0.8132005479094478,-0.3283008300625581,-0.4805449342777521,0.0137363286173685,3.0
41.89078521728515,2.379937648773194,-1.2732691764831543,-0.0,-0.0,-1.0,0.0192368063470036,2.0
41.97112274169922,2.6284759044647217,-1.2869470119476318,-0.0,-0.0,-1.0,0.0405360093683786,1.0
41.451942443847656,1.5568418502807615,-1.205678939819336,-0.0,-0.0,-1.0,0.0268785468738939,2.0
41.17635345458984,1.094221115112305,-1.1674330234527588,-0.3550648638011098,-0.4877448499830671,-0.7975173376227594,0.0436563219161303,4.0
41.30257415771485,1.388979196548462,-1.183532953262329,-0.5943175772482489,-0.0717149620723913,-0.8010265798266167,0.0227595528158666,3.0
40.86872100830078,0.6792812347412109,-1.126220703125,-0.0,-0.0,-1.0,0.0674680709565154,2.0
41.017730712890625,0.8345921039581299,-1.1466188430786133,-0.0,-0.0,-1.0,0.0339907734684626,2.0
41.79816436767578,2.957270622253418,-1.3064451217651367,0.7184987549245702,-0.5514206270597692,-0.4239042712981952,0.0306937001941892,3.0
41.409149169921875,2.4886474609375,-1.290588140487671,-0.0,-0.0,-1.0,0.0174424465869655,1.0
41.01653671264648,2.2991650104522705,-1.2493927478790283,-0.0,-0.0,-1.0,0.011574740380803,1.0
40.54010772705078,2.015336751937866,-1.2060706615447998,-0.0,-0.0,-1.0,0.0074126229023156,2.0
40.68255615234375,2.1790194511413574,-1.210773229598999,-0.0,-0.0,-1.0,0.0058166095376009,2.0
40.4915771484375,2.7912330627441406,-1.1218540668487549,-0.0,-0.0,-1.0,0.0525438407334867,2.0
40.28137969970703,1.6132726669311523,-1.210054874420166,-0.0,-0.0,-1.0,0.0042458371700898,2.0
40.43789291381836,1.8270225524902344,-1.2105305194854736,-0.3961399290120651,-0.541006146472222,-0.7418797113559535,0.0062168260818961,3.0
41.31478118896485,3.1218738555908203,-1.3602081537246704,-0.0,-0.0,-1.0,0.0057847436165788,2.0
40.42986297607422,2.539339303970337,-1.2179113626480105,-0.0,-0.0,-1.0,0.114508305122406,1.0
40.34159851074219,3.069734573364258,-1.196311116218567,-0.0790752670012292,0.4194652188205643,-0.9043207574464386,0.0987308986002118,3.0
40.30181884765625,1.6589250564575195,-1.2171918153762815,-0.3843571898933141,0.6087129490742174,-0.6940735524472058,0.0046183227558111,4.0
40.32008361816406,2.0177698135375977,-1.2104541063308716,-0.0,-0.0,-1.0,0.0062620032567741,1.0
40.311668395996094,2.3204145431518555,-1.2022374868392944,-0.0,-0.0,-1.0,0.0178149890694152,2.0
42.338401794433594,2.025092601776123,-1.300459384918213,-0.0,-0.0,-1.0,0.0094597898223039,1.0
42.411720275878906,2.4439873695373535,-1.309385061264038,-0.7223967216880202,-0.3018785395632539,-0.622103145664413,0.0373850813174499,3.0
42.49647521972656,2.862734317779541,-1.3215045928955078,-0.0,-0.0,-1.0,0.0242544120003765,2.0
41.888458251953125,1.3773493766784668,-1.2411158084869385,-0.0,-0.0,-1.0,0.0208555648489832,2.0
42.07866668701172,1.642566204071045,-1.2657313346862793,-0.0,-0.0,-1.0,0.026070297486721,2.0
41.570762634277344,0.6398754119873047,-1.2072608470916748,-0.0,-0.0,-1.0,0.0374124698663744,2.0
41.62248229980469,0.8595223426818848,-1.210742473602295,0.0704288919865021,0.8017664818186897,-0.5934730657794295,0.0366982682158504,3.0
41.662818908691406,1.231576919555664,-1.2107212543487549,-0.2887160924669563,-0.5035301445126843,-0.8143097761402885,0.0295073115866828,3.0
41.14253234863281,0.7783384323120117,-1.1444091796875,-0.3275395788104296,-0.1438702771135015,-0.9338196655007702,0.0670629499616351,5.0
41.26675796508789,1.0649256706237793,-1.1568496227264404,-0.6464474131234916,0.6160979648499731,-0.4500322652584663,0.0690180025219158,3.0
42.641326904296875,0.6566667556762695,-1.1954389810562134,-0.0,-0.0,-1.0,0.0061637609056807,2.0
42.27429962158203,2.1995725631713867,-1.2919156551361084,-0.0,-0.0,-1.0,0.0230881159977114,1.0
42.41509246826172,2.499666213989258,-1.297332763671875,-0.0,-0.0,-1.0,0.019035624054313,2.0
42.54481506347656,2.769550323486328,-1.303403377532959,-0.5411023851373917,0.6118370013664132,-0.576943404986643,0.0444726471062656,3.0
41.82463455200195,1.7890920639038086,-1.2547504901885986,-0.0,-0.0,-1.0,0.0112516454651855,2.0
42.03227996826172,2.046133041381836,-1.2684543132781982,0.0831425922456669,-0.5957820521874566,-0.7988310557595855,0.0117091415444352,3.0
41.395896911621094,1.5611858367919922,-1.2138502597808838,-0.0,-0.0,-1.0,0.0281786552054465,2.0
41.60316848754883,1.683852195739746,-1.232879877090454,-0.6780647515440706,0.6905929868851615,-0.2516138294659282,0.024004019611334,3.0
41.03882598876953,1.1345033645629885,-1.194359540939331,0.8690613699716443,0.3470161058193888,-0.3525792925356732,0.0319751163000691,4.0
41.220314025878906,1.3935794830322266,-1.201667547225952,-0.0,-0.0,-1.0,0.0256880260350649,1.0
40.95677185058594,1.0732650756835938,-1.1881964206695557,-0.0,-0.0,-1.0,0.0267106458093961,2.0
41.14461898803711,1.335000991821289,-1.1958246231079102,-0.0,-0.0,-1.0,0.0203894894418046,1.0
40.737361907958984,0.9831247329711914,-1.1678597927093506,-0.6582015629994419,-0.6600048702250153,-0.3621660858561339,0.0447843259031151,4.0
40.25395202636719,0.8024911880493164,-1.123199701309204,-0.0,-0.0,-1.0,0.0174820680340652,2.0
40.39945983886719,0.8979158401489258,-1.1339187622070312,-0.0,-0.0,-1.0,0.0171453531389899,1.0
42.665000915527344,0.8462734222412109,-1.231595516204834,-0.0205749961853875,-0.2644433470743316,-0.9641817182046628,0.0059996516195797,4.0
42.35597229003906,0.6663703918457031,-1.216576337814331,-0.0,-0.0,-1.0,0.0038934741979216,1.0
42.47327423095703,0.7606515884399414,-1.2201974391937256,-0.0,-0.0,-1.0,0.0067455371212201,1.0
42.075889587402344,0.6398210525512695,-1.1930317878723145,-0.0,-0.0,-1.0,0.0044326906806524,1.0
40.64736557006836,0.9933013916015624,-1.1667594909667969,-0.0,-0.0,-1.0,0.0385260076461759,2.0
40.649932861328125,0.6449871063232422,-1.146866798400879,-0.0,-0.0,-1.0,0.0381488936080501,1.0
40.22996139526367,2.6330747604370117,-1.2124652862548828,-0.0,-0.0,-1.0,0.0273846215602127,1.0
40.40445709228515,2.338071823120117,-1.2161080837249756,-0.0,-0.0,-1.0,0.0194822540770868,1.0
40.91351318359375,1.553116798400879,-1.2312994003295898,-0.0,-0.0,-1.0,0.0209734736630347,1.0
40.879150390625,1.226313591003418,-1.2081122398376465,-0.0,-0.0,-1.0,0.0237904328290136,2.0
40.25257873535156,0.9582233428955078,-1.177004098892212,-0.0,-0.0,-1.0,0.015396535406909,1.0
40.48569869995117,1.0117321014404297,-1.196404218673706,-0.0,-0.0,-1.0,0.0127015930546129,2.0
40.78567123413086,1.095881462097168,-1.2211825847625732,-0.0,-0.0,-1.0,0.0222440877153323,2.0
41.04871368408203,1.1933794021606443,-1.2425763607025146,-0.0,-0.0,-1.0,0.0297669906763156,1.0
40.33339309692383,2.796703338623047,-1.1550617218017578,-0.3933057317476889,0.3738657685103266,-0.8399613017934802,0.0487814702966563,3.0
41.39670181274414,1.6575384140014648,-1.2657623291015625,-0.0,-0.0,-1.0,0.0927817815802442,2.0
40.48250961303711,2.888735771179199,-1.1669399738311768,0.7815632638251924,0.0979751830019331,-0.616084189177624,0.119620096863424,3.0
41.66667556762695,1.828526496887207,-1.2869455814361572,-0.0,-0.0,-1.0,0.0112718263218292,2.0
41.77870178222656,2.015928268432617,-1.2940542697906494,-0.0,-0.0,-1.0,0.0137622603393206,2.0
42.055030822753906,2.510120391845703,-1.3115217685699463,-0.0,-0.0,-1.0,0.0236564236576543,1.0
42.30821228027344,2.2351484298706055,-1.337756872177124,-0.0,-0.0,-1.0,0.0244182266762875,1.0
42.371829986572266,2.7265472412109375,-1.336745023727417,-0.0,-0.0,-1.0,0.0255644615133267,1.0
42.458534240722656,2.6921586990356445,-1.3449246883392334,-0.0,-0.0,-1.0,0.0311808178157885,2.0
42.637184143066406,3.0128822326660156,-1.3566768169403076,-0.1280287214773378,-0.7149574023682418,-0.6873460258674184,0.0295447033818076,3.0
40.4416618347168,1.1817550659179688,-1.1932257413864136,-0.0,-0.0,-1.0,0.0123532875999912,1.0
40.617637634277344,1.4067983627319336,-1.216941475868225,-0.0,-0.0,-1.0,0.0137341515384545,1.0
40.373817443847656,2.1957740783691406,-1.2065547704696655,-0.0,-0.0,-1.0,0.0108050367618028,2.0
40.784461975097656,1.6966552734375,-1.241153597831726,-0.0,-0.0,-1.0,0.0096930289150973,2.0
40.35149383544922,1.5899343490600586,-1.1980425119400024,-0.0,-0.0,-1.0,0.0042458371700898,1.0
42.2406005859375,1.3377294540405271,-1.250833511352539,-0.0,-0.0,-1.0,0.0071264718760638,2.0
42.12870407104492,1.1921148300170898,-1.245328426361084,-0.3422729224440667,-0.5651974982703081,-0.7506004493141362,0.0091463522909472,3.0
42.61378479003906,1.5539789199829102,-1.2837364673614502,-0.0,-0.0,-1.0,0.005293862532393,1.0
41.1789665222168,0.6921229362487793,-1.1624183654785156,-0.0,-0.0,-1.0,0.0585524010096948,2.0
41.622657775878906,0.9513330459594728,-1.1992993354797363,-0.0,-0.0,-1.0,0.0551014498634246,2.0
41.784576416015625,0.8403615951538086,-1.2242553234100342,-0.0,-0.0,-1.0,0.0210573891219227,1.0
42.02648162841797,1.080524444580078,-1.2393333911895752,-0.0,-0.0,-1.0,0.0058526215695534,2.0
41.93270492553711,1.8468360900878904,-1.256293535232544,-0.0,-0.0,-1.0,0.0112031177762918,2.0
41.84820556640625,1.4546260833740234,-1.2228734493255615,-0.0,-0.0,-1.0,0.0170764919335612,1.0
42.02066802978515,2.5766639709472656,-1.3087351322174072,-0.0,-0.0,-1.0,0.0406338461031558,2.0
42.005470275878906,2.2297191619873047,-1.287614107131958,-0.0,-0.0,-1.0,0.009023043236773,2.0
40.61210632324219,2.0310230255126953,-1.2020680904388428,-0.0,-0.0,-1.0,0.0070568266220538,1.0
40.694061279296875,1.8500995635986328,-1.1928339004516602,-0.0,-0.0,-1.0,0.0096663979198695,2.0
40.92498016357422,1.3067092895507812,-1.163839340209961,-0.0,-0.0,-1.0,0.027774613410669,1.0
40.92719268798828,1.0557193756103516,-1.139397144317627,-0.0,-0.0,-1.0,0.0261622653032307,2.0
40.817928314208984,1.7613487243652344,-1.1972739696502686,-0.0,-0.0,-1.0,0.0111086789881489,2.0
40.98634338378906,1.562175750732422,-1.19561767578125,0.5634593250045022,0.7571207786248164,-0.3305778511032197,0.0194729678645326,3.0
41.78664016723633,2.9747982025146484,-1.348778247833252,0.7184987549245702,-0.5514206270597692,-0.4239042712981952,0.2264919475618582,3.0
42.16732025146485,2.753992080688477,-1.3476767539978027,-0.0,-0.0,-1.0,0.0289764348601724,1.0
42.4205322265625,2.461944580078125,-1.328331470489502,-0.9397476182827204,0.1257307816072178,-0.3179090821105808,0.0151152092323592,3.0
41.736087799072266,2.7138843536376953,-1.3106822967529297,-0.0,-0.0,-1.0,0.0741076091759174,2.0
42.67613220214844,1.131195068359375,-1.2117938995361328,-0.0,-0.0,-1.0,0.0039779549358819,1.0
42.550575256347656,1.386068344116211,-1.230980634689331,-0.0,-0.0,-1.0,0.0073819177271482,2.0
41.858741760253906,2.0459213256835938,-1.249558687210083,0.2011994381263951,0.0768272943270993,-0.9765328222563746,0.0124694294217497,4.0
42.16230773925781,1.9721717834472656,-1.2672247886657717,-0.0,-0.0,-1.0,0.0085047112373905,1.0
42.40030670166016,1.757526397705078,-1.2622692584991455,-0.0,-0.0,-1.0,0.0156084157118557,1.0
40.63747024536133,2.353919982910156,-1.182572364807129,-0.0,-0.0,-1.0,0.0119592370448188,1.0
41.0079231262207,2.44854736328125,-1.2257864475250244,-0.0,-0.0,-1.0,0.0134558909229465,1.0
41.4685173034668,2.5034618377685547,-1.2719459533691406,-0.0,-0.0,-1.0,0.0148967145419994,2.0
41.62386322021485,2.261789321899414,-1.2555744647979736,-0.0,-0.0,-1.0,0.0562987259743688,1.0
41.36211395263672,2.8064098358154297,-1.3003277778625488,-0.0,-0.0,-1.0,0.0082586238338038,1.0
42.4486083984375,2.5688400268554688,-1.249800682067871,-0.0,-0.0,-1.0,0.0243900894800577,1.0
42.25059509277344,2.8807315826416016,-1.2810561656951904,-0.0,-0.0,-1.0,0.0328379541028425,2.0
