//X Y Z Roughness_(0.15893) R G B
17.05705643 25.77632523 -0.81012821 0.007753 0 38 216
14.95358849 26.95372200 -0.90873480 0.005651 0 26 228
14.56694984 26.50130463 -0.81110573 0.037499 0 187 67
14.38943100 26.77052307 -0.85407829 0.014369 0 71 183
14.28411102 26.12644768 -0.73200321 0.051870 4 255 0
14.07730103 26.40860558 -0.77694821 0.007211 0 35 219
14.11688042 27.09929466 -0.90576792 0.028578 0 142 112
13.48880196 26.00717163 -0.68505359 0.049265 0 247 7
10.81559467 27.45038986 -0.93052983 0.049134 0 244 10
10.52203941 27.29261398 -0.90256739 0.064939 70 255 0
9.61316109 27.23344612 -0.90439153 0.007567 0 35 219
29.67298126 7.96098423 -0.52819753 0.029161 0 145 109
27.19163895 12.72714520 -0.76828337 0.026484 0 130 124
21.23650360 16.37861824 -0.47989035 0.046010 0 229 25
20.62470055 17.76886749 -0.56614470 0.025623 0 127 127
19.71681595 19.50547028 -0.67832279 0.103660 255 245 0
16.89965057 24.76179504 -0.62473583 0.085058 171 255 0
15.84917068 24.96314240 -0.59419632 0.053940 13 255 0
15.32428837 25.24063873 -0.61561728 0.070597 97 255 0
15.10269356 22.57169342 -0.72882414 0.044453 0 220 34
13.66069794 23.08579826 -0.75150204 nan 204 204 204
13.40333271 25.79381752 -0.64314556 0.050531 0 253 1
13.20026970 25.94051743 -0.66530275 0.026919 0 133 121
12.97167778 25.81196404 -0.63607121 0.026367 0 130 124
9.91179085 26.34867859 -0.72905540 nan 204 204 204
9.14434242 34.77956390 -0.39791727 0.083199 163 255 0
2.74070263 24.20678329 -0.76292372 0.001945 0 8 246
1.31800699 26.94201851 -0.64039207 0.002180 0 8 246
0.38995457 27.25595093 -0.77824402 0.036378 0 181 73
29.61197090 8.24608326 -0.50931716 0.035556 0 175 79
29.10935020 6.40655422 -0.49449754 0.053895 13 255 0
29.33850098 7.73408890 -0.47958326 0.022230 0 109 145
28.95040703 6.24300957 -0.47564554 0.035991 0 178 76
25.93713379 10.77218342 -0.48632240 0.002615 0 11 243
25.49386597 8.47976875 -0.41234159 0.003193 0 14 240
24.92058754 10.92475700 -0.28601480 0.012743 0 62 192
20.11460495 16.34638214 -0.26933527 0.010410 0 50 204
7.34892941 21.53419495 -0.41246891 0.013750 0 68 186
3.46909761 19.86257172 -0.42107463 0.019618 0 97 157
3.54502678 20.22914505 -0.48664474 0.008675 0 41 213
2.24526787 21.45789337 -0.34102607 0.019091 0 94 160
31.37861633 3.36824799 -0.23872590 0.013800 0 68 186
31.28216171 3.74215674 -0.20236325 0.030853 0 151 103
26.82351685 3.87880230 -0.26654649 0.061393 52 255 0
26.14741325 3.13591146 -0.21502686 0.030538 0 151 103
24.19825554 5.47815132 -0.27889347 0.039837 0 199 55
7.97927046 20.46035385 -0.13469267 0.049246 0 244 10
6.85948229 20.23125267 -0.14898753 0.068352 88 255 0
6.64211464 20.23303986 -0.16528749 0.012644 0 62 192
2.11299372 21.36248207 -0.34168983 0.013631 0 65 189
26.33585167 1.09518528 0.22501040 0.076566 130 255 0
24.30430984 1.61292315 -0.06555319 0.007057 0 32 222
23.21489525 2.34521008 0.18069482 0.045382 0 226 28
23.26677322 2.49379015 0.18753624 0.028411 0 139 115
18.82705307 2.67552805 0.09302354 0.004423 0 20 234
18.66470528 2.62795115 0.12046170 0.001277 0 5 249
34.10280991 -9.84141541 0.27742529 0.001486 0 5 249
33.85824585 -9.42195129 0.32494879 0.022751 0 112 142
33.81713867 -9.26902771 0.34000015 0.069597 94 255 0
33.65112686 -9.84767914 0.29763079 0.012989 0 62 192
33.70047760 -9.44145584 0.33059144 0.005356 0 26 228
22.06887245 -2.10668945 0.35798025 0.075198 121 255 0
21.31279182 1.03494930 0.32113791 0.064253 67 255 0
20.51545334 0.45711803 0.35963416 0.003060 0 14 240
20.30947113 -0.35313702 0.27275801 0.055809 25 255 0
19.21003723 2.70907354 0.42985725 0.026733 0 133 121
19.33235931 2.93143702 0.43621707 0.019418 0 94 160
18.37158203 1.70207119 0.43308163 0.009281 0 44 210
17.40864944 0.66750908 0.41527176 0.032821 0 163 91
16.02033997 1.67576647 0.47787285 0.118871 255 167 0
23.86048889 -4.31771278 0.55764008 0.017263 0 85 169
23.55362511 -4.40929508 0.56871533 0.004474 0 20 234
19.30040741 2.61659193 0.81350684 0.024206 0 118 136
19.37284088 2.87828302 0.83295774 0.010841 0 53 201
17.64039993 5.87225914 0.74801397 0.005360 0 26 228
17.52439880 6.13318205 0.79590487 0.017397 0 85 169
19.32217789 2.72281456 1.22914851 0.011179 0 53 201
19.31455994 2.80980539 1.23884630 0.037935 0 187 67
17.51763535 6.09871674 1.11227059 0.024122 0 118 136
17.30086899 6.06126642 1.30562592 0.029915 0 148 106
65.44679260 26.37643242 -2.71596861 0.054638 19 255 0
65.52913666 32.62907791 -2.72765923 0.025829 0 127 127
62.55703354 25.24978065 -2.43318892 0.042099 0 208 46
33.23281860 27.08399391 -1.89469910 0.035659 0 178 76
25.33294678 32.33627319 -1.49026299 0.010452 0 50 204
13.32515526 34.06052017 -1.98399401 nan 204 204 204
22.87784386 28.02818680 -1.62406635 0.015972 0 77 177
22.60879517 27.93408012 -1.57944489 0.016949 0 83 171
20.38589096 29.53049469 -1.59355688 0.007669 0 35 219
5.20025158 35.14747620 -1.33355141 0.036854 0 184 70
62.67142105 25.39845276 -0.46349406 0.017372 0 85 169
24.59582901 28.87487221 -1.02294445 0.025259 0 124 130
24.22544098 30.38691330 -1.15953207 0.013695 0 68 186
18.93131638 27.14114189 -1.07894778 0.029787 0 148 106
19.10075378 28.11396217 -1.25055647 0.015511 0 77 177
18.75343704 28.63056564 -1.30506182 0.009947 0 47 207
14.17859936 29.19489288 -1.12208986 0.047951 0 238 16
13.85600471 29.01693916 -1.07806563 0.011106 0 53 201
13.57308388 29.00763321 -1.06660366 0.049582 0 247 7
13.29974937 33.91230774 -1.02602386 0.069210 91 255 0
12.90229034 30.20949745 -1.26721907 0.030849 0 151 103
10.92396736 29.56840706 -1.12147355 0.041498 0 205 49
38.17371750 14.59496498 -1.12832880 0.026817 0 133 121
37.90823746 14.64364815 -1.09134102 0.009678 0 47 207
27.11387634 16.61787415 -1.09092259 0.008102 0 38 216
26.69288254 16.06202888 -0.98177242 0.022793 0 112 142
26.88896179 16.36980057 -1.03489113 0.038387 0 190 64
26.80846405 17.08042908 -1.05781031 0.020721 0 100 154
17.42719650 26.20380783 -0.79704428 0.061208 52 255 0
16.40071869 26.38468170 -0.74927187 0.016127 0 80 174
14.56833458 27.26288414 -0.79315782 0.050165 0 250 4
14.52769375 27.48289299 -0.83033752 0.017895 0 88 166
14.14211273 27.12301826 -0.74862361 0.017934 0 88 166
14.37458515 27.45422173 -0.81815505 0.028411 0 139 115
14.06719971 28.03085136 -0.90819597 0.068514 88 255 0
14.07935047 28.36082077 -0.96801615 0.022719 0 112 142
14.01040840 27.14563179 -0.74698782 0.032018 0 157 97
13.34106350 27.38637161 -0.76471734 0.016747 0 83 171
13.17452908 27.54066086 -0.78720188 0.009422 0 44 210
10.64116383 28.00209236 -0.82895494 nan 204 204 204
1.21825552 26.24448013 -1.01920438 0.037121 0 184 70
36.26461792 12.86710358 -0.88715887 0.001049 0 2 252
36.03812408 12.30630684 -0.86597633 0.007614 0 35 219
36.15638733 13.28510380 -0.86552501 0.044088 0 220 34
30.04707718 11.54604721 -0.80865145 0.047991 0 238 16
26.73395920 15.29027176 -0.95578241 0.003472 0 14 240
15.94859505 23.03853226 -0.74603891 0.037758 0 187 67
9.75488663 27.20020294 -0.68173766 0.013472 0 65 189
9.53022194 27.27304459 -0.69736671 0.027023 0 133 121
5.26756239 35.22106934 -0.37726164 0.029571 0 145 109
24.32301712 11.85978699 -0.38218904 0.013374 0 65 189
21.13660431 16.16414070 -0.47887421 0.015010 0 74 180
21.14632416 16.28685570 -0.49325466 0.006450 0 29 225
20.65568352 17.69082642 -0.55311036 0.015853 0 77 177
20.16677475 16.27165604 -0.29188395 0.008299 0 38 216
3.78808784 20.97518158 -0.35044312 0.016875 0 83 171
3.30600786 21.32095528 -0.47938776 0.003346 0 14 240
2.73663616 20.70588112 -0.43246770 0.053309 10 255 0
31.11084366 6.20865440 -0.40379357 0.060549 49 255 0
30.65696716 5.72843218 -0.36906099 0.040800 0 202 52
30.97668839 6.10741520 -0.39091229 0.033685 0 166 88
30.61932373 5.04829884 -0.40769577 0.033879 0 169 85
29.26804352 6.10834026 -0.15117741 0.027027 0 133 121
26.09099960 10.82688332 -0.12754679 0.017008 0 83 171
25.51343536 5.35676289 -0.28148890 0.006325 0 29 225
22.56301689 5.17942905 -0.29501081 0.008399 0 41 213
19.46985626 16.16695786 -0.14127517 0.011718 0 56 198
19.43439102 16.22815514 -0.14138556 0.016809 0 83 171
19.14508820 16.09410667 -0.06901836 0.004776 0 23 231
19.14871216 16.31961823 -0.09663796 0.003662 0 17 237
6.63816786 20.27397537 0.06995082 0.002441 0 11 243
3.50827980 20.28155136 -0.24541211 0.001769 0 5 249
31.57905960 -1.08243084 -0.19111252 0.055119 19 255 0
31.26047134 -1.35885906 -0.18567252 0.087894 186 255 0
31.39550781 -1.23335934 -0.18714213 0.056313 25 255 0
28.03770447 2.50076628 -0.25117970 0.002648 0 11 243
27.50693512 2.95465136 -0.14022064 0.002039 0 8 246
27.41490173 3.17431879 -0.10825872 0.059404 43 255 0
26.28229141 3.17974997 0.04450274 0.006741 0 32 222
25.36037445 8.49652576 -0.06533766 0.031012 0 154 100
21.34080505 4.60660267 -0.10286951 0.087170 180 255 0
23.43992996 0.12187195 0.08953929 0.026438 0 130 124
23.24346924 2.42638826 0.37401152 0.007109 0 32 222
19.33216095 2.78165388 0.04894972 0.012941 0 62 192
18.64294243 2.76345253 0.17300081 0.024113 0 118 136
18.92810440 3.91338491 0.29091072 0.036437 0 181 73
17.65306473 5.83916664 0.44777417 0.011467 0 56 198
17.31711960 3.39384222 0.15248752 0.010620 0 50 204
16.53066444 2.55042887 0.14831710 0.013743 0 68 186
25.10453415 -2.41795254 0.26715493 0.053316 10 255 0
19.80387497 -0.79387474 0.37829304 0.040509 0 202 52
19.43975449 2.98689175 0.49150181 0.010536 0 50 204
19.26660919 2.77634192 0.48991704 0.009280 0 44 210
18.33892822 1.76130676 0.47908378 0.055110 19 255 0
17.52279091 6.01607418 0.66527939 0.002531 0 11 243
17.52275467 6.24729109 0.68947697 0.029087 0 145 109
19.49939537 2.90797138 0.90053165 0.024372 0 121 133
19.36028671 2.72328186 0.89590383 0.000947 0 2 252
17.50419617 6.06441689 1.16072845 0.012519 0 62 192
17.58207130 6.11810541 1.15244615 0.016794 0 83 171
62.63341522 25.26263046 -2.60884786 0.004349 0 20 234
57.79962921 27.59938431 -2.19354033 0.070663 100 255 0
42.49932098 28.67213440 -2.20734477 0.035422 0 175 79
40.79804230 24.66324043 -1.78252816 0.070241 97 255 0
28.34274864 28.93755722 -1.71296716 0.057841 34 255 0
39.80268097 18.17317009 -1.40979409 0.020182 0 100 154
39.73748016 18.03912354 -1.39792275 0.020855 0 103 151
26.21167946 29.64790344 -1.56646514 0.063042 61 255 0
25.94442177 30.10866547 -1.59903455 0.024872 0 121 133
24.81527519 30.07696915 -1.48260045 nan 204 204 204
24.63726234 28.98310089 -1.31797671 0.032093 0 160 94
24.35643196 30.20872116 -1.45675159 0.007181 0 35 219
24.16364670 30.35607147 -1.45915294 0.014263 0 71 183
23.74957085 31.05751038 -1.52011418 0.029545 0 145 109
19.81663513 32.85179520 -1.49683213 0.037537 0 187 67
19.13137436 28.33061981 -1.52529788 0.035152 0 175 79
30.55957985 17.54874611 -1.01477957 0.002489 0 11 243
18.97129059 27.11306763 -1.28770423 0.010420 0 50 204
15.20738983 27.58221054 -1.10296726 0.051228 1 255 0
15.26599598 27.64898682 -1.11945438 0.014838 0 74 180
9.18594933 33.32344437 -1.34451365 nan 204 204 204
36.24143219 10.53059673 -0.87143040 0.056153 25 255 0
26.50957870 15.27105904 -0.91938806 0.023763 0 118 136
24.87841797 24.36563873 -0.76923275 0.013334 0 65 189
18.01753235 25.85015106 -0.97040486 0.026424 0 130 124
17.59311485 25.86694336 -0.93647313 0.034613 0 172 82
17.47462463 25.36729050 -0.83368802 0.033617 0 166 88
17.52012253 26.15074158 -0.98319936 0.030856 0 151 103
17.10891342 25.75342178 -0.87508392 0.015011 0 74 180
15.57318497 30.07195282 -0.83566070 0.061064 49 255 0
14.59615135 26.56457520 -0.86803174 0.067102 82 255 0
14.48057938 27.01777267 -0.95349646 0.023749 0 118 136
14.33751678 26.15361023 -0.77279687 0.062347 58 255 0
14.23494148 26.53964233 -0.84571862 0.008563 0 41 213
14.19561958 26.95782852 -0.92846251 0.040770 0 202 52
12.81080532 30.43593216 -0.82673097 0.012223 0 59 195
10.80696583 27.49915314 -0.96359634 0.040857 0 202 52
9.71401215 27.21321869 -0.90925050 0.006247 0 29 225
8.83557129 27.98134613 -1.08783960 nan 204 204 204
31.33021164 3.51880980 -0.44307303 0.011017 0 53 201
21.18327522 16.22603989 -0.48766017 0.002066 0 8 246
20.73362732 17.67403030 -0.57505918 0.016367 0 80 174
15.88704109 25.00542068 -0.63961935 0.043633 0 217 37
15.28065109 25.23553848 -0.64332509 0.011702 0 56 198
14.96704102 22.53799248 -0.62865925 0.042695 0 211 43
13.44598484 33.99677277 -0.55552077 0.078805 139 255 0
13.36199188 25.84120178 -0.66765380 0.042168 0 211 43
13.13410759 25.99946976 -0.69175267 0.029808 0 148 106
9.18100643 34.60827637 -0.66759562 0.000435 0 0 255
8.36648178 24.01792526 -0.80036974 0.001835 0 8 246
5.27895355 23.47291183 -0.85912824 0.022275 0 109 145
5.20584679 23.36167908 -0.83917665 0.000522 0 0 255
29.29923058 2.84291649 -0.21931601 0.051280 1 255 0
29.20420456 2.63806820 -0.22092557 0.043971 0 220 34
29.17283440 3.41255093 -0.16550660 0.030636 0 151 103
22.53196144 4.77376699 -0.24118495 0.012595 0 62 192
22.71454620 4.94684982 -0.26124310 0.017029 0 83 171
20.23566055 16.26626968 -0.29399681 0.000546 0 0 255
19.49233818 16.21712494 -0.13575912 0.007451 0 35 219
19.22386551 16.27959251 -0.08983827 0.011612 0 56 198
12.18294621 21.66879654 -0.23695326 0.014827 0 71 183
3.74953032 21.00535965 -0.45364118 0.077266 133 255 0
3.36415720 20.12624931 -0.31288052 0.009292 0 44 210
3.56985664 20.27726746 -0.31627679 0.039981 0 199 55
3.02922297 20.47514343 -0.43816757 0.017127 0 83 171
-2.20984077 36.28248978 -0.46073389 0.025707 0 127 127
62.78800201 25.43384552 1.30807948 0.049019 0 244 10
27.47549629 3.07621336 0.03276753 0.041731 0 208 46
26.96469116 1.97957039 0.01609731 0.021824 0 106 148
26.57132912 1.12607288 -0.00563097 0.038437 0 190 64
26.17236328 1.09723949 0.04056025 0.003609 0 17 237
26.23331642 1.72162390 0.08636713 0.056549 28 255 0
25.42205429 8.51018620 -0.00880218 0.036604 0 181 73
24.84320068 0.48620892 0.14328718 0.031076 0 154 100
23.27683258 2.43875027 -0.05864310 0.009245 0 44 210
19.38591003 2.67476559 0.09657598 0.040730 0 202 52
19.40533066 2.92405891 0.12882257 0.011443 0 56 198
6.73577404 20.12259483 0.07188916 0.053253 10 255 0
6.62000084 20.38487434 -0.00078225 0.026512 0 130 124
3.51326227 20.37312126 0.10886765 0.010417 0 50 204
2.14372826 21.39141273 -0.25793362 0.014004 0 68 186
33.96440887 -9.42585278 0.28866744 0.049305 0 247 7
33.66728592 -9.74703121 0.28022194 0.008320 0 41 213
33.78733444 -9.42821598 0.29720879 0.000692 0 2 252
23.53586578 2.49240971 0.48363996 0.018785 0 91 163
21.87718964 -0.68630219 0.34794259 0.005763 0 26 228
18.73011017 2.74442863 0.21885419 0.040745 0 202 52
17.71259689 5.81593513 0.45577550 0.036013 0 178 76
17.55796432 6.24225950 0.54070163 0.060018 46 255 0
17.51261139 5.98405600 0.52129197 0.014380 0 71 183
17.51398087 6.06805563 0.53087783 0.044094 0 220 34
19.29719162 2.72740173 0.56517124 0.011095 0 53 201
19.43383217 2.91465950 0.56870794 0.005170 0 23 231
19.17199707 2.67719698 0.57666039 0.043783 0 217 37
18.41308022 1.83340406 0.56713295 0.002183 0 8 246
17.63454056 5.93999052 0.83057475 0.004600 0 20 234
17.58273315 6.16421795 0.86358941 0.027542 0 136 118
19.43615341 2.68504381 0.98506510 0.049490 0 247 7
17.59684372 6.05514908 1.18401814 0.056722 28 255 0
62.54143143 25.36878967 -2.07979274 0.045456 0 226 28
26.36022949 29.82301712 -1.89438462 0.006687 0 32 222
26.01743698 30.04504013 -1.87991214 0.032116 0 160 94
24.43838692 30.21285629 -1.70940995 0.013058 0 65 189
24.06486130 30.21794128 -1.66643023 0.015631 0 77 177
43.61406708 15.76171112 -1.60652423 0.055175 19 255 0
25.53987503 28.41538239 -1.60230613 0.021366 0 106 148
25.33278275 32.32500458 -1.13826394 0.000614 0 2 252
24.53626633 28.91892242 -1.54064345 0.015826 0 77 177
16.18983078 32.36526108 -1.35836720 0.025530 0 127 127
16.09031296 33.11498642 -1.48881269 0.049200 0 244 10
26.41991806 23.63932800 -1.17808223 0.032351 0 160 94
15.21246529 27.66170120 -1.13275790 0.033535 0 166 88
1.39947224 34.22116852 -1.18200278 0.019709 0 97 157
24.49223709 23.48975563 -0.86102867 0.034956 0 172 82
17.94903946 25.76828384 -0.99248362 0.063588 64 255 0
17.40470505 25.35676193 -0.85421801 0.007504 0 35 219
17.50717163 25.77829552 -0.94665313 0.027005 0 133 121
17.45805550 26.07462502 -0.99919105 0.026873 0 133 121
17.05110741 25.07528687 -0.76227045 0.029263 0 145 109
17.34696198 25.13586426 -0.80542922 0.004955 0 23 231
17.07843781 25.74921036 -0.89682746 0.011494 0 56 198
16.42337799 26.31115723 -0.94682002 0.011431 0 56 198
15.60550690 30.12295532 -0.92780852 0.011122 0 53 201
15.01847839 26.85774231 -0.94976974 0.031450 0 154 100
15.06908321 27.54070282 -1.09769177 0.023525 0 115 139
14.72212029 27.01922607 -0.96473885 0.065867 73 255 0
14.78357506 27.10880280 -0.98761868 0.009489 0 44 210
14.49859810 26.46547318 -0.83274269 0.052109 4 255 0
14.37787914 26.83487320 -0.90436387 0.026805 0 133 121
14.03638458 26.44056320 -0.80011487 0.041252 0 205 49
13.32101631 33.97071838 -0.70254135 0.083382 163 255 0
9.47816658 27.18546677 -0.87670302 0.036642 0 181 73
9.57784176 27.54000092 -0.95569396 nan 204 204 204
9.11170292 34.59637451 -0.82410645 0.042320 0 211 43
-0.82480621 32.04369736 -1.08170819 0.007892 0 38 216
-2.19531727 36.27040482 -0.80311441 0.046616 0 232 22
35.45494080 11.64204025 -0.60749602 0.000645 0 2 252
31.32376099 11.95622063 -0.84074330 0.062170 55 255 0
27.10300064 16.40672302 -0.80615687 0.015657 0 77 177
26.87271500 12.75156403 -0.71893406 0.028310 0 139 115
14.26277733 26.12048721 -0.74462867 0.043282 0 214 40
13.42501354 25.98574257 -0.66971970 0.011950 0 59 195
13.14996243 26.03976440 -0.66877389 0.032198 0 160 94
6.31366444 26.46287155 -0.84917903 0.030396 0 151 103
2.71734762 24.22664261 -0.73653126 0.014471 0 71 183
0.39908981 27.20500565 -0.97262836 0.014450 0 71 183
2.82585096 24.12067032 -0.70022869 0.025925 0 127 127
34.22364807 -0.81728458 -0.32320523 0.054487 16 255 0
29.84651566 3.83414555 -0.31564140 0.003128 0 14 240
29.22723389 2.69440508 -0.34214854 0.026699 0 130 124
29.27923203 2.87233925 -0.33165240 0.028565 0 142 112
29.20152664 3.41458845 -0.27144074 0.031927 0 157 97
29.08295441 2.67361403 -0.32624555 0.036003 0 178 76
29.09555435 3.37701511 -0.26155210 0.031790 0 157 97
26.31595230 4.39390087 -0.47746229 0.024343 0 121 133
25.44452667 5.42621422 -0.23370719 0.013275 0 65 189
25.44820786 8.54511833 0.01441073 0.021177 0 103 151
20.15770340 16.32603264 0.05346274 0.005318 0 23 231
2.10649538 21.38519287 -0.27404881 0.002970 0 14 240
31.71498108 -1.38957500 -0.15754604 0.020944 0 103 151
31.53651047 -1.49193668 -0.15217090 0.039690 0 196 58
27.44388199 3.05100155 -0.08681679 0.002009 0 8 246
27.46348953 3.15136290 -0.07940340 0.043447 0 217 37
26.96498871 1.94970608 -0.14179850 0.023130 0 112 142
26.26412964 3.21381092 0.07428718 0.028680 0 142 112
24.29232788 0.54391861 0.00127435 0.047583 0 238 16
23.83928680 0.36055851 0.02698970 0.055969 25 255 0
21.59494019 4.66536808 -0.21342945 0.025372 0 124 130
21.62161636 4.70359039 -0.21315408 0.003189 0 14 240
21.39310455 4.54794359 -0.19241595 0.010210 0 50 204
23.64096451 0.56680107 0.07472324 0.032642 0 163 91
23.22179413 2.54862547 0.36385751 0.005110 0 23 231
20.98559189 0.12614346 0.28631330 0.018171 0 88 166
19.33957481 2.86090422 0.36586404 0.004504 0 20 234
18.80311203 3.99489450 0.18080378 0.045535 0 226 28
17.58363533 5.81625366 0.32128310 0.030008 0 148 106
17.53252983 6.21530104 0.39800882 0.011107 0 53 201
17.59386635 6.26100206 0.39210677 0.010943 0 53 201
17.33962440 3.38331699 0.30591941 0.014854 0 74 180
17.36551476 6.15313959 0.42363000 0.023302 0 115 139
19.55083084 2.96492100 0.82069468 0.025208 0 124 130
19.36475945 2.51560736 0.77998519 0.029046 0 142 112
19.38443375 2.83087444 0.82029605 0.012518 0 62 192
17.71722794 5.77997923 0.65375352 0.013500 0 65 189
17.52587891 6.08127594 0.73272920 0.006611 0 32 222
17.54883575 6.30528450 0.76084590 0.032605 0 160 94
17.49792290 6.15852070 0.74911475 0.040941 0 202 52
17.54251480 6.08796501 1.08067691 0.002947 0 11 243
17.38445282 6.06998158 1.10182202 0.086409 177 255 0
19.34755325 2.75027704 1.27383721 0.025017 0 124 130
17.38022614 6.03414202 1.43886340 0.001119 0 2 252
62.60498810 25.32587051 -2.17732716 0.003952 0 17 237
57.80160141 27.55405807 -1.78230333 0.081723 154 255 0
57.80604172 12.24362946 -1.74040413 0.039219 0 196 58
44.64211273 21.66933441 -1.80356693 0.054344 16 255 0
34.69036484 24.14334106 -1.71999884 0.000059 0 0 255
24.80328369 28.23101425 -1.65987778 0.030191 0 148 106
20.54480743 32.56865692 -1.93664885 0.015051 0 74 180
13.37798786 34.01521683 -1.86796665 0.042904 0 214 40
62.73101807 25.32802773 -0.24373794 0.030510 0 151 103
23.96433258 26.91218948 -1.35436630 0.008339 0 41 213
20.72422791 30.65180969 -1.60416603 0.030555 0 151 103
45.98516846 3.53268433 -0.87862015 0.032025 0 157 97
32.76037216 12.50988674 -1.04638243 0.037273 0 184 70
24.73644257 23.58945465 -1.01537442 0.025736 0 127 127
24.52893066 24.13094330 -1.05125666 0.019923 0 97 157
24.25104523 30.21236038 -1.03240299 0.080098 145 255 0
17.98328400 25.83089066 -1.10722256 0.000387 0 0 255
16.87237167 33.57171249 -1.04532146 nan 204 204 204
14.82136440 30.86574173 -1.25608587 0.012025 0 59 195
14.69916153 31.18649292 -1.31687641 0.043968 0 220 34
13.30415344 31.08627319 -1.25765896 nan 204 204 204
36.49491119 12.82259083 -0.68234062 0.053057 10 255 0
35.42974472 11.68681526 -0.55941796 0.047425 0 235 19
31.61502838 12.10665989 -0.86129951 0.028989 0 142 112
31.49201584 11.92176914 -0.84348917 0.061043 49 255 0
31.54307175 12.15696526 -0.84866214 0.052270 7 255 0
27.12284470 16.38646698 -0.83403873 0.011093 0 53 201
27.16183853 16.73464394 -0.85658932 0.012474 0 62 192
26.89823914 12.72386456 -0.71876049 0.042665 0 211 43
26.79045486 16.81887436 -0.78884673 0.025614 0 127 127
24.13611984 16.44595909 -0.84052467 0.018538 0 91 163
17.41221237 25.33974075 -0.94071698 0.039314 0 196 58
17.18418694 24.35765839 -0.70987201 0.030247 0 148 106
16.92695236 24.74557495 -0.76250648 0.033370 0 166 88
15.82107735 25.01815987 -0.71110725 0.033728 0 166 88
14.63575172 28.42793655 -0.75619650 0.037913 0 187 67
14.61605740 28.66603088 -0.80322218 0.004505 0 20 234
14.39933395 28.59418488 -0.77985096 0.032694 0 163 91
14.22964859 29.20972443 -0.89802194 0.044312 0 220 34
13.88432503 29.12020493 -0.86800718 0.010175 0 50 204
10.03065109 27.06937218 -0.97031403 0.066893 79 255 0
8.63931084 26.82703781 -0.94407678 0.065547 73 255 0
-1.69611263 36.20017242 -1.24743414 0.007904 0 38 216
47.39386749 -9.23476124 -0.24507761 0.006538 0 32 222
26.28363800 4.43839741 -0.38987112 0.026173 0 130 124
16.53764725 24.19349670 -0.60370040 0.049404 0 247 7
15.70227242 25.00743103 -0.69800138 0.058324 37 255 0
15.25627136 25.15629959 -0.69321275 0.030043 0 148 106
14.20923615 28.08527756 -0.66929936 0.011152 0 53 201
14.31955814 28.13516998 -0.68383813 0.013525 0 65 189
14.08428764 28.19069290 -0.68576241 0.044487 0 220 34
13.24357414 27.58438110 -0.53365564 0.019270 0 94 160
10.79085732 28.24008179 -0.64033222 0.035630 0 178 76
9.76079750 27.22889328 -0.43795586 0.009190 0 44 210
9.65300941 27.26019096 -0.44668674 0.019642 0 97 157
2.65902376 24.04618454 -0.83924150 0.040268 0 199 55
1.10783672 25.11729240 -0.73489070 nan 204 204 204
30.08076859 3.60035944 -0.23855686 0.012501 0 62 192
29.08818436 2.66781425 -0.19397426 0.015800 0 77 177
29.13019943 2.73268509 -0.19355941 0.047205 0 235 19
29.14319611 3.38680267 -0.14295769 0.006924 0 32 222
29.05057907 3.50558090 -0.12277961 0.040167 0 199 55
27.47806168 2.99661541 0.02024984 0.041714 0 208 46
27.50642395 3.10422611 0.02604294 0.036188 0 178 76
26.56342697 5.43918562 -0.34519172 0.018595 0 91 163
22.50114822 5.15505695 -0.29625750 0.016262 0 80 174
21.59706116 4.67989826 -0.19537568 0.030609 0 151 103
20.69790649 7.52575350 -0.16368437 0.013794 0 68 186
20.17792130 16.32265282 0.04709959 0.009583 0 47 207
2.26396656 21.43513298 -0.35194921 0.007442 0 35 219
26.66061020 1.67655087 -0.00659609 0.058094 34 255 0
26.23678589 1.11680984 -0.01542807 0.005028 0 23 231
26.21187592 1.61186123 0.03623199 0.011179 0 53 201
23.77678680 0.21033192 0.13922954 0.028793 0 142 112
23.57052231 0.53024578 0.19588709 0.016531 0 80 174
23.61481094 0.65566826 0.20577002 0.081569 154 255 0
18.86788177 3.82530355 0.12757850 0.000528 0 0 255
27.21889877 -0.95268059 0.44953823 0.046439 0 232 22
23.28431511 2.57289219 0.44644451 0.015207 0 74 180
19.31247520 2.84018993 0.38859510 0.014374 0 71 183
19.42230988 2.98232841 0.39573288 0.000571 0 0 255
17.62891006 6.26433468 0.32334042 0.003239 0 14 240
17.38118935 6.08855295 0.34334016 0.088671 189 255 0
17.52627563 6.17979145 0.32995749 0.029562 0 145 109
19.44993019 2.83274651 0.85859179 0.020255 0 100 154
17.63012886 6.34422445 0.70593762 0.042585 0 211 43
17.52904129 6.03663778 0.67916822 0.002573 0 11 243
17.54904938 6.21206379 0.70094037 0.010881 0 53 201
17.60354233 6.11837149 1.04682148 0.001204 0 5 249
17.51331902 6.07310772 1.05340362 0.005932 0 26 228
17.38554382 6.05703354 1.42682660 0.025698 0 127 127
62.62082672 25.42968750 -2.09535718 0.031914 0 157 97
53.57835388 28.30309296 -1.50525498 0.011269 0 53 201
44.63129425 21.75137520 -1.74910903 0.000402 0 0 255
44.01161957 24.50154686 -1.84445882 0.001884 0 8 246
30.74329758 31.79041100 -2.22390437 0.029449 0 145 109
30.56476593 31.89459991 -2.21974635 0.041478 0 205 49
62.68527222 25.48123360 -0.16458011 0.015106 0 74 180
33.95471573 12.64829731 -1.02057576 0.012799 0 62 192
34.20962906 12.85172749 -1.06398177 0.013555 0 65 189
34.20726395 13.38800907 -1.07400060 0.010596 0 50 204
24.05212402 27.24925613 -1.61259675 0.003711 0 17 237
33.55186844 12.56231594 -0.95605612 0.036253 0 181 73
33.28302002 11.97438622 -0.90638733 0.031120 0 154 100
33.53994370 12.47721004 -0.95292544 0.026711 0 133 121
32.98634338 11.36367989 -0.85503554 0.011968 0 59 195
32.70643616 11.21550655 -0.81050348 0.024778 0 121 133
32.55680466 12.15512657 -0.79449582 0.062664 58 255 0
32.18065262 11.12706184 -0.72789240 0.044620 0 223 31
31.78065109 10.83877277 -0.66482472 0.037338 0 184 70
26.37581635 30.02718735 -1.50707555 0.021379 0 106 148
25.94493103 30.12968254 -1.48038697 0.064465 67 255 0
25.52141953 28.60381317 -1.20450139 0.021109 0 103 151
25.44982529 29.79632950 -1.38039136 0.012527 0 62 192
24.92703819 29.95541000 -1.35560679 nan 204 204 204
24.64860153 24.18219757 -1.18702531 0.012960 0 62 192
24.33691788 30.14605522 -1.33183742 0.019410 0 94 160
24.38892746 30.32969093 -1.36629844 0.038567 0 190 64
22.92716217 28.06185532 -1.62341714 0.040550 0 202 52
20.26581955 29.37567329 -1.60676074 0.036740 0 181 73
31.63379288 -0.98686218 -0.23890781 0.056299 25 255 0
31.33098602 -1.38135147 -0.23589683 0.023434 0 115 139
31.48907089 -1.15611362 -0.23601222 0.036236 0 181 73
30.72423553 7.56260538 -0.54735875 0.006828 0 32 222
29.40559387 7.72251797 -0.34267473 0.024364 0 121 133
27.61330032 3.19593716 -0.31542039 0.039114 0 193 61
27.45289230 2.95747280 -0.31120443 0.003416 0 14 240
27.46660614 3.11274529 -0.30157042 0.023504 0 115 139
27.13829422 16.44612122 -0.75679612 0.007833 0 38 216
19.14294815 28.16847992 -1.25499940 0.043392 0 217 37
18.89333344 27.26060677 -1.04369402 0.054609 19 255 0
18.79400635 28.15497208 -1.22203469 0.019933 0 97 157
18.77588463 28.67963219 -1.33185172 0.044172 0 220 34
17.33876038 25.17801285 -1.02888727 0.012589 0 62 192
16.53289604 25.54799652 -1.03632665 0.025374 0 124 130
16.19531631 32.44501495 -1.24771619 0.059002 40 255 0
16.11441994 33.11056519 -1.37786937 0.043705 0 217 37
9.79239941 30.26819229 -1.43977857 0.016054 0 80 174
9.18831348 34.64312744 -1.72875667 0.018329 0 88 166
31.44757462 4.01910305 0.05263591 0.004551 0 20 234
27.34054947 3.09695339 -0.28568578 0.051658 4 255 0
26.17784119 2.93307781 -0.14303994 0.042882 0 214 40
26.28115463 3.18450451 -0.13692665 0.023247 0 115 139
25.51286697 8.23185921 -0.35272098 0.003870 0 17 237
17.48363876 26.23215485 -0.70475674 0.037613 0 187 67
17.25532913 24.37722015 -0.82930636 0.008032 0 38 216
16.38733864 23.99549866 -0.64195871 0.002116 0 8 246
15.73525524 24.36558533 -0.66693640 nan 204 204 204
15.67680264 24.84573555 -0.78167152 0.086167 177 255 0
15.58930969 25.02228546 -0.81849670 0.043465 0 217 37
15.57404423 30.15728760 -0.77629757 0.027493 0 136 118
15.36922836 24.88285065 -0.76433587 0.027422 0 136 118
15.19879055 25.24190712 -0.84205365 0.033785 0 166 88
14.92310143 25.19395065 -0.80848670 0.021262 0 103 151
14.47183990 27.55364227 -0.81016922 0.002432 0 11 243
14.23676682 28.42275429 -1.00463414 0.045875 0 229 25
14.18400764 27.32312393 -0.74494171 0.026351 0 130 124
14.20608616 28.07142830 -0.92102599 0.022143 0 109 145
14.08023453 28.52007294 -1.02237368 0.002185 0 8 246
14.06193638 28.74875069 -1.07598948 0.056252 25 255 0
13.94422817 29.10939980 -1.15771461 0.056602 28 255 0
13.69022751 28.95899773 -1.11519027 0.021252 0 103 151
13.65424156 29.11392403 -1.15123725 0.084047 166 255 0
13.34213829 28.92189789 -1.09827614 0.073298 112 255 0
13.22441673 29.04550552 -1.12550092 0.071138 100 255 0
12.91749191 29.41300583 -1.20866847 0.010252 0 50 204
10.95228195 29.50810051 -1.22946095 0.033369 0 166 88
9.87619114 28.48389435 -0.99759912 0.107584 255 224 0
5.20612717 35.22012329 -1.22218251 0.007682 0 35 219
23.25703049 2.36719418 0.17644572 0.013828 0 68 186
17.14316940 25.89083672 -0.60399389 0.023900 0 118 136
16.12863159 23.27278519 -0.44043517 0.040888 0 202 52
14.47210121 26.86556435 -0.65045619 0.078735 139 255 0
14.45720291 27.12105942 -0.70900178 0.066017 76 255 0
14.09874439 27.19015884 -0.71063852 0.008793 0 41 213
13.23075676 27.54499435 -0.76723194 0.040411 0 202 52
12.86067677 30.40381050 -0.77954412 0.010731 0 53 201
9.16697598 34.64539337 -0.93147707 0.008202 0 38 216
-1.95762062 36.15058136 -1.05982137 0.011955 0 59 195
20.18344116 16.37713242 0.10315990 0.040136 0 199 55
17.53859711 5.88853502 0.42119908 0.012930 0 62 192
17.41297340 6.12802601 0.47848439 0.000637 0 2 252
17.48484039 6.32122231 0.49396920 0.042315 0 211 43
17.56687546 6.10834980 0.84056473 0.011808 0 56 198
17.56888390 6.29562616 0.86319971 0.039072 0 193 61
17.21355057 6.10000515 0.50876451 nan 204 204 204
17.40999222 6.24332762 0.49590468 0.025394 0 124 130
2.88902903 20.58756828 -0.16927433 0.009870 0 47 207
17.57464218 6.12513304 1.22799516 0.059371 43 255 0
17.30547905 6.10060263 1.25687420 nan 204 204 204
63.40914917 25.66350555 5.66113138 0.037212 0 184 70
62.46633911 25.44562340 -2.99290752 0.065346 73 255 0
51.91908646 32.56549454 -2.41309500 0.057203 31 255 0
62.69277954 25.53809357 -1.08448887 0.016415 0 80 174
28.68731880 30.34497070 -2.10701466 0.000719 0 2 252
28.41498566 30.37544632 -2.08128834 0.032892 0 163 91
36.85696411 12.06511021 -0.92016029 0.027046 0 133 121
26.32408142 29.83092880 -1.73903799 0.040276 0 199 55
24.51896286 30.18938446 -1.58557510 0.017725 0 85 169
24.39506912 30.28247070 -1.58710241 0.026993 0 133 121
36.33194733 12.75820351 -0.85909176 0.024996 0 124 130
36.32007599 12.89657497 -0.85995483 0.018383 0 88 166
35.91693497 12.30357170 -0.79489255 0.019234 0 94 160
36.10302353 12.67173576 -0.82623243 0.018597 0 91 163
35.65343475 10.38267326 -0.74142647 0.049532 0 247 7
35.32001877 11.75735092 -0.70612836 0.003422 0 14 240
31.68172455 12.90548992 -1.03571320 0.021726 0 106 148
27.06249619 16.39977646 -1.01655436 0.016006 0 77 177
26.94230461 16.69824982 -1.00958610 0.063950 64 255 0
24.40739822 30.18576813 -1.57249784 0.044458 0 220 34
24.11242485 30.21346283 -1.54437494 0.053948 13 255 0
18.73622513 28.61192894 -1.38391304 0.027687 0 136 118
17.41224289 33.39856720 -1.57466507 0.012783 0 62 192
16.09884071 33.05770111 -1.43935919 0.001738 0 5 249
9.21021175 34.58474731 -1.67700481 0.000034 0 0 255
29.88189316 4.03278255 -0.10885859 0.002888 0 11 243
29.22468567 2.77064991 -0.09035063 0.087365 183 255 0
24.83585548 24.44700432 -0.76062918 0.046726 0 232 22
18.99883652 27.05388451 -1.08121324 0.008509 0 41 213
18.75858688 27.26369286 -1.09759331 0.025780 0 127 127
18.14258766 27.39225769 -1.05733871 0.031033 0 154 100
17.42248726 25.17708969 -1.03553009 0.069233 91 255 0
17.22360229 24.31375504 -0.80228782 0.039046 0 193 61
16.74573517 24.73063087 -0.83670568 0.010481 0 50 204
16.50878525 25.53958130 -1.00653648 0.008938 0 44 210
16.16551971 32.43447113 -1.31434059 0.030518 0 151 103
16.12858963 32.94074249 -1.41662979 0.027676 0 136 118
16.01665306 32.23930359 -1.26722908 0.047440 0 235 19
14.67827797 28.35467148 -0.98351789 0.046658 0 232 22
14.20062828 28.38137054 -0.96212244 0.070913 100 255 0
14.14961815 28.56719017 -1.00428534 0.017135 0 83 171
14.14454842 29.07338333 -1.12675738 0.005196 0 23 231
14.05311584 28.54022408 -0.99263668 0.048130 0 241 13
13.90842438 29.09119797 -1.11943483 0.062407 58 255 0
13.49214745 29.09860229 -1.10233378 0.038141 0 190 64
13.47970581 29.29648209 -1.15037823 nan 204 204 204
13.24438381 28.99077797 -1.06557202 0.037729 0 187 67
12.97935295 29.45586205 -1.17070770 0.031191 0 154 100
12.76869106 29.48642349 -1.17128897 0.007103 0 32 222
11.17810345 29.52652740 -1.14864874 0.045882 0 229 25
27.64152718 3.03267956 0.10924506 0.059907 43 255 0
26.98397255 1.33551979 0.07933378 0.085184 171 255 0
27.17722702 2.01380825 0.10187578 0.088285 186 255 0
26.17281532 1.27503395 0.16290331 0.029451 0 145 109
25.42198944 0.61794376 0.19377995 0.057140 31 255 0
25.54914284 0.65703392 0.18365598 0.010710 0 53 201
24.99346352 0.73068523 0.24615717 0.020698 0 100 154
24.37050438 12.03740692 -0.32526994 0.007650 0 35 219
23.25719833 2.50847912 -0.08719587 0.031439 0 154 100
21.39461136 4.60535336 -0.19545245 0.013953 0 68 186
17.51268387 26.21088791 -0.73552227 0.032206 0 160 94
17.18716621 25.86909676 -0.62699389 0.030382 0 151 103
16.32971001 23.94599915 -0.59094477 0.004625 0 20 234
15.75400352 25.03402328 -0.78965330 0.026695 0 130 124
15.40648079 24.89119720 -0.71388507 0.009228 0 44 210
15.15439415 25.24247360 -0.77776265 0.011303 0 56 198
14.62956619 27.50632668 -0.77815866 0.047710 0 238 16
14.13557053 27.16323471 -0.66527033 0.046444 0 232 22
14.32319069 27.38770294 -0.73056006 0.011262 0 53 201
13.97307205 27.22521973 -0.67058158 0.044162 0 220 34
13.39921761 27.40073776 -0.68260527 0.009281 0 44 210
13.37879086 34.02759171 -0.80188918 0.042622 0 211 43
13.21525288 27.56647873 -0.71448469 0.038445 0 190 64
12.93710899 30.36420059 -0.76515388 0.025447 0 124 130
9.76559925 26.37376976 -0.82346201 0.007883 0 38 216
8.63846684 26.87613297 -0.99087167 0.040657 0 202 52
5.68531990 26.16691208 -0.96499801 0.018879 0 91 163
2.64599228 24.09265327 -0.79077196 0.014872 0 74 180
1.36823463 34.25164413 -1.24396563 0.003143 0 14 240
1.22893190 26.41362000 -1.04647994 0.025689 0 127 127
-0.87273788 32.09747314 -1.07685566 0.046463 0 232 22
20.25512314 16.47262383 -0.05313683 0.043191 0 214 40
20.14517784 16.40541649 -0.02111459 0.008167 0 38 216
17.57585716 6.09561920 0.17001605 0.086836 180 255 0
17.58356094 6.29875898 0.19960403 0.021444 0 106 148
17.45457840 6.03376245 0.18182850 0.060504 46 255 0
17.53183746 6.21350622 0.19595957 0.042558 0 211 43
16.08671570 23.25349808 -0.39125013 0.019161 0 94 160
9.71297646 27.22761345 -0.56517601 0.008307 0 38 216
9.57310772 27.29358864 -0.58353376 0.035231 0 175 79
0.38021564 27.26421738 -0.76144719 0.032909 0 163 91
-0.66872215 31.26406097 -0.92171717 nan 204 204 204
-1.97152424 36.17597580 -0.95105791 0.017549 0 85 169
17.84579849 6.33014822 0.57747674 nan 204 204 204
5.23389912 35.23386383 -0.38938928 0.008452 0 41 213
2.10945225 21.38743019 -0.23939753 0.017904 0 88 166
17.56216431 6.04986382 0.99913359 0.001172 0 2 252
17.66764832 6.22227812 1.00408959 0.053114 10 255 0
17.52181244 6.19176197 1.01914608 0.017036 0 83 171
3.44790173 20.39550400 0.25056148 0.004794 0 23 231
63.36212921 25.71483612 4.70433187 0.044151 0 220 34
62.51879501 25.34679604 -2.67441106 0.026436 0 130 124
23.25752640 30.67049408 -1.75786281 0.004639 0 20 234
19.77339363 32.94798279 -1.58950257 0.002684 0 11 243
26.53460312 30.07658768 -1.42475390 0.000488 0 0 255
24.62017059 27.39860725 -1.61185908 0.047486 0 238 16
24.60921097 27.70575714 -1.64218736 0.020588 0 100 154
13.34489059 34.02114868 -1.21493125 0.007244 0 35 219
9.14235973 34.61365891 -1.24936986 0.008953 0 44 210
5.16814947 35.20135117 -1.50515866 0.007113 0 32 222
24.35766220 30.17490005 -1.09070706 0.044875 0 223 31
24.34162521 30.41414642 -1.11249924 0.033278 0 166 88
22.67278290 28.06617355 -1.31873536 0.027092 0 133 121
-0.32053852 34.00766754 -1.01860118 0.011671 0 56 198
62.64457703 25.44590378 -0.75557590 0.023571 0 115 139
26.78965759 23.53470612 -1.03842354 0.010522 0 50 204
13.36036873 34.04822159 -0.50490332 0.025074 0 124 130
10.11129189 34.62505722 -0.52990603 nan 204 204 204
0.50816822 30.34098816 -1.04180741 0.040469 0 202 52
0.50868130 35.85800171 -0.39352775 0.004045 0 17 237
49.92728043 5.81577873 -0.96274471 0.027315 0 136 118
33.93661499 12.61875153 -1.01224351 0.006956 0 32 222
33.26309586 11.95802689 -0.96248651 0.023106 0 112 142
32.59919739 12.20037460 -0.84691405 0.050800 0 253 1
32.56203079 12.12098503 -0.84747028 0.072807 109 255 0
31.85533524 11.17862988 -0.83750105 0.028236 0 139 115
1.33160353 27.03277016 -0.36445618 0.004161 0 20 234
30.89283371 6.12543297 -0.37759066 0.065238 70 255 0
30.48854828 5.71839237 -0.37965608 0.030618 0 151 103
26.02706146 8.31672859 -0.29507899 0.013790 0 68 186
25.42123413 8.47762394 -0.19284678 0.034185 0 169 85
21.26074409 10.60505486 -0.32066846 0.014748 0 71 183
20.15909195 16.33772659 -0.00386977 0.000532 0 0 255
20.11607170 16.41099930 0.00880194 0.006289 0 29 225
18.06721115 9.23347473 -0.30386615 0.023799 0 118 136
26.80905151 3.76027870 -0.24594474 0.062264 55 255 0
26.26773834 3.19946671 -0.26731563 0.024483 0 121 133
22.44783020 5.13485050 -0.26450825 0.035680 0 178 76
21.63705826 4.67735100 -0.24235177 0.005373 0 26 228
48.11740494 -5.67523670 -0.31917810 0.068783 88 255 0
31.43801498 3.45655823 0.16388083 0.062024 55 255 0
26.44881821 1.14948845 0.23279738 0.034196 0 169 85
26.11235046 1.13658333 0.25086117 0.084676 169 255 0
53.97830963 -10.06554508 0.90220594 0.048218 0 241 13
46.50423050 26.90592194 -2.15308714 0.086111 177 255 0
46.40643311 27.09058380 -2.15063190 0.082823 160 255 0
46.29230118 27.33063889 -2.14899874 0.098022 237 255 0
46.22790146 28.66402054 -2.20324564 0.080989 151 255 0
46.11450195 31.36009598 -2.33005285 0.085079 171 255 0
62.61616135 25.45369530 -1.91716433 0.020683 0 100 154
57.78396606 27.75358200 -1.61808467 0.033566 0 166 88
44.58361053 21.83330536 -1.76580143 0.052286 7 255 0
43.97670746 24.45015907 -1.78545141 0.067640 82 255 0
43.23431396 15.85090256 -1.50731277 0.072580 109 255 0
43.31030273 16.08526611 -1.51772141 0.084038 166 255 0
41.62099075 30.06134605 -1.80319214 nan 204 204 204
33.32608032 27.11245918 -1.75985050 0.011192 0 53 201
27.14868546 25.84458923 -1.61129475 0.067211 82 255 0
26.12096786 29.53705406 -1.88855362 0.001115 0 2 252
26.12580109 30.04418564 -1.95561504 0.038069 0 190 64
26.01656723 29.64599991 -1.88822651 0.039191 0 196 58
25.69842911 30.08944702 -1.90338945 nan 204 204 204
25.74678802 30.33715057 -1.94331741 nan 204 204 204
24.50376129 30.29103851 -1.77270079 0.050663 0 253 1
24.40815926 30.35457230 -1.76928091 0.081846 154 255 0
23.78185272 30.77526474 -1.75041199 0.053850 13 255 0
23.35968971 30.76174164 -1.69637728 0.093839 216 255 0
23.48900604 31.11222839 -1.76415348 0.028953 0 142 112
28.11920166 17.77684593 -1.23403978 0.054603 19 255 0
28.08217621 17.84031296 -1.22918582 0.074603 118 255 0
24.49124908 27.78037834 -1.43457651 0.001804 0 8 246
24.46980286 28.84230614 -1.56977201 0.000660 0 2 252
24.51452637 28.97428894 -1.59347010 0.072201 106 255 0
23.92552376 27.04262161 -1.26125503 0.115381 255 185 0
22.73404121 28.13455582 -1.24079943 0.003716 0 17 237
19.78712845 32.93599701 -1.65161061 0.009016 0 44 210
19.12356949 28.33000183 -1.42424393 0.090259 198 255 0
17.39947128 33.38794327 -1.53804803 0.015320 0 74 180
45.58760071 29.45452881 -0.79456449 0.040462 0 202 52
37.62377930 15.06341934 -0.87850046 0.033293 0 166 88
36.88094711 12.07168102 -0.80150700 0.057109 31 255 0
36.32680130 12.91054726 -0.73476648 0.024679 0 121 133
35.31780243 11.70946407 -0.63298321 0.038874 0 193 61
26.63710403 15.34368706 -0.92283416 0.007397 0 35 219
26.83127594 16.45172310 -0.96963120 0.050545 0 253 1
24.48911667 30.36607361 -1.01046968 0.088658 189 255 0
18.68118286 23.91495895 -1.06525922 0.020765 0 100 154
18.12786293 27.43390656 -1.11739945 0.019907 0 97 157
17.55215073 24.23482895 -0.91685438 0.040209 0 199 55
17.53467560 24.52240753 -0.97084808 0.024199 0 118 136
17.23195839 24.39147377 -0.89211655 0.036785 0 181 73
16.89223671 24.77107620 -0.91317606 0.032618 0 160 94
16.85737038 24.85712051 -0.92557025 0.014655 0 71 183
14.20592594 28.65609360 -0.96604276 0.026468 0 130 124
14.18872738 29.10130310 -1.06372666 0.049723 0 247 7
13.84575844 29.01463699 -1.02112031 0.008978 0 44 210
13.57557678 29.18305969 -1.04175782 0.077942 136 255 0
12.86321259 30.28262520 -1.25470829 0.011065 0 53 201
10.96808720 29.59781265 -1.03029251 0.008842 0 41 213
9.57836723 27.59984207 -0.98683786 0.009782 0 47 207
1.43807459 34.35833740 -1.10911894 0.032132 0 160 94
31.52062225 3.73352528 -0.47909093 0.057831 34 255 0
31.29732513 3.60576725 -0.46392941 0.000254 0 0 255
29.87150574 3.94470406 -0.30933261 0.049355 0 247 7
29.18311691 2.85499763 -0.30515623 0.033478 0 166 88
29.08432770 3.54420280 -0.25653863 0.023029 0 112 142
29.08694458 2.66625977 -0.30736589 0.026962 0 133 121
29.06040955 3.45816040 -0.25913167 0.012802 0 62 192
26.17789841 10.81365013 -0.29137826 0.077049 130 255 0
25.51047516 8.53044319 -0.30297041 0.037340 0 184 70
24.16823769 5.61169720 -0.32908058 0.045792 0 229 25
17.85577011 25.98721886 -0.81911922 0.037375 0 184 70
17.57442093 26.28607559 -0.83591986 0.030083 0 148 106
17.47016907 33.54223251 -0.85628152 0.081768 154 255 0
17.16126060 25.84573746 -0.69851875 0.001170 0 2 252
16.13263130 23.33909988 -0.49039698 0.068302 88 255 0
16.35559654 24.00659561 -0.66519141 0.032944 0 163 91
15.64078808 24.33039093 -0.62104273 0.044663 0 223 31
15.41010857 24.64221001 -0.65079522 0.040678 0 202 52
15.39789772 24.96467972 -0.72193861 0.015760 0 77 177
15.20167255 25.24444580 -0.75923252 0.007563 0 35 219
15.08479786 25.28488541 -0.75310564 0.035303 0 175 79
14.03553581 27.24805832 -0.64265728 0.027570 0 136 118
14.21193886 27.35601807 -0.68044806 0.028469 0 139 115
14.11988640 27.96809769 -0.80747747 0.031651 0 157 97
14.08418751 28.06513214 -0.82620168 0.051375 1 255 0
14.09967232 28.48126602 -0.91949487 0.036453 0 181 73
13.91716576 27.19726563 -0.62222552 0.025438 0 124 130
13.49067116 27.43738556 -0.64392686 0.003878 0 17 237
13.35808945 34.05077362 -0.77223420 0.008094 0 38 216
13.20337105 27.55377579 -0.65082550 0.007015 0 32 222
11.19871807 34.40967941 -0.79680800 nan 204 204 204
9.85282803 27.16558456 -0.86933422 0.000134 0 0 255
9.15620995 34.66822052 -0.84204745 0.007360 0 35 219
-0.59976482 32.66214752 -1.01694584 0.013739 0 68 186
-0.83810234 32.12657928 -0.96114755 0.053918 13 255 0
-2.03415775 36.23863220 -0.83195949 0.001289 0 5 249
-2.23728752 36.15674591 -0.83671570 0.045939 0 229 25
-2.25144386 36.29742432 -0.85387540 0.101898 255 254 0
27.49388123 3.13824463 -0.13392735 0.018057 0 88 166
27.35365677 3.14370251 -0.12094593 0.062308 55 255 0
26.84420395 2.09013557 -0.14373803 0.013117 0 65 189
20.20363045 16.38756180 -0.17160630 0.013488 0 65 189
20.08497238 16.44928551 -0.14712334 0.081553 154 255 0
19.40720749 16.47086334 0.00019217 0.039272 0 196 58
19.02046967 15.67559433 -0.27393651 0.051340 1 255 0
18.89618111 15.70795345 -0.24245596 0.045612 0 226 28
18.81511116 15.75807476 -0.22225356 0.076228 127 255 0
9.68120766 27.23011398 -0.45288205 0.004875 0 23 231
2.09846401 21.45207977 -0.22266436 0.004324 0 20 234
20.13920021 16.26027489 0.25345182 0.012756 0 62 192
19.17295837 16.64989090 0.04619217 0.065073 70 255 0
3.45694113 20.45959091 0.25078702 0.009793 0 47 207
63.03415680 25.66113663 3.81952643 0.033325 0 166 88
51.67509079 32.42929840 -2.45160604 0.013092 0 65 189
51.57190323 32.56025696 -2.44508100 0.042044 0 208 46
49.60492706 28.82692909 -2.11965919 0.050789 0 253 1
30.61909866 31.69713211 -2.25607419 0.063393 61 255 0
30.39231491 31.83587837 -2.23665166 0.059489 43 255 0
62.68496704 25.39479828 -1.53515649 0.018089 0 88 166
23.59473801 30.97365952 -1.94940114 0.052114 4 255 0
20.26343346 32.95400238 -1.82257295 0.019936 0 97 157
41.58200836 30.04160309 -1.35191512 0.027554 0 136 118
34.81436920 21.05150795 -1.35632920 0.014444 0 71 183
25.44050598 29.81774902 -1.32145810 0.000320 0 0 255
24.21715164 27.44796181 -1.57648253 0.087267 183 255 0
23.92647934 27.05988312 -1.47915745 0.034300 0 169 85
22.65390587 28.01782227 -1.38216329 0.002018 0 8 246
19.47778702 28.83578491 -1.60919213 0.041218 0 205 49
19.15777588 28.14714813 -1.42709041 0.017256 0 85 169
18.74317932 28.64996147 -1.45676780 0.017262 0 85 169
16.13151550 33.10458755 -1.44064784 0.029587 0 145 109
13.16340637 32.40505219 -1.70616698 0.048581 0 241 13
13.02261162 32.53477478 -1.73066592 0.054688 19 255 0
13.34676552 34.03398132 -1.46300817 0.043627 0 217 37
12.83530045 32.60237122 -1.73790002 0.026724 0 133 121
26.53927994 23.66905785 -0.96843767 0.019642 0 97 157
25.52798080 28.53015137 -1.19976377 0.037827 0 187 67
24.72161674 22.96447372 -1.23714256 0.007499 0 35 219
24.35758591 30.32615280 -1.23124766 0.026153 0 130 124
24.14034462 30.42072296 -1.21360755 0.034580 0 172 82
24.08985138 30.47092628 -1.21290135 0.026106 0 127 127
21.26201630 32.90330505 -1.20011497 0.007950 0 38 216
18.86934853 27.23822403 -1.21074867 0.061005 49 255 0
18.85424042 28.00423431 -1.35054994 0.002541 0 11 243
18.20280838 27.45257187 -1.14045024 0.025150 0 124 130
18.10861588 27.41854858 -1.11883163 0.023993 0 118 136
17.44330788 33.43337250 -0.93863964 0.022923 0 112 142
16.20328140 32.44823456 -1.31597590 0.044704 0 223 31
16.08172607 32.32762527 -1.28209305 0.005438 0 26 228
13.16545010 30.33417511 -1.19787169 0.047850 0 238 16
12.92907906 30.31817627 -1.17905426 0.063959 64 255 0
9.69821358 30.55692482 -1.13901401 0.014120 0 68 186
5.19929934 35.20829773 -1.11343932 0.008361 0 41 213
35.50471497 11.63384628 -0.62478280 0.017117 0 83 171
26.91830063 16.85466576 -0.85369349 0.063099 61 255 0
17.87967682 26.12795258 -0.84013987 0.002645 0 11 243
17.15063477 25.85195541 -0.66689205 0.015786 0 77 177
16.42220688 26.44128036 -0.66629887 0.011812 0 56 198
14.73345566 28.42740631 -0.87889695 0.065763 73 255 0
14.37339973 27.51649475 -0.63353944 0.060501 46 255 0
14.23982239 28.06549835 -0.74553943 0.007343 0 35 219
14.32494831 28.99066162 -0.96856713 0.007607 0 35 219
14.12523842 28.07321548 -0.73607945 0.014256 0 71 183
14.15176582 28.61534882 -0.86466694 0.038305 0 190 64
13.99449062 29.05781364 -0.95435834 0.015856 0 77 177
13.68169594 29.12711143 -0.94436812 0.012531 0 62 192
13.34244537 34.03243256 -0.81656027 0.013298 0 65 189
9.85531807 34.63573456 -0.87373614 nan 204 204 204
9.17089558 34.66404724 -0.88441014 0.029133 0 145 109
1.33003378 26.96218300 -1.01359558 0.016412 0 80 174
-1.86982632 36.23757172 -1.07393289 0.018028 0 88 166
30.94001770 6.17180729 -0.42652702 0.049528 0 247 7
30.47015381 5.85144901 -0.40243793 0.085371 171 255 0
25.84807205 8.32240868 -0.46800256 0.038876 0 193 61
26.03905869 10.81435776 -0.31105947 0.026173 0 130 124
19.86501312 15.96856308 -0.40116978 0.028623 0 142 112
20.03223038 16.30300713 -0.43424582 0.045824 0 229 25
19.47098541 15.63195133 -0.31404519 0.037711 0 187 67
19.48127747 16.32658768 -0.29430962 0.025728 0 127 127
17.40591812 25.15702057 -0.58407545 0.053495 13 255 0
14.28291035 27.42951202 -0.60417175 0.018654 0 91 163
14.02643394 27.28085709 -0.54361153 0.060320 46 255 0
13.23901558 27.59229279 -0.54276633 0.003992 0 17 237
13.21086121 27.63671684 -0.55094790 0.043743 0 217 37
10.79964161 28.33688354 -0.58843827 0.105753 255 233 0
9.90196609 27.24441528 -0.29376030 0.021544 0 106 148
5.24214745 35.30770493 -0.45082378 0.003078 0 14 240
1.10787821 25.22247887 -0.71700001 nan 204 204 204
1.30506897 27.06743240 -0.56450725 0.016318 0 80 174
54.07806015 -9.97846031 -0.03799391 0.018494 0 91 163
29.03774261 6.35936928 -0.23183489 0.044029 0 220 34
26.78557968 3.85187149 -0.21757650 0.094790 219 255 0
26.22825241 3.22416878 -0.22418070 0.037615 0 187 67
