//X;Y;Z;Intensity;Return Number;Number Of Returns;Scan Direction Flag;Point Source ID;C2M signed distances[-][<0.8];C2M signed distances[<0.4];C2M signed distances[-][<0.2];Stump38;Rf;Gf;Bf
300
445651.99270065;5696573.82819946;470.52734997;38550.000000;1.000000;1.000000;1.000000;1.000000;-0.147087;0.147087;-0.147087;1.000000;0.623529;0.584314;0.52549
445651.94790085;5696573.74149902;470.51035001;52685.000000;1.000000;1.000000;1.000000;1.000000;-0.135251;0.135251;-0.135251;1.000000;0.823529;0.803922;0.768627
445651.66610153;5696573.58229931;470.41415002;52685.000000;1.000000;1.000000;1.000000;1.000000;-0.164227;0.164227;-0.164227;1.000000;0.819608;0.803922;0.784314
445651.63200195;5696573.69129951;470.51644995;52428.000000;1.000000;1.000000;1.000000;1.000000;-0.130127;0.130127;-0.130127;1.000000;0.811765;0.803922;0.776471
445651.42329987;5696573.98169907;470.51044991;44975.000000;1.000000;1.000000;1.000000;1.000000;0.046425;-0.046425;0.046425;1.000000;0.701961;0.690196;0.654902
445651.50020035;5696573.94599922;470.54614999;36751.000000;1.000000;1.000000;1.000000;1.000000;0.116011;-0.116011;0.116011;1.000000;0.580392;0.560784;0.521569
445651.58940323;5696573.85039909;470.60025002;28784.000000;1.000000;1.000000;1.000000;1.000000;0.020399;-0.020399;0.020399;1.000000;0.443137;0.443137;0.427451
445651.61230286;5696573.95309933;470.61644985;23901.000000;1.000000;1.000000;1.000000;1.000000;0.123099;-0.123099;0.123099;1.000000;0.372549;0.364706;0.34902
445651.76450165;5696574.10939892;470.62524988;25957.000000;1.000000;1.000000;1.000000;1.000000;0.081123;-0.081123;0.081123;1.000000;0.376471;0.407843;0.407843
445651.59370239;5696573.69069870;470.48204996;51657.000000;1.000000;1.000000;1.000000;1.000000;-0.091827;0.091827;-0.091827;1.000000;0.8;0.792157;0.764706
445651.80300339;5696574.07299908;470.62885000;41377.000000;1.000000;1.000000;1.000000;1.000000;0.042622;-0.042622;0.042622;1.000000;0.623529;0.639216;0.635294
445651.61840256;5696573.75219925;470.58404996;52942.000000;1.000000;1.000000;1.000000;1.000000;-0.077801;0.077801;-0.077801;1.000000;0.815686;0.811765;0.776471
445651.43470200;5696573.98059948;470.51565005;37008.000000;1.000000;1.000000;1.000000;1.000000;0.057827;-0.057827;0.057827;1.000000;0.580392;0.564706;0.52549
445651.68029984;5696573.90929897;470.62605001;39835.000000;1.000000;1.000000;1.000000;1.000000;0.079299;-0.079299;0.079299;1.000000;0.611765;0.611765;0.592157
445651.55120285;5696573.91469868;470.59694983;27499.000000;1.000000;1.000000;1.000000;1.000000;0.084699;-0.084699;0.084699;1.000000;0.431373;0.423529;0.4
445651.47570236;5696573.87379940;470.52554991;34952.000000;1.000000;1.000000;1.000000;1.000000;0.051023;-0.051023;0.051023;1.000000;0.52549;0.541176;0.521569
445651.59090240;5696573.84089954;470.60025002;25957.000000;1.000000;1.000000;1.000000;1.000000;0.010900;-0.010900;0.010900;1.000000;0.396078;0.4;0.376471
445651.57020004;5696573.75309952;470.51204993;28784.000000;1.000000;1.000000;1.000000;1.000000;-0.068325;0.068325;-0.068325;1.000000;0.462745;0.439216;0.403922
445651.62520035;5696573.68739899;470.50444986;47031.000000;1.000000;1.000000;1.000000;1.000000;-0.123325;0.123325;-0.123325;1.000000;0.72549;0.717647;0.698039
445651.93010147;5696573.71549900;470.48825004;44461.000000;1.000000;1.000000;1.000000;1.000000;-0.142291;0.142291;-0.142291;1.000000;0.701961;0.678431;0.647059
445651.74090012;5696573.73839958;470.58714988;41891.000000;1.000000;1.000000;1.000000;1.000000;-0.091600;0.091600;-0.091600;1.000000;0.65098;0.639216;0.619608
445651.87479980;5696574.14339931;470.63524987;46260.000000;1.000000;1.000000;1.000000;1.000000;-0.029175;0.029175;-0.029175;1.000000;0.690196;0.717647;0.709804
445651.61919983;5696573.58419903;470.42144992;53713.000000;1.000000;1.000000;1.000000;1.000000;-0.117325;0.117325;-0.117325;1.000000;0.827451;0.823529;0.803922
445651.67310150;5696573.62089928;470.44295003;49601.000000;1.000000;1.000000;1.000000;1.000000;-0.171227;0.171227;-0.171227;1.000000;0.776471;0.756863;0.733333
445651.41920288;5696573.67279919;470.42505004;46260.000000;1.000000;1.000000;1.000000;1.000000;0.082672;-0.082672;0.082672;1.000000;0.717647;0.709804;0.678431
445651.57890137;5696573.62539871;470.41544988;54484.000000;1.000000;1.000000;1.000000;1.000000;-0.077026;0.077026;-0.077026;1.000000;0.843137;0.835294;0.8
445651.65440186;5696573.58559902;470.42065002;57054.000000;1.000000;1.000000;1.000000;1.000000;-0.152527;0.152527;-0.152527;1.000000;0.878431;0.870588;0.85098
445651.46430023;5696574.15279873;470.52594997;10537.000000;1.000000;1.000000;1.000000;1.000000;0.087466;-0.087466;0.087466;1.000000;0.14902;0.160784;0.196078
445651.44690140;5696573.66109951;470.40984990;41634.000000;1.000000;1.000000;1.000000;1.000000;0.054974;-0.054974;0.054974;1.000000;0.65098;0.639216;0.603922
445651.46610077;5696574.03989895;470.56434991;40349.000000;1.000000;1.000000;1.000000;1.000000;0.089226;-0.089226;0.089226;1.000000;0.619608;0.619608;0.596078
445651.60510071;5696573.92579945;470.61584999;40092.000000;1.000000;1.000000;1.000000;1.000000;0.095814;-0.095814;0.095814;1.000000;0.619608;0.615686;0.592157
445651.48410233;5696573.65999897;470.41155006;48059.000000;1.000000;1.000000;1.000000;1.000000;0.017773;-0.017773;0.017773;1.000000;0.74902;0.733333;0.694118
445651.85000046;5696573.81439884;470.60695006;54484.000000;1.000000;1.000000;1.000000;1.000000;-0.016203;0.016203;-0.016203;1.000000;0.839216;0.831373;0.815686
445651.84010132;5696574.09299953;470.62614991;39835.000000;1.000000;1.000000;1.000000;1.000000;0.005524;-0.005524;0.005524;1.000000;0.6;0.615686;0.615686
445651.53339966;5696573.78009899;470.50134995;35466.000000;1.000000;1.000000;1.000000;1.000000;-0.031525;0.031525;-0.031525;1.000000;0.564706;0.541176;0.509804
445651.51740082;5696573.78159912;470.49834992;36751.000000;1.000000;1.000000;1.000000;1.000000;-0.015526;0.015526;-0.015526;1.000000;0.580392;0.560784;0.52549
445651.49450119;5696574.00419910;470.58614995;22359.000000;1.000000;1.000000;1.000000;1.000000;0.117626;-0.117626;0.117626;1.000000;0.364706;0.341176;0.309804
445651.59840210;5696573.74529942;470.54585006;44718.000000;1.000000;1.000000;1.000000;1.000000;-0.084746;0.084746;-0.084746;1.000000;0.686275;0.686275;0.654902
445651.50320251;5696573.87569912;470.54075005;49601.000000;1.000000;1.000000;1.000000;1.000000;-0.045718;0.045718;-0.045718;1.000000;0.752941;0.760784;0.752941
445651.59190186;5696573.74609955;470.53624990;42148.000000;1.000000;1.000000;1.000000;1.000000;-0.083900;0.083900;-0.083900;1.000000;0.65098;0.647059;0.611765
445651.46520050;5696574.14099892;470.53285005;13364.000000;1.000000;1.000000;1.000000;1.000000;0.088326;-0.088326;0.088326;1.000000;0.196078;0.203922;0.231373
445651.77720078;5696573.81179913;470.60824992;51657.000000;1.000000;1.000000;1.000000;1.000000;-0.018201;0.018201;-0.018201;1.000000;0.796078;0.792157;0.768627
445651.44800003;5696574.06739910;470.55684998;54998.000000;1.000000;1.000000;1.000000;1.000000;0.071125;-0.071125;0.071125;1.000000;0.843137;0.843137;0.835294
445651.89380081;5696574.08589943;470.61214997;41634.000000;1.000000;1.000000;1.000000;1.000000;-0.048176;0.048176;-0.048176;1.000000;0.635294;0.639216;0.627451
445651.63590057;5696573.63339909;470.46464993;58596.000000;1.000000;1.000000;1.000000;1.000000;-0.134026;0.134026;-0.134026;1.000000;0.901961;0.894118;0.87451
445651.48610123;5696573.62049873;470.38784983;49858.000000;1.000000;1.000000;1.000000;1.000000;0.015774;-0.015774;0.015774;1.000000;0.772549;0.764706;0.729412
445651.88290222;5696573.74659927;470.56565001;49087.000000;1.000000;1.000000;1.000000;1.000000;-0.091352;0.091352;-0.091352;1.000000;0.760784;0.74902;0.717647
445651.43000229;5696573.87149914;470.49545004;27499.000000;1.000000;1.000000;1.000000;1.000000;0.053127;-0.053127;0.053127;1.000000;0.423529;0.423529;0.407843
445651.56530197;5696573.70749958;470.47405006;45232.000000;1.000000;1.000000;1.000000;1.000000;-0.063427;0.063427;-0.063427;1.000000;0.705882;0.694118;0.658824
445652.00380142;5696573.98549946;470.55534985;30840.000000;1.000000;1.000000;1.000000;1.000000;-0.159955;0.159955;-0.159955;1.000000;0.494118;0.466667;0.431373
445651.89740189;5696574.04819878;470.60955002;29812.000000;1.000000;1.000000;1.000000;1.000000;-0.051777;0.051777;-0.051777;1.000000;0.458824;0.458824;0.45098
445651.63580139;5696573.82489880;470.60905005;36751.000000;1.000000;1.000000;1.000000;1.000000;-0.005560;0.005560;-0.005560;1.000000;0.568627;0.564706;0.533333
445651.46440323;5696573.87049873;470.50864985;33410.000000;1.000000;1.000000;1.000000;1.000000;0.055175;-0.055175;0.055175;1.000000;0.509804;0.517647;0.494118
445651.42900284;5696573.63959892;470.39715006;46517.000000;1.000000;1.000000;1.000000;1.000000;0.072872;-0.072872;0.072872;1.000000;0.72549;0.713725;0.678431
445651.99950226;5696573.96259888;470.55254986;36237.000000;1.000000;1.000000;1.000000;1.000000;-0.160820;0.160820;-0.160820;1.000000;0.560784;0.556863;0.537255
445651.81580170;5696573.74079903;470.59054996;16962.000000;1.000000;1.000000;1.000000;1.000000;-0.089212;0.089212;-0.089212;1.000000;0.270588;0.258824;0.235294
445651.62400253;5696573.62529953;470.45234992;52171.000000;1.000000;1.000000;1.000000;1.000000;-0.122128;0.122128;-0.122128;1.000000;0.803922;0.8;0.784314
445651.60379990;5696573.71039875;470.50834991;52685.000000;1.000000;1.000000;1.000000;1.000000;-0.101925;0.101925;-0.101925;1.000000;0.807843;0.807843;0.776471
445651.59040268;5696573.78489883;470.59955003;50115.000000;1.000000;1.000000;1.000000;1.000000;-0.045101;0.045101;-0.045101;1.000000;0.772549;0.772549;0.733333
445651.50070007;5696574.14689930;470.53684999;7710.000000;1.000000;1.000000;1.000000;1.000000;0.123825;-0.123825;0.123825;1.000000;0.109804;0.121569;0.14902
445651.89280136;5696573.75719936;470.57554986;52428.000000;1.000000;1.000000;1.000000;1.000000;-0.086750;0.086750;-0.086750;1.000000;0.811765;0.803922;0.768627
445651.46669968;5696573.64079960;470.39424994;50629.000000;1.000000;1.000000;1.000000;1.000000;0.035175;-0.035175;0.035175;1.000000;0.788235;0.772549;0.737255
445651.88900192;5696574.01159866;470.61574986;56283.000000;1.000000;1.000000;1.000000;1.000000;-0.043377;0.043377;-0.043377;1.000000;0.858824;0.862745;0.854902
445651.46310242;5696573.73579891;470.46505000;33153.000000;1.000000;1.000000;1.000000;1.000000;0.038773;-0.038773;0.038773;1.000000;0.513725;0.505882;0.486275
445651.65010269;5696573.68039902;470.50784995;53456.000000;1.000000;1.000000;1.000000;1.000000;-0.148228;0.148228;-0.148228;1.000000;0.827451;0.819608;0.792157
445651.52120026;5696573.70029934;470.45094993;41120.000000;1.000000;1.000000;1.000000;1.000000;-0.019325;0.019325;-0.019325;1.000000;0.643137;0.627451;0.592157
445651.81720169;5696573.72229870;470.57174994;35723.000000;1.000000;1.000000;1.000000;1.000000;-0.107738;0.107738;-0.107738;1.000000;0.556863;0.54902;0.52549
445651.93060120;5696573.72459896;470.49775006;49601.000000;1.000000;1.000000;1.000000;1.000000;-0.135390;0.135390;-0.135390;1.000000;0.776471;0.756863;0.729412
445651.55520065;5696573.64859875;470.41925003;44975.000000;1.000000;1.000000;1.000000;1.000000;-0.053326;0.053326;-0.053326;1.000000;0.698039;0.690196;0.658824
445651.74270065;5696573.70419891;470.52624990;34695.000000;1.000000;1.000000;1.000000;1.000000;-0.125801;0.125801;-0.125801;1.000000;0.552941;0.529412;0.490196
445651.43360336;5696573.80589874;470.48784997;20046.000000;1.000000;1.000000;1.000000;1.000000;0.061636;-0.061636;0.061636;1.000000;0.305882;0.309804;0.301961
445651.98800095;5696574.09119900;470.60944988;52428.000000;1.000000;1.000000;1.000000;1.000000;-0.142376;0.142376;-0.142376;1.000000;0.8;0.803922;0.803922
445651.58030136;5696573.85129936;470.59754993;32896.000000;1.000000;1.000000;1.000000;1.000000;0.021299;-0.021299;0.021299;1.000000;0.505882;0.505882;0.494118
445651.65540131;5696573.64539917;470.47264983;57311.000000;1.000000;1.000000;1.000000;1.000000;-0.153526;0.153526;-0.153526;1.000000;0.882353;0.878431;0.858824
445651.53240021;5696573.65309914;470.41365005;50886.000000;1.000000;1.000000;1.000000;1.000000;-0.030525;0.030525;-0.030525;1.000000;0.792157;0.780392;0.741176
445651.76310165;5696574.11889942;470.62524988;23130.000000;1.000000;1.000000;1.000000;1.000000;0.082523;-0.082523;0.082523;1.000000;0.337255;0.364706;0.364706
445651.80610092;5696573.97939880;470.62555005;34438.000000;1.000000;1.000000;1.000000;1.000000;0.048719;-0.048719;0.048719;1.000000;0.529412;0.529412;0.517647
445651.50470169;5696573.82699879;470.50994994;23130.000000;1.000000;1.000000;1.000000;1.000000;-0.002827;0.002827;-0.002827;1.000000;0.352941;0.360784;0.341176
445651.47390182;5696573.88099869;470.52784993;30840.000000;1.000000;1.000000;1.000000;1.000000;0.058167;-0.058167;0.058167;1.000000;0.466667;0.478431;0.447059
445651.75300034;5696573.91189869;470.62704994;47545.000000;1.000000;1.000000;1.000000;1.000000;0.081906;-0.081906;0.081906;1.000000;0.737255;0.729412;0.705882
445651.96550186;5696573.75389870;470.50895001;47545.000000;1.000000;1.000000;1.000000;1.000000;-0.141992;0.141992;-0.141992;1.000000;0.74902;0.72549;0.690196
445651.48850067;5696573.79829891;470.49954988;50886.000000;1.000000;1.000000;1.000000;1.000000;0.013374;-0.013374;0.013374;1.000000;0.780392;0.784314;0.756863
445651.65940292;5696573.93689926;470.62774994;48316.000000;1.000000;1.000000;1.000000;1.000000;0.106907;-0.106907;0.106907;1.000000;0.741176;0.741176;0.717647
445651.61150177;5696573.74829872;470.57204988;49344.000000;1.000000;1.000000;1.000000;1.000000;-0.081701;0.081701;-0.081701;1.000000;0.760784;0.756863;0.717647
445651.86310013;5696573.67659958;470.38695004;25700.000000;1.000000;1.000000;1.000000;1.000000;-0.154393;0.154393;-0.154393;1.000000;0.431373;0.388235;0.337255
445651.73430069;5696573.93919952;470.63115003;41634.000000;1.000000;1.000000;1.000000;1.000000;0.109200;-0.109200;0.109200;1.000000;0.643137;0.635294;0.615686
445651.44660004;5696573.90929897;470.51764991;32896.000000;1.000000;1.000000;1.000000;1.000000;0.069725;-0.069725;0.069725;1.000000;0.494118;0.509804;0.486275
445651.48250015;5696573.86859901;470.51874997;42148.000000;1.000000;1.000000;1.000000;1.000000;0.043189;-0.043189;0.043189;1.000000;0.643137;0.65098;0.619608
445651.56410034;5696573.76529892;470.51654984;22873.000000;1.000000;1.000000;1.000000;1.000000;-0.062225;0.062225;-0.062225;1.000000;0.368627;0.34902;0.305882
445651.78100021;5696573.66499908;470.42264988;23387.000000;1.000000;1.000000;1.000000;1.000000;-0.165001;0.165001;-0.165001;1.000000;0.396078;0.34902;0.317647
445651.56400116;5696573.72379883;470.48344995;41891.000000;1.000000;1.000000;1.000000;1.000000;-0.062126;0.062126;-0.062126;1.000000;0.654902;0.643137;0.6
445651.42000015;5696573.64729889;470.40614988;44204.000000;1.000000;1.000000;1.000000;1.000000;0.081875;-0.081875;0.081875;1.000000;0.682353;0.678431;0.647059
445651.53220184;5696573.64849957;470.40894987;49601.000000;1.000000;1.000000;1.000000;1.000000;-0.030327;0.030327;-0.030327;1.000000;0.772549;0.760784;0.721569
445651.64120300;5696573.69039925;470.51915004;55255.000000;1.000000;1.000000;1.000000;1.000000;-0.139328;0.139328;-0.139328;1.000000;0.854902;0.847059;0.819608
445651.76659973;5696574.08119877;470.62494995;17219.000000;1.000000;1.000000;1.000000;1.000000;0.079025;-0.079025;0.079025;1.000000;0.25098;0.270588;0.27451
445652.00320251;5696573.97859867;470.55524995;29041.000000;1.000000;1.000000;1.000000;1.000000;-0.160538;0.160538;-0.160538;1.000000;0.466667;0.439216;0.411765
445651.84029968;5696573.71949871;470.46564986;8738.000000;1.000000;1.000000;1.000000;1.000000;-0.110501;0.110501;-0.110501;1.000000;0.156863;0.129412;0.101961
445651.97330292;5696574.13239868;470.60465004;24415.000000;1.000000;1.000000;1.000000;1.000000;-0.127678;0.127678;-0.127678;1.000000;0.356863;0.376471;0.396078
445651.76000031;5696573.68269928;470.45924999;29555.000000;1.000000;1.000000;1.000000;1.000000;-0.147335;0.147335;-0.147335;1.000000;0.490196;0.443137;0.407843
445651.61700256;5696573.71339901;470.53234984;51400.000000;1.000000;1.000000;1.000000;1.000000;-0.115128;0.115128;-0.115128;1.000000;0.792157;0.788235;0.764706
445651.53370102;5696573.81939896;470.52514984;43947.000000;1.000000;1.000000;1.000000;1.000000;-0.010617;0.010617;-0.010617;1.000000;0.670588;0.678431;0.662745
445651.62940033;5696573.74869926;470.59154989;49601.000000;1.000000;1.000000;1.000000;1.000000;-0.081340;0.081340;-0.081340;1.000000;0.768627;0.760784;0.733333
445651.77940186;5696573.75349911;470.59375002;45746.000000;1.000000;1.000000;1.000000;1.000000;-0.076501;0.076501;-0.076501;1.000000;0.705882;0.698039;0.678431
445651.60400208;5696573.67119892;470.47304990;48573.000000;1.000000;1.000000;1.000000;1.000000;-0.102127;0.102127;-0.102127;1.000000;0.752941;0.745098;0.721569
445651.96550186;5696573.86479958;470.58484985;24672.000000;1.000000;1.000000;1.000000;1.000000;0.124826;-0.124826;0.124826;1.000000;0.4;0.372549;0.345098
445651.81010254;5696574.07239922;470.62684991;45746.000000;1.000000;1.000000;1.000000;1.000000;0.035522;-0.035522;0.035522;1.000000;0.690196;0.701961;0.701961
445651.66810043;5696573.95479877;470.62835004;32125.000000;1.000000;1.000000;1.000000;1.000000;0.124804;-0.124804;0.124804;1.000000;0.494118;0.494118;0.478431
445651.66960342;5696573.91959961;470.62564995;45746.000000;1.000000;1.000000;1.000000;1.000000;0.089600;-0.089600;0.089600;1.000000;0.701961;0.701961;0.682353
445651.81730087;5696573.92459877;470.62774994;37008.000000;1.000000;1.000000;1.000000;1.000000;0.087917;-0.087917;0.087917;1.000000;0.564706;0.568627;0.552941
445651.89859970;5696573.77749928;470.59235003;30840.000000;1.000000;1.000000;1.000000;1.000000;-0.074583;0.074583;-0.074583;1.000000;0.486275;0.470588;0.443137
445651.93830307;5696573.74219902;470.51924994;52685.000000;1.000000;1.000000;1.000000;1.000000;-0.127665;0.127665;-0.127665;1.000000;0.819608;0.803922;0.764706
445651.93910034;5696573.70779903;470.47924997;47288.000000;1.000000;1.000000;1.000000;1.000000;-0.153853;0.153853;-0.153853;1.000000;0.745098;0.717647;0.694118
445651.62260254;5696573.68309887;470.49965002;46260.000000;1.000000;1.000000;1.000000;1.000000;-0.120728;0.120728;-0.120728;1.000000;0.717647;0.709804;0.686275
445651.69930084;5696573.70309933;470.55454995;55512.000000;1.000000;1.000000;1.000000;1.000000;-0.126907;0.126907;-0.126907;1.000000;0.858824;0.847059;0.819608
445651.89809998;5696573.71409901;470.46814992;52942.000000;1.000000;1.000000;1.000000;1.000000;-0.127227;0.127227;-0.127227;1.000000;0.831373;0.807843;0.745098
445651.50900085;5696573.85889919;470.53384997;34181.000000;1.000000;1.000000;1.000000;1.000000;0.029190;-0.029190;0.029190;1.000000;0.513725;0.529412;0.521569
445651.49220093;5696574.13359936;470.54335000;13878.000000;1.000000;1.000000;1.000000;1.000000;0.115326;-0.115326;0.115326;1.000000;0.203922;0.211765;0.239216
445651.42430313;5696573.75089939;470.47514989;23387.000000;1.000000;1.000000;1.000000;1.000000;0.077572;-0.077572;0.077572;1.000000;0.364706;0.360784;0.333333
445651.96650131;5696573.80689915;470.54684999;46260.000000;1.000000;1.000000;1.000000;1.000000;-0.123064;0.123064;-0.123064;1.000000;0.733333;0.705882;0.643137
445651.44000061;5696573.60139950;470.38555004;35209.000000;1.000000;1.000000;1.000000;1.000000;0.061874;-0.061874;0.061874;1.000000;0.545098;0.541176;0.517647
445651.73270233;5696573.75539883;470.59624984;46517.000000;1.000000;1.000000;1.000000;1.000000;-0.074601;0.074601;-0.074601;1.000000;0.72549;0.709804;0.682353
445651.90150269;5696573.96609886;470.60874989;47545.000000;1.000000;1.000000;1.000000;1.000000;-0.069973;0.069973;-0.069973;1.000000;0.729412;0.729412;0.717647
445651.80160339;5696574.08249958;470.62894990;41120.000000;1.000000;1.000000;1.000000;1.000000;0.044022;-0.044022;0.044022;1.000000;0.619608;0.635294;0.631373
445651.63520248;5696573.61959942;470.45054986;58082.000000;1.000000;1.000000;1.000000;1.000000;-0.133327;0.133327;-0.133327;1.000000;0.894118;0.890196;0.87451
445651.80540283;5696573.75799950;470.59725000;33410.000000;1.000000;1.000000;1.000000;1.000000;-0.072001;0.072001;-0.072001;1.000000;0.517647;0.513725;0.498039
445651.50539978;5696573.80829914;470.50744988;54484.000000;1.000000;1.000000;1.000000;1.000000;-0.003525;0.003525;-0.003525;1.000000;0.831373;0.835294;0.815686
445651.40940292;5696573.66669949;470.42225005;47288.000000;1.000000;1.000000;1.000000;1.000000;0.092472;-0.092472;0.092472;1.000000;0.729412;0.72549;0.698039
445651.98280151;5696573.75719936;470.49584987;50115.000000;1.000000;1.000000;1.000000;1.000000;-0.155298;0.155298;-0.155298;1.000000;0.788235;0.760784;0.72549
445651.70170029;5696573.61849888;470.42555000;37522.000000;1.000000;1.000000;1.000000;1.000000;-0.199825;0.199825;-0.199825;1.000000;0.6;0.568627;0.533333
445651.48090179;5696573.78969868;470.49444987;46260.000000;1.000000;1.000000;1.000000;1.000000;0.020973;-0.020973;0.020973;1.000000;0.713725;0.709804;0.686275
445651.80440338;5696574.03559883;470.62384989;39835.000000;1.000000;1.000000;1.000000;1.000000;0.041222;-0.041222;0.041222;1.000000;0.603922;0.611765;0.6
445651.46899994;5696574.04889877;470.57154991;45746.000000;1.000000;1.000000;1.000000;1.000000;0.092125;-0.092125;0.092125;1.000000;0.698039;0.701961;0.686275
445651.66240128;5696573.86209877;470.61305000;45746.000000;1.000000;1.000000;1.000000;1.000000;0.032382;-0.032382;0.032382;1.000000;0.705882;0.701961;0.67451
445651.58760269;5696573.75109871;470.53845002;38293.000000;1.000000;1.000000;1.000000;1.000000;-0.078901;0.078901;-0.078901;1.000000;0.592157;0.588235;0.54902
445651.44640167;5696574.01419933;470.53285005;41891.000000;1.000000;1.000000;1.000000;1.000000;0.069527;-0.069527;0.069527;1.000000;0.654902;0.643137;0.603922
445651.83990295;5696574.03709896;470.61844995;33667.000000;1.000000;1.000000;1.000000;1.000000;0.005722;-0.005722;0.005722;1.000000;0.509804;0.517647;0.509804
445651.74490173;5696574.09949883;470.62424995;37522.000000;1.000000;1.000000;1.000000;1.000000;0.100723;-0.100723;0.100723;1.000000;0.556863;0.580392;0.584314
445651.57880219;5696573.77019890;470.56624987;23901.000000;1.000000;1.000000;1.000000;1.000000;-0.059801;0.059801;-0.059801;1.000000;0.372549;0.372549;0.333333
445651.55389984;5696573.79379948;470.54434993;16191.000000;1.000000;1.000000;1.000000;1.000000;-0.036201;0.036201;-0.036201;1.000000;0.258824;0.247059;0.215686
445651.58730133;5696573.70049961;470.48895003;50886.000000;1.000000;1.000000;1.000000;1.000000;-0.085426;0.085426;-0.085426;1.000000;0.788235;0.780392;0.752941
445651.97310074;5696573.79259880;470.52604987;42662.000000;1.000000;1.000000;1.000000;1.000000;-0.132849;0.132849;-0.132849;1.000000;0.67451;0.654902;0.6
445651.84460266;5696573.96419914;470.62244989;40606.000000;1.000000;1.000000;1.000000;1.000000;0.043755;-0.043755;0.043755;1.000000;0.611765;0.627451;0.615686
445651.75470169;5696573.67159946;470.44954993;23644.000000;1.000000;1.000000;1.000000;1.000000;-0.158426;0.158426;-0.158426;1.000000;0.4;0.352941;0.313725
445651.86100204;5696574.03749950;470.61704995;31611.000000;1.000000;1.000000;1.000000;1.000000;-0.015377;0.015377;-0.015377;1.000000;0.47451;0.486275;0.486275
445651.79450043;5696573.82189949;470.60914995;49858.000000;1.000000;1.000000;1.000000;1.000000;-0.008101;0.008101;-0.008101;1.000000;0.772549;0.764706;0.737255
445651.98270233;5696573.82659920;470.53854992;41120.000000;1.000000;1.000000;1.000000;1.000000;-0.137120;0.137120;-0.137120;1.000000;0.658824;0.627451;0.568627
445651.59640320;5696573.76139935;470.57154991;45746.000000;1.000000;1.000000;1.000000;1.000000;-0.068605;0.068605;-0.068605;1.000000;0.709804;0.701961;0.666667
445651.87320145;5696573.74739941;470.57454993;50372.000000;1.000000;1.000000;1.000000;1.000000;-0.087082;0.087082;-0.087082;1.000000;0.780392;0.772549;0.737255
445651.83690079;5696573.72619923;470.50514986;48830.000000;1.000000;1.000000;1.000000;1.000000;-0.103801;0.103801;-0.103801;1.000000;0.752941;0.752941;0.682353
445651.64450272;5696573.61879929;470.45094993;55769.000000;1.000000;1.000000;1.000000;1.000000;-0.142628;0.142628;-0.142628;1.000000;0.858824;0.854902;0.835294
445651.80860336;5696573.93239887;470.62975003;31611.000000;1.000000;1.000000;1.000000;1.000000;0.083991;-0.083991;0.083991;1.000000;0.482353;0.486275;0.470588
445651.65040024;5696573.69859894;470.53834989;56026.000000;1.000000;1.000000;1.000000;1.000000;-0.131401;0.131401;-0.131401;1.000000;0.862745;0.858824;0.831373
445651.81140335;5696573.85979946;470.62434985;50115.000000;1.000000;1.000000;1.000000;1.000000;0.029799;-0.029799;0.029799;1.000000;0.768627;0.768627;0.756863
445651.96320160;5696573.75639923;470.51355006;47545.000000;1.000000;1.000000;1.000000;1.000000;-0.138713;0.138713;-0.138713;1.000000;0.74902;0.72549;0.694118
445651.96580322;5696573.71699913;470.47825005;43433.000000;1.000000;1.000000;1.000000;1.000000;-0.164961;0.164961;-0.164961;1.000000;0.682353;0.658824;0.647059
445651.82950027;5696573.85119923;470.61804988;47031.000000;1.000000;1.000000;1.000000;1.000000;0.021199;-0.021199;0.021199;1.000000;0.721569;0.721569;0.705882
445651.88190277;5696573.71559914;470.46744992;53199.000000;1.000000;1.000000;1.000000;1.000000;-0.120015;0.120015;-0.120015;1.000000;0.835294;0.815686;0.733333
445651.41909988;5696573.96329887;470.51475002;49858.000000;1.000000;1.000000;1.000000;1.000000;0.042225;-0.042225;0.042225;1.000000;0.768627;0.764706;0.745098
445651.90050323;5696573.69359882;470.42374994;42148.000000;1.000000;1.000000;1.000000;1.000000;-0.147027;0.147027;-0.147027;1.000000;0.654902;0.65098;0.580392
445651.69149979;5696573.60329922;470.41324999;44204.000000;1.000000;1.000000;1.000000;1.000000;-0.189625;0.189625;-0.189625;1.000000;0.698039;0.670588;0.635294
445651.43210037;5696573.81539925;470.48794987;13621.000000;1.000000;1.000000;1.000000;1.000000;0.057123;-0.057123;0.057123;1.000000;0.207843;0.211765;0.2
445651.63160141;5696573.67989929;470.50234987;47288.000000;1.000000;1.000000;1.000000;1.000000;-0.129726;0.129726;-0.129726;1.000000;0.733333;0.72549;0.701961
445651.41220291;5696573.90589912;470.49504997;11051.000000;1.000000;1.000000;1.000000;1.000000;0.035328;-0.035328;0.035328;1.000000;0.164706;0.172549;0.168627
445651.44950302;5696573.60289867;470.38605000;38036.000000;1.000000;1.000000;1.000000;1.000000;0.052372;-0.052372;0.052372;1.000000;0.588235;0.584314;0.556863
445651.75280197;5696573.69909866;470.49864985;43947.000000;1.000000;1.000000;1.000000;1.000000;-0.130905;0.130905;-0.130905;1.000000;0.698039;0.670588;0.627451
445651.70820053;5696573.65249928;470.45654990;48316.000000;1.000000;1.000000;1.000000;1.000000;-0.177501;0.177501;-0.177501;1.000000;0.764706;0.733333;0.709804
445651.95260056;5696573.78259953;470.54364993;43690.000000;1.000000;1.000000;1.000000;1.000000;-0.117007;0.117007;-0.117007;1.000000;0.686275;0.670588;0.627451
445651.48100098;5696574.17259892;470.50834991;10280.000000;1.000000;1.000000;1.000000;1.000000;0.106599;-0.106599;0.106599;1.000000;0.14902;0.160784;0.184314
445651.85810287;5696573.87899883;470.61274983;53970.000000;1.000000;1.000000;1.000000;1.000000;0.050563;-0.050563;0.050563;1.000000;0.827451;0.827451;0.811765
445651.69930084;5696573.69859894;470.54285004;54741.000000;1.000000;1.000000;1.000000;1.000000;-0.131407;0.131407;-0.131407;1.000000;0.854902;0.831373;0.803922
445651.61079987;5696573.63129910;470.44724991;38807.000000;1.000000;1.000000;1.000000;1.000000;-0.108925;0.108925;-0.108925;1.000000;0.6;0.596078;0.576471
445651.89370163;5696573.88279922;470.60745003;54484.000000;1.000000;1.000000;1.000000;1.000000;0.071408;-0.071408;0.071408;1.000000;0.839216;0.831373;0.811765
445651.89930161;5696573.67739876;470.41654994;17990.000000;1.000000;1.000000;1.000000;1.000000;-0.161766;0.161766;-0.161766;1.000000;0.301961;0.27451;0.215686
445651.96600159;5696573.79779919;470.53744986;45232.000000;1.000000;1.000000;1.000000;1.000000;-0.124609;0.124609;-0.124609;1.000000;0.709804;0.694118;0.631373
445651.92469986;5696573.76619919;470.55854990;49344.000000;1.000000;1.000000;1.000000;1.000000;-0.101604;0.101604;-0.101604;1.000000;0.768627;0.756863;0.721569
445651.79180344;5696573.87789925;470.62835004;46517.000000;1.000000;1.000000;1.000000;1.000000;0.047961;-0.047961;0.047961;1.000000;0.713725;0.713725;0.694118
445651.53210266;5696573.86579903;470.55355002;32382.000000;1.000000;1.000000;1.000000;1.000000;0.035799;-0.035799;0.035799;1.000000;0.490196;0.494118;0.509804
445651.75920303;5696573.76459892;470.59754993;57311.000000;1.000000;1.000000;1.000000;1.000000;-0.065513;0.065513;-0.065513;1.000000;0.882353;0.878431;0.854902
445651.47770126;5696573.60259922;470.38264992;43176.000000;1.000000;1.000000;1.000000;1.000000;0.024174;-0.024174;0.024174;1.000000;0.666667;0.662745;0.635294
445651.80190094;5696574.11059959;470.62695004;50115.000000;1.000000;1.000000;1.000000;1.000000;0.043724;-0.043724;0.043724;1.000000;0.756863;0.772549;0.776471
445651.48530014;5696574.07989891;470.58434989;23387.000000;1.000000;1.000000;1.000000;1.000000;0.108425;-0.108425;0.108425;1.000000;0.360784;0.360784;0.352941
445651.78709991;5696573.70099934;470.46764996;28527.000000;1.000000;1.000000;1.000000;1.000000;-0.129062;0.129062;-0.129062;1.000000;0.466667;0.431373;0.388235
445651.83720215;5696574.11199959;470.62625005;25957.000000;1.000000;1.000000;1.000000;1.000000;0.008423;-0.008423;0.008423;1.000000;0.384314;0.403922;0.403922
445651.97070129;5696573.79509933;470.53294994;44975.000000;1.000000;1.000000;1.000000;1.000000;-0.129854;0.129854;-0.129854;1.000000;0.709804;0.690196;0.635294
445652.00430115;5696574.12759884;470.58034994;46517.000000;1.000000;1.000000;1.000000;1.000000;-0.158676;0.158676;-0.158676;1.000000;0.698039;0.713725;0.741176
445651.54780014;5696573.95019920;470.59025003;28270.000000;1.000000;1.000000;1.000000;1.000000;0.120199;-0.120199;0.120199;1.000000;0.447059;0.431373;0.407843
445651.64490326;5696573.62789925;470.46035006;53713.000000;1.000000;1.000000;1.000000;1.000000;-0.143028;0.143028;-0.143028;1.000000;0.827451;0.823529;0.803922
445651.97170074;5696573.81119926;470.54254987;46003.000000;1.000000;1.000000;1.000000;1.000000;-0.127470;0.127470;-0.127470;1.000000;0.733333;0.701961;0.65098
445651.52729996;5696573.91979893;470.56565001;37008.000000;1.000000;1.000000;1.000000;1.000000;0.089799;-0.089799;0.089799;1.000000;0.588235;0.560784;0.521569
445651.98570068;5696573.94959934;470.57274987;29555.000000;1.000000;1.000000;1.000000;1.000000;-0.152124;0.152124;-0.152124;1.000000;0.462745;0.45098;0.447059
445651.47390182;5696574.13539894;470.53784992;12079.000000;1.000000;1.000000;1.000000;1.000000;0.097027;-0.097027;0.097027;1.000000;0.176471;0.188235;0.219608
445651.86550339;5696573.72749908;470.54834988;50372.000000;1.000000;1.000000;1.000000;1.000000;-0.104411;0.104411;-0.104411;1.000000;0.784314;0.772549;0.733333
445651.53170212;5696573.81969936;470.51804997;49858.000000;1.000000;1.000000;1.000000;1.000000;-0.010301;0.010301;-0.010301;1.000000;0.760784;0.764706;0.74902
445651.47570236;5696574.09499939;470.57005002;14649.000000;1.000000;1.000000;1.000000;1.000000;0.098827;-0.098827;0.098827;1.000000;0.219608;0.227451;0.239216
445651.81550034;5696573.76639946;470.59784986;43176.000000;1.000000;1.000000;1.000000;1.000000;-0.063610;0.063610;-0.063610;1.000000;0.666667;0.658824;0.647059
445651.44230087;5696574.02159889;470.53504993;36751.000000;1.000000;1.000000;1.000000;1.000000;0.065426;-0.065426;0.065426;1.000000;0.580392;0.560784;0.521569
445651.73820313;5696574.03219898;470.63474991;38807.000000;1.000000;1.000000;1.000000;1.000000;0.107422;-0.107422;0.107422;1.000000;0.584314;0.6;0.592157
445651.74180038;5696573.99679955;470.63684990;30326.000000;1.000000;1.000000;1.000000;1.000000;0.104391;-0.104391;0.104391;1.000000;0.470588;0.462745;0.443137
445651.41690262;5696573.90769871;470.49764993;12850.000000;1.000000;1.000000;1.000000;1.000000;0.040028;-0.040028;0.040028;1.000000;0.192157;0.2;0.192157
445651.80780228;5696573.72309883;470.57364990;40863.000000;1.000000;1.000000;1.000000;1.000000;-0.106901;0.106901;-0.106901;1.000000;0.631373;0.627451;0.603922
445651.72550018;5696573.68969925;470.51364996;36237.000000;1.000000;1.000000;1.000000;1.000000;-0.140385;0.140385;-0.140385;1.000000;0.584314;0.545098;0.52549
445651.96949966;5696573.93219955;470.58574988;31868.000000;1.000000;1.000000;1.000000;1.000000;-0.145577;0.145577;-0.145577;1.000000;0.498039;0.486275;0.486275
445651.45100220;5696574.07639893;470.55944993;45232.000000;1.000000;1.000000;1.000000;1.000000;0.074127;-0.074127;0.074127;1.000000;0.686275;0.694118;0.690196
445651.54730042;5696573.81039913;470.56994988;28784.000000;1.000000;1.000000;1.000000;1.000000;-0.019601;0.019601;-0.019601;1.000000;0.443137;0.447059;0.411765
445651.90390213;5696573.89119919;470.60794999;46003.000000;1.000000;1.000000;1.000000;1.000000;0.084508;-0.084508;0.084508;1.000000;0.709804;0.705882;0.690196
445651.48190125;5696574.08959873;470.57725002;14649.000000;1.000000;1.000000;1.000000;1.000000;0.105026;-0.105026;0.105026;1.000000;0.223529;0.227451;0.235294
445651.78250320;5696574.10069950;470.62354996;17733.000000;1.000000;1.000000;1.000000;1.000000;0.063122;-0.063122;0.063122;1.000000;0.258824;0.278431;0.27451
445651.93210037;5696574.06839951;470.60905005;42148.000000;1.000000;1.000000;1.000000;1.000000;-0.086475;0.086475;-0.086475;1.000000;0.647059;0.647059;0.627451
445651.42550095;5696573.73229893;470.46105005;32896.000000;1.000000;1.000000;1.000000;1.000000;0.076374;-0.076374;0.076374;1.000000;0.513725;0.505882;0.470588
445651.60580261;5696573.66409882;470.47064998;45746.000000;1.000000;1.000000;1.000000;1.000000;-0.103928;0.103928;-0.103928;1.000000;0.709804;0.698039;0.682353
445651.49940308;5696573.75559910;470.47854998;38293.000000;1.000000;1.000000;1.000000;1.000000;0.002472;-0.002472;0.002472;1.000000;0.596078;0.584314;0.556863
445651.45549973;5696573.93859871;470.53705003;49601.000000;1.000000;1.000000;1.000000;1.000000;0.078625;-0.078625;0.078625;1.000000;0.764706;0.760784;0.737255
445651.62280090;5696573.91699894;470.62115004;38293.000000;1.000000;1.000000;1.000000;1.000000;0.086999;-0.086999;0.086999;1.000000;0.592157;0.588235;0.560784
445651.44540222;5696573.95359905;470.53204991;42662.000000;1.000000;1.000000;1.000000;1.000000;0.068527;-0.068527;0.068527;1.000000;0.658824;0.654902;0.635294
445651.60980042;5696573.58049877;470.41394999;58853.000000;1.000000;1.000000;1.000000;1.000000;-0.107925;0.107925;-0.107925;1.000000;0.898039;0.901961;0.878431
445651.58550079;5696573.66389950;470.45344998;53456.000000;1.000000;1.000000;1.000000;1.000000;-0.083626;0.083626;-0.083626;1.000000;0.827451;0.819608;0.796078
445651.46370132;5696573.70579918;470.44144990;44718.000000;1.000000;1.000000;1.000000;1.000000;0.038174;-0.038174;0.038174;1.000000;0.698039;0.686275;0.65098
445651.61850174;5696573.60969933;470.43794991;49087.000000;1.000000;1.000000;1.000000;1.000000;-0.116627;0.116627;-0.116627;1.000000;0.752941;0.752941;0.733333
445651.57440002;5696573.70889957;470.48144986;47545.000000;1.000000;1.000000;1.000000;1.000000;-0.072525;0.072525;-0.072525;1.000000;0.733333;0.729412;0.694118
445651.65600021;5696573.57169922;470.40894987;56797.000000;1.000000;1.000000;1.000000;1.000000;-0.154125;0.154125;-0.154125;1.000000;0.878431;0.866667;0.847059
445651.73180206;5696573.77179916;470.59874990;41634.000000;1.000000;1.000000;1.000000;1.000000;-0.058201;0.058201;-0.058201;1.000000;0.647059;0.635294;0.603922
445651.93300064;5696573.81869896;470.58974983;28270.000000;1.000000;1.000000;1.000000;1.000000;-0.088103;0.088103;-0.088103;1.000000;0.458824;0.431373;0.388235
445651.96980103;5696573.82049950;470.55414989;46003.000000;1.000000;1.000000;1.000000;1.000000;-0.124539;0.124539;-0.124539;1.000000;0.729412;0.698039;0.654902
445651.42500122;5696573.76009949;470.47994997;26214.000000;1.000000;1.000000;1.000000;1.000000;0.076874;-0.076874;0.076874;1.000000;0.403922;0.403922;0.376471
445651.78350266;5696574.06319912;470.62784984;33667.000000;1.000000;1.000000;1.000000;1.000000;0.062122;-0.062122;0.062122;1.000000;0.501961;0.521569;0.521569
445651.61320313;5696573.67259892;470.48044993;45232.000000;1.000000;1.000000;1.000000;1.000000;-0.111328;0.111328;-0.111328;1.000000;0.701961;0.690196;0.670588
445651.54850204;5696573.76699932;470.50424983;23901.000000;1.000000;1.000000;1.000000;1.000000;-0.046627;0.046627;-0.046627;1.000000;0.384314;0.364706;0.341176
445651.71550186;5696573.91069897;470.62535002;38293.000000;1.000000;1.000000;1.000000;1.000000;0.080699;-0.080699;0.080699;1.000000;0.592157;0.588235;0.572549
445652.01420029;5696574.12909897;470.57154991;40092.000000;1.000000;1.000000;1.000000;1.000000;-0.168575;0.168575;-0.168575;1.000000;0.6;0.619608;0.635294
445651.54720123;5696573.66789921;470.42844989;58082.000000;1.000000;1.000000;1.000000;1.000000;-0.045326;0.045326;-0.045326;1.000000;0.894118;0.890196;0.85098
445651.78330048;5696573.85779961;470.62074997;38550.000000;1.000000;1.000000;1.000000;1.000000;0.027800;-0.027800;0.027800;1.000000;0.596078;0.592157;0.572549
445651.94950302;5696574.13439949;470.61754992;30840.000000;1.000000;1.000000;1.000000;1.000000;-0.103878;0.103878;-0.103878;1.000000;0.458824;0.478431;0.486275
445651.47530182;5696573.66769894;470.41594984;45489.000000;1.000000;1.000000;1.000000;1.000000;0.026573;-0.026573;0.026573;1.000000;0.713725;0.694118;0.643137
445651.69860275;5696573.65099915;470.45844986;53456.000000;1.000000;1.000000;1.000000;1.000000;-0.179013;0.179013;-0.179013;1.000000;0.835294;0.815686;0.792157
445651.65750320;5696573.59689911;470.42794992;58853.000000;1.000000;1.000000;1.000000;1.000000;-0.155628;0.155628;-0.155628;1.000000;0.909804;0.898039;0.870588
445651.61400040;5696573.76169880;470.59795000;53456.000000;1.000000;1.000000;1.000000;1.000000;-0.068301;0.068301;-0.068301;1.000000;0.827451;0.819608;0.784314
445651.59910019;5696573.59089954;470.41354992;54998.000000;1.000000;1.000000;1.000000;1.000000;-0.097225;0.097225;-0.097225;1.000000;0.839216;0.843137;0.819608
445651.50050171;5696573.99429901;470.58865001;20046.000000;1.000000;1.000000;1.000000;1.000000;0.123627;-0.123627;0.123627;1.000000;0.317647;0.305882;0.282353
445651.60640152;5696573.85809906;470.60344984;33667.000000;1.000000;1.000000;1.000000;1.000000;0.028101;-0.028101;0.028101;1.000000;0.52549;0.517647;0.494118
445651.60720261;5696573.75339897;470.57425000;47545.000000;1.000000;1.000000;1.000000;1.000000;-0.076601;0.076601;-0.076601;1.000000;0.733333;0.729412;0.694118
445651.91010101;5696573.76729877;470.57414987;50629.000000;1.000000;1.000000;1.000000;1.000000;-0.089937;0.089937;-0.089937;1.000000;0.788235;0.776471;0.741176
445651.39320190;5696573.63579948;470.40715005;41377.000000;1.000000;1.000000;1.000000;1.000000;0.108673;-0.108673;0.108673;1.000000;0.643137;0.635294;0.596078
445651.72599991;5696573.72369869;470.57464983;41891.000000;1.000000;1.000000;1.000000;1.000000;-0.106437;0.106437;-0.106437;1.000000;0.658824;0.639216;0.615686
445651.62630280;5696573.66659935;470.48794987;47288.000000;1.000000;1.000000;1.000000;1.000000;-0.124428;0.124428;-0.124428;1.000000;0.729412;0.721569;0.701961
445651.58540161;5696573.62239941;470.42034986;50886.000000;1.000000;1.000000;1.000000;1.000000;-0.083527;0.083527;-0.083527;1.000000;0.784314;0.780392;0.745098
445651.51590164;5696573.58509930;470.37944986;29041.000000;1.000000;1.000000;1.000000;1.000000;-0.014027;0.014027;-0.014027;1.000000;0.45098;0.447059;0.423529
445651.72590073;5696573.68749912;470.49965002;37522.000000;1.000000;1.000000;1.000000;1.000000;-0.142599;0.142599;-0.142599;1.000000;0.596078;0.568627;0.537255
445651.72580154;5696573.71229942;470.55585005;44461.000000;1.000000;1.000000;1.000000;1.000000;-0.117814;0.117814;-0.117814;1.000000;0.698039;0.678431;0.65098
445651.94960220;5696573.66039951;470.46054985;17219.000000;1.000000;1.000000;1.000000;1.000000;-0.198936;0.198936;-0.198936;1.000000;0.278431;0.262745;0.239216
445651.72739990;5696573.65089901;470.44104983;38036.000000;1.000000;1.000000;1.000000;1.000000;-0.179159;0.179159;-0.179159;1.000000;0.611765;0.572549;0.541176
445651.84900101;5696573.67559917;470.38634994;14649.000000;1.000000;1.000000;1.000000;1.000000;-0.154438;0.154438;-0.154438;1.000000;0.262745;0.219608;0.164706
445651.97980316;5696574.08029945;470.61134984;61937.000000;1.000000;1.000000;1.000000;1.000000;-0.134178;0.134178;-0.134178;1.000000;0.945098;0.94902;0.937255
445651.87500198;5696573.73149879;470.39284994;28527.000000;1.000000;1.000000;1.000000;1.000000;-0.102789;0.102789;-0.102789;1.000000;0.47451;0.439216;0.317647
445651.46899994;5696573.78619869;470.49154999;49087.000000;1.000000;1.000000;1.000000;1.000000;0.032875;-0.032875;0.032875;1.000000;0.752941;0.752941;0.721569
445651.91120346;5696573.71709927;470.49674990;47545.000000;1.000000;1.000000;1.000000;1.000000;-0.130565;0.130565;-0.130565;1.000000;0.745098;0.72549;0.678431
445651.88510330;5696574.12389954;470.62614991;38036.000000;1.000000;1.000000;1.000000;1.000000;-0.039478;0.039478;-0.039478;1.000000;0.568627;0.592157;0.580392
445651.63640030;5696573.83189877;470.60914995;36237.000000;1.000000;1.000000;1.000000;1.000000;0.002492;-0.002492;0.002492;1.000000;0.556863;0.556863;0.521569
445651.88200195;5696573.71419914;470.40925004;37522.000000;1.000000;1.000000;1.000000;1.000000;-0.121380;0.121380;-0.121380;1.000000;0.580392;0.584314;0.498039
445651.41909988;5696573.87959869;470.49504997;44461.000000;1.000000;1.000000;1.000000;1.000000;0.042225;-0.042225;0.042225;1.000000;0.678431;0.682353;0.670588
445651.83320053;5696573.99099930;470.61994984;29555.000000;1.000000;1.000000;1.000000;1.000000;0.021055;-0.021055;0.021055;1.000000;0.447059;0.458824;0.454902
445651.90369995;5696574.12439926;470.62934997;50115.000000;1.000000;1.000000;1.000000;1.000000;-0.058075;0.058075;-0.058075;1.000000;0.752941;0.772549;0.764706
445651.43660172;5696574.11539944;470.54524996;22102.000000;1.000000;1.000000;1.000000;1.000000;0.059727;-0.059727;0.059727;1.000000;0.333333;0.337255;0.356863
445651.47430237;5696573.89239891;470.54195001;39835.000000;1.000000;1.000000;1.000000;1.000000;0.068219;-0.068219;0.068219;1.000000;0.6;0.615686;0.607843
445651.73719986;5696573.86439903;470.61874988;44975.000000;1.000000;1.000000;1.000000;1.000000;0.034399;-0.034399;0.034399;1.000000;0.694118;0.690196;0.67451
445651.93250092;5696573.77479942;470.55894997;47288.000000;1.000000;1.000000;1.000000;1.000000;-0.102930;0.102930;-0.102930;1.000000;0.741176;0.721569;0.686275
445651.70990189;5696573.63629921;470.43544986;46003.000000;1.000000;1.000000;1.000000;1.000000;-0.193701;0.193701;-0.193701;1.000000;0.72549;0.701961;0.658824
445651.90290268;5696573.76559933;470.57614996;51400.000000;1.000000;1.000000;1.000000;1.000000;-0.086187;0.086187;-0.086187;1.000000;0.796078;0.788235;0.752941
445651.86320313;5696573.73449905;470.56235005;52685.000000;1.000000;1.000000;1.000000;1.000000;-0.097105;0.097105;-0.097105;1.000000;0.815686;0.807843;0.772549
445652.00060089;5696573.97869881;470.56215002;26728.000000;1.000000;1.000000;1.000000;1.000000;-0.157939;0.157939;-0.157939;1.000000;0.423529;0.403922;0.403922
445651.60939987;5696573.75539883;470.58134987;51143.000000;1.000000;1.000000;1.000000;1.000000;-0.074601;0.074601;-0.074601;1.000000;0.788235;0.784314;0.74902
445651.82980164;5696574.08229931;470.62555005;49087.000000;1.000000;1.000000;1.000000;1.000000;0.015823;-0.015823;0.015823;1.000000;0.741176;0.756863;0.752941
445651.46249969;5696573.76129921;470.47934987;41377.000000;1.000000;1.000000;1.000000;1.000000;0.039375;-0.039375;0.039375;1.000000;0.639216;0.635294;0.611765
445651.96529968;5696573.93949898;470.59034993;38293.000000;1.000000;1.000000;1.000000;1.000000;-0.138181;0.138181;-0.138181;1.000000;0.596078;0.584314;0.580392
445651.50460251;5696573.94769867;470.55565001;37265.000000;1.000000;1.000000;1.000000;1.000000;-0.117730;0.117730;-0.117730;1.000000;0.592157;0.568627;0.537255
445652.01870163;5696574.06289871;470.59424998;58082.000000;1.000000;1.000000;1.000000;1.000000;-0.173077;0.173077;-0.173077;1.000000;0.886275;0.890196;0.886275
445651.90190323;5696573.73149879;470.52674987;50886.000000;1.000000;1.000000;1.000000;1.000000;-0.113445;0.113445;-0.113445;1.000000;0.792157;0.776471;0.745098
445651.78810318;5696573.74569901;470.59165003;22616.000000;1.000000;1.000000;1.000000;1.000000;-0.084448;0.084448;-0.084448;1.000000;0.352941;0.345098;0.329412
445651.49740036;5696573.76039894;470.48085000;37008.000000;1.000000;1.000000;1.000000;1.000000;0.004475;-0.004475;0.004475;1.000000;0.576471;0.568627;0.545098
445651.85290344;5696573.76759918;470.59955003;22873.000000;1.000000;1.000000;1.000000;1.000000;-0.062824;0.062824;-0.062824;1.000000;0.356863;0.34902;0.329412
445651.92510040;5696573.77079876;470.56095006;51914.000000;1.000000;1.000000;1.000000;1.000000;-0.099102;0.099102;-0.099102;1.000000;0.807843;0.792157;0.752941
445651.58450134;5696573.72849949;470.50775005;43690.000000;1.000000;1.000000;1.000000;1.000000;-0.082626;0.082626;-0.082626;1.000000;0.670588;0.670588;0.635294
445651.78610046;5696574.01619919;470.62745001;30583.000000;1.000000;1.000000;1.000000;1.000000;0.059525;-0.059525;0.059525;1.000000;0.466667;0.470588;0.458824
445651.82600220;5696573.94249924;470.62605001;43433.000000;1.000000;1.000000;1.000000;1.000000;0.068249;-0.068249;0.068249;1.000000;0.662745;0.670588;0.654902
445651.45850189;5696573.99219902;470.52845003;40606.000000;1.000000;1.000000;1.000000;1.000000;0.081627;-0.081627;0.081627;1.000000;0.639216;0.619608;0.580392
445651.79180344;5696573.90349873;470.63094999;51914.000000;1.000000;1.000000;1.000000;1.000000;0.073539;-0.073539;0.073539;1.000000;0.792157;0.796078;0.780392
445651.53230103;5696573.58589943;470.38025000;31354.000000;1.000000;1.000000;1.000000;1.000000;-0.030426;0.030426;-0.030426;1.000000;0.486275;0.482353;0.447059
445651.62050064;5696573.74509914;470.57474997;54741.000000;1.000000;1.000000;1.000000;1.000000;-0.084901;0.084901;-0.084901;1.000000;0.847059;0.839216;0.807843
445651.82130249;5696574.09239872;470.62754991;50886.000000;1.000000;1.000000;1.000000;1.000000;0.024323;-0.024323;0.024323;1.000000;0.764706;0.784314;0.780392
445651.90229996;5696573.97539909;470.60885002;46517.000000;1.000000;1.000000;1.000000;1.000000;-0.065491;0.065491;-0.065491;1.000000;0.713725;0.713725;0.705882
445651.89410217;5696573.71389874;470.50525000;48573.000000;1.000000;1.000000;1.000000;1.000000;-0.125815;0.125815;-0.125815;1.000000;0.760784;0.741176;0.705882
445651.98900040;5696574.04469879;470.59264996;29298.000000;1.000000;1.000000;1.000000;1.000000;-0.143375;0.143375;-0.143375;1.000000;0.45098;0.45098;0.423529
445651.82680328;5696573.72599895;470.57454993;44718.000000;1.000000;1.000000;1.000000;1.000000;-0.104001;0.104001;-0.104001;1.000000;0.686275;0.686275;0.654902
445651.88410004;5696574.14249905;470.63334991;53199.000000;1.000000;1.000000;1.000000;1.000000;-0.038475;0.038475;-0.038475;1.000000;0.796078;0.819608;0.819608
445651.70140274;5696573.61389931;470.42314984;34438.000000;1.000000;1.000000;1.000000;1.000000;-0.199528;0.199528;-0.199528;1.000000;0.552941;0.521569;0.490196
445651.48640259;5696574.04009922;470.58154990;39064.000000;1.000000;1.000000;1.000000;1.000000;0.109528;-0.109528;0.109528;1.000000;0.607843;0.6;0.568627
445651.50840195;5696573.84749897;470.52204992;27499.000000;1.000000;1.000000;1.000000;1.000000;0.018124;-0.018124;0.018124;1.000000;0.403922;0.427451;0.423529
445651.57400330;5696573.69969948;470.47194983;51400.000000;1.000000;1.000000;1.000000;1.000000;-0.072128;0.072128;-0.072128;1.000000;0.792157;0.788235;0.74902
445651.46980103;5696573.88829906;470.53005006;26471.000000;1.000000;1.000000;1.000000;1.000000;0.066540;-0.066540;0.066540;1.000000;0.403922;0.411765;0.372549
445651.89930161;5696573.73389919;470.53604986;49601.000000;1.000000;1.000000;1.000000;1.000000;-0.110075;0.110075;-0.110075;1.000000;0.772549;0.756863;0.72549
445651.89019974;5696573.64809902;470.40185000;8995.000000;1.000000;1.000000;1.000000;1.000000;-0.187283;0.187283;-0.187283;1.000000;0.152941;0.141176;0.105882
