//X;Y;Z;Intensity;Return Number;Number Of Returns;Scan Direction Flag;Point Source ID;C2M signed distances[-][<0.8];C2M signed distances[<0.4];C2M signed distances[-][<0.2];Stump28;Rf;Gf;Bf
299
445638.58910187;5696609.90920074;471.82074978;22873.000000;1.000000;1.000000;1.000000;1.000000;-0.079261;0.079261;-0.079261;1.000000;0.364706;0.352941;0.313725
445638.70409973;5696609.84009750;471.82284977;11051.000000;1.000000;1.000000;1.000000;1.000000;-0.108942;0.108942;-0.108942;1.000000;0.196078;0.164706;0.117647
445638.67580231;5696609.61429794;471.93295004;31611.000000;1.000000;1.000000;1.000000;1.000000;-0.080175;0.080175;-0.080175;1.000000;0.501961;0.490196;0.415686
445638.75170334;5696609.58219727;471.89414980;23387.000000;1.000000;1.000000;1.000000;1.000000;-0.156076;0.156076;-0.156076;1.000000;0.376471;0.360784;0.309804
445639.00760086;5696609.62969788;471.97144987;35466.000000;1.000000;1.000000;1.000000;1.000000;-0.056776;0.056776;-0.056776;1.000000;0.537255;0.568627;0.415686
445638.58720215;5696609.79839905;471.89395000;36494.000000;1.000000;1.000000;1.000000;1.000000;0.008425;-0.008425;0.008425;1.000000;0.580392;0.556863;0.509804
445638.55880173;5696609.72149857;471.89864971;16962.000000;1.000000;1.000000;1.000000;1.000000;0.036825;-0.036825;0.036825;1.000000;0.278431;0.266667;0.180392
445639.11639984;5696609.82060059;471.81565001;20303.000000;1.000000;1.000000;1.000000;1.000000;-0.009399;0.009399;-0.009399;1.000000;0.286275;0.337255;0.247059
445638.89650162;5696609.66279800;471.85734989;5397.000000;1.000000;1.000000;1.000000;1.000000;-0.167875;0.167875;-0.167875;1.000000;0.0862745;0.0862745;0.0666667
445638.55809982;5696609.76370056;471.89685013;13364.000000;1.000000;1.000000;1.000000;1.000000;0.037527;-0.037527;0.037527;1.000000;0.231373;0.207843;0.12549
445638.63300140;5696609.76370056;471.89554979;33667.000000;1.000000;1.000000;1.000000;1.000000;-0.037374;0.037374;-0.037374;1.000000;0.564706;0.509804;0.415686
445639.14650162;5696609.93350037;471.74375011;21331.000000;1.000000;1.000000;1.000000;1.000000;0.103500;-0.103500;0.103500;1.000000;0.32549;0.337255;0.286275
445639.10960205;5696609.85460098;471.77845003;14649.000000;1.000000;1.000000;1.000000;1.000000;0.024601;-0.024601;0.024601;1.000000;0.219608;0.235294;0.192157
445638.76880081;5696609.87179764;471.80284979;6425.000000;1.000000;1.000000;1.000000;1.000000;-0.178147;0.178147;-0.178147;1.000000;0.129412;0.0941176;0.0588235
445639.12570007;5696609.78809937;471.74805023;26214.000000;1.000000;1.000000;1.000000;1.000000;-0.030073;0.030073;-0.030073;1.000000;0.45098;0.388235;0.345098
445638.74860199;5696609.61699875;471.93164970;45232.000000;1.000000;1.000000;1.000000;1.000000;-0.152975;0.152975;-0.152975;1.000000;0.705882;0.690196;0.65098
445639.05770309;5696609.44520004;471.82245018;15163.000000;1.000000;1.000000;1.000000;1.000000;-0.006674;0.006674;-0.006674;1.000000;0.247059;0.243137;0.152941
445639.15139969;5696609.85529907;471.78494980;8738.000000;1.000000;1.000000;1.000000;1.000000;0.025299;-0.025299;0.025299;1.000000;0.129412;0.14902;0.0941176
445639.09300049;5696609.44669922;471.81944992;32382.000000;1.000000;1.000000;1.000000;1.000000;0.028624;-0.028624;0.028624;1.000000;0.517647;0.501961;0.388235
445638.71370132;5696609.62010010;471.93475010;37779.000000;1.000000;1.000000;1.000000;1.000000;-0.118074;0.118074;-0.118074;1.000000;0.592157;0.584314;0.509804
445639.14770325;5696609.89819916;471.74805023;15420.000000;1.000000;1.000000;1.000000;1.000000;0.068199;-0.068199;0.068199;1.000000;0.235294;0.243137;0.196078
445638.92540176;5696609.88559921;471.77974989;14906.000000;1.000000;1.000000;1.000000;1.000000;-0.149684;0.149684;-0.149684;1.000000;0.247059;0.231373;0.164706
445638.70660217;5696609.72649963;471.89615013;25957.000000;1.000000;1.000000;1.000000;1.000000;-0.110975;0.110975;-0.110975;1.000000;0.443137;0.392157;0.313725
445638.93100174;5696609.69879730;471.89195015;25700.000000;1.000000;1.000000;1.000000;1.000000;-0.135074;0.135074;-0.135074;1.000000;0.403922;0.396078;0.345098
445639.04689987;5696609.67219742;471.85965015;10023.000000;1.000000;1.000000;1.000000;1.000000;-0.017477;0.017477;-0.017477;1.000000;0.172549;0.152941;0.12549
445638.90100296;5696609.62909897;471.89444973;771.000000;1.000000;1.000000;1.000000;1.000000;-0.163374;0.163374;-0.163374;1.000000;0.0196078;0.0156863;0
445639.11850174;5696609.74559982;471.82175018;6425.000000;1.000000;1.000000;1.000000;1.000000;-0.022875;0.022875;-0.022875;1.000000;0.0823529;0.121569;0.0431373
445638.71190079;5696609.76409729;471.85724976;25186.000000;1.000000;1.000000;1.000000;1.000000;-0.116274;0.116274;-0.116274;1.000000;0.427451;0.384314;0.286275
445638.74430283;5696609.76859863;471.82144978;35980.000000;1.000000;1.000000;1.000000;1.000000;-0.148676;0.148676;-0.148676;1.000000;0.603922;0.541176;0.45098
445638.75050171;5696609.62199982;471.89914991;13107.000000;1.000000;1.000000;1.000000;1.000000;-0.154875;0.154875;-0.154875;1.000000;0.207843;0.203922;0.164706
445638.78730209;5696609.62150009;471.85895016;27756.000000;1.000000;1.000000;1.000000;1.000000;-0.191675;0.191675;-0.191675;1.000000;0.454902;0.423529;0.356863
445638.89510162;5696609.70030029;471.86235001;32896.000000;1.000000;1.000000;1.000000;1.000000;-0.170892;0.170892;-0.170892;1.000000;0.521569;0.501961;0.458824
445638.53260239;5696609.48900040;471.84114983;14135.000000;1.000000;1.000000;1.000000;1.000000;0.063025;-0.063025;0.063025;1.000000;0.243137;0.219608;0.121569
445638.74440201;5696609.73309906;471.84894993;36751.000000;1.000000;1.000000;1.000000;1.000000;-0.148775;0.148775;-0.148775;1.000000;0.564706;0.568627;0.513725
445638.66540344;5696609.76069839;471.89694979;7710.000000;1.000000;1.000000;1.000000;1.000000;-0.069777;0.069777;-0.069777;1.000000;0.156863;0.117647;0.0156863
445638.77960022;5696609.77009781;471.81844999;17733.000000;1.000000;1.000000;1.000000;1.000000;-0.183973;0.183973;-0.183973;1.000000;0.290196;0.286275;0.160784
445638.60460098;5696609.53140076;471.83564999;24929.000000;1.000000;1.000000;1.000000;1.000000;-0.008974;0.008974;-0.008974;1.000000;0.415686;0.392157;0.239216
445638.64400299;5696609.53000076;471.83974983;30840.000000;1.000000;1.000000;1.000000;1.000000;-0.048376;0.048376;-0.048376;1.000000;0.494118;0.490196;0.333333
445638.99750336;5696609.93269928;471.78125002;24672.000000;1.000000;1.000000;1.000000;1.000000;-0.122553;0.122553;-0.122553;1.000000;0.396078;0.380392;0.329412
445639.08230026;5696609.70689972;471.81965019;2570.000000;1.000000;1.000000;1.000000;1.000000;0.013327;-0.013327;0.013327;1.000000;0.0470588;0.0392157;0.027451
445638.70850189;5696609.68609818;471.92834999;11051.000000;1.000000;1.000000;1.000000;1.000000;-0.112875;0.112875;-0.112875;1.000000;0.192157;0.172549;0.113725
445638.89540298;5696609.62789734;471.85925009;3598.000000;1.000000;1.000000;1.000000;1.000000;-0.168974;0.168974;-0.168974;1.000000;0.054902;0.0588235;0.0352941
445639.11740311;5696609.78309830;471.81984999;16705.000000;1.000000;1.000000;1.000000;1.000000;-0.021776;0.021776;-0.021776;1.000000;0.239216;0.282353;0.160784
445639.04720123;5696609.70559891;471.81574966;2827.000000;1.000000;1.000000;1.000000;1.000000;-0.034290;0.034290;-0.034290;1.000000;0.0509804;0.0470588;0.0352941
445639.00470169;5696609.81809814;471.74534990;13107.000000;1.000000;1.000000;1.000000;1.000000;0.060851;-0.060851;0.060851;1.000000;0.188235;0.219608;0.137255
445639.04920013;5696609.67729767;471.81784966;4369.000000;1.000000;1.000000;1.000000;1.000000;-0.015236;0.015236;-0.015236;1.000000;0.0745098;0.0627451;0.0666667
445638.96680267;5696609.81229980;471.74585011;13364.000000;1.000000;1.000000;1.000000;1.000000;0.099167;-0.099167;0.099167;1.000000;0.203922;0.215686;0.141176
445639.01659973;5696609.67499741;471.86294987;3598.000000;1.000000;1.000000;1.000000;1.000000;-0.047777;0.047777;-0.047777;1.000000;0.0666667;0.054902;0.0431373
445638.96450241;5696609.73839767;471.85204985;2056.000000;1.000000;1.000000;1.000000;1.000000;-0.117419;0.117419;-0.117419;1.000000;0.0352941;0.0352941;0.0313725
445638.90310104;5696609.73689850;471.86315014;22359.000000;1.000000;1.000000;1.000000;1.000000;-0.172083;0.172083;-0.172083;1.000000;0.360784;0.341176;0.290196
445638.70990189;5696609.65320023;471.93265011;2827.000000;1.000000;1.000000;1.000000;1.000000;-0.114275;0.114275;-0.114275;1.000000;0.0588235;0.0431373;0.0196078
445638.70580109;5696609.80499847;471.81545021;25443.000000;1.000000;1.000000;1.000000;1.000000;-0.110174;0.110174;-0.110174;1.000000;0.431373;0.384314;0.32549
445638.66860016;5696609.80079849;471.85564997;22616.000000;1.000000;1.000000;1.000000;1.000000;-0.072973;0.072973;-0.072973;1.000000;0.407843;0.333333;0.262745
445638.55400284;5696609.86099823;471.82564976;11822.000000;1.000000;1.000000;1.000000;1.000000;-0.030998;0.030998;-0.030998;1.000000;0.188235;0.180392;0.164706
445639.08720215;5696609.60079773;471.85354998;10280.000000;1.000000;1.000000;1.000000;1.000000;0.008425;-0.008425;0.008425;1.000000;0.2;0.145098;0.117647
445639.00510223;5696609.70479782;471.81615021;3598.000000;1.000000;1.000000;1.000000;1.000000;-0.065931;0.065931;-0.065931;1.000000;0.0588235;0.0588235;0.0470588
445638.93180283;5696609.66649826;471.85895016;12079.000000;1.000000;1.000000;1.000000;1.000000;-0.132574;0.132574;-0.132574;1.000000;0.207843;0.184314;0.145098
445638.74240311;5696609.65780075;471.89454987;5911.000000;1.000000;1.000000;1.000000;1.000000;-0.146776;0.146776;-0.146776;1.000000;0.0980392;0.0941176;0.0823529
445639.01730164;5696609.66979797;471.88854982;1542.000000;1.000000;1.000000;1.000000;1.000000;-0.047075;0.047075;-0.047075;1.000000;0.0431373;0.0196078;0
445639.00410278;5696609.67040070;471.92514994;771.000000;1.000000;1.000000;1.000000;1.000000;-0.060274;0.060274;-0.060274;1.000000;0.027451;0.00784314;0.00392157
445638.96550186;5696609.77499969;471.74764969;22873.000000;1.000000;1.000000;1.000000;1.000000;0.113143;-0.113143;0.113143;1.000000;0.337255;0.376471;0.243137
445639.00530060;5696609.74040039;471.77934982;3598.000000;1.000000;1.000000;1.000000;1.000000;-0.087984;0.087984;-0.087984;1.000000;0.0509804;0.0627451;0.0431373
445639.04310043;5696609.59200104;471.93304970;33153.000000;1.000000;1.000000;1.000000;1.000000;-0.021276;0.021276;-0.021276;1.000000;0.521569;0.529412;0.364706
445639.08520325;5696609.62899979;471.85384991;28527.000000;1.000000;1.000000;1.000000;1.000000;0.010424;-0.010424;0.010424;1.000000;0.505882;0.419608;0.34902
445639.04170044;5696609.63469894;471.89615013;40092.000000;1.000000;1.000000;1.000000;1.000000;-0.022676;0.022676;-0.022676;1.000000;0.65098;0.607843;0.529412
445639.09250076;5696609.59149750;471.82114985;11051.000000;1.000000;1.000000;1.000000;1.000000;0.003126;-0.003126;0.003126;1.000000;0.211765;0.156863;0.137255
445638.89960297;5696609.73390015;471.77685024;20817.000000;1.000000;1.000000;1.000000;1.000000;-0.174935;0.174935;-0.174935;1.000000;0.321569;0.333333;0.25098
445638.59860046;5696609.80789764;471.81535007;33667.000000;1.000000;1.000000;1.000000;1.000000;-0.002974;0.002974;-0.002974;1.000000;0.521569;0.52549;0.462745
445638.67300232;5696609.61519821;471.89325001;20817.000000;1.000000;1.000000;1.000000;1.000000;-0.077375;0.077375;-0.077375;1.000000;0.317647;0.329412;0.262745
445638.74630173;5696609.65579803;471.85514977;12850.000000;1.000000;1.000000;1.000000;1.000000;-0.150675;0.150675;-0.150675;1.000000;0.192157;0.207843;0.152941
445638.74730118;5696609.65690048;471.78064968;7710.000000;1.000000;1.000000;1.000000;1.000000;-0.151674;0.151674;-0.151674;1.000000;0.113725;0.133333;0.0784314
445638.67360123;5696609.72489746;471.89925005;15420.000000;1.000000;1.000000;1.000000;1.000000;-0.077974;0.077974;-0.077974;1.000000;0.262745;0.235294;0.164706
445638.78550156;5696609.43540009;471.82404997;18761.000000;1.000000;1.000000;1.000000;1.000000;-0.105400;0.105400;-0.105400;1.000000;0.317647;0.290196;0.184314
445639.04230316;5696609.55869873;471.82774975;56540.000000;1.000000;1.000000;1.000000;1.000000;-0.022074;0.022074;-0.022074;1.000000;0.882353;0.866667;0.792157
445638.86930283;5696609.84609802;471.80004980;31868.000000;1.000000;1.000000;1.000000;1.000000;-0.195737;0.195737;-0.195737;1.000000;0.52549;0.486275;0.388235
445639.03520020;5696609.58189972;471.87894966;39321.000000;1.000000;1.000000;1.000000;1.000000;-0.029177;0.029177;-0.029177;1.000000;0.603922;0.623529;0.47451
445639.00240143;5696609.66259964;471.84114983;5140.000000;1.000000;1.000000;1.000000;1.000000;-0.061975;0.061975;-0.061975;1.000000;0.0862745;0.0823529;0.0588235
445638.92800339;5696609.65959747;471.87734987;21588.000000;1.000000;1.000000;1.000000;1.000000;-0.136374;0.136374;-0.136374;1.000000;0.341176;0.329412;0.298039
445638.92180069;5696609.55100067;471.84084990;38550.000000;1.000000;1.000000;1.000000;1.000000;-0.142576;0.142576;-0.142576;1.000000;0.627451;0.580392;0.529412
445638.69989975;5696609.50379761;471.84194996;14649.000000;1.000000;1.000000;1.000000;1.000000;-0.104273;0.104273;-0.104273;1.000000;0.2;0.266667;0.0745098
445638.86520203;5696609.54229935;471.83355000;29041.000000;1.000000;1.000000;1.000000;1.000000;-0.199175;0.199175;-0.199175;1.000000;0.494118;0.439216;0.356863
445638.92480286;5696609.91119965;471.79404976;10537.000000;1.000000;1.000000;1.000000;1.000000;-0.161475;0.161475;-0.161475;1.000000;0.184314;0.164706;0.0901961
445638.96280106;5696609.91699799;471.79355003;17733.000000;1.000000;1.000000;1.000000;1.000000;-0.133740;0.133740;-0.133740;1.000000;0.290196;0.27451;0.211765
445638.99440201;5696609.95379837;471.79075005;30583.000000;1.000000;1.000000;1.000000;1.000000;-0.142206;0.142206;-0.142206;1.000000;0.482353;0.470588;0.423529
445639.01540192;5696609.54709824;471.83104994;37522.000000;1.000000;1.000000;1.000000;1.000000;-0.048975;0.048975;-0.048975;1.000000;0.580392;0.588235;0.498039
445638.89060028;5696609.61689957;471.84025003;5140.000000;1.000000;1.000000;1.000000;1.000000;-0.173777;0.173777;-0.173777;1.000000;0.0862745;0.0823529;0.0392157
445639.11120041;5696609.88519867;471.75324966;10280.000000;1.000000;1.000000;1.000000;1.000000;0.055199;-0.055199;0.055199;1.000000;0.160784;0.160784;0.12549
445639.06970032;5696609.84679993;471.76485016;19018.000000;1.000000;1.000000;1.000000;1.000000;-0.016800;0.016800;-0.016800;1.000000;0.290196;0.301961;0.239216
445638.73320206;5696609.76000031;471.84184982;27499.000000;1.000000;1.000000;1.000000;1.000000;-0.137575;0.137575;-0.137575;1.000000;0.466667;0.411765;0.337255
445639.07160004;5696609.73620041;471.80555012;2570.000000;1.000000;1.000000;1.000000;1.000000;0.024027;-0.024027;0.024027;1.000000;0.0392157;0.0431373;0.0235294
445638.90130051;5696609.59449966;471.86844971;5397.000000;1.000000;1.000000;1.000000;1.000000;-0.163076;0.163076;-0.163076;1.000000;0.113725;0.0784314;0.0470588
445638.98360260;5696609.87129791;471.75435020;21588.000000;1.000000;1.000000;1.000000;1.000000;-0.090719;0.090719;-0.090719;1.000000;0.341176;0.337255;0.258824
445639.13590057;5696609.96949966;471.74375011;37779.000000;1.000000;1.000000;1.000000;1.000000;-0.139500;0.139500;-0.139500;1.000000;0.568627;0.592157;0.537255
445638.70770081;5696609.54260071;471.85435011;34695.000000;1.000000;1.000000;1.000000;1.000000;-0.112074;0.112074;-0.112074;1.000000;0.513725;0.568627;0.396078
445639.11410339;5696609.59659775;471.81745007;37008.000000;1.000000;1.000000;1.000000;1.000000;-0.018476;0.018476;-0.018476;1.000000;0.592157;0.568627;0.478431
445638.93530090;5696609.47709854;471.85454990;4883.000000;1.000000;1.000000;1.000000;1.000000;-0.129076;0.129076;-0.129076;1.000000;0.0784314;0.0784314;0.0431373
445638.96430023;5696609.44149979;471.86474993;26728.000000;1.000000;1.000000;1.000000;1.000000;-0.100077;0.100077;-0.100077;1.000000;0.427451;0.419608;0.317647
445638.95330246;5696609.66390045;471.89724972;40092.000000;1.000000;1.000000;1.000000;1.000000;-0.111074;0.111074;-0.111074;1.000000;0.65098;0.603922;0.572549
445639.01050003;5696609.40699966;471.85715010;39321.000000;1.000000;1.000000;1.000000;1.000000;-0.053877;0.053877;-0.053877;1.000000;0.603922;0.619608;0.501961
445639.03280075;5696609.55719955;471.82964994;58082.000000;1.000000;1.000000;1.000000;1.000000;-0.031576;0.031576;-0.031576;1.000000;0.894118;0.894118;0.827451
445638.59780319;5696609.50189789;471.82095005;23387.000000;1.000000;1.000000;1.000000;1.000000;-0.002176;0.002176;-0.002176;1.000000;0.392157;0.364706;0.239216
445638.82310303;5696609.43659790;471.82105019;23387.000000;1.000000;1.000000;1.000000;1.000000;-0.106598;0.106598;-0.106598;1.000000;0.376471;0.368627;0.243137
445638.69810303;5696609.99049957;471.80104973;11565.000000;1.000000;1.000000;1.000000;1.000000;-0.190424;0.190424;-0.190424;1.000000;0.203922;0.172549;0.141176
445638.73770340;5696609.50729950;471.84135010;34438.000000;1.000000;1.000000;1.000000;1.000000;-0.142076;0.142076;-0.142076;1.000000;0.509804;0.572549;0.345098
445638.59150131;5696609.86889847;471.83904984;19789.000000;1.000000;1.000000;1.000000;1.000000;0.039117;-0.039117;0.039117;1.000000;0.317647;0.301961;0.282353
445638.60060318;5696609.64969833;471.91134979;45746.000000;1.000000;1.000000;1.000000;1.000000;-0.004976;0.004976;-0.004976;1.000000;0.721569;0.701961;0.635294
445638.79190262;5696609.50939758;471.83454992;23901.000000;1.000000;1.000000;1.000000;1.000000;-0.179398;0.179398;-0.179398;1.000000;0.360784;0.396078;0.223529
445638.57230194;5696609.46199997;471.83794977;17219.000000;1.000000;1.000000;1.000000;1.000000;0.031815;-0.031815;0.031815;1.000000;0.294118;0.266667;0.160784
445638.75750168;5696609.46809967;471.83944990;31097.000000;1.000000;1.000000;1.000000;1.000000;-0.138100;0.138100;-0.138100;1.000000;0.482353;0.501961;0.333333
445638.97530182;5696609.63130005;471.91174986;13107.000000;1.000000;1.000000;1.000000;1.000000;-0.089075;0.089075;-0.089075;1.000000;0.203922;0.215686;0.137255
445638.63110168;5696609.57530029;471.85825016;20303.000000;1.000000;1.000000;1.000000;1.000000;-0.035475;0.035475;-0.035475;1.000000;0.368627;0.305882;0.192157
445638.91580017;5696609.92560013;471.81714966;23387.000000;1.000000;1.000000;1.000000;1.000000;-0.176676;0.176676;-0.176676;1.000000;0.376471;0.360784;0.298039
445638.97170074;5696609.44319733;471.86044981;26214.000000;1.000000;1.000000;1.000000;1.000000;-0.092676;0.092676;-0.092676;1.000000;0.423529;0.411765;0.305882
445639.06870087;5696609.81859787;471.78084995;6425.000000;1.000000;1.000000;1.000000;1.000000;0.011402;-0.011402;0.011402;1.000000;0.0862745;0.113725;0.0666667
445639.09970291;5696609.93309982;471.74394991;21845.000000;1.000000;1.000000;1.000000;1.000000;-0.103100;0.103100;-0.103100;1.000000;0.333333;0.34902;0.282353
445639.10050018;5696609.96800049;471.74674990;13621.000000;1.000000;1.000000;1.000000;1.000000;-0.138000;0.138000;-0.138000;1.000000;0.211765;0.215686;0.168627
445639.07769974;5696609.55789764;471.82004978;56540.000000;1.000000;1.000000;1.000000;1.000000;0.013323;-0.013323;0.013323;1.000000;0.886275;0.862745;0.819608
445638.58540161;5696609.71179779;471.91144993;32896.000000;1.000000;1.000000;1.000000;1.000000;0.010225;-0.010225;0.010225;1.000000;0.517647;0.509804;0.423529
445638.88459976;5696609.54979904;471.83454992;50372.000000;1.000000;1.000000;1.000000;1.000000;-0.179777;0.179777;-0.179777;1.000000;0.811765;0.764706;0.694118
445638.94170197;5696609.96259888;471.83734991;48830.000000;1.000000;1.000000;1.000000;1.000000;-0.180642;0.180642;-0.180642;1.000000;0.760784;0.745098;0.705882
445638.57540329;5696609.98530014;471.81644966;15934.000000;1.000000;1.000000;1.000000;1.000000;-0.155300;0.155300;-0.155300;1.000000;0.25098;0.243137;0.227451
445639.00550278;5696609.59609802;471.89405014;23644.000000;1.000000;1.000000;1.000000;1.000000;-0.058874;0.058874;-0.058874;1.000000;0.368627;0.372549;0.286275
445638.93060120;5696609.59369858;471.89064981;37265.000000;1.000000;1.000000;1.000000;1.000000;-0.133776;0.133776;-0.133776;1.000000;0.596078;0.564706;0.533333
445638.97060211;5696609.47849854;471.85384991;19275.000000;1.000000;1.000000;1.000000;1.000000;-0.093775;0.093775;-0.093775;1.000000;0.301961;0.305882;0.243137
445638.93650253;5696609.43960007;471.85414984;17990.000000;1.000000;1.000000;1.000000;1.000000;0.109600;-0.109600;0.109600;1.000000;0.286275;0.286275;0.184314
445639.08510025;5696609.41010101;471.81624987;18761.000000;1.000000;1.000000;1.000000;1.000000;0.020723;-0.020723;0.020723;1.000000;0.298039;0.309804;0.156863
445638.57890137;5696609.94759949;471.81615021;15420.000000;1.000000;1.000000;1.000000;1.000000;-0.117599;0.117599;-0.117599;1.000000;0.247059;0.235294;0.219608
445638.98750122;5696609.92650040;471.78305008;18247.000000;1.000000;1.000000;1.000000;1.000000;-0.123378;0.123378;-0.123378;1.000000;0.294118;0.286275;0.223529
445639.13730057;5696609.93429764;471.74335005;15163.000000;1.000000;1.000000;1.000000;1.000000;0.104298;-0.104298;0.104298;1.000000;0.231373;0.243137;0.188235
445639.10310181;5696609.89539917;471.74604990;19789.000000;1.000000;1.000000;1.000000;1.000000;-0.065399;0.065399;-0.065399;1.000000;0.309804;0.309804;0.266667
445638.62820251;5696609.61239822;471.89584972;26471.000000;1.000000;1.000000;1.000000;1.000000;-0.032576;0.032576;-0.032576;1.000000;0.439216;0.407843;0.317647
445638.74270065;5696609.58539780;471.89374973;15934.000000;1.000000;1.000000;1.000000;1.000000;-0.147074;0.147074;-0.147074;1.000000;0.254902;0.25098;0.196078
445639.06440170;5696609.93169983;471.74704983;24415.000000;1.000000;1.000000;1.000000;1.000000;-0.101700;0.101700;-0.101700;1.000000;0.396078;0.376471;0.321569
445638.57980164;5696609.90999802;471.82035019;23130.000000;1.000000;1.000000;1.000000;1.000000;-0.079998;0.079998;-0.079998;1.000000;0.372549;0.352941;0.321569
445639.04220016;5696609.55639847;471.82544996;57825.000000;1.000000;1.000000;1.000000;1.000000;-0.022177;0.022177;-0.022177;1.000000;0.905882;0.886275;0.819608
445638.55310257;5696609.68469818;471.89564993;34181.000000;1.000000;1.000000;1.000000;1.000000;0.042524;-0.042524;0.042524;1.000000;0.556863;0.521569;0.431373
445638.61750229;5696609.91129883;471.81745007;22873.000000;1.000000;1.000000;1.000000;1.000000;-0.084190;0.084190;-0.084190;1.000000;0.360784;0.352941;0.305882
445638.66660126;5696609.61519821;471.93254997;24415.000000;1.000000;1.000000;1.000000;1.000000;-0.070974;0.070974;-0.070974;1.000000;0.388235;0.380392;0.305882
445639.00300034;5696609.63009842;471.96894981;25443.000000;1.000000;1.000000;1.000000;1.000000;-0.061377;0.061377;-0.061377;1.000000;0.384314;0.415686;0.270588
445639.01150330;5696609.44199951;471.85524990;19018.000000;1.000000;1.000000;1.000000;1.000000;-0.052874;0.052874;-0.052874;1.000000;0.301961;0.301961;0.227451
445638.58460052;5696609.79630096;471.89605000;31611.000000;1.000000;1.000000;1.000000;1.000000;0.011026;-0.011026;0.011026;1.000000;0.505882;0.486275;0.431373
445638.62320145;5696609.75989731;471.89744999;26728.000000;1.000000;1.000000;1.000000;1.000000;-0.027575;0.027575;-0.027575;1.000000;0.454902;0.403922;0.301961
445638.89150055;5696609.66089828;471.85944988;7453.000000;1.000000;1.000000;1.000000;1.000000;-0.172876;0.172876;-0.172876;1.000000;0.121569;0.117647;0.0784314
445638.54860123;5696609.75989731;471.89174988;11565.000000;1.000000;1.000000;1.000000;1.000000;0.047026;-0.047026;0.047026;1.000000;0.211765;0.180392;0.0784314
445638.55200012;5696609.72220047;471.89374973;16448.000000;1.000000;1.000000;1.000000;1.000000;0.043627;-0.043627;0.043627;1.000000;0.266667;0.258824;0.184314
445639.10250290;5696609.85519989;471.78044989;10537.000000;1.000000;1.000000;1.000000;1.000000;-0.025200;0.025200;-0.025200;1.000000;0.160784;0.168627;0.129412
445639.14190109;5696609.82049759;471.82144978;16191.000000;1.000000;1.000000;1.000000;1.000000;-0.009502;0.009502;-0.009502;1.000000;0.219608;0.278431;0.172549
445638.58710297;5696609.64879807;471.89674999;42405.000000;1.000000;1.000000;1.000000;1.000000;0.008524;-0.008524;0.008524;1.000000;0.678431;0.65098;0.572549
445639.07300003;5696609.70779999;471.81924965;3084.000000;1.000000;1.000000;1.000000;1.000000;0.022627;-0.022627;0.022627;1.000000;0.0627451;0.0470588;0.0392157
445638.74419983;5696609.61969955;471.93144991;37522.000000;1.000000;1.000000;1.000000;1.000000;-0.148573;0.148573;-0.148573;1.000000;0.588235;0.576471;0.533333
445639.04090317;5696609.59219940;471.93055012;37265.000000;1.000000;1.000000;1.000000;1.000000;-0.023474;0.023474;-0.023474;1.000000;0.611765;0.576471;0.443137
445639.08380325;5696609.44750031;471.81904985;30069.000000;1.000000;1.000000;1.000000;1.000000;0.019426;-0.019426;0.019426;1.000000;0.482353;0.470588;0.360784
445639.13820084;5696609.89679916;471.74764969;8481.000000;1.000000;1.000000;1.000000;1.000000;0.066799;-0.066799;0.066799;1.000000;0.133333;0.137255;0.0941176
445638.73260315;5696609.84219940;471.81714966;10023.000000;1.000000;1.000000;1.000000;1.000000;-0.137518;0.137518;-0.137518;1.000000;0.176471;0.14902;0.117647
445638.73579987;5696609.80439957;471.82385017;28784.000000;1.000000;1.000000;1.000000;1.000000;-0.140173;0.140173;-0.140173;1.000000;0.486275;0.431373;0.376471
445638.70390137;5696609.61409958;471.93195011;39578.000000;1.000000;1.000000;1.000000;1.000000;-0.108274;0.108274;-0.108274;1.000000;0.603922;0.619608;0.545098
445638.92230042;5696609.73760040;471.85475018;21588.000000;1.000000;1.000000;1.000000;1.000000;-0.154576;0.154576;-0.154576;1.000000;0.337255;0.333333;0.298039
445638.70440109;5696609.72680099;471.89365007;27499.000000;1.000000;1.000000;1.000000;1.000000;-0.108774;0.108774;-0.108774;1.000000;0.462745;0.415686;0.341176
445638.92900284;5696609.70129974;471.88954975;28784.000000;1.000000;1.000000;1.000000;1.000000;-0.137468;0.137468;-0.137468;1.000000;0.45098;0.443137;0.392157
445639.04370316;5696609.51899918;471.81804993;21331.000000;1.000000;1.000000;1.000000;1.000000;-0.020674;0.020674;-0.020674;1.000000;0.345098;0.341176;0.219608
445638.99940308;5696609.67309769;471.92964985;4112.000000;1.000000;1.000000;1.000000;1.000000;-0.064974;0.064974;-0.064974;1.000000;0.0784314;0.0627451;0.0431373
445638.77680023;5696609.58289917;471.85564997;23644.000000;1.000000;1.000000;1.000000;1.000000;-0.181173;0.181173;-0.181173;1.000000;0.392157;0.356863;0.305882
445638.91830261;5696609.88629730;471.78184988;18247.000000;1.000000;1.000000;1.000000;1.000000;-0.156547;0.156547;-0.156547;1.000000;0.294118;0.286275;0.2
445638.61860092;5696609.84049805;471.85395004;22359.000000;1.000000;1.000000;1.000000;1.000000;-0.025259;0.025259;-0.025259;1.000000;0.376471;0.333333;0.298039
445638.89439972;5696609.59060104;471.85645010;3855.000000;1.000000;1.000000;1.000000;1.000000;-0.169977;0.169977;-0.169977;1.000000;0.0745098;0.054902;0.0392157
445639.04260071;5696609.48169907;471.81755020;2056.000000;1.000000;1.000000;1.000000;1.000000;-0.021776;0.021776;-0.021776;1.000000;0.0431373;0.0352941;0.0117647
445638.92480286;5696609.65959747;471.89584972;11308.000000;1.000000;1.000000;1.000000;1.000000;-0.139574;0.139574;-0.139574;1.000000;0.2;0.168627;0.141176
445638.75650223;5696609.50789841;471.83984997;32639.000000;1.000000;1.000000;1.000000;1.000000;-0.160875;0.160875;-0.160875;1.000000;0.486275;0.541176;0.333333
445638.88610275;5696609.70120056;471.85505011;20303.000000;1.000000;1.000000;1.000000;1.000000;-0.179949;0.179949;-0.179949;1.000000;0.321569;0.313725;0.286275
445638.66120346;5696609.76349838;471.89214994;15934.000000;1.000000;1.000000;1.000000;1.000000;-0.065577;0.065577;-0.065577;1.000000;0.290196;0.239216;0.137255
445638.91720016;5696609.84670074;471.77664997;14649.000000;1.000000;1.000000;1.000000;1.000000;-0.148121;0.148121;-0.148121;1.000000;0.247059;0.227451;0.152941
445639.10680206;5696609.74439819;471.81895020;7196.000000;1.000000;1.000000;1.000000;1.000000;-0.011175;0.011175;-0.011175;1.000000;0.101961;0.12549;0.0666667
445638.62339981;5696609.87560089;471.81955006;20560.000000;1.000000;1.000000;1.000000;1.000000;-0.053393;0.053393;-0.053393;1.000000;0.337255;0.313725;0.278431
445638.69920166;5696609.68929871;471.93265011;17733.000000;1.000000;1.000000;1.000000;1.000000;-0.103575;0.103575;-0.103575;1.000000;0.298039;0.27451;0.2
445638.89299973;5696609.62579926;471.85675003;3598.000000;1.000000;1.000000;1.000000;1.000000;-0.171377;0.171377;-0.171377;1.000000;0.0509804;0.0627451;0.0313725
445638.96220215;5696609.73859985;471.85195019;2570.000000;1.000000;1.000000;1.000000;1.000000;-0.119488;0.119488;-0.119488;1.000000;0.0431373;0.0431373;0.0392157
445638.74139984;5696609.69539841;471.89034988;4883.000000;1.000000;1.000000;1.000000;1.000000;-0.145773;0.145773;-0.145773;1.000000;0.0509804;0.0941176;0.054902
445638.70280273;5696609.65389832;471.93464996;4883.000000;1.000000;1.000000;1.000000;1.000000;-0.107176;0.107176;-0.107176;1.000000;0.0862745;0.0745098;0.0470588
445638.99800308;5696609.70540054;471.81815006;3855.000000;1.000000;1.000000;1.000000;1.000000;-0.072607;0.072607;-0.072607;1.000000;0.0666667;0.0627451;0.0431373
445639.02980240;5696609.78319748;471.73904993;4112.000000;1.000000;1.000000;1.000000;1.000000;0.058188;-0.058188;0.058188;1.000000;0.0627451;0.0705882;0.054902
445638.99220093;5696609.78199966;471.74195005;8995.000000;1.000000;1.000000;1.000000;1.000000;0.086680;-0.086680;0.086680;1.000000;0.129412;0.152941;0.0784314
445639.03250320;5696609.81550034;471.74655010;7710.000000;1.000000;1.000000;1.000000;1.000000;0.035017;-0.035017;0.035017;1.000000;0.121569;0.121569;0.0862745
445638.88150223;5696609.66020020;471.81934978;28784.000000;1.000000;1.000000;1.000000;1.000000;-0.182875;0.182875;-0.182875;1.000000;0.439216;0.454902;0.384314
445639.07769974;5696609.59939774;471.85314991;14392.000000;1.000000;1.000000;1.000000;1.000000;0.013323;-0.013323;0.013323;1.000000;0.254902;0.211765;0.184314
445639.03970154;5696609.67049988;471.85925009;37008.000000;1.000000;1.000000;1.000000;1.000000;-0.024675;0.024675;-0.024675;1.000000;0.588235;0.560784;0.552941
445638.96320160;5696609.77519806;471.74755003;21074.000000;1.000000;1.000000;1.000000;1.000000;0.115064;-0.115064;0.115064;1.000000;0.313725;0.345098;0.223529
445639.00530060;5696609.74040039;471.77934982;3598.000000;1.000000;1.000000;1.000000;1.000000;-0.087984;0.087984;-0.087984;1.000000;0.0509804;0.0627451;0.0392157
445639.04170044;5696609.63469894;471.89615013;40092.000000;1.000000;1.000000;1.000000;1.000000;-0.022676;0.022676;-0.022676;1.000000;0.65098;0.607843;0.529412
445638.61450012;5696609.79649933;471.85314991;26728.000000;1.000000;1.000000;1.000000;1.000000;-0.018873;0.018873;-0.018873;1.000000;0.415686;0.419608;0.352941
445638.67300232;5696609.61519821;471.89325001;20817.000000;1.000000;1.000000;1.000000;1.000000;-0.077375;0.077375;-0.077375;1.000000;0.317647;0.329412;0.262745
445638.74380310;5696609.65600021;471.85734989;14649.000000;1.000000;1.000000;1.000000;1.000000;-0.148176;0.148176;-0.148176;1.000000;0.219608;0.235294;0.180392
445638.74040039;5696609.65979965;471.78504993;7710.000000;1.000000;1.000000;1.000000;1.000000;-0.144773;0.144773;-0.144773;1.000000;0.113725;0.133333;0.0784314
445638.58900269;5696609.75119980;471.91204979;37779.000000;1.000000;1.000000;1.000000;1.000000;0.006624;-0.006624;0.006624;1.000000;0.611765;0.576471;0.501961
445638.72980316;5696609.90569885;471.80384972;34695.000000;1.000000;1.000000;1.000000;1.000000;-0.154057;0.154057;-0.154057;1.000000;0.556863;0.52549;0.478431
445638.83390244;5696609.42629822;471.81914999;19018.000000;1.000000;1.000000;1.000000;1.000000;0.096298;-0.096298;0.096298;1.000000;0.309804;0.301961;0.188235
445639.03560074;5696609.92719849;471.75495007;35466.000000;1.000000;1.000000;1.000000;1.000000;-0.101369;0.101369;-0.101369;1.000000;0.564706;0.541176;0.478431
445639.15110214;5696609.85289963;471.78725006;7710.000000;1.000000;1.000000;1.000000;1.000000;0.022900;-0.022900;0.022900;1.000000;0.109804;0.129412;0.0784314
445638.62530334;5696609.71509750;471.91324999;33410.000000;1.000000;1.000000;1.000000;1.000000;-0.029676;0.029676;-0.029676;1.000000;0.541176;0.513725;0.435294
445638.58839996;5696609.62800034;471.87795021;16962.000000;1.000000;1.000000;1.000000;1.000000;0.007227;-0.007227;0.007227;1.000000;0.301961;0.258824;0.145098
445638.57090195;5696609.49040039;471.82194998;30326.000000;1.000000;1.000000;1.000000;1.000000;0.024725;-0.024725;0.024725;1.000000;0.494118;0.47451;0.34902
445638.67250259;5696609.48530014;471.84044983;16191.000000;1.000000;1.000000;1.000000;1.000000;-0.076876;0.076876;-0.076876;1.000000;0.25098;0.270588;0.113725
445638.60090073;5696609.44520004;471.84145023;22102.000000;1.000000;1.000000;1.000000;1.000000;-0.038724;0.038724;-0.038724;1.000000;0.368627;0.34902;0.215686
445638.73670013;5696609.66869934;471.83395006;3341.000000;1.000000;1.000000;1.000000;1.000000;-0.141073;0.141073;-0.141073;1.000000;0.0745098;0.0470588;0.0196078
445638.57160004;5696609.79780014;471.87454988;27499.000000;1.000000;1.000000;1.000000;1.000000;0.024027;-0.024027;0.024027;1.000000;0.443137;0.423529;0.356863
445638.60290344;5696610.02269943;471.80174973;26214.000000;1.000000;1.000000;1.000000;1.000000;-0.192837;0.192837;-0.192837;1.000000;0.403922;0.403922;0.372549
445638.61050232;5696609.87179764;471.83995010;7710.000000;1.000000;1.000000;1.000000;1.000000;-0.044366;0.044366;-0.044366;1.000000;0.12549;0.117647;0.101961
445638.77410324;5696609.54599960;471.83874990;41634.000000;1.000000;1.000000;1.000000;1.000000;-0.178476;0.178476;-0.178476;1.000000;0.635294;0.658824;0.533333
445638.94420059;5696609.92320068;471.80434992;12593.000000;1.000000;1.000000;1.000000;1.000000;-0.152081;0.152081;-0.152081;1.000000;0.207843;0.2;0.137255
445638.98030289;5696609.89019974;471.76364996;33410.000000;1.000000;1.000000;1.000000;1.000000;-0.103404;0.103404;-0.103404;1.000000;0.529412;0.513725;0.447059
445639.01750000;5696609.96380051;471.76394989;27499.000000;1.000000;1.000000;1.000000;1.000000;-0.141775;0.141775;-0.141775;1.000000;0.427451;0.427451;0.360784
445638.99930008;5696609.48069962;471.84355022;6682.000000;1.000000;1.000000;1.000000;1.000000;-0.065077;0.065077;-0.065077;1.000000;0.109804;0.109804;0.0666667
445638.99850281;5696609.51829727;471.83465006;10023.000000;1.000000;1.000000;1.000000;1.000000;-0.065874;0.065874;-0.065874;1.000000;0.156863;0.160784;0.105882
445638.66530045;5696609.63379868;471.94904997;40606.000000;1.000000;1.000000;1.000000;1.000000;-0.069674;0.069674;-0.069674;1.000000;0.639216;0.623529;0.560784
445638.60040100;5696609.59910019;471.86184980;32382.000000;1.000000;1.000000;1.000000;1.000000;-0.004774;0.004774;-0.004774;1.000000;0.533333;0.494118;0.392157
445639.01510056;5696609.58180054;471.85704996;25443.000000;1.000000;1.000000;1.000000;1.000000;-0.049276;0.049276;-0.049276;1.000000;0.403922;0.396078;0.309804
445639.01410110;5696609.58830078;471.89435007;44461.000000;1.000000;1.000000;1.000000;1.000000;-0.050276;0.050276;-0.050276;1.000000;0.690196;0.694118;0.584314
445639.07840164;5696609.84580048;471.77694990;16191.000000;1.000000;1.000000;1.000000;1.000000;-0.015800;0.015800;-0.015800;1.000000;0.243137;0.258824;0.203922
445638.92910202;5696609.73010071;471.84334995;19532.000000;1.000000;1.000000;1.000000;1.000000;-0.145515;0.145515;-0.145515;1.000000;0.329412;0.294118;0.258824
445638.65880020;5696610.01759918;471.79495003;12593.000000;1.000000;1.000000;1.000000;1.000000;-0.197950;0.197950;-0.197950;1.000000;0.203922;0.192157;0.164706
445638.66440018;5696609.86709793;471.82604982;21845.000000;1.000000;1.000000;1.000000;1.000000;-0.078141;0.078141;-0.078141;1.000000;0.352941;0.337255;0.27451
445638.92240341;5696609.95279892;471.83164980;53456.000000;1.000000;1.000000;1.000000;1.000000;-0.187713;0.187713;-0.187713;1.000000;0.835294;0.815686;0.768627
445638.97480209;5696609.62209900;471.90234997;3598.000000;1.000000;1.000000;1.000000;1.000000;-0.089575;0.089575;-0.089575;1.000000;0.0705882;0.054902;0.0196078
445638.93920334;5696609.61609848;471.90294983;19532.000000;1.000000;1.000000;1.000000;1.000000;-0.125174;0.125174;-0.125174;1.000000;0.317647;0.298039;0.254902
445638.96940048;5696609.53489883;471.84044983;6425.000000;1.000000;1.000000;1.000000;1.000000;-0.094976;0.094976;-0.094976;1.000000;0.113725;0.0980392;0.0666667
445638.55430038;5696609.86329849;471.82334997;7196.000000;1.000000;1.000000;1.000000;1.000000;-0.033298;0.033298;-0.033298;1.000000;0.117647;0.113725;0.101961
445638.55620010;5696609.82519730;471.85785009;30583.000000;1.000000;1.000000;1.000000;1.000000;0.005003;-0.005003;0.005003;1.000000;0.486275;0.466667;0.435294
445638.64240082;5696609.56970032;471.85405018;28784.000000;1.000000;1.000000;1.000000;1.000000;-0.046774;0.046774;-0.046774;1.000000;0.490196;0.435294;0.329412
445639.11040314;5696609.92280014;471.74434998;17990.000000;1.000000;1.000000;1.000000;1.000000;0.092800;-0.092800;0.092800;1.000000;0.278431;0.282353;0.223529
445638.74630173;5696609.52519806;471.84194996;31868.000000;1.000000;1.000000;1.000000;1.000000;-0.150675;0.150675;-0.150675;1.000000;0.462745;0.529412;0.321569
445638.78320129;5696609.49149902;471.83624985;39578.000000;1.000000;1.000000;1.000000;1.000000;-0.161499;0.161499;-0.161499;1.000000;0.607843;0.631373;0.47451
445638.97470291;5696609.61759766;471.89524986;1799.000000;1.000000;1.000000;1.000000;1.000000;-0.089674;0.089674;-0.089674;1.000000;0.0392157;0.027451;0.00784314
445639.04880341;5696609.58499725;471.89594986;36751.000000;1.000000;1.000000;1.000000;1.000000;-0.015574;0.015574;-0.015574;1.000000;0.576471;0.576471;0.454902
445638.90290268;5696609.58049973;471.85435011;8224.000000;1.000000;1.000000;1.000000;1.000000;-0.161474;0.161474;-0.161474;1.000000;0.160784;0.113725;0.0980392
445638.94380005;5696609.46919830;471.85715010;11565.000000;1.000000;1.000000;1.000000;1.000000;-0.120577;0.120577;-0.120577;1.000000;0.180392;0.188235;0.12549
445638.94500168;5696609.43179901;471.85675003;19018.000000;1.000000;1.000000;1.000000;1.000000;-0.101799;0.101799;-0.101799;1.000000;0.305882;0.305882;0.196078
445638.74890335;5696609.45030029;471.83654978;35723.000000;1.000000;1.000000;1.000000;1.000000;0.120300;-0.120300;0.120300;1.000000;0.556863;0.564706;0.423529
445638.99960144;5696609.95579727;471.78165009;26471.000000;1.000000;1.000000;1.000000;1.000000;-0.141495;0.141495;-0.141495;1.000000;0.415686;0.407843;0.356863
445639.11160095;5696609.88759811;471.74865009;8481.000000;1.000000;1.000000;1.000000;1.000000;0.057598;-0.057598;0.057598;1.000000;0.137255;0.133333;0.101961
445638.63920029;5696609.60439880;471.89395000;26214.000000;1.000000;1.000000;1.000000;1.000000;-0.043573;0.043573;-0.043573;1.000000;0.435294;0.403922;0.305882
445638.75230225;5696609.57110031;471.85675003;35723.000000;1.000000;1.000000;1.000000;1.000000;-0.156675;0.156675;-0.156675;1.000000;0.545098;0.556863;0.486275
445638.79630096;5696609.42510040;471.82205011;17990.000000;1.000000;1.000000;1.000000;1.000000;0.095100;-0.095100;0.095100;1.000000;0.317647;0.278431;0.168627
445638.92540176;5696609.67639740;471.86584999;11565.000000;1.000000;1.000000;1.000000;1.000000;-0.138975;0.138975;-0.138975;1.000000;0.192157;0.176471;0.137255
445639.07300003;5696609.92159851;471.74265005;25957.000000;1.000000;1.000000;1.000000;1.000000;-0.091599;0.091599;-0.091599;1.000000;0.431373;0.392157;0.337255
445638.96010025;5696609.95179947;471.82175018;30840.000000;1.000000;1.000000;1.000000;1.000000;-0.160339;0.160339;-0.160339;1.000000;0.486275;0.47451;0.431373
445638.60630234;5696609.49180038;471.81895020;25443.000000;1.000000;1.000000;1.000000;1.000000;-0.010675;0.010675;-0.010675;1.000000;0.411765;0.403922;0.270588
445638.93160065;5696609.65659912;471.89615013;27242.000000;1.000000;1.000000;1.000000;1.000000;-0.132776;0.132776;-0.132776;1.000000;0.439216;0.411765;0.384314
445638.62580307;5696609.90109833;471.82004978;21588.000000;1.000000;1.000000;1.000000;1.000000;-0.077237;0.077237;-0.077237;1.000000;0.345098;0.333333;0.286275
445638.67760284;5696609.60719879;471.93064978;29041.000000;1.000000;1.000000;1.000000;1.000000;-0.081976;0.081976;-0.081976;1.000000;0.454902;0.45098;0.372549
445638.67920120;5696609.56609924;471.86035015;21588.000000;1.000000;1.000000;1.000000;1.000000;-0.083574;0.083574;-0.083574;1.000000;0.34902;0.345098;0.223529
445639.14570053;5696609.92420013;471.74364998;22873.000000;1.000000;1.000000;1.000000;1.000000;0.094200;-0.094200;0.094200;1.000000;0.352941;0.360784;0.309804
445639.00900085;5696609.62019928;471.97144987;30583.000000;1.000000;1.000000;1.000000;1.000000;-0.055376;0.055376;-0.055376;1.000000;0.458824;0.501961;0.301961
445639.01780136;5696609.43440063;471.85545017;17990.000000;1.000000;1.000000;1.000000;1.000000;-0.046576;0.046576;-0.046576;1.000000;0.278431;0.290196;0.203922
445639.11359985;5696609.84939774;471.78324987;17990.000000;1.000000;1.000000;1.000000;1.000000;0.019398;-0.019398;0.019398;1.000000;0.270588;0.286275;0.243137
445639.00780304;5696609.65539749;471.96715023;14906.000000;1.000000;1.000000;1.000000;1.000000;-0.056574;0.056574;-0.056574;1.000000;0.239216;0.231373;0.176471
445638.62980087;5696609.75469788;471.89535000;14392.000000;1.000000;1.000000;1.000000;1.000000;-0.034174;0.034174;-0.034174;1.000000;0.247059;0.223529;0.141176
445639.08130081;5696609.69759949;471.82184984;3598.000000;1.000000;1.000000;1.000000;1.000000;0.014326;-0.014326;0.014326;1.000000;0.0627451;0.0588235;0.0392157
445638.90220078;5696609.61499985;471.89195015;3084.000000;1.000000;1.000000;1.000000;1.000000;-0.162176;0.162176;-0.162176;1.000000;0.0627451;0.0470588;0.00784314
445638.63900192;5696609.64129837;471.92464973;47545.000000;1.000000;1.000000;1.000000;1.000000;-0.043375;0.043375;-0.043375;1.000000;0.741176;0.729412;0.670588
445638.75030334;5696609.60980042;471.93164970;35209.000000;1.000000;1.000000;1.000000;1.000000;-0.154676;0.154676;-0.154676;1.000000;0.556863;0.541176;0.466667
445638.59780319;5696609.63849838;471.89715006;26214.000000;1.000000;1.000000;1.000000;1.000000;-0.002176;0.002176;-0.002176;1.000000;0.419608;0.407843;0.337255
445638.71249969;5696609.60629852;471.93225004;49344.000000;1.000000;1.000000;1.000000;1.000000;-0.116873;0.116873;-0.116873;1.000000;0.752941;0.768627;0.686275
445639.05700119;5696609.43829926;471.82235004;21074.000000;1.000000;1.000000;1.000000;1.000000;-0.007376;0.007376;-0.007376;1.000000;0.333333;0.333333;0.235294
445639.14880188;5696609.85309799;471.78714993;10280.000000;1.000000;1.000000;1.000000;1.000000;0.023098;-0.023098;0.023098;1.000000;0.145098;0.172549;0.113725
445639.09449966;5696609.43720062;471.81934978;37779.000000;1.000000;1.000000;1.000000;1.000000;0.030123;-0.030123;0.030123;1.000000;0.603922;0.584314;0.466667
445638.99010284;5696609.91290100;471.74814989;7710.000000;1.000000;1.000000;1.000000;1.000000;-0.111307;0.111307;-0.111307;1.000000;0.129412;0.121569;0.0666667
445639.14669998;5696609.88669785;471.74554970;10537.000000;1.000000;1.000000;1.000000;1.000000;0.056698;-0.056698;0.056698;1.000000;0.160784;0.172549;0.129412
445638.97910126;5696609.47069748;471.85645010;31097.000000;1.000000;1.000000;1.000000;1.000000;-0.085276;0.085276;-0.085276;1.000000;0.478431;0.486275;0.407843
445638.93520172;5696609.69370087;471.89204981;24158.000000;1.000000;1.000000;1.000000;1.000000;-0.130194;0.130194;-0.130194;1.000000;0.384314;0.372549;0.32549
445638.55809982;5696609.71459778;471.89855005;16191.000000;1.000000;1.000000;1.000000;1.000000;0.037527;-0.037527;0.037527;1.000000;0.270588;0.254902;0.168627
445638.74080093;5696609.82969864;471.81734993;16705.000000;1.000000;1.000000;1.000000;1.000000;-0.145174;0.145174;-0.145174;1.000000;0.290196;0.247059;0.219608
445639.07410248;5696609.88410004;471.74454977;15163.000000;1.000000;1.000000;1.000000;1.000000;-0.054100;0.054100;-0.054100;1.000000;0.243137;0.235294;0.180392
445639.08350189;5696609.66189774;471.85414984;6425.000000;1.000000;1.000000;1.000000;1.000000;0.012125;-0.012125;0.012125;1.000000;0.109804;0.0980392;0.0666667
445639.11800201;5696609.81339844;471.81794979;20046.000000;1.000000;1.000000;1.000000;1.000000;-0.016602;0.016602;-0.016602;1.000000;0.282353;0.333333;0.231373
445638.75270279;5696609.64509781;471.89954998;7196.000000;1.000000;1.000000;1.000000;1.000000;-0.157076;0.157076;-0.157076;1.000000;0.12549;0.109804;0.0901961
445638.89430054;5696609.68879898;471.85524990;6682.000000;1.000000;1.000000;1.000000;1.000000;-0.170506;0.170506;-0.170506;1.000000;0.117647;0.101961;0.0784314
445638.66540344;5696609.76069839;471.89694979;7967.000000;1.000000;1.000000;1.000000;1.000000;-0.069777;0.069777;-0.069777;1.000000;0.160784;0.121569;0.0156863
445639.03870209;5696609.88270004;471.74764969;16962.000000;1.000000;1.000000;1.000000;1.000000;-0.058622;0.058622;-0.058622;1.000000;0.282353;0.262745;0.192157
445638.78110321;5696609.76059921;471.81834986;22102.000000;1.000000;1.000000;1.000000;1.000000;-0.185476;0.185476;-0.185476;1.000000;0.356863;0.34902;0.247059
445639.11430176;5696609.77400024;471.81965019;15163.000000;1.000000;1.000000;1.000000;1.000000;-0.018675;0.018675;-0.018675;1.000000;0.215686;0.258824;0.145098
445639.00050171;5696609.84879883;471.74784996;14649.000000;1.000000;1.000000;1.000000;1.000000;-0.066584;0.066584;-0.066584;1.000000;0.219608;0.235294;0.176471
445638.78630264;5696609.60999878;471.85645010;19275.000000;1.000000;1.000000;1.000000;1.000000;-0.190676;0.190676;-0.190676;1.000000;0.32549;0.298039;0.211765
445639.04890259;5696609.69840057;471.81574966;3341.000000;1.000000;1.000000;1.000000;1.000000;-0.027292;0.027292;-0.027292;1.000000;0.054902;0.054902;0.0392157
445639.04200180;5696609.66049774;471.89185001;4112.000000;1.000000;1.000000;1.000000;1.000000;-0.022375;0.022375;-0.022375;1.000000;0.0745098;0.0627451;0.0431373
445638.96730240;5696609.73459824;471.78224995;5911.000000;1.000000;1.000000;1.000000;1.000000;-0.113775;0.113775;-0.113775;1.000000;0.0901961;0.0980392;0.0823529
445638.78920181;5696609.68689926;471.84814980;7967.000000;1.000000;1.000000;1.000000;1.000000;-0.193575;0.193575;-0.193575;1.000000;0.101961;0.141176;0.0941176
445638.71140106;5696609.64599808;471.93494989;3598.000000;1.000000;1.000000;1.000000;1.000000;-0.115774;0.115774;-0.115774;1.000000;0.0745098;0.054902;0.0313725
445638.78640182;5696609.64389999;471.92665007;31611.000000;1.000000;1.000000;1.000000;1.000000;-0.190775;0.190775;-0.190775;1.000000;0.470588;0.494118;0.454902
445638.67870148;5696609.64449890;471.93114998;22616.000000;1.000000;1.000000;1.000000;1.000000;-0.083075;0.083075;-0.083075;1.000000;0.356863;0.34902;0.321569
445638.93300064;5696609.72719772;471.85514977;15677.000000;1.000000;1.000000;1.000000;1.000000;-0.140742;0.140742;-0.140742;1.000000;0.258824;0.243137;0.2
445638.96600159;5696609.80529984;471.74805023;9766.000000;1.000000;1.000000;1.000000;1.000000;0.101429;-0.101429;0.101429;1.000000;0.152941;0.160784;0.105882
445638.56140335;5696609.74930008;471.89914991;11565.000000;1.000000;1.000000;1.000000;1.000000;0.034224;-0.034224;0.034224;1.000000;0.207843;0.180392;0.0980392
445638.67910202;5696609.76239975;471.85575010;11565.000000;1.000000;1.000000;1.000000;1.000000;-0.083475;0.083475;-0.083475;1.000000;0.254902;0.164706;0.054902
445638.63459976;5696609.78219803;471.89814999;7453.000000;1.000000;1.000000;1.000000;1.000000;-0.038973;0.038973;-0.038973;1.000000;0.219608;0.0823529;0.00784314
445639.08660324;5696609.62179764;471.85844995;26471.000000;1.000000;1.000000;1.000000;1.000000;0.009024;-0.009024;0.009024;1.000000;0.466667;0.388235;0.321569
445639.09040268;5696609.62570007;471.88665010;7967.000000;1.000000;1.000000;1.000000;1.000000;0.005224;-0.005224;0.005224;1.000000;0.176471;0.113725;0.027451
445638.71180161;5696609.60919769;471.90194990;29298.000000;1.000000;1.000000;1.000000;1.000000;-0.116175;0.116175;-0.116175;1.000000;0.447059;0.458824;0.388235
445639.00200089;5696609.76230057;471.74214985;5911.000000;1.000000;1.000000;1.000000;1.000000;0.092054;-0.092054;0.092054;1.000000;0.0862745;0.0980392;0.0627451
445639.00870331;5696609.69510086;471.81854965;3598.000000;1.000000;1.000000;1.000000;1.000000;-0.058867;0.058867;-0.058867;1.000000;0.0588235;0.054902;0.0470588
445638.78740128;5696609.64499863;471.85454990;2313.000000;1.000000;1.000000;1.000000;1.000000;-0.191774;0.191774;-0.191774;1.000000;0.0352941;0.0392157;0.0196078
