//X;Y;Z;Intensity;Return Number;Number Of Returns;Scan Direction Flag;Point Source ID;C2M signed distances[-][<0.8];C2M signed distances[<0.4];C2M signed distances[-][<0.2];Stump92;Rf;Gf;Bf
300
445608.65160187;5696562.26999863;472.58194973;7453.000000;1.000000;1.000000;1.000000;1.000000;-0.024725;0.024725;-0.024725;1.000000;0.152941;0.101961;0.0823529
445608.87510117;5696562.29869850;472.55744984;36751.000000;1.000000;1.000000;1.000000;1.000000;0.031301;-0.031301;0.031301;1.000000;0.611765;0.54902;0.498039
445608.61640175;5696562.26859863;472.58034994;22102.000000;1.000000;1.000000;1.000000;1.000000;0.010475;-0.010475;0.010475;1.000000;0.380392;0.329412;0.282353
445608.53410156;5696562.44189842;472.58794977;26214.000000;1.000000;1.000000;1.000000;1.000000;-0.111898;0.111898;-0.111898;1.000000;0.45098;0.396078;0.301961
445608.41670139;5696562.47039993;472.65985014;40863.000000;1.000000;1.000000;1.000000;1.000000;-0.140400;0.140400;-0.140400;1.000000;0.682353;0.635294;0.427451
445608.42810162;5696562.29719933;472.61644985;17219.000000;1.000000;1.000000;1.000000;1.000000;0.032801;-0.032801;0.032801;1.000000;0.329412;0.254902;0.14902
445608.55410202;5696562.00479897;472.63954975;19275.000000;1.000000;1.000000;1.000000;1.000000;0.072775;-0.072775;0.072775;1.000000;0.345098;0.282353;0.223529
445608.83120163;5696562.41679962;472.58484985;10280.000000;1.000000;1.000000;1.000000;1.000000;-0.086800;0.086800;-0.086800;1.000000;0.203922;0.14902;0.0862745
445608.79570110;5696562.41529854;472.59014990;38036.000000;1.000000;1.000000;1.000000;1.000000;-0.085611;0.085611;-0.085611;1.000000;0.623529;0.576471;0.505882
445608.65050133;5696562.30749901;472.57994987;17733.000000;1.000000;1.000000;1.000000;1.000000;0.022501;-0.022501;0.022501;1.000000;0.321569;0.262745;0.203922
445608.53520115;5696562.40439995;472.58995010;20303.000000;1.000000;1.000000;1.000000;1.000000;-0.074400;0.074400;-0.074400;1.000000;0.364706;0.305882;0.211765
445608.58020123;5696562.00479897;472.63145020;38807.000000;1.000000;1.000000;1.000000;1.000000;0.046676;-0.046676;0.046676;1.000000;0.627451;0.588235;0.533333
445608.57900150;5696562.04229935;472.63184978;28527.000000;1.000000;1.000000;1.000000;1.000000;0.047875;-0.047875;0.047875;1.000000;0.466667;0.431373;0.384314
445608.72580154;5696562.12259872;472.59985020;36751.000000;1.000000;1.000000;1.000000;1.000000;-0.098925;0.098925;-0.098925;1.000000;0.607843;0.552941;0.498039
445608.38510139;5696562.43349846;472.66265013;37522.000000;1.000000;1.000000;1.000000;1.000000;-0.103498;0.103498;-0.103498;1.000000;0.643137;0.576471;0.380392
445608.45180138;5696562.40909966;472.63514997;33153.000000;1.000000;1.000000;1.000000;1.000000;-0.079100;0.079100;-0.079100;1.000000;0.576471;0.505882;0.333333
445608.57910164;5696562.24629982;472.58535006;22359.000000;1.000000;1.000000;1.000000;1.000000;0.047775;-0.047775;0.047775;1.000000;0.415686;0.32549;0.247059
445608.87850197;5696562.23299988;472.55214979;17219.000000;1.000000;1.000000;1.000000;1.000000;0.097000;-0.097000;0.097000;1.000000;0.301961;0.258824;0.211765
445608.39100178;5696562.24619873;472.66074993;43690.000000;1.000000;1.000000;1.000000;1.000000;0.083801;-0.083801;0.083801;1.000000;0.709804;0.678431;0.494118
445608.61280163;5696562.30399902;472.57824995;47031.000000;1.000000;1.000000;1.000000;1.000000;0.014075;-0.014075;0.014075;1.000000;0.764706;0.709804;0.635294
445608.76330193;5696562.31109818;472.57345011;25443.000000;1.000000;1.000000;1.000000;1.000000;0.018902;-0.018902;0.018902;1.000000;0.45098;0.376471;0.309804
445608.73260124;5696562.18989952;472.58925011;6682.000000;1.000000;1.000000;1.000000;1.000000;-0.105724;0.105724;-0.105724;1.000000;0.129412;0.0980392;0.0745098
445608.53470142;5696562.00399979;472.65264990;31097.000000;1.000000;1.000000;1.000000;1.000000;0.092175;-0.092175;0.092175;1.000000;0.509804;0.470588;0.419608
445608.50870140;5696562.19669922;472.59095003;16448.000000;1.000000;1.000000;1.000000;1.000000;0.118176;-0.118176;0.118176;1.000000;0.321569;0.235294;0.164706
445608.68820198;5696562.30869873;472.57474997;18504.000000;1.000000;1.000000;1.000000;1.000000;-0.021301;0.021301;-0.021301;1.000000;0.329412;0.27451;0.227451
445608.40440186;5696562.27799995;472.63604977;16962.000000;1.000000;1.000000;1.000000;1.000000;0.052133;-0.052133;0.052133;1.000000;0.309804;0.258824;0.129412
445608.54290112;5696562.23559959;472.58824970;37522.000000;1.000000;1.000000;1.000000;1.000000;0.083976;-0.083976;0.083976;1.000000;0.647059;0.556863;0.470588
445608.50520142;5696562.23429878;472.59114983;31354.000000;1.000000;1.000000;1.000000;1.000000;0.095701;-0.095701;0.095701;1.000000;0.556863;0.462745;0.372549
445608.65330132;5696562.24169930;472.58864977;8995.000000;1.000000;1.000000;1.000000;1.000000;-0.026424;0.026424;-0.026424;1.000000;0.180392;0.12549;0.0862745
445608.46230133;5696562.33609970;472.61375000;30326.000000;1.000000;1.000000;1.000000;1.000000;-0.006107;0.006107;-0.006107;1.000000;0.533333;0.458824;0.309804
445608.64920147;5696562.34269913;472.57805016;28527.000000;1.000000;1.000000;1.000000;1.000000;-0.012699;0.012699;-0.012699;1.000000;0.501961;0.423529;0.341176
445608.76210125;5696562.34859856;472.57385017;18504.000000;1.000000;1.000000;1.000000;1.000000;-0.018599;0.018599;-0.018599;1.000000;0.32549;0.27451;0.219608
445608.68670185;5696562.34389885;472.57744982;19275.000000;1.000000;1.000000;1.000000;1.000000;0.013899;-0.013899;0.013899;1.000000;0.341176;0.286275;0.239216
445608.70420177;5696562.38189896;472.58094980;38550.000000;1.000000;1.000000;1.000000;1.000000;0.051899;-0.051899;0.051899;1.000000;0.611765;0.592157;0.521569
445608.66680153;5696562.38079842;472.57695009;24415.000000;1.000000;1.000000;1.000000;1.000000;-0.050798;0.050798;-0.050798;1.000000;0.419608;0.368627;0.278431
445608.85220154;5696562.38919838;472.57844975;20817.000000;1.000000;1.000000;1.000000;1.000000;-0.059198;0.059198;-0.059198;1.000000;0.34902;0.317647;0.247059
445608.49330147;5696562.51319893;472.60325005;35466.000000;1.000000;1.000000;1.000000;1.000000;-0.183199;0.183199;-0.183199;1.000000;0.588235;0.552941;0.384314
445608.42760189;5696562.26909836;472.62304976;17990.000000;1.000000;1.000000;1.000000;1.000000;0.060902;-0.060902;0.060902;1.000000;0.337255;0.27451;0.137255
445608.64800175;5696562.38009842;472.57844975;29812.000000;1.000000;1.000000;1.000000;1.000000;-0.050098;0.050098;-0.050098;1.000000;0.513725;0.447059;0.352941
445608.35210140;5696562.33909996;472.62745001;4883.000000;1.000000;1.000000;1.000000;1.000000;-0.009100;0.009100;-0.009100;1.000000;0.109804;0.0666667;0.0235294
445608.68540199;5696562.38130005;472.58015015;32639.000000;1.000000;1.000000;1.000000;1.000000;0.051300;-0.051300;0.051300;1.000000;0.537255;0.498039;0.411765
445608.57580193;5696562.31199844;472.58594992;15934.000000;1.000000;1.000000;1.000000;1.000000;0.018002;-0.018002;0.018002;1.000000;0.298039;0.239216;0.137255
445608.42520149;5696562.34399994;472.62384989;25957.000000;1.000000;1.000000;1.000000;1.000000;-0.014000;0.014000;-0.014000;1.000000;0.478431;0.388235;0.235294
445608.73090179;5696561.97509964;472.59595015;21588.000000;1.000000;1.000000;1.000000;1.000000;-0.104025;0.104025;-0.104025;1.000000;0.376471;0.321569;0.270588
445608.84740170;5696562.27789886;472.55824997;54227.000000;1.000000;1.000000;1.000000;1.000000;0.052101;-0.052101;0.052101;1.000000;0.866667;0.823529;0.772549
445608.80350121;5696562.20949944;472.56014969;19532.000000;1.000000;1.000000;1.000000;1.000000;-0.120636;0.120636;-0.120636;1.000000;0.360784;0.286275;0.215686
445608.50230129;5696562.50549896;472.59665014;33410.000000;1.000000;1.000000;1.000000;1.000000;-0.175499;0.175499;-0.175499;1.000000;0.560784;0.513725;0.364706
445608.47210129;5696562.23489960;472.60134985;14392.000000;1.000000;1.000000;1.000000;1.000000;0.095100;-0.095100;0.095100;1.000000;0.290196;0.207843;0.121569
445608.86870201;5696562.46479996;472.57774975;31097.000000;1.000000;1.000000;1.000000;1.000000;-0.134800;0.134800;-0.134800;1.000000;0.517647;0.478431;0.345098
445608.59770115;5696562.04289825;472.63264992;49601.000000;1.000000;1.000000;1.000000;1.000000;0.029176;-0.029176;0.029176;1.000000;0.792157;0.752941;0.713725
445608.61760147;5696562.00599869;472.63315012;60652.000000;1.000000;1.000000;1.000000;1.000000;0.009275;-0.009275;0.009275;1.000000;0.941176;0.929412;0.890196
445608.83870132;5696562.28569992;472.56024982;59881.000000;1.000000;1.000000;1.000000;1.000000;-0.044300;0.044300;-0.044300;1.000000;0.945098;0.909804;0.858824
445608.53880127;5696562.34789856;472.60104992;26985.000000;1.000000;1.000000;1.000000;1.000000;-0.017899;0.017899;-0.017899;1.000000;0.45098;0.423529;0.27451
445608.68280132;5696562.43049820;472.58524992;42662.000000;1.000000;1.000000;1.000000;1.000000;0.100507;-0.100507;0.100507;1.000000;0.686275;0.662745;0.513725
445608.83090122;5696562.46349915;472.58304979;39835.000000;1.000000;1.000000;1.000000;1.000000;-0.133499;0.133499;-0.133499;1.000000;0.647059;0.611765;0.501961
445608.60000141;5696562.17409904;472.59474995;8995.000000;1.000000;1.000000;1.000000;1.000000;0.026875;-0.026875;0.026875;1.000000;0.172549;0.12549;0.105882
445608.57410152;5696562.36819847;472.58424999;33924.000000;1.000000;1.000000;1.000000;1.000000;-0.038198;0.038198;-0.038198;1.000000;0.568627;0.513725;0.415686
445608.75810154;5696562.13389977;472.58274986;8995.000000;1.000000;1.000000;1.000000;1.000000;-0.131225;0.131225;-0.131225;1.000000;0.176471;0.12549;0.0941176
445608.45890148;5696562.45529945;472.62435009;26471.000000;1.000000;1.000000;1.000000;1.000000;-0.125299;0.125299;-0.125299;1.000000;0.470588;0.403922;0.223529
445608.46320160;5696562.40119942;472.62624981;19275.000000;1.000000;1.000000;1.000000;1.000000;-0.071209;0.071209;-0.071209;1.000000;0.364706;0.290196;0.145098
445608.81260117;5696562.25770004;472.56344988;9766.000000;1.000000;1.000000;1.000000;1.000000;-0.072300;0.072300;-0.072300;1.000000;0.196078;0.137255;0.0941176
445608.57060154;5696562.40589912;472.58454992;37522.000000;1.000000;1.000000;1.000000;1.000000;-0.075899;0.075899;-0.075899;1.000000;0.623529;0.564706;0.486275
445608.75800140;5696562.41179855;472.59074976;22616.000000;1.000000;1.000000;1.000000;1.000000;-0.081799;0.081799;-0.081799;1.000000;0.392157;0.341176;0.25098
445608.59040173;5696562.41579826;472.58094980;26985.000000;1.000000;1.000000;1.000000;1.000000;-0.085798;0.085798;-0.085798;1.000000;0.458824;0.407843;0.321569
445608.58680161;5696562.52599915;472.57735016;26471.000000;1.000000;1.000000;1.000000;1.000000;-0.195999;0.195999;-0.195999;1.000000;0.45098;0.396078;0.317647
445608.58000191;5696562.20869835;472.58964970;37779.000000;1.000000;1.000000;1.000000;1.000000;0.046875;-0.046875;0.046875;1.000000;0.639216;0.564706;0.501961
445608.87630184;5696562.25889977;472.55235006;26985.000000;1.000000;1.000000;1.000000;1.000000;0.071100;-0.071100;0.071100;1.000000;0.458824;0.4;0.352941
445608.71940144;5696562.44809921;472.58715012;28270.000000;1.000000;1.000000;1.000000;1.000000;0.118099;-0.118099;0.118099;1.000000;0.458824;0.454902;0.247059
445608.64680202;5696561.98939903;472.62494995;43176.000000;1.000000;1.000000;1.000000;1.000000;-0.019925;0.019925;-0.019925;1.000000;0.67451;0.658824;0.623529
445608.75870140;5696561.99359901;472.58815004;31354.000000;1.000000;1.000000;1.000000;1.000000;-0.131824;0.131824;-0.131824;1.000000;0.533333;0.466667;0.392157
445608.60700138;5696562.44459923;472.58435013;53970.000000;1.000000;1.000000;1.000000;1.000000;-0.114599;0.114599;-0.114599;1.000000;0.839216;0.831373;0.752941
445608.75530155;5696562.03139885;472.58614971;30583.000000;1.000000;1.000000;1.000000;1.000000;-0.128425;0.128425;-0.128425;1.000000;0.52549;0.458824;0.380392
445608.56920155;5696562.05969818;472.62465002;14135.000000;1.000000;1.000000;1.000000;1.000000;0.057675;-0.057675;0.057675;1.000000;0.254902;0.207843;0.172549
445608.60460194;5696562.06109818;472.62155010;6939.000000;1.000000;1.000000;1.000000;1.000000;0.022275;-0.022275;0.022275;1.000000;0.141176;0.0980392;0.0705882
445608.64290150;5696562.48089989;472.58874990;45746.000000;1.000000;1.000000;1.000000;1.000000;-0.150900;0.150900;-0.150900;1.000000;0.733333;0.705882;0.572549
445608.35060127;5696562.34849937;472.62745001;8738.000000;1.000000;1.000000;1.000000;1.000000;-0.018499;0.018499;-0.018499;1.000000;0.172549;0.129412;0.0784314
445608.45980175;5696562.41779907;472.63094999;39064.000000;1.000000;1.000000;1.000000;1.000000;-0.087799;0.087799;-0.087799;1.000000;0.658824;0.596078;0.431373
445608.67060192;5696562.52959831;472.59515001;15934.000000;1.000000;1.000000;1.000000;1.000000;-0.199598;0.199598;-0.199598;1.000000;0.282353;0.243137;0.141176
445608.58170135;5696562.42359932;472.58295013;32382.000000;1.000000;1.000000;1.000000;1.000000;-0.093599;0.093599;-0.093599;1.000000;0.537255;0.490196;0.411765
445608.45180138;5696562.20599945;472.62804987;8738.000000;1.000000;1.000000;1.000000;1.000000;0.124001;-0.124001;0.124001;1.000000;0.192157;0.12549;0.0470588
445608.46590145;5696562.47589882;472.61555006;30583.000000;1.000000;1.000000;1.000000;1.000000;-0.145951;0.145951;-0.145951;1.000000;0.529412;0.466667;0.298039
445608.33630188;5696562.23719986;472.66274979;29555.000000;1.000000;1.000000;1.000000;1.000000;0.092800;-0.092800;0.092800;1.000000;0.494118;0.466667;0.254902
445608.67400177;5696562.21399887;472.59154989;23644.000000;1.000000;1.000000;1.000000;1.000000;-0.047125;-0.047125;0.047125;1.000000;0.403922;0.352941;0.305882
445608.70950134;5696562.21549995;472.58384993;5911.000000;1.000000;1.000000;1.000000;1.000000;-0.082624;-0.082624;0.082624;1.000000;0.121569;0.0823529;0.0666667
445608.44590195;5696562.23939903;472.62115004;20560.000000;1.000000;1.000000;1.000000;1.000000;0.090601;-0.090601;0.090601;1.000000;0.376471;0.305882;0.188235
445608.83420189;5696562.36989983;472.57504990;33667.000000;1.000000;1.000000;1.000000;1.000000;-0.039900;0.039900;-0.039900;1.000000;0.533333;0.517647;0.462745
445608.52480133;5696562.24419983;472.59214975;42919.000000;1.000000;1.000000;1.000000;1.000000;0.085801;-0.085801;0.085801;1.000000;0.733333;0.639216;0.54902
445608.67310150;5696562.25159843;472.58505013;10794.000000;1.000000;1.000000;1.000000;1.000000;-0.046225;-0.046225;0.046225;1.000000;0.203922;0.152941;0.121569
445608.59780128;5696562.24689873;472.58624985;17476.000000;1.000000;1.000000;1.000000;1.000000;0.029076;-0.029076;0.029076;1.000000;0.329412;0.25098;0.184314
445608.37280186;5696562.27589996;472.66025021;35209.000000;1.000000;1.000000;1.000000;1.000000;0.054100;-0.054100;0.054100;1.000000;0.576471;0.54902;0.368627
445608.89510162;5696562.25959976;472.55084993;30583.000000;1.000000;1.000000;1.000000;1.000000;0.070400;-0.070400;0.070400;1.000000;0.521569;0.454902;0.4
445608.55890186;5696562.28309830;472.58955004;33153.000000;1.000000;1.000000;1.000000;1.000000;0.047010;-0.047010;0.047010;1.000000;0.568627;0.494118;0.411765
445608.53220184;5696562.27389915;472.59284975;37522.000000;1.000000;1.000000;1.000000;1.000000;0.056108;-0.056108;0.056108;1.000000;0.643137;0.556863;0.470588
445608.40850170;5696562.31519897;472.62274982;16705.000000;1.000000;1.000000;1.000000;1.000000;0.014801;-0.014801;0.014801;1.000000;0.317647;0.247059;0.137255
445608.40700157;5696562.35039909;472.62545015;21845.000000;1.000000;1.000000;1.000000;1.000000;-0.020430;0.020430;-0.020430;1.000000;0.403922;0.32549;0.192157
445608.44450195;5696562.35159882;472.62474968;36237.000000;1.000000;1.000000;1.000000;1.000000;-0.021599;0.021599;-0.021599;1.000000;0.619608;0.552941;0.4
445608.42670162;5696562.47199829;472.64874985;32639.000000;1.000000;1.000000;1.000000;1.000000;-0.141998;0.141998;-0.141998;1.000000;0.556863;0.505882;0.301961
445608.84310158;5696562.41809853;472.58075001;9766.000000;1.000000;1.000000;1.000000;1.000000;0.088099;-0.088099;0.088099;1.000000;0.196078;0.141176;0.0745098
445608.70350178;5696562.40059860;472.58344986;36494.000000;1.000000;1.000000;1.000000;1.000000;0.070599;-0.070599;0.070599;1.000000;0.596078;0.560784;0.462745
445608.51670177;5696562.43189819;472.58944990;12079.000000;1.000000;1.000000;1.000000;1.000000;-0.101898;0.101898;-0.101898;1.000000;0.239216;0.176471;0.0941176
445608.49790199;5696562.39119919;472.61135008;19275.000000;1.000000;1.000000;1.000000;1.000000;-0.061328;0.061328;-0.061328;1.000000;0.34902;0.294118;0.152941
445608.73600109;5696562.47689827;472.59054996;38550.000000;1.000000;1.000000;1.000000;1.000000;-0.146898;0.146898;-0.146898;1.000000;0.627451;0.603922;0.427451
445608.62600143;5696562.47319992;472.58554985;31097.000000;1.000000;1.000000;1.000000;1.000000;-0.143200;0.143200;-0.143200;1.000000;0.509804;0.486275;0.34902
445608.58850201;5696562.47199829;472.58384993;21331.000000;1.000000;1.000000;1.000000;1.000000;-0.141998;0.141998;-0.141998;1.000000;0.352941;0.329412;0.235294
445608.55090149;5696562.47079857;472.58675005;25443.000000;1.000000;1.000000;1.000000;1.000000;-0.140799;0.140799;-0.140799;1.000000;0.431373;0.388235;0.286275
445608.51520164;5696562.46699913;472.59205009;13107.000000;1.000000;1.000000;1.000000;1.000000;-0.136999;0.136999;-0.136999;1.000000;0.262745;0.196078;0.0784314
445608.40290173;5696562.49959953;472.66424992;36237.000000;1.000000;1.000000;1.000000;1.000000;-0.169680;0.169680;-0.169680;1.000000;0.6;0.568627;0.372549
445608.54950150;5696562.50589951;472.58715012;16705.000000;1.000000;1.000000;1.000000;1.000000;-0.175900;0.175900;-0.175900;1.000000;0.305882;0.25098;0.164706
445608.62460144;5696562.50829895;472.58584978;30583.000000;1.000000;1.000000;1.000000;1.000000;-0.178299;0.178299;-0.178299;1.000000;0.505882;0.466667;0.372549
445608.77230175;5696562.51559837;472.59034969;22616.000000;1.000000;1.000000;1.000000;1.000000;-0.185598;0.185598;-0.185598;1.000000;0.388235;0.345098;0.247059
445608.85650166;5696562.51029976;472.58005001;24158.000000;1.000000;1.000000;1.000000;1.000000;-0.180300;0.180300;-0.180300;1.000000;0.407843;0.372549;0.25098
445608.59980114;5696562.01470001;472.63245012;55512.000000;1.000000;1.000000;1.000000;1.000000;0.027076;-0.027076;0.027076;1.000000;0.866667;0.847059;0.8
445608.68610199;5696562.36259850;472.57765009;45746.000000;1.000000;1.000000;1.000000;1.000000;0.032598;-0.032598;0.032598;1.000000;0.733333;0.698039;0.631373
445608.45060165;5696562.44660004;472.63555004;29812.000000;1.000000;1.000000;1.000000;1.000000;-0.116600;0.116600;-0.116600;1.000000;0.521569;0.458824;0.27451
445608.44730194;5696562.48429878;472.63114979;36494.000000;1.000000;1.000000;1.000000;1.000000;-0.154299;0.154299;-0.154299;1.000000;0.615686;0.564706;0.388235
445608.52350147;5696562.04979904;472.63404991;7967.000000;1.000000;1.000000;1.000000;1.000000;0.103375;-0.103375;0.103375;1.000000;0.14902;0.113725;0.0901961
445608.66310127;5696562.47429855;472.59415009;36494.000000;1.000000;1.000000;1.000000;1.000000;-0.144299;0.144299;-0.144299;1.000000;0.596078;0.568627;0.388235
445608.77720173;5696562.44269951;472.59194996;14906.000000;1.000000;1.000000;1.000000;1.000000;-0.112700;0.112700;-0.112700;1.000000;0.270588;0.223529;0.14902
445608.78230198;5696562.49829872;472.59284975;20303.000000;1.000000;1.000000;1.000000;1.000000;-0.168299;0.168299;-0.168299;1.000000;0.34902;0.309804;0.215686
445608.74480160;5696562.49709900;472.59345009;37008.000000;1.000000;1.000000;1.000000;1.000000;-0.167099;0.167099;-0.167099;1.000000;0.607843;0.568627;0.431373
445608.79660137;5696562.36870010;472.57805016;40092.000000;1.000000;1.000000;1.000000;1.000000;-0.039571;0.039571;-0.039571;1.000000;0.65098;0.607843;0.54902
445608.36630161;5696562.46089943;472.66914989;24415.000000;1.000000;1.000000;1.000000;1.000000;-0.130899;0.130899;-0.130899;1.000000;0.431373;0.380392;0.203922
445608.62000187;5696562.40609940;472.57975008;32382.000000;1.000000;1.000000;1.000000;1.000000;-0.076099;0.076099;-0.076099;1.000000;0.541176;0.486275;0.407843
445608.84420116;5696562.37829979;472.57795002;32639.000000;1.000000;1.000000;1.000000;1.000000;0.048300;-0.048300;0.048300;1.000000;0.521569;0.501961;0.443137
445608.70820148;5696562.05889900;472.60064985;13364.000000;1.000000;1.000000;1.000000;1.000000;-0.081325;0.081325;-0.081325;1.000000;0.266667;0.192157;0.12549
445608.78200157;5696562.08739861;472.57634975;34952.000000;1.000000;1.000000;1.000000;1.000000;-0.155125;0.155125;-0.155125;1.000000;0.592157;0.517647;0.458824
445608.82200153;5696562.25689896;472.55914976;11565.000000;1.000000;1.000000;1.000000;1.000000;0.073101;-0.073101;0.073101;1.000000;0.223529;0.164706;0.121569
445608.85760124;5696562.26059921;472.55614998;19789.000000;1.000000;1.000000;1.000000;1.000000;0.069401;-0.069401;0.069401;1.000000;0.34902;0.294118;0.25098
445608.37360199;5696562.23829849;472.66914989;44204.000000;1.000000;1.000000;1.000000;1.000000;0.091702;-0.091702;0.091702;1.000000;0.717647;0.694118;0.486275
445608.58200176;5696562.37689980;472.58234980;28270.000000;1.000000;1.000000;1.000000;1.000000;-0.046900;0.046900;-0.046900;1.000000;0.490196;0.423529;0.333333
445608.63730152;5696562.17529877;472.59875013;14135.000000;1.000000;1.000000;1.000000;1.000000;-0.010425;0.010425;-0.010425;1.000000;0.254902;0.203922;0.172549
445608.66120155;5696562.29709824;472.58034994;11308.000000;1.000000;1.000000;1.000000;1.000000;0.032902;-0.032902;0.032902;1.000000;0.215686;0.164706;0.12549
445608.65610130;5696562.41899879;472.58395006;47288.000000;1.000000;1.000000;1.000000;1.000000;-0.088999;0.088999;-0.088999;1.000000;0.760784;0.721569;0.627451
445608.69340141;5696562.15809830;472.61504986;35723.000000;1.000000;1.000000;1.000000;1.000000;-0.066525;0.066525;-0.066525;1.000000;0.584314;0.537255;0.490196
445608.60560139;5696562.09159859;472.61035015;13107.000000;1.000000;1.000000;1.000000;1.000000;0.021276;-0.021276;0.021276;1.000000;0.243137;0.192157;0.156863
445608.67840202;5696562.09189995;472.60435011;24158.000000;1.000000;1.000000;1.000000;1.000000;-0.051525;0.051525;-0.051525;1.000000;0.427451;0.356863;0.301961
445608.41360195;5696562.23029907;472.64524986;24415.000000;1.000000;1.000000;1.000000;1.000000;0.099701;-0.099701;0.099701;1.000000;0.415686;0.380392;0.215686
445608.43760117;5696562.32429894;472.61945011;38293.000000;1.000000;1.000000;1.000000;1.000000;0.005971;-0.005971;0.005971;1.000000;0.654902;0.576471;0.443137
445608.60050114;5696561.99599846;472.62995007;40863.000000;1.000000;1.000000;1.000000;1.000000;0.026376;-0.026376;0.026376;1.000000;0.65098;0.623529;0.580392
445608.66010197;5696562.33459862;472.57844975;35209.000000;1.000000;1.000000;1.000000;1.000000;-0.004599;0.004599;-0.004599;1.000000;0.592157;0.52549;0.462745
445608.62270172;5696562.33349998;472.57674982;38036.000000;1.000000;1.000000;1.000000;1.000000;-0.003500;0.003500;-0.003500;1.000000;0.639216;0.572549;0.494118
445608.67810162;5696562.51249893;472.59994986;21588.000000;1.000000;1.000000;1.000000;1.000000;-0.182500;0.182500;-0.182500;1.000000;0.368627;0.337255;0.180392
445608.73530109;5696562.33709915;472.57485010;32639.000000;1.000000;1.000000;1.000000;1.000000;-0.007099;0.007099;-0.007099;1.000000;0.541176;0.490196;0.435294
445608.69780167;5696562.33589943;472.57544996;11565.000000;1.000000;1.000000;1.000000;1.000000;0.005899;-0.005899;0.005899;1.000000;0.215686;0.168627;0.129412
445608.47410114;5696562.27919968;472.59735014;37779.000000;1.000000;1.000000;1.000000;1.000000;0.050800;-0.050800;0.050800;1.000000;0.65098;0.564706;0.470588
445608.59690197;5696562.03359993;472.63254978;58596.000000;1.000000;1.000000;1.000000;1.000000;0.029975;-0.029975;0.029975;1.000000;0.921569;0.890196;0.847059
445608.80670174;5696562.37710007;472.57854988;40606.000000;1.000000;1.000000;1.000000;1.000000;0.047164;-0.047164;0.047164;1.000000;0.654902;0.615686;0.552941
445608.86710175;5696562.28779991;472.55695011;30326.000000;1.000000;1.000000;1.000000;1.000000;0.042200;-0.042200;0.042200;1.000000;0.509804;0.45098;0.403922
445608.45270164;5696562.41839989;472.63525011;41891.000000;1.000000;1.000000;1.000000;1.000000;-0.088400;0.088400;-0.088400;1.000000;0.705882;0.639216;0.466667
445608.70690163;5696562.09409912;472.59865000;26728.000000;1.000000;1.000000;1.000000;1.000000;-0.080025;0.080025;-0.080025;1.000000;0.482353;0.388235;0.317647
445608.76910122;5696562.37589844;472.57914974;44718.000000;1.000000;1.000000;1.000000;1.000000;-0.045898;0.045898;-0.045898;1.000000;0.717647;0.678431;0.615686
445608.47630127;5696562.51229866;472.61644985;28784.000000;1.000000;1.000000;1.000000;1.000000;-0.182299;0.182299;-0.182299;1.000000;0.478431;0.45098;0.278431
445608.66690166;5696562.40869911;472.58194973;36494.000000;1.000000;1.000000;1.000000;1.000000;-0.078699;0.078699;-0.078699;1.000000;0.607843;0.556863;0.45098
445608.81610115;5696562.37859924;472.57905008;37779.000000;1.000000;1.000000;1.000000;1.000000;-0.048599;0.048599;-0.048599;1.000000;0.603922;0.576471;0.513725
445608.66620167;5696562.37379845;472.57684996;28527.000000;1.000000;1.000000;1.000000;1.000000;-0.043798;0.043798;-0.043798;1.000000;0.486275;0.431373;0.34902
445608.78320129;5696562.50749977;472.59305002;20560.000000;1.000000;1.000000;1.000000;1.000000;-0.177500;0.177500;-0.177500;1.000000;0.352941;0.313725;0.215686
445608.74930199;5696562.18859871;472.57835009;11308.000000;1.000000;1.000000;1.000000;1.000000;-0.122425;0.122425;-0.122425;1.000000;0.203922;0.164706;0.129412
445608.65670116;5696562.37239845;472.57634975;27499.000000;1.000000;1.000000;1.000000;1.000000;-0.042398;0.042398;-0.042398;1.000000;0.47451;0.411765;0.329412
445608.69410141;5696562.37349899;472.57805016;50115.000000;1.000000;1.000000;1.000000;1.000000;0.043499;-0.043499;0.043499;1.000000;0.788235;0.764706;0.701961
445608.69410141;5696562.18619926;472.60615017;4626.000000;1.000000;1.000000;1.000000;1.000000;-0.067225;0.067225;-0.067225;1.000000;0.101961;0.0627451;0.0470588
445608.50700195;5696562.36459930;472.61375000;43176.000000;1.000000;1.000000;1.000000;1.000000;-0.034599;0.034599;-0.034599;1.000000;0.701961;0.666667;0.52549
445608.87720116;5696562.45469864;472.57564976;36494.000000;1.000000;1.000000;1.000000;1.000000;-0.124699;0.124699;-0.124699;1.000000;0.603922;0.556863;0.431373
445608.84180172;5696562.45329865;472.57875015;31097.000000;1.000000;1.000000;1.000000;1.000000;0.123299;-0.123299;0.123299;1.000000;0.513725;0.47451;0.368627
445608.73310192;5696562.15229996;472.60514977;31354.000000;1.000000;1.000000;1.000000;1.000000;-0.106225;0.106225;-0.106225;1.000000;0.509804;0.47451;0.427451
445608.72590168;5696562.49650009;472.59494974;37779.000000;1.000000;1.000000;1.000000;1.000000;-0.166500;0.166500;-0.166500;1.000000;0.615686;0.588235;0.427451
445608.65410145;5696561.99109848;472.62295010;38550.000000;1.000000;1.000000;1.000000;1.000000;-0.027225;0.027225;-0.027225;1.000000;0.611765;0.584314;0.552941
445608.42570122;5696562.51179894;472.64914991;36494.000000;1.000000;1.000000;1.000000;1.000000;-0.181799;0.181799;-0.181799;1.000000;0.596078;0.572549;0.396078
445608.76830109;5696561.99510010;472.58624985;35209.000000;1.000000;1.000000;1.000000;1.000000;-0.141424;0.141424;-0.141424;1.000000;0.6;0.52549;0.454902
445608.79510124;5696562.00439842;472.58054974;41891.000000;1.000000;1.000000;1.000000;1.000000;-0.168224;0.168224;-0.168224;1.000000;0.690196;0.631373;0.568627
445608.49910172;5696562.35599907;472.61564972;45489.000000;1.000000;1.000000;1.000000;1.000000;-0.026147;0.026147;-0.026147;1.000000;0.737255;0.698039;0.556863
445608.81550129;5696562.13830002;472.56215002;25700.000000;1.000000;1.000000;1.000000;1.000000;-0.188624;0.188624;-0.188624;1.000000;0.443137;0.380392;0.321569
445608.76470192;5696562.03049858;472.58414986;28784.000000;1.000000;1.000000;1.000000;1.000000;-0.137825;0.137825;-0.137825;1.000000;0.498039;0.427451;0.356863
445608.57870110;5696562.06109818;472.62505009;14135.000000;1.000000;1.000000;1.000000;1.000000;0.048176;-0.048176;0.048176;1.000000;0.254902;0.207843;0.164706
445608.61410149;5696562.51869972;472.58085014;16962.000000;1.000000;1.000000;1.000000;1.000000;-0.188700;0.188700;-0.188700;1.000000;0.305882;0.25098;0.172549
445608.83060177;5696562.00589951;472.57525017;40349.000000;1.000000;1.000000;1.000000;1.000000;-0.175900;0.175900;-0.175900;1.000000;0.658824;0.607843;0.545098
445608.83410175;5696561.97039993;472.57964994;28784.000000;1.000000;1.000000;1.000000;1.000000;-0.140400;0.140400;-0.140400;1.000000;0.494118;0.427451;0.372549
445608.62940128;5696562.16659935;472.60064985;13621.000000;1.000000;1.000000;1.000000;1.000000;-0.002524;0.002524;-0.002524;1.000000;0.243137;0.2;0.176471
445608.59210117;5696562.16549881;472.59665014;10794.000000;1.000000;1.000000;1.000000;1.000000;0.034776;-0.034776;0.034776;1.000000;0.2;0.152941;0.133333
445608.75590141;5696562.25350006;472.56785013;7967.000000;1.000000;1.000000;1.000000;1.000000;0.076500;-0.076500;0.076500;1.000000;0.168627;0.109804;0.0666667
445608.79360111;5696562.25699814;472.56724979;17990.000000;1.000000;1.000000;1.000000;1.000000;0.073194;-0.073194;0.073194;1.000000;0.321569;0.266667;0.219608
445608.53390129;5696561.99479874;472.65254976;31611.000000;1.000000;1.000000;1.000000;1.000000;0.092976;-0.092976;0.092976;1.000000;0.517647;0.478431;0.423529
445608.36820133;5696562.43039902;472.66655018;37522.000000;1.000000;1.000000;1.000000;1.000000;-0.100399;0.100399;-0.100399;1.000000;0.627451;0.580392;0.384314
445608.72520168;5696562.32869919;472.57434990;25957.000000;1.000000;1.000000;1.000000;1.000000;0.001301;-0.001301;0.001301;1.000000;0.439216;0.388235;0.333333
445608.51190193;5696562.28269966;472.59445002;38293.000000;1.000000;1.000000;1.000000;1.000000;0.047300;-0.047300;0.047300;1.000000;0.654902;0.572549;0.47451
445608.74930199;5696562.20969971;472.57165005;8224.000000;1.000000;1.000000;1.000000;1.000000;0.120300;-0.120300;0.120300;1.000000;0.160784;0.117647;0.0862745
445608.40090187;5696562.24769981;472.65184977;43433.000000;1.000000;1.000000;1.000000;1.000000;0.082617;-0.082617;0.082617;1.000000;0.705882;0.67451;0.498039
445608.74230202;5696562.18919952;472.58045008;9509.000000;1.000000;1.000000;1.000000;1.000000;-0.115425;0.115425;-0.115425;1.000000;0.176471;0.137255;0.105882
445608.40800198;5696562.26829918;472.64074995;25957.000000;1.000000;1.000000;1.000000;1.000000;0.061701;-0.061701;0.061701;1.000000;0.447059;0.403922;0.239216
445608.66510113;5696561.98079880;472.61634972;37522.000000;1.000000;1.000000;1.000000;1.000000;-0.038224;0.038224;-0.038224;1.000000;0.6;0.568627;0.537255
445608.59310158;5696562.36889847;472.58045008;28013.000000;1.000000;1.000000;1.000000;1.000000;-0.038898;0.038898;-0.038898;1.000000;0.490196;0.419608;0.333333
445608.70330151;5696562.37259872;472.58085014;55512.000000;1.000000;1.000000;1.000000;1.000000;0.042599;-0.042599;0.042599;1.000000;0.870588;0.85098;0.796078
445608.47990139;5696562.39979942;472.61534979;15163.000000;1.000000;1.000000;1.000000;1.000000;-0.069799;0.069799;-0.069799;1.000000;0.298039;0.227451;0.0980392
445608.85150154;5696562.37999924;472.57595016;30326.000000;1.000000;1.000000;1.000000;1.000000;-0.049999;0.049999;-0.049999;1.000000;0.486275;0.462745;0.403922
445608.34410198;5696562.30929955;472.63835003;7967.000000;1.000000;1.000000;1.000000;1.000000;0.020757;-0.020757;0.020757;1.000000;0.164706;0.113725;0.0588235
445608.66390141;5696562.01829918;472.61674978;29298.000000;1.000000;1.000000;1.000000;1.000000;-0.037024;0.037024;-0.037024;1.000000;0.47451;0.447059;0.392157
445608.44710167;5696562.26989944;472.60524990;20303.000000;1.000000;1.000000;1.000000;1.000000;0.060101;-0.060101;0.060101;1.000000;0.372549;0.301961;0.192157
445608.78320129;5696562.24629982;472.56895020;21588.000000;1.000000;1.000000;1.000000;1.000000;0.083700;-0.083700;0.083700;1.000000;0.376471;0.321569;0.27451
445608.37150200;5696562.30429848;472.64424994;19789.000000;1.000000;1.000000;1.000000;1.000000;0.025702;-0.025702;0.025702;1.000000;0.352941;0.301961;0.196078
445608.77570160;5696562.02249916;472.58225014;21331.000000;1.000000;1.000000;1.000000;1.000000;-0.148825;0.148825;-0.148825;1.000000;0.384314;0.313725;0.235294
445608.78190144;5696562.28369911;472.57165005;25186.000000;1.000000;1.000000;1.000000;1.000000;0.046301;-0.046301;0.046301;1.000000;0.435294;0.372549;0.309804
445608.74690159;5696562.28239830;472.56775000;32125.000000;1.000000;1.000000;1.000000;1.000000;0.047602;-0.047602;0.047602;1.000000;0.545098;0.478431;0.423529
445608.70920189;5696562.28119858;472.57065012;17219.000000;1.000000;1.000000;1.000000;1.000000;-0.048801;0.048801;-0.048801;1.000000;0.309804;0.25098;0.211765
445608.85370167;5696562.32389839;472.56605007;50372.000000;1.000000;1.000000;1.000000;1.000000;0.006102;-0.006102;0.006102;1.000000;0.796078;0.768627;0.713725
445608.81010159;5696562.06149872;472.57494976;20560.000000;1.000000;1.000000;1.000000;1.000000;-0.183225;0.183225;-0.183225;1.000000;0.356863;0.305882;0.247059
445608.81850155;5696562.32249840;472.56685020;59110.000000;1.000000;1.000000;1.000000;1.000000;0.007502;-0.007502;0.007502;1.000000;0.921569;0.901961;0.85098
445608.77950199;5696562.35869987;472.57245018;38036.000000;1.000000;1.000000;1.000000;1.000000;-0.028700;0.028700;-0.028700;1.000000;0.623529;0.576471;0.517647
445608.59190186;5696562.40629967;472.58085014;26985.000000;1.000000;1.000000;1.000000;1.000000;-0.076300;0.076300;-0.076300;1.000000;0.462745;0.407843;0.321569
445608.54880150;5696562.08739861;472.61704971;5911.000000;1.000000;1.000000;1.000000;1.000000;0.078075;-0.078075;0.078075;1.000000;0.121569;0.0823529;0.0666667
445608.88770111;5696562.36279877;472.56575014;51400.000000;1.000000;1.000000;1.000000;1.000000;-0.032799;0.032799;-0.032799;1.000000;0.803922;0.788235;0.733333
445608.66340168;5696562.20319946;472.59564974;15934.000000;1.000000;1.000000;1.000000;1.000000;-0.036525;-0.036525;0.036525;1.000000;0.290196;0.235294;0.192157
445608.75460155;5696562.29099854;472.57054998;31868.000000;1.000000;1.000000;1.000000;1.000000;0.039001;-0.039001;0.039001;1.000000;0.541176;0.47451;0.411765
445608.51860149;5696562.38469894;472.60524990;18247.000000;1.000000;1.000000;1.000000;1.000000;-0.054699;0.054699;-0.054699;1.000000;0.329412;0.282353;0.145098
445608.62830170;5696562.20189865;472.59404995;22359.000000;1.000000;1.000000;1.000000;1.000000;-0.001425;0.001425;-0.001425;1.000000;0.392157;0.333333;0.278431
445608.71710117;5696562.28979881;472.56885006;28784.000000;1.000000;1.000000;1.000000;1.000000;-0.040201;0.040201;-0.040201;1.000000;0.486275;0.427451;0.384314
445608.43940170;5696562.45449837;472.64204981;34438.000000;1.000000;1.000000;1.000000;1.000000;-0.124498;0.124498;-0.124498;1.000000;0.588235;0.533333;0.341176
445608.79230125;5696562.29449852;472.56995012;17990.000000;1.000000;1.000000;1.000000;1.000000;0.035725;-0.035725;0.035725;1.000000;0.329412;0.262745;0.203922
445608.86400135;5696562.33459862;472.56664993;37008.000000;1.000000;1.000000;1.000000;1.000000;-0.004599;0.004599;-0.004599;1.000000;0.596078;0.564706;0.509804
445608.39540203;5696562.24109848;472.65614988;42662.000000;1.000000;1.000000;1.000000;1.000000;0.089012;-0.089012;0.089012;1.000000;0.690196;0.666667;0.462745
445608.82640179;5696562.33339890;472.56965019;56797.000000;1.000000;1.000000;1.000000;1.000000;-0.003399;0.003399;-0.003399;1.000000;0.886275;0.870588;0.827451
445608.78860195;5696562.32989891;472.57025005;19789.000000;1.000000;1.000000;1.000000;1.000000;0.000304;-0.000304;0.000304;1.000000;0.352941;0.290196;0.227451
445608.58080109;5696561.98609932;472.63124992;31097.000000;1.000000;1.000000;1.000000;1.000000;0.046076;-0.046076;0.046076;1.000000;0.521569;0.466667;0.411765
445608.67100151;5696562.48519905;472.59705021;39835.000000;1.000000;1.000000;1.000000;1.000000;-0.155199;0.155199;-0.155199;1.000000;0.647059;0.623529;0.435294
445608.50330170;5696562.05869873;472.63324978;12850.000000;1.000000;1.000000;1.000000;1.000000;0.123575;-0.123575;0.123575;1.000000;0.223529;0.192157;0.168627
445608.43770130;5696562.23059853;472.63005020;25443.000000;1.000000;1.000000;1.000000;1.000000;0.099416;-0.099416;0.099416;1.000000;0.443137;0.384314;0.270588
445608.53770168;5696562.13539894;472.59845020;7453.000000;1.000000;1.000000;1.000000;1.000000;0.089175;-0.089175;0.089175;1.000000;0.145098;0.105882;0.0862745
445608.64670189;5696562.17669876;472.60155012;13364.000000;1.000000;1.000000;1.000000;1.000000;-0.019825;0.019825;-0.019825;1.000000;0.243137;0.192157;0.160784
445608.86550148;5696562.29719933;472.55935003;38807.000000;1.000000;1.000000;1.000000;1.000000;0.032801;-0.032801;0.032801;1.000000;0.639216;0.584314;0.533333
445608.85060127;5696562.21219833;472.55765011;17733.000000;1.000000;1.000000;1.000000;1.000000;0.117802;-0.117802;0.117802;1.000000;0.321569;0.258824;0.207843
445608.81300171;5696562.21099861;472.56054976;14906.000000;1.000000;1.000000;1.000000;1.000000;-0.119001;0.119001;-0.119001;1.000000;0.290196;0.215686;0.14902
445608.47650154;5696562.43749817;472.61324980;39064.000000;1.000000;1.000000;1.000000;1.000000;-0.107498;0.107498;-0.107498;1.000000;0.658824;0.592157;0.454902
445608.58590134;5696562.51669891;472.57954981;33924.000000;1.000000;1.000000;1.000000;1.000000;-0.186699;0.186699;-0.186699;1.000000;0.560784;0.517647;0.435294
445608.37420185;5696562.47179993;472.67194988;40863.000000;1.000000;1.000000;1.000000;1.000000;-0.141800;0.141800;-0.141800;1.000000;0.670588;0.635294;0.447059
445608.50390156;5696562.52399834;472.59924986;32382.000000;1.000000;1.000000;1.000000;1.000000;-0.193998;0.193998;-0.193998;1.000000;0.537255;0.501961;0.337255
445608.52550133;5696562.40289886;472.59415009;14906.000000;1.000000;1.000000;1.000000;1.000000;-0.072906;0.072906;-0.072906;1.000000;0.286275;0.223529;0.117647
445608.37570198;5696562.43659981;472.66925003;41891.000000;1.000000;1.000000;1.000000;1.000000;-0.106600;0.106600;-0.106600;1.000000;0.701961;0.643137;0.458824
445608.47690113;5696562.23449905;472.59695007;19018.000000;1.000000;1.000000;1.000000;1.000000;0.095501;-0.095501;0.095501;1.000000;0.364706;0.278431;0.180392
445608.81170185;5696562.24839981;472.56325008;15163.000000;1.000000;1.000000;1.000000;1.000000;-0.081600;0.081600;-0.081600;1.000000;0.282353;0.219608;0.168627
445608.88750179;5696562.43749817;472.57124998;31611.000000;1.000000;1.000000;1.000000;1.000000;-0.107498;0.107498;-0.107498;1.000000;0.537255;0.478431;0.388235
445608.51320179;5696562.27089890;472.59434988;34181.000000;1.000000;1.000000;1.000000;1.000000;0.059101;-0.059101;0.059101;1.000000;0.596078;0.509804;0.415686
445608.83010109;5696562.26779945;472.55734970;27756.000000;1.000000;1.000000;1.000000;1.000000;0.062201;-0.062201;0.062201;1.000000;0.470588;0.415686;0.368627
445608.47550114;5696562.26969917;472.59725000;39578.000000;1.000000;1.000000;1.000000;1.000000;0.060301;-0.060301;0.060301;1.000000;0.67451;0.592157;0.490196
445608.60330112;5696562.52679832;472.57814981;14649.000000;1.000000;1.000000;1.000000;1.000000;-0.196798;0.196798;-0.196798;1.000000;0.278431;0.211765;0.141176
445608.42070110;5696562.25079926;472.63415005;26471.000000;1.000000;1.000000;1.000000;1.000000;0.079201;-0.079201;0.079201;1.000000;0.454902;0.407843;0.25098
445608.72050198;5696562.18859871;472.59574987;3855.000000;1.000000;1.000000;1.000000;1.000000;-0.093625;0.093625;-0.093625;1.000000;0.0862745;0.054902;0.0352941
445608.64530190;5696562.18619926;472.59924986;11051.000000;1.000000;1.000000;1.000000;1.000000;-0.018425;0.018425;-0.018425;1.000000;0.211765;0.156863;0.121569
445608.72750195;5696562.03849991;472.59655001;30583.000000;1.000000;1.000000;1.000000;1.000000;-0.100625;0.100625;-0.100625;1.000000;0.517647;0.458824;0.380392
445608.76620110;5696562.14259918;472.57625010;12593.000000;1.000000;1.000000;1.000000;1.000000;-0.139324;0.139324;-0.139324;1.000000;0.227451;0.184314;0.145098
445608.47850140;5696562.45619972;472.60664989;34438.000000;1.000000;1.000000;1.000000;1.000000;-0.126200;0.126200;-0.126200;1.000000;0.592157;0.521569;0.376471
445608.40450199;5696562.21229942;472.65394976;35209.000000;1.000000;1.000000;1.000000;1.000000;0.117756;-0.117756;0.117756;1.000000;0.588235;0.545098;0.364706
445608.43610199;5696562.49230011;472.63775017;39064.000000;1.000000;1.000000;1.000000;1.000000;-0.162333;0.162333;-0.162333;1.000000;0.643137;0.603922;0.427451
445608.64610203;5696561.98019989;472.62244989;50886.000000;1.000000;1.000000;1.000000;1.000000;-0.019225;0.019225;-0.019225;1.000000;0.788235;0.776471;0.74902
445608.81280144;5696562.28569992;472.56374981;19018.000000;1.000000;1.000000;1.000000;1.000000;-0.044300;0.044300;-0.044300;1.000000;0.337255;0.282353;0.235294
445608.51180180;5696562.30839928;472.59934999;37265.000000;1.000000;1.000000;1.000000;1.000000;0.021601;-0.021601;0.021601;1.000000;0.627451;0.564706;0.454902
445608.48770149;5696562.42959984;472.60675003;27242.000000;1.000000;1.000000;1.000000;1.000000;-0.099600;0.099600;-0.099600;1.000000;0.47451;0.411765;0.286275
445608.54300125;5696562.01279839;472.64384987;13107.000000;1.000000;1.000000;1.000000;1.000000;0.083876;-0.083876;0.083876;1.000000;0.243137;0.192157;0.141176
445608.75670155;5696562.02189835;472.58834984;21074.000000;1.000000;1.000000;1.000000;1.000000;-0.129825;0.129825;-0.129825;1.000000;0.380392;0.309804;0.227451
445608.77460201;5696562.05999954;472.58034994;28784.000000;1.000000;1.000000;1.000000;1.000000;-0.147725;0.147725;-0.147725;1.000000;0.501961;0.427451;0.356863
445608.74810131;5696562.43139847;472.59054996;28270.000000;1.000000;1.000000;1.000000;1.000000;-0.101398;0.101398;-0.101398;1.000000;0.478431;0.435294;0.309804
445608.56290157;5696562.19870003;472.58634998;43947.000000;1.000000;1.000000;1.000000;1.000000;0.063975;-0.063975;0.063975;1.000000;0.729412;0.654902;0.596078
445608.57080181;5696562.05249985;472.62694981;15163.000000;1.000000;1.000000;1.000000;1.000000;0.056075;-0.056075;0.056075;1.000000;0.266667;0.227451;0.184314
445608.52980145;5696562.08669861;472.62314989;6939.000000;1.000000;1.000000;1.000000;1.000000;0.097075;-0.097075;0.097075;1.000000;0.133333;0.101961;0.0862745
445608.88210114;5696562.32599838;472.56274988;34181.000000;1.000000;1.000000;1.000000;1.000000;0.004002;-0.004002;0.004002;1.000000;0.572549;0.513725;0.447059
445608.43500145;5696562.38029869;472.63635017;34952.000000;1.000000;1.000000;1.000000;1.000000;-0.050476;0.050476;-0.050476;1.000000;0.607843;0.529412;0.364706
445608.58640202;5696562.08859833;472.61404993;24415.000000;1.000000;1.000000;1.000000;1.000000;0.040475;-0.040475;0.040475;1.000000;0.407843;0.364706;0.337255
445608.75220116;5696562.09709938;472.58444979;25957.000000;1.000000;1.000000;1.000000;1.000000;-0.125324;0.125324;-0.125324;1.000000;0.462745;0.380392;0.309804
445608.39770134;5696562.37909897;472.63234999;40606.000000;1.000000;1.000000;1.000000;1.000000;-0.049567;0.049567;-0.049567;1.000000;0.698039;0.615686;0.458824
445608.36010178;5696562.37789925;472.63294985;33667.000000;1.000000;1.000000;1.000000;1.000000;-0.047899;0.047899;-0.047899;1.000000;0.576471;0.505882;0.396078
445608.51520164;5696562.01989944;472.65194990;7710.000000;1.000000;1.000000;1.000000;1.000000;0.111675;-0.111675;0.111675;1.000000;0.141176;0.113725;0.0901961
445608.33670147;5696562.26519974;472.66085007;43690.000000;1.000000;1.000000;1.000000;1.000000;0.064800;-0.064800;0.064800;1.000000;0.709804;0.678431;0.517647
445608.81400116;5696562.43469818;472.58654978;23130.000000;1.000000;1.000000;1.000000;1.000000;0.104698;-0.104698;0.104698;1.000000;0.4;0.34902;0.27451
445608.33780201;5696562.22769936;472.66274979;27499.000000;1.000000;1.000000;1.000000;1.000000;0.102303;-0.102303;0.102303;1.000000;0.466667;0.435294;0.215686
445608.71080120;5696562.20599945;472.58855011;3598.000000;1.000000;1.000000;1.000000;1.000000;-0.083924;-0.083924;0.083924;1.000000;0.0823529;0.0470588;0.0313725
445608.44750126;5696562.23219879;472.62344982;19532.000000;1.000000;1.000000;1.000000;1.000000;0.097801;-0.097801;0.097801;1.000000;0.356863;0.290196;0.192157
445608.82120140;5696562.00669868;472.57714989;44461.000000;1.000000;1.000000;1.000000;1.000000;-0.176699;0.176699;-0.176699;1.000000;0.721569;0.670588;0.611765
445608.52400120;5696562.23499878;472.58974983;43947.000000;1.000000;1.000000;1.000000;1.000000;0.095001;-0.095001;0.095001;1.000000;0.741176;0.654902;0.564706
445608.67210110;5696562.24230011;472.58715012;12850.000000;1.000000;1.000000;1.000000;1.000000;-0.045224;-0.045224;0.045224;1.000000;0.239216;0.188235;0.152941
445608.63460167;5696562.24109848;472.58785011;21845.000000;1.000000;1.000000;1.000000;1.000000;-0.007725;0.007725;-0.007725;1.000000;0.380392;0.321569;0.270588
445608.59940155;5696562.23969849;472.58624985;14906.000000;1.000000;1.000000;1.000000;1.000000;0.027475;-0.027475;0.027475;1.000000;0.294118;0.211765;0.141176
445608.71130188;5696561.99309929;472.60225012;49344.000000;1.000000;1.000000;1.000000;1.000000;-0.084425;0.084425;-0.084425;1.000000;0.792157;0.74902;0.694118
445608.89430149;5696562.25029953;472.55074980;20817.000000;1.000000;1.000000;1.000000;1.000000;0.079700;-0.079700;0.079700;1.000000;0.364706;0.305882;0.254902
445608.56040199;5696562.27359970;472.58944990;37008.000000;1.000000;1.000000;1.000000;1.000000;0.056540;-0.056540;0.056540;1.000000;0.627451;0.552941;0.478431
445608.59610184;5696562.27739914;472.58414986;31354.000000;1.000000;1.000000;1.000000;1.000000;0.030775;-0.030775;0.030775;1.000000;0.529412;0.466667;0.407843
445608.40990170;5696562.30569847;472.62505009;15934.000000;1.000000;1.000000;1.000000;1.000000;0.024302;-0.024302;0.024302;1.000000;0.305882;0.235294;0.129412
445608.77120121;5696562.09779938;472.57824995;31097.000000;1.000000;1.000000;1.000000;1.000000;-0.144324;0.144324;-0.144324;1.000000;0.533333;0.462745;0.396078
445608.44400127;5696562.34459885;472.62234976;29041.000000;1.000000;1.000000;1.000000;1.000000;-0.014599;0.014599;-0.014599;1.000000;0.513725;0.443137;0.282353
445608.40880116;5696562.34319885;472.62304976;28013.000000;1.000000;1.000000;1.000000;1.000000;-0.013199;0.013199;-0.013199;1.000000;0.498039;0.419608;0.290196
445608.54480179;5696562.38479813;472.59474995;19275.000000;1.000000;1.000000;1.000000;1.000000;-0.054798;0.054798;-0.054798;1.000000;0.341176;0.294118;0.192157
445608.77490147;5696562.46859940;472.59214975;14906.000000;1.000000;1.000000;1.000000;1.000000;-0.138599;0.138599;-0.138599;1.000000;0.270588;0.227451;0.133333
445608.59000118;5696562.46249969;472.58374979;37779.000000;1.000000;1.000000;1.000000;1.000000;-0.132500;0.132500;-0.132500;1.000000;0.603922;0.580392;0.494118
445608.55210121;5696562.45899971;472.58664991;39835.000000;1.000000;1.000000;1.000000;1.000000;-0.129000;0.129000;-0.129000;1.000000;0.65098;0.607843;0.509804
445608.71750172;5696562.05799873;472.59865000;21331.000000;1.000000;1.000000;1.000000;1.000000;-0.090625;0.090625;-0.090625;1.000000;0.388235;0.313725;0.239216
445608.73740108;5696562.46739967;472.59044983;29812.000000;1.000000;1.000000;1.000000;1.000000;-0.137400;0.137400;-0.137400;1.000000;0.494118;0.470588;0.290196
445608.62510117;5696562.46389969;472.58535006;23901.000000;1.000000;1.000000;1.000000;1.000000;-0.133900;0.133900;-0.133900;1.000000;0.396078;0.376471;0.247059
445608.62390144;5696562.50139816;472.58575012;39835.000000;1.000000;1.000000;1.000000;1.000000;-0.171398;0.171398;-0.171398;1.000000;0.639216;0.611765;0.505882
445608.54860123;5696562.49669846;472.58694984;20817.000000;1.000000;1.000000;1.000000;1.000000;-0.166698;0.166698;-0.166698;1.000000;0.364706;0.313725;0.231373
445608.58650120;5696562.50019844;472.58404972;36494.000000;1.000000;1.000000;1.000000;1.000000;-0.170198;0.170198;-0.170198;1.000000;0.596078;0.556863;0.47451
445608.71640118;5696562.09549912;472.59674980;22873.000000;1.000000;1.000000;1.000000;1.000000;-0.089524;0.089524;-0.089524;1.000000;0.423529;0.329412;0.254902
445608.50610168;5696562.42109879;472.59574987;28784.000000;1.000000;1.000000;1.000000;1.000000;-0.091099;0.091099;-0.091099;1.000000;0.498039;0.435294;0.333333
445608.50490196;5696562.45849998;472.59614994;19789.000000;1.000000;1.000000;1.000000;1.000000;-0.128500;0.128500;-0.128500;1.000000;0.364706;0.294118;0.176471
445608.68900116;5696562.05589874;472.60435011;11051.000000;1.000000;1.000000;1.000000;1.000000;-0.062124;0.062124;-0.062124;1.000000;0.223529;0.156863;0.105882
