//X;Y;Z;Intensity;Return Number;Number Of Returns;Scan Direction Flag;Point Source ID;C2M signed distances[-][<0.8];C2M signed distances[<0.4];C2M signed distances[-][<0.2];Stump107;Rf;Gf;Bf
300
445622.41570099;5696569.03269966;471.90084984;19789.000000;1.000000;1.000000;1.000000;1.000000;0.070074;-0.070074;0.070074;1.000000;0.301961;0.305882;0.313725
445622.61350067;5696568.78129967;471.86714985;8224.000000;1.000000;1.000000;1.000000;1.000000;-0.048700;0.048700;-0.048700;1.000000;0.117647;0.12549;0.14902
445622.61470230;5696568.74379929;471.86674978;14135.000000;1.000000;1.000000;1.000000;1.000000;-0.086201;0.086201;-0.086201;1.000000;0.2;0.219608;0.239216
445622.37760170;5696569.05019959;471.90164997;12850.000000;1.000000;1.000000;1.000000;1.000000;0.031975;-0.031975;0.031975;1.000000;0.188235;0.2;0.219608
445622.22590073;5696568.87519844;471.89505007;10794.000000;1.000000;1.000000;1.000000;1.000000;-0.119726;0.119726;-0.119726;1.000000;0.188235;0.160784;0.129412
445622.32380112;5696569.02029903;471.89185001;19275.000000;1.000000;1.000000;1.000000;1.000000;-0.021826;0.021826;-0.021826;1.000000;0.298039;0.298039;0.290196
445622.71300133;5696568.82329948;471.87445023;19018.000000;1.000000;1.000000;1.000000;1.000000;-0.006701;0.006701;-0.006701;1.000000;0.286275;0.294118;0.298039
445622.49090202;5696568.77609928;471.88014986;9766.000000;1.000000;1.000000;1.000000;1.000000;-0.053901;0.053901;-0.053901;1.000000;0.133333;0.156863;0.176471
445622.35320099;5696568.98489960;471.89274981;22873.000000;1.000000;1.000000;1.000000;1.000000;0.007574;-0.007574;0.007574;1.000000;0.34902;0.352941;0.337255
445622.27930077;5696568.94269951;471.88894989;14135.000000;1.000000;1.000000;1.000000;1.000000;-0.066326;0.066326;-0.066326;1.000000;0.207843;0.223529;0.211765
445622.39790161;5696568.98769959;471.89244987;21845.000000;1.000000;1.000000;1.000000;1.000000;0.052275;-0.052275;0.052275;1.000000;0.337255;0.337255;0.32549
445622.21360214;5696568.94179924;471.89055016;40606.000000;1.000000;1.000000;1.000000;1.000000;-0.132025;0.132025;-0.132025;1.000000;0.619608;0.627451;0.603922
445622.21700104;5696568.90409859;471.89265015;19789.000000;1.000000;1.000000;1.000000;1.000000;-0.128626;0.128626;-0.128626;1.000000;0.329412;0.298039;0.258824
445622.24120148;5696568.96029861;471.88744976;7196.000000;1.000000;1.000000;1.000000;1.000000;-0.104425;0.104425;-0.104425;1.000000;0.101961;0.117647;0.113725
445622.59380157;5696568.77139862;471.86844971;18247.000000;1.000000;1.000000;1.000000;1.000000;-0.058601;0.058601;-0.058601;1.000000;0.266667;0.282353;0.298039
445622.68850143;5696568.94439896;471.89115002;22359.000000;1.000000;1.000000;1.000000;1.000000;0.114399;-0.114399;0.114399;1.000000;0.356863;0.341176;0.317647
445622.19580086;5696568.95049866;471.88985016;48059.000000;1.000000;1.000000;1.000000;1.000000;-0.149826;0.149826;-0.149826;1.000000;0.729412;0.741176;0.709804
445622.41750153;5696568.99759872;471.89344980;21074.000000;1.000000;1.000000;1.000000;1.000000;0.071875;-0.071875;0.071875;1.000000;0.32549;0.32549;0.317647
445622.45510109;5696568.99879845;471.89055016;19018.000000;1.000000;1.000000;1.000000;1.000000;0.109474;-0.109474;0.109474;1.000000;0.290196;0.290196;0.290196
445622.56880196;5696568.90899857;471.87834980;40863.000000;1.000000;1.000000;1.000000;1.000000;0.079122;-0.079122;0.079122;1.000000;0.635294;0.627451;0.588235
445622.15910156;5696568.90939911;471.89244987;10794.000000;1.000000;1.000000;1.000000;1.000000;-0.186525;0.186525;-0.186525;1.000000;0.180392;0.168627;0.105882
445622.19690140;5696568.91299923;471.89185001;12079.000000;1.000000;1.000000;1.000000;1.000000;-0.148726;0.148726;-0.148726;1.000000;0.2;0.184314;0.145098
445622.23550232;5696568.87659843;471.89314987;10794.000000;1.000000;1.000000;1.000000;1.000000;-0.110125;0.110125;-0.110125;1.000000;0.188235;0.164706;0.133333
445622.34810074;5696568.88019951;471.89125015;11308.000000;1.000000;1.000000;1.000000;1.000000;0.002474;-0.002474;0.002474;1.000000;0.160784;0.180392;0.164706
445622.40800102;5696568.99609955;471.89304974;18761.000000;1.000000;1.000000;1.000000;1.000000;0.062374;-0.062374;0.062374;1.000000;0.286275;0.290196;0.282353
445622.31200226;5696568.84389885;471.89155008;11308.000000;1.000000;1.000000;1.000000;1.000000;-0.033625;0.033625;-0.033625;1.000000;0.164706;0.180392;0.172549
445622.61620148;5696568.70639904;471.85934975;18247.000000;1.000000;1.000000;1.000000;1.000000;-0.123601;0.123601;-0.123601;1.000000;0.266667;0.282353;0.305882
445622.47060211;5696569.07189949;471.90605022;13878.000000;1.000000;1.000000;1.000000;1.000000;0.124975;-0.124975;0.124975;1.000000;0.215686;0.215686;0.215686
445622.28420074;5696569.04729851;471.89274981;14135.000000;1.000000;1.000000;1.000000;1.000000;-0.061426;0.061426;-0.061426;1.000000;0.219608;0.219608;0.203922
445622.61750229;5696568.66889961;471.85664989;24929.000000;1.000000;1.000000;1.000000;1.000000;-0.161100;0.161100;-0.161100;1.000000;0.368627;0.384314;0.396078
445622.58110245;5696568.63029869;471.85694983;11051.000000;1.000000;1.000000;1.000000;1.000000;-0.199716;0.199716;-0.199716;1.000000;0.160784;0.172549;0.180392
445622.65620239;5696568.63269909;471.85564997;10537.000000;1.000000;1.000000;1.000000;1.000000;-0.197301;0.197301;-0.197301;1.000000;0.14902;0.164706;0.180392
445622.74970062;5696569.04859932;471.89045002;37779.000000;1.000000;1.000000;1.000000;1.000000;0.122300;-0.122300;0.122300;1.000000;0.615686;0.572549;0.494118
445622.75310143;5696569.01079948;471.89244987;27242.000000;1.000000;1.000000;1.000000;1.000000;0.114237;-0.114237;0.114237;1.000000;0.482353;0.403922;0.329412
445622.35880096;5696569.04959877;471.90304996;16962.000000;1.000000;1.000000;1.000000;1.000000;0.013174;-0.013174;0.013174;1.000000;0.258824;0.262745;0.266667
445622.57350166;5696568.83389862;471.87764980;21331.000000;1.000000;1.000000;1.000000;1.000000;0.009923;-0.009923;0.009923;1.000000;0.333333;0.329412;0.309804
445622.26100166;5696568.97019966;471.88374998;14906.000000;1.000000;1.000000;1.000000;1.000000;-0.084625;0.084625;-0.084625;1.000000;0.219608;0.235294;0.227451
445622.44770248;5696568.94119843;471.88254978;14649.000000;1.000000;1.000000;1.000000;1.000000;0.102076;-0.102076;0.102076;1.000000;0.223529;0.227451;0.219608
445622.60910233;5696568.86559875;471.87964966;14135.000000;1.000000;1.000000;1.000000;1.000000;0.035599;-0.035599;0.035599;1.000000;0.223529;0.219608;0.207843
445622.74680145;5696568.91579922;471.88644983;24415.000000;1.000000;1.000000;1.000000;1.000000;0.085799;-0.085799;0.085799;1.000000;0.419608;0.364706;0.309804
445622.22960098;5696568.78389938;471.88245012;8481.000000;1.000000;1.000000;1.000000;1.000000;-0.124849;0.124849;-0.124849;1.000000;0.141176;0.129412;0.113725
445622.60910233;5696568.83759888;471.87465002;15420.000000;1.000000;1.000000;1.000000;1.000000;0.007599;-0.007599;0.007599;1.000000;0.239216;0.235294;0.231373
445622.43530090;5696569.01459892;471.89685013;19532.000000;1.000000;1.000000;1.000000;1.000000;0.089674;-0.089674;0.089674;1.000000;0.294118;0.301961;0.313725
445622.41730125;5696568.79219921;471.88635017;9509.000000;1.000000;1.000000;1.000000;1.000000;-0.037803;0.037803;-0.037803;1.000000;0.133333;0.152941;0.156863
445622.45390137;5696568.75609978;471.88065006;14135.000000;1.000000;1.000000;1.000000;1.000000;-0.073900;0.073900;-0.073900;1.000000;0.203922;0.223529;0.239216
445622.18190201;5696568.82789906;471.89244987;26985.000000;1.000000;1.000000;1.000000;1.000000;-0.163738;0.163738;-0.163738;1.000000;0.443137;0.411765;0.360784
445622.57110222;5696568.88309868;471.87804987;12850.000000;1.000000;1.000000;1.000000;1.000000;0.053523;-0.053523;0.053523;1.000000;0.203922;0.2;0.188235
445622.55890091;5696568.72319897;471.86864998;13621.000000;1.000000;1.000000;1.000000;1.000000;-0.106801;0.106801;-0.106801;1.000000;0.192157;0.215686;0.243137
445622.40500076;5696568.83759888;471.89104988;32382.000000;1.000000;1.000000;1.000000;1.000000;0.007599;-0.007599;0.007599;1.000000;0.482353;0.501961;0.486275
445622.35940178;5696568.85339935;471.89615013;22102.000000;1.000000;1.000000;1.000000;1.000000;0.013775;-0.013775;0.013775;1.000000;0.32549;0.34902;0.337255
445622.39490135;5696568.85489853;471.89074995;19532.000000;1.000000;1.000000;1.000000;1.000000;0.024899;-0.024899;0.024899;1.000000;0.286275;0.309804;0.294118
445622.17300232;5696568.80769928;471.89185001;18504.000000;1.000000;1.000000;1.000000;1.000000;-0.174059;0.174059;-0.174059;1.000000;0.301961;0.286275;0.243137
445622.35850151;5696568.81619843;471.89094975;15420.000000;1.000000;1.000000;1.000000;1.000000;-0.013802;0.013802;-0.013802;1.000000;0.223529;0.243137;0.227451
445622.18780144;5696568.71749886;471.89605000;9509.000000;1.000000;1.000000;1.000000;1.000000;-0.193818;0.193818;-0.193818;1.000000;0.156863;0.14902;0.101961
445622.17420204;5696568.77249916;471.89615013;8738.000000;1.000000;1.000000;1.000000;1.000000;-0.180812;0.180812;-0.180812;1.000000;0.14902;0.141176;0.0823529
445622.39610107;5696568.81739910;471.89034988;14135.000000;1.000000;1.000000;1.000000;1.000000;-0.012601;0.012601;-0.012601;1.000000;0.211765;0.223529;0.196078
445622.37160118;5696568.72409924;471.87655022;14392.000000;1.000000;1.000000;1.000000;1.000000;-0.105901;0.105901;-0.105901;1.000000;0.215686;0.223529;0.219608
445622.40920074;5696568.72529896;471.87585022;12850.000000;1.000000;1.000000;1.000000;1.000000;-0.104707;0.104707;-0.104707;1.000000;0.184314;0.2;0.207843
445622.66180237;5696568.71849926;471.85925009;9766.000000;1.000000;1.000000;1.000000;1.000000;-0.111561;0.111561;-0.111561;1.000000;0.137255;0.156863;0.172549
445622.44650085;5696568.72649963;471.87995007;14906.000000;1.000000;1.000000;1.000000;1.000000;-0.103529;0.103529;-0.103529;1.000000;0.219608;0.231373;0.243137
445622.69920166;5696568.71969898;471.86095001;15420.000000;1.000000;1.000000;1.000000;1.000000;-0.110301;0.110301;-0.110301;1.000000;0.223529;0.239216;0.247059
445622.66320236;5696568.68109901;471.85424997;8995.000000;1.000000;1.000000;1.000000;1.000000;-0.148987;0.148987;-0.148987;1.000000;0.133333;0.141176;0.152941
445622.23050125;5696568.97059925;471.88705017;11051.000000;1.000000;1.000000;1.000000;1.000000;-0.115126;0.115126;-0.115126;1.000000;0.160784;0.176471;0.172549
445622.53730209;5696568.79519852;471.87554981;22359.000000;1.000000;1.000000;1.000000;1.000000;-0.035051;0.035051;-0.035051;1.000000;0.329412;0.345098;0.360784
445622.21730240;5696568.85729893;471.89444973;19018.000000;1.000000;1.000000;1.000000;1.000000;-0.128325;0.128325;-0.128325;1.000000;0.329412;0.282353;0.235294
445622.30550201;5696568.97299965;471.88814976;15934.000000;1.000000;1.000000;1.000000;1.000000;-0.040125;0.040125;-0.040125;1.000000;0.243137;0.247059;0.239216
445622.25480087;5696568.85849960;471.89374973;17990.000000;1.000000;1.000000;1.000000;1.000000;-0.090826;0.090826;-0.090826;1.000000;0.294118;0.27451;0.243137
445622.36760147;5696568.86439903;471.89424994;13878.000000;1.000000;1.000000;1.000000;1.000000;0.021975;-0.021975;0.021975;1.000000;0.2;0.223529;0.207843
445622.30900200;5696568.93529900;471.88784983;15934.000000;1.000000;1.000000;1.000000;1.000000;-0.036625;0.036625;-0.036625;1.000000;0.239216;0.247059;0.235294
445622.38330086;5696568.90279968;471.88385012;27499.000000;1.000000;1.000000;1.000000;1.000000;0.037674;-0.037674;0.037674;1.000000;0.407843;0.427451;0.411765
445622.56750114;5696568.94649895;471.88104965;13107.000000;1.000000;1.000000;1.000000;1.000000;0.116541;-0.116541;0.116541;1.000000;0.223529;0.2;0.168627
445622.49570091;5696568.90629967;471.88665010;15163.000000;1.000000;1.000000;1.000000;1.000000;0.076300;-0.076300;0.076300;1.000000;0.239216;0.235294;0.215686
445622.59810074;5696568.68709953;471.85834982;9509.000000;1.000000;1.000000;1.000000;1.000000;-0.142900;0.142900;-0.142900;1.000000;0.129412;0.14902;0.176471
445622.63570221;5696568.68829926;471.85545017;14906.000000;1.000000;1.000000;1.000000;1.000000;-0.141703;0.141703;-0.141703;1.000000;0.223529;0.231373;0.25098
445622.59940155;5696568.64959915;471.85564997;43433.000000;1.000000;1.000000;1.000000;1.000000;-0.180401;0.180401;-0.180401;1.000000;0.65098;0.670588;0.686275
445622.56170090;5696568.64839943;471.85855009;35723.000000;1.000000;1.000000;1.000000;1.000000;-0.181601;0.181601;-0.181601;1.000000;0.529412;0.552941;0.576471
445622.30970200;5696569.07519920;471.90354969;27499.000000;1.000000;1.000000;1.000000;1.000000;-0.035925;0.035925;-0.035925;1.000000;0.431373;0.419608;0.396078
445622.46120079;5696569.04479893;471.90304996;26471.000000;1.000000;1.000000;1.000000;1.000000;0.115574;-0.115574;0.115574;1.000000;0.396078;0.407843;0.419608
445622.52330215;5696568.69379910;471.87134983;6939.000000;1.000000;1.000000;1.000000;1.000000;-0.136201;0.136201;-0.136201;1.000000;0.0980392;0.109804;0.133333
445622.68540199;5696568.83049973;471.87795021;24672.000000;1.000000;1.000000;1.000000;1.000000;0.000500;-0.000500;0.000500;1.000000;0.372549;0.380392;0.372549
445622.67180069;5696568.69899948;471.85484983;13364.000000;1.000000;1.000000;1.000000;1.000000;-0.131115;0.131115;-0.131115;1.000000;0.203922;0.207843;0.215686
445622.71880157;5696568.91599854;471.88514997;18247.000000;1.000000;1.000000;1.000000;1.000000;0.085999;-0.085999;0.085999;1.000000;0.305882;0.27451;0.239216
445622.16590126;5696568.76149948;471.90255024;11051.000000;1.000000;1.000000;1.000000;1.000000;-0.192337;0.192337;-0.192337;1.000000;0.180392;0.176471;0.109804
445622.72370155;5696568.78509911;471.86754992;26728.000000;1.000000;1.000000;1.000000;1.000000;-0.045006;0.045006;-0.045006;1.000000;0.4;0.411765;0.419608
445622.70940216;5696568.91459854;471.88474991;23644.000000;1.000000;1.000000;1.000000;1.000000;0.084599;-0.084599;0.084599;1.000000;0.380392;0.360784;0.329412
445622.68260201;5696568.87739952;471.88304998;21331.000000;1.000000;1.000000;1.000000;1.000000;0.047400;-0.047400;0.047400;1.000000;0.321569;0.329412;0.317647
445622.38900192;5696568.79009922;471.88735010;10280.000000;1.000000;1.000000;1.000000;1.000000;-0.039901;0.039901;-0.039901;1.000000;0.152941;0.164706;0.156863
445622.50100143;5696568.75879868;471.87815001;12593.000000;1.000000;1.000000;1.000000;1.000000;-0.071201;0.071201;-0.071201;1.000000;0.180392;0.196078;0.215686
445622.58360107;5696568.78869923;471.87054970;21331.000000;1.000000;1.000000;1.000000;1.000000;-0.041301;0.041301;-0.041301;1.000000;0.317647;0.329412;0.345098
445622.58480080;5696568.75119980;471.87015011;14392.000000;1.000000;1.000000;1.000000;1.000000;-0.078800;0.078800;-0.078800;1.000000;0.203922;0.223529;0.247059
445622.69790085;5696568.75709923;471.86364986;20817.000000;1.000000;1.000000;1.000000;1.000000;-0.072901;0.072901;-0.072901;1.000000;0.305882;0.321569;0.333333
445622.55080231;5696568.71229942;471.87045004;8995.000000;1.000000;1.000000;1.000000;1.000000;-0.117701;0.117701;-0.117701;1.000000;0.121569;0.141176;0.176471
445622.58880241;5696568.71589859;471.86525013;22102.000000;1.000000;1.000000;1.000000;1.000000;-0.114101;0.114101;-0.114101;1.000000;0.32549;0.341176;0.364706
445622.62410172;5696568.71729858;471.86224987;21845.000000;1.000000;1.000000;1.000000;1.000000;-0.112701;0.112701;-0.112701;1.000000;0.321569;0.337255;0.345098
445622.42650230;5696568.79129894;471.88674976;10794.000000;1.000000;1.000000;1.000000;1.000000;-0.038701;0.038701;-0.038701;1.000000;0.14902;0.172549;0.172549
445622.46440132;5696568.72009857;471.88534977;13621.000000;1.000000;1.000000;1.000000;1.000000;-0.109901;0.109901;-0.109901;1.000000;0.196078;0.215686;0.231373
445622.59660156;5696568.72449883;471.86574986;18761.000000;1.000000;1.000000;1.000000;1.000000;-0.105501;0.105501;-0.105501;1.000000;0.27451;0.290196;0.309804
445622.53870209;5696568.75999935;471.87515022;15420.000000;1.000000;1.000000;1.000000;1.000000;-0.070114;0.070114;-0.070114;1.000000;0.219608;0.239216;0.262745
445622.20360191;5696568.95909889;471.89034988;40092.000000;1.000000;1.000000;1.000000;1.000000;-0.142025;0.142025;-0.142025;1.000000;0.611765;0.619608;0.592157
445622.42530067;5696569.00619896;471.89395000;18761.000000;1.000000;1.000000;1.000000;1.000000;0.079674;-0.079674;0.079674;1.000000;0.282353;0.290196;0.298039
445622.31970222;5696568.85249908;471.89435007;20046.000000;1.000000;1.000000;1.000000;1.000000;-0.025925;0.025925;-0.025925;1.000000;0.294118;0.313725;0.301961
445622.62560089;5696568.67989929;471.85484983;15420.000000;1.000000;1.000000;1.000000;1.000000;-0.150101;0.150101;-0.150101;1.000000;0.227451;0.239216;0.258824
445622.57630165;5696568.76129921;471.87225010;20303.000000;1.000000;1.000000;1.000000;1.000000;-0.069076;0.069076;-0.069076;1.000000;0.301961;0.313725;0.329412
445622.57170113;5696568.86439903;471.87795021;13878.000000;1.000000;1.000000;1.000000;1.000000;0.035170;-0.035170;0.035170;1.000000;0.211765;0.215686;0.203922
445622.71950157;5696568.86939915;471.87764980;16191.000000;1.000000;1.000000;1.000000;1.000000;0.039399;-0.039399;0.039399;1.000000;0.247059;0.25098;0.243137
445622.64800079;5696568.82929905;471.87624981;15934.000000;1.000000;1.000000;1.000000;1.000000;-0.000701;0.000701;-0.000701;1.000000;0.254902;0.243137;0.227451
445622.35450180;5696568.74199875;471.87824966;10537.000000;1.000000;1.000000;1.000000;1.000000;0.088001;-0.088001;0.088001;1.000000;0.160784;0.164706;0.14902
445622.35570152;5696568.70459946;471.87785007;11051.000000;1.000000;1.000000;1.000000;1.000000;-0.125401;0.125401;-0.125401;1.000000;0.160784;0.172549;0.172549
445622.59150131;5696568.64099892;471.85755016;29298.000000;1.000000;1.000000;1.000000;1.000000;-0.189001;0.189001;-0.189001;1.000000;0.435294;0.45098;0.458824
445622.66430099;5696568.64359863;471.85384991;12079.000000;1.000000;1.000000;1.000000;1.000000;-0.186504;0.186504;-0.186504;1.000000;0.172549;0.188235;0.2
445622.76090248;5696569.01949890;471.89295008;26471.000000;1.000000;1.000000;1.000000;1.000000;0.107575;-0.107575;0.107575;1.000000;0.466667;0.392157;0.305882
445622.44930084;5696568.65389927;471.87454988;17733.000000;1.000000;1.000000;1.000000;1.000000;-0.176101;0.176101;-0.176101;1.000000;0.262745;0.27451;0.294118
445622.39180191;5696568.71519859;471.87734987;13364.000000;1.000000;1.000000;1.000000;1.000000;-0.114801;0.114801;-0.114801;1.000000;0.196078;0.211765;0.215686
445622.73240097;5696568.77729900;471.86544992;31611.000000;1.000000;1.000000;1.000000;1.000000;-0.053213;0.053213;-0.053213;1.000000;0.470588;0.490196;0.498039
445622.58870132;5696568.87209900;471.87874987;13878.000000;1.000000;1.000000;1.000000;1.000000;0.042099;-0.042099;0.042099;1.000000;0.219608;0.211765;0.196078
445622.40710075;5696568.98689850;471.89284994;18761.000000;1.000000;1.000000;1.000000;1.000000;0.061474;-0.061474;0.061474;1.000000;0.290196;0.290196;0.282353
445622.55630119;5696568.79809959;471.87404968;12593.000000;1.000000;1.000000;1.000000;1.000000;-0.031900;0.031900;-0.031900;1.000000;0.188235;0.196078;0.203922
445622.42930229;5696568.71639927;471.87664988;11822.000000;1.000000;1.000000;1.000000;1.000000;-0.113601;0.113601;-0.113601;1.000000;0.168627;0.184314;0.192157
445622.41180237;5696568.67839916;471.87544968;23901.000000;1.000000;1.000000;1.000000;1.000000;-0.151645;0.151645;-0.151645;1.000000;0.356863;0.368627;0.380392
445622.52240189;5696568.68449982;471.87124969;10023.000000;1.000000;1.000000;1.000000;1.000000;-0.145500;0.145500;-0.145500;1.000000;0.14902;0.156863;0.176471
445622.45080193;5696568.64439972;471.87445023;22873.000000;1.000000;1.000000;1.000000;1.000000;-0.185600;0.185600;-0.185600;1.000000;0.341176;0.352941;0.364706
445622.50510223;5696568.67439850;471.87264969;12079.000000;1.000000;1.000000;1.000000;1.000000;-0.155635;0.155635;-0.155635;1.000000;0.172549;0.188235;0.211765
445622.54000099;5696568.72259911;471.87244989;15163.000000;1.000000;1.000000;1.000000;1.000000;-0.107434;0.107434;-0.107434;1.000000;0.219608;0.235294;0.262745
445622.39310081;5696568.67779930;471.87454988;14906.000000;1.000000;1.000000;1.000000;1.000000;-0.152201;0.152201;-0.152201;1.000000;0.215686;0.231373;0.247059
445622.40330132;5696569.08029945;471.91244986;25957.000000;1.000000;1.000000;1.000000;1.000000;0.057674;-0.057674;0.057674;1.000000;0.384314;0.4;0.407843
445622.22060211;5696569.03479965;471.87804987;44975.000000;1.000000;1.000000;1.000000;1.000000;-0.125025;0.125025;-0.125025;1.000000;0.678431;0.694118;0.67451
445622.74790199;5696568.87149914;471.87435009;19018.000000;1.000000;1.000000;1.000000;1.000000;0.041499;-0.041499;0.041499;1.000000;0.309804;0.290196;0.25098
445622.71360214;5696568.83029945;471.87454988;19275.000000;1.000000;1.000000;1.000000;1.000000;0.000299;-0.000299;0.000299;1.000000;0.290196;0.298039;0.301961
445622.65810211;5696568.78409966;471.86924984;10537.000000;1.000000;1.000000;1.000000;1.000000;-0.045900;0.045900;-0.045900;1.000000;0.160784;0.160784;0.164706
445622.69540222;5696568.78299912;471.86854984;12850.000000;1.000000;1.000000;1.000000;1.000000;-0.047001;0.047001;-0.047001;1.000000;0.192157;0.2;0.211765
445622.73320206;5696568.78649910;471.86794998;30069.000000;1.000000;1.000000;1.000000;1.000000;-0.043992;0.043992;-0.043992;1.000000;0.45098;0.466667;0.470588
445622.57770164;5696568.72389896;471.86714985;15163.000000;1.000000;1.000000;1.000000;1.000000;-0.106260;0.106260;-0.106260;1.000000;0.215686;0.235294;0.254902
445622.25320061;5696568.91479881;471.88975002;12593.000000;1.000000;1.000000;1.000000;1.000000;-0.092426;0.092426;-0.092426;1.000000;0.192157;0.2;0.172549
445622.32940109;5696568.87969978;471.89045002;13107.000000;1.000000;1.000000;1.000000;1.000000;-0.016226;0.016226;-0.016226;1.000000;0.192157;0.207843;0.192157
445622.69920166;5696568.93409927;471.89144995;26214.000000;1.000000;1.000000;1.000000;1.000000;0.104099;-0.104099;0.104099;1.000000;0.423529;0.4;0.360784
445622.59950073;5696568.83609970;471.87645008;15934.000000;1.000000;1.000000;1.000000;1.000000;0.006100;-0.006100;0.006100;1.000000;0.25098;0.243137;0.231373
445622.52790077;5696568.79599960;471.87745001;27242.000000;1.000000;1.000000;1.000000;1.000000;-0.034000;0.034000;-0.034000;1.000000;0.403922;0.423529;0.435294
445622.31890114;5696569.07429894;471.90625002;33667.000000;1.000000;1.000000;1.000000;1.000000;-0.026726;0.026726;-0.026726;1.000000;0.529412;0.513725;0.498039
445622.64090164;5696568.80199917;471.87325003;17476.000000;1.000000;1.000000;1.000000;1.000000;-0.028001;0.028001;-0.028001;1.000000;0.278431;0.266667;0.258824
445622.27880104;5696568.96149929;471.88674976;13621.000000;1.000000;1.000000;1.000000;1.000000;-0.066826;0.066826;-0.066826;1.000000;0.207843;0.215686;0.2
445622.42810066;5696568.93129929;471.88385012;11051.000000;1.000000;1.000000;1.000000;1.000000;0.082474;-0.082474;0.082474;1.000000;0.164706;0.172549;0.168627
445622.24980171;5696568.77499969;471.88324978;16705.000000;1.000000;1.000000;1.000000;1.000000;-0.110488;0.110488;-0.110488;1.000000;0.258824;0.258824;0.239216
445622.27500160;5696569.07389935;471.89265015;23644.000000;1.000000;1.000000;1.000000;1.000000;-0.070625;0.070625;-0.070625;1.000000;0.368627;0.364706;0.352941
445622.36030205;5696569.04009922;471.90074970;16705.000000;1.000000;1.000000;1.000000;1.000000;0.014675;-0.014675;0.014675;1.000000;0.254902;0.258824;0.258824
445622.33030136;5696568.84209927;471.89704992;15163.000000;1.000000;1.000000;1.000000;1.000000;-0.015326;0.015326;-0.015326;1.000000;0.215686;0.239216;0.235294
445622.36820229;5696568.84559925;471.89414980;24415.000000;1.000000;1.000000;1.000000;1.000000;0.015599;-0.015599;0.015599;1.000000;0.356863;0.384314;0.380392
445622.18170174;5696568.79989918;471.88975002;14135.000000;1.000000;1.000000;1.000000;1.000000;-0.166666;0.166666;-0.166666;1.000000;0.231373;0.215686;0.176471
445622.47290237;5696568.78469856;471.88184978;17219.000000;1.000000;1.000000;1.000000;1.000000;-0.045359;0.045359;-0.045359;1.000000;0.247059;0.270588;0.290196
445622.18500145;5696568.76219948;471.89414980;8995.000000;1.000000;1.000000;1.000000;1.000000;-0.174349;0.174349;-0.174349;1.000000;0.156863;0.141176;0.0941176
445622.47410210;5696568.74729927;471.88145020;12336.000000;1.000000;1.000000;1.000000;1.000000;-0.082774;0.082774;-0.082774;1.000000;0.176471;0.192157;0.211765
445622.67260178;5696568.70819862;471.85734989;11822.000000;1.000000;1.000000;1.000000;1.000000;-0.121891;0.121891;-0.121891;1.000000;0.172549;0.184314;0.196078
445622.70770081;5696568.70959862;471.85895016;22616.000000;1.000000;1.000000;1.000000;1.000000;-0.120401;0.120401;-0.120401;1.000000;0.337255;0.34902;0.360784
445622.34210213;5696568.78749855;471.88525011;10280.000000;1.000000;1.000000;1.000000;1.000000;0.042647;-0.042647;0.042647;1.000000;0.152941;0.164706;0.160784
445622.31360062;5696569.03759964;471.89395000;18247.000000;1.000000;1.000000;1.000000;1.000000;-0.032026;0.032026;-0.032026;1.000000;0.286275;0.282353;0.270588
445622.31510170;5696569.00239952;471.89125015;18504.000000;1.000000;1.000000;1.000000;1.000000;-0.030525;0.030525;-0.030525;1.000000;0.278431;0.286275;0.27451
445622.38770111;5696569.00499924;471.89454987;18761.000000;1.000000;1.000000;1.000000;1.000000;0.042074;-0.042074;0.042074;1.000000;0.286275;0.290196;0.290196
445622.49390228;5696568.75719936;471.87774994;10280.000000;1.000000;1.000000;1.000000;1.000000;-0.072801;0.072801;-0.072801;1.000000;0.141176;0.160784;0.184314
445622.20470245;5696568.92159851;471.89225008;10023.000000;1.000000;1.000000;1.000000;1.000000;-0.140924;0.140924;-0.140924;1.000000;0.164706;0.152941;0.121569
445622.24480064;5696568.92489918;471.88945009;19018.000000;1.000000;1.000000;1.000000;1.000000;-0.100826;0.100826;-0.100826;1.000000;0.290196;0.298039;0.270588
445622.52920158;5696568.75859936;471.87474968;16705.000000;1.000000;1.000000;1.000000;1.000000;-0.071401;0.071401;-0.071401;1.000000;0.239216;0.258824;0.282353
445622.20810135;5696568.88379868;471.89435007;17219.000000;1.000000;1.000000;1.000000;1.000000;-0.137526;0.137526;-0.137526;1.000000;0.290196;0.258824;0.211765
445622.17180069;5696568.84519966;471.89225008;31354.000000;1.000000;1.000000;1.000000;1.000000;-0.173826;0.173826;-0.173826;1.000000;0.505882;0.478431;0.407843
445622.24700172;5696568.84989937;471.89335014;17219.000000;1.000000;1.000000;1.000000;1.000000;-0.098625;0.098625;-0.098625;1.000000;0.294118;0.258824;0.223529
445622.28240211;5696568.85129936;471.89024975;16962.000000;1.000000;1.000000;1.000000;1.000000;-0.063225;0.063225;-0.063225;1.000000;0.262745;0.266667;0.239216
445622.56680115;5696568.75979908;471.87414982;20560.000000;1.000000;1.000000;1.000000;1.000000;-0.070243;0.070243;-0.070243;1.000000;0.301961;0.317647;0.337255
445622.38250168;5696568.71609886;471.87694981;8995.000000;1.000000;1.000000;1.000000;1.000000;-0.113969;0.113969;-0.113969;1.000000;0.129412;0.141176;0.152941
445622.42010124;5696568.71729858;471.87624981;12336.000000;1.000000;1.000000;1.000000;1.000000;-0.112701;0.112701;-0.112701;1.000000;0.176471;0.192157;0.207843
445622.53040131;5696568.72109898;471.87435009;13364.000000;1.000000;1.000000;1.000000;1.000000;-0.108901;0.108901;-0.108901;1.000000;0.192157;0.207843;0.243137
445622.33920105;5696569.06769951;471.90704967;28013.000000;1.000000;1.000000;1.000000;1.000000;-0.006426;0.006426;-0.006426;1.000000;0.431373;0.431373;0.431373
445622.37830170;5696569.03149899;471.89914991;15677.000000;1.000000;1.000000;1.000000;1.000000;0.032675;-0.032675;0.032675;1.000000;0.231373;0.243137;0.258824
445622.52400215;5696568.67509850;471.86884977;14135.000000;1.000000;1.000000;1.000000;1.000000;-0.154902;0.154902;-0.154902;1.000000;0.2;0.219608;0.243137
445622.56180199;5696568.67629917;471.86354973;12593.000000;1.000000;1.000000;1.000000;1.000000;-0.153701;0.153701;-0.153701;1.000000;0.176471;0.196078;0.219608
445622.32630165;5696568.71429928;471.87664988;12593.000000;1.000000;1.000000;1.000000;1.000000;0.117304;-0.117304;0.117304;1.000000;0.188235;0.196078;0.188235
445622.66110237;5696568.76519974;471.86674978;16448.000000;1.000000;1.000000;1.000000;1.000000;-0.064869;0.064869;-0.064869;1.000000;0.243137;0.254902;0.262745
445622.62330063;5696568.76169975;471.86735012;26214.000000;1.000000;1.000000;1.000000;1.000000;-0.068300;0.068300;-0.068300;1.000000;0.384314;0.403922;0.423529
445622.66010101;5696568.72789963;471.86394979;14135.000000;1.000000;1.000000;1.000000;1.000000;-0.102119;0.102119;-0.102119;1.000000;0.207843;0.219608;0.223529
445622.51690109;5696568.64779861;471.86584999;9766.000000;1.000000;1.000000;1.000000;1.000000;-0.182201;0.182201;-0.182201;1.000000;0.137255;0.152941;0.168627
445622.45870216;5696569.07289894;471.91254999;11565.000000;1.000000;1.000000;1.000000;1.000000;0.113075;-0.113075;0.113075;1.000000;0.176471;0.180392;0.188235
445622.36370094;5696568.71549900;471.87834980;10794.000000;1.000000;1.000000;1.000000;1.000000;-0.114501;0.114501;-0.114501;1.000000;0.160784;0.168627;0.168627
445622.38370140;5696568.67859848;471.87655022;11051.000000;1.000000;1.000000;1.000000;1.000000;-0.151426;0.151426;-0.151426;1.000000;0.156863;0.172549;0.196078
445622.43630226;5696568.99819954;471.89204981;25700.000000;1.000000;1.000000;1.000000;1.000000;0.090675;-0.090675;0.090675;1.000000;0.396078;0.396078;0.392157
445622.34090240;5696569.03029926;471.89734985;13621.000000;1.000000;1.000000;1.000000;1.000000;-0.004725;0.004725;-0.004725;1.000000;0.207843;0.207843;0.207843
445622.17810066;5696568.91239937;471.89094975;10280.000000;1.000000;1.000000;1.000000;1.000000;-0.167526;0.167526;-0.167526;1.000000;0.176471;0.160784;0.117647
445622.37970169;5696568.99409874;471.89405014;17733.000000;1.000000;1.000000;1.000000;1.000000;0.034075;-0.034075;0.034075;1.000000;0.266667;0.27451;0.286275
445622.23440178;5696568.91419895;471.89125015;8995.000000;1.000000;1.000000;1.000000;1.000000;-0.111225;0.111225;-0.111225;1.000000;0.141176;0.141176;0.117647
445622.21670158;5696568.87599953;471.89465000;10023.000000;1.000000;1.000000;1.000000;1.000000;-0.128925;0.128925;-0.128925;1.000000;0.180392;0.14902;0.113725
445622.66170128;5696568.93289955;471.88975002;21845.000000;1.000000;1.000000;1.000000;1.000000;0.102962;-0.102962;0.102962;1.000000;0.333333;0.337255;0.321569
445622.16390236;5696568.83659943;471.89405014;38550.000000;1.000000;1.000000;1.000000;1.000000;-0.181725;0.181725;-0.181725;1.000000;0.611765;0.592157;0.529412
445622.63490112;5696568.70699890;471.86025002;8738.000000;1.000000;1.000000;1.000000;1.000000;-0.123011;0.123011;-0.123011;1.000000;0.121569;0.137255;0.156863
445622.35070236;5696568.80759914;471.89055016;15677.000000;1.000000;1.000000;1.000000;1.000000;0.022401;-0.022401;0.022401;1.000000;0.235294;0.247059;0.231373
445622.63410194;5696568.66979893;471.85274984;16962.000000;1.000000;1.000000;1.000000;1.000000;-0.160218;0.160218;-0.160218;1.000000;0.25098;0.262745;0.270588
445622.59880074;5696568.66839893;471.85584976;22102.000000;1.000000;1.000000;1.000000;1.000000;-0.161601;0.161601;-0.161601;1.000000;0.321569;0.345098;0.368627
445622.72640236;5696568.71019943;471.85974981;19789.000000;1.000000;1.000000;1.000000;1.000000;-0.119940;0.119940;-0.119940;1.000000;0.286275;0.305882;0.329412
445622.63760193;5696568.63209923;471.85244991;8224.000000;1.000000;1.000000;1.000000;1.000000;-0.197901;0.197901;-0.197901;1.000000;0.113725;0.129412;0.145098
445622.67530067;5696568.63559921;471.85424997;10280.000000;1.000000;1.000000;1.000000;1.000000;-0.194411;0.194411;-0.194411;1.000000;0.14902;0.160784;0.176471
445622.65010078;5696568.77319916;471.86875011;8224.000000;1.000000;1.000000;1.000000;1.000000;-0.056801;0.056801;-0.056801;1.000000;0.121569;0.129412;0.145098
445622.32140167;5696569.04619892;471.89435007;22102.000000;1.000000;1.000000;1.000000;1.000000;-0.024225;0.024225;-0.024225;1.000000;0.34902;0.337255;0.321569
445622.36030205;5696569.01219948;471.89575006;19789.000000;1.000000;1.000000;1.000000;1.000000;0.014675;-0.014675;0.014675;1.000000;0.298039;0.305882;0.309804
445622.39780243;5696569.01339920;471.89514973;18504.000000;1.000000;1.000000;1.000000;1.000000;0.052176;-0.052176;0.052176;1.000000;0.282353;0.286275;0.290196
445622.66170128;5696568.74639900;471.86654999;35980.000000;1.000000;1.000000;1.000000;1.000000;-0.083677;0.083677;-0.083677;1.000000;0.537255;0.556863;0.560784
445622.73450096;5696568.74909981;471.86525013;22616.000000;1.000000;1.000000;1.000000;1.000000;-0.081071;0.081071;-0.081071;1.000000;0.333333;0.352941;0.360784
445622.25260170;5696568.93349846;471.88994982;35466.000000;1.000000;1.000000;1.000000;1.000000;-0.093025;0.093025;-0.093025;1.000000;0.533333;0.54902;0.533333
445622.51600082;5696568.66419895;471.86835005;17219.000000;1.000000;1.000000;1.000000;1.000000;-0.165801;0.165801;-0.165801;1.000000;0.247059;0.266667;0.294118
445622.25370224;5696568.89599903;471.89185001;11051.000000;1.000000;1.000000;1.000000;1.000000;-0.091925;0.091925;-0.091925;1.000000;0.172549;0.172549;0.145098
445622.66100128;5696568.95159920;471.89225008;18761.000000;1.000000;1.000000;1.000000;1.000000;0.121633;-0.121633;0.121633;1.000000;0.290196;0.290196;0.278431
445622.17980202;5696568.85609921;471.89274981;16448.000000;1.000000;1.000000;1.000000;1.000000;-0.165825;0.165825;-0.165825;1.000000;0.286275;0.25098;0.188235
445622.15750130;5696568.77159889;471.90234997;18504.000000;1.000000;1.000000;1.000000;1.000000;-0.196982;0.196982;-0.196982;1.000000;0.294118;0.290196;0.215686
445622.18110092;5696568.81869896;471.88994982;25700.000000;1.000000;1.000000;1.000000;1.000000;-0.164914;0.164914;-0.164914;1.000000;0.419608;0.392157;0.341176
445622.67350204;5696568.69179924;471.85484983;11308.000000;1.000000;1.000000;1.000000;1.000000;-0.138253;0.138253;-0.138253;1.000000;0.168627;0.176471;0.184314
445622.68760117;5696568.77439888;471.86805012;16191.000000;1.000000;1.000000;1.000000;1.000000;-0.055601;0.055601;-0.055601;1.000000;0.243137;0.247059;0.258824
445622.60250099;5696568.78929909;471.86905005;13621.000000;1.000000;1.000000;1.000000;1.000000;-0.040701;0.040701;-0.040701;1.000000;0.207843;0.211765;0.219608
445622.46840103;5696569.07439907;471.90835001;13107.000000;1.000000;1.000000;1.000000;1.000000;0.122774;-0.122774;0.122774;1.000000;0.192157;0.203922;0.211765
445622.71520241;5696568.79519852;471.86954977;15420.000000;1.000000;1.000000;1.000000;1.000000;-0.034801;0.034801;-0.034801;1.000000;0.227451;0.239216;0.25098
445622.32980164;5696569.06619843;471.90665009;30583.000000;1.000000;1.000000;1.000000;1.000000;-0.015825;0.015825;-0.015825;1.000000;0.470588;0.470588;0.462745
445622.72290237;5696568.77579887;471.86735012;26214.000000;1.000000;1.000000;1.000000;1.000000;-0.054249;0.054249;-0.054249;1.000000;0.388235;0.403922;0.415686
445622.28330238;5696569.06369980;471.89514973;18247.000000;1.000000;1.000000;1.000000;1.000000;-0.062325;0.062325;-0.062325;1.000000;0.286275;0.282353;0.262745
445622.32350166;5696568.99229916;471.89155008;17990.000000;1.000000;1.000000;1.000000;1.000000;-0.022125;0.022125;-0.022125;1.000000;0.27451;0.282353;0.266667
445622.39840134;5696568.99459847;471.89494993;20303.000000;1.000000;1.000000;1.000000;1.000000;0.052774;-0.052774;0.052774;1.000000;0.313725;0.313725;0.305882
445622.36100204;5696568.99349983;471.89325001;17219.000000;1.000000;1.000000;1.000000;1.000000;0.015375;-0.015375;0.015375;1.000000;0.262745;0.266667;0.266667
445622.21430214;5696568.94869907;471.89074995;44718.000000;1.000000;1.000000;1.000000;1.000000;-0.131325;0.131325;-0.131325;1.000000;0.682353;0.690196;0.670588
445622.36470230;5696568.88109978;471.88975002;14906.000000;1.000000;1.000000;1.000000;1.000000;0.019075;-0.019075;0.019075;1.000000;0.219608;0.239216;0.215686
445622.18270119;5696568.83719929;471.89265015;28270.000000;1.000000;1.000000;1.000000;1.000000;-0.162926;0.162926;-0.162926;1.000000;0.462745;0.431373;0.376471
445622.59990128;5696568.63089951;471.85774996;12079.000000;1.000000;1.000000;1.000000;1.000000;-0.199100;0.199100;-0.199100;1.000000;0.180392;0.188235;0.192157
445622.65150078;5696568.73579891;471.86364986;26728.000000;1.000000;1.000000;1.000000;1.000000;-0.094201;0.094201;-0.094201;1.000000;0.396078;0.411765;0.419608
445622.72670181;5696568.74039848;471.86474993;24672.000000;1.000000;1.000000;1.000000;1.000000;-0.089807;0.089807;-0.089807;1.000000;0.364706;0.384314;0.392157
445622.26990135;5696568.94359978;471.89085009;15420.000000;1.000000;1.000000;1.000000;1.000000;-0.075726;0.075726;-0.075726;1.000000;0.231373;0.243137;0.231373
445622.27110107;5696568.90609940;471.89045002;13621.000000;1.000000;1.000000;1.000000;1.000000;-0.074526;0.074526;-0.074526;1.000000;0.211765;0.215686;0.180392
445622.67960175;5696568.92429932;471.89045002;34695.000000;1.000000;1.000000;1.000000;1.000000;0.094299;-0.094299;0.094299;1.000000;0.533333;0.533333;0.517647
445622.68900116;5696568.73699959;471.86305000;14906.000000;1.000000;1.000000;1.000000;1.000000;-0.093000;0.093000;-0.093000;1.000000;0.215686;0.231373;0.239216
445622.50590141;5696568.65579899;471.86774971;16705.000000;1.000000;1.000000;1.000000;1.000000;-0.174247;0.174247;-0.174247;1.000000;0.243137;0.258824;0.282353
445622.54400070;5696568.84359940;471.87874987;25443.000000;1.000000;1.000000;1.000000;1.000000;0.013599;-0.013599;0.013599;1.000000;0.384314;0.392157;0.384314
445622.47360237;5696568.76599892;471.87925007;20303.000000;1.000000;1.000000;1.000000;1.000000;-0.064070;0.064070;-0.064070;1.000000;0.294118;0.313725;0.333333
445622.65650185;5696568.84719856;471.87925007;13878.000000;1.000000;1.000000;1.000000;1.000000;0.017199;-0.017199;0.017199;1.000000;0.215686;0.215686;0.203922
445622.69430168;5696568.85069855;471.87865021;21074.000000;1.000000;1.000000;1.000000;1.000000;0.020699;-0.020699;0.020699;1.000000;0.317647;0.32549;0.317647
445622.51000221;5696568.80469902;471.87904980;24158.000000;1.000000;1.000000;1.000000;1.000000;-0.025341;0.025341;-0.025341;1.000000;0.352941;0.376471;0.388235
445622.65810211;5696568.81209953;471.87414982;14135.000000;1.000000;1.000000;1.000000;1.000000;-0.017900;0.017900;-0.017900;1.000000;0.227451;0.215686;0.207843
445622.69340141;5696568.81349953;471.87344982;20046.000000;1.000000;1.000000;1.000000;1.000000;-0.016500;0.016500;-0.016500;1.000000;0.309804;0.305882;0.298039
445622.32680138;5696568.72119911;471.87914993;12593.000000;1.000000;1.000000;1.000000;1.000000;0.110418;-0.110418;0.110418;1.000000;0.192157;0.196078;0.192157
445622.54350098;5696568.65699966;471.86485006;7453.000000;1.000000;1.000000;1.000000;1.000000;-0.173000;0.173000;-0.173000;1.000000;0.105882;0.117647;0.141176
445622.40460213;5696568.65099915;471.87484982;13364.000000;1.000000;1.000000;1.000000;1.000000;-0.179001;0.179001;-0.179001;1.000000;0.192157;0.211765;0.219608
445622.36460121;5696568.72479923;471.87855007;13621.000000;1.000000;1.000000;1.000000;1.000000;-0.105201;0.105201;-0.105201;1.000000;0.207843;0.211765;0.203922
445622.67520149;5696568.81979950;471.87505009;22359.000000;1.000000;1.000000;1.000000;1.000000;-0.010402;0.010402;-0.010402;1.000000;0.34902;0.341176;0.32549
445622.61540230;5696568.72509964;471.86424973;27756.000000;1.000000;1.000000;1.000000;1.000000;-0.104900;0.104900;-0.104900;1.000000;0.411765;0.431373;0.447059
445622.46280106;5696569.00739868;471.89335014;14135.000000;1.000000;1.000000;1.000000;1.000000;0.117174;-0.117174;0.117174;1.000000;0.203922;0.219608;0.231373
445622.65300186;5696568.94069870;471.89185001;16191.000000;1.000000;1.000000;1.000000;1.000000;0.110699;-0.110699;0.110699;1.000000;0.247059;0.254902;0.239216
445622.20960243;5696568.84869965;471.89164974;20560.000000;1.000000;1.000000;1.000000;1.000000;-0.136024;0.136024;-0.136024;1.000000;0.352941;0.305882;0.258824
445622.59030159;5696568.67849930;471.85785009;8738.000000;1.000000;1.000000;1.000000;1.000000;-0.151501;0.151501;-0.151501;1.000000;0.113725;0.141176;0.172549
445622.32220085;5696569.02979858;471.89424994;15163.000000;1.000000;1.000000;1.000000;1.000000;-0.023426;0.023426;-0.023426;1.000000;0.235294;0.235294;0.231373
445622.21560104;5696568.91349895;471.89265015;14135.000000;1.000000;1.000000;1.000000;1.000000;-0.130026;0.130026;-0.130026;1.000000;0.235294;0.215686;0.176471
445622.17910202;5696568.87479980;471.89524986;22616.000000;1.000000;1.000000;1.000000;1.000000;-0.166525;0.166525;-0.166525;1.000000;0.372549;0.345098;0.282353
445622.56100090;5696568.66709908;471.86105015;11051.000000;1.000000;1.000000;1.000000;1.000000;-0.162901;0.162901;-0.162901;1.000000;0.152941;0.172549;0.196078
445622.37350090;5696568.94809921;471.88394978;21331.000000;1.000000;1.000000;1.000000;1.000000;0.027874;-0.027874;0.027874;1.000000;0.317647;0.333333;0.337255
445622.29950150;5696568.90819939;471.88705017;16962.000000;1.000000;1.000000;1.000000;1.000000;-0.046125;0.046125;-0.046125;1.000000;0.254902;0.266667;0.25098
445622.33700188;5696568.90939911;471.88644983;32382.000000;1.000000;1.000000;1.000000;1.000000;-0.008625;0.008625;-0.008625;1.000000;0.486275;0.501961;0.490196
445622.41210182;5696568.91179855;471.88525011;11051.000000;1.000000;1.000000;1.000000;1.000000;0.066475;-0.066475;0.066475;1.000000;0.156863;0.176471;0.168627
445622.52270134;5696568.91789921;471.88334991;17990.000000;1.000000;1.000000;1.000000;1.000000;0.087899;-0.087899;0.087899;1.000000;0.294118;0.27451;0.231373
445622.56030090;5696568.91909893;471.88034966;41634.000000;1.000000;1.000000;1.000000;1.000000;0.089099;-0.089099;0.089099;1.000000;0.654902;0.635294;0.596078
445622.56130226;5696568.85369881;471.87964966;25700.000000;1.000000;1.000000;1.000000;1.000000;0.023699;-0.023699;0.023699;1.000000;0.392157;0.396078;0.384314
445622.41430099;5696569.04209908;471.90084984;14392.000000;1.000000;1.000000;1.000000;1.000000;0.068674;-0.068674;0.068674;1.000000;0.211765;0.223529;0.239216
445622.17240150;5696568.82649906;471.89204981;32896.000000;1.000000;1.000000;1.000000;1.000000;-0.173261;0.173261;-0.173261;1.000000;0.52549;0.501961;0.447059
445622.25570114;5696568.84209927;471.89134981;18504.000000;1.000000;1.000000;1.000000;1.000000;-0.089926;0.089926;-0.089926;1.000000;0.298039;0.282353;0.258824
445622.40580185;5696568.84689911;471.89115002;21331.000000;1.000000;1.000000;1.000000;1.000000;0.016899;-0.016899;0.016899;1.000000;0.313725;0.337255;0.321569
445622.32270248;5696568.83349903;471.89195015;13364.000000;1.000000;1.000000;1.000000;1.000000;-0.022924;0.022924;-0.022924;1.000000;0.192157;0.211765;0.2
445622.39550217;5696568.83619888;471.89055016;34438.000000;1.000000;1.000000;1.000000;1.000000;0.006199;-0.006199;0.006199;1.000000;0.517647;0.533333;0.513725
445622.31430061;5696569.01889904;471.89144995;21845.000000;1.000000;1.000000;1.000000;1.000000;-0.031326;0.031326;-0.031326;1.000000;0.333333;0.337255;0.321569
445622.35160072;5696569.01999863;471.89774992;18504.000000;1.000000;1.000000;1.000000;1.000000;0.005974;-0.005974;0.005974;1.000000;0.282353;0.286275;0.290196
445622.39070137;5696568.98609932;471.89214994;23901.000000;1.000000;1.000000;1.000000;1.000000;0.045074;-0.045074;0.045074;1.000000;0.364706;0.368627;0.364706
445622.32280167;5696569.01099976;471.89405014;20817.000000;1.000000;1.000000;1.000000;1.000000;-0.022825;0.022825;-0.022825;1.000000;0.321569;0.321569;0.309804
445622.24170120;5696568.94149979;471.88954975;37008.000000;1.000000;1.000000;1.000000;1.000000;-0.103926;0.103926;-0.103926;1.000000;0.552941;0.572549;0.556863
445622.16450127;5696568.77099903;471.90035011;11308.000000;1.000000;1.000000;1.000000;1.000000;-0.190493;0.190493;-0.190493;1.000000;0.184314;0.180392;0.113725
445622.61190231;5696568.79069908;471.86954977;7967.000000;1.000000;1.000000;1.000000;1.000000;-0.039301;0.039301;-0.039301;1.000000;0.117647;0.121569;0.137255
445622.70940216;5696568.73039921;471.86385014;15163.000000;1.000000;1.000000;1.000000;1.000000;-0.099601;0.099601;-0.099601;1.000000;0.219608;0.235294;0.25098
445622.17380150;5696568.79129894;471.89164974;8224.000000;1.000000;1.000000;1.000000;1.000000;-0.176130;0.176130;-0.176130;1.000000;0.137255;0.129412;0.0823529
445622.16990097;5696568.90139969;471.89514973;15420.000000;1.000000;1.000000;1.000000;1.000000;-0.175726;0.175726;-0.175726;1.000000;0.258824;0.239216;0.180392
445622.20760162;5696568.90259941;471.89214994;17990.000000;1.000000;1.000000;1.000000;1.000000;-0.138025;0.138025;-0.138025;1.000000;0.298039;0.27451;0.239216
445622.54490097;5696568.85289963;471.87885000;16448.000000;1.000000;1.000000;1.000000;1.000000;0.022900;-0.022900;0.022900;1.000000;0.247059;0.254902;0.243137
445622.58150108;5696568.81679924;471.87314989;15420.000000;1.000000;1.000000;1.000000;1.000000;-0.013350;0.013350;-0.013350;1.000000;0.235294;0.239216;0.227451
445622.54730232;5696568.77789886;471.87575008;27242.000000;1.000000;1.000000;1.000000;1.000000;-0.052101;0.052101;-0.052101;1.000000;0.4;0.419608;0.439216
445622.45080193;5696568.87549980;471.88654997;12336.000000;1.000000;1.000000;1.000000;1.000000;0.045500;-0.045500;0.045500;1.000000;0.176471;0.196078;0.188235
445622.24530228;5696568.90609940;471.89164974;11308.000000;1.000000;1.000000;1.000000;1.000000;-0.100325;0.100325;-0.100325;1.000000;0.180392;0.176471;0.152941
445622.43810089;5696568.73659904;471.87964966;15934.000000;1.000000;1.000000;1.000000;1.000000;-0.093401;0.093401;-0.093401;1.000000;0.231373;0.25098;0.262745
445622.36440094;5696568.69679935;471.87585022;14906.000000;1.000000;1.000000;1.000000;1.000000;-0.133201;0.133201;-0.133201;1.000000;0.223529;0.231373;0.235294
445622.51450165;5696568.70149906;471.87575008;6939.000000;1.000000;1.000000;1.000000;1.000000;-0.128501;0.128501;-0.128501;1.000000;0.0941176;0.109804;0.137255
445622.52390106;5696568.88039978;471.88294985;16962.000000;1.000000;1.000000;1.000000;1.000000;0.050400;-0.050400;0.050400;1.000000;0.270588;0.262745;0.223529
445622.36560066;5696568.65929897;471.87544968;12593.000000;1.000000;1.000000;1.000000;1.000000;-0.170701;0.170701;-0.170701;1.000000;0.180392;0.196078;0.223529
445622.44070061;5696568.66169937;471.87424995;15677.000000;1.000000;1.000000;1.000000;1.000000;-0.168306;0.168306;-0.168306;1.000000;0.227451;0.243137;0.258824
445622.16560181;5696568.97669895;471.88654997;28784.000000;1.000000;1.000000;1.000000;1.000000;-0.180025;0.180025;-0.180025;1.000000;0.462745;0.443137;0.368627
445622.26640137;5696568.82949932;471.88695004;15677.000000;1.000000;1.000000;1.000000;1.000000;-0.079227;0.079227;-0.079227;1.000000;0.243137;0.243137;0.231373
445622.18630226;5696568.72699936;471.89615013;9509.000000;1.000000;1.000000;1.000000;1.000000;-0.189719;0.189719;-0.189719;1.000000;0.156863;0.152941;0.101961
445622.45200165;5696568.83799942;471.88614990;10280.000000;1.000000;1.000000;1.000000;1.000000;0.007999;-0.007999;0.007999;1.000000;0.137255;0.168627;0.180392
445622.67190178;5696568.67329891;471.85225012;8481.000000;1.000000;1.000000;1.000000;1.000000;-0.156794;0.156794;-0.156794;1.000000;0.129412;0.133333;0.141176
445622.47820099;5696568.66289909;471.87365009;13621.000000;1.000000;1.000000;1.000000;1.000000;-0.167113;0.167113;-0.167113;1.000000;0.196078;0.211765;0.239216
445622.35660179;5696568.87239845;471.89395000;10794.000000;1.000000;1.000000;1.000000;1.000000;0.010975;-0.010975;0.010975;1.000000;0.152941;0.176471;0.164706
445622.67400177;5696568.88519867;471.88275005;21588.000000;1.000000;1.000000;1.000000;1.000000;0.055292;-0.055292;0.055292;1.000000;0.32549;0.333333;0.321569
445622.48750122;5696568.84169968;471.88315012;17219.000000;1.000000;1.000000;1.000000;1.000000;0.011700;-0.011700;0.011700;1.000000;0.254902;0.270588;0.254902
445622.19280251;5696568.79199894;471.88555004;12850.000000;1.000000;1.000000;1.000000;1.000000;-0.157478;0.157478;-0.157478;1.000000;0.211765;0.2;0.164706
445622.18940170;5696569.07959946;471.88415005;27756.000000;1.000000;1.000000;1.000000;1.000000;-0.156225;0.156225;-0.156225;1.000000;0.431373;0.427451;0.4
445622.22690208;5696569.08079918;471.88355019;52428.000000;1.000000;1.000000;1.000000;1.000000;-0.118725;0.118725;-0.118725;1.000000;0.8;0.807843;0.788235
445622.42350204;5696569.07139977;471.91324999;26985.000000;1.000000;1.000000;1.000000;1.000000;0.077875;-0.077875;0.077875;1.000000;0.396078;0.415686;0.435294
445622.23190125;5696569.00799950;471.88285019;39835.000000;1.000000;1.000000;1.000000;1.000000;-0.113726;0.113726;-0.113726;1.000000;0.603922;0.611765;0.6
