//X;Y;Z;Intensity;Return Number;Number Of Returns;Scan Direction Flag;Point Source ID;C2M signed distances[-][<0.8];C2M signed distances[<0.4];C2M signed distances[-][<0.2];Stump39;Rf;Gf;Bf
300
445611.33940132;5696580.88830002;472.82945015;11308.000000;1.000000;1.000000;1.000000;1.000000;-0.058339;0.058339;-0.058339;1.000000;0.168627;0.176471;0.180392
445611.84950169;5696580.89099892;472.77325012;54741.000000;1.000000;1.000000;1.000000;1.000000;0.090147;-0.090147;0.090147;1.000000;0.835294;0.843137;0.8
445611.47820194;5696580.91319855;472.81034996;29555.000000;1.000000;1.000000;1.000000;1.000000;-0.083199;0.083199;-0.083199;1.000000;0.462745;0.458824;0.407843
445611.35190113;5696581.00829895;472.85465004;13107.000000;1.000000;1.000000;1.000000;1.000000;-0.178299;0.178299;-0.178299;1.000000;0.196078;0.203922;0.207843
445611.28920181;5696580.93169983;472.89284994;6682.000000;1.000000;1.000000;1.000000;1.000000;-0.101700;0.101700;-0.101700;1.000000;0.0941176;0.105882;0.117647
445611.83280190;5696580.86219986;472.77215006;39064.000000;1.000000;1.000000;1.000000;1.000000;0.059198;-0.059198;0.059198;1.000000;0.607843;0.603922;0.545098
445611.53320129;5696580.92449959;472.80594971;29555.000000;1.000000;1.000000;1.000000;1.000000;-0.094500;0.094500;-0.094500;1.000000;0.458824;0.454902;0.411765
445611.60340126;5696581.00199898;472.81005003;36494.000000;1.000000;1.000000;1.000000;1.000000;-0.171999;0.171999;-0.171999;1.000000;0.568627;0.560784;0.517647
445611.73980148;5696580.84959991;472.78644993;30840.000000;1.000000;1.000000;1.000000;1.000000;-0.019600;0.019600;-0.019600;1.000000;0.47451;0.478431;0.427451
445611.32690151;5696580.94279869;472.85745003;12850.000000;1.000000;1.000000;1.000000;1.000000;-0.112799;0.112799;-0.112799;1.000000;0.184314;0.2;0.211765
445611.54840191;5696580.99069984;472.81444981;30583.000000;1.000000;1.000000;1.000000;1.000000;-0.160700;0.160700;-0.160700;1.000000;0.486275;0.470588;0.419608
445611.27800186;5696580.88289841;472.93834974;17990.000000;1.000000;1.000000;1.000000;1.000000;-0.052989;0.052989;-0.052989;1.000000;0.282353;0.278431;0.258824
445611.66150196;5696580.96649940;472.79594995;42405.000000;1.000000;1.000000;1.000000;1.000000;-0.136499;0.136499;-0.136499;1.000000;0.658824;0.65098;0.611765
445611.61930187;5696580.86299904;472.79054977;32896.000000;1.000000;1.000000;1.000000;1.000000;0.032999;-0.032999;0.032999;1.000000;0.513725;0.505882;0.462745
445611.61800201;5696580.90049942;472.79325010;27499.000000;1.000000;1.000000;1.000000;1.000000;0.070499;-0.070499;0.070499;1.000000;0.427451;0.423529;0.380392
445611.39240177;5696580.92789848;472.82525017;19789.000000;1.000000;1.000000;1.000000;1.000000;0.097898;-0.097898;0.097898;1.000000;0.301961;0.305882;0.301961
445611.31660183;5696580.96229942;472.86654999;13107.000000;1.000000;1.000000;1.000000;1.000000;-0.132299;0.132299;-0.132299;1.000000;0.188235;0.207843;0.223529
445611.33580120;5696580.96299942;472.85804989;15163.000000;1.000000;1.000000;1.000000;1.000000;-0.132999;0.132999;-0.132999;1.000000;0.219608;0.239216;0.247059
445611.29260166;5696580.91509827;472.88814976;6168.000000;1.000000;1.000000;1.000000;1.000000;-0.085098;0.085098;-0.085098;1.000000;0.0862745;0.0980392;0.101961
445611.35680111;5696580.87049873;472.82065012;7453.000000;1.000000;1.000000;1.000000;1.000000;0.040499;-0.040499;0.040499;1.000000;0.113725;0.117647;0.113725
445611.81490143;5696580.84289940;472.76655008;37779.000000;1.000000;1.000000;1.000000;1.000000;0.034293;-0.034293;0.034293;1.000000;0.592157;0.584314;0.521569
445611.59020145;5696580.85169991;472.79134991;32896.000000;1.000000;1.000000;1.000000;1.000000;0.021700;-0.021700;0.021700;1.000000;0.513725;0.505882;0.466667
445611.55480202;5696580.85019882;472.79444983;26471.000000;1.000000;1.000000;1.000000;1.000000;0.020199;-0.020199;0.020199;1.000000;0.411765;0.407843;0.368627
445611.51730164;5696580.84899910;472.79505016;31611.000000;1.000000;1.000000;1.000000;1.000000;0.018999;-0.018999;0.018999;1.000000;0.494118;0.490196;0.443137
445611.28930195;5696580.91279991;472.90425016;7196.000000;1.000000;1.000000;1.000000;1.000000;-0.082800;0.082800;-0.082800;1.000000;0.109804;0.113725;0.117647
445611.74040134;5696580.83079918;472.78625013;25957.000000;1.000000;1.000000;1.000000;1.000000;-0.000799;0.000799;-0.000799;1.000000;0.4;0.403922;0.345098
445611.40820129;5696581.02889832;472.84114983;37008.000000;1.000000;1.000000;1.000000;1.000000;-0.198898;0.198898;-0.198898;1.000000;0.568627;0.568627;0.541176
445611.62650116;5696580.89040001;472.79115011;32639.000000;1.000000;1.000000;1.000000;1.000000;0.060400;-0.060400;0.060400;1.000000;0.505882;0.501961;0.458824
445611.70040138;5696580.93019875;472.79034998;38293.000000;1.000000;1.000000;1.000000;1.000000;0.100199;-0.100199;0.100199;1.000000;0.592157;0.588235;0.545098
445611.62510117;5696580.92779930;472.79624989;40092.000000;1.000000;1.000000;1.000000;1.000000;0.097799;-0.097799;0.097799;1.000000;0.623529;0.615686;0.580392
445611.33560188;5696580.93499954;472.85545017;11565.000000;1.000000;1.000000;1.000000;1.000000;-0.105000;0.105000;-0.105000;1.000000;0.172549;0.180392;0.196078
445611.73480137;5696580.97149857;472.78774979;28527.000000;1.000000;1.000000;1.000000;1.000000;-0.141499;0.141499;-0.141499;1.000000;0.443137;0.439216;0.403922
445611.28520115;5696581.02589996;472.86584999;5140.000000;1.000000;1.000000;1.000000;1.000000;-0.195900;0.195900;-0.195900;1.000000;0.0666667;0.0823529;0.105882
445611.73330124;5696581.00659950;472.79034998;37522.000000;1.000000;1.000000;1.000000;1.000000;-0.176600;0.176600;-0.176600;1.000000;0.580392;0.576471;0.545098
445611.69160183;5696580.88439949;472.78704979;32125.000000;1.000000;1.000000;1.000000;1.000000;-0.054399;0.054399;-0.054399;1.000000;0.498039;0.494118;0.45098
445611.77990158;5696580.82269867;472.77395012;19532.000000;1.000000;1.000000;1.000000;1.000000;-0.007301;0.007301;-0.007301;1.000000;0.305882;0.305882;0.235294
445611.32220181;5696580.88729866;472.84725000;10537.000000;1.000000;1.000000;1.000000;1.000000;-0.057299;0.057299;-0.057299;1.000000;0.160784;0.164706;0.152941
445611.28040131;5696580.95829971;472.88584997;13107.000000;1.000000;1.000000;1.000000;1.000000;-0.128329;0.128329;-0.128329;1.000000;0.188235;0.203922;0.219608
445611.85150154;5696580.86279877;472.77304985;42919.000000;1.000000;1.000000;1.000000;1.000000;0.075834;-0.075834;0.075834;1.000000;0.662745;0.662745;0.6
445611.74750145;5696580.90499886;472.78284981;36237.000000;1.000000;1.000000;1.000000;1.000000;0.074999;-0.074999;0.074999;1.000000;0.560784;0.560784;0.517647
445611.77880199;5696580.86019905;472.77434971;36494.000000;1.000000;1.000000;1.000000;1.000000;0.030199;-0.030199;0.030199;1.000000;0.560784;0.564706;0.513725
445611.44050129;5696580.88399895;472.80835011;40863.000000;1.000000;1.000000;1.000000;1.000000;-0.053999;0.053999;-0.053999;1.000000;0.627451;0.631373;0.572549
445611.81300171;5696580.89909943;472.76944973;38550.000000;1.000000;1.000000;1.000000;1.000000;0.075281;-0.075281;0.075281;1.000000;0.592157;0.596078;0.556863
445611.85030182;5696580.90029915;472.77344992;42148.000000;1.000000;1.000000;1.000000;1.000000;0.097234;-0.097234;0.097234;1.000000;0.643137;0.65098;0.611765
445611.77520187;5696580.89789970;472.77465012;25186.000000;1.000000;1.000000;1.000000;1.000000;0.067900;-0.067900;0.067900;1.000000;0.388235;0.392157;0.34902
445611.51210125;5696580.92409904;472.80734970;31868.000000;1.000000;1.000000;1.000000;1.000000;0.094099;-0.094099;0.094099;1.000000;0.494118;0.490196;0.447059
445611.47640141;5696580.92029961;472.81264975;35723.000000;1.000000;1.000000;1.000000;1.000000;-0.090300;0.090300;-0.090300;1.000000;0.552941;0.54902;0.505882
445611.81170185;5696580.93659981;472.77215006;26728.000000;1.000000;1.000000;1.000000;1.000000;0.110363;-0.110363;0.110363;1.000000;0.411765;0.411765;0.380392
445611.54820164;5696580.96269997;472.81174995;39321.000000;1.000000;1.000000;1.000000;1.000000;-0.132700;0.132700;-0.132700;1.000000;0.615686;0.603922;0.560784
445611.31880196;5696580.90619858;472.85664989;7967.000000;1.000000;1.000000;1.000000;1.000000;-0.076199;0.076199;-0.076199;1.000000;0.117647;0.12549;0.12549
445611.30830200;5696580.92559822;472.87265017;6168.000000;1.000000;1.000000;1.000000;1.000000;-0.095624;0.095624;-0.095624;1.000000;0.0862745;0.0980392;0.113725
445611.30990131;5696580.86929901;472.87444975;3855.000000;1.000000;1.000000;1.000000;1.000000;-0.039485;0.039485;-0.039485;1.000000;0.0627451;0.0627451;0.054902
445611.68500145;5696580.83829887;472.78615000;21074.000000;1.000000;1.000000;1.000000;1.000000;0.008299;-0.008299;0.008299;1.000000;0.329412;0.329412;0.27451
445611.79390152;5696580.87049873;472.77054979;40092.000000;1.000000;1.000000;1.000000;1.000000;0.041908;-0.041908;0.041908;1.000000;0.619608;0.619608;0.572549
445611.42250164;5696580.89259918;472.80994989;38550.000000;1.000000;1.000000;1.000000;1.000000;0.062599;-0.062599;0.062599;1.000000;0.592157;0.596078;0.552941
445611.49530132;5696580.89519890;472.80854990;31868.000000;1.000000;1.000000;1.000000;1.000000;0.065199;-0.065199;0.065199;1.000000;0.498039;0.494118;0.447059
445611.83030136;5696580.90919884;472.77035000;50372.000000;1.000000;1.000000;1.000000;1.000000;0.092184;-0.092184;0.092184;1.000000;0.768627;0.776471;0.745098
445611.79260166;5696580.90789993;472.77325012;27756.000000;1.000000;1.000000;1.000000;1.000000;0.078474;-0.078474;0.078474;1.000000;0.427451;0.431373;0.396078
445611.72140129;5696580.87699898;472.78595020;23387.000000;1.000000;1.000000;1.000000;1.000000;-0.046999;0.046999;-0.046999;1.000000;0.364706;0.364706;0.317647
445611.53160198;5696580.93389900;472.80835011;30583.000000;1.000000;1.000000;1.000000;1.000000;0.103899;-0.103899;0.103899;1.000000;0.478431;0.470588;0.427451
445611.49400146;5696580.93269928;472.81134989;32639.000000;1.000000;1.000000;1.000000;1.000000;0.102699;-0.102699;0.102699;1.000000;0.505882;0.501961;0.458824
445611.82900150;5696580.94439896;472.76835014;14135.000000;1.000000;1.000000;1.000000;1.000000;0.123254;-0.123254;0.123254;1.000000;0.223529;0.219608;0.184314
445611.36340149;5696580.95360001;472.84754993;7967.000000;1.000000;1.000000;1.000000;1.000000;0.123600;-0.123600;0.123600;1.000000;0.113725;0.12549;0.129412
445611.69370182;5696580.85619934;472.78684999;25957.000000;1.000000;1.000000;1.000000;1.000000;-0.026199;0.026199;-0.026199;1.000000;0.403922;0.403922;0.356863
445611.73130138;5696580.85739906;472.78385021;40092.000000;1.000000;1.000000;1.000000;1.000000;-0.027399;0.027399;-0.027399;1.000000;0.615686;0.619608;0.572549
445611.35770138;5696580.87979897;472.82084991;7196.000000;1.000000;1.000000;1.000000;1.000000;0.049799;-0.049799;0.049799;1.000000;0.105882;0.113725;0.105882
445611.60990150;5696580.86159904;472.79005005;35209.000000;1.000000;1.000000;1.000000;1.000000;-0.031599;0.031599;-0.031599;1.000000;0.552941;0.541176;0.501961
445611.65630157;5696580.88289841;472.79005005;21074.000000;1.000000;1.000000;1.000000;1.000000;0.052898;-0.052898;0.052898;1.000000;0.329412;0.329412;0.282353
445611.29110153;5696580.86559875;472.92245008;10537.000000;1.000000;1.000000;1.000000;1.000000;-0.035599;0.035599;-0.035599;1.000000;0.156863;0.168627;0.133333
445611.28950127;5696580.89399918;472.91335012;7967.000000;1.000000;1.000000;1.000000;1.000000;-0.063999;0.063999;-0.063999;1.000000;0.121569;0.12549;0.117647
445611.69020184;5696580.92179878;472.79204990;36751.000000;1.000000;1.000000;1.000000;1.000000;-0.091799;0.091799;-0.091799;1.000000;0.568627;0.568627;0.52549
445611.61710175;5696580.91689880;472.79575016;35209.000000;1.000000;1.000000;1.000000;1.000000;0.086899;-0.086899;0.086899;1.000000;0.545098;0.545098;0.501961
445611.28070171;5696580.86619957;472.94764997;10537.000000;1.000000;1.000000;1.000000;1.000000;-0.036281;0.036281;-0.036281;1.000000;0.164706;0.164706;0.133333
445611.28190144;5696580.87549980;472.94075014;15677.000000;1.000000;1.000000;1.000000;1.000000;-0.045516;0.045516;-0.045516;1.000000;0.243137;0.243137;0.215686
445611.44900139;5696580.92969902;472.81855013;35723.000000;1.000000;1.000000;1.000000;1.000000;0.099699;-0.099699;0.099699;1.000000;0.552941;0.552941;0.513725
445611.31040199;5696580.89509972;472.86544992;6682.000000;1.000000;1.000000;1.000000;1.000000;-0.065221;0.065221;-0.065221;1.000000;0.105882;0.101961;0.105882
445611.65540131;5696580.87369926;472.78994991;20817.000000;1.000000;1.000000;1.000000;1.000000;0.043699;-0.043699;0.043699;1.000000;0.32549;0.321569;0.278431
445611.73940189;5696580.86839874;472.78205015;34952.000000;1.000000;1.000000;1.000000;1.000000;-0.038399;0.038399;-0.038399;1.000000;0.541176;0.541176;0.494118
445611.70180138;5696580.86709984;472.78494980;32639.000000;1.000000;1.000000;1.000000;1.000000;0.037100;-0.037100;0.037100;1.000000;0.505882;0.501961;0.458824
445611.69170197;5696580.91229828;472.79204990;35980.000000;1.000000;1.000000;1.000000;1.000000;-0.082298;0.082298;-0.082298;1.000000;0.556863;0.552941;0.517647
445611.77840145;5696580.83209999;472.77635004;23387.000000;1.000000;1.000000;1.000000;1.000000;0.002100;-0.002100;0.002100;1.000000;0.364706;0.368627;0.301961
445611.37170132;5696580.93659981;472.83614971;8224.000000;1.000000;1.000000;1.000000;1.000000;0.106600;-0.106600;0.106600;1.000000;0.117647;0.129412;0.137255
445611.77730186;5696580.86959847;472.77444984;38036.000000;1.000000;1.000000;1.000000;1.000000;0.039598;-0.039598;0.039598;1.000000;0.584314;0.588235;0.541176
445611.44120129;5696580.89320000;472.81075003;39064.000000;1.000000;1.000000;1.000000;1.000000;-0.063200;0.063200;-0.063200;1.000000;0.6;0.603922;0.54902
445611.36550148;5696580.88839920;472.82124998;3855.000000;1.000000;1.000000;1.000000;1.000000;0.058399;-0.058399;0.058399;1.000000;0.054902;0.0666667;0.0588235
445611.84890182;5696580.90969856;472.77344992;25186.000000;1.000000;1.000000;1.000000;1.000000;0.103335;-0.103335;0.103335;1.000000;0.388235;0.392157;0.356863
445611.40180119;5696580.92699821;472.82334997;19789.000000;1.000000;1.000000;1.000000;1.000000;0.096998;-0.096998;0.096998;1.000000;0.301961;0.309804;0.290196
445611.81160172;5696580.90859993;472.76944973;50372.000000;1.000000;1.000000;1.000000;1.000000;0.083599;-0.083599;0.083599;1.000000;0.772549;0.776471;0.745098
445611.77600201;5696580.90709885;472.77714970;22359.000000;1.000000;1.000000;1.000000;1.000000;0.077099;-0.077099;0.077099;1.000000;0.341176;0.34902;0.305882
445611.47720154;5696580.92949875;472.81514980;39835.000000;1.000000;1.000000;1.000000;1.000000;-0.099499;0.099499;-0.099499;1.000000;0.615686;0.611765;0.572549
445611.35840137;5696580.86109932;472.81825020;10280.000000;1.000000;1.000000;1.000000;1.000000;0.031099;-0.031099;0.031099;1.000000;0.156863;0.160784;0.152941
445611.81000145;5696580.94369896;472.77215006;17219.000000;1.000000;1.000000;1.000000;1.000000;0.116832;-0.116832;0.116832;1.000000;0.266667;0.266667;0.235294
445611.54890163;5696580.96959885;472.81185009;42148.000000;1.000000;1.000000;1.000000;1.000000;-0.139599;0.139599;-0.139599;1.000000;0.658824;0.647059;0.6
445611.28070171;5696580.90399940;472.92245008;11565.000000;1.000000;1.000000;1.000000;1.000000;-0.074039;0.074039;-0.074039;1.000000;0.176471;0.180392;0.176471
445611.31720169;5696580.94349869;472.86634972;11308.000000;1.000000;1.000000;1.000000;1.000000;-0.113499;0.113499;-0.113499;1.000000;0.160784;0.176471;0.192157
445611.47010143;5696580.87430008;472.80485012;38807.000000;1.000000;1.000000;1.000000;1.000000;0.044300;-0.044300;0.044300;1.000000;0.603922;0.6;0.541176
445611.54170139;5696580.91439827;472.80394985;31611.000000;1.000000;1.000000;1.000000;1.000000;-0.084398;0.084398;-0.084398;1.000000;0.490196;0.486275;0.447059
445611.59810169;5696580.88830002;472.79454996;31868.000000;1.000000;1.000000;1.000000;1.000000;-0.058300;0.058300;-0.058300;1.000000;0.494118;0.490196;0.447059
445611.40900143;5696580.95669945;472.82875015;22359.000000;1.000000;1.000000;1.000000;1.000000;-0.126699;0.126699;-0.126699;1.000000;0.345098;0.345098;0.321569
445611.61560162;5696580.95430000;472.80305006;25186.000000;1.000000;1.000000;1.000000;1.000000;0.124300;-0.124300;0.124300;1.000000;0.396078;0.392157;0.345098
445611.71040161;5696580.88499840;472.78555014;29298.000000;1.000000;1.000000;1.000000;1.000000;0.054998;-0.054998;0.054998;1.000000;0.454902;0.454902;0.411765
445611.33030136;5696580.89599998;472.84074976;12593.000000;1.000000;1.000000;1.000000;1.000000;-0.066000;0.066000;-0.066000;1.000000;0.192157;0.196078;0.196078
445611.75060184;5696580.83919914;472.78455021;25700.000000;1.000000;1.000000;1.000000;1.000000;0.009199;-0.009199;0.009199;1.000000;0.396078;0.4;0.345098
445611.57790192;5696580.95299919;472.80835011;25957.000000;1.000000;1.000000;1.000000;1.000000;0.122999;-0.122999;0.122999;1.000000;0.403922;0.4;0.360784
445611.65600117;5696580.85489853;472.78975012;30840.000000;1.000000;1.000000;1.000000;1.000000;0.024899;-0.024899;0.024899;1.000000;0.482353;0.478431;0.431373
445611.65470131;5696580.89239891;472.79244997;29041.000000;1.000000;1.000000;1.000000;1.000000;0.062399;-0.062399;0.062399;1.000000;0.45098;0.447059;0.403922
445611.69240196;5696580.89359863;472.78954985;31097.000000;1.000000;1.000000;1.000000;1.000000;-0.063599;0.063599;-0.063599;1.000000;0.482353;0.478431;0.435294
445611.29770191;5696580.94269951;472.88404991;7967.000000;1.000000;1.000000;1.000000;1.000000;-0.112700;0.112700;-0.112700;1.000000;0.109804;0.12549;0.141176
445611.51650150;5696580.86769875;472.79985001;39064.000000;1.000000;1.000000;1.000000;1.000000;0.037699;-0.037699;0.037699;1.000000;0.603922;0.6;0.556863
445611.30900200;5696580.88569839;472.87694981;4883.000000;1.000000;1.000000;1.000000;1.000000;-0.055775;0.055775;-0.055775;1.000000;0.0745098;0.0745098;0.0784314
445611.84200199;5696580.83339890;472.76765015;40863.000000;1.000000;1.000000;1.000000;1.000000;0.058973;-0.058973;0.058973;1.000000;0.639216;0.635294;0.545098
445611.28810127;5696580.94129951;472.88595011;9252.000000;1.000000;1.000000;1.000000;1.000000;-0.111300;0.111300;-0.111300;1.000000;0.129412;0.145098;0.156863
445611.32600124;5696580.96139915;472.86464979;13364.000000;1.000000;1.000000;1.000000;1.000000;-0.131399;0.131399;-0.131399;1.000000;0.188235;0.211765;0.219608
445611.26400192;5696580.92199905;472.91494991;10537.000000;1.000000;1.000000;1.000000;1.000000;-0.091999;0.091999;-0.091999;1.000000;0.152941;0.168627;0.160784
445611.61910160;5696580.83499916;472.79015018;25443.000000;1.000000;1.000000;1.000000;1.000000;0.004999;-0.004999;0.004999;1.000000;0.403922;0.392157;0.345098
445611.80690201;5696580.83199890;472.76604988;39578.000000;1.000000;1.000000;1.000000;1.000000;0.023859;-0.023859;0.023859;1.000000;0.615686;0.611765;0.54902
445611.46860130;5696580.85579880;472.79995014;33153.000000;1.000000;1.000000;1.000000;1.000000;0.025799;-0.025799;0.025799;1.000000;0.517647;0.513725;0.447059
445611.54240139;5696580.89569862;472.80144979;38293.000000;1.000000;1.000000;1.000000;1.000000;-0.065699;0.065699;-0.065699;1.000000;0.596078;0.588235;0.552941
445611.61780174;5696580.87249954;472.79285004;33924.000000;1.000000;1.000000;1.000000;1.000000;0.042500;-0.042500;0.042500;1.000000;0.529412;0.521569;0.478431
445611.58000191;5696580.86889847;472.79344990;31354.000000;1.000000;1.000000;1.000000;1.000000;0.038898;-0.038898;0.038898;1.000000;0.486275;0.482353;0.443137
445611.65390118;5696580.90879829;472.79264977;38550.000000;1.000000;1.000000;1.000000;1.000000;0.078798;-0.078798;0.078798;1.000000;0.596078;0.596078;0.552941
445611.65260132;5696580.94629868;472.79535009;37779.000000;1.000000;1.000000;1.000000;1.000000;0.116299;-0.116299;0.116299;1.000000;0.588235;0.580392;0.537255
445611.72580154;5696580.95129974;472.78935005;31097.000000;1.000000;1.000000;1.000000;1.000000;-0.121300;0.121300;-0.121300;1.000000;0.482353;0.478431;0.439216
445611.69050129;5696580.94979866;472.79244997;35723.000000;1.000000;1.000000;1.000000;1.000000;-0.119799;0.119799;-0.119799;1.000000;0.552941;0.54902;0.509804
445611.53370197;5696580.87780006;472.80074980;31097.000000;1.000000;1.000000;1.000000;1.000000;-0.047800;0.047800;-0.047800;1.000000;0.486275;0.478431;0.443137
445611.72430141;5696580.98639877;472.79204990;32382.000000;1.000000;1.000000;1.000000;1.000000;-0.156399;0.156399;-0.156399;1.000000;0.501961;0.501961;0.462745
445611.58030136;5696580.89919861;472.79845001;36751.000000;1.000000;1.000000;1.000000;1.000000;0.069199;-0.069199;0.069199;1.000000;0.568627;0.564706;0.529412
445611.72320183;5696581.02619942;472.79484989;34695.000000;1.000000;1.000000;1.000000;1.000000;-0.196199;0.196199;-0.196199;1.000000;0.541176;0.533333;0.498039
445611.49810131;5696580.87399872;472.80614998;39578.000000;1.000000;1.000000;1.000000;1.000000;0.043999;-0.043999;0.043999;1.000000;0.615686;0.611765;0.560784
445611.83140190;5696580.87169846;472.77224972;37522.000000;1.000000;1.000000;1.000000;1.000000;0.063791;-0.063791;0.063791;1.000000;0.580392;0.580392;0.529412
445611.46010120;5696580.89379890;472.80935003;29812.000000;1.000000;1.000000;1.000000;1.000000;0.063799;-0.063799;0.063799;1.000000;0.462745;0.462745;0.403922
445611.57870110;5696580.93429955;472.80345013;34695.000000;1.000000;1.000000;1.000000;1.000000;0.104300;-0.104300;0.104300;1.000000;0.537255;0.533333;0.494118
445611.79340179;5696580.94289978;472.77605011;39321.000000;1.000000;1.000000;1.000000;1.000000;0.113366;-0.113366;0.113366;1.000000;0.603922;0.603922;0.576471
445611.33450134;5696580.88869865;472.83614971;12079.000000;1.000000;1.000000;1.000000;1.000000;-0.058699;0.058699;-0.058699;1.000000;0.188235;0.184314;0.180392
445611.60420139;5696581.01120003;472.81255009;38807.000000;1.000000;1.000000;1.000000;1.000000;-0.181200;0.181200;-0.181200;1.000000;0.603922;0.596078;0.54902
445611.61400135;5696580.93579872;472.80044987;37008.000000;1.000000;1.000000;1.000000;1.000000;0.105799;-0.105799;0.105799;1.000000;0.572549;0.568627;0.52549
445611.59100159;5696580.86089905;472.79155018;29812.000000;1.000000;1.000000;1.000000;1.000000;0.030899;-0.030899;0.030899;1.000000;0.470588;0.458824;0.419608
445611.51790150;5696580.85599907;472.79514982;36751.000000;1.000000;1.000000;1.000000;1.000000;0.025999;-0.025999;0.025999;1.000000;0.572549;0.568627;0.517647
445611.27750118;5696580.99839981;472.87685015;13621.000000;1.000000;1.000000;1.000000;1.000000;-0.168421;0.168421;-0.168421;1.000000;0.196078;0.211765;0.231373
445611.29950150;5696580.95899971;472.87734987;12079.000000;1.000000;1.000000;1.000000;1.000000;-0.129000;0.129000;-0.129000;1.000000;0.172549;0.192157;0.207843
445611.66260155;5696580.90099915;472.79054977;38550.000000;1.000000;1.000000;1.000000;1.000000;-0.070999;0.070999;-0.070999;1.000000;0.596078;0.592157;0.54902
445611.69890125;5696580.93969925;472.79264977;39064.000000;1.000000;1.000000;1.000000;1.000000;0.109699;-0.109699;0.109699;1.000000;0.603922;0.6;0.560784
445611.28090199;5696580.92289932;472.90404989;6425.000000;1.000000;1.000000;1.000000;1.000000;-0.092926;0.092926;-0.092926;1.000000;0.0901961;0.101961;0.105882
445611.66140182;5696580.93849953;472.79094984;25700.000000;1.000000;1.000000;1.000000;1.000000;-0.108500;0.108500;-0.108500;1.000000;0.407843;0.396078;0.356863
445611.28940113;5696580.99739845;472.87034990;13621.000000;1.000000;1.000000;1.000000;1.000000;-0.167398;0.167398;-0.167398;1.000000;0.192157;0.211765;0.231373
445611.73310192;5696580.97859962;472.78774979;23644.000000;1.000000;1.000000;1.000000;1.000000;-0.148600;0.148600;-0.148600;1.000000;0.368627;0.364706;0.32549
445611.37580116;5696580.89909943;472.82184984;5911.000000;1.000000;1.000000;1.000000;1.000000;0.069099;-0.069099;0.069099;1.000000;0.0862745;0.0941176;0.0901961
445611.28730114;5696580.97879990;472.87704994;8224.000000;1.000000;1.000000;1.000000;1.000000;-0.148800;0.148800;-0.148800;1.000000;0.113725;0.129412;0.152941
445611.65920170;5696580.99459847;472.80084993;36237.000000;1.000000;1.000000;1.000000;1.000000;-0.164598;0.164598;-0.164598;1.000000;0.560784;0.556863;0.517647
445611.35080154;5696581.02009972;472.85015013;22616.000000;1.000000;1.000000;1.000000;1.000000;-0.190100;0.190100;-0.190100;1.000000;0.337255;0.34902;0.34902
445611.28880127;5696580.96939857;472.87694981;13878.000000;1.000000;1.000000;1.000000;1.000000;-0.139399;0.139399;-0.139399;1.000000;0.2;0.215686;0.231373
445611.70470150;5696580.84819992;472.78485014;16448.000000;1.000000;1.000000;1.000000;1.000000;0.018200;-0.018200;0.018200;1.000000;0.258824;0.258824;0.211765
445611.36630161;5696580.86969955;472.81645014;8481.000000;1.000000;1.000000;1.000000;1.000000;0.039700;-0.039700;0.039700;1.000000;0.129412;0.137255;0.121569
445611.77510174;5696580.82309921;472.77845003;24929.000000;1.000000;1.000000;1.000000;1.000000;-0.006901;0.006901;-0.006901;1.000000;0.388235;0.388235;0.317647
445611.57140167;5696580.87899979;472.79785015;31611.000000;1.000000;1.000000;1.000000;1.000000;0.049000;-0.049000;0.049000;1.000000;0.490196;0.486275;0.447059
445611.70100124;5696580.88359840;472.78515007;33924.000000;1.000000;1.000000;1.000000;1.000000;0.053598;-0.053598;0.053598;1.000000;0.52549;0.52549;0.478431
445611.53230198;5696580.91519936;472.80585005;31868.000000;1.000000;1.000000;1.000000;1.000000;0.085199;-0.085199;0.085199;1.000000;0.494118;0.490196;0.45098
445611.29120167;5696580.88679894;472.91335012;7967.000000;1.000000;1.000000;1.000000;1.000000;-0.056799;0.056799;-0.056799;1.000000;0.121569;0.12549;0.113725
445611.41210182;5696580.93779953;472.82394983;19789.000000;1.000000;1.000000;1.000000;1.000000;-0.107800;0.107800;-0.107800;1.000000;0.301961;0.305882;0.282353
445611.57010181;5696580.91649826;472.80055000;29555.000000;1.000000;1.000000;1.000000;1.000000;0.086498;-0.086498;0.086498;1.000000;0.458824;0.454902;0.419608
445611.38200195;5696580.94730003;472.83664991;13364.000000;1.000000;1.000000;1.000000;1.000000;-0.117300;0.117300;-0.117300;1.000000;0.2;0.207843;0.211765
445611.30650146;5696580.97949989;472.86864998;5654.000000;1.000000;1.000000;1.000000;1.000000;-0.149501;0.149501;-0.149501;1.000000;0.0705882;0.0901961;0.109804
445611.80630119;5696580.82510002;472.76354982;33153.000000;1.000000;1.000000;1.000000;1.000000;-0.023687;0.023687;-0.023687;1.000000;0.517647;0.513725;0.443137
445611.30840118;5696580.87879951;472.87685015;4369.000000;1.000000;1.000000;1.000000;1.000000;-0.048855;0.048855;-0.048855;1.000000;0.0666667;0.0666667;0.0666667
445611.62840183;5696580.83419998;472.78824999;28270.000000;1.000000;1.000000;1.000000;1.000000;0.004200;-0.004200;0.004200;1.000000;0.443137;0.435294;0.388235
445611.29220112;5696580.89389999;472.90425016;7196.000000;1.000000;1.000000;1.000000;1.000000;-0.063900;0.063900;-0.063900;1.000000;0.105882;0.113725;0.105882
445611.47880180;5696580.86649902;472.80284979;36494.000000;1.000000;1.000000;1.000000;1.000000;-0.036499;0.036499;-0.036499;1.000000;0.572549;0.564706;0.505882
445611.37300117;5696580.95500000;472.84564974;8481.000000;1.000000;1.000000;1.000000;1.000000;0.125000;-0.125000;0.125000;1.000000;0.12549;0.133333;0.141176
445611.31800182;5696580.86899956;472.84915020;7453.000000;1.000000;1.000000;1.000000;1.000000;-0.039000;0.039000;-0.039000;1.000000;0.117647;0.113725;0.109804
445611.71220119;5696580.82879837;472.78494980;35209.000000;1.000000;1.000000;1.000000;1.000000;-0.001202;0.001202;-0.001202;1.000000;0.545098;0.545098;0.486275
445611.40890129;5696580.98229988;472.83134987;21331.000000;1.000000;1.000000;1.000000;1.000000;-0.152300;0.152300;-0.152300;1.000000;0.333333;0.329412;0.313725
445611.62710197;5696580.87159927;472.79094984;34438.000000;1.000000;1.000000;1.000000;1.000000;0.041599;-0.041599;0.041599;1.000000;0.537255;0.529412;0.482353
445611.66340168;5696580.91029938;472.79304983;36237.000000;1.000000;1.000000;1.000000;1.000000;-0.080299;0.080299;-0.080299;1.000000;0.560784;0.556863;0.513725
445611.70100124;5696580.91149910;472.79015018;37265.000000;1.000000;1.000000;1.000000;1.000000;0.081499;-0.081499;0.081499;1.000000;0.576471;0.572549;0.533333
445611.66220196;5696580.94779976;472.79344990;35209.000000;1.000000;1.000000;1.000000;1.000000;-0.117800;0.117800;-0.117800;1.000000;0.54902;0.541176;0.498039
445611.69970139;5696580.94889839;472.79285004;40349.000000;1.000000;1.000000;1.000000;1.000000;0.118898;-0.118898;0.118898;1.000000;0.623529;0.619608;0.580392
445611.28800114;5696581.00700005;472.86805012;12079.000000;1.000000;1.000000;1.000000;1.000000;-0.177000;0.177000;-0.177000;1.000000;0.172549;0.188235;0.211765
445611.73390110;5696580.98789986;472.79015018;28784.000000;1.000000;1.000000;1.000000;1.000000;-0.157900;0.157900;-0.157900;1.000000;0.447059;0.443137;0.403922
445611.26710136;5696580.95899971;472.92245008;31097.000000;1.000000;1.000000;1.000000;1.000000;-0.129000;0.129000;-0.129000;1.000000;0.458824;0.482353;0.486275
445611.68570145;5696580.84519966;472.78634979;23644.000000;1.000000;1.000000;1.000000;1.000000;0.015200;-0.015200;0.015200;1.000000;0.368627;0.368627;0.321569
445611.71970184;5696580.88410004;472.78595020;22359.000000;1.000000;1.000000;1.000000;1.000000;0.054100;-0.054100;0.054100;1.000000;0.34902;0.34902;0.305882
445611.29900177;5696580.88639839;472.89274981;4369.000000;1.000000;1.000000;1.000000;1.000000;-0.056398;0.056398;-0.056398;1.000000;0.0705882;0.0705882;0.0627451
445611.42000111;5696580.94639977;472.82205011;27499.000000;1.000000;1.000000;1.000000;1.000000;0.116400;-0.116400;0.116400;1.000000;0.427451;0.423529;0.396078
445611.54720123;5696581.02819832;472.81484987;38036.000000;1.000000;1.000000;1.000000;1.000000;-0.198198;0.198198;-0.198198;1.000000;0.592157;0.584314;0.541176
445611.32890137;5696580.87979897;472.83815004;6682.000000;1.000000;1.000000;1.000000;1.000000;-0.049799;0.049799;-0.049799;1.000000;0.105882;0.105882;0.0980392
445611.58240135;5696580.84309967;472.79094984;40349.000000;1.000000;1.000000;1.000000;1.000000;0.013100;-0.013100;0.013100;1.000000;0.623529;0.619608;0.576471
445611.28380116;5696580.90399940;472.90394976;8224.000000;1.000000;1.000000;1.000000;1.000000;-0.073999;0.073999;-0.073999;1.000000;0.121569;0.133333;0.129412
445611.43180187;5696580.86389931;472.80305006;37522.000000;1.000000;1.000000;1.000000;1.000000;0.033899;-0.033899;0.033899;1.000000;0.576471;0.580392;0.521569
445611.39650162;5696580.86239822;472.80604984;11308.000000;1.000000;1.000000;1.000000;1.000000;0.032398;-0.032398;0.032398;1.000000;0.176471;0.180392;0.14902
445611.80410202;5696580.87889870;472.76874973;29041.000000;1.000000;1.000000;1.000000;1.000000;0.053207;-0.053207;0.053207;1.000000;0.45098;0.45098;0.403922
445611.54330166;5696580.90489967;472.80154993;39064.000000;1.000000;1.000000;1.000000;1.000000;-0.074900;0.074900;-0.074900;1.000000;0.603922;0.6;0.564706
445611.33530148;5696580.89799889;472.83634998;14906.000000;1.000000;1.000000;1.000000;1.000000;-0.067999;0.067999;-0.067999;1.000000;0.223529;0.231373;0.227451
445611.38180168;5696581.00089844;472.84894993;25957.000000;1.000000;1.000000;1.000000;1.000000;-0.170898;0.170898;-0.170898;1.000000;0.396078;0.4;0.384314
445611.50930126;5696581.02459915;472.81775000;43947.000000;1.000000;1.000000;1.000000;1.000000;-0.194599;0.194599;-0.194599;1.000000;0.686275;0.67451;0.631373
445611.28220184;5696580.87559898;472.93384983;17476.000000;1.000000;1.000000;1.000000;1.000000;-0.045608;0.045608;-0.045608;1.000000;0.270588;0.27451;0.243137
445611.31740196;5696580.91559990;472.85664989;8224.000000;1.000000;1.000000;1.000000;1.000000;-0.085600;0.085600;-0.085600;1.000000;0.117647;0.129412;0.141176
445611.81360157;5696580.88039978;472.76924994;29555.000000;1.000000;1.000000;1.000000;1.000000;0.058897;-0.058897;0.058897;1.000000;0.454902;0.458824;0.411765
445611.84300144;5696580.84489830;472.77014973;38293.000000;1.000000;1.000000;1.000000;1.000000;0.061700;-0.061700;0.061700;1.000000;0.596078;0.592157;0.513725
445611.76630123;5696580.87759979;472.77635004;32125.000000;1.000000;1.000000;1.000000;1.000000;-0.047600;0.047600;-0.047600;1.000000;0.494118;0.498039;0.45098
445611.43030174;5696580.90119942;472.81034996;41891.000000;1.000000;1.000000;1.000000;1.000000;0.071199;-0.071199;0.071199;1.000000;0.643137;0.647059;0.6
445611.50540169;5696580.90359886;472.80914976;33410.000000;1.000000;1.000000;1.000000;1.000000;-0.073599;0.073599;-0.073599;1.000000;0.521569;0.513725;0.47451
445611.84060200;5696580.91989906;472.77094986;19018.000000;1.000000;1.000000;1.000000;1.000000;0.106702;-0.106702;0.106702;1.000000;0.294118;0.298039;0.270588
445611.80280121;5696580.91639908;472.77145006;51400.000000;1.000000;1.000000;1.000000;1.000000;0.088611;-0.088611;0.088611;1.000000;0.788235;0.792157;0.760784
445611.35490139;5696580.93569954;472.84464981;9509.000000;1.000000;1.000000;1.000000;1.000000;0.105700;-0.105700;0.105700;1.000000;0.137255;0.14902;0.160784
445611.54180153;5696580.94229897;472.80894997;25186.000000;1.000000;1.000000;1.000000;1.000000;-0.112299;0.112299;-0.112299;1.000000;0.396078;0.388235;0.345098
445611.50410183;5696580.94109924;472.81185009;28013.000000;1.000000;1.000000;1.000000;1.000000;-0.111099;0.111099;-0.111099;1.000000;0.439216;0.431373;0.388235
445611.73950203;5696580.89399918;472.78235008;20046.000000;1.000000;1.000000;1.000000;1.000000;-0.063999;0.063999;-0.063999;1.000000;0.309804;0.313725;0.266667
445611.43900116;5696580.92139824;472.81565001;41120.000000;1.000000;1.000000;1.000000;1.000000;0.091398;-0.091398;0.091398;1.000000;0.631373;0.635294;0.596078
445611.77380188;5696580.93529900;472.77974989;46003.000000;1.000000;1.000000;1.000000;1.000000;-0.105299;0.105299;-0.105299;1.000000;0.705882;0.709804;0.67451
445611.73840149;5696580.93379982;472.78504993;20303.000000;1.000000;1.000000;1.000000;1.000000;-0.103800;0.103800;-0.103800;1.000000;0.313725;0.317647;0.27451
445611.27550133;5696581.00549896;472.88385012;11051.000000;1.000000;1.000000;1.000000;1.000000;-0.175500;0.175500;-0.175500;1.000000;0.152941;0.176471;0.2
445611.50290115;5696580.97859962;472.81224968;38036.000000;1.000000;1.000000;1.000000;1.000000;-0.148600;0.148600;-0.148600;1.000000;0.596078;0.584314;0.537255
445611.47500141;5696580.95769890;472.81775000;39835.000000;1.000000;1.000000;1.000000;1.000000;-0.127699;0.127699;-0.127699;1.000000;0.615686;0.611765;0.572549
445611.32420166;5696580.98969849;472.86025002;5654.000000;1.000000;1.000000;1.000000;1.000000;-0.159698;0.159698;-0.159698;1.000000;0.0745098;0.0901961;0.101961
445611.77260120;5696580.97269829;472.78244974;24415.000000;1.000000;1.000000;1.000000;1.000000;-0.142698;0.142698;-0.142698;1.000000;0.380392;0.380392;0.341176
445611.53800114;5696580.97999962;472.81384995;39578.000000;1.000000;1.000000;1.000000;1.000000;-0.150000;0.150000;-0.150000;1.000000;0.623529;0.607843;0.556863
445611.77100189;5696581.00789841;472.78515007;32896.000000;1.000000;1.000000;1.000000;1.000000;-0.177898;0.177898;-0.177898;1.000000;0.509804;0.505882;0.462745
445611.30090149;5696580.90269859;472.88604977;5911.000000;1.000000;1.000000;1.000000;1.000000;-0.072699;0.072699;-0.072699;1.000000;0.0862745;0.0941176;0.0941176
445611.38080128;5696580.96369942;472.84614994;23387.000000;1.000000;1.000000;1.000000;1.000000;-0.133699;0.133699;-0.133699;1.000000;0.356863;0.360784;0.360784
445611.61210163;5696581.01989944;472.81064989;35209.000000;1.000000;1.000000;1.000000;1.000000;-0.189899;0.189899;-0.189899;1.000000;0.54902;0.541176;0.490196
445611.66630180;5696580.86569984;472.79034998;31097.000000;1.000000;1.000000;1.000000;1.000000;-0.035700;0.035700;-0.035700;1.000000;0.482353;0.478431;0.435294
445611.29890163;5696580.95209892;472.87724974;13364.000000;1.000000;1.000000;1.000000;1.000000;-0.122099;0.122099;-0.122099;1.000000;0.192157;0.207843;0.219608
445611.70040138;5696580.90459831;472.79005005;32639.000000;1.000000;1.000000;1.000000;1.000000;0.074598;-0.074598;0.074598;1.000000;0.505882;0.505882;0.462745
445611.62730129;5696580.89959915;472.79365017;26728.000000;1.000000;1.000000;1.000000;1.000000;0.069599;-0.069599;0.069599;1.000000;0.415686;0.415686;0.372549
445611.69760139;5696580.97709854;472.79544975;38036.000000;1.000000;1.000000;1.000000;1.000000;-0.147099;0.147099;-0.147099;1.000000;0.592157;0.584314;0.545098
445611.40190132;5696580.89919861;472.81374981;13364.000000;1.000000;1.000000;1.000000;1.000000;0.069199;-0.069199;0.069199;1.000000;0.203922;0.211765;0.180392
445611.73400124;5696581.01579865;472.79285004;39064.000000;1.000000;1.000000;1.000000;1.000000;-0.185799;0.185799;-0.185799;1.000000;0.603922;0.6;0.564706
445611.35510166;5696580.90559967;472.82795002;9252.000000;1.000000;1.000000;1.000000;1.000000;0.075600;-0.075600;0.075600;1.000000;0.133333;0.145098;0.152941
445611.61860188;5696580.88169868;472.79304983;37008.000000;1.000000;1.000000;1.000000;1.000000;0.051699;-0.051699;0.051699;1.000000;0.576471;0.572549;0.52549
445611.58080109;5696580.87819870;472.79594995;35209.000000;1.000000;1.000000;1.000000;1.000000;0.048199;-0.048199;0.048199;1.000000;0.545098;0.541176;0.501961
445611.33650120;5696580.94429977;472.85554983;14392.000000;1.000000;1.000000;1.000000;1.000000;-0.114300;0.114300;-0.114300;1.000000;0.207843;0.223529;0.235294
445611.55410202;5696580.84099968;472.79194977;28784.000000;1.000000;1.000000;1.000000;1.000000;0.011000;-0.011000;0.011000;1.000000;0.447059;0.443137;0.4
445611.65270145;5696580.92059906;472.79274990;37265.000000;1.000000;1.000000;1.000000;1.000000;0.090599;-0.090599;0.090599;1.000000;0.580392;0.572549;0.537255
445611.59170158;5696580.84219940;472.78905012;41891.000000;1.000000;1.000000;1.000000;1.000000;0.012199;-0.012199;0.012199;1.000000;0.65098;0.643137;0.6
445611.28860195;5696580.90359886;472.90184977;6682.000000;1.000000;1.000000;1.000000;1.000000;-0.073599;0.073599;-0.073599;1.000000;0.101961;0.105882;0.105882
445611.31580170;5696580.97869881;472.86665012;5397.000000;1.000000;1.000000;1.000000;1.000000;-0.148699;0.148699;-0.148699;1.000000;0.0666667;0.0901961;0.105882
445611.72670181;5696580.96049889;472.78954985;34438.000000;1.000000;1.000000;1.000000;1.000000;-0.130499;0.130499;-0.130499;1.000000;0.533333;0.533333;0.494118
445611.27950199;5696581.01709946;472.87015011;7453.000000;1.000000;1.000000;1.000000;1.000000;-0.187135;0.187135;-0.187135;1.000000;0.105882;0.117647;0.137255
445611.72540195;5696580.99799927;472.79225018;37265.000000;1.000000;1.000000;1.000000;1.000000;-0.167999;0.167999;-0.167999;1.000000;0.572549;0.572549;0.537255
445611.42310150;5696580.87159927;472.80504992;40092.000000;1.000000;1.000000;1.000000;1.000000;0.041599;-0.041599;0.041599;1.000000;0.615686;0.619608;0.572549
445611.28840168;5696580.96929939;472.88625004;9509.000000;1.000000;1.000000;1.000000;1.000000;-0.139299;0.139299;-0.139299;1.000000;0.133333;0.152941;0.168627
445611.30230148;5696580.86749847;472.88574984;6168.000000;1.000000;1.000000;1.000000;1.000000;-0.037498;0.037498;-0.037498;1.000000;0.0980392;0.0941176;0.0862745
445611.27610119;5696580.88550003;472.93365004;24672.000000;1.000000;1.000000;1.000000;1.000000;-0.055513;0.055513;-0.055513;1.000000;0.376471;0.384314;0.356863
445611.28390129;5696580.86849983;472.93384983;11822.000000;1.000000;1.000000;1.000000;1.000000;-0.038500;0.038500;-0.038500;1.000000;0.176471;0.192157;0.152941
445611.32530125;5696580.92429932;472.85484983;8738.000000;1.000000;1.000000;1.000000;1.000000;-0.094299;0.094299;-0.094299;1.000000;0.12549;0.137255;0.14902
445611.68070133;5696580.92039879;472.79164984;24158.000000;1.000000;1.000000;1.000000;1.000000;0.090399;-0.090399;0.090399;1.000000;0.376471;0.372549;0.333333
445611.34450157;5696580.92499931;472.84404995;9252.000000;1.000000;1.000000;1.000000;1.000000;-0.095006;0.095006;-0.095006;1.000000;0.137255;0.145098;0.156863
445611.47730167;5696580.90389832;472.81024982;28013.000000;1.000000;1.000000;1.000000;1.000000;-0.073898;0.073898;-0.073898;1.000000;0.435294;0.435294;0.384314
445611.58090122;5696580.85249908;472.79094984;31611.000000;1.000000;1.000000;1.000000;1.000000;0.022499;-0.022499;0.022499;1.000000;0.490196;0.486275;0.447059
445611.41130169;5696580.92849930;472.82144978;24929.000000;1.000000;1.000000;1.000000;1.000000;-0.098499;0.098499;-0.098499;1.000000;0.380392;0.388235;0.360784
445611.28750141;5696580.87759979;472.92474987;16962.000000;1.000000;1.000000;1.000000;1.000000;-0.047600;0.047600;-0.047600;1.000000;0.254902;0.266667;0.235294
445611.39340122;5696580.88130005;472.81075003;12850.000000;1.000000;1.000000;1.000000;1.000000;0.051300;-0.051300;0.051300;1.000000;0.196078;0.2;0.176471
445611.68200119;5696580.88289841;472.78894999;27499.000000;1.000000;1.000000;1.000000;1.000000;0.052898;-0.052898;0.052898;1.000000;0.427451;0.427451;0.380392
445611.32220181;5696580.91529854;472.85225012;8738.000000;1.000000;1.000000;1.000000;1.000000;-0.085299;0.085299;-0.085299;1.000000;0.129412;0.137255;0.152941
445611.54540165;5696580.84879883;472.79395010;27499.000000;1.000000;1.000000;1.000000;1.000000;-0.018799;0.018799;-0.018799;1.000000;0.431373;0.423529;0.380392
445611.28240116;5696580.91349991;472.90394976;6425.000000;1.000000;1.000000;1.000000;1.000000;-0.083503;0.083503;-0.083503;1.000000;0.0901961;0.101961;0.101961
445611.81330116;5696580.85239990;472.76884987;39321.000000;1.000000;1.000000;1.000000;1.000000;0.037580;-0.037580;0.037580;1.000000;0.615686;0.607843;0.54902
445611.58670147;5696580.94520004;472.80394985;30840.000000;1.000000;1.000000;1.000000;1.000000;0.115200;-0.115200;0.115200;1.000000;0.482353;0.47451;0.431373
445611.40430172;5696580.87099846;472.80655005;16448.000000;1.000000;1.000000;1.000000;1.000000;0.040998;-0.040998;0.040998;1.000000;0.254902;0.258824;0.223529
445611.86040123;5696580.88299950;472.77364971;52171.000000;1.000000;1.000000;1.000000;1.000000;0.093703;-0.093703;0.093703;1.000000;0.796078;0.807843;0.756863
445611.44900139;5696580.90179832;472.81124975;32125.000000;1.000000;1.000000;1.000000;1.000000;0.071798;-0.071798;0.071798;1.000000;0.501961;0.498039;0.447059
445611.62800129;5696580.88089951;472.79115011;36494.000000;1.000000;1.000000;1.000000;1.000000;0.050900;-0.050900;0.050900;1.000000;0.568627;0.564706;0.517647
445611.31550129;5696580.92499931;472.86604979;6939.000000;1.000000;1.000000;1.000000;1.000000;-0.094999;0.094999;-0.094999;1.000000;0.0980392;0.109804;0.121569
445611.32310112;5696580.86869820;472.84004976;8224.000000;1.000000;1.000000;1.000000;1.000000;-0.038698;0.038698;-0.038698;1.000000;0.129412;0.129412;0.12549
445611.61720188;5696580.89119919;472.79304983;34952.000000;1.000000;1.000000;1.000000;1.000000;0.061199;-0.061199;0.061199;1.000000;0.541176;0.537255;0.498039
445611.26220139;5696580.93139847;472.92194988;11565.000000;1.000000;1.000000;1.000000;1.000000;-0.101398;0.101398;-0.101398;1.000000;0.164706;0.180392;0.188235
445611.32150181;5696580.90599831;472.84975006;9509.000000;1.000000;1.000000;1.000000;1.000000;-0.075998;0.075998;-0.075998;1.000000;0.145098;0.14902;0.156863
445611.78390129;5696580.91569908;472.77524998;28527.000000;1.000000;1.000000;1.000000;1.000000;0.085703;-0.085703;0.085703;1.000000;0.439216;0.443137;0.407843
445611.59980114;5696580.88109978;472.79454996;36237.000000;1.000000;1.000000;1.000000;1.000000;-0.051100;0.051100;-0.051100;1.000000;0.560784;0.556863;0.517647
445611.72080143;5696580.89569862;472.78615000;21331.000000;1.000000;1.000000;1.000000;1.000000;-0.065699;0.065699;-0.065699;1.000000;0.333333;0.333333;0.294118
445611.75350197;5696580.96979912;472.78385021;23644.000000;1.000000;1.000000;1.000000;1.000000;-0.139799;0.139799;-0.139799;1.000000;0.368627;0.364706;0.329412
445611.65350159;5696580.92989929;472.79285004;32896.000000;1.000000;1.000000;1.000000;1.000000;0.099899;-0.099899;0.099899;1.000000;0.513725;0.505882;0.466667
445611.27040203;5696580.94009979;472.91305019;16191.000000;1.000000;1.000000;1.000000;1.000000;-0.110100;0.110100;-0.110100;1.000000;0.235294;0.25098;0.258824
445611.32610138;5696580.93349846;472.85724976;11308.000000;1.000000;1.000000;1.000000;1.000000;-0.103498;0.103498;-0.103498;1.000000;0.164706;0.176471;0.188235
445611.58740147;5696580.95449837;472.80644991;22359.000000;1.000000;1.000000;1.000000;1.000000;0.124498;-0.124498;0.124498;1.000000;0.356863;0.345098;0.301961
445611.31450184;5696580.98819931;472.86445000;4883.000000;1.000000;1.000000;1.000000;1.000000;-0.158199;0.158199;-0.158199;1.000000;0.0627451;0.0823529;0.0980392
445611.69680126;5696580.99579819;472.80025007;37265.000000;1.000000;1.000000;1.000000;1.000000;-0.165798;0.165798;-0.165798;1.000000;0.576471;0.572549;0.533333
445611.74630173;5696580.94240006;472.78324987;23644.000000;1.000000;1.000000;1.000000;1.000000;0.112400;-0.112400;0.112400;1.000000;0.368627;0.368627;0.329412
445611.72520168;5696580.96999939;472.78954985;31354.000000;1.000000;1.000000;1.000000;1.000000;-0.139999;0.139999;-0.139999;1.000000;0.486275;0.482353;0.443137
445611.72390182;5696581.00739868;472.79234983;37265.000000;1.000000;1.000000;1.000000;1.000000;-0.177399;0.177399;-0.177399;1.000000;0.572549;0.572549;0.537255
445611.78700169;5696580.82209976;472.77194979;18247.000000;1.000000;1.000000;1.000000;1.000000;-0.008799;0.008799;-0.008799;1.000000;0.286275;0.286275;0.215686
445611.29720123;5696580.98039825;472.86814978;8481.000000;1.000000;1.000000;1.000000;1.000000;-0.150398;0.150398;-0.150398;1.000000;0.117647;0.133333;0.156863
445611.26270111;5696580.91259964;472.92404987;9509.000000;1.000000;1.000000;1.000000;1.000000;-0.082600;0.082600;-0.082600;1.000000;0.141176;0.14902;0.137255
445611.27200134;5696580.87399872;472.94964983;15420.000000;1.000000;1.000000;1.000000;1.000000;-0.043999;0.043999;-0.043999;1.000000;0.239216;0.239216;0.203922
445611.29140194;5696580.90579994;472.89494993;6939.000000;1.000000;1.000000;1.000000;1.000000;-0.075800;0.075800;-0.075800;1.000000;0.101961;0.109804;0.109804
445611.78580196;5696580.85949905;472.77234985;41377.000000;1.000000;1.000000;1.000000;1.000000;0.029620;-0.029620;0.029620;1.000000;0.639216;0.639216;0.588235
445611.30770119;5696580.94209869;472.86824991;11565.000000;1.000000;1.000000;1.000000;1.000000;-0.112111;0.112111;-0.112111;1.000000;0.168627;0.180392;0.192157
445611.29830177;5696580.94969948;472.88415005;10794.000000;1.000000;1.000000;1.000000;1.000000;-0.119699;0.119699;-0.119699;1.000000;0.152941;0.168627;0.180392
445611.27870186;5696580.98669823;472.87675001;10023.000000;1.000000;1.000000;1.000000;1.000000;-0.156746;0.156746;-0.156746;1.000000;0.141176;0.156863;0.176471
445611.82410152;5696580.84209831;472.76695015;33924.000000;1.000000;1.000000;1.000000;1.000000;0.042723;-0.042723;0.042723;1.000000;0.529412;0.52549;0.454902
445611.75920113;5696580.83139999;472.78485014;32382.000000;1.000000;1.000000;1.000000;1.000000;-0.001400;0.001400;-0.001400;1.000000;0.498039;0.501961;0.443137
445611.52580173;5696580.86689957;472.79794981;36237.000000;1.000000;1.000000;1.000000;1.000000;0.036900;-0.036900;0.036900;1.000000;0.560784;0.556863;0.513725
445611.48810108;5696580.86559875;472.80324986;33924.000000;1.000000;1.000000;1.000000;1.000000;0.035599;-0.035599;0.035599;1.000000;0.529412;0.52549;0.47451
445611.45280178;5696580.86419876;472.80394985;34952.000000;1.000000;1.000000;1.000000;1.000000;0.034199;-0.034199;0.034199;1.000000;0.541176;0.541176;0.478431
445611.59750183;5696580.90929993;472.79934980;26728.000000;1.000000;1.000000;1.000000;1.000000;-0.079300;0.079300;-0.079300;1.000000;0.415686;0.415686;0.376471
445611.48730190;5696580.88429840;472.80804970;38807.000000;1.000000;1.000000;1.000000;1.000000;0.054298;-0.054298;0.054298;1.000000;0.603922;0.596078;0.545098
445611.71100147;5696580.86629875;472.78534986;21845.000000;1.000000;1.000000;1.000000;1.000000;0.036299;-0.036299;0.036299;1.000000;0.341176;0.341176;0.298039
445611.86830147;5696580.71419914;472.76734974;40092.000000;1.000000;1.000000;1.000000;1.000000;-0.143752;0.143752;-0.143752;1.000000;0.619608;0.623529;0.529412
445611.94010170;5696580.75429924;472.76174976;32382.000000;1.000000;1.000000;1.000000;1.000000;-0.174275;0.174275;-0.174275;1.000000;0.517647;0.513725;0.341176
445611.90250118;5696580.75309952;472.76244976;37265.000000;1.000000;1.000000;1.000000;1.000000;-0.142000;0.142000;-0.142000;1.000000;0.592157;0.588235;0.431373
