//X;Y;Z;Intensity;Return Number;Number Of Returns;Scan Direction Flag;Point Source ID;C2M signed distances[-][<0.8];C2M signed distances[<0.4];C2M signed distances[-][<0.2];Stump84;Rf;Gf;Bf
300
445636.88459976;5696598.19499786;471.75334980;15934.000000;1.000000;1.000000;1.000000;1.000000;-0.135223;0.135223;-0.135223;1.000000;0.239216;0.270588;0.129412
445636.87479980;5696598.18670090;471.74585011;12850.000000;1.000000;1.000000;1.000000;1.000000;-0.143299;0.143299;-0.143299;1.000000;0.192157;0.219608;0.101961
445636.83469971;5696597.82089813;471.77465012;9766.000000;1.000000;1.000000;1.000000;1.000000;-0.176807;0.176807;-0.176807;1.000000;0.152941;0.14902;0.145098
445636.90120132;5696598.20260056;471.76585009;35209.000000;1.000000;1.000000;1.000000;1.000000;-0.127399;0.127399;-0.127399;1.000000;0.52549;0.576471;0.368627
445637.05410202;5696598.17320068;471.83995010;42662.000000;1.000000;1.000000;1.000000;1.000000;-0.156799;0.156799;-0.156799;1.000000;0.662745;0.67451;0.513725
445637.06100281;5696598.16799744;471.83325006;45746.000000;1.000000;1.000000;1.000000;1.000000;-0.162003;0.162003;-0.162003;1.000000;0.709804;0.717647;0.568627
445636.95110138;5696598.22920044;471.85694983;15934.000000;1.000000;1.000000;1.000000;1.000000;0.100800;-0.100800;0.100800;1.000000;0.247059;0.266667;0.129412
445636.84870346;5696597.96240051;471.75594999;41120.000000;1.000000;1.000000;1.000000;1.000000;-0.191945;0.191945;-0.191945;1.000000;0.635294;0.631373;0.607843
445636.93780334;5696598.22389801;471.82835009;25957.000000;1.000000;1.000000;1.000000;1.000000;-0.106102;0.106102;-0.106102;1.000000;0.388235;0.431373;0.262745
445637.09710129;5696598.21570023;471.85634996;29555.000000;1.000000;1.000000;1.000000;1.000000;0.114300;-0.114300;0.114300;1.000000;0.447059;0.478431;0.321569
445636.84790237;5696597.95310028;471.75584986;40092.000000;1.000000;1.000000;1.000000;1.000000;-0.192484;0.192484;-0.192484;1.000000;0.623529;0.611765;0.588235
445636.93309982;5696598.18059738;471.79034998;13107.000000;1.000000;1.000000;1.000000;1.000000;-0.149403;0.149403;-0.149403;1.000000;0.2;0.227451;0.0862745
445636.93729980;5696598.21470078;471.82124998;25957.000000;1.000000;1.000000;1.000000;1.000000;-0.115299;0.115299;-0.115299;1.000000;0.380392;0.431373;0.25098
445637.35070236;5696598.15999802;471.82065012;25443.000000;1.000000;1.000000;1.000000;1.000000;-0.170078;0.170078;-0.170078;1.000000;0.427451;0.388235;0.298039
445637.22970016;5696598.17109879;471.83155014;53456.000000;1.000000;1.000000;1.000000;1.000000;-0.158902;0.158902;-0.158902;1.000000;0.827451;0.835294;0.698039
445637.22089966;5696598.14639862;471.81924965;42919.000000;1.000000;1.000000;1.000000;1.000000;-0.183602;0.183602;-0.183602;1.000000;0.67451;0.670588;0.545098
445637.39740189;5696598.18829926;471.82774975;32382.000000;1.000000;1.000000;1.000000;1.000000;-0.150863;0.150863;-0.150863;1.000000;0.521569;0.498039;0.423529
445636.85430344;5696598.01809891;471.74755003;42405.000000;1.000000;1.000000;1.000000;1.000000;-0.196177;0.196177;-0.196177;1.000000;0.647059;0.65098;0.639216
445636.96720322;5696598.16060074;471.82194998;29812.000000;1.000000;1.000000;1.000000;1.000000;-0.169399;0.169399;-0.169399;1.000000;0.466667;0.478431;0.313725
445636.93650253;5696598.16179855;471.77864983;14135.000000;1.000000;1.000000;1.000000;1.000000;-0.168201;0.168201;-0.168201;1.000000;0.231373;0.227451;0.117647
445637.45420273;5696598.18260010;471.85354998;22873.000000;1.000000;1.000000;1.000000;1.000000;-0.183072;0.183072;-0.183072;1.000000;0.380392;0.34902;0.282353
445637.24839981;5696598.16489990;471.81834986;46517.000000;1.000000;1.000000;1.000000;1.000000;-0.165100;0.165100;-0.165100;1.000000;0.729412;0.72549;0.596078
445637.38000305;5696598.15249832;471.82884981;10537.000000;1.000000;1.000000;1.000000;1.000000;-0.180800;0.180800;-0.180800;1.000000;0.192157;0.160784;0.105882
445637.08780106;5696598.21199997;471.84894993;29298.000000;1.000000;1.000000;1.000000;1.000000;0.118000;-0.118000;0.118000;1.000000;0.447059;0.478431;0.298039
445636.92670258;5696598.18139847;471.77845003;22616.000000;1.000000;1.000000;1.000000;1.000000;-0.148602;0.148602;-0.148602;1.000000;0.341176;0.372549;0.231373
445637.14400299;5696598.21380051;471.84915020;43433.000000;1.000000;1.000000;1.000000;1.000000;0.116199;-0.116199;0.116199;1.000000;0.658824;0.694118;0.505882
445636.88650330;5696598.15999802;471.74375011;47288.000000;1.000000;1.000000;1.000000;1.000000;-0.170274;0.170274;-0.170274;1.000000;0.72549;0.733333;0.67451
445636.94790085;5696598.20659836;471.82854988;25957.000000;1.000000;1.000000;1.000000;1.000000;0.123402;-0.123402;0.123402;1.000000;0.392157;0.427451;0.266667
445636.89450272;5696598.20559891;471.76324989;24672.000000;1.000000;1.000000;1.000000;1.000000;-0.124414;0.124414;-0.124414;1.000000;0.360784;0.419608;0.223529
445636.92770203;5696598.20419891;471.80434992;41634.000000;1.000000;1.000000;1.000000;1.000000;-0.125801;0.125801;-0.125801;1.000000;0.623529;0.670588;0.494118
445636.96680267;5696598.15139969;471.81244995;23901.000000;1.000000;1.000000;1.000000;1.000000;-0.178600;0.178600;-0.178600;1.000000;0.388235;0.380392;0.219608
445636.94280060;5696598.23259933;471.84034969;14135.000000;1.000000;1.000000;1.000000;1.000000;0.097401;-0.097401;0.097401;1.000000;0.207843;0.243137;0.0941176
445636.94360168;5696598.20939835;471.82604982;24929.000000;1.000000;1.000000;1.000000;1.000000;0.120602;-0.120602;0.120602;1.000000;0.372549;0.411765;0.247059
445636.93600281;5696598.15259750;471.77154972;23901.000000;1.000000;1.000000;1.000000;1.000000;-0.177402;0.177402;-0.177402;1.000000;0.384314;0.372549;0.27451
445636.93869980;5696598.15929993;471.77635004;16705.000000;1.000000;1.000000;1.000000;1.000000;-0.170700;0.170700;-0.170700;1.000000;0.27451;0.266667;0.152941
445637.41620071;5696598.14430054;471.83964970;4626.000000;1.000000;1.000000;1.000000;1.000000;-0.198658;0.198658;-0.198658;1.000000;0.0862745;0.0705882;0.0352941
445636.83630188;5696597.79260071;471.78364994;11565.000000;1.000000;1.000000;1.000000;1.000000;-0.182058;0.182058;-0.182058;1.000000;0.184314;0.180392;0.168627
445637.40910156;5696598.14269836;471.83704998;6168.000000;1.000000;1.000000;1.000000;1.000000;-0.197765;0.197765;-0.197765;1.000000;0.109804;0.0941176;0.054902
445636.98170288;5696598.20989807;471.86275007;15677.000000;1.000000;1.000000;1.000000;1.000000;0.120102;-0.120102;0.120102;1.000000;0.247059;0.254902;0.141176
445636.92720230;5696598.19510086;471.79495003;32639.000000;1.000000;1.000000;1.000000;1.000000;-0.134899;0.134899;-0.134899;1.000000;0.490196;0.533333;0.360784
445636.85570343;5696598.00860031;471.74984982;42662.000000;1.000000;1.000000;1.000000;1.000000;-0.197577;0.197577;-0.197577;1.000000;0.65098;0.654902;0.643137
445636.90240295;5696598.22329910;471.78245022;40606.000000;1.000000;1.000000;1.000000;1.000000;-0.106701;0.106701;-0.106701;1.000000;0.6;0.666667;0.454902
445636.90400131;5696598.14889725;471.74674990;51914.000000;1.000000;1.000000;1.000000;1.000000;-0.181103;0.181103;-0.181103;1.000000;0.796078;0.8;0.741176
445637.31190308;5696598.19629868;471.82165005;40349.000000;1.000000;1.000000;1.000000;1.000000;-0.133701;0.133701;-0.133701;1.000000;0.647059;0.619608;0.509804
445636.84520157;5696597.81049927;471.77965023;11308.000000;1.000000;1.000000;1.000000;1.000000;-0.188088;0.188088;-0.188088;1.000000;0.176471;0.172549;0.164706
445637.05500229;5696598.14779861;471.81874992;47545.000000;1.000000;1.000000;1.000000;1.000000;-0.182201;0.182201;-0.182201;1.000000;0.741176;0.745098;0.6
445636.93950089;5696598.21679886;471.82835009;24158.000000;1.000000;1.000000;1.000000;1.000000;0.113201;-0.113201;0.113201;1.000000;0.360784;0.4;0.235294
445637.34060104;5696598.17729767;471.82035019;29555.000000;1.000000;1.000000;1.000000;1.000000;-0.152702;0.152702;-0.152702;1.000000;0.486275;0.454902;0.352941
445637.23000153;5696598.17569931;471.83395006;49858.000000;1.000000;1.000000;1.000000;1.000000;-0.154301;0.154301;-0.154301;1.000000;0.772549;0.776471;0.654902
445636.87700089;5696598.13059814;471.73595001;28527.000000;1.000000;1.000000;1.000000;1.000000;-0.199402;0.199402;-0.199402;1.000000;0.447059;0.443137;0.396078
445637.24940308;5696598.14629944;471.80884983;35209.000000;1.000000;1.000000;1.000000;1.000000;-0.183701;0.183701;-0.183701;1.000000;0.560784;0.545098;0.435294
445636.85610016;5696597.98979767;471.75435020;15420.000000;1.000000;1.000000;1.000000;1.000000;-0.197973;0.197973;-0.197973;1.000000;0.235294;0.239216;0.223529
445636.87759979;5696598.22360046;471.76034977;28527.000000;1.000000;1.000000;1.000000;1.000000;-0.106402;0.106402;-0.106402;1.000000;0.411765;0.478431;0.290196
445636.96780212;5696598.16969879;471.82905008;25443.000000;1.000000;1.000000;1.000000;1.000000;-0.160301;0.160301;-0.160301;1.000000;0.392157;0.415686;0.254902
445636.93250092;5696598.13220032;471.75474979;53713.000000;1.000000;1.000000;1.000000;1.000000;-0.197800;0.197800;-0.197800;1.000000;0.839216;0.827451;0.756863
445636.93830307;5696598.19610031;471.81174995;20817.000000;1.000000;1.000000;1.000000;1.000000;-0.133900;0.133900;-0.133900;1.000000;0.309804;0.34902;0.180392
445636.86770065;5696598.15709885;471.73815014;57825.000000;1.000000;1.000000;1.000000;1.000000;-0.172901;0.172901;-0.172901;1.000000;0.886275;0.890196;0.847059
445636.92740067;5696598.23430069;471.82105019;47802.000000;1.000000;1.000000;1.000000;1.000000;-0.095699;0.095699;-0.095699;1.000000;0.713725;0.764706;0.588235
445637.37810333;5696598.17849930;471.82205011;35209.000000;1.000000;1.000000;1.000000;1.000000;-0.154943;0.154943;-0.154943;1.000000;0.568627;0.541176;0.454902
445637.30669983;5696598.13849838;471.81834986;34695.000000;1.000000;1.000000;1.000000;1.000000;-0.191502;0.191502;-0.191502;1.000000;0.556863;0.533333;0.447059
445637.34420212;5696598.14189728;471.82245018;24415.000000;1.000000;1.000000;1.000000;1.000000;-0.188103;0.188103;-0.188103;1.000000;0.415686;0.368627;0.305882
445636.91080292;5696598.17619904;471.75664999;44461.000000;1.000000;1.000000;1.000000;1.000000;-0.153801;0.153801;-0.153801;1.000000;0.682353;0.701961;0.568627
445636.91470154;5696598.14089783;471.75175001;47802.000000;1.000000;1.000000;1.000000;1.000000;-0.189102;0.189102;-0.189102;1.000000;0.741176;0.737255;0.67451
445636.88310059;5696598.20450027;471.75575020;22102.000000;1.000000;1.000000;1.000000;1.000000;-0.125654;0.125654;-0.125654;1.000000;0.329412;0.372549;0.192157
445637.08080109;5696598.21269806;471.84865000;42662.000000;1.000000;1.000000;1.000000;1.000000;0.117302;-0.117302;0.117302;1.000000;0.65098;0.682353;0.501961
445637.42700012;5696598.16200073;471.84275009;10794.000000;1.000000;1.000000;1.000000;1.000000;-0.186669;0.186669;-0.186669;1.000000;0.188235;0.168627;0.109804
445637.04030045;5696598.21150024;471.86305000;40349.000000;1.000000;1.000000;1.000000;1.000000;0.118500;-0.118500;0.118500;1.000000;0.611765;0.647059;0.490196
445636.96320160;5696598.20260056;471.84324982;13878.000000;1.000000;1.000000;1.000000;1.000000;-0.127399;0.127399;-0.127399;1.000000;0.211765;0.235294;0.105882
445636.90540131;5696598.19980057;471.77064993;47545.000000;1.000000;1.000000;1.000000;1.000000;-0.130199;0.130199;-0.130199;1.000000;0.705882;0.764706;0.603922
445637.02600296;5696598.21039780;471.86704971;41120.000000;1.000000;1.000000;1.000000;1.000000;0.119602;-0.119602;0.119602;1.000000;0.623529;0.65098;0.517647
445636.97610291;5696598.22669800;471.86735012;19018.000000;1.000000;1.000000;1.000000;1.000000;0.103302;-0.103302;0.103302;1.000000;0.298039;0.309804;0.192157
445637.36170013;5696598.13089951;471.82774975;21074.000000;1.000000;1.000000;1.000000;1.000000;-0.199748;0.199748;-0.199748;1.000000;0.34902;0.321569;0.266667
445636.92450150;5696598.17939957;471.77134993;24929.000000;1.000000;1.000000;1.000000;1.000000;-0.150600;0.150600;-0.150600;1.000000;0.380392;0.407843;0.266667
445636.91980179;5696598.17749985;471.76644995;29298.000000;1.000000;1.000000;1.000000;1.000000;-0.152500;0.152500;-0.152500;1.000000;0.45098;0.470588;0.333333
445636.96180161;5696598.14269836;471.80055000;22359.000000;1.000000;1.000000;1.000000;1.000000;-0.187302;0.187302;-0.187302;1.000000;0.368627;0.352941;0.203922
445637.43370255;5696598.18239792;471.84095003;13621.000000;1.000000;1.000000;1.000000;1.000000;-0.171883;0.171883;-0.171883;1.000000;0.235294;0.211765;0.141176
445636.88770111;5696598.20630081;471.76065018;20817.000000;1.000000;1.000000;1.000000;1.000000;-0.123996;0.123996;-0.123996;1.000000;0.294118;0.356863;0.176471
445636.92350204;5696598.20699890;471.79955008;43433.000000;1.000000;1.000000;1.000000;1.000000;-0.123001;0.123001;-0.123001;1.000000;0.647059;0.698039;0.521569
445636.91020020;5696598.20400055;471.77565004;49087.000000;1.000000;1.000000;1.000000;1.000000;-0.125999;0.125999;-0.125999;1.000000;0.737255;0.788235;0.592157
445637.39980133;5696598.14129837;471.83424999;7196.000000;1.000000;1.000000;1.000000;1.000000;-0.196324;0.196324;-0.196324;1.000000;0.129412;0.113725;0.0705882
445636.86710175;5696598.17589767;471.73834993;23644.000000;1.000000;1.000000;1.000000;1.000000;-0.154102;0.154102;-0.154102;1.000000;0.356863;0.376471;0.294118
445636.94240005;5696598.22799881;471.83794977;19532.000000;1.000000;1.000000;1.000000;1.000000;0.102001;-0.102001;0.102001;1.000000;0.294118;0.329412;0.164706
445637.12700089;5696598.20599945;471.84835007;37522.000000;1.000000;1.000000;1.000000;1.000000;0.124001;-0.124001;0.124001;1.000000;0.564706;0.611765;0.411765
445636.90580185;5696598.20899780;471.78014996;42405.000000;1.000000;1.000000;1.000000;1.000000;-0.121002;0.121002;-0.121002;1.000000;0.619608;0.694118;0.494118
445636.93570145;5696598.19169815;471.80684998;16191.000000;1.000000;1.000000;1.000000;1.000000;-0.138302;0.138302;-0.138302;1.000000;0.243137;0.27451;0.129412
445636.94400223;5696598.21859940;471.83554985;23901.000000;1.000000;1.000000;1.000000;1.000000;0.111401;-0.111401;0.111401;1.000000;0.360784;0.396078;0.235294
445636.88800247;5696598.15049942;471.74134972;51914.000000;1.000000;1.000000;1.000000;1.000000;-0.179693;0.179693;-0.179693;1.000000;0.796078;0.8;0.74902
445637.20409973;5696598.14329727;471.82074978;44718.000000;1.000000;1.000000;1.000000;1.000000;-0.186703;0.186703;-0.186703;1.000000;0.698039;0.701961;0.556863
445637.04120071;5696598.22080048;471.86324980;33410.000000;1.000000;1.000000;1.000000;1.000000;0.109200;-0.109200;0.109200;1.000000;0.501961;0.541176;0.380392
445637.23999985;5696598.18179901;471.83215000;55769.000000;1.000000;1.000000;1.000000;1.000000;-0.148201;0.148201;-0.148201;1.000000;0.866667;0.870588;0.733333
445636.86779984;5696598.18509872;471.74314978;13621.000000;1.000000;1.000000;1.000000;1.000000;-0.144901;0.144901;-0.144901;1.000000;0.2;0.231373;0.121569
445637.31400116;5696598.16810043;471.82135012;34695.000000;1.000000;1.000000;1.000000;1.000000;-0.161900;0.161900;-0.161900;1.000000;0.564706;0.537255;0.411765
445637.35150345;5696598.16929825;471.82074978;25443.000000;1.000000;1.000000;1.000000;1.000000;-0.160809;0.160809;-0.160809;1.000000;0.427451;0.388235;0.294118
445637.05510147;5696598.14559753;471.81174995;49344.000000;1.000000;1.000000;1.000000;1.000000;-0.184402;0.184402;-0.184402;1.000000;0.772549;0.772549;0.623529
445637.27810104;5696598.15519913;471.81265022;28013.000000;1.000000;1.000000;1.000000;1.000000;-0.174801;0.174801;-0.174801;1.000000;0.45098;0.439216;0.305882
445636.84580048;5696597.79400070;471.78414967;12336.000000;1.000000;1.000000;1.000000;1.000000;-0.191095;0.191095;-0.191095;1.000000;0.196078;0.188235;0.176471
445636.92840012;5696598.21570023;471.81154968;42405.000000;1.000000;1.000000;1.000000;1.000000;-0.114300;0.114300;-0.114300;1.000000;0.635294;0.686275;0.501961
445636.89560135;5696598.18699844;471.75374987;29555.000000;1.000000;1.000000;1.000000;1.000000;-0.143003;0.143003;-0.143003;1.000000;0.447059;0.478431;0.34902
445636.82769974;5696597.77469833;471.78305008;32639.000000;1.000000;1.000000;1.000000;1.000000;-0.178363;0.178363;-0.178363;1.000000;0.505882;0.501961;0.482353
445636.82890137;5696597.73719986;471.78265001;32896.000000;1.000000;1.000000;1.000000;1.000000;-0.194360;0.194360;-0.194360;1.000000;0.509804;0.501961;0.486275
445637.05560120;5696598.15469940;471.82114985;46517.000000;1.000000;1.000000;1.000000;1.000000;-0.175301;0.175301;-0.175301;1.000000;0.72549;0.729412;0.576471
445637.27670105;5696598.16699799;471.81734993;34952.000000;1.000000;1.000000;1.000000;1.000000;-0.163002;0.163002;-0.163002;1.000000;0.560784;0.545098;0.423529
445636.92670258;5696598.22279938;471.81384995;43690.000000;1.000000;1.000000;1.000000;1.000000;-0.107201;0.107201;-0.107201;1.000000;0.65098;0.709804;0.513725
445637.22950180;5696598.20120056;471.84594967;33410.000000;1.000000;1.000000;1.000000;1.000000;-0.128801;0.128801;-0.128801;1.000000;0.533333;0.52549;0.372549
445636.90180023;5696598.21409805;471.77535011;37522.000000;1.000000;1.000000;1.000000;1.000000;-0.115902;0.115902;-0.115902;1.000000;0.552941;0.615686;0.403922
445637.02219971;5696598.22239883;471.87404968;24929.000000;1.000000;1.000000;1.000000;1.000000;0.107601;-0.107601;0.107601;1.000000;0.376471;0.407843;0.262745
445637.23880203;5696598.16340073;471.82025005;51914.000000;1.000000;1.000000;1.000000;1.000000;-0.166599;0.166599;-0.166599;1.000000;0.807843;0.811765;0.67451
445636.99660309;5696598.16430099;471.85354998;28784.000000;1.000000;1.000000;1.000000;1.000000;-0.165699;0.165699;-0.165699;1.000000;0.443137;0.47451;0.270588
445636.88220032;5696598.22310074;471.76294996;28013.000000;1.000000;1.000000;1.000000;1.000000;-0.107032;0.107032;-0.107032;1.000000;0.403922;0.470588;0.262745
445636.93040283;5696598.16939743;471.77374985;17219.000000;1.000000;1.000000;1.000000;1.000000;-0.160603;0.160603;-0.160603;1.000000;0.27451;0.278431;0.152941
445637.00000198;5696598.13199814;471.81374981;45489.000000;1.000000;1.000000;1.000000;1.000000;-0.198002;0.198002;-0.198002;1.000000;0.729412;0.705882;0.564706
445636.92080124;5696598.19589813;471.78294994;33924.000000;1.000000;1.000000;1.000000;1.000000;-0.134102;0.134102;-0.134102;1.000000;0.505882;0.552941;0.376471
445637.21820267;5696598.20689972;471.85014965;28784.000000;1.000000;1.000000;1.000000;1.000000;-0.123100;0.123100;-0.123100;1.000000;0.470588;0.454902;0.294118
445636.82830246;5696597.75589951;471.78284981;35209.000000;1.000000;1.000000;1.000000;1.000000;-0.185609;0.185609;-0.185609;1.000000;0.545098;0.541176;0.521569
445637.10830124;5696598.20549973;471.84744980;33153.000000;1.000000;1.000000;1.000000;1.000000;0.124500;-0.124500;0.124500;1.000000;0.501961;0.537255;0.356863
445637.42490204;5696598.16219910;471.83794977;8481.000000;1.000000;1.000000;1.000000;1.000000;-0.185585;0.185585;-0.185585;1.000000;0.14902;0.129412;0.0784314
445637.21210297;5696598.18889816;471.84264996;47031.000000;1.000000;1.000000;1.000000;1.000000;-0.141102;0.141102;-0.141102;1.000000;0.72549;0.745098;0.564706
445637.05260284;5696598.18490036;471.84705021;45489.000000;1.000000;1.000000;1.000000;1.000000;-0.145100;0.145100;-0.145100;1.000000;0.698039;0.721569;0.556863
445636.28440292;5696598.52350052;471.63934996;41634.000000;1.000000;1.000000;1.000000;1.000000;-0.186224;0.186224;-0.186224;1.000000;0.631373;0.639216;0.647059
445636.28540237;5696598.48599823;471.64354994;22102.000000;1.000000;1.000000;1.000000;1.000000;-0.185225;0.185225;-0.185225;1.000000;0.321569;0.345098;0.34902
445636.31340225;5696598.70089920;471.62414982;15934.000000;1.000000;1.000000;1.000000;1.000000;-0.159843;0.159843;-0.159843;1.000000;0.258824;0.243137;0.219608
445636.27700241;5696598.66219910;471.62435009;33410.000000;1.000000;1.000000;1.000000;1.000000;-0.193624;0.193624;-0.193624;1.000000;0.513725;0.513725;0.490196
445636.31480225;5696598.66570099;471.62375023;57054.000000;1.000000;1.000000;1.000000;1.000000;-0.155825;0.155825;-0.155825;1.000000;0.882353;0.87451;0.843137
445636.27830322;5696598.62479980;471.62165024;20560.000000;1.000000;1.000000;1.000000;1.000000;-0.192324;0.192324;-0.192324;1.000000;0.321569;0.313725;0.298039
445636.28490265;5696598.50469788;471.64144995;21331.000000;1.000000;1.000000;1.000000;1.000000;-0.185724;0.185724;-0.185724;1.000000;0.313725;0.333333;0.345098
445636.30150040;5696598.55240067;471.63114979;23901.000000;1.000000;1.000000;1.000000;1.000000;-0.169127;0.169127;-0.169127;1.000000;0.368627;0.368627;0.360784
445636.30460175;5696598.68300064;471.62585022;52942.000000;1.000000;1.000000;1.000000;1.000000;-0.166381;0.166381;-0.166381;1.000000;0.819608;0.807843;0.784314
445636.29670151;5696598.64419754;471.61574986;39064.000000;1.000000;1.000000;1.000000;1.000000;-0.173925;0.173925;-0.173925;1.000000;0.603922;0.6;0.572549
445636.27540024;5696598.30919846;471.65504982;15677.000000;1.000000;1.000000;1.000000;1.000000;-0.196332;0.196332;-0.196332;1.000000;0.243137;0.239216;0.239216
445636.29450043;5696598.70030029;471.62554981;28784.000000;1.000000;1.000000;1.000000;1.000000;-0.178367;0.178367;-0.178367;1.000000;0.45098;0.443137;0.419608
445636.30060013;5696598.58999832;471.62454988;29812.000000;1.000000;1.000000;1.000000;1.000000;-0.170027;0.170027;-0.170027;1.000000;0.462745;0.454902;0.439216
445636.25200089;5696598.84900101;471.63245012;47288.000000;1.000000;1.000000;1.000000;1.000000;-0.188337;0.188337;-0.188337;1.000000;0.729412;0.72549;0.701961
445636.32480057;5696598.85159882;471.63104965;48830.000000;1.000000;1.000000;1.000000;1.000000;-0.116594;0.116594;-0.116594;1.000000;0.745098;0.74902;0.72549
445636.28059967;5696598.58000000;471.63285019;33667.000000;1.000000;1.000000;1.000000;1.000000;-0.190027;0.190027;-0.190027;1.000000;0.517647;0.517647;0.501961
445636.30249985;5696598.51489838;471.63534977;24158.000000;1.000000;1.000000;1.000000;1.000000;-0.168127;0.168127;-0.168127;1.000000;0.364706;0.372549;0.384314
445636.30730255;5696598.84149750;471.63485004;42662.000000;1.000000;1.000000;1.000000;1.000000;-0.132574;0.132574;-0.132574;1.000000;0.654902;0.654902;0.631373
445636.28390320;5696598.54229935;471.63724997;49344.000000;1.000000;1.000000;1.000000;1.000000;-0.186724;0.186724;-0.186724;1.000000;0.756863;0.756863;0.752941
445636.26870163;5696598.87779816;471.63355019;23130.000000;1.000000;1.000000;1.000000;1.000000;-0.177242;0.177242;-0.177242;1.000000;0.360784;0.356863;0.333333
445636.30610092;5696598.87890060;471.63525011;29041.000000;1.000000;1.000000;1.000000;1.000000;-0.141964;0.141964;-0.141964;1.000000;0.447059;0.447059;0.427451
445636.26990326;5696598.84029968;471.63315012;50629.000000;1.000000;1.000000;1.000000;1.000000;-0.169786;0.169786;-0.169786;1.000000;0.776471;0.776471;0.752941
445636.25060089;5696598.88410004;471.63275005;40863.000000;1.000000;1.000000;1.000000;1.000000;-0.196375;0.196375;-0.196375;1.000000;0.631373;0.627451;0.603922
445636.28600128;5696598.88780029;471.63444998;23644.000000;1.000000;1.000000;1.000000;1.000000;-0.163905;0.163905;-0.163905;1.000000;0.368627;0.364706;0.341176
445636.32349976;5696598.88899811;471.63385012;30583.000000;1.000000;1.000000;1.000000;1.000000;-0.130032;0.130032;-0.130032;1.000000;0.466667;0.470588;0.45098
445636.28950317;5696598.85009964;471.63415005;41634.000000;1.000000;1.000000;1.000000;1.000000;-0.151216;0.151216;-0.151216;1.000000;0.639216;0.639216;0.615686
445636.27300079;5696598.36519821;471.66954996;61166.000000;1.000000;1.000000;1.000000;1.000000;-0.197626;0.197626;-0.197626;1.000000;0.929412;0.937255;0.929412
445636.29280289;5696598.51339920;471.63954975;26728.000000;1.000000;1.000000;1.000000;1.000000;-0.177824;0.177824;-0.177824;1.000000;0.4;0.411765;0.419608
445636.29630096;5696598.47789963;471.64395000;28527.000000;1.000000;1.000000;1.000000;1.000000;-0.174326;0.174326;-0.174326;1.000000;0.427451;0.443137;0.447059
445636.25980194;5696598.85759933;471.63285019;32382.000000;1.000000;1.000000;1.000000;1.000000;-0.181683;0.181683;-0.181683;1.000000;0.501961;0.498039;0.478431
445636.33520325;5696598.86229904;471.62935020;55255.000000;1.000000;1.000000;1.000000;1.000000;-0.109066;0.109066;-0.109066;1.000000;0.843137;0.847059;0.823529
445636.27070053;5696598.59729965;471.63025000;30583.000000;1.000000;1.000000;1.000000;1.000000;-0.199926;0.199926;-0.199926;1.000000;0.47451;0.470588;0.454902
445636.27400024;5696598.55959900;471.63464977;57825.000000;1.000000;1.000000;1.000000;1.000000;-0.196627;0.196627;-0.196627;1.000000;0.882353;0.886275;0.870588
445636.30540283;5696598.63640030;471.61604979;27499.000000;1.000000;1.000000;1.000000;1.000000;-0.165224;0.165224;-0.165224;1.000000;0.431373;0.423529;0.4
445636.27420242;5696598.51510056;471.64104988;30326.000000;1.000000;1.000000;1.000000;1.000000;-0.196424;0.196424;-0.196424;1.000000;0.454902;0.466667;0.47451
445636.25270279;5696598.85589798;471.63254978;30583.000000;1.000000;1.000000;1.000000;1.000000;-0.188462;0.188462;-0.188462;1.000000;0.47451;0.470588;0.447059
445636.28080185;5696598.37380035;471.66995003;52685.000000;1.000000;1.000000;1.000000;1.000000;-0.189825;0.189825;-0.189825;1.000000;0.8;0.807843;0.807843
445636.25920303;5696598.87629898;471.63304998;27499.000000;1.000000;1.000000;1.000000;1.000000;-0.186027;0.186027;-0.186027;1.000000;0.427451;0.423529;0.4
445636.29810150;5696598.84229858;471.63444998;35209.000000;1.000000;1.000000;1.000000;1.000000;-0.141810;0.141810;-0.141810;1.000000;0.541176;0.541176;0.517647
445636.27340134;5696598.57829865;471.63485004;44204.000000;1.000000;1.000000;1.000000;1.000000;-0.197226;0.197226;-0.197226;1.000000;0.678431;0.678431;0.662745
445636.29660233;5696598.87750061;471.63714983;23130.000000;1.000000;1.000000;1.000000;1.000000;-0.150469;0.150469;-0.150469;1.000000;0.356863;0.356863;0.333333
445636.26040085;5696598.83880051;471.63264992;52942.000000;1.000000;1.000000;1.000000;1.000000;-0.179192;0.179192;-0.179192;1.000000;0.815686;0.811765;0.788235
445636.27470215;5696598.54310043;471.63674976;49087.000000;1.000000;1.000000;1.000000;1.000000;-0.195925;0.195925;-0.195925;1.000000;0.752941;0.74902;0.745098
445636.33430298;5696598.87869843;471.63184978;37522.000000;1.000000;1.000000;1.000000;1.000000;-0.115810;0.115810;-0.115810;1.000000;0.576471;0.576471;0.560784
445636.28160294;5696598.35740097;471.66984989;59110.000000;1.000000;1.000000;1.000000;1.000000;-0.189024;0.189024;-0.189024;1.000000;0.898039;0.909804;0.898039
445636.30610092;5696598.67349823;471.62575008;58596.000000;1.000000;1.000000;1.000000;1.000000;-0.164532;0.164532;-0.164532;1.000000;0.905882;0.894118;0.866667
445636.28880127;5696598.63550003;471.61754992;32639.000000;1.000000;1.000000;1.000000;1.000000;-0.181826;0.181826;-0.181826;1.000000;0.509804;0.501961;0.478431
445636.25860031;5696598.89499863;471.63324978;37008.000000;1.000000;1.000000;1.000000;1.000000;-0.192107;0.192107;-0.192107;1.000000;0.572549;0.568627;0.54902
445636.29720123;5696598.85869797;471.63695004;34952.000000;1.000000;1.000000;1.000000;1.000000;-0.145043;0.145043;-0.145043;1.000000;0.541176;0.537255;0.517647
445636.30010040;5696598.56189926;471.63114979;28013.000000;1.000000;1.000000;1.000000;1.000000;-0.170527;0.170527;-0.170527;1.000000;0.427451;0.431373;0.419608
445636.30340012;5696598.52409943;471.63555004;26728.000000;1.000000;1.000000;1.000000;1.000000;-0.167227;0.167227;-0.167227;1.000000;0.407843;0.411765;0.419608
445636.27150162;5696598.37470062;471.66954996;55512.000000;1.000000;1.000000;1.000000;1.000000;-0.199125;0.199125;-0.199125;1.000000;0.843137;0.854902;0.85098
445636.31570251;5696598.64710052;471.61654999;47031.000000;1.000000;1.000000;1.000000;1.000000;-0.154924;0.154924;-0.154924;1.000000;0.72549;0.721569;0.694118
445636.27010162;5696598.86829956;471.63345005;21331.000000;1.000000;1.000000;1.000000;1.000000;-0.173554;0.173554;-0.173554;1.000000;0.333333;0.329412;0.305882
445636.32870300;5696598.78599747;471.61654999;38036.000000;1.000000;1.000000;1.000000;1.000000;0.119101;-0.119101;0.119101;1.000000;0.592157;0.580392;0.560784
445636.27560242;5696598.50559814;471.64335014;21074.000000;1.000000;1.000000;1.000000;1.000000;-0.195024;0.195024;-0.195024;1.000000;0.309804;0.329412;0.333333
445636.30680283;5696598.62689789;471.61595013;17733.000000;1.000000;1.000000;1.000000;1.000000;-0.163824;0.163824;-0.163824;1.000000;0.278431;0.270588;0.25098
445636.30880173;5696598.83199890;471.63474991;42919.000000;1.000000;1.000000;1.000000;1.000000;-0.130590;0.130590;-0.130590;1.000000;0.658824;0.658824;0.631373
445636.28210266;5696598.57049759;471.63275005;41634.000000;1.000000;1.000000;1.000000;1.000000;-0.188524;0.188524;-0.188524;1.000000;0.639216;0.639216;0.623529
445636.32690247;5696598.82340057;471.63084986;27499.000000;1.000000;1.000000;1.000000;1.000000;0.112668;-0.112668;0.112668;1.000000;0.431373;0.423529;0.396078
445636.30760010;5696598.86949738;471.63514997;35209.000000;1.000000;1.000000;1.000000;1.000000;-0.137569;0.137569;-0.137569;1.000000;0.541176;0.541176;0.521569
445636.27130325;5696598.83079727;471.63304998;39321.000000;1.000000;1.000000;1.000000;1.000000;-0.168076;0.168076;-0.168076;1.000000;0.607843;0.603922;0.576471
445636.27779968;5696598.45849808;471.65224983;54484.000000;1.000000;1.000000;1.000000;1.000000;-0.192827;0.192827;-0.192827;1.000000;0.819608;0.839216;0.85098
445636.27890213;5696598.42099960;471.65415003;9766.000000;1.000000;1.000000;1.000000;1.000000;-0.191725;0.191725;-0.191725;1.000000;0.141176;0.152941;0.184314
445636.32850082;5696598.81389816;471.62614967;37522.000000;1.000000;1.000000;1.000000;1.000000;0.112039;-0.112039;0.112039;1.000000;0.584314;0.576471;0.545098
445636.24260147;5696598.84749802;471.63194992;45232.000000;1.000000;1.000000;1.000000;1.000000;-0.197552;0.197552;-0.197552;1.000000;0.694118;0.694118;0.670588
445636.29190262;5696598.55089767;471.63304998;30583.000000;1.000000;1.000000;1.000000;1.000000;-0.178724;0.178724;-0.178724;1.000000;0.466667;0.470588;0.458824
445636.27880295;5696598.88619812;471.63404991;30583.000000;1.000000;1.000000;1.000000;1.000000;-0.170124;0.170124;-0.170124;1.000000;0.47451;0.470588;0.447059
445636.31620224;5696598.88730057;471.63574984;26728.000000;1.000000;1.000000;1.000000;1.000000;-0.135850;0.135850;-0.135850;1.000000;0.407843;0.411765;0.392157
445636.28000076;5696598.84869965;471.63364985;50372.000000;1.000000;1.000000;1.000000;1.000000;-0.160469;0.160469;-0.160469;1.000000;0.772549;0.772549;0.74902
445636.31750305;5696598.84989746;471.63304998;47031.000000;1.000000;1.000000;1.000000;1.000000;-0.123487;0.123487;-0.123487;1.000000;0.721569;0.721569;0.701961
445636.28800018;5696598.85959824;471.63415005;34181.000000;1.000000;1.000000;1.000000;1.000000;-0.154243;0.154243;-0.154243;1.000000;0.529412;0.52549;0.505882
445636.27940186;5696598.38329895;471.66774990;38807.000000;1.000000;1.000000;1.000000;1.000000;-0.191225;0.191225;-0.191225;1.000000;0.580392;0.6;0.607843
445636.29129990;5696598.59079941;471.62645008;28527.000000;1.000000;1.000000;1.000000;1.000000;-0.179327;0.179327;-0.179327;1.000000;0.443137;0.435294;0.419608
445636.29500015;5696598.48739822;471.64174988;19018.000000;1.000000;1.000000;1.000000;1.000000;-0.175627;0.175627;-0.175627;1.000000;0.27451;0.298039;0.301961
445636.27490051;5696598.52199753;471.64125015;42148.000000;1.000000;1.000000;1.000000;1.000000;-0.195726;0.195726;-0.195726;1.000000;0.635294;0.647059;0.65098
445636.27600296;5696598.48679932;471.64554979;35723.000000;1.000000;1.000000;1.000000;1.000000;-0.194624;0.194624;-0.194624;1.000000;0.533333;0.552941;0.556863
445636.26070221;5696598.86680038;471.63304998;22359.000000;1.000000;1.000000;1.000000;1.000000;-0.182425;0.182425;-0.182425;1.000000;0.34902;0.345098;0.32549
445636.27250107;5696598.56899841;471.63464977;55255.000000;1.000000;1.000000;1.000000;1.000000;-0.198126;0.198126;-0.198126;1.000000;0.843137;0.847059;0.831373
445636.32560165;5696598.86079987;471.63355019;51914.000000;1.000000;1.000000;1.000000;1.000000;-0.117870;0.117870;-0.117870;1.000000;0.792157;0.796078;0.772549
445636.27449997;5696598.29989822;471.65485003;19018.000000;1.000000;1.000000;1.000000;1.000000;-0.198424;0.198424;-0.198424;1.000000;0.290196;0.290196;0.290196
445636.28160294;5696598.58930023;471.63065006;29812.000000;1.000000;1.000000;1.000000;1.000000;-0.189024;0.189024;-0.189024;1.000000;0.462745;0.458824;0.439216
445636.29930313;5696598.83049973;471.63434984;39578.000000;1.000000;1.000000;1.000000;1.000000;-0.140075;0.140075;-0.140075;1.000000;0.611765;0.607843;0.580392
445636.27930267;5696598.40220078;471.65864994;14906.000000;1.000000;1.000000;1.000000;1.000000;-0.191324;0.191324;-0.191324;1.000000;0.219608;0.227451;0.262745
445636.29570206;5696598.86820038;471.63695004;26985.000000;1.000000;1.000000;1.000000;1.000000;-0.148667;0.148667;-0.148667;1.000000;0.415686;0.415686;0.396078
445636.28310211;5696598.34799774;471.66744997;48573.000000;1.000000;1.000000;1.000000;1.000000;-0.187525;0.187525;-0.187525;1.000000;0.745098;0.745098;0.733333
445636.33350189;5696598.86939819;471.63164999;46774.000000;1.000000;1.000000;1.000000;1.000000;-0.112968;0.112968;-0.112968;1.000000;0.717647;0.717647;0.694118
445636.32260330;5696598.72120102;471.61774971;36237.000000;1.000000;1.000000;1.000000;1.000000;-0.155997;0.155997;-0.155997;1.000000;0.564706;0.556863;0.521569
445636.28350266;5696598.51420029;471.64155008;30326.000000;1.000000;1.000000;1.000000;1.000000;-0.187124;0.187124;-0.187124;1.000000;0.45098;0.466667;0.47451
445636.27070053;5696598.84950073;471.63324978;51914.000000;1.000000;1.000000;1.000000;1.000000;-0.169800;0.169800;-0.169800;1.000000;0.796078;0.796078;0.772549
445636.30820282;5696598.61739929;471.61824991;13878.000000;1.000000;1.000000;1.000000;1.000000;-0.162424;0.162424;-0.162424;1.000000;0.219608;0.211765;0.192157
445636.28260239;5696598.55179794;471.63495018;46774.000000;1.000000;1.000000;1.000000;1.000000;-0.188025;0.188025;-0.188025;1.000000;0.717647;0.717647;0.709804
445636.29050262;5696598.62840088;471.61754992;20817.000000;1.000000;1.000000;1.000000;1.000000;-0.180124;0.180124;-0.180124;1.000000;0.329412;0.317647;0.298039
445636.32780273;5696598.80470093;471.62365009;45489.000000;1.000000;1.000000;1.000000;1.000000;0.114406;-0.114406;0.114406;1.000000;0.705882;0.698039;0.670588
445636.29860123;5696598.61590012;471.62015011;14392.000000;1.000000;1.000000;1.000000;1.000000;-0.172026;0.172026;-0.172026;1.000000;0.227451;0.219608;0.207843
445636.30200012;5696598.58049973;471.62684967;38036.000000;1.000000;1.000000;1.000000;1.000000;-0.168627;0.168627;-0.168627;1.000000;0.588235;0.584314;0.568627
445636.27120026;5696598.39349945;471.66284992;32382.000000;1.000000;1.000000;1.000000;1.000000;-0.199427;0.199427;-0.199427;1.000000;0.490196;0.498039;0.517647
445636.27720078;5696598.69019897;471.62704994;22616.000000;1.000000;1.000000;1.000000;1.000000;-0.194267;0.194267;-0.194267;1.000000;0.352941;0.345098;0.32549
445636.26930054;5696598.88469894;471.63364985;34952.000000;1.000000;1.000000;1.000000;1.000000;-0.178656;0.178656;-0.178656;1.000000;0.541176;0.537255;0.517647
445636.30700119;5696598.88820084;471.63534977;22873.000000;1.000000;1.000000;1.000000;1.000000;-0.144605;0.144605;-0.144605;1.000000;0.34902;0.352941;0.333333
445636.30800064;5696598.84839828;471.63495018;41891.000000;1.000000;1.000000;1.000000;1.000000;-0.132658;0.132658;-0.132658;1.000000;0.643137;0.643137;0.623529
445636.30500229;5696598.71100052;471.62384989;33667.000000;1.000000;1.000000;1.000000;1.000000;-0.170135;0.170135;-0.170135;1.000000;0.52549;0.513725;0.490196
445636.30850037;5696598.59860046;471.62264969;18247.000000;1.000000;1.000000;1.000000;1.000000;-0.162127;0.162127;-0.162127;1.000000;0.290196;0.278431;0.262745
445636.27970322;5696598.43020065;471.65434982;12593.000000;1.000000;1.000000;1.000000;1.000000;-0.190924;0.190924;-0.190924;1.000000;0.184314;0.196078;0.227451
445636.30770309;5696598.58930023;471.62255003;30069.000000;1.000000;1.000000;1.000000;1.000000;-0.162924;0.162924;-0.162924;1.000000;0.466667;0.458824;0.443137
445636.29600342;5696598.69079788;471.62554981;42405.000000;1.000000;1.000000;1.000000;1.000000;-0.175620;0.175620;-0.175620;1.000000;0.658824;0.647059;0.627451
445636.29760178;5696598.65569885;471.62054970;43947.000000;1.000000;1.000000;1.000000;1.000000;-0.173025;0.173025;-0.173025;1.000000;0.678431;0.67451;0.65098
445636.27990158;5696598.61759766;471.62395002;14906.000000;1.000000;1.000000;1.000000;1.000000;-0.190725;0.190725;-0.190725;1.000000;0.239216;0.227451;0.215686
445636.29010208;5696598.39409836;471.66134979;17219.000000;1.000000;1.000000;1.000000;1.000000;-0.180525;0.180525;-0.180525;1.000000;0.254902;0.266667;0.290196
445636.29560287;5696598.44980057;471.65294983;42919.000000;1.000000;1.000000;1.000000;1.000000;-0.175024;0.175024;-0.175024;1.000000;0.643137;0.662745;0.678431
445636.28530319;5696598.70120056;471.62515022;28784.000000;1.000000;1.000000;1.000000;1.000000;-0.187593;0.187593;-0.187593;1.000000;0.45098;0.443137;0.419608
445636.31480225;5696598.69140060;471.62404968;22359.000000;1.000000;1.000000;1.000000;1.000000;-0.157017;0.157017;-0.157017;1.000000;0.356863;0.341176;0.321569
445636.27880295;5696598.65509995;471.62204983;39064.000000;1.000000;1.000000;1.000000;1.000000;-0.191824;0.191824;-0.191824;1.000000;0.596078;0.6;0.576471
445636.31630142;5696598.65629776;471.62134983;54998.000000;1.000000;1.000000;1.000000;1.000000;-0.154325;0.154325;-0.154325;1.000000;0.847059;0.843137;0.811765
445636.29840286;5696598.63699921;471.61564972;30840.000000;1.000000;1.000000;1.000000;1.000000;-0.172224;0.172224;-0.172224;1.000000;0.482353;0.47451;0.447059
445636.28320129;5696598.31780060;471.65544989;17219.000000;1.000000;1.000000;1.000000;1.000000;-0.187822;0.187822;-0.187822;1.000000;0.266667;0.266667;0.258824
445636.30400284;5696598.70170029;471.62605001;23130.000000;1.000000;1.000000;1.000000;1.000000;-0.169228;0.169228;-0.169228;1.000000;0.364706;0.352941;0.32549
445636.30529984;5696598.66430099;471.62334969;56540.000000;1.000000;1.000000;1.000000;1.000000;-0.165327;0.165327;-0.165327;1.000000;0.87451;0.866667;0.839216
445636.27130325;5696598.62539871;471.62365009;22873.000000;1.000000;1.000000;1.000000;1.000000;-0.199324;0.199324;-0.199324;1.000000;0.356863;0.352941;0.337255
445636.28300293;5696598.53299912;471.63934996;49601.000000;1.000000;1.000000;1.000000;1.000000;-0.187624;0.187624;-0.187624;1.000000;0.756863;0.760784;0.760784
445636.28630264;5696598.49519928;471.64374973;17733.000000;1.000000;1.000000;1.000000;1.000000;-0.184324;0.184324;-0.184324;1.000000;0.258824;0.278431;0.286275
445636.28410156;5696598.32929810;471.66025021;27242.000000;1.000000;1.000000;1.000000;1.000000;-0.186527;0.186527;-0.186527;1.000000;0.423529;0.415686;0.407843
445636.31830032;5696598.80319794;471.62325003;44718.000000;1.000000;1.000000;1.000000;1.000000;0.124008;-0.124008;0.124008;1.000000;0.694118;0.682353;0.662745
445636.28920181;5696598.61680038;471.62204983;14649.000000;1.000000;1.000000;1.000000;1.000000;-0.181425;0.181425;-0.181425;1.000000;0.235294;0.223529;0.211765
445636.28670319;5696598.69169815;471.62515022;33924.000000;1.000000;1.000000;1.000000;1.000000;-0.184964;0.184964;-0.184964;1.000000;0.529412;0.521569;0.498039
445636.28810318;5696598.65429886;471.62004997;42148.000000;1.000000;1.000000;1.000000;1.000000;-0.182524;0.182524;-0.182524;1.000000;0.647059;0.647059;0.623529
445636.28890045;5696598.66349991;471.62255003;39578.000000;1.000000;1.000000;1.000000;1.000000;-0.181726;0.181726;-0.181726;1.000000;0.611765;0.607843;0.588235
445636.28970154;5696598.64480026;471.61774971;40606.000000;1.000000;1.000000;1.000000;1.000000;-0.180925;0.180925;-0.180925;1.000000;0.627451;0.623529;0.596078
445636.29660233;5696598.45910080;471.65074970;46003.000000;1.000000;1.000000;1.000000;1.000000;-0.174025;0.174025;-0.174025;1.000000;0.690196;0.705882;0.717647
445636.27200134;5696598.58779724;471.63254978;35209.000000;1.000000;1.000000;1.000000;1.000000;-0.198626;0.198626;-0.198626;1.000000;0.545098;0.541176;0.521569
445636.33419998;5696598.85069855;471.62914993;48316.000000;1.000000;1.000000;1.000000;1.000000;-0.107194;0.107194;-0.107194;1.000000;0.741176;0.741176;0.721569
445636.28780182;5696598.44119843;471.65245010;37779.000000;1.000000;1.000000;1.000000;1.000000;-0.182825;0.182825;-0.182825;1.000000;0.560784;0.580392;0.603922
445636.29750259;5696598.62769897;471.61784985;18504.000000;1.000000;1.000000;1.000000;1.000000;-0.173124;0.173124;-0.173124;1.000000;0.294118;0.282353;0.262745
445636.27480133;5696598.32789810;471.65525009;24672.000000;1.000000;1.000000;1.000000;1.000000;-0.195837;0.195837;-0.195837;1.000000;0.380392;0.376471;0.368627
445636.29400070;5696598.52499969;471.63744976;35980.000000;1.000000;1.000000;1.000000;1.000000;-0.176626;0.176626;-0.176626;1.000000;0.54902;0.552941;0.560784
445636.29390152;5696598.71899994;471.62575008;47802.000000;1.000000;1.000000;1.000000;1.000000;-0.182836;0.182836;-0.182836;1.000000;0.741176;0.733333;0.705882
445636.30109985;5696598.57119949;471.62664988;40606.000000;1.000000;1.000000;1.000000;1.000000;-0.169527;0.169527;-0.169527;1.000000;0.623529;0.623529;0.607843
445636.26130112;5696598.84810074;471.63285019;49601.000000;1.000000;1.000000;1.000000;1.000000;-0.178993;0.178993;-0.178993;1.000000;0.764706;0.760784;0.741176
445636.27330215;5696598.55259903;471.63455011;52171.000000;1.000000;1.000000;1.000000;1.000000;-0.197325;0.197325;-0.197325;1.000000;0.8;0.8;0.792157
445636.29780014;5696598.60890015;471.62235023;16191.000000;1.000000;1.000000;1.000000;1.000000;-0.172827;0.172827;-0.172827;1.000000;0.258824;0.247059;0.235294
445636.30900009;5696598.57979782;471.62484982;41891.000000;1.000000;1.000000;1.000000;1.000000;-0.161627;0.161627;-0.161627;1.000000;0.647059;0.643137;0.627451
445636.28059967;5696598.39269836;471.66085007;25186.000000;1.000000;1.000000;1.000000;1.000000;-0.190027;0.190027;-0.190027;1.000000;0.376471;0.384314;0.407843
445636.27370270;5696598.34429749;471.66235020;39835.000000;1.000000;1.000000;1.000000;1.000000;-0.196924;0.196924;-0.196924;1.000000;0.607843;0.611765;0.6
445636.28709991;5696598.45770081;471.65035011;53713.000000;1.000000;1.000000;1.000000;1.000000;-0.183527;0.183527;-0.183527;1.000000;0.807843;0.827451;0.839216
445636.28830154;5696598.42239960;471.65465023;16448.000000;1.000000;1.000000;1.000000;1.000000;-0.182325;0.182325;-0.182325;1.000000;0.243137;0.254902;0.286275
445636.29510315;5696598.68160065;471.62535002;54484.000000;1.000000;1.000000;1.000000;1.000000;-0.175780;0.175780;-0.175780;1.000000;0.843137;0.831373;0.811765
445636.26010330;5696598.88559921;471.63324978;38293.000000;1.000000;1.000000;1.000000;1.000000;-0.187697;0.187697;-0.187697;1.000000;0.592157;0.588235;0.568627
445636.29640015;5696598.84950073;471.63444998;35466.000000;1.000000;1.000000;1.000000;1.000000;-0.144300;0.144300;-0.144300;1.000000;0.545098;0.545098;0.52549
445636.30620010;5696598.64559753;471.61614992;38293.000000;1.000000;1.000000;1.000000;1.000000;-0.164427;0.164427;-0.164427;1.000000;0.592157;0.588235;0.560784
445636.29750259;5696598.88669785;471.63495018;19789.000000;1.000000;1.000000;1.000000;1.000000;-0.152784;0.152784;-0.152784;1.000000;0.305882;0.305882;0.282353
445636.33279999;5696598.88820084;471.63425018;33667.000000;1.000000;1.000000;1.000000;1.000000;-0.121433;0.121433;-0.121433;1.000000;0.517647;0.517647;0.498039
445636.28220184;5696598.36440094;471.66995003;60909.000000;1.000000;1.000000;1.000000;1.000000;-0.188425;0.188425;-0.188425;1.000000;0.92549;0.933333;0.92549
445636.27740295;5696598.47730072;471.64774992;51400.000000;1.000000;1.000000;1.000000;1.000000;-0.193224;0.193224;-0.193224;1.000000;0.772549;0.792157;0.8
445636.29060181;5696598.60719879;471.62435009;17219.000000;1.000000;1.000000;1.000000;1.000000;-0.180025;0.180025;-0.180025;1.000000;0.27451;0.262745;0.25098
445636.30550201;5696598.69230087;471.62594988;36237.000000;1.000000;1.000000;1.000000;1.000000;-0.166353;0.166353;-0.166353;1.000000;0.568627;0.552941;0.533333
445636.30690201;5696598.65479858;471.62095024;48316.000000;1.000000;1.000000;1.000000;1.000000;-0.163725;0.163725;-0.163725;1.000000;0.745098;0.741176;0.713725
445636.28820236;5696598.68219955;471.62505009;40863.000000;1.000000;1.000000;1.000000;1.000000;-0.182704;0.182704;-0.182704;1.000000;0.631373;0.623529;0.603922
445636.27800186;5696598.69949921;471.62715008;24158.000000;1.000000;1.000000;1.000000;1.000000;-0.194557;0.194557;-0.194557;1.000000;0.376471;0.368627;0.34902
445636.28849991;5696598.44809921;471.65255024;50115.000000;1.000000;1.000000;1.000000;1.000000;-0.182127;0.182127;-0.182127;1.000000;0.752941;0.768627;0.788235
445636.24340256;5696598.85679825;471.63215019;31097.000000;1.000000;1.000000;1.000000;1.000000;-0.197798;0.197798;-0.197798;1.000000;0.478431;0.478431;0.458824
445636.31760223;5696598.82419785;471.63044979;31868.000000;1.000000;1.000000;1.000000;1.000000;0.121913;-0.121913;0.121913;1.000000;0.494118;0.490196;0.466667
445636.27390106;5696598.31859787;471.65504982;18247.000000;1.000000;1.000000;1.000000;1.000000;-0.197056;0.197056;-0.197056;1.000000;0.282353;0.282353;0.27451
445636.29050262;5696598.56040009;471.63304998;30583.000000;1.000000;1.000000;1.000000;1.000000;-0.180124;0.180124;-0.180124;1.000000;0.470588;0.470588;0.458824
445636.28980072;5696598.41300018;471.65455009;11565.000000;1.000000;1.000000;1.000000;1.000000;-0.180826;0.180826;-0.180826;1.000000;0.168627;0.176471;0.211765
445636.29540070;5696598.70960052;471.62575008;35466.000000;1.000000;1.000000;1.000000;1.000000;-0.179189;0.179189;-0.179189;1.000000;0.552941;0.541176;0.517647
445636.30290039;5696598.54289825;471.63345005;25700.000000;1.000000;1.000000;1.000000;1.000000;-0.167727;0.167727;-0.167727;1.000000;0.396078;0.396078;0.392157
445636.31900223;5696598.81249817;471.62575008;34952.000000;1.000000;1.000000;1.000000;1.000000;0.121640;-0.121640;0.121640;1.000000;0.545098;0.537255;0.505882
445636.27740295;5696598.89559753;471.63415005;38807.000000;1.000000;1.000000;1.000000;1.000000;-0.174753;0.174753;-0.174753;1.000000;0.6;0.592157;0.572549
445636.32629974;5696598.84210022;471.63104965;41120.000000;1.000000;1.000000;1.000000;1.000000;-0.113723;0.113723;-0.113723;1.000000;0.631373;0.631373;0.607843
445636.27850159;5696598.85819824;471.63374998;39578.000000;1.000000;1.000000;1.000000;1.000000;-0.163328;0.163328;-0.163328;1.000000;0.607843;0.607843;0.588235
445636.31600006;5696598.85930069;471.63544991;44975.000000;1.000000;1.000000;1.000000;1.000000;-0.126808;0.126808;-0.126808;1.000000;0.690196;0.690196;0.670588
445636.27639969;5696598.46800049;471.64995005;56797.000000;1.000000;1.000000;1.000000;1.000000;-0.194227;0.194227;-0.194227;1.000000;0.854902;0.870588;0.878431
445636.27700241;5696598.49609955;471.64335014;22873.000000;1.000000;1.000000;1.000000;1.000000;-0.193624;0.193624;-0.193624;1.000000;0.337255;0.356863;0.360784
445636.25000198;5696598.87719925;471.63264992;34181.000000;1.000000;1.000000;1.000000;1.000000;-0.195168;0.195168;-0.195168;1.000000;0.533333;0.52549;0.501961
445636.25350006;5696598.83949860;471.63234999;52685.000000;1.000000;1.000000;1.000000;1.000000;-0.186119;0.186119;-0.186119;1.000000;0.811765;0.807843;0.784314
445636.32940109;5696598.79529770;471.61894991;47802.000000;1.000000;1.000000;1.000000;1.000000;0.115321;-0.115321;0.115321;1.000000;0.741176;0.733333;0.701961
445636.28120239;5696598.60809906;471.62624981;19532.000000;1.000000;1.000000;1.000000;1.000000;-0.189425;0.189425;-0.189425;1.000000;0.305882;0.298039;0.286275
445636.29430206;5696598.50390060;471.63954975;25700.000000;1.000000;1.000000;1.000000;1.000000;-0.176325;0.176325;-0.176325;1.000000;0.380392;0.396078;0.403922
445636.28740128;5696598.87829788;471.63434984;17733.000000;1.000000;1.000000;1.000000;1.000000;-0.159466;0.159466;-0.159466;1.000000;0.27451;0.27451;0.25098
445636.28860291;5696598.84089859;471.63394978;36237.000000;1.000000;1.000000;1.000000;1.000000;-0.151167;0.151167;-0.151167;1.000000;0.556863;0.556863;0.533333
445636.27790268;5696598.67149933;471.62445023;25186.000000;1.000000;1.000000;1.000000;1.000000;-0.192724;0.192724;-0.192724;1.000000;0.392157;0.388235;0.364706
445636.29610260;5696598.66519745;471.62295010;48830.000000;1.000000;1.000000;1.000000;1.000000;-0.174524;0.174524;-0.174524;1.000000;0.752941;0.74902;0.721569
