//X;Y;Z;Intensity;Return Number;Number Of Returns;Scan Direction Flag;Point Source ID;C2M signed distances[-][<0.8];C2M signed distances[<0.4];C2M signed distances[-][<0.2];Stump40;Rf;Gf;Bf
300
445651.02779968;5696561.93439873;469.95564987;37522.000000;1.000000;1.000000;1.000000;1.000000;-0.093023;0.093023;-0.093023;1.000000;0.588235;0.576471;0.529412
445650.99360092;5696561.89549835;469.95825006;29812.000000;1.000000;1.000000;1.000000;1.000000;-0.065498;0.065498;-0.065498;1.000000;0.478431;0.458824;0.403922
445651.03350266;5696561.82169922;469.95914986;28527.000000;1.000000;1.000000;1.000000;1.000000;0.008301;-0.008301;0.008301;1.000000;0.458824;0.439216;0.376471
445651.03500183;5696561.78649910;469.95654990;37008.000000;1.000000;1.000000;1.000000;1.000000;0.043501;-0.043501;0.043501;1.000000;0.584314;0.568627;0.505882
445651.02670105;5696561.97189911;469.95365002;41377.000000;1.000000;1.000000;1.000000;1.000000;-0.058962;0.058962;-0.058962;1.000000;0.65098;0.631373;0.584314
445651.48110016;5696561.78789909;469.91614987;55512.000000;1.000000;1.000000;1.000000;1.000000;0.044774;-0.044774;0.044774;1.000000;0.835294;0.858824;0.843137
445650.98740204;5696562.24359901;469.99004986;34695.000000;1.000000;1.000000;1.000000;1.000000;0.034653;-0.034653;0.034653;1.000000;0.564706;0.552941;0.333333
445651.00050171;5696561.94159897;469.95444991;37522.000000;1.000000;1.000000;1.000000;1.000000;-0.079919;0.079919;-0.079919;1.000000;0.580392;0.580392;0.537255
445651.46220215;5696562.21239861;469.91804983;33410.000000;1.000000;1.000000;1.000000;1.000000;-0.198409;0.198409;-0.198409;1.000000;0.541176;0.505882;0.447059
445650.89960297;5696561.71499832;469.95884993;46774.000000;1.000000;1.000000;1.000000;1.000000;0.115002;-0.115002;0.115002;1.000000;0.737255;0.717647;0.662745
445651.46830185;5696562.10199936;469.91695001;31868.000000;1.000000;1.000000;1.000000;1.000000;-0.175231;0.175231;-0.175231;1.000000;0.494118;0.490196;0.45098
445651.17310150;5696562.01429947;469.95844986;28013.000000;1.000000;1.000000;1.000000;1.000000;-0.178053;0.178053;-0.178053;1.000000;0.443137;0.431373;0.392157
445651.21320160;5696561.94289978;469.95715000;14906.000000;1.000000;1.000000;1.000000;1.000000;-0.112900;0.112900;-0.112900;1.000000;0.243137;0.235294;0.156863
445650.99650009;5696561.80169876;469.95965006;28013.000000;1.000000;1.000000;1.000000;1.000000;0.028301;-0.028301;0.028301;1.000000;0.454902;0.431373;0.364706
445651.25150116;5696561.92529877;469.95394995;35209.000000;1.000000;1.000000;1.000000;1.000000;-0.095393;0.095393;-0.095393;1.000000;0.560784;0.545098;0.462745
445651.03790100;5696561.73969849;469.94914987;30069.000000;1.000000;1.000000;1.000000;1.000000;0.090302;-0.090302;0.090302;1.000000;0.470588;0.466667;0.415686
445651.38440140;5696561.88539894;469.92925002;24672.000000;1.000000;1.000000;1.000000;1.000000;-0.060265;0.060265;-0.060265;1.000000;0.392157;0.380392;0.32549
445651.27070053;5696561.72299965;469.93614985;44718.000000;1.000000;1.000000;1.000000;1.000000;0.107719;-0.107719;0.107719;1.000000;0.701961;0.686275;0.627451
445651.16570099;5696561.78149994;469.95074989;41634.000000;1.000000;1.000000;1.000000;1.000000;0.048501;-0.048501;0.048501;1.000000;0.654902;0.635294;0.584314
445651.40920074;5696561.97869881;469.93614985;9509.000000;1.000000;1.000000;1.000000;1.000000;-0.148699;0.148699;-0.148699;1.000000;0.164706;0.145098;0.109804
445650.99800308;5696561.79229935;469.95954992;33924.000000;1.000000;1.000000;1.000000;1.000000;0.037708;-0.037708;0.037708;1.000000;0.541176;0.521569;0.454902
445651.07340057;5696561.79699905;469.95604994;41377.000000;1.000000;1.000000;1.000000;1.000000;0.033044;-0.033044;0.033044;1.000000;0.65098;0.635294;0.564706
445651.01560028;5696562.24790009;469.99604990;42405.000000;1.000000;1.000000;1.000000;1.000000;0.007206;-0.007206;0.007206;1.000000;0.678431;0.662745;0.486275
445651.13640030;5696562.24659927;469.95724990;34952.000000;1.000000;1.000000;1.000000;1.000000;-0.083943;0.083943;-0.083943;1.000000;0.556863;0.537255;0.478431
445651.17550095;5696562.19159897;469.96064999;27499.000000;1.000000;1.000000;1.000000;1.000000;-0.146695;0.146695;-0.146695;1.000000;0.431373;0.423529;0.380392
445651.01780136;5696561.95169838;469.95304992;35209.000000;1.000000;1.000000;1.000000;1.000000;-0.073410;0.073410;-0.073410;1.000000;0.552941;0.541176;0.498039
445651.23750122;5696562.24149902;469.98735001;15420.000000;1.000000;1.000000;1.000000;1.000000;-0.141671;0.141671;-0.141671;1.000000;0.262745;0.231373;0.211765
445651.25959976;5696561.98989876;469.95974996;34952.000000;1.000000;1.000000;1.000000;1.000000;-0.160373;0.160373;-0.160373;1.000000;0.54902;0.537255;0.47451
445651.19110306;5696561.85610016;469.95744993;26728.000000;1.000000;1.000000;1.000000;1.000000;-0.026100;0.026100;-0.026100;1.000000;0.439216;0.411765;0.32549
445651.22050293;5696561.79279907;469.95094993;20303.000000;1.000000;1.000000;1.000000;1.000000;0.037201;-0.037201;0.037201;1.000000;0.333333;0.309804;0.25098
445651.00530060;5696562.26739891;470.00514986;37008.000000;1.000000;1.000000;1.000000;1.000000;0.019845;-0.019845;0.019845;1.000000;0.592157;0.592157;0.368627
445651.25850113;5696561.79640015;469.94575002;12593.000000;1.000000;1.000000;1.000000;1.000000;0.035443;-0.035443;0.035443;1.000000;0.211765;0.192157;0.141176
445651.18290146;5696561.79159935;469.95394995;17990.000000;1.000000;1.000000;1.000000;1.000000;0.038942;-0.038942;0.038942;1.000000;0.294118;0.278431;0.223529
445650.93230255;5696561.98539932;469.94954993;29555.000000;1.000000;1.000000;1.000000;1.000000;0.071908;-0.071908;0.071908;1.000000;0.466667;0.454902;0.403922
445651.24150284;5696562.17599876;469.96814992;37779.000000;1.000000;1.000000;1.000000;1.000000;-0.191979;0.191979;-0.191979;1.000000;0.588235;0.580392;0.54902
445651.14680298;5696561.75299843;469.94715001;40092.000000;1.000000;1.000000;1.000000;1.000000;0.077002;-0.077002;0.077002;1.000000;0.639216;0.615686;0.54902
445651.02770050;5696561.73119934;469.95085003;40092.000000;1.000000;1.000000;1.000000;1.000000;0.098949;-0.098949;0.098949;1.000000;0.627451;0.615686;0.568627
445650.92700012;5696561.70549973;469.95304992;49858.000000;1.000000;1.000000;1.000000;1.000000;-0.124500;0.124500;-0.124500;1.000000;0.788235;0.760784;0.705882
445651.05240067;5696561.79659851;469.95505001;45489.000000;1.000000;1.000000;1.000000;1.000000;0.033401;-0.033401;0.033401;1.000000;0.713725;0.698039;0.635294
445651.08290298;5696561.97369965;469.95624997;25443.000000;1.000000;1.000000;1.000000;1.000000;-0.100359;0.100359;-0.100359;1.000000;0.396078;0.392157;0.34902
445651.25500305;5696561.85969933;469.94634988;29041.000000;1.000000;1.000000;1.000000;1.000000;-0.030701;0.030701;-0.030701;1.000000;0.462745;0.45098;0.356863
445651.43080338;5696561.87659843;469.91954996;32382.000000;1.000000;1.000000;1.000000;1.000000;-0.046598;0.046598;-0.046598;1.000000;0.505882;0.501961;0.447059
445651.31380280;5696562.01989944;469.96024992;19018.000000;1.000000;1.000000;1.000000;1.000000;-0.189899;0.189899;-0.189899;1.000000;0.317647;0.286275;0.243137
445651.34539993;5696561.92159851;469.93724992;8995.000000;1.000000;1.000000;1.000000;1.000000;-0.091599;0.091599;-0.091599;1.000000;0.168627;0.133333;0.0862745
445651.11320313;5696561.92859848;469.96875002;44461.000000;1.000000;1.000000;1.000000;1.000000;-0.098598;0.098598;-0.098598;1.000000;0.682353;0.686275;0.639216
445651.27340134;5696561.87909897;469.94275000;25957.000000;1.000000;1.000000;1.000000;1.000000;-0.050053;0.050053;-0.050053;1.000000;0.411765;0.407843;0.321569
445651.40120132;5696561.94209869;469.93534996;21845.000000;1.000000;1.000000;1.000000;1.000000;-0.112312;0.112312;-0.112312;1.000000;0.364706;0.333333;0.27451
445651.00010117;5696561.71049889;469.94934990;23901.000000;1.000000;1.000000;1.000000;1.000000;0.119535;-0.119535;0.119535;1.000000;0.380392;0.368627;0.305882
445650.94700058;5696562.07039841;469.95595004;36494.000000;1.000000;1.000000;1.000000;1.000000;0.053260;-0.053260;0.053260;1.000000;0.580392;0.560784;0.47451
445651.15880020;5696562.16279991;469.95954992;22873.000000;1.000000;1.000000;1.000000;1.000000;-0.145443;0.145443;-0.145443;1.000000;0.368627;0.34902;0.305882
445651.13459976;5696562.07860001;469.95984985;33410.000000;1.000000;1.000000;1.000000;1.000000;-0.131873;0.131873;-0.131873;1.000000;0.52549;0.513725;0.47451
445651.06290253;5696562.03619965;469.95844986;31868.000000;1.000000;1.000000;1.000000;1.000000;-0.065989;0.065989;-0.065989;1.000000;0.505882;0.490196;0.423529
445651.17290314;5696562.06109818;469.95665004;23130.000000;1.000000;1.000000;1.000000;1.000000;-0.172052;0.172052;-0.172052;1.000000;0.364706;0.352941;0.321569
445651.02690323;5696561.99989899;469.95634987;37779.000000;1.000000;1.000000;1.000000;1.000000;-0.038788;0.038788;-0.038788;1.000000;0.596078;0.580392;0.521569
445651.19650085;5696562.16629990;469.96134998;35723.000000;1.000000;1.000000;1.000000;1.000000;-0.177892;0.177892;-0.177892;1.000000;0.564706;0.545098;0.509804
445651.15850266;5696561.72629936;469.94275000;34438.000000;1.000000;1.000000;1.000000;1.000000;0.103701;-0.103701;0.103701;1.000000;0.556863;0.52549;0.466667
445651.45620163;5696562.17549904;469.92424991;22616.000000;1.000000;1.000000;1.000000;1.000000;-0.193578;0.193578;-0.193578;1.000000;0.376471;0.345098;0.290196
445651.14060028;5696561.96819885;469.96114995;14392.000000;1.000000;1.000000;1.000000;1.000000;-0.138199;0.138199;-0.138199;1.000000;0.223529;0.227451;0.180392
445651.03560074;5696561.79349907;469.95665004;39578.000000;1.000000;1.000000;1.000000;1.000000;0.036501;-0.036501;0.036501;1.000000;0.623529;0.607843;0.545098
445650.96520050;5696561.89339836;469.96164991;43690.000000;1.000000;1.000000;1.000000;1.000000;0.063398;-0.063398;0.063398;1.000000;0.682353;0.670588;0.631373
445650.99419983;5696561.85099991;469.95774986;18504.000000;1.000000;1.000000;1.000000;1.000000;-0.021000;0.021000;-0.021000;1.000000;0.309804;0.282353;0.219608
445650.95630081;5696561.84749992;469.96064999;28784.000000;1.000000;1.000000;1.000000;1.000000;0.017500;-0.017500;0.017500;1.000000;0.47451;0.439216;0.368627
445651.05020340;5696561.87839897;469.96525003;36751.000000;1.000000;1.000000;1.000000;1.000000;-0.048399;0.048399;-0.048399;1.000000;0.572549;0.568627;0.505882
445651.29540070;5696562.02839859;469.97114994;24415.000000;1.000000;1.000000;1.000000;1.000000;-0.198399;0.198399;-0.198399;1.000000;0.4;0.368627;0.329412
445651.48240097;5696561.95349892;469.92044999;45489.000000;1.000000;1.000000;1.000000;1.000000;-0.124599;0.124599;-0.124599;1.000000;0.701961;0.698039;0.654902
445651.08650024;5696562.08549889;469.95304992;43947.000000;1.000000;1.000000;1.000000;1.000000;-0.083290;0.083290;-0.083290;1.000000;0.694118;0.670588;0.611765
445651.15070160;5696561.90179832;469.96315004;17990.000000;1.000000;1.000000;1.000000;1.000000;-0.071798;0.071798;-0.071798;1.000000;0.294118;0.282353;0.188235
445651.15229996;5696561.86669930;469.95814993;43690.000000;1.000000;1.000000;1.000000;1.000000;-0.036699;0.036699;-0.036699;1.000000;0.686275;0.670588;0.6
445650.92420013;5696561.75239952;469.95805003;36751.000000;1.000000;1.000000;1.000000;1.000000;-0.077600;0.077600;-0.077600;1.000000;0.584314;0.564706;0.498039
445650.94220169;5696562.23829849;469.99494984;37522.000000;1.000000;1.000000;1.000000;1.000000;0.078847;-0.078847;0.078847;1.000000;0.611765;0.596078;0.356863
445651.31770142;5696561.72329910;469.93354990;24158.000000;1.000000;1.000000;1.000000;1.000000;0.106701;-0.106701;0.106701;1.000000;0.388235;0.372549;0.313725
445651.18309982;5696561.81959923;469.95424988;28270.000000;1.000000;1.000000;1.000000;1.000000;0.012147;-0.012147;0.012147;1.000000;0.458824;0.431373;0.356863
445651.44820221;5696561.91459854;469.92314984;33153.000000;1.000000;1.000000;1.000000;1.000000;-0.084599;0.084599;-0.084599;1.000000;0.521569;0.513725;0.447059
445651.19680222;5696561.89519890;469.96274998;26471.000000;1.000000;1.000000;1.000000;1.000000;-0.065199;0.065199;-0.065199;1.000000;0.415686;0.415686;0.317647
445651.45730026;5696562.13799866;469.92625000;31354.000000;1.000000;1.000000;1.000000;1.000000;-0.188457;0.188457;-0.188457;1.000000;0.498039;0.478431;0.431373
445651.19280060;5696562.25749977;469.97394993;35980.000000;1.000000;1.000000;1.000000;1.000000;-0.097992;0.097992;-0.097992;1.000000;0.568627;0.54902;0.505882
445651.14980133;5696561.73399933;469.94474985;32382.000000;1.000000;1.000000;1.000000;1.000000;0.096001;-0.096001;0.096001;1.000000;0.52549;0.494118;0.427451
445651.02180298;5696561.89749916;469.95954992;30069.000000;1.000000;1.000000;1.000000;1.000000;-0.068442;0.068442;-0.068442;1.000000;0.478431;0.462745;0.396078
445651.20240219;5696561.80139931;469.95494987;25186.000000;1.000000;1.000000;1.000000;1.000000;0.028601;-0.028601;0.028601;1.000000;0.407843;0.384314;0.321569
445651.17240341;5696561.82989891;469.95394995;33667.000000;1.000000;1.000000;1.000000;1.000000;0.006944;-0.006944;0.006944;1.000000;0.541176;0.513725;0.447059
445651.11460312;5696561.89119919;469.96365001;39064.000000;1.000000;1.000000;1.000000;1.000000;-0.061199;0.061199;-0.061199;1.000000;0.607843;0.603922;0.541176
445650.98090179;5696561.75659950;469.95374991;46774.000000;1.000000;1.000000;1.000000;1.000000;0.073400;-0.073400;0.073400;1.000000;0.729412;0.721569;0.658824
445651.33950241;5696561.85449989;469.92914989;31354.000000;1.000000;1.000000;1.000000;1.000000;-0.024500;0.024500;-0.024500;1.000000;0.486275;0.486275;0.435294
445651.00399979;5696562.24669846;469.99084999;40863.000000;1.000000;1.000000;1.000000;1.000000;0.018568;-0.018568;0.018568;1.000000;0.658824;0.639216;0.45098
445651.37260254;5696561.93999870;469.94094994;20560.000000;1.000000;1.000000;1.000000;1.000000;-0.110692;0.110692;-0.110692;1.000000;0.345098;0.313725;0.258824
445651.48600204;5696561.91589935;469.91785004;43433.000000;1.000000;1.000000;1.000000;1.000000;-0.087354;0.087354;-0.087354;1.000000;0.67451;0.670588;0.619608
445651.41420181;5696561.87570007;469.92345001;28013.000000;1.000000;1.000000;1.000000;1.000000;-0.045700;0.045700;-0.045700;1.000000;0.443137;0.435294;0.376471
445651.09530075;5696562.13359840;469.96105005;30583.000000;1.000000;1.000000;1.000000;1.000000;-0.086056;0.086056;-0.086056;1.000000;0.478431;0.47451;0.423529
445651.13270004;5696562.13479813;469.96274998;38550.000000;1.000000;1.000000;1.000000;1.000000;-0.123018;0.123018;-0.123018;1.000000;0.603922;0.592157;0.556863
445651.34180267;5696562.01279839;469.94744994;21588.000000;1.000000;1.000000;1.000000;1.000000;-0.182798;0.182798;-0.182798;1.000000;0.360784;0.32549;0.27451
445651.09210022;5696561.97279938;469.95665004;31868.000000;1.000000;1.000000;1.000000;1.000000;-0.108940;0.108940;-0.108940;1.000000;0.494118;0.490196;0.454902
445651.16810043;5696562.13620003;469.95965006;34952.000000;1.000000;1.000000;1.000000;1.000000;-0.157971;0.157971;-0.157971;1.000000;0.552941;0.533333;0.494118
445651.20260056;5696561.97889908;469.95704987;29041.000000;1.000000;1.000000;1.000000;1.000000;-0.148899;0.148899;-0.148899;1.000000;0.454902;0.447059;0.392157
445651.07150085;5696562.26169975;469.97545006;41891.000000;1.000000;1.000000;1.000000;1.000000;-0.046551;0.046551;-0.046551;1.000000;0.666667;0.65098;0.513725
445651.05590256;5696561.93639954;469.95924999;33410.000000;1.000000;1.000000;1.000000;1.000000;-0.104682;0.104682;-0.104682;1.000000;0.517647;0.517647;0.47451
445651.26820190;5696562.00999840;469.96505000;28527.000000;1.000000;1.000000;1.000000;1.000000;-0.180616;0.180616;-0.180616;1.000000;0.462745;0.435294;0.384314
445651.40900238;5696561.92280014;469.92844989;29298.000000;1.000000;1.000000;1.000000;1.000000;-0.092800;0.092800;-0.092800;1.000000;0.47451;0.45098;0.380392
445651.10130127;5696561.76879890;469.95234992;28784.000000;1.000000;1.000000;1.000000;1.000000;0.061201;-0.061201;0.061201;1.000000;0.458824;0.447059;0.360784
445651.18510254;5696561.73769959;469.94875004;17219.000000;1.000000;1.000000;1.000000;1.000000;0.092399;-0.092399;0.092399;1.000000;0.286275;0.262745;0.215686
445651.03410156;5696562.24159821;469.98755004;42662.000000;1.000000;1.000000;1.000000;1.000000;-0.011934;0.011934;-0.011934;1.000000;0.686275;0.662745;0.517647
445651.27750214;5696562.24249847;469.98224999;7967.000000;1.000000;1.000000;1.000000;1.000000;-0.174198;0.174198;-0.174198;1.000000;0.137255;0.121569;0.113725
445650.91769989;5696561.93059929;469.95295002;32896.000000;1.000000;1.000000;1.000000;1.000000;0.100599;-0.100599;0.100599;1.000000;0.513725;0.505882;0.458824
445651.20549973;5696562.13739975;469.96144988;21588.000000;1.000000;1.000000;1.000000;1.000000;-0.194933;0.194933;-0.194933;1.000000;0.352941;0.32549;0.290196
445651.17100342;5696562.11730011;469.95965006;40349.000000;1.000000;1.000000;1.000000;1.000000;-0.163196;0.163196;-0.163196;1.000000;0.635294;0.615686;0.576471
445651.09560211;5696561.86259850;469.96245005;33153.000000;1.000000;1.000000;1.000000;1.000000;-0.032599;0.032599;-0.032599;1.000000;0.521569;0.509804;0.45098
445651.09880264;5696562.02119835;469.95984985;34181.000000;1.000000;1.000000;1.000000;1.000000;-0.103473;0.103473;-0.103473;1.000000;0.541176;0.52549;0.478431
445651.11540039;5696562.04769905;469.95855000;42148.000000;1.000000;1.000000;1.000000;1.000000;-0.116655;0.116655;-0.116655;1.000000;0.662745;0.647059;0.596078
445651.13319977;5696561.86379822;469.95954992;39064.000000;1.000000;1.000000;1.000000;1.000000;-0.033798;0.033798;-0.033798;1.000000;0.615686;0.603922;0.533333
445650.96880157;5696562.24749954;469.99624993;40863.000000;1.000000;1.000000;1.000000;1.000000;0.053594;-0.053594;0.053594;1.000000;0.654902;0.65098;0.423529
445651.00399979;5696562.24899872;469.99554994;36751.000000;1.000000;1.000000;1.000000;1.000000;0.018853;-0.018853;0.018853;1.000000;0.596078;0.580392;0.368627
445651.20990189;5696561.83109863;469.95564987;13364.000000;1.000000;1.000000;1.000000;1.000000;-0.001099;0.001099;-0.001099;1.000000;0.235294;0.207843;0.117647
445651.25220306;5696561.93459900;469.95645000;40349.000000;1.000000;1.000000;1.000000;1.000000;-0.104716;0.104716;-0.104716;1.000000;0.635294;0.619608;0.541176
445651.10050018;5696561.78749855;469.95715000;19789.000000;1.000000;1.000000;1.000000;1.000000;0.042501;-0.042501;0.042501;1.000000;0.32549;0.305882;0.219608
445651.44050034;5696561.90599831;469.92034986;33410.000000;1.000000;1.000000;1.000000;1.000000;-0.075998;0.075998;-0.075998;1.000000;0.52549;0.517647;0.45098
445651.47430237;5696561.76739891;469.92024996;29555.000000;1.000000;1.000000;1.000000;1.000000;0.063166;-0.063166;0.063166;1.000000;0.447059;0.462745;0.431373
445650.99020203;5696561.97999962;469.94984986;41891.000000;1.000000;1.000000;1.000000;1.000000;-0.041623;0.041623;-0.041623;1.000000;0.658824;0.643137;0.6
445651.11970337;5696562.21779831;469.95614984;16962.000000;1.000000;1.000000;1.000000;1.000000;-0.099827;0.099827;-0.099827;1.000000;0.278431;0.262745;0.2
445651.38300140;5696561.72639854;469.94354989;24415.000000;1.000000;1.000000;1.000000;1.000000;0.106072;-0.106072;0.106072;1.000000;0.388235;0.376471;0.329412
445651.08329971;5696562.17909821;469.95875003;42148.000000;1.000000;1.000000;1.000000;1.000000;-0.068504;0.068504;-0.068504;1.000000;0.666667;0.647059;0.588235
445651.14630325;5696561.79959877;469.95234992;25443.000000;1.000000;1.000000;1.000000;1.000000;0.030401;-0.030401;0.030401;1.000000;0.411765;0.392157;0.321569
445651.01490219;5696562.23419960;469.98184993;39321.000000;1.000000;1.000000;1.000000;1.000000;0.006200;-0.006200;0.006200;1.000000;0.631373;0.615686;0.443137
445651.37820251;5696561.81819923;469.92814996;37522.000000;1.000000;1.000000;1.000000;1.000000;0.021554;-0.021554;0.021554;1.000000;0.572549;0.580392;0.54902
445651.02169998;5696562.09379967;469.95494987;46774.000000;1.000000;1.000000;1.000000;1.000000;-0.017960;0.017960;-0.017960;1.000000;0.729412;0.721569;0.654902
445651.31620224;5696561.99179848;469.95304992;32639.000000;1.000000;1.000000;1.000000;1.000000;-0.161798;0.161798;-0.161798;1.000000;0.52549;0.494118;0.447059
445650.90380295;5696561.78919991;469.96694996;32639.000000;1.000000;1.000000;1.000000;1.000000;0.040800;-0.040800;0.040800;1.000000;0.521569;0.501961;0.435294
445651.16710098;5696561.74409874;469.94564988;31611.000000;1.000000;1.000000;1.000000;1.000000;0.085917;-0.085917;0.085917;1.000000;0.505882;0.486275;0.431373
445651.46540268;5696562.14889915;469.92435004;30840.000000;1.000000;1.000000;1.000000;1.000000;-0.181050;0.181050;-0.181050;1.000000;0.494118;0.470588;0.415686
445651.06450089;5696562.17849930;469.95785000;46260.000000;1.000000;1.000000;1.000000;1.000000;-0.049925;0.049925;-0.049925;1.000000;0.733333;0.705882;0.635294
445650.94400223;5696562.17309959;469.97564985;47031.000000;1.000000;1.000000;1.000000;1.000000;0.068973;-0.068973;0.068973;1.000000;0.74902;0.72549;0.6
445651.03680237;5696561.98029907;469.95424988;41634.000000;1.000000;1.000000;1.000000;1.000000;-0.058889;0.058889;-0.058889;1.000000;0.658824;0.635294;0.588235
445651.44289978;5696561.83109863;469.91954996;35980.000000;1.000000;1.000000;1.000000;1.000000;-0.001099;0.001099;-0.001099;1.000000;0.552941;0.556863;0.529412
445651.44400223;5696561.79360016;469.92155005;47288.000000;1.000000;1.000000;1.000000;1.000000;0.036400;-0.036400;0.036400;1.000000;0.705882;0.733333;0.709804
445651.51460083;5696562.12339981;469.92164995;51657.000000;1.000000;1.000000;1.000000;1.000000;-0.130357;0.130357;-0.130357;1.000000;0.796078;0.792157;0.74902
445651.40630157;5696561.79229935;469.92444994;33410.000000;1.000000;1.000000;1.000000;1.000000;0.037745;-0.037745;0.037745;1.000000;0.501961;0.517647;0.490196
445651.18090256;5696562.07199867;469.95715000;31097.000000;1.000000;1.000000;1.000000;1.000000;-0.178638;0.178638;-0.178638;1.000000;0.490196;0.47451;0.439216
445651.44730194;5696561.75579842;469.92584993;19275.000000;1.000000;1.000000;1.000000;1.000000;0.074202;-0.074202;0.074202;1.000000;0.290196;0.301961;0.266667
445651.24380310;5696561.71139915;469.93945004;32896.000000;1.000000;1.000000;1.000000;1.000000;0.118601;-0.118601;0.118601;1.000000;0.513725;0.505882;0.454902
445651.34070023;5696561.81699951;469.92875006;21588.000000;1.000000;1.000000;1.000000;1.000000;0.013000;-0.013000;0.013000;1.000000;0.337255;0.337255;0.298039
445651.05540283;5696561.77769859;469.95264985;32382.000000;1.000000;1.000000;1.000000;1.000000;0.052301;-0.052301;0.052301;1.000000;0.513725;0.498039;0.435294
445650.98940094;5696561.97069939;469.94964983;36494.000000;1.000000;1.000000;1.000000;1.000000;-0.050958;0.050958;-0.050958;1.000000;0.568627;0.560784;0.517647
445651.24630173;5696561.84179886;469.94805004;31611.000000;1.000000;1.000000;1.000000;1.000000;-0.011799;0.011799;-0.011799;1.000000;0.505882;0.490196;0.4
445651.16600235;5696561.80949982;469.95105006;24158.000000;1.000000;1.000000;1.000000;1.000000;0.020508;-0.020508;0.020508;1.000000;0.392157;0.372549;0.305882
445651.38739975;5696561.79169853;469.92824986;19532.000000;1.000000;1.000000;1.000000;1.000000;0.043549;-0.043549;0.043549;1.000000;0.298039;0.305882;0.282353
445651.14660080;5696562.03299912;469.96214988;11051.000000;1.000000;1.000000;1.000000;1.000000;-0.149438;0.149438;-0.149438;1.000000;0.184314;0.168627;0.133333
445650.95450027;5696562.15589912;469.96654989;51914.000000;1.000000;1.000000;1.000000;1.000000;0.056423;-0.056423;0.056423;1.000000;0.819608;0.8;0.705882
445650.95340164;5696562.20019920;469.97875001;43690.000000;1.000000;1.000000;1.000000;1.000000;0.063008;-0.063008;0.063008;1.000000;0.705882;0.67451;0.54902
445651.07560165;5696562.12150009;469.95764997;44204.000000;1.000000;1.000000;1.000000;1.000000;-0.068010;0.068010;-0.068010;1.000000;0.690196;0.678431;0.635294
445651.18210037;5696562.03449829;469.95674994;32382.000000;1.000000;1.000000;1.000000;1.000000;-0.184477;0.184477;-0.184477;1.000000;0.513725;0.498039;0.454902
445650.96030243;5696561.98739822;469.95554997;48830.000000;1.000000;1.000000;1.000000;1.000000;0.048166;-0.048166;0.048166;1.000000;0.752941;0.74902;0.709804
445651.46490295;5696561.72139938;469.93094995;20560.000000;1.000000;1.000000;1.000000;1.000000;0.108601;-0.108601;0.108601;1.000000;0.32549;0.321569;0.266667
445651.25380142;5696561.87150009;469.94645001;29555.000000;1.000000;1.000000;1.000000;1.000000;-0.042018;0.042018;-0.042018;1.000000;0.470588;0.458824;0.364706
445651.03560074;5696561.99209984;469.95435001;38550.000000;1.000000;1.000000;1.000000;1.000000;-0.050391;0.050391;-0.050391;1.000000;0.607843;0.588235;0.537255
445651.34890182;5696561.85599907;469.92964985;26728.000000;1.000000;1.000000;1.000000;1.000000;-0.025999;0.025999;-0.025999;1.000000;0.415686;0.411765;0.368627
445651.13700302;5696562.22789963;469.95704987;37008.000000;1.000000;1.000000;1.000000;1.000000;-0.102601;0.102601;-0.102601;1.000000;0.580392;0.568627;0.513725
445650.98900040;5696562.17379959;469.96374990;41634.000000;1.000000;1.000000;1.000000;1.000000;0.024410;-0.024410;0.024410;1.000000;0.666667;0.639216;0.537255
445651.20380219;5696561.76619919;469.95455005;33667.000000;1.000000;1.000000;1.000000;1.000000;0.063801;-0.063801;0.063801;1.000000;0.533333;0.517647;0.462745
445651.11050232;5696561.99439819;469.95774986;42919.000000;1.000000;1.000000;1.000000;1.000000;-0.119038;0.119038;-0.119038;1.000000;0.670588;0.658824;0.611765
445651.29800232;5696561.91879852;469.94435002;30326.000000;1.000000;1.000000;1.000000;1.000000;-0.088799;0.088799;-0.088799;1.000000;0.494118;0.458824;0.403922
445651.03540237;5696562.22529991;469.97574999;39578.000000;1.000000;1.000000;1.000000;1.000000;-0.015246;0.015246;-0.015246;1.000000;0.635294;0.615686;0.466667
445651.15430267;5696561.83629997;469.95315005;40606.000000;1.000000;1.000000;1.000000;1.000000;-0.006300;0.006300;-0.006300;1.000000;0.647059;0.619608;0.54902
445651.37280090;5696561.96799858;469.94365003;31097.000000;1.000000;1.000000;1.000000;1.000000;-0.138569;0.138569;-0.138569;1.000000;0.501961;0.47451;0.427451
445651.27770050;5696562.01149948;469.96554996;29298.000000;1.000000;1.000000;1.000000;1.000000;-0.181581;0.181581;-0.181581;1.000000;0.47451;0.447059;0.403922
445651.07280167;5696561.99090012;469.95595004;30326.000000;1.000000;1.000000;1.000000;1.000000;-0.083955;0.083955;-0.083955;1.000000;0.478431;0.466667;0.423529
445651.16480072;5696561.77229889;469.95054986;42405.000000;1.000000;1.000000;1.000000;1.000000;0.057701;-0.057701;0.057701;1.000000;0.666667;0.65098;0.596078
445651.18550308;5696561.99679955;469.95884993;15163.000000;1.000000;1.000000;1.000000;1.000000;-0.166844;0.166844;-0.166844;1.000000;0.247059;0.235294;0.192157
445651.32780273;5696561.93709953;469.94354989;14649.000000;1.000000;1.000000;1.000000;1.000000;-0.107100;0.107100;-0.107100;1.000000;0.254902;0.219608;0.176471
445650.96380051;5696561.94969948;469.95525004;44718.000000;1.000000;1.000000;1.000000;1.000000;0.077900;-0.077900;0.077900;1.000000;0.686275;0.686275;0.654902
445651.44530304;5696562.00829895;469.92174985;10537.000000;1.000000;1.000000;1.000000;1.000000;-0.178299;0.178299;-0.178299;1.000000;0.172549;0.160784;0.129412
445651.14890106;5696561.95809944;469.96374990;35466.000000;1.000000;1.000000;1.000000;1.000000;-0.128099;0.128099;-0.128099;1.000000;0.545098;0.54902;0.505882
445651.31240280;5696561.81719978;469.93444993;17990.000000;1.000000;1.000000;1.000000;1.000000;0.012800;-0.012800;0.012800;1.000000;0.282353;0.282353;0.239216
445651.48190125;5696561.97229965;469.91835000;30069.000000;1.000000;1.000000;1.000000;1.000000;-0.143200;0.143200;-0.143200;1.000000;0.462745;0.466667;0.427451
445651.38930328;5696562.01559837;469.93564989;31354.000000;1.000000;1.000000;1.000000;1.000000;-0.186550;0.186550;-0.186550;1.000000;0.517647;0.470588;0.415686
445651.44640167;5696561.97079857;469.92374994;11308.000000;1.000000;1.000000;1.000000;1.000000;-0.140799;0.140799;-0.140799;1.000000;0.180392;0.176471;0.152941
445651.15020187;5696561.92059906;469.96094992;25443.000000;1.000000;1.000000;1.000000;1.000000;-0.090599;0.090599;-0.090599;1.000000;0.403922;0.396078;0.317647
445651.18770035;5696561.92179878;469.96035006;17219.000000;1.000000;1.000000;1.000000;1.000000;-0.091814;0.091814;-0.091814;1.000000;0.286275;0.270588;0.188235
445651.35020264;5696561.81849869;469.92684986;28270.000000;1.000000;1.000000;1.000000;1.000000;0.011501;-0.011501;0.011501;1.000000;0.431373;0.439216;0.396078
445650.99220093;5696561.90489967;469.95834996;33410.000000;1.000000;1.000000;1.000000;1.000000;-0.074900;0.074900;-0.074900;1.000000;0.52549;0.513725;0.462745
445651.21520050;5696561.91459854;469.95914986;8738.000000;1.000000;1.000000;1.000000;1.000000;-0.084599;0.084599;-0.084599;1.000000;0.14902;0.141176;0.0509804
445651.46560104;5696561.92469986;469.92174985;31611.000000;1.000000;1.000000;1.000000;1.000000;-0.094700;0.094700;-0.094700;1.000000;0.494118;0.490196;0.423529
445651.35120209;5696561.78099831;469.93114998;11565.000000;1.000000;1.000000;1.000000;1.000000;0.049002;-0.049002;0.049002;1.000000;0.184314;0.180392;0.156863
445650.93090256;5696561.80079849;469.96124985;36751.000000;1.000000;1.000000;1.000000;1.000000;-0.029202;0.029202;-0.029202;1.000000;0.588235;0.564706;0.498039
445651.41470154;5696561.85689934;469.92555000;16191.000000;1.000000;1.000000;1.000000;1.000000;-0.026899;0.026899;-0.026899;1.000000;0.258824;0.254902;0.207843
445651.32370193;5696561.78819855;469.93464996;9252.000000;1.000000;1.000000;1.000000;1.000000;0.041801;-0.041801;0.041801;1.000000;0.152941;0.145098;0.117647
445650.93230255;5696561.76339920;469.95624997;41377.000000;1.000000;1.000000;1.000000;1.000000;-0.066601;0.066601;-0.066601;1.000000;0.65098;0.639216;0.568627
445650.97080048;5696562.15439995;469.96494987;37779.000000;1.000000;1.000000;1.000000;1.000000;0.040063;-0.040063;0.040063;1.000000;0.603922;0.584314;0.490196
445650.98080261;5696561.93169983;469.95575001;31611.000000;1.000000;1.000000;1.000000;1.000000;0.090613;-0.090613;0.090613;1.000000;0.490196;0.490196;0.447059
445651.13760193;5696561.98489960;469.95884993;23130.000000;1.000000;1.000000;1.000000;1.000000;-0.147612;0.147612;-0.147612;1.000000;0.364706;0.360784;0.309804
445651.02380188;5696562.01649864;469.95404984;35723.000000;1.000000;1.000000;1.000000;1.000000;-0.029656;0.029656;-0.029656;1.000000;0.560784;0.54902;0.482353
445651.11230286;5696561.91929825;469.96854999;37779.000000;1.000000;1.000000;1.000000;1.000000;-0.089298;0.089298;-0.089298;1.000000;0.584314;0.584314;0.529412
445651.43560226;5696561.75689896;469.92764999;20303.000000;1.000000;1.000000;1.000000;1.000000;0.073101;-0.073101;0.073101;1.000000;0.309804;0.317647;0.286275
445651.11370285;5696561.88189896;469.96354987;38550.000000;1.000000;1.000000;1.000000;1.000000;-0.051899;0.051899;-0.051899;1.000000;0.603922;0.596078;0.537255
445650.94860275;5696562.08879860;469.95855000;34695.000000;1.000000;1.000000;1.000000;1.000000;0.053952;-0.053952;0.053952;1.000000;0.556863;0.533333;0.443137
445650.91090210;5696561.83769997;469.96315004;24158.000000;1.000000;1.000000;1.000000;1.000000;-0.007700;0.007700;-0.007700;1.000000;0.396078;0.368627;0.298039
445651.20510300;5696562.18409927;469.96424987;29812.000000;1.000000;1.000000;1.000000;1.000000;-0.165550;0.165550;-0.165550;1.000000;0.466667;0.458824;0.427451
445651.22280319;5696562.17539986;469.96724989;33924.000000;1.000000;1.000000;1.000000;1.000000;-0.181943;0.181943;-0.181943;1.000000;0.529412;0.521569;0.494118
445651.47440155;5696562.16909988;469.92264988;21074.000000;1.000000;1.000000;1.000000;1.000000;-0.174510;0.174510;-0.174510;1.000000;0.345098;0.321569;0.262745
445651.05910309;5696561.89859970;469.96595003;32896.000000;1.000000;1.000000;1.000000;1.000000;-0.068600;0.068600;-0.068600;1.000000;0.509804;0.509804;0.45098
445651.32430084;5696562.00269897;469.95114996;23644.000000;1.000000;1.000000;1.000000;1.000000;-0.172699;0.172699;-0.172699;1.000000;0.392157;0.356863;0.309804
445651.45700272;5696561.71269997;469.93275001;16962.000000;1.000000;1.000000;1.000000;1.000000;0.117300;-0.117300;0.117300;1.000000;0.266667;0.266667;0.211765
445651.10290344;5696561.91789825;469.96814992;42148.000000;1.000000;1.000000;1.000000;1.000000;-0.087898;0.087898;-0.087898;1.000000;0.647059;0.654902;0.603922
445651.07680328;5696561.88989838;469.96895005;43690.000000;1.000000;1.000000;1.000000;1.000000;-0.060111;0.060111;-0.060111;1.000000;0.678431;0.67451;0.623529
445651.10450180;5696561.88279922;469.96315004;42662.000000;1.000000;1.000000;1.000000;1.000000;-0.052799;0.052799;-0.052799;1.000000;0.662745;0.654902;0.603922
445651.27440079;5696562.02809914;469.97024991;32125.000000;1.000000;1.000000;1.000000;1.000000;-0.198291;0.198291;-0.198291;1.000000;0.517647;0.490196;0.447059
445650.93020065;5696561.84519966;469.96414997;34181.000000;1.000000;1.000000;1.000000;1.000000;0.015200;-0.015200;0.015200;1.000000;0.552941;0.521569;0.45098
445651.07820328;5696561.85249908;469.96394994;41120.000000;1.000000;1.000000;1.000000;1.000000;-0.023410;0.023410;-0.023410;1.000000;0.643137;0.631373;0.568627
445650.91010101;5696561.85409935;469.96334984;28527.000000;1.000000;1.000000;1.000000;1.000000;-0.024099;0.024099;-0.024099;1.000000;0.462745;0.435294;0.372549
445651.10730179;5696561.86149986;469.96064999;35980.000000;1.000000;1.000000;1.000000;1.000000;-0.031500;0.031500;-0.031500;1.000000;0.564706;0.552941;0.494118
445651.05900009;5696562.09269913;469.95424988;43176.000000;1.000000;1.000000;1.000000;1.000000;-0.055109;0.055109;-0.055109;1.000000;0.678431;0.662745;0.6
445651.33790024;5696561.86399849;469.93155005;33153.000000;1.000000;1.000000;1.000000;1.000000;-0.033998;0.033998;-0.033998;1.000000;0.517647;0.513725;0.466667
445651.25430115;5696561.87839897;469.94884994;27242.000000;1.000000;1.000000;1.000000;1.000000;-0.048912;0.048912;-0.048912;1.000000;0.431373;0.423529;0.333333
445650.96389969;5696562.12719925;469.95735003;39321.000000;1.000000;1.000000;1.000000;1.000000;0.043536;-0.043536;0.043536;1.000000;0.623529;0.603922;0.533333
445651.03920181;5696562.13189896;469.95614984;44204.000000;1.000000;1.000000;1.000000;1.000000;-0.030601;0.030601;-0.030601;1.000000;0.694118;0.678431;0.611765
445651.10080154;5696562.24289902;469.96024992;26985.000000;1.000000;1.000000;1.000000;1.000000;-0.077957;0.077957;-0.077957;1.000000;0.439216;0.415686;0.321569
445650.94940002;5696562.23999985;469.99534990;38293.000000;1.000000;1.000000;1.000000;1.000000;0.071915;-0.071915;0.071915;1.000000;0.623529;0.611765;0.356863
445651.09980209;5696562.20789917;469.96214988;25700.000000;1.000000;1.000000;1.000000;1.000000;-0.081307;0.081307;-0.081307;1.000000;0.419608;0.396078;0.329412
445650.98910339;5696562.23419960;469.98304989;34181.000000;1.000000;1.000000;1.000000;1.000000;0.031799;-0.031799;0.031799;1.000000;0.552941;0.545098;0.337255
445651.01970108;5696562.14769943;469.95544984;46260.000000;1.000000;1.000000;1.000000;1.000000;-0.009291;0.009291;-0.009291;1.000000;0.733333;0.709804;0.611765
445651.41670044;5696561.75619896;469.93144991;25186.000000;1.000000;1.000000;1.000000;1.000000;0.073801;-0.073801;0.073801;1.000000;0.388235;0.392157;0.360784
445651.44660004;5696562.14829834;469.92584993;28013.000000;1.000000;1.000000;1.000000;1.000000;-0.199779;0.199779;-0.199779;1.000000;0.454902;0.427451;0.380392
445651.49279984;5696562.16959961;469.93054988;33410.000000;1.000000;1.000000;1.000000;1.000000;-0.156517;0.156517;-0.156517;1.000000;0.529412;0.509804;0.458824
445651.09330185;5696561.73219879;469.94914987;49601.000000;1.000000;1.000000;1.000000;1.000000;0.097829;-0.097829;0.097829;1.000000;0.772549;0.764706;0.705882
445651.08570297;5696561.91009911;469.96954991;44461.000000;1.000000;1.000000;1.000000;1.000000;-0.080711;0.080711;-0.080711;1.000000;0.682353;0.686275;0.635294
445651.49290283;5696561.72109993;469.93214991;28784.000000;1.000000;1.000000;1.000000;1.000000;0.109269;-0.109269;0.109269;1.000000;0.443137;0.447059;0.392157
445651.21199997;5696561.80289848;469.95304992;27242.000000;1.000000;1.000000;1.000000;1.000000;0.027102;-0.027102;0.027102;1.000000;0.439216;0.419608;0.34902
445651.00510223;5696562.22579964;469.97434999;33924.000000;1.000000;1.000000;1.000000;1.000000;0.014882;-0.014882;0.014882;1.000000;0.552941;0.533333;0.364706
445651.45770081;5696561.71969994;469.93054988;14649.000000;1.000000;1.000000;1.000000;1.000000;0.110300;-0.110300;0.110300;1.000000;0.231373;0.231373;0.180392
445650.96910294;5696561.78329857;469.95814993;25443.000000;1.000000;1.000000;1.000000;1.000000;-0.046701;0.046701;-0.046701;1.000000;0.407843;0.396078;0.32549
445650.93300064;5696561.77259834;469.95875003;40092.000000;1.000000;1.000000;1.000000;1.000000;-0.057402;0.057402;-0.057402;1.000000;0.631373;0.619608;0.545098
445651.11530121;5696562.09669884;469.95914986;35723.000000;1.000000;1.000000;1.000000;1.000000;-0.110479;0.110479;-0.110479;1.000000;0.560784;0.54902;0.505882
445650.98620041;5696562.01529892;469.95704987;47802.000000;1.000000;1.000000;1.000000;1.000000;0.010243;-0.010243;0.010243;1.000000;0.745098;0.733333;0.686275
445651.30070313;5696561.89759834;469.94424989;46774.000000;1.000000;1.000000;1.000000;1.000000;-0.067598;0.067598;-0.067598;1.000000;0.733333;0.717647;0.654902
445651.16920288;5696561.71589859;469.94315006;39578.000000;1.000000;1.000000;1.000000;1.000000;0.114164;-0.114164;0.114164;1.000000;0.631373;0.603922;0.54902
445650.94980057;5696561.82709892;469.96015002;39321.000000;1.000000;1.000000;1.000000;1.000000;-0.002901;0.002901;-0.002901;1.000000;0.627451;0.6;0.529412
445651.04490097;5696561.73899849;469.94945004;27242.000000;1.000000;1.000000;1.000000;1.000000;0.091002;-0.091002;0.091002;1.000000;0.427451;0.423529;0.368627
445651.19380005;5696561.78349884;469.95435001;12079.000000;1.000000;1.000000;1.000000;1.000000;0.046501;-0.046501;0.046501;1.000000;0.203922;0.184314;0.133333
445650.93120010;5696562.05079849;469.95494987;35980.000000;1.000000;1.000000;1.000000;1.000000;0.066507;-0.066507;0.066507;1.000000;0.576471;0.54902;0.47451
445651.38890274;5696561.78219994;469.92814996;12336.000000;1.000000;1.000000;1.000000;1.000000;0.051520;-0.051520;0.051520;1.000000;0.188235;0.196078;0.172549
445650.94480331;5696562.18229874;469.97814991;42919.000000;1.000000;1.000000;1.000000;1.000000;0.069320;-0.069320;0.069320;1.000000;0.701961;0.662745;0.505882
445651.31270035;5696561.84529884;469.93244984;38293.000000;1.000000;1.000000;1.000000;1.000000;-0.015299;0.015299;-0.015299;1.000000;0.588235;0.592157;0.533333
445651.01790054;5696562.24539955;469.99144985;44204.000000;1.000000;1.000000;1.000000;1.000000;0.004613;-0.004613;0.004613;1.000000;0.705882;0.690196;0.52549
445651.25730331;5696562.01809891;469.96464993;26214.000000;1.000000;1.000000;1.000000;1.000000;-0.188365;0.188365;-0.188365;1.000000;0.423529;0.4;0.345098
445651.07960327;5696561.81509979;469.95884993;27242.000000;1.000000;1.000000;1.000000;1.000000;0.016856;-0.016856;0.016856;1.000000;0.435294;0.419608;0.341176
445651.16640289;5696561.73719986;469.94554998;32382.000000;1.000000;1.000000;1.000000;1.000000;0.092805;-0.092805;0.092805;1.000000;0.517647;0.494118;0.439216
445651.35379990;5696562.01409920;469.94334986;20303.000000;1.000000;1.000000;1.000000;1.000000;-0.184099;0.184099;-0.184099;1.000000;0.34902;0.305882;0.25098
445651.44970139;5696561.87719925;469.91575005;34181.000000;1.000000;1.000000;1.000000;1.000000;-0.047199;0.047199;-0.047199;1.000000;0.533333;0.529412;0.478431
445651.08070190;5696561.82659920;469.95904996;34181.000000;1.000000;1.000000;1.000000;1.000000;0.009602;-0.009602;0.009602;1.000000;0.541176;0.52549;0.458824
445651.28350266;5696561.86189850;469.94065001;13107.000000;1.000000;1.000000;1.000000;1.000000;-0.031898;0.031898;-0.031898;1.000000;0.215686;0.207843;0.133333
445650.93160065;5696561.78209885;469.95875003;37779.000000;1.000000;1.000000;1.000000;1.000000;-0.047901;0.047901;-0.047901;1.000000;0.6;0.580392;0.505882
445651.19230087;5696561.79299934;469.95435001;12079.000000;1.000000;1.000000;1.000000;1.000000;0.037001;-0.037001;0.037001;1.000000;0.203922;0.184314;0.133333
445651.50040253;5696562.19709976;469.92184999;27499.000000;1.000000;1.000000;1.000000;1.000000;-0.157236;0.157236;-0.157236;1.000000;0.45098;0.419608;0.368627
445650.99139984;5696561.71829994;469.95144989;31097.000000;1.000000;1.000000;1.000000;1.000000;0.111700;-0.111700;0.111700;1.000000;0.490196;0.482353;0.423529
445650.98850067;5696561.98709877;469.95214989;43947.000000;1.000000;1.000000;1.000000;1.000000;0.034780;-0.034780;0.034780;1.000000;0.686275;0.67451;0.631373
445651.02520187;5696562.05609901;469.95464994;37522.000000;1.000000;1.000000;1.000000;1.000000;-0.026111;0.026111;-0.026111;1.000000;0.596078;0.576471;0.521569
445650.99210175;5696561.95169838;469.95424988;34952.000000;1.000000;1.000000;1.000000;1.000000;-0.069645;0.069645;-0.069645;1.000000;0.541176;0.537255;0.498039
445651.06360062;5696562.25309952;469.97735002;42148.000000;1.000000;1.000000;1.000000;1.000000;-0.039779;0.039779;-0.039779;1.000000;0.666667;0.654902;0.533333
445651.46330078;5696562.22399910;469.91814997;28527.000000;1.000000;1.000000;1.000000;1.000000;-0.194917;0.194917;-0.194917;1.000000;0.470588;0.435294;0.372549
445651.29680069;5696561.75089844;469.93534996;27499.000000;1.000000;1.000000;1.000000;1.000000;0.079102;-0.079102;0.079102;1.000000;0.439216;0.423529;0.368627
445651.28479965;5696561.82440002;469.93794991;25443.000000;1.000000;1.000000;1.000000;1.000000;0.005600;-0.005600;0.005600;1.000000;0.4;0.396078;0.341176
445650.95420273;5696561.92249878;469.95684983;50886.000000;1.000000;1.000000;1.000000;1.000000;0.092499;-0.092499;0.092499;1.000000;0.780392;0.784314;0.74902
445651.20330246;5696562.22139938;469.97624995;33924.000000;1.000000;1.000000;1.000000;1.000000;-0.132798;0.132798;-0.132798;1.000000;0.533333;0.517647;0.478431
445651.46680267;5696562.11149986;469.91934993;31097.000000;1.000000;1.000000;1.000000;1.000000;-0.177320;0.177320;-0.177320;1.000000;0.490196;0.478431;0.435294
445650.98260315;5696562.12769897;469.95825006;31354.000000;1.000000;1.000000;1.000000;1.000000;0.025039;-0.025039;0.025039;1.000000;0.509804;0.478431;0.403922
445651.21410187;5696561.95209892;469.95724990;15163.000000;1.000000;1.000000;1.000000;1.000000;-0.122099;0.122099;-0.122099;1.000000;0.247059;0.239216;0.164706
445651.02729996;5696561.95319946;469.95344998;32382.000000;1.000000;1.000000;1.000000;1.000000;-0.075587;0.075587;-0.075587;1.000000;0.509804;0.498039;0.458824
445651.46750076;5696562.12069901;469.92184999;32382.000000;1.000000;1.000000;1.000000;1.000000;-0.177197;0.177197;-0.177197;1.000000;0.513725;0.494118;0.454902
445650.95890244;5696562.07160004;469.95414998;41120.000000;1.000000;1.000000;1.000000;1.000000;0.041599;-0.041599;0.041599;1.000000;0.65098;0.631373;0.552941
445651.36280258;5696561.98530014;469.94104983;15163.000000;1.000000;1.000000;1.000000;1.000000;-0.155321;0.155321;-0.155321;1.000000;0.262745;0.227451;0.180392
445651.10650070;5696562.07659920;469.95624997;38036.000000;1.000000;1.000000;1.000000;1.000000;-0.104240;0.104240;-0.104240;1.000000;0.6;0.580392;0.529412
445651.07010086;5696562.03789909;469.95875003;34952.000000;1.000000;1.000000;1.000000;1.000000;-0.072921;0.072921;-0.072921;1.000000;0.552941;0.537255;0.478431
445650.99419983;5696561.87669952;469.95805003;34438.000000;1.000000;1.000000;1.000000;1.000000;-0.046700;0.046700;-0.046700;1.000000;0.545098;0.529412;0.470588
445651.24670227;5696562.02839859;469.96194984;25700.000000;1.000000;1.000000;1.000000;1.000000;-0.198399;0.198399;-0.198399;1.000000;0.423529;0.388235;0.333333
445651.21470078;5696561.72799881;469.94534995;25186.000000;1.000000;1.000000;1.000000;1.000000;0.102001;-0.102001;0.102001;1.000000;0.396078;0.388235;0.341176
445651.47200211;5696561.81439980;469.91374995;13621.000000;1.000000;1.000000;1.000000;1.000000;0.016769;-0.016769;0.016769;1.000000;0.196078;0.215686;0.211765
445651.29140289;5696561.87049873;469.93884995;13107.000000;1.000000;1.000000;1.000000;1.000000;-0.040499;0.040499;-0.040499;1.000000;0.219608;0.207843;0.133333
445651.06630142;5696562.12229927;469.95724990;42405.000000;1.000000;1.000000;1.000000;1.000000;-0.058682;0.058682;-0.058682;1.000000;0.662745;0.65098;0.588235
445650.95510300;5696561.88499840;469.96105005;42148.000000;1.000000;1.000000;1.000000;1.000000;0.054998;-0.054998;0.054998;1.000000;0.658824;0.647059;0.6
445651.03520020;5696562.22079857;469.97105004;38550.000000;1.000000;1.000000;1.000000;1.000000;-0.015604;0.015604;-0.015604;1.000000;0.627451;0.596078;0.47451
445651.24900253;5696561.79489906;469.94534995;20560.000000;1.000000;1.000000;1.000000;1.000000;0.035146;-0.035146;0.035146;1.000000;0.337255;0.317647;0.262745
445651.17360123;5696561.79239853;469.95354988;32896.000000;1.000000;1.000000;1.000000;1.000000;0.038473;-0.038473;0.038473;1.000000;0.521569;0.505882;0.447059
445651.33880051;5696561.87319954;469.93164994;38036.000000;1.000000;1.000000;1.000000;1.000000;-0.043200;0.043200;-0.043200;1.000000;0.592157;0.584314;0.537255
445651.38370331;5696561.87609871;469.92674996;20303.000000;1.000000;1.000000;1.000000;1.000000;-0.051763;0.051763;-0.051763;1.000000;0.32549;0.313725;0.262745
445651.14750107;5696561.96759995;469.96144988;20560.000000;1.000000;1.000000;1.000000;1.000000;-0.137600;0.137600;-0.137600;1.000000;0.317647;0.321569;0.278431
445651.10820206;5696561.84509857;469.95814993;37008.000000;1.000000;1.000000;1.000000;1.000000;-0.015099;0.015099;-0.015099;1.000000;0.584314;0.568627;0.505882
445651.32050140;5696561.85389908;469.93295004;39578.000000;1.000000;1.000000;1.000000;1.000000;-0.023899;0.023899;-0.023899;1.000000;0.615686;0.611765;0.556863
445650.91780289;5696561.70639999;469.95254995;49087.000000;1.000000;1.000000;1.000000;1.000000;-0.123600;0.123600;-0.123600;1.000000;0.772549;0.74902;0.690196
445651.17460068;5696561.80169876;469.95134999;27242.000000;1.000000;1.000000;1.000000;1.000000;0.029743;-0.029743;0.029743;1.000000;0.439216;0.419608;0.356863
445651.31840332;5696561.88209923;469.93554999;31868.000000;1.000000;1.000000;1.000000;1.000000;-0.052099;0.052099;-0.052099;1.000000;0.501961;0.494118;0.435294
445651.37260254;5696561.71569832;469.94295003;40606.000000;1.000000;1.000000;1.000000;1.000000;0.114968;-0.114968;0.114968;1.000000;0.631373;0.623529;0.580392
445650.97930344;5696562.01599892;469.95674994;50372.000000;1.000000;1.000000;1.000000;1.000000;0.016114;-0.016114;0.016114;1.000000;0.784314;0.772549;0.72549
445650.97459991;5696562.09109886;469.95744993;48573.000000;1.000000;1.000000;1.000000;1.000000;0.028441;-0.028441;0.028441;1.000000;0.760784;0.74902;0.670588
445650.92930038;5696561.88270004;469.95984985;12593.000000;1.000000;1.000000;1.000000;1.000000;0.052700;-0.052700;0.052700;1.000000;0.211765;0.196078;0.145098
445651.36350067;5696561.71659859;469.94024994;42662.000000;1.000000;1.000000;1.000000;1.000000;0.113449;-0.113449;0.113449;1.000000;0.662745;0.654902;0.611765
445650.99070175;5696561.70899971;469.94894983;25700.000000;1.000000;1.000000;1.000000;1.000000;0.121000;-0.121000;0.121000;1.000000;0.407843;0.4;0.341176
445651.21430023;5696561.98009880;469.95764997;28013.000000;1.000000;1.000000;1.000000;1.000000;-0.150099;0.150099;-0.150099;1.000000;0.443137;0.435294;0.372549
445651.51080139;5696562.18669899;469.92925002;23644.000000;1.000000;1.000000;1.000000;1.000000;-0.143766;0.143766;-0.143766;1.000000;0.384314;0.360784;0.301961
445651.36670120;5696561.84499939;469.92794992;31611.000000;1.000000;1.000000;1.000000;1.000000;-0.016362;0.016362;-0.016362;1.000000;0.490196;0.486275;0.443137
445650.97170074;5696562.21959885;469.97744991;39064.000000;1.000000;1.000000;1.000000;1.000000;0.047256;-0.047256;0.047256;1.000000;0.627451;0.611765;0.439216
445650.97089966;5696562.21029861;469.97494986;42919.000000;1.000000;1.000000;1.000000;1.000000;0.046898;-0.046898;0.046898;1.000000;0.690196;0.666667;0.509804
445651.04480179;5696562.22449883;469.97385003;38036.000000;1.000000;1.000000;1.000000;1.000000;-0.024672;0.024672;-0.024672;1.000000;0.607843;0.592157;0.462745
445650.93830307;5696561.85610016;469.96464993;40863.000000;1.000000;1.000000;1.000000;1.000000;0.026100;-0.026100;0.026100;1.000000;0.65098;0.623529;0.556863
