//X;Y;Z;Intensity;Return Number;Number Of Returns;Scan Direction Flag;Point Source ID;C2M signed distances[-][<0.8];C2M signed distances[<0.4];C2M signed distances[-][<0.2];Stump74;Rf;Gf;Bf
300
445622.21980103;5696558.39959915;471.72814991;43433.000000;1.000000;1.000000;1.000000;1.000000;0.069599;-0.069599;0.069599;1.000000;0.662745;0.666667;0.65098
445622.14780243;5696558.55659874;471.67784979;22102.000000;1.000000;1.000000;1.000000;1.000000;-0.166574;0.166574;-0.166574;1.000000;0.341176;0.341176;0.329412
445622.18000229;5696558.61839874;471.71505024;19018.000000;1.000000;1.000000;1.000000;1.000000;-0.134375;0.134375;-0.134375;1.000000;0.282353;0.301961;0.278431
445622.15750130;5696558.51190002;471.78725006;64507.000000;1.000000;1.000000;1.000000;1.000000;-0.156876;0.156876;-0.156876;1.000000;0.984314;0.984314;0.988235
445622.32980164;5696558.67529877;471.67355015;35980.000000;1.000000;1.000000;1.000000;1.000000;0.015585;-0.015585;0.015585;1.000000;0.560784;0.552941;0.513725
445622.21500214;5696558.59719856;471.67205002;13621.000000;1.000000;1.000000;1.000000;1.000000;-0.099375;0.099375;-0.099375;1.000000;0.215686;0.211765;0.184314
445622.19780167;5696558.65959938;471.66274979;16705.000000;1.000000;1.000000;1.000000;1.000000;-0.116575;0.116575;-0.116575;1.000000;0.266667;0.258824;0.227451
445622.19900139;5696558.62219818;471.66235020;16962.000000;1.000000;1.000000;1.000000;1.000000;-0.115376;0.115376;-0.115376;1.000000;0.266667;0.262745;0.227451
445622.25310143;5696558.70799835;471.67974998;14906.000000;1.000000;1.000000;1.000000;1.000000;-0.070466;0.070466;-0.070466;1.000000;0.243137;0.227451;0.188235
445622.31570061;5696558.55409821;471.73665001;28784.000000;1.000000;1.000000;1.000000;1.000000;0.001324;-0.001324;0.001324;1.000000;0.443137;0.447059;0.411765
445622.33300217;5696558.59969910;471.70545008;33410.000000;1.000000;1.000000;1.000000;1.000000;0.018625;-0.018625;0.018625;1.000000;0.533333;0.509804;0.47451
445622.22180183;5696558.59709938;471.78184988;23387.000000;1.000000;1.000000;1.000000;1.000000;-0.092575;0.092575;-0.092575;1.000000;0.372549;0.360784;0.321569
445622.18540199;5696558.56149872;471.73784973;11822.000000;1.000000;1.000000;1.000000;1.000000;-0.128975;0.128975;-0.128975;1.000000;0.168627;0.192157;0.172549
445622.20880135;5696558.43559845;471.73514988;45489.000000;1.000000;1.000000;1.000000;1.000000;-0.105576;0.105576;-0.105576;1.000000;0.698039;0.701961;0.67451
445622.18390091;5696558.55509956;471.70515015;17476.000000;1.000000;1.000000;1.000000;1.000000;-0.130476;0.130476;-0.130476;1.000000;0.243137;0.286275;0.258824
445622.35590179;5696558.50609978;471.72865011;26214.000000;1.000000;1.000000;1.000000;1.000000;0.041525;-0.041525;0.041525;1.000000;0.407843;0.4;0.380392
445622.15060242;5696558.51789864;471.74504997;17219.000000;1.000000;1.000000;1.000000;1.000000;-0.163774;0.163774;-0.163774;1.000000;0.266667;0.270588;0.231373
445622.25780113;5696558.59729965;471.70895006;20817.000000;1.000000;1.000000;1.000000;1.000000;-0.056576;0.056576;-0.056576;1.000000;0.321569;0.321569;0.286275
445622.21700104;5696558.62319954;471.78665020;16448.000000;1.000000;1.000000;1.000000;1.000000;-0.097376;0.097376;-0.097376;1.000000;0.25098;0.254902;0.231373
445622.11310204;5696558.47970016;471.71964981;22873.000000;1.000000;1.000000;1.000000;1.000000;-0.168012;0.168012;-0.168012;1.000000;0.356863;0.352941;0.309804
445622.17770203;5696558.63439949;471.74774982;6939.000000;1.000000;1.000000;1.000000;1.000000;-0.136675;0.136675;-0.136675;1.000000;0.105882;0.109804;0.101961
445622.14950188;5696558.55539902;471.74314978;15163.000000;1.000000;1.000000;1.000000;1.000000;-0.164875;0.164875;-0.164875;1.000000;0.247059;0.235294;0.188235
445622.24640091;5696558.43899925;471.73684980;20817.000000;1.000000;1.000000;1.000000;1.000000;-0.067976;0.067976;-0.067976;1.000000;0.321569;0.32549;0.294118
445622.23060234;5696558.55999954;471.71665003;34695.000000;1.000000;1.000000;1.000000;1.000000;-0.083775;0.083775;-0.083775;1.000000;0.517647;0.537255;0.541176
445622.41060074;5696558.91989906;471.68475010;19275.000000;1.000000;1.000000;1.000000;1.000000;-0.089899;0.089899;-0.089899;1.000000;0.305882;0.301961;0.254902
445622.37640198;5696558.88089951;471.68744995;25700.000000;1.000000;1.000000;1.000000;1.000000;-0.050900;0.050900;-0.050900;1.000000;0.4;0.396078;0.364706
445622.33880241;5696558.87969978;471.69035007;44975.000000;1.000000;1.000000;1.000000;1.000000;-0.049788;0.049788;-0.049788;1.000000;0.698039;0.690196;0.65098
445622.28410156;5696558.44029816;471.73395016;17476.000000;1.000000;1.000000;1.000000;1.000000;-0.030275;0.030275;-0.030275;1.000000;0.27451;0.270588;0.243137
445622.12090118;5696558.54500015;471.68114998;16448.000000;1.000000;1.000000;1.000000;1.000000;-0.193476;0.193476;-0.193476;1.000000;0.258824;0.254902;0.231373
445622.21890076;5696558.59490021;471.79104998;33924.000000;1.000000;1.000000;1.000000;1.000000;-0.095476;0.095476;-0.095476;1.000000;0.521569;0.521569;0.490196
445622.41380127;5696558.88209923;471.69144966;17990.000000;1.000000;1.000000;1.000000;1.000000;-0.052099;0.052099;-0.052099;1.000000;0.286275;0.278431;0.235294
445622.21900185;5696558.59429939;471.68155005;15677.000000;1.000000;1.000000;1.000000;1.000000;-0.095375;0.095375;-0.095375;1.000000;0.243137;0.243137;0.215686
445622.29830177;5696558.92539795;471.69834997;30583.000000;1.000000;1.000000;1.000000;1.000000;-0.096743;0.096743;-0.096743;1.000000;0.478431;0.470588;0.439216
445622.29300125;5696558.63649948;471.68304970;13878.000000;1.000000;1.000000;1.000000;1.000000;-0.021376;0.021376;-0.021376;1.000000;0.239216;0.207843;0.168627
445622.25800140;5696558.63509949;471.67915012;17219.000000;1.000000;1.000000;1.000000;1.000000;-0.056376;0.056376;-0.056376;1.000000;0.27451;0.266667;0.219608
445622.18520172;5696558.55829819;471.78905012;33924.000000;1.000000;1.000000;1.000000;1.000000;-0.129175;0.129175;-0.129175;1.000000;0.517647;0.521569;0.498039
445622.41520126;5696558.84689911;471.69105007;50372.000000;1.000000;1.000000;1.000000;1.000000;-0.016899;0.016899;-0.016899;1.000000;0.780392;0.772549;0.729412
445622.12280090;5696558.50689896;471.71575024;25700.000000;1.000000;1.000000;1.000000;1.000000;-0.189012;0.189012;-0.189012;1.000000;0.4;0.396078;0.364706
445622.22840126;5696558.84799965;471.68734982;57054.000000;1.000000;1.000000;1.000000;1.000000;-0.087840;0.087840;-0.087840;1.000000;0.878431;0.87451;0.835294
445622.21700104;5696558.62319954;471.78665020;16448.000000;1.000000;1.000000;1.000000;1.000000;-0.097376;0.097376;-0.097376;1.000000;0.25098;0.254902;0.231373
445622.19450195;5696558.59079941;471.75264980;16191.000000;1.000000;1.000000;1.000000;1.000000;-0.119875;0.119875;-0.119875;1.000000;0.219608;0.266667;0.219608
445622.12550171;5696558.65709885;471.65474989;14392.000000;1.000000;1.000000;1.000000;1.000000;-0.188875;0.188875;-0.188875;1.000000;0.219608;0.223529;0.203922
445622.31830223;5696558.47919853;471.72895004;17733.000000;1.000000;1.000000;1.000000;1.000000;0.003925;-0.003925;0.003925;1.000000;0.286275;0.270588;0.243137
445622.09670074;5696558.43209847;471.72534992;45746.000000;1.000000;1.000000;1.000000;1.000000;-0.137888;0.137888;-0.137888;1.000000;0.698039;0.705882;0.686275
445622.13390167;5696558.43319901;471.73164989;41120.000000;1.000000;1.000000;1.000000;1.000000;-0.117165;0.117165;-0.117165;1.000000;0.631373;0.631373;0.611765
445622.17160233;5696558.43439873;471.72874977;24158.000000;1.000000;1.000000;1.000000;1.000000;-0.105901;0.105901;-0.105901;1.000000;0.380392;0.368627;0.345098
445622.09780128;5696558.39459808;471.72725012;30583.000000;1.000000;1.000000;1.000000;1.000000;-0.112067;0.112067;-0.112067;1.000000;0.47451;0.470588;0.45098
445622.17270096;5696558.39699944;471.72835018;16705.000000;1.000000;1.000000;1.000000;1.000000;-0.069044;0.069044;-0.069044;1.000000;0.262745;0.258824;0.243137
445622.13520248;5696558.39579971;471.72895004;24672.000000;1.000000;1.000000;1.000000;1.000000;-0.085232;0.085232;-0.085232;1.000000;0.388235;0.380392;0.356863
445622.17430122;5696558.36179932;471.72564985;12079.000000;1.000000;1.000000;1.000000;1.000000;-0.035192;0.035192;-0.035192;1.000000;0.188235;0.188235;0.164706
445622.26430138;5696558.88649948;471.69635012;31868.000000;1.000000;1.000000;1.000000;1.000000;-0.075497;0.075497;-0.075497;1.000000;0.498039;0.490196;0.454902
445622.30330093;5696558.85029800;471.69074966;25700.000000;1.000000;1.000000;1.000000;1.000000;-0.023123;0.023123;-0.023123;1.000000;0.411765;0.392157;0.34902
445622.26710136;5696558.81169899;471.68634989;28013.000000;1.000000;1.000000;1.000000;1.000000;0.050694;-0.050694;0.050694;1.000000;0.454902;0.427451;0.384314
445622.30450066;5696558.81279953;471.69035007;43947.000000;1.000000;1.000000;1.000000;1.000000;0.019834;-0.019834;0.019834;1.000000;0.690196;0.670588;0.623529
445622.37760170;5696558.81779869;471.68674995;21845.000000;1.000000;1.000000;1.000000;1.000000;0.012201;-0.012201;0.012201;1.000000;0.356863;0.337255;0.27451
445622.31290062;5696558.62749870;471.68855001;33667.000000;1.000000;1.000000;1.000000;1.000000;-0.001476;0.001476;-0.001476;1.000000;0.529412;0.513725;0.478431
445622.21120079;5696558.55839928;471.78095009;48059.000000;1.000000;1.000000;1.000000;1.000000;-0.103176;0.103176;-0.103176;1.000000;0.733333;0.741176;0.709804
445622.19930084;5696558.91139801;471.68674995;17733.000000;1.000000;1.000000;1.000000;1.000000;-0.140954;0.140954;-0.140954;1.000000;0.282353;0.27451;0.235294
445622.20530136;5696558.74289902;471.67105009;23130.000000;1.000000;1.000000;1.000000;1.000000;-0.129532;0.129532;-0.129532;1.000000;0.368627;0.356863;0.321569
445622.20650108;5696558.70539864;471.67065002;19018.000000;1.000000;1.000000;1.000000;1.000000;-0.112630;0.112630;-0.112630;1.000000;0.301961;0.290196;0.258824
445622.31680115;5696558.71150024;471.67334988;30326.000000;1.000000;1.000000;1.000000;1.000000;0.038502;-0.038502;0.038502;1.000000;0.482353;0.462745;0.423529
445622.35680206;5696558.71249969;471.67054989;16962.000000;1.000000;1.000000;1.000000;1.000000;0.057954;-0.057954;0.057954;1.000000;0.282353;0.258824;0.211765
445622.35790070;5696558.67729958;471.67485001;11051.000000;1.000000;1.000000;1.000000;1.000000;0.043726;-0.043726;0.043726;1.000000;0.184314;0.172549;0.137255
445622.21040161;5696558.59759911;471.67184975;16448.000000;1.000000;1.000000;1.000000;1.000000;-0.103975;0.103975;-0.103975;1.000000;0.258824;0.254902;0.227451
445622.36070068;5696558.56609924;471.74814989;29298.000000;1.000000;1.000000;1.000000;1.000000;0.046324;-0.046324;0.046324;1.000000;0.45098;0.454902;0.423529
445622.32650192;5696558.52489861;471.74615004;41891.000000;1.000000;1.000000;1.000000;1.000000;0.012125;-0.012125;0.012125;1.000000;0.643137;0.647059;0.619608
445622.19790085;5696558.87409981;471.69094994;22102.000000;1.000000;1.000000;1.000000;1.000000;-0.124545;0.124545;-0.124545;1.000000;0.341176;0.345098;0.290196
445622.28050240;5696558.67289932;471.67124989;21588.000000;1.000000;1.000000;1.000000;1.000000;-0.033875;0.033875;-0.033875;1.000000;0.352941;0.329412;0.270588
445622.06670197;5696558.47719963;471.70585014;16191.000000;1.000000;1.000000;1.000000;1.000000;-0.191616;0.191616;-0.191616;1.000000;0.25098;0.25098;0.247059
445622.25140198;5696558.52249916;471.74735023;18761.000000;1.000000;1.000000;1.000000;1.000000;-0.062975;0.062975;-0.062975;1.000000;0.298039;0.290196;0.247059
445622.36220177;5696558.52869995;471.74084999;23644.000000;1.000000;1.000000;1.000000;1.000000;0.047825;-0.047825;0.047825;1.000000;0.372549;0.364706;0.329412
445622.25280197;5696558.48509796;471.74235012;30069.000000;1.000000;1.000000;1.000000;1.000000;-0.061575;0.061575;-0.061575;1.000000;0.462745;0.462745;0.427451
445622.20800217;5696558.67029961;471.66795017;19789.000000;1.000000;1.000000;1.000000;1.000000;-0.106375;0.106375;-0.106375;1.000000;0.313725;0.305882;0.278431
445622.20910080;5696558.63279922;471.66995003;15677.000000;1.000000;1.000000;1.000000;1.000000;-0.105276;0.105276;-0.105276;1.000000;0.25098;0.243137;0.203922
445622.21160133;5696558.59630020;471.74644997;11308.000000;1.000000;1.000000;1.000000;1.000000;-0.102776;0.102776;-0.102776;1.000000;0.172549;0.180392;0.160784
445622.28900154;5696558.52369888;471.74674990;56026.000000;1.000000;1.000000;1.000000;1.000000;-0.025375;0.025375;-0.025375;1.000000;0.862745;0.858824;0.831373
445622.03250130;5696558.43829926;471.70855000;9766.000000;1.000000;1.000000;1.000000;1.000000;-0.190627;0.190627;-0.190627;1.000000;0.14902;0.152941;0.141176
445622.39080246;5696558.75139816;471.67024996;32896.000000;1.000000;1.000000;1.000000;1.000000;0.078635;-0.078635;0.078635;1.000000;0.521569;0.505882;0.45098
445622.32030113;5696558.67379959;471.67315008;34438.000000;1.000000;1.000000;1.000000;1.000000;0.005970;-0.005970;0.005970;1.000000;0.541176;0.529412;0.490196
445622.39320190;5696558.67649849;471.66944983;9509.000000;1.000000;1.000000;1.000000;1.000000;0.078903;-0.078903;0.078903;1.000000;0.156863;0.145098;0.117647
445622.35880096;5696558.60190018;471.70895006;19018.000000;1.000000;1.000000;1.000000;1.000000;0.044424;-0.044424;0.044424;1.000000;0.309804;0.290196;0.262745
445622.24540146;5696558.67149933;471.66965010;21845.000000;1.000000;1.000000;1.000000;1.000000;-0.068975;0.068975;-0.068975;1.000000;0.352941;0.337255;0.290196
445622.18010147;5696558.48250015;471.74364998;43947.000000;1.000000;1.000000;1.000000;1.000000;-0.134275;0.134275;-0.134275;1.000000;0.678431;0.67451;0.647059
445622.29660233;5696558.33669861;471.70764973;36751.000000;1.000000;1.000000;1.000000;1.000000;0.006699;-0.006699;0.006699;1.000000;0.580392;0.568627;0.498039
445622.17000206;5696558.47179993;471.73614981;50372.000000;1.000000;1.000000;1.000000;1.000000;-0.143117;0.143117;-0.143117;1.000000;0.772549;0.772549;0.74902
445622.38940247;5696558.78879936;471.67525007;29041.000000;1.000000;1.000000;1.000000;1.000000;0.041210;-0.041210;0.041210;1.000000;0.470588;0.443137;0.380392
445622.36320122;5696558.50779922;471.72664978;27756.000000;1.000000;1.000000;1.000000;1.000000;0.048824;-0.048824;0.048824;1.000000;0.435294;0.423529;0.403922
445622.38590248;5696558.88239868;471.68785002;26728.000000;1.000000;1.000000;1.000000;1.000000;-0.052399;0.052399;-0.052399;1.000000;0.415686;0.411765;0.372549
445622.34800156;5696558.87879951;471.69074966;25957.000000;1.000000;1.000000;1.000000;1.000000;-0.048800;0.048800;-0.048800;1.000000;0.407843;0.4;0.360784
445622.42090233;5696558.88379868;471.69175007;20303.000000;1.000000;1.000000;1.000000;1.000000;-0.053799;0.053799;-0.053799;1.000000;0.317647;0.313725;0.270588
445622.20170219;5696558.78059967;471.67364981;14649.000000;1.000000;1.000000;1.000000;1.000000;0.123028;-0.123028;0.123028;1.000000;0.239216;0.223529;0.188235
445622.38440140;5696558.70539864;471.66475012;24415.000000;1.000000;1.000000;1.000000;1.000000;0.077198;-0.077198;0.077198;1.000000;0.388235;0.376471;0.333333
445622.13880165;5696558.55749901;471.67285015;17476.000000;1.000000;1.000000;1.000000;1.000000;-0.175575;0.175575;-0.175575;1.000000;0.266667;0.270588;0.254902
445622.17440231;5696558.55369957;471.70464994;13878.000000;1.000000;1.000000;1.000000;1.000000;-0.139975;0.139975;-0.139975;1.000000;0.203922;0.219608;0.203922
445622.17590149;5696558.55689819;471.78394987;17219.000000;1.000000;1.000000;1.000000;1.000000;-0.138475;0.138475;-0.138475;1.000000;0.266667;0.270588;0.243137
445622.15190132;5696558.88069923;471.68895008;46774.000000;1.000000;1.000000;1.000000;1.000000;-0.170202;0.170202;-0.170202;1.000000;0.729412;0.717647;0.666667
445622.25040062;5696558.55999954;471.74545004;19532.000000;1.000000;1.000000;1.000000;1.000000;-0.063976;0.063976;-0.063976;1.000000;0.305882;0.301961;0.266667
445622.24420174;5696558.63419922;471.67154982;20560.000000;1.000000;1.000000;1.000000;1.000000;-0.070175;0.070175;-0.070175;1.000000;0.32549;0.317647;0.27451
445622.13770111;5696558.59279831;471.66624977;16448.000000;1.000000;1.000000;1.000000;1.000000;-0.176676;0.176676;-0.176676;1.000000;0.254902;0.254902;0.223529
445622.17200096;5696558.58999832;471.78414967;12336.000000;1.000000;1.000000;1.000000;1.000000;-0.142376;0.142376;-0.142376;1.000000;0.176471;0.2;0.168627
445622.20740135;5696558.63299950;471.81425001;33667.000000;1.000000;1.000000;1.000000;1.000000;-0.106976;0.106976;-0.106976;1.000000;0.529412;0.513725;0.478431
445622.13690193;5696558.54939850;471.75184967;3084.000000;1.000000;1.000000;1.000000;1.000000;-0.177475;0.177475;-0.177475;1.000000;0.0745098;0.0352941;0.0509804
445622.17770203;5696558.63439949;471.74774982;6939.000000;1.000000;1.000000;1.000000;1.000000;-0.136675;0.136675;-0.136675;1.000000;0.105882;0.109804;0.101961
445622.17770203;5696558.58839996;471.70295002;15163.000000;1.000000;1.000000;1.000000;1.000000;-0.136675;0.136675;-0.136675;1.000000;0.231373;0.239216;0.196078
445622.71480186;5696558.34509857;471.68004992;58853.000000;1.000000;1.000000;1.000000;1.000000;0.069718;-0.069718;0.069718;1.000000;0.890196;0.905882;0.898039
445622.68050201;5696558.30620010;471.68505003;52942.000000;1.000000;1.000000;1.000000;1.000000;0.090854;-0.090854;0.090854;1.000000;0.8;0.815686;0.815686
445622.95300110;5696558.44979866;471.64314987;38807.000000;1.000000;1.000000;1.000000;1.000000;-0.045363;0.045363;-0.045363;1.000000;0.619608;0.592157;0.521569
445622.48310097;5696558.74719818;471.68835022;18761.000000;1.000000;1.000000;1.000000;1.000000;0.082806;-0.082806;0.082806;1.000000;0.290196;0.294118;0.266667
445622.48580177;5696558.70929916;471.70664980;21845.000000;1.000000;1.000000;1.000000;1.000000;0.120750;-0.120750;0.120750;1.000000;0.337255;0.341176;0.313725
445622.87140091;5696558.81799896;471.72765018;20560.000000;1.000000;1.000000;1.000000;1.000000;0.012001;-0.012001;0.012001;1.000000;0.301961;0.321569;0.317647
445622.63740166;5696558.87529953;471.69444992;36751.000000;1.000000;1.000000;1.000000;1.000000;-0.045300;0.045300;-0.045300;1.000000;0.568627;0.564706;0.521569
445622.80590065;5696558.43509872;471.65955021;37522.000000;1.000000;1.000000;1.000000;1.000000;0.105312;-0.105312;0.105312;1.000000;0.580392;0.576471;0.545098
445622.96760185;5696558.76799973;471.66855003;30840.000000;1.000000;1.000000;1.000000;1.000000;-0.004688;0.004688;-0.004688;1.000000;0.517647;0.458824;0.419608
445622.66310127;5696558.71669968;471.67744972;30326.000000;1.000000;1.000000;1.000000;1.000000;0.113300;-0.113300;0.113300;1.000000;0.466667;0.466667;0.435294
445622.91760071;5696558.60689934;471.66435005;37779.000000;1.000000;1.000000;1.000000;1.000000;0.024945;-0.024945;0.024945;1.000000;0.603922;0.576471;0.521569
445622.81360062;5696558.41569908;471.65735008;25443.000000;1.000000;1.000000;1.000000;1.000000;0.085699;-0.085699;0.085699;1.000000;0.392157;0.396078;0.368627
445622.94950111;5696558.32129868;471.66235020;10537.000000;1.000000;1.000000;1.000000;1.000000;-0.013349;0.013349;-0.013349;1.000000;0.168627;0.160784;0.14902
445622.71560104;5696558.76509865;471.70365002;27756.000000;1.000000;1.000000;1.000000;1.000000;0.064901;-0.064901;0.064901;1.000000;0.423529;0.435294;0.396078
445622.97520073;5696558.81359871;471.69735004;47031.000000;1.000000;1.000000;1.000000;1.000000;-0.006572;0.006572;-0.006572;1.000000;0.741176;0.717647;0.682353
445623.01000221;5696558.81259926;471.70125010;49344.000000;1.000000;1.000000;1.000000;1.000000;-0.041229;0.041229;-0.041229;1.000000;0.764706;0.752941;0.721569
445622.90130241;5696558.77369888;471.69824984;31354.000000;1.000000;1.000000;1.000000;1.000000;0.056301;-0.056301;0.056301;1.000000;0.513725;0.47451;0.419608
445622.90530212;5696558.69909866;471.66254999;22873.000000;1.000000;1.000000;1.000000;1.000000;0.048584;-0.048584;0.048584;1.000000;0.388235;0.345098;0.278431
445622.83140190;5696558.65929993;471.66344978;34181.000000;1.000000;1.000000;1.000000;1.000000;0.116978;-0.116978;0.116978;1.000000;0.545098;0.521569;0.470588
445622.42800148;5696558.52969940;471.73444988;19018.000000;1.000000;1.000000;1.000000;1.000000;0.113625;-0.113625;0.113625;1.000000;0.305882;0.290196;0.262745
445622.51010139;5696558.34809883;471.66144993;28013.000000;1.000000;1.000000;1.000000;1.000000;0.103568;-0.103568;0.103568;1.000000;0.431373;0.431373;0.411765
445622.87980087;5696558.40249832;471.66484978;28013.000000;1.000000;1.000000;1.000000;1.000000;0.072557;-0.072557;0.072557;1.000000;0.423529;0.431373;0.423529
445622.91850098;5696558.36389931;471.65914967;19275.000000;1.000000;1.000000;1.000000;1.000000;-0.033899;0.033899;-0.033899;1.000000;0.294118;0.298039;0.27451
445622.96060188;5696558.28989990;471.66254999;19018.000000;1.000000;1.000000;1.000000;1.000000;-0.045371;0.045371;-0.045371;1.000000;0.286275;0.298039;0.270588
445622.93450172;5696558.86819847;471.72874977;25443.000000;1.000000;1.000000;1.000000;1.000000;-0.040213;0.040213;-0.040213;1.000000;0.403922;0.392157;0.352941
445622.82660110;5696558.78719910;471.72524979;24929.000000;1.000000;1.000000;1.000000;1.000000;0.042801;-0.042801;0.042801;1.000000;0.384314;0.384314;0.372549
445622.46060188;5696558.88469894;471.69595005;38550.000000;1.000000;1.000000;1.000000;1.000000;-0.054699;0.054699;-0.054699;1.000000;0.596078;0.596078;0.54902
445622.95650108;5696558.57059868;471.66104986;13621.000000;1.000000;1.000000;1.000000;1.000000;-0.018158;0.018158;-0.018158;1.000000;0.235294;0.207843;0.160784
445622.79020126;5696558.75079926;471.73014977;45489.000000;1.000000;1.000000;1.000000;1.000000;0.080567;-0.080567;0.080567;1.000000;0.698039;0.698039;0.666667
445622.84960182;5696558.45429810;471.66414978;33667.000000;1.000000;1.000000;1.000000;1.000000;0.084771;-0.084771;0.084771;1.000000;0.517647;0.521569;0.490196
445622.85100182;5696558.41689880;471.65905001;37779.000000;1.000000;1.000000;1.000000;1.000000;0.086899;-0.086899;0.086899;1.000000;0.576471;0.584314;0.568627
445622.88850220;5696558.41809853;471.65844967;31097.000000;1.000000;1.000000;1.000000;1.000000;0.079498;-0.079498;0.079498;1.000000;0.478431;0.478431;0.458824
445622.80110176;5696558.74049957;471.72594978;57568.000000;1.000000;1.000000;1.000000;1.000000;0.090480;-0.090480;0.090480;1.000000;0.882353;0.882353;0.85098
445622.42340096;5696558.65709885;471.68454983;30840.000000;1.000000;1.000000;1.000000;1.000000;0.109024;-0.109024;0.109024;1.000000;0.482353;0.470588;0.447059
445622.72340210;5696558.82279976;471.70244982;42919.000000;1.000000;1.000000;1.000000;1.000000;0.007200;-0.007200;0.007200;1.000000;0.662745;0.658824;0.627451
445622.48000153;5696558.40219887;471.66314985;29041.000000;1.000000;1.000000;1.000000;1.000000;0.101876;-0.101876;0.101876;1.000000;0.458824;0.443137;0.403922
445622.96720131;5696558.31029900;471.66074993;10537.000000;1.000000;1.000000;1.000000;1.000000;-0.034093;0.034093;-0.034093;1.000000;0.160784;0.164706;0.141176
445622.85340126;5696558.34419830;471.66295006;16962.000000;1.000000;1.000000;1.000000;1.000000;0.014198;-0.014198;0.014198;1.000000;0.258824;0.262745;0.247059
445622.83230217;5696558.84519966;471.71925022;25700.000000;1.000000;1.000000;1.000000;1.000000;-0.015200;0.015200;-0.015200;1.000000;0.4;0.396078;0.384314
445622.98240097;5696558.84989937;471.71904995;59110.000000;1.000000;1.000000;1.000000;1.000000;-0.023121;0.023121;-0.023121;1.000000;0.913725;0.905882;0.870588
445622.74290092;5696558.33809860;471.66254999;26471.000000;1.000000;1.000000;1.000000;1.000000;0.040811;-0.040811;0.040811;1.000000;0.403922;0.407843;0.384314
445622.70880135;5696558.29920013;471.66524984;17219.000000;1.000000;1.000000;1.000000;1.000000;0.061755;-0.061755;0.061755;1.000000;0.254902;0.266667;0.266667
445622.71720131;5696558.72999962;471.69864990;37522.000000;1.000000;1.000000;1.000000;1.000000;0.100000;-0.100000;0.100000;1.000000;0.584314;0.576471;0.52549
445622.93960197;5696558.74039848;471.65994980;41377.000000;1.000000;1.000000;1.000000;1.000000;0.019672;-0.019672;0.019672;1.000000;0.682353;0.623529;0.54902
445622.98150070;5696558.66399963;471.66324999;44718.000000;1.000000;1.000000;1.000000;1.000000;-0.031379;0.031379;-0.031379;1.000000;0.701961;0.686275;0.631373
445622.42810066;5696558.57119949;471.76755001;46260.000000;1.000000;1.000000;1.000000;1.000000;0.113724;-0.113724;0.113724;1.000000;0.709804;0.709804;0.678431
445622.39050110;5696558.52849968;471.73514988;19018.000000;1.000000;1.000000;1.000000;1.000000;0.076124;-0.076124;0.076124;1.000000;0.305882;0.290196;0.262745
445622.83960159;5696558.47389801;471.66624977;22102.000000;1.000000;1.000000;1.000000;1.000000;0.089138;-0.089138;0.089138;1.000000;0.345098;0.345098;0.298039
445622.87740143;5696558.47519882;471.66095020;37522.000000;1.000000;1.000000;1.000000;1.000000;0.051778;-0.051778;0.051778;1.000000;0.580392;0.580392;0.541176
445622.84820183;5696558.36109932;471.65824987;13878.000000;1.000000;1.000000;1.000000;1.000000;0.031099;-0.031099;0.031099;1.000000;0.211765;0.215686;0.203922
445622.98560150;5696558.75939949;471.66454985;30326.000000;1.000000;1.000000;1.000000;1.000000;-0.023615;0.023615;-0.023615;1.000000;0.501961;0.454902;0.415686
445622.95010193;5696558.75559814;471.66755011;36494.000000;1.000000;1.000000;1.000000;1.000000;0.011139;-0.011139;0.011139;1.000000;0.611765;0.54902;0.466667
445622.65790184;5696558.81740006;471.69004967;44975.000000;1.000000;1.000000;1.000000;1.000000;0.012600;-0.012600;0.012600;1.000000;0.690196;0.690196;0.658824
445622.39210136;5696558.58169945;471.75904991;35209.000000;1.000000;1.000000;1.000000;1.000000;0.077724;-0.077724;0.077724;1.000000;0.545098;0.541176;0.505882
445622.83600243;5696558.60299881;471.65135004;6168.000000;1.000000;1.000000;1.000000;1.000000;0.105429;-0.105429;0.105429;1.000000;0.117647;0.0901961;0.0509804
445622.98500069;5696558.57269867;471.65535023;15934.000000;1.000000;1.000000;1.000000;1.000000;-0.046177;0.046177;-0.046177;1.000000;0.270588;0.243137;0.192157
445622.39260109;5696558.47009857;471.72284986;21845.000000;1.000000;1.000000;1.000000;1.000000;0.078224;-0.078224;0.078224;1.000000;0.345098;0.333333;0.313725
445622.87380226;5696558.79220016;471.72514965;56797.000000;1.000000;1.000000;1.000000;1.000000;0.037800;-0.037800;0.037800;1.000000;0.870588;0.870588;0.847059
445622.48340233;5696558.36450012;471.66515018;12336.000000;1.000000;1.000000;1.000000;1.000000;0.082805;-0.082805;0.082805;1.000000;0.207843;0.188235;0.156863
445622.69170197;5696558.70669945;471.69724991;37265.000000;1.000000;1.000000;1.000000;1.000000;0.123301;-0.123301;0.123301;1.000000;0.588235;0.572549;0.521569
445622.60860069;5696558.86409958;471.68835022;41377.000000;1.000000;1.000000;1.000000;1.000000;-0.038689;0.038689;-0.038689;1.000000;0.639216;0.635294;0.6
445622.67920120;5696558.31789978;471.68744995;56797.000000;1.000000;1.000000;1.000000;1.000000;0.095586;-0.095586;0.095586;1.000000;0.858824;0.87451;0.870588
445622.71180161;5696558.39200027;471.68744995;48573.000000;1.000000;1.000000;1.000000;1.000000;0.094506;-0.094506;0.094506;1.000000;0.72549;0.74902;0.752941
445622.90870102;5696558.58669861;471.66375019;46260.000000;1.000000;1.000000;1.000000;1.000000;0.031270;-0.031270;0.031270;1.000000;0.737255;0.701961;0.647059
445622.76910217;5696558.39409836;471.66445019;29555.000000;1.000000;1.000000;1.000000;1.000000;0.065615;-0.065615;0.065615;1.000000;0.45098;0.454902;0.435294
445622.40580185;5696558.39919861;471.69694998;35980.000000;1.000000;1.000000;1.000000;1.000000;0.069199;-0.069199;0.069199;1.000000;0.568627;0.54902;0.501961
445622.88310249;5696558.55879982;471.65525009;30583.000000;1.000000;1.000000;1.000000;1.000000;0.053211;-0.053211;0.053211;1.000000;0.490196;0.470588;0.415686
445622.84160240;5696558.63979919;471.65434982;39835.000000;1.000000;1.000000;1.000000;1.000000;0.104437;-0.104437;0.104437;1.000000;0.635294;0.607843;0.54902
445622.83140190;5696558.72869881;471.70384981;43433.000000;1.000000;1.000000;1.000000;1.000000;0.101301;-0.101301;0.101301;1.000000;0.682353;0.666667;0.623529
445622.83720215;5696558.54659851;471.66464998;15934.000000;1.000000;1.000000;1.000000;1.000000;0.097243;-0.097243;0.097243;1.000000;0.25098;0.25098;0.184314
445622.94780167;5696558.55269821;471.66045000;44975.000000;1.000000;1.000000;1.000000;1.000000;-0.011746;0.011746;-0.011746;1.000000;0.713725;0.686275;0.631373
445622.84070213;5696558.43409927;471.66344978;44461.000000;1.000000;1.000000;1.000000;1.000000;0.101938;-0.101938;0.101938;1.000000;0.682353;0.686275;0.658824
445622.87870224;5696558.43769844;471.65824987;31611.000000;1.000000;1.000000;1.000000;1.000000;0.069724;-0.069724;0.069724;1.000000;0.482353;0.490196;0.466667
445622.84470184;5696558.39879807;471.65854980;27756.000000;1.000000;1.000000;1.000000;1.000000;0.068798;-0.068798;0.068798;1.000000;0.423529;0.427451;0.415686
445622.88890083;5696558.44610031;471.65644981;28784.000000;1.000000;1.000000;1.000000;1.000000;0.056624;-0.056624;0.056624;1.000000;0.443137;0.443137;0.407843
445622.49410065;5696558.72029884;471.70015003;13107.000000;1.000000;1.000000;1.000000;1.000000;0.109976;-0.109976;0.109976;1.000000;0.203922;0.207843;0.180392
445622.73440178;5696558.32029922;471.65964987;17476.000000;1.000000;1.000000;1.000000;1.000000;0.043614;-0.043614;0.043614;1.000000;0.270588;0.270588;0.258824
445622.87380226;5696558.51059921;471.65894987;28270.000000;1.000000;1.000000;1.000000;1.000000;0.056461;-0.056461;0.056461;1.000000;0.447059;0.435294;0.384314
445622.77900131;5696558.36769875;471.65054991;37265.000000;1.000000;1.000000;1.000000;1.000000;0.037924;-0.037924;0.037924;1.000000;0.572549;0.576471;0.541176
445622.87900169;5696558.84770020;471.72604992;18761.000000;1.000000;1.000000;1.000000;1.000000;-0.017700;0.017700;-0.017700;1.000000;0.290196;0.286275;0.282353
445622.42410095;5696558.60649879;471.77484991;22102.000000;1.000000;1.000000;1.000000;1.000000;0.109724;-0.109724;0.109724;1.000000;0.341176;0.345098;0.317647
445622.40350159;5696558.43639954;471.72295000;57054.000000;1.000000;1.000000;1.000000;1.000000;0.089125;-0.089125;0.089125;1.000000;0.878431;0.87451;0.839216
445622.70540245;5696558.37389954;471.68925001;45232.000000;1.000000;1.000000;1.000000;1.000000;0.089265;-0.089265;0.089265;1.000000;0.670588;0.698039;0.701961
445622.43480118;5696558.65819939;471.69434978;29041.000000;1.000000;1.000000;1.000000;1.000000;0.120424;-0.120424;0.120424;1.000000;0.454902;0.447059;0.423529
445622.40280159;5696558.60689934;471.72725012;20560.000000;1.000000;1.000000;1.000000;1.000000;0.088425;-0.088425;0.088425;1.000000;0.317647;0.321569;0.282353
445622.91960152;5696558.33319862;471.67514994;7967.000000;1.000000;1.000000;1.000000;1.000000;-0.003199;0.003199;-0.003199;1.000000;0.12549;0.12549;0.101961
445622.77970131;5696558.37689980;471.65304996;33153.000000;1.000000;1.000000;1.000000;1.000000;0.047025;-0.047025;0.047025;1.000000;0.509804;0.513725;0.482353
445622.85460098;5696558.38149841;471.66115000;10794.000000;1.000000;1.000000;1.000000;1.000000;0.051498;-0.051498;0.051498;1.000000;0.160784;0.168627;0.160784
445622.42080124;5696558.63599976;471.70044996;7710.000000;1.000000;1.000000;1.000000;1.000000;0.106424;-0.106424;0.106424;1.000000;0.129412;0.117647;0.101961
445622.81530197;5696558.38069923;471.65004971;27242.000000;1.000000;1.000000;1.000000;1.000000;0.050699;-0.050699;0.050699;1.000000;0.419608;0.423529;0.396078
445622.77340134;5696558.33090027;471.64524986;17733.000000;1.000000;1.000000;1.000000;1.000000;0.009551;-0.009551;0.009551;1.000000;0.278431;0.270588;0.25098
445622.69910248;5696558.32789810;471.68144991;58853.000000;1.000000;1.000000;1.000000;1.000000;0.079573;-0.079573;0.079573;1.000000;0.886275;0.905882;0.898039
445622.73170097;5696558.40189941;471.68144991;42405.000000;1.000000;1.000000;1.000000;1.000000;0.088398;-0.088398;0.088398;1.000000;0.631373;0.654902;0.65098
445622.57600220;5696558.75979813;471.67635014;7196.000000;1.000000;1.000000;1.000000;1.000000;0.070202;-0.070202;0.070202;1.000000;0.109804;0.113725;0.0941176
445622.53840073;5696558.75860031;471.67934992;9252.000000;1.000000;1.000000;1.000000;1.000000;0.071400;-0.071400;0.071400;1.000000;0.14902;0.14902;0.109804
445622.47890099;5696558.84819992;471.68004992;19532.000000;1.000000;1.000000;1.000000;1.000000;-0.018200;0.018200;-0.018200;1.000000;0.313725;0.301961;0.239216
445622.89260109;5696558.79049881;471.71894981;58082.000000;1.000000;1.000000;1.000000;1.000000;0.039501;-0.039501;0.039501;1.000000;0.898039;0.890196;0.858824
445622.78480156;5696558.71179970;471.71785023;49087.000000;1.000000;1.000000;1.000000;1.000000;0.118576;-0.118576;0.118576;1.000000;0.760784;0.752941;0.709804
445622.41770180;5696558.55139931;471.75054981;23387.000000;1.000000;1.000000;1.000000;1.000000;0.103325;-0.103325;0.103325;1.000000;0.368627;0.360784;0.329412
445622.98180206;5696558.45870026;471.64454987;50629.000000;1.000000;1.000000;1.000000;1.000000;-0.061190;0.061190;-0.061190;1.000000;0.8;0.776471;0.705882
445622.82890137;5696558.72429855;471.69904997;42662.000000;1.000000;1.000000;1.000000;1.000000;0.105701;-0.105701;0.105701;1.000000;0.670588;0.654902;0.607843
445622.95560081;5696558.60819824;471.65444996;19789.000000;1.000000;1.000000;1.000000;1.000000;-0.012601;0.012601;-0.012601;1.000000;0.333333;0.298039;0.243137
445622.51900108;5696558.36599930;471.65745022;4626.000000;1.000000;1.000000;1.000000;1.000000;0.116572;-0.116572;0.116572;1.000000;0.0784314;0.0745098;0.0627451
445622.39090164;5696558.50070007;471.72085001;33410.000000;1.000000;1.000000;1.000000;1.000000;0.076525;-0.076525;0.076525;1.000000;0.52549;0.509804;0.494118
445622.85720070;5696558.75889977;471.71234991;49087.000000;1.000000;1.000000;1.000000;1.000000;0.071100;-0.071100;0.071100;1.000000;0.756863;0.752941;0.717647
445622.93210228;5696558.29229935;471.67754986;21588.000000;1.000000;1.000000;1.000000;1.000000;-0.037701;0.037701;-0.037701;1.000000;0.32549;0.337255;0.301961
445622.96190079;5696558.49790009;471.64874985;50629.000000;1.000000;1.000000;1.000000;1.000000;-0.032533;0.032533;-0.032533;1.000000;0.796078;0.772549;0.709804
445622.94700249;5696558.38489922;471.64204981;14392.000000;1.000000;1.000000;1.000000;1.000000;0.055426;-0.055426;0.055426;1.000000;0.235294;0.223529;0.160784
445622.79800232;5696558.34039886;471.63945009;22616.000000;1.000000;1.000000;1.000000;1.000000;0.017987;-0.017987;0.017987;1.000000;0.352941;0.345098;0.32549
445622.61930092;5696558.85369881;471.68874981;40606.000000;1.000000;1.000000;1.000000;1.000000;-0.024880;0.024880;-0.024880;1.000000;0.627451;0.623529;0.592157
445622.88750084;5696558.45559891;471.65654995;36494.000000;1.000000;1.000000;1.000000;1.000000;0.051238;-0.051238;0.051238;1.000000;0.564706;0.564706;0.52549
445622.65940102;5696558.78219803;471.68975021;53970.000000;1.000000;1.000000;1.000000;1.000000;0.047802;-0.047802;0.047802;1.000000;0.815686;0.831373;0.803922
445622.89330109;5696558.72579964;471.67164995;35466.000000;1.000000;1.000000;1.000000;1.000000;0.063805;-0.063805;0.063805;1.000000;0.580392;0.537255;0.47451
445622.43460091;5696558.61730011;471.77075006;14649.000000;1.000000;1.000000;1.000000;1.000000;0.120224;-0.120224;0.120224;1.000000;0.227451;0.227451;0.207843
445622.77810104;5696558.41429909;471.66274979;31097.000000;1.000000;1.000000;1.000000;1.000000;0.084449;-0.084449;0.084449;1.000000;0.47451;0.478431;0.458824
445622.62790115;5696558.84589966;471.68905022;35723.000000;1.000000;1.000000;1.000000;1.000000;-0.015900;0.015900;-0.015900;1.000000;0.54902;0.54902;0.517647
445622.48240097;5696558.76369865;471.68615009;26471.000000;1.000000;1.000000;1.000000;1.000000;0.066301;-0.066301;0.066301;1.000000;0.407843;0.407843;0.376471
445622.66770180;5696558.77209862;471.68995001;31354.000000;1.000000;1.000000;1.000000;1.000000;0.057901;-0.057901;0.057901;1.000000;0.470588;0.486275;0.458824
445622.89710243;5696558.69039925;471.67145016;31868.000000;1.000000;1.000000;1.000000;1.000000;0.055642;-0.055642;0.055642;1.000000;0.521569;0.482353;0.415686
445622.97700127;5696558.56180008;471.65485003;10280.000000;1.000000;1.000000;1.000000;1.000000;-0.039591;0.039591;-0.039591;1.000000;0.188235;0.152941;0.109804
445622.39000137;5696558.35169800;471.68874981;23644.000000;1.000000;1.000000;1.000000;1.000000;0.021698;-0.021698;0.021698;1.000000;0.396078;0.356863;0.290196
445622.38740166;5696558.40769966;471.70795013;31354.000000;1.000000;1.000000;1.000000;1.000000;0.073025;-0.073025;0.073025;1.000000;0.490196;0.482353;0.435294
445622.46730240;5696558.72769936;471.68734982;17476.000000;1.000000;1.000000;1.000000;1.000000;0.102301;-0.102301;0.102301;1.000000;0.27451;0.270588;0.247059
445622.91080101;5696558.80979927;471.72004988;56797.000000;1.000000;1.000000;1.000000;1.000000;0.020201;-0.020201;0.020201;1.000000;0.87451;0.870588;0.843137
445622.52660187;5696558.83209808;471.67735006;33667.000000;1.000000;1.000000;1.000000;1.000000;-0.002098;0.002098;-0.002098;1.000000;0.52549;0.517647;0.466667
445622.94690140;5696558.77680023;471.67934992;31097.000000;1.000000;1.000000;1.000000;1.000000;0.016944;-0.016944;0.016944;1.000000;0.529412;0.462745;0.392157
445622.42360123;5696558.64049919;471.69834997;12336.000000;1.000000;1.000000;1.000000;1.000000;0.109224;-0.109224;0.109224;1.000000;0.2;0.188235;0.164706
445622.49030121;5696558.79349907;471.67754986;22616.000000;1.000000;1.000000;1.000000;1.000000;0.037374;-0.037374;0.037374;1.000000;0.352941;0.34902;0.317647
445622.43120201;5696558.42019852;471.69605019;27499.000000;1.000000;1.000000;1.000000;1.000000;0.093103;-0.093103;0.093103;1.000000;0.439216;0.419608;0.376471
445622.74990089;5696558.85999878;471.70874979;37522.000000;1.000000;1.000000;1.000000;1.000000;-0.029999;0.029999;-0.029999;1.000000;0.592157;0.576471;0.529412
445622.91170128;5696558.71729858;471.66074993;27242.000000;1.000000;1.000000;1.000000;1.000000;0.044492;-0.044492;0.044492;1.000000;0.466667;0.407843;0.341176
445622.88580139;5696558.75419815;471.69024994;25700.000000;1.000000;1.000000;1.000000;1.000000;0.074769;-0.074769;0.074769;1.000000;0.415686;0.392157;0.337255
445622.71490105;5696558.78380020;471.70624973;31868.000000;1.000000;1.000000;1.000000;1.000000;0.046200;-0.046200;0.046200;1.000000;0.490196;0.494118;0.454902
445622.79000099;5696558.78849991;471.70965006;11565.000000;1.000000;1.000000;1.000000;1.000000;0.044019;-0.044019;0.044019;1.000000;0.188235;0.176471;0.168627
445622.85240181;5696558.60379990;471.65205004;20303.000000;1.000000;1.000000;1.000000;1.000000;0.089256;-0.089256;0.089256;1.000000;0.337255;0.305882;0.258824
445622.84680183;5696558.32379921;471.66244986;20560.000000;1.000000;1.000000;1.000000;1.000000;-0.006201;0.006201;-0.006201;1.000000;0.317647;0.317647;0.301961
445622.96550186;5696558.33639915;471.64934971;11565.000000;1.000000;1.000000;1.000000;1.000000;0.026897;-0.026897;0.026897;1.000000;0.184314;0.180392;0.14902
445622.92970093;5696558.53119858;471.65465023;31354.000000;1.000000;1.000000;1.000000;1.000000;0.003549;-0.003549;0.003549;1.000000;0.501961;0.478431;0.419608
445622.96740158;5696558.53469856;471.65415003;25700.000000;1.000000;1.000000;1.000000;1.000000;-0.033427;0.033427;-0.033427;1.000000;0.419608;0.392157;0.337255
445622.93140228;5696558.49609955;471.64734985;19018.000000;1.000000;1.000000;1.000000;1.000000;-0.002493;0.002493;-0.002493;1.000000;0.313725;0.290196;0.235294
445622.85340126;5696558.80099876;471.72895004;35466.000000;1.000000;1.000000;1.000000;1.000000;0.029001;-0.029001;0.029001;1.000000;0.537255;0.54902;0.545098
445622.98090179;5696558.68499954;471.66814997;28013.000000;1.000000;1.000000;1.000000;1.000000;-0.028180;0.028180;-0.028180;1.000000;0.454902;0.427451;0.360784
445622.37900169;5696558.35969933;471.69065001;25957.000000;1.000000;1.000000;1.000000;1.000000;0.029775;-0.029775;0.029775;1.000000;0.427451;0.392157;0.337255
445622.94660194;5696558.59019859;471.66085007;22873.000000;1.000000;1.000000;1.000000;1.000000;-0.005904;0.005904;-0.005904;1.000000;0.380392;0.345098;0.286275
445622.90680130;5696558.64279945;471.66895010;47802.000000;1.000000;1.000000;1.000000;1.000000;0.040114;-0.040114;0.040114;1.000000;0.752941;0.729412;0.666667
445622.39150246;5696558.54459961;471.74694969;19789.000000;1.000000;1.000000;1.000000;1.000000;0.077126;-0.077126;0.077126;1.000000;0.313725;0.305882;0.27451
445622.95720108;5696558.32759865;471.66045000;7196.000000;1.000000;1.000000;1.000000;1.000000;-0.017985;0.017985;-0.017985;1.000000;0.117647;0.113725;0.0941176
445622.53170212;5696558.72149857;471.69955017;22359.000000;1.000000;1.000000;1.000000;1.000000;0.108501;-0.108501;0.108501;1.000000;0.341176;0.34902;0.305882
445622.52930077;5696558.78520020;471.67684986;8481.000000;1.000000;1.000000;1.000000;1.000000;0.044800;-0.044800;0.044800;1.000000;0.137255;0.133333;0.101961
445622.79720123;5696558.77129944;471.72144987;20046.000000;1.000000;1.000000;1.000000;1.000000;0.061162;-0.061162;0.061162;1.000000;0.313725;0.309804;0.278431
445622.83750160;5696558.52779968;471.66914989;24672.000000;1.000000;1.000000;1.000000;1.000000;0.094614;-0.094614;0.094614;1.000000;0.388235;0.384314;0.309804
445622.49370201;5696558.73689850;471.69105007;17476.000000;1.000000;1.000000;1.000000;1.000000;0.093460;-0.093460;0.093460;1.000000;0.270588;0.27451;0.239216
445622.42900093;5696558.51109894;471.72494986;29555.000000;1.000000;1.000000;1.000000;1.000000;0.114624;-0.114624;0.114624;1.000000;0.466667;0.45098;0.423529
445622.93950089;5696558.35750015;471.64605000;30583.000000;1.000000;1.000000;1.000000;1.000000;0.027500;-0.027500;0.027500;1.000000;0.47451;0.470588;0.439216
445622.64140137;5696558.76299866;471.68405010;29812.000000;1.000000;1.000000;1.000000;1.000000;0.067001;-0.067001;0.067001;1.000000;0.447059;0.462745;0.443137
445622.64290245;5696558.72559937;471.67665007;31611.000000;1.000000;1.000000;1.000000;1.000000;0.104401;-0.104401;0.104401;1.000000;0.47451;0.490196;0.470588
445622.41670235;5696558.36099823;471.68774988;37265.000000;1.000000;1.000000;1.000000;1.000000;0.032163;-0.032163;0.032163;1.000000;0.611765;0.560784;0.501961
445622.42340096;5696558.67819984;471.67784979;9509.000000;1.000000;1.000000;1.000000;1.000000;0.109141;-0.109141;0.109141;1.000000;0.152941;0.14902;0.129412
445622.88220222;5696558.38109978;471.67175009;39578.000000;1.000000;1.000000;1.000000;1.000000;0.051296;-0.051296;0.051296;1.000000;0.596078;0.611765;0.603922
445622.43040092;5696558.44569977;471.71495010;38807.000000;1.000000;1.000000;1.000000;1.000000;0.116024;-0.116024;0.116024;1.000000;0.607843;0.596078;0.560784
445622.98720177;5696558.51659973;471.64545013;19532.000000;1.000000;1.000000;1.000000;1.000000;-0.055319;0.055319;-0.055319;1.000000;0.32549;0.298039;0.239216
445622.72980125;5696558.43019875;471.67934992;37265.000000;1.000000;1.000000;1.000000;1.000000;0.113505;-0.113505;0.113505;1.000000;0.556863;0.576471;0.580392
445622.91740234;5696558.85819824;471.72555019;23387.000000;1.000000;1.000000;1.000000;1.000000;-0.028198;0.028198;-0.028198;1.000000;0.368627;0.360784;0.337255
445622.54940231;5696558.73169907;471.69115021;12850.000000;1.000000;1.000000;1.000000;1.000000;0.098301;-0.098301;0.098301;1.000000;0.2;0.203922;0.172549
445622.88330086;5696558.34359940;471.67364981;34695.000000;1.000000;1.000000;1.000000;1.000000;0.014014;-0.014014;0.014014;1.000000;0.52549;0.533333;0.521569
445622.40100105;5696558.34149940;471.68444969;29298.000000;1.000000;1.000000;1.000000;1.000000;0.011499;-0.011499;0.011499;1.000000;0.498039;0.439216;0.364706
445622.43660172;5696558.34519966;471.67915012;30326.000000;1.000000;1.000000;1.000000;1.000000;0.032278;-0.032278;0.032278;1.000000;0.501961;0.458824;0.396078
445622.67040070;5696558.32569893;471.69175007;38807.000000;1.000000;1.000000;1.000000;1.000000;0.106312;-0.106312;0.106312;1.000000;0.580392;0.6;0.596078
445622.70450218;5696558.36459930;471.68914988;42662.000000;1.000000;1.000000;1.000000;1.000000;0.085901;-0.085901;0.085901;1.000000;0.635294;0.658824;0.658824
445622.70330246;5696558.40209969;471.68954994;43176.000000;1.000000;1.000000;1.000000;1.000000;0.107565;-0.107565;0.107565;1.000000;0.639216;0.670588;0.682353
445622.91870125;5696558.34509857;471.66825010;10023.000000;1.000000;1.000000;1.000000;1.000000;-0.015099;0.015099;-0.015099;1.000000;0.156863;0.156863;0.133333
445622.66690071;5696558.36339958;471.69205000;36494.000000;1.000000;1.000000;1.000000;1.000000;0.120898;-0.120898;0.120898;1.000000;0.545098;0.564706;0.576471
445622.89120110;5696558.80219849;471.72374966;55512.000000;1.000000;1.000000;1.000000;1.000000;0.027802;-0.027802;0.027802;1.000000;0.85098;0.85098;0.823529
445622.85730179;5696558.72419937;471.69094994;43176.000000;1.000000;1.000000;1.000000;1.000000;0.099328;-0.099328;0.099328;1.000000;0.678431;0.658824;0.611765
445622.84710129;5696558.30499847;471.66925003;18247.000000;1.000000;1.000000;1.000000;1.000000;-0.025002;0.025002;-0.025002;1.000000;0.27451;0.286275;0.266667
445622.42570122;5696558.63029869;471.73554995;14649.000000;1.000000;1.000000;1.000000;1.000000;0.111324;-0.111324;0.111324;1.000000;0.235294;0.227451;0.2
445622.79090126;5696558.77659805;471.71654989;15677.000000;1.000000;1.000000;1.000000;1.000000;0.055617;-0.055617;0.055617;1.000000;0.25098;0.239216;0.227451
445623.00620087;5696558.73169907;471.66984989;19789.000000;1.000000;1.000000;1.000000;1.000000;-0.047492;0.047492;-0.047492;1.000000;0.333333;0.298039;0.266667
445622.77480133;5696558.75699814;471.72254993;25443.000000;1.000000;1.000000;1.000000;1.000000;0.073002;-0.073002;0.073002;1.000000;0.392157;0.388235;0.380392
445622.88640221;5696558.76109894;471.69275000;23387.000000;1.000000;1.000000;1.000000;1.000000;0.068901;-0.068901;0.068901;1.000000;0.376471;0.356863;0.313725
445622.77330215;5696558.71969803;471.72905018;57311.000000;1.000000;1.000000;1.000000;1.000000;0.110302;-0.110302;0.110302;1.000000;0.882353;0.878431;0.839216
445622.92650230;5696558.85729797;471.72825005;24672.000000;1.000000;1.000000;1.000000;1.000000;-0.027678;0.027678;-0.027678;1.000000;0.384314;0.380392;0.34902
445622.89000137;5696558.74689873;471.68575003;27756.000000;1.000000;1.000000;1.000000;1.000000;0.069696;-0.069696;0.069696;1.000000;0.458824;0.419608;0.364706
445622.93710144;5696558.63559921;471.65395023;22616.000000;1.000000;1.000000;1.000000;1.000000;0.009155;-0.009155;0.009155;1.000000;0.364706;0.345098;0.294118
445622.97230156;5696558.63699921;471.65555002;31354.000000;1.000000;1.000000;1.000000;1.000000;-0.025600;0.025600;-0.025600;1.000000;0.498039;0.482353;0.431373
445622.42200096;5696558.46259888;471.72874977;34695.000000;1.000000;1.000000;1.000000;1.000000;0.107624;-0.107624;0.107624;1.000000;0.537255;0.533333;0.505882
445622.90330132;5696558.52199944;471.65105011;20303.000000;1.000000;1.000000;1.000000;1.000000;0.028603;-0.028603;0.028603;1.000000;0.333333;0.309804;0.254902
445622.46040161;5696558.42929848;471.68814995;26471.000000;1.000000;1.000000;1.000000;1.000000;0.112218;-0.112218;0.112218;1.000000;0.419608;0.403922;0.368627
445622.42410095;5696558.39060028;471.68835022;19275.000000;1.000000;1.000000;1.000000;1.000000;0.062670;-0.062670;0.062670;1.000000;0.32549;0.290196;0.243137
445622.90550240;5696558.44699867;471.65255024;29298.000000;1.000000;1.000000;1.000000;1.000000;0.046091;-0.046091;0.046091;1.000000;0.454902;0.454902;0.407843
445622.40880211;5696558.56139954;471.75964977;45232.000000;1.000000;1.000000;1.000000;1.000000;0.094425;-0.094425;0.094425;1.000000;0.698039;0.694118;0.662745
445622.83650215;5696558.33429916;471.65275003;16448.000000;1.000000;1.000000;1.000000;1.000000;0.004299;-0.004299;0.004299;1.000000;0.254902;0.254902;0.235294
445622.80000122;5696558.29329880;471.65294983;29812.000000;1.000000;1.000000;1.000000;1.000000;-0.027053;0.027053;-0.027053;1.000000;0.454902;0.458824;0.443137
445622.80680092;5696558.79619797;471.71514990;15677.000000;1.000000;1.000000;1.000000;1.000000;0.034641;-0.034641;0.034641;1.000000;0.243137;0.239216;0.235294
445622.97250183;5696558.43169983;471.63915016;24672.000000;1.000000;1.000000;1.000000;1.000000;-0.071563;0.071563;-0.071563;1.000000;0.419608;0.376471;0.290196
445622.73320206;5696558.36679848;471.67875006;57825.000000;1.000000;1.000000;1.000000;1.000000;0.062021;-0.062021;0.062021;1.000000;0.87451;0.890196;0.87451
