//X;Y;Z;Intensity;Return Number;Number Of Returns;Scan Direction Flag;Point Source ID;C2M signed distances[-][<0.8];C2M signed distances[<0.4];C2M signed distances[-][<0.2];Stump89;Rf;Gf;Bf
300
445651.45310028;5696553.74880035;469.57694985;14906.000000;1.000000;1.000000;1.000000;1.000000;0.081200;-0.081200;0.081200;1.000000;0.270588;0.227451;0.117647
445651.37670334;5696553.78159912;469.57624986;40606.000000;1.000000;1.000000;1.000000;1.000000;0.048401;-0.048401;0.048401;1.000000;0.643137;0.623529;0.568627
445651.45160110;5696553.78389938;469.57964994;21331.000000;1.000000;1.000000;1.000000;1.000000;0.046101;-0.046101;0.046101;1.000000;0.356863;0.329412;0.243137
445651.52750214;5696553.71399887;469.56594994;25443.000000;1.000000;1.000000;1.000000;1.000000;0.116001;-0.116001;0.116001;1.000000;0.4;0.396078;0.337255
445651.41530045;5696553.82229813;469.58084991;34438.000000;1.000000;1.000000;1.000000;1.000000;0.007741;-0.007741;0.007741;1.000000;0.537255;0.529412;0.478431
445651.44320114;5696553.79629906;469.58414986;24929.000000;1.000000;1.000000;1.000000;1.000000;0.033701;-0.033701;0.033701;1.000000;0.407843;0.384314;0.301961
445651.55400284;5696553.77229889;469.56554987;54484.000000;1.000000;1.000000;1.000000;1.000000;-0.058626;0.058626;-0.058626;1.000000;0.843137;0.835294;0.792157
445651.66510208;5696553.80419930;469.55235006;36237.000000;1.000000;1.000000;1.000000;1.000000;0.103979;-0.103979;0.103979;1.000000;0.556863;0.556863;0.537255
445651.44180115;5696553.83139999;469.58445003;48573.000000;1.000000;1.000000;1.000000;1.000000;-0.001400;0.001400;-0.001400;1.000000;0.756863;0.745098;0.698039
445651.55480011;5696553.80719955;469.56834986;22359.000000;1.000000;1.000000;1.000000;1.000000;-0.024729;0.024729;-0.024729;1.000000;0.356863;0.341176;0.305882
445651.45890244;5696553.84369858;469.59235003;44718.000000;1.000000;1.000000;1.000000;1.000000;-0.013699;0.013699;-0.013699;1.000000;0.686275;0.690196;0.658824
445651.51920135;5696553.77999886;469.57565000;28527.000000;1.000000;1.000000;1.000000;1.000000;0.050001;-0.050001;0.050001;1.000000;0.45098;0.439216;0.392157
445651.51790054;5696553.81749924;469.57844998;31354.000000;1.000000;1.000000;1.000000;1.000000;0.012501;-0.012501;0.012501;1.000000;0.498039;0.478431;0.443137
445651.55210312;5696553.85639961;469.57344987;13107.000000;1.000000;1.000000;1.000000;1.000000;-0.012272;0.012272;-0.012272;1.000000;0.227451;0.196078;0.164706
445651.40770157;5696553.73670013;469.57244994;23901.000000;1.000000;1.000000;1.000000;1.000000;0.093300;-0.093300;0.093300;1.000000;0.411765;0.364706;0.243137
445651.37020309;5696553.73549850;469.57305004;46003.000000;1.000000;1.000000;1.000000;1.000000;0.094737;-0.094737;0.094737;1.000000;0.733333;0.701961;0.635294
445651.44760330;5696553.73769959;469.57194998;13364.000000;1.000000;1.000000;1.000000;1.000000;0.092300;-0.092300;0.092300;1.000000;0.25098;0.203922;0.0784314
445651.36890228;5696553.77289780;469.57585003;33410.000000;1.000000;1.000000;1.000000;1.000000;0.057656;-0.057656;0.057656;1.000000;0.533333;0.513725;0.45098
445651.44390305;5696553.77529915;469.57684996;19789.000000;1.000000;1.000000;1.000000;1.000000;0.054701;-0.054701;0.054701;1.000000;0.341176;0.305882;0.207843
445651.40380295;5696553.84899910;469.58064987;54998.000000;1.000000;1.000000;1.000000;1.000000;-0.018999;0.018999;-0.018999;1.000000;0.843137;0.843137;0.811765
445651.62350281;5696553.76129921;469.55684998;15934.000000;1.000000;1.000000;1.000000;1.000000;0.090642;-0.090642;0.090642;1.000000;0.27451;0.235294;0.207843
445651.55350311;5696553.84469803;469.57104995;17733.000000;1.000000;1.000000;1.000000;1.000000;-0.010872;0.010872;-0.010872;1.000000;0.294118;0.266667;0.239216
445651.40620239;5696553.77179916;469.57515003;25700.000000;1.000000;1.000000;1.000000;1.000000;0.058201;-0.058201;0.058201;1.000000;0.435294;0.392157;0.290196
445651.52130325;5696553.72389801;469.56815006;18247.000000;1.000000;1.000000;1.000000;1.000000;0.106102;-0.106102;0.106102;1.000000;0.290196;0.286275;0.231373
445651.37090118;5696553.71679886;469.57054998;31611.000000;1.000000;1.000000;1.000000;1.000000;0.113359;-0.113359;0.113359;1.000000;0.521569;0.478431;0.403922
445651.56640060;5696553.75259979;469.55884983;52428.000000;1.000000;1.000000;1.000000;1.000000;0.077427;-0.077427;0.077427;1.000000;0.819608;0.803922;0.760784
445651.60180099;5696553.75630005;469.56054999;30840.000000;1.000000;1.000000;1.000000;1.000000;0.082658;-0.082658;0.082658;1.000000;0.501961;0.466667;0.427451
445651.41410263;5696553.78269775;469.57795002;26728.000000;1.000000;1.000000;1.000000;1.000000;0.047302;-0.047302;0.047302;1.000000;0.443137;0.407843;0.317647
445651.66580017;5696553.81349953;469.55474998;38807.000000;1.000000;1.000000;1.000000;1.000000;0.102759;-0.102759;0.102759;1.000000;0.596078;0.596078;0.580392
445651.52770050;5696553.74199875;469.56635000;15934.000000;1.000000;1.000000;1.000000;1.000000;0.088001;-0.088001;0.088001;1.000000;0.262745;0.247059;0.196078
445651.40570267;5696553.76489838;469.57274987;19789.000000;1.000000;1.000000;1.000000;1.000000;0.065102;-0.065102;0.065102;1.000000;0.341176;0.301961;0.2
445651.37030228;5696553.76349838;469.57574989;38036.000000;1.000000;1.000000;1.000000;1.000000;0.066826;-0.066826;0.066826;1.000000;0.603922;0.584314;0.517647
445651.44550140;5696553.76809891;469.57684996;18761.000000;1.000000;1.000000;1.000000;1.000000;0.061901;-0.061901;0.061901;1.000000;0.333333;0.286275;0.172549
445651.52639969;5696553.80739792;469.57634999;42919.000000;1.000000;1.000000;1.000000;1.000000;0.022602;-0.022602;0.022602;1.000000;0.670588;0.658824;0.619608
445651.40390213;5696553.79999931;469.58005001;27499.000000;1.000000;1.000000;1.000000;1.000000;0.030001;-0.030001;0.030001;1.000000;0.439216;0.423529;0.34902
445651.40300186;5696553.83979996;469.58044984;42662.000000;1.000000;1.000000;1.000000;1.000000;-0.009800;0.009800;-0.009800;1.000000;0.658824;0.658824;0.619608
445651.65850266;5696553.78610046;469.55644991;32639.000000;1.000000;1.000000;1.000000;1.000000;0.103861;-0.103861;0.103861;1.000000;0.498039;0.501961;0.482353
445651.49800308;5696553.80749901;469.58434989;38807.000000;1.000000;1.000000;1.000000;1.000000;0.022832;-0.022832;0.022832;1.000000;0.603922;0.596078;0.572549
445651.50850113;5696553.74129875;469.57704999;24672.000000;1.000000;1.000000;1.000000;1.000000;0.088701;-0.088701;0.088701;1.000000;0.388235;0.380392;0.32549
445651.50950058;5696553.77849777;469.57994987;30583.000000;1.000000;1.000000;1.000000;1.000000;0.051502;-0.051502;0.051502;1.000000;0.478431;0.470588;0.435294
445651.54390152;5696553.81749924;469.57264997;41377.000000;1.000000;1.000000;1.000000;1.000000;0.013251;-0.013251;0.013251;1.000000;0.647059;0.631373;0.592157
445651.54250153;5696553.85489853;469.57764985;11308.000000;1.000000;1.000000;1.000000;1.000000;-0.021873;0.021873;-0.021873;1.000000;0.2;0.168627;0.14902
445651.39840134;5696553.73749931;469.57434990;18761.000000;1.000000;1.000000;1.000000;1.000000;0.092501;-0.092501;0.092501;1.000000;0.329412;0.290196;0.180392
445651.36320313;5696553.73609932;469.57274987;55255.000000;1.000000;1.000000;1.000000;1.000000;0.094566;-0.094566;0.094566;1.000000;0.870588;0.843137;0.780392
445651.43460281;5696553.77619942;469.57644989;22359.000000;1.000000;1.000000;1.000000;1.000000;0.054012;-0.054012;0.054012;1.000000;0.384314;0.341176;0.235294
445651.39439972;5696553.84759911;469.58014991;42405.000000;1.000000;1.000000;1.000000;1.000000;-0.017599;0.017599;-0.017599;1.000000;0.65098;0.65098;0.615686
445651.62980087;5696553.75369843;469.55705001;17733.000000;1.000000;1.000000;1.000000;1.000000;0.100511;-0.100511;0.100511;1.000000;0.298039;0.266667;0.247059
445651.55690201;5696553.75109871;469.56075003;36751.000000;1.000000;1.000000;1.000000;1.000000;-0.079254;0.079254;-0.079254;1.000000;0.576471;0.564706;0.517647
445651.60270126;5696553.71419914;469.55775001;35466.000000;1.000000;1.000000;1.000000;1.000000;0.121978;-0.121978;0.121978;1.000000;0.564706;0.537255;0.513725
445651.47660263;5696553.86069878;469.59804990;43947.000000;1.000000;1.000000;1.000000;1.000000;-0.030699;0.030699;-0.030699;1.000000;0.67451;0.67451;0.647059
445651.57480057;5696553.71669968;469.55884983;32125.000000;1.000000;1.000000;1.000000;1.000000;0.113779;-0.113779;0.113779;1.000000;0.509804;0.490196;0.462745
445651.39700134;5696553.77269943;469.57474997;23901.000000;1.000000;1.000000;1.000000;1.000000;0.057301;-0.057301;0.057301;1.000000;0.4;0.364706;0.27451
445651.62610062;5696553.81249817;469.55294992;35723.000000;1.000000;1.000000;1.000000;1.000000;0.064159;-0.064159;0.064159;1.000000;0.560784;0.54902;0.509804
445651.51540192;5696553.84329803;469.58325006;33924.000000;1.000000;1.000000;1.000000;1.000000;-0.013298;0.013298;-0.013298;1.000000;0.541176;0.513725;0.494118
445651.60280045;5696553.74209793;469.56034996;40092.000000;1.000000;1.000000;1.000000;1.000000;0.095934;-0.095934;0.095934;1.000000;0.65098;0.603922;0.568627
445651.47879990;5696553.80459793;469.58815004;56540.000000;1.000000;1.000000;1.000000;1.000000;0.025463;-0.025463;0.025463;1.000000;0.870588;0.866667;0.839216
445651.64019974;5696553.76669891;469.56005003;28527.000000;1.000000;1.000000;1.000000;1.000000;0.098775;-0.098775;0.098775;1.000000;0.454902;0.435294;0.403922
445651.61100204;5696553.75539978;469.56095006;24672.000000;1.000000;1.000000;1.000000;1.000000;0.087973;-0.087973;0.087973;1.000000;0.411765;0.368627;0.341176
445651.49110229;5696553.75910004;469.58585002;46517.000000;1.000000;1.000000;1.000000;1.000000;0.071714;-0.071714;0.071714;1.000000;0.721569;0.713725;0.670588
445651.38640030;5696553.83889969;469.58434989;24929.000000;1.000000;1.000000;1.000000;1.000000;-0.008900;0.008900;-0.008900;1.000000;0.392157;0.384314;0.341176
445651.67300232;5696553.81509979;469.55515005;42405.000000;1.000000;1.000000;1.000000;1.000000;0.109644;-0.109644;0.109644;1.000000;0.654902;0.65098;0.631373
445651.64650162;5696553.83159836;469.55414989;44204.000000;1.000000;1.000000;1.000000;1.000000;0.082127;-0.082127;0.082127;1.000000;0.686275;0.678431;0.647059
445651.43610199;5696553.76669891;469.57644989;21588.000000;1.000000;1.000000;1.000000;1.000000;0.063386;-0.063386;0.063386;1.000000;0.376471;0.329412;0.223529
445651.39700134;5696553.80060013;469.57974984;31097.000000;1.000000;1.000000;1.000000;1.000000;0.029400;-0.029400;0.029400;1.000000;0.498039;0.478431;0.415686
445651.68150146;5696553.83299835;469.55804994;39578.000000;1.000000;1.000000;1.000000;1.000000;0.117126;-0.117126;0.117126;1.000000;0.611765;0.607843;0.588235
445651.51450165;5696553.86199959;469.59044983;23644.000000;1.000000;1.000000;1.000000;1.000000;-0.032000;0.032000;-0.032000;1.000000;0.388235;0.352941;0.333333
445651.48990067;5696553.79659851;469.58624985;48573.000000;1.000000;1.000000;1.000000;1.000000;0.035483;-0.035483;0.035483;1.000000;0.745098;0.745098;0.709804
445651.45090302;5696553.83059891;469.58714988;36237.000000;1.000000;1.000000;1.000000;1.000000;-0.000599;0.000599;-0.000599;1.000000;0.560784;0.560784;0.521569
445651.41000183;5696553.86709793;469.58574988;52428.000000;1.000000;1.000000;1.000000;1.000000;-0.037098;0.037098;-0.037098;1.000000;0.803922;0.807843;0.776471
445651.47990234;5696553.78819855;469.58334996;54227.000000;1.000000;1.000000;1.000000;1.000000;0.041900;-0.041900;0.041900;1.000000;0.835294;0.835294;0.792157
445651.40350159;5696553.82099922;469.58264997;31354.000000;1.000000;1.000000;1.000000;1.000000;0.009001;-0.009001;0.009001;1.000000;0.490196;0.482353;0.435294
445651.44310196;5696553.82189949;469.58675005;39835.000000;1.000000;1.000000;1.000000;1.000000;0.008101;-0.008101;0.008101;1.000000;0.623529;0.611765;0.560784
445651.40229996;5696553.85849960;469.58294990;61423.000000;1.000000;1.000000;1.000000;1.000000;-0.028500;0.028500;-0.028500;1.000000;0.941176;0.945098;0.909804
445651.54750259;5696553.75189789;469.56264998;26985.000000;1.000000;1.000000;1.000000;1.000000;0.078513;-0.078513;0.078513;1.000000;0.427451;0.415686;0.360784
445651.48299988;5696553.74819954;469.58535006;38550.000000;1.000000;1.000000;1.000000;1.000000;0.082017;-0.082017;0.082017;1.000000;0.6;0.596078;0.545098
445651.43960007;5696553.85959824;469.58704998;29041.000000;1.000000;1.000000;1.000000;1.000000;-0.029598;0.029598;-0.029598;1.000000;0.45098;0.45098;0.411765
445651.62780197;5696553.83099945;469.55324986;24672.000000;1.000000;1.000000;1.000000;1.000000;0.063427;-0.063427;0.063427;1.000000;0.384314;0.380392;0.345098
445651.66440018;5696553.79730042;469.55215003;34695.000000;1.000000;1.000000;1.000000;1.000000;0.105234;-0.105234;0.105234;1.000000;0.537255;0.533333;0.517647
445651.57560165;5696553.72599991;469.55894997;38036.000000;1.000000;1.000000;1.000000;1.000000;0.104604;-0.104604;0.104604;1.000000;0.6;0.580392;0.545098
445651.64719971;5696553.76610001;469.55804994;38550.000000;1.000000;1.000000;1.000000;1.000000;0.104609;-0.104609;0.104609;1.000000;0.607843;0.588235;0.560784
445651.57410248;5696553.76109894;469.56165006;60395.000000;1.000000;1.000000;1.000000;1.000000;0.069584;-0.069584;0.069584;1.000000;0.937255;0.92549;0.890196
445651.58300217;5696553.75339897;469.55734994;54484.000000;1.000000;1.000000;1.000000;1.000000;0.078833;-0.078833;0.078833;1.000000;0.854902;0.827451;0.792157
445651.53450211;5696553.81830032;469.57454993;48830.000000;1.000000;1.000000;1.000000;1.000000;0.011700;-0.011700;0.011700;1.000000;0.760784;0.745098;0.705882
445651.60000046;5696553.81019791;469.55644991;10537.000000;1.000000;1.000000;1.000000;1.000000;0.040759;-0.040759;0.040759;1.000000;0.180392;0.160784;0.121569
445651.58760269;5696553.82769974;469.55604984;19532.000000;1.000000;1.000000;1.000000;1.000000;0.023341;-0.023341;0.023341;1.000000;0.321569;0.298039;0.258824
445651.66280182;5696553.83239944;469.55714991;42148.000000;1.000000;1.000000;1.000000;1.000000;0.098427;-0.098427;0.098427;1.000000;0.654902;0.647059;0.615686
445651.59880264;5696553.84770020;469.55684998;35723.000000;1.000000;1.000000;1.000000;1.000000;0.034428;-0.034428;0.034428;1.000000;0.564706;0.545098;0.513725
445651.48690231;5696553.84350021;469.59364988;45232.000000;1.000000;1.000000;1.000000;1.000000;-0.016708;0.016708;-0.016708;1.000000;0.698039;0.694118;0.670588
445651.48370178;5696553.72949799;469.58285000;39578.000000;1.000000;1.000000;1.000000;1.000000;0.100723;-0.100723;0.100723;1.000000;0.611765;0.615686;0.545098
445651.39120300;5696553.73589905;469.57404997;18761.000000;1.000000;1.000000;1.000000;1.000000;0.094101;-0.094101;0.094101;1.000000;0.32549;0.286275;0.188235
445651.48240097;5696553.76689919;469.58554985;49858.000000;1.000000;1.000000;1.000000;1.000000;0.063328;-0.063328;0.063328;1.000000;0.768627;0.764706;0.721569
445651.46150024;5696553.73859985;469.57725002;20046.000000;1.000000;1.000000;1.000000;1.000000;0.091400;-0.091400;0.091400;1.000000;0.333333;0.313725;0.207843
445651.42530258;5696553.77699860;469.57844998;24672.000000;1.000000;1.000000;1.000000;1.000000;0.054087;-0.054087;0.054087;1.000000;0.419608;0.376471;0.278431
445651.46020325;5696553.77609833;469.57994987;26728.000000;1.000000;1.000000;1.000000;1.000000;0.053902;-0.053902;0.053902;1.000000;0.435294;0.415686;0.32549
445651.53360184;5696553.80909927;469.57434990;47288.000000;1.000000;1.000000;1.000000;1.000000;0.020901;-0.020901;0.020901;1.000000;0.737255;0.721569;0.682353
445651.53429993;5696553.84399994;469.57944991;14392.000000;1.000000;1.000000;1.000000;1.000000;-0.014000;0.014000;-0.014000;1.000000;0.243137;0.215686;0.192157
445651.42020233;5696553.84979828;469.58134987;59881.000000;1.000000;1.000000;1.000000;1.000000;-0.020595;0.020595;-0.020595;1.000000;0.917647;0.917647;0.882353
445651.60230072;5696553.76319893;469.56294991;29812.000000;1.000000;1.000000;1.000000;1.000000;0.076816;-0.076816;0.076816;1.000000;0.482353;0.45098;0.423529
445651.45620163;5696553.86730011;469.59714987;46003.000000;1.000000;1.000000;1.000000;1.000000;-0.037300;0.037300;-0.037300;1.000000;0.705882;0.709804;0.67451
445651.63910110;5696553.80200012;469.55344989;50372.000000;1.000000;1.000000;1.000000;1.000000;0.079800;-0.079800;0.079800;1.000000;0.768627;0.776471;0.745098
445651.67049988;5696553.84099777;469.55994989;41377.000000;1.000000;1.000000;1.000000;1.000000;0.106125;-0.106125;0.106125;1.000000;0.643137;0.631373;0.603922
445651.63550003;5696553.83959778;469.55604984;25700.000000;1.000000;1.000000;1.000000;1.000000;0.071125;-0.071125;0.071125;1.000000;0.403922;0.396078;0.360784
445651.65789993;5696553.75580032;469.55834987;46774.000000;1.000000;1.000000;1.000000;1.000000;0.119384;-0.119384;0.119384;1.000000;0.729412;0.713725;0.690196
445651.36880310;5696553.80089958;469.58314993;43690.000000;1.000000;1.000000;1.000000;1.000000;0.030199;-0.030199;0.030199;1.000000;0.686275;0.666667;0.615686
445651.61710175;5696553.79229935;469.55464985;16191.000000;1.000000;1.000000;1.000000;1.000000;0.064819;-0.064819;0.064819;1.000000;0.262745;0.25098;0.203922
445651.44149979;5696553.80340012;469.58414986;26728.000000;1.000000;1.000000;1.000000;1.000000;0.026600;-0.026600;0.026600;1.000000;0.427451;0.411765;0.341176
445651.44260223;5696553.84070023;469.58465006;40863.000000;1.000000;1.000000;1.000000;1.000000;-0.010700;0.010700;-0.010700;1.000000;0.631373;0.627451;0.588235
445651.57370193;5696553.78219803;469.56425001;58853.000000;1.000000;1.000000;1.000000;1.000000;0.048703;-0.048703;0.048703;1.000000;0.913725;0.901961;0.866667
445651.53569992;5696553.77859886;469.56944992;29041.000000;1.000000;1.000000;1.000000;1.000000;0.051401;-0.051401;0.051401;1.000000;0.458824;0.447059;0.403922
445651.57220276;5696553.81729897;469.56454994;10537.000000;1.000000;1.000000;1.000000;1.000000;0.014919;-0.014919;0.014919;1.000000;0.184314;0.160784;0.121569
445651.57100113;5696553.85479935;469.56725003;20303.000000;1.000000;1.000000;1.000000;1.000000;0.006626;-0.006626;0.006626;1.000000;0.333333;0.305882;0.27451
445651.57650192;5696553.73530014;469.55915000;49858.000000;1.000000;1.000000;1.000000;1.000000;0.095473;-0.095473;0.095473;1.000000;0.784314;0.756863;0.717647
445651.68230255;5696553.84219940;469.56054999;34695.000000;1.000000;1.000000;1.000000;1.000000;0.117928;-0.117928;0.117928;1.000000;0.545098;0.529412;0.509804
445651.64500244;5696553.84109886;469.55644991;29812.000000;1.000000;1.000000;1.000000;1.000000;0.080627;-0.080627;0.080627;1.000000;0.462745;0.458824;0.423529
445651.45240219;5696553.79539879;469.58454992;24415.000000;1.000000;1.000000;1.000000;1.000000;0.034601;-0.034601;0.034601;1.000000;0.392157;0.376471;0.309804
445651.58210190;5696553.74409874;469.55714991;54998.000000;1.000000;1.000000;1.000000;1.000000;0.087711;-0.087711;0.087711;1.000000;0.866667;0.835294;0.796078
445651.42650040;5696553.73729904;469.57104995;30069.000000;1.000000;1.000000;1.000000;1.000000;0.093474;-0.093474;0.093474;1.000000;0.501961;0.462745;0.329412
445651.61870010;5696553.78509911;469.55694987;17733.000000;1.000000;1.000000;1.000000;1.000000;0.070479;-0.070479;0.070479;1.000000;0.286275;0.27451;0.231373
445651.64809998;5696553.77540024;469.55814983;38550.000000;1.000000;1.000000;1.000000;1.000000;0.099955;-0.099955;0.099955;1.000000;0.6;0.592157;0.564706
445651.50660141;5696553.82539948;469.58494999;33410.000000;1.000000;1.000000;1.000000;1.000000;0.004601;-0.004601;0.004601;1.000000;0.52549;0.509804;0.486275
445651.61830338;5696553.82959946;469.55285003;18247.000000;1.000000;1.000000;1.000000;1.000000;0.053930;-0.053930;0.053930;1.000000;0.290196;0.282353;0.247059
445651.47390182;5696553.74909790;469.58264997;25700.000000;1.000000;1.000000;1.000000;1.000000;0.080902;-0.080902;0.080902;1.000000;0.411765;0.4;0.321569
445651.47039993;5696553.78679855;469.58285000;52428.000000;1.000000;1.000000;1.000000;1.000000;0.043201;-0.043201;0.043201;1.000000;0.811765;0.807843;0.760784
445651.46870239;5696553.82189949;469.59025003;54227.000000;1.000000;1.000000;1.000000;1.000000;0.008101;-0.008101;0.008101;1.000000;0.831373;0.835294;0.807843
445651.52830322;5696553.72329910;469.56614997;20046.000000;1.000000;1.000000;1.000000;1.000000;0.106701;-0.106701;0.106701;1.000000;0.317647;0.313725;0.262745
445651.64350327;5696553.85059937;469.55655005;18504.000000;1.000000;1.000000;1.000000;1.000000;0.079128;-0.079128;0.079128;1.000000;0.290196;0.286275;0.254902
445651.46720322;5696553.85919960;469.59754993;53713.000000;1.000000;1.000000;1.000000;1.000000;-0.029200;0.029200;-0.029200;1.000000;0.823529;0.823529;0.8
445651.56110199;5696553.66899879;469.55534985;48830.000000;1.000000;1.000000;1.000000;1.000000;-0.161034;0.161034;-0.161034;1.000000;0.752941;0.752941;0.709804
445651.55750092;5696553.70669945;469.55795004;55512.000000;1.000000;1.000000;1.000000;1.000000;-0.123492;0.123492;-0.123492;1.000000;0.854902;0.854902;0.815686
445651.38830002;5696553.75479897;469.57414987;20046.000000;1.000000;1.000000;1.000000;1.000000;0.075201;-0.075201;0.075201;1.000000;0.341176;0.305882;0.219608
445651.46880157;5696553.85209854;469.59754993;53456.000000;1.000000;1.000000;1.000000;1.000000;-0.022099;0.022099;-0.022099;1.000000;0.819608;0.819608;0.796078
445651.59250076;5696553.78279884;469.56274988;32382.000000;1.000000;1.000000;1.000000;1.000000;0.054945;-0.054945;0.054945;1.000000;0.509804;0.498039;0.454902
445651.67200287;5696553.80359848;469.55264999;39064.000000;1.000000;1.000000;1.000000;1.000000;0.110819;-0.110819;0.110819;1.000000;0.603922;0.6;0.580392
445651.58900269;5696553.81819923;469.55834987;9766.000000;1.000000;1.000000;1.000000;1.000000;0.027309;-0.027309;0.027309;1.000000;0.172549;0.14902;0.113725
445651.59000214;5696553.85539825;469.56114985;34695.000000;1.000000;1.000000;1.000000;1.000000;0.025627;-0.025627;0.025627;1.000000;0.545098;0.529412;0.494118
445651.37610062;5696553.83049973;469.58614995;26985.000000;1.000000;1.000000;1.000000;1.000000;-0.000922;0.000922;-0.000922;1.000000;0.431373;0.415686;0.372549
445651.43040283;5696553.86049850;469.58664991;37522.000000;1.000000;1.000000;1.000000;1.000000;-0.031791;0.031791;-0.031791;1.000000;0.580392;0.580392;0.541176
445651.50370224;5696553.74169930;469.57924988;31611.000000;1.000000;1.000000;1.000000;1.000000;0.088301;-0.088301;0.088301;1.000000;0.490196;0.490196;0.439216
445651.38750275;5696553.77120026;469.57434990;23387.000000;1.000000;1.000000;1.000000;1.000000;0.058800;-0.058800;0.058800;1.000000;0.388235;0.356863;0.278431
445651.58300217;5696553.78129776;469.56224992;48830.000000;1.000000;1.000000;1.000000;1.000000;0.052143;-0.052143;0.052143;1.000000;0.760784;0.74902;0.709804
445651.54530151;5696553.78009995;469.56754996;37008.000000;1.000000;1.000000;1.000000;1.000000;0.050237;-0.050237;0.050237;1.000000;0.576471;0.568627;0.52549
445651.57820328;5696553.85649879;469.56534984;22359.000000;1.000000;1.000000;1.000000;1.000000;0.013828;-0.013828;0.013828;1.000000;0.356863;0.341176;0.301961
445651.56030090;5696553.65970047;469.55515005;47288.000000;1.000000;1.000000;1.000000;1.000000;-0.170348;0.170348;-0.170348;1.000000;0.729412;0.729412;0.682353
445651.54969986;5696553.72369965;469.56014993;54741.000000;1.000000;1.000000;1.000000;1.000000;0.106791;-0.106791;0.106791;1.000000;0.847059;0.843137;0.796078
445651.58250244;5696553.80010040;469.56014993;32896.000000;1.000000;1.000000;1.000000;1.000000;0.034966;-0.034966;0.034966;1.000000;0.521569;0.501961;0.458824
445651.58130081;5696553.83759888;469.56054999;27242.000000;1.000000;1.000000;1.000000;1.000000;0.016926;-0.016926;0.016926;1.000000;0.439216;0.415686;0.376471
445651.55900009;5696553.69719894;469.55784990;53456.000000;1.000000;1.000000;1.000000;1.000000;-0.132910;0.132910;-0.132910;1.000000;0.819608;0.823529;0.784314
445651.39400299;5696553.81959923;469.58215000;31097.000000;1.000000;1.000000;1.000000;1.000000;0.010401;-0.010401;0.010401;1.000000;0.490196;0.478431;0.435294
445651.46960266;5696553.83339890;469.59274985;54998.000000;1.000000;1.000000;1.000000;1.000000;-0.003399;0.003399;-0.003399;1.000000;0.843137;0.843137;0.819608
445651.41730316;5696553.73819931;469.57054998;29041.000000;1.000000;1.000000;1.000000;1.000000;0.091843;-0.091843;0.091843;1.000000;0.490196;0.447059;0.313725
445651.65730103;5696553.79559906;469.55184986;39578.000000;1.000000;1.000000;1.000000;1.000000;0.099089;-0.099089;0.099089;1.000000;0.611765;0.607843;0.588235
445651.43140228;5696553.82069977;469.58384993;41120.000000;1.000000;1.000000;1.000000;1.000000;0.012250;-0.012250;0.012250;1.000000;0.639216;0.631373;0.576471
445651.43580063;5696553.73639877;469.57145001;25186.000000;1.000000;1.000000;1.000000;1.000000;0.093669;-0.093669;0.093669;1.000000;0.435294;0.384314;0.247059
445651.64710052;5696553.81289871;469.55394985;51657.000000;1.000000;1.000000;1.000000;1.000000;0.084475;-0.084475;0.084475;1.000000;0.792157;0.792157;0.764706
445651.59060104;5696553.81099899;469.55834987;12079.000000;1.000000;1.000000;1.000000;1.000000;0.032386;-0.032386;0.032386;1.000000;0.203922;0.184314;0.145098
445651.37950333;5696553.73469933;469.57114985;29298.000000;1.000000;1.000000;1.000000;1.000000;0.095301;-0.095301;0.095301;1.000000;0.478431;0.447059;0.364706
445651.53730209;5696553.74349792;469.56445004;20560.000000;1.000000;1.000000;1.000000;1.000000;0.086502;-0.086502;0.086502;1.000000;0.32549;0.317647;0.262745
445651.51970108;5696553.73329933;469.57054998;16705.000000;1.000000;1.000000;1.000000;1.000000;0.096701;-0.096701;0.096701;1.000000;0.262745;0.262745;0.207843
445651.58920105;5696553.84619911;469.55865004;32896.000000;1.000000;1.000000;1.000000;1.000000;0.024826;-0.024826;0.024826;1.000000;0.521569;0.501961;0.470588
445651.62190063;5696553.74510010;469.55894997;24929.000000;1.000000;1.000000;1.000000;1.000000;0.102553;-0.102553;0.102553;1.000000;0.4;0.380392;0.356863
445651.45610245;5696553.72979935;469.57454993;15420.000000;1.000000;1.000000;1.000000;1.000000;0.100201;-0.100201;0.100201;1.000000;0.266667;0.243137;0.109804
445651.41510208;5696553.76639946;469.57314994;22102.000000;1.000000;1.000000;1.000000;1.000000;0.063603;-0.063603;0.063603;1.000000;0.384314;0.337255;0.223529
445651.45240219;5696553.76750000;469.57955005;17476.000000;1.000000;1.000000;1.000000;1.000000;0.062500;-0.062500;0.062500;1.000000;0.305882;0.270588;0.168627
445651.37980087;5696553.76489838;469.57624986;26214.000000;1.000000;1.000000;1.000000;1.000000;0.065102;-0.065102;0.065102;1.000000;0.431373;0.403922;0.32549
445651.54680069;5696553.74269875;469.56014993;28270.000000;1.000000;1.000000;1.000000;1.000000;0.087608;-0.087608;0.087608;1.000000;0.443137;0.435294;0.380392
445651.67370041;5696553.82440002;469.55754997;44461.000000;1.000000;1.000000;1.000000;1.000000;0.109469;-0.109469;0.109469;1.000000;0.682353;0.682353;0.658824
445651.62690170;5696553.82179840;469.55314996;32896.000000;1.000000;1.000000;1.000000;1.000000;0.063062;-0.063062;0.063062;1.000000;0.509804;0.505882;0.466667
445651.51620300;5696553.85259827;469.58574988;31354.000000;1.000000;1.000000;1.000000;1.000000;-0.022598;0.022598;-0.022598;1.000000;0.505882;0.47451;0.454902
445651.61250122;5696553.74589928;469.56084992;34952.000000;1.000000;1.000000;1.000000;1.000000;0.096897;-0.096897;0.096897;1.000000;0.560784;0.529412;0.509804
445651.48110016;5696553.77639969;469.58325006;52685.000000;1.000000;1.000000;1.000000;1.000000;0.053754;-0.053754;0.053754;1.000000;0.811765;0.807843;0.768627
445651.40490158;5696553.81149872;469.58254983;30326.000000;1.000000;1.000000;1.000000;1.000000;0.018501;-0.018501;0.018501;1.000000;0.47451;0.470588;0.411765
445651.47970016;5696553.81389816;469.58824994;56283.000000;1.000000;1.000000;1.000000;1.000000;0.016319;-0.016319;0.016319;1.000000;0.866667;0.862745;0.839216
445651.44230087;5696553.81270035;469.58655002;30583.000000;1.000000;1.000000;1.000000;1.000000;0.017300;-0.017300;0.017300;1.000000;0.482353;0.470588;0.407843
445651.65500076;5696553.82379921;469.55674984;42405.000000;1.000000;1.000000;1.000000;1.000000;0.090838;-0.090838;0.090838;1.000000;0.65098;0.65098;0.627451
445651.58370026;5696553.76259811;469.55974986;50115.000000;1.000000;1.000000;1.000000;1.000000;0.070118;-0.070118;0.070118;1.000000;0.784314;0.764706;0.733333
445651.61680038;5696553.83899887;469.55515005;20817.000000;1.000000;1.000000;1.000000;1.000000;0.052425;-0.052425;0.052425;1.000000;0.333333;0.321569;0.282353
445651.58580215;5696553.70870026;469.55694987;28784.000000;1.000000;1.000000;1.000000;1.000000;0.123178;-0.123178;0.123178;1.000000;0.462745;0.439216;0.407843
445651.58450134;5696553.77179916;469.56224992;48573.000000;1.000000;1.000000;1.000000;1.000000;0.061583;-0.061583;0.061583;1.000000;0.760784;0.741176;0.705882
445651.58110245;5696553.80959900;469.56025006;16448.000000;1.000000;1.000000;1.000000;1.000000;0.026382;-0.026382;0.026382;1.000000;0.270588;0.25098;0.207843
445651.58200272;5696553.84449966;469.56064989;28270.000000;1.000000;1.000000;1.000000;1.000000;0.017628;-0.017628;0.017628;1.000000;0.454902;0.431373;0.396078
445651.41570099;5696553.80119904;469.58054997;29041.000000;1.000000;1.000000;1.000000;1.000000;0.028825;-0.028825;0.028825;1.000000;0.466667;0.447059;0.364706
445651.41220291;5696553.83889969;469.58084991;54227.000000;1.000000;1.000000;1.000000;1.000000;-0.008900;0.008900;-0.008900;1.000000;0.839216;0.831373;0.792157
445651.61160095;5696553.73670013;469.56075003;37265.000000;1.000000;1.000000;1.000000;1.000000;0.104571;-0.104571;0.104571;1.000000;0.596078;0.564706;0.545098
445651.56240280;5696553.63159950;469.55254986;47545.000000;1.000000;1.000000;1.000000;1.000000;-0.198410;0.198410;-0.198410;1.000000;0.733333;0.733333;0.694118
445651.48250015;5696553.74129875;469.58285000;41377.000000;1.000000;1.000000;1.000000;1.000000;0.088870;-0.088870;0.088870;1.000000;0.639216;0.639216;0.584314
445651.44120224;5696553.85019882;469.58465006;33410.000000;1.000000;1.000000;1.000000;1.000000;-0.020199;0.020199;-0.020199;1.000000;0.513725;0.513725;0.478431
445651.47730072;5696553.84199913;469.59554984;48573.000000;1.000000;1.000000;1.000000;1.000000;-0.012001;0.012001;-0.012001;1.000000;0.74902;0.745098;0.721569
445651.40950211;5696553.72959908;469.57014992;29041.000000;1.000000;1.000000;1.000000;1.000000;0.100401;-0.100401;0.100401;1.000000;0.494118;0.443137;0.321569
445651.53660019;5696553.76219948;469.56694986;24929.000000;1.000000;1.000000;1.000000;1.000000;0.067801;-0.067801;0.067801;1.000000;0.392157;0.384314;0.333333
445651.57069977;5696553.80109985;469.56434991;35209.000000;1.000000;1.000000;1.000000;1.000000;0.029584;-0.029584;0.029584;1.000000;0.552941;0.537255;0.498039
445651.53740128;5696553.79709824;469.56974985;31611.000000;1.000000;1.000000;1.000000;1.000000;0.032902;-0.032902;0.032902;1.000000;0.498039;0.486275;0.447059
445651.44440277;5696553.72859772;469.57174994;14392.000000;1.000000;1.000000;1.000000;1.000000;0.101402;-0.101402;0.101402;1.000000;0.262745;0.227451;0.0901961
445651.56929977;5696553.83629807;469.56464984;22873.000000;1.000000;1.000000;1.000000;1.000000;0.004925;-0.004925;0.004925;1.000000;0.372549;0.345098;0.313725
445651.58520325;5696553.72749908;469.55705001;42662.000000;1.000000;1.000000;1.000000;1.000000;0.104596;-0.104596;0.104596;1.000000;0.67451;0.647059;0.611765
445651.65680130;5696553.76759918;469.55614998;40606.000000;1.000000;1.000000;1.000000;1.000000;0.111519;-0.111519;0.111519;1.000000;0.631373;0.619608;0.596078
445651.53720291;5696553.76909836;469.56705000;30069.000000;1.000000;1.000000;1.000000;1.000000;0.060902;-0.060902;0.060902;1.000000;0.470588;0.462745;0.415686
445651.52930267;5696553.76050003;469.56894996;24415.000000;1.000000;1.000000;1.000000;1.000000;0.069500;-0.069500;0.069500;1.000000;0.388235;0.376471;0.321569
445651.56350143;5696553.79939850;469.56624987;27499.000000;1.000000;1.000000;1.000000;1.000000;-0.030614;0.030614;-0.030614;1.000000;0.435294;0.419608;0.380392
445651.56229980;5696553.83689888;469.56664993;20817.000000;1.000000;1.000000;1.000000;1.000000;-0.002075;0.002075;-0.002075;1.000000;0.341176;0.317647;0.282353
445651.50290115;5696553.73239906;469.57904984;26985.000000;1.000000;1.000000;1.000000;1.000000;0.097601;-0.097601;0.097601;1.000000;0.415686;0.419608;0.368627
445651.62660034;5696553.79379852;469.55504992;33153.000000;1.000000;1.000000;1.000000;1.000000;0.071990;-0.071990;0.071990;1.000000;0.517647;0.509804;0.462745
445651.59230240;5696553.75479897;469.56005003;45232.000000;1.000000;1.000000;1.000000;1.000000;0.080219;-0.080219;0.080219;1.000000;0.721569;0.682353;0.647059
445651.61750229;5696553.82029922;469.55264999;21074.000000;1.000000;1.000000;1.000000;1.000000;0.054006;-0.054006;0.054006;1.000000;0.337255;0.32549;0.290196
445651.50590332;5696553.81619843;469.58254983;30840.000000;1.000000;1.000000;1.000000;1.000000;0.013802;-0.013802;0.013802;1.000000;0.482353;0.470588;0.447059
445651.38030060;5696553.71819885;469.57104995;26728.000000;1.000000;1.000000;1.000000;1.000000;0.111801;-0.111801;0.111801;1.000000;0.45098;0.403922;0.321569
445651.41790207;5696553.71940048;469.57044985;30069.000000;1.000000;1.000000;1.000000;1.000000;0.110652;-0.110652;0.110652;1.000000;0.513725;0.462745;0.313725
445651.57140167;5696553.80809982;469.56445004;17733.000000;1.000000;1.000000;1.000000;1.000000;0.023000;-0.023000;0.023000;1.000000;0.294118;0.270588;0.231373
445651.57020004;5696553.84549912;469.56484987;24929.000000;1.000000;1.000000;1.000000;1.000000;0.005825;-0.005825;0.005825;1.000000;0.403922;0.376471;0.341176
445651.47179993;5696553.77729996;469.58285000;45489.000000;1.000000;1.000000;1.000000;1.000000;0.052700;-0.052700;0.052700;1.000000;0.705882;0.701961;0.647059
445651.39540298;5696553.81009872;469.58215000;30583.000000;1.000000;1.000000;1.000000;1.000000;0.019901;-0.019901;0.019901;1.000000;0.482353;0.470588;0.423529
445651.47039993;5696553.81469925;469.58784987;56540.000000;1.000000;1.000000;1.000000;1.000000;0.015301;-0.015301;0.015301;1.000000;0.866667;0.866667;0.839216
445651.61660202;5696553.81109818;469.55254986;22873.000000;1.000000;1.000000;1.000000;1.000000;0.055542;-0.055542;0.055542;1.000000;0.368627;0.34902;0.301961
445651.50590332;5696553.84409912;469.58754994;41377.000000;1.000000;1.000000;1.000000;1.000000;-0.014099;0.014099;-0.014099;1.000000;0.647059;0.631373;0.607843
445651.65419968;5696553.84020050;469.55684998;29041.000000;1.000000;1.000000;1.000000;1.000000;0.089825;-0.089825;0.089825;1.000000;0.454902;0.447059;0.407843
445651.38680084;5696553.76429947;469.57414987;20303.000000;1.000000;1.000000;1.000000;1.000000;0.065701;-0.065701;0.065701;1.000000;0.345098;0.313725;0.219608
445651.43200119;5696553.85109909;469.58194997;45489.000000;1.000000;1.000000;1.000000;1.000000;-0.022350;0.022350;-0.022350;1.000000;0.701961;0.701961;0.662745
445651.47300156;5696553.73979958;469.58244993;33153.000000;1.000000;1.000000;1.000000;1.000000;0.090200;-0.090200;0.090200;1.000000;0.521569;0.513725;0.431373
445651.52560242;5696553.79809959;469.57384994;31354.000000;1.000000;1.000000;1.000000;1.000000;0.031900;-0.031900;0.031900;1.000000;0.494118;0.482353;0.439216
445651.52420242;5696553.83559998;469.57894995;22873.000000;1.000000;1.000000;1.000000;1.000000;-0.005600;0.005600;-0.005600;1.000000;0.368627;0.345098;0.317647
445651.43309982;5696553.81359871;469.58384993;32382.000000;1.000000;1.000000;1.000000;1.000000;0.017561;-0.017561;0.017561;1.000000;0.517647;0.498039;0.435294
445651.47200211;5696553.80529984;469.58554985;58339.000000;1.000000;1.000000;1.000000;1.000000;0.024700;-0.024700;0.024700;1.000000;0.894118;0.894118;0.862745
445651.39340027;5696553.83829887;469.58235003;29298.000000;1.000000;1.000000;1.000000;1.000000;-0.008299;0.008299;-0.008299;1.000000;0.454902;0.45098;0.411765
445651.60750015;5696553.83989914;469.55474998;26728.000000;1.000000;1.000000;1.000000;1.000000;0.043125;-0.043125;0.043125;1.000000;0.423529;0.407843;0.380392
445651.52490051;5696553.81690033;469.57634999;43176.000000;1.000000;1.000000;1.000000;1.000000;0.013100;-0.013100;0.013100;1.000000;0.67451;0.662745;0.623529
445651.61810120;5696553.80159958;469.55244996;17733.000000;1.000000;1.000000;1.000000;1.000000;0.060771;-0.060771;0.060771;1.000000;0.286275;0.27451;0.227451
445651.51810272;5696553.76840027;469.57554986;27756.000000;1.000000;1.000000;1.000000;1.000000;0.061600;-0.061600;0.061600;1.000000;0.439216;0.427451;0.380392
445651.50520142;5696553.83489807;469.58504989;37522.000000;1.000000;1.000000;1.000000;1.000000;-0.004898;0.004898;-0.004898;1.000000;0.592157;0.572549;0.552941
445651.51700027;5696553.80819901;469.57824995;31354.000000;1.000000;1.000000;1.000000;1.000000;0.021801;-0.021801;0.021801;1.000000;0.494118;0.478431;0.439216
445651.62110336;5696553.76149948;469.55674984;26214.000000;1.000000;1.000000;1.000000;1.000000;0.088941;-0.088941;0.088941;1.000000;0.431373;0.392157;0.368627
445651.62220200;5696553.72399910;469.55874993;33924.000000;1.000000;1.000000;1.000000;1.000000;0.120748;-0.120748;0.120748;1.000000;0.545098;0.513725;0.490196
445650.74380310;5696554.01689919;469.63434984;17476.000000;1.000000;1.000000;1.000000;1.000000;0.102394;-0.102394;0.102394;1.000000;0.254902;0.282353;0.239216
445650.30850037;5696554.37899979;469.67015006;34181.000000;1.000000;1.000000;1.000000;1.000000;-0.199486;0.199486;-0.199486;1.000000;0.541176;0.529412;0.458824
445650.75590332;5696553.94339951;469.62934997;15163.000000;1.000000;1.000000;1.000000;1.000000;0.123178;-0.123178;0.123178;1.000000;0.227451;0.235294;0.227451
445650.31940277;5696554.37100037;469.67054989;27499.000000;1.000000;1.000000;1.000000;1.000000;-0.187022;0.187022;-0.187022;1.000000;0.439216;0.427451;0.352941
445650.67310150;5696554.16119965;469.63514997;40606.000000;1.000000;1.000000;1.000000;1.000000;-0.168800;0.168800;-0.168800;1.000000;0.670588;0.615686;0.509804
445650.65960129;5696554.24639900;469.64485003;37522.000000;1.000000;1.000000;1.000000;1.000000;0.083601;-0.083601;0.083601;1.000000;0.576471;0.6;0.419608
445650.65710266;5696554.31909950;469.64334991;19018.000000;1.000000;1.000000;1.000000;1.000000;-0.010900;0.010900;-0.010900;1.000000;0.305882;0.305882;0.164706
445650.40260132;5696554.38209923;469.66284992;23901.000000;1.000000;1.000000;1.000000;1.000000;-0.112114;0.112114;-0.112114;1.000000;0.372549;0.376471;0.305882
445650.47810181;5696554.38679894;469.65695002;49087.000000;1.000000;1.000000;1.000000;1.000000;-0.061573;0.061573;-0.061573;1.000000;0.764706;0.756863;0.682353
445650.54950150;5696554.42689903;469.66065003;40092.000000;1.000000;1.000000;1.000000;1.000000;0.096899;-0.096899;0.096899;1.000000;0.627451;0.619608;0.54902
445650.73480042;5696554.04349907;469.62955000;14906.000000;1.000000;1.000000;1.000000;1.000000;0.110825;-0.110825;0.110825;1.000000;0.219608;0.243137;0.196078
445650.75910004;5696554.10879906;469.64074995;26471.000000;1.000000;1.000000;1.000000;1.000000;0.086525;-0.086525;0.086525;1.000000;0.403922;0.415686;0.364706
445650.75790222;5696554.14620026;469.64115002;29298.000000;1.000000;1.000000;1.000000;1.000000;0.087723;-0.087723;0.087723;1.000000;0.45098;0.454902;0.407843
445650.57810028;5696554.43579872;469.66674997;17476.000000;1.000000;1.000000;1.000000;1.000000;0.105799;-0.105799;0.105799;1.000000;0.27451;0.27451;0.203922
445650.60530289;5696554.21409805;469.64205005;30326.000000;1.000000;1.000000;1.000000;1.000000;0.115902;-0.115902;0.115902;1.000000;0.47451;0.486275;0.337255
445650.60410126;5696554.25160034;469.64244987;33410.000000;1.000000;1.000000;1.000000;1.000000;0.078400;-0.078400;0.078400;1.000000;0.509804;0.541176;0.352941
445650.67690094;5696554.25649841;469.64575006;36237.000000;1.000000;1.000000;1.000000;1.000000;-0.073502;0.073502;-0.073502;1.000000;0.552941;0.580392;0.407843
445650.56500061;5696554.28549774;469.64575006;29041.000000;1.000000;1.000000;1.000000;1.000000;0.044502;-0.044502;0.044502;1.000000;0.443137;0.466667;0.333333
445650.46980103;5696554.32219894;469.65584995;21588.000000;1.000000;1.000000;1.000000;1.000000;0.033009;-0.033009;0.033009;1.000000;0.364706;0.329412;0.254902
445650.60290344;5696554.28909882;469.64284994;39064.000000;1.000000;1.000000;1.000000;1.000000;0.040901;-0.040901;0.040901;1.000000;0.603922;0.623529;0.447059
445650.52520187;5696554.35929878;469.64485003;22616.000000;1.000000;1.000000;1.000000;1.000000;0.029299;-0.029299;0.029299;1.000000;0.345098;0.364706;0.243137
445650.71070297;5696554.36779984;469.64395000;32382.000000;1.000000;1.000000;1.000000;1.000000;0.037800;-0.037800;0.037800;1.000000;0.494118;0.509804;0.411765
445650.67210205;5696554.40410049;469.64264991;33924.000000;1.000000;1.000000;1.000000;1.000000;0.074100;-0.074100;0.074100;1.000000;0.529412;0.54902;0.345098
445650.77710159;5696554.10009964;469.63914992;17990.000000;1.000000;1.000000;1.000000;1.000000;0.068523;-0.068523;0.068523;1.000000;0.270588;0.286275;0.235294
445650.77580078;5696554.13759811;469.64185001;40863.000000;1.000000;1.000000;1.000000;1.000000;0.069824;-0.069824;0.069824;1.000000;0.627451;0.635294;0.584314
445650.74310120;5696553.96079834;469.63824989;1028.000000;1.000000;1.000000;1.000000;1.000000;0.122378;-0.122378;0.122378;1.000000;0.0117647;0.0235294;0.0156863
445650.66069992;5696554.20659836;469.64214994;41377.000000;1.000000;1.000000;1.000000;1.000000;0.123402;-0.123402;0.123402;1.000000;0.647059;0.65098;0.498039
445650.58670242;5696554.24149902;469.64384987;43433.000000;1.000000;1.000000;1.000000;1.000000;-0.088501;0.088501;-0.088501;1.000000;0.666667;0.686275;0.54902
445650.62080200;5696554.28039940;469.64124991;32125.000000;1.000000;1.000000;1.000000;1.000000;-0.049601;0.049601;-0.049601;1.000000;0.494118;0.52549;0.309804
445650.58300217;5696554.27689941;469.64415004;38550.000000;1.000000;1.000000;1.000000;1.000000;-0.053101;0.053101;-0.053101;1.000000;0.588235;0.615686;0.454902
445650.58200272;5696554.31669815;469.64454987;33410.000000;1.000000;1.000000;1.000000;1.000000;-0.013302;0.013302;-0.013302;1.000000;0.513725;0.537255;0.376471
445650.54450043;5696554.31550034;469.64514997;37265.000000;1.000000;1.000000;1.000000;1.000000;0.014500;-0.014500;0.014500;1.000000;0.564706;0.592157;0.462745
445650.80870255;5696554.47519882;469.66365005;28013.000000;1.000000;1.000000;1.000000;1.000000;0.085691;-0.085691;0.085691;1.000000;0.435294;0.435294;0.380392
445650.67100342;5696554.44159897;469.64074995;48830.000000;1.000000;1.000000;1.000000;1.000000;0.111599;-0.111599;0.111599;1.000000;0.74902;0.768627;0.611765
445650.77680023;5696554.14689835;469.63964989;29298.000000;1.000000;1.000000;1.000000;1.000000;0.068825;-0.068825;0.068825;1.000000;0.45098;0.454902;0.403922
445650.66170319;5696554.21819885;469.64234998;42148.000000;1.000000;1.000000;1.000000;1.000000;0.111801;-0.111801;0.111801;1.000000;0.647059;0.666667;0.513725
445650.71560104;5696554.24809845;469.64975001;30326.000000;1.000000;1.000000;1.000000;1.000000;-0.081902;0.081902;-0.081902;1.000000;0.466667;0.486275;0.352941
445650.45110138;5696554.34729965;469.65524985;25186.000000;1.000000;1.000000;1.000000;1.000000;-0.053640;0.053640;-0.053640;1.000000;0.419608;0.384314;0.313725
445650.52309998;5696554.38979919;469.64975001;25957.000000;1.000000;1.000000;1.000000;1.000000;0.059799;-0.059799;0.059799;1.000000;0.407843;0.407843;0.309804
445650.31880005;5696554.38970001;469.67074992;29812.000000;1.000000;1.000000;1.000000;1.000000;-0.192563;0.192563;-0.192563;1.000000;0.462745;0.466667;0.403922
445650.57970245;5696554.40069778;469.66174986;33667.000000;1.000000;1.000000;1.000000;1.000000;0.070698;-0.070698;0.070698;1.000000;0.52549;0.529412;0.423529
445650.58520325;5696554.25099953;469.64395000;39321.000000;1.000000;1.000000;1.000000;1.000000;-0.079000;0.079000;-0.079000;1.000000;0.603922;0.623529;0.478431
445650.72980316;5696554.32169922;469.64424994;11822.000000;1.000000;1.000000;1.000000;1.000000;-0.008884;0.008884;-0.008884;1.000000;0.180392;0.2;0.109804
445650.39660080;5696554.31719788;469.66174986;38550.000000;1.000000;1.000000;1.000000;1.000000;0.106050;-0.106050;0.106050;1.000000;0.607843;0.588235;0.541176
445650.54940231;5696554.17469986;469.65765001;28270.000000;1.000000;1.000000;1.000000;1.000000;-0.155300;0.155300;-0.155300;1.000000;0.443137;0.443137;0.364706
445650.69690140;5696554.24749954;469.64894988;32382.000000;1.000000;1.000000;1.000000;1.000000;0.082500;-0.082500;0.082500;1.000000;0.501961;0.517647;0.368627
445650.80470093;5696554.32399948;469.64774992;14906.000000;1.000000;1.000000;1.000000;1.000000;-0.006001;0.006001;-0.006001;1.000000;0.227451;0.247059;0.156863
445650.65800293;5696554.25359924;469.64255001;38807.000000;1.000000;1.000000;1.000000;1.000000;-0.076401;0.076401;-0.076401;1.000000;0.596078;0.623529;0.443137
445650.62170227;5696554.28969772;469.64135005;37522.000000;1.000000;1.000000;1.000000;1.000000;-0.040302;0.040302;-0.040302;1.000000;0.584314;0.603922;0.4
445650.65670212;5696554.29099854;469.64524986;39578.000000;1.000000;1.000000;1.000000;1.000000;-0.039001;0.039001;-0.039001;1.000000;0.603922;0.631373;0.466667
445650.58300217;5696554.32599838;469.64234998;32382.000000;1.000000;1.000000;1.000000;1.000000;-0.004002;0.004002;-0.004002;1.000000;0.498039;0.517647;0.368627
445650.54510315;5696554.32239922;469.64524986;36237.000000;1.000000;1.000000;1.000000;1.000000;0.007601;-0.007601;0.007601;1.000000;0.552941;0.576471;0.45098
445650.73080261;5696554.33320053;469.64444997;16191.000000;1.000000;1.000000;1.000000;1.000000;0.003865;-0.003865;0.003865;1.000000;0.247059;0.258824;0.184314
445650.77290161;5696554.02589996;469.63104989;48316.000000;1.000000;1.000000;1.000000;1.000000;0.072748;-0.072748;0.072748;1.000000;0.729412;0.752941;0.701961
445650.73180206;5696554.06239899;469.63194992;37265.000000;1.000000;1.000000;1.000000;1.000000;0.113823;-0.113823;0.113823;1.000000;0.556863;0.584314;0.537255
445650.77150162;5696554.06329926;469.63614990;34952.000000;1.000000;1.000000;1.000000;1.000000;0.074123;-0.074123;0.074123;1.000000;0.529412;0.54902;0.494118
445650.60760315;5696554.36339958;469.63925006;46774.000000;1.000000;1.000000;1.000000;1.000000;-0.033400;0.033400;-0.033400;1.000000;0.717647;0.729412;0.635294
445650.68250092;5696554.36579903;469.64264991;41120.000000;1.000000;1.000000;1.000000;1.000000;0.035799;-0.035799;0.035799;1.000000;0.631373;0.643137;0.54902
445650.60890015;5696554.32599838;469.63654997;32125.000000;1.000000;1.000000;1.000000;1.000000;-0.004002;0.004002;-0.004002;1.000000;0.501961;0.513725;0.345098
445650.64630325;5696554.32709892;469.64054992;23130.000000;1.000000;1.000000;1.000000;1.000000;-0.002901;0.002901;-0.002901;1.000000;0.368627;0.368627;0.247059
445650.61359985;5696554.25309952;469.64054992;32125.000000;1.000000;1.000000;1.000000;1.000000;-0.076900;0.076900;-0.076900;1.000000;0.494118;0.521569;0.329412
445650.39800079;5696554.28209885;469.66144993;39835.000000;1.000000;1.000000;1.000000;1.000000;0.114387;-0.114387;0.114387;1.000000;0.623529;0.611765;0.560784
445650.65279968;5696554.17009933;469.63664987;26728.000000;1.000000;1.000000;1.000000;1.000000;-0.159901;0.159901;-0.159901;1.000000;0.458824;0.411765;0.270588
445650.39420135;5696554.39219864;469.66254999;23387.000000;1.000000;1.000000;1.000000;1.000000;-0.124347;0.124347;-0.124347;1.000000;0.364706;0.368627;0.305882
445650.39070328;5696554.42989929;469.66284992;32382.000000;1.000000;1.000000;1.000000;1.000000;-0.149462;0.149462;-0.149462;1.000000;0.501961;0.501961;0.439216
445650.80249985;5696554.40809830;469.66254999;41634.000000;1.000000;1.000000;1.000000;1.000000;0.078098;-0.078098;0.078098;1.000000;0.639216;0.643137;0.584314
445650.50119980;5696554.43379791;469.65625002;32639.000000;1.000000;1.000000;1.000000;1.000000;-0.103800;0.103800;-0.103800;1.000000;0.509804;0.501961;0.45098
445650.72650345;5696554.44319923;469.65724995;61166.000000;1.000000;1.000000;1.000000;1.000000;0.113352;-0.113352;0.113352;1.000000;0.941176;0.945098;0.870588
445650.42720230;5696554.46629913;469.65564992;36494.000000;1.000000;1.000000;1.000000;1.000000;-0.155414;0.155414;-0.155414;1.000000;0.572549;0.560784;0.513725
445650.78270157;5696553.98060043;469.63094999;29041.000000;1.000000;1.000000;1.000000;1.000000;0.078641;-0.078641;0.078641;1.000000;0.439216;0.454902;0.419608
