//X;Y;Z;Intensity;Return Number;Number Of Returns;Scan Direction Flag;Point Source ID;C2M signed distances[-][<0.8];C2M signed distances[<0.4];C2M signed distances[-][<0.2];Stump80;Rf;Gf;Bf
300
445625.00260170;5696561.45989807;471.78554966;54998.000000;1.000000;1.000000;1.000000;1.000000;-0.129900;0.129900;-0.129900;1.000000;0.843137;0.843137;0.823529
445624.89130219;5696561.41879852;471.78235008;26985.000000;1.000000;1.000000;1.000000;1.000000;-0.088834;0.088834;-0.088834;1.000000;0.419608;0.415686;0.388235
445624.82180222;5696561.34289940;471.82025005;45489.000000;1.000000;1.000000;1.000000;1.000000;-0.012899;0.012899;-0.012899;1.000000;0.698039;0.698039;0.670588
445624.71190079;5696561.29999931;471.78214981;37522.000000;1.000000;1.000000;1.000000;1.000000;0.030001;-0.030001;0.030001;1.000000;0.576471;0.576471;0.541176
445624.89890106;5696561.30889900;471.74875023;30840.000000;1.000000;1.000000;1.000000;1.000000;0.023030;-0.023030;0.023030;1.000000;0.478431;0.470588;0.45098
445624.49540146;5696561.14089973;471.74254992;31097.000000;1.000000;1.000000;1.000000;1.000000;-0.162726;0.162726;-0.162726;1.000000;0.482353;0.478431;0.45098
445624.93970116;5696561.12359818;471.70414974;25957.000000;1.000000;1.000000;1.000000;1.000000;0.062176;-0.062176;0.062176;1.000000;0.403922;0.4;0.356863
445624.93440063;5696561.12529953;471.77384998;36494.000000;1.000000;1.000000;1.000000;1.000000;0.067477;-0.067477;0.067477;1.000000;0.545098;0.568627;0.54902
445624.93480118;5696561.08619888;471.73605015;38550.000000;1.000000;1.000000;1.000000;1.000000;0.067076;-0.067076;0.067076;1.000000;0.596078;0.592157;0.560784
445624.68420227;5696561.47699936;471.83185007;31611.000000;1.000000;1.000000;1.000000;1.000000;-0.146999;0.146999;-0.146999;1.000000;0.482353;0.486275;0.466667
445624.51840218;5696561.24589928;471.76104977;48573.000000;1.000000;1.000000;1.000000;1.000000;-0.156759;0.156759;-0.156759;1.000000;0.745098;0.745098;0.72549
445624.95220192;5696561.33949860;471.71894981;31354.000000;1.000000;1.000000;1.000000;1.000000;-0.009499;0.009499;-0.009499;1.000000;0.490196;0.478431;0.454902
445624.94160088;5696561.07789810;471.77584984;47288.000000;1.000000;1.000000;1.000000;1.000000;0.060277;-0.060277;0.060277;1.000000;0.717647;0.729412;0.713725
445624.53920181;5696561.43269928;471.79225018;44461.000000;1.000000;1.000000;1.000000;1.000000;-0.157132;0.157132;-0.157132;1.000000;0.686275;0.682353;0.658824
445624.91760071;5696561.20679863;471.74375011;23901.000000;1.000000;1.000000;1.000000;1.000000;0.084277;0.084277;-0.084277;1.000000;0.380392;0.364706;0.356863
445624.68950089;5696561.16949852;471.74924995;56283.000000;1.000000;1.000000;1.000000;1.000000;0.031374;-0.031374;0.031374;1.000000;0.862745;0.866667;0.835294
445624.63000114;5696561.47270020;471.83174994;57568.000000;1.000000;1.000000;1.000000;1.000000;-0.145446;0.145446;-0.145446;1.000000;0.878431;0.886275;0.866667
445624.94940193;5696561.18099983;471.70994999;28013.000000;1.000000;1.000000;1.000000;1.000000;0.052475;0.052475;-0.052475;1.000000;0.447059;0.431373;0.384314
445624.93860062;5696561.10669907;471.74585011;27242.000000;1.000000;1.000000;1.000000;1.000000;0.063277;-0.063277;0.063277;1.000000;0.411765;0.423529;0.392157
445624.87310226;5696561.20539864;471.79764988;35980.000000;1.000000;1.000000;1.000000;1.000000;0.124601;-0.124601;0.124601;1.000000;0.552941;0.552941;0.529412
445624.93370064;5696561.14179810;471.77164986;31354.000000;1.000000;1.000000;1.000000;1.000000;0.068177;-0.068177;0.068177;1.000000;0.47451;0.486275;0.466667
445624.92790230;5696561.48779877;471.78945019;34438.000000;1.000000;1.000000;1.000000;1.000000;-0.157799;0.157799;-0.157799;1.000000;0.533333;0.52549;0.517647
445624.77100189;5696561.16429909;471.74595024;25443.000000;1.000000;1.000000;1.000000;1.000000;0.112875;-0.112875;0.112875;1.000000;0.403922;0.388235;0.364706
445624.89180191;5696561.23169907;471.79874994;43176.000000;1.000000;1.000000;1.000000;1.000000;0.098346;-0.098346;0.098346;1.000000;0.658824;0.666667;0.639216
445624.92920120;5696561.41109856;471.75604965;13621.000000;1.000000;1.000000;1.000000;1.000000;-0.081099;0.081099;-0.081099;1.000000;0.223529;0.207843;0.176471
445624.83430107;5696561.48169907;471.83174994;44461.000000;1.000000;1.000000;1.000000;1.000000;-0.151699;0.151699;-0.151699;1.000000;0.686275;0.682353;0.666667
445624.54680069;5696561.46919830;471.80235006;51657.000000;1.000000;1.000000;1.000000;1.000000;-0.178241;0.178241;-0.178241;1.000000;0.8;0.792157;0.768627
445624.93090065;5696561.37369926;471.74394991;18761.000000;1.000000;1.000000;1.000000;1.000000;-0.043717;0.043717;-0.043717;1.000000;0.298039;0.290196;0.262745
445624.63440140;5696561.35139854;471.79325010;43947.000000;1.000000;1.000000;1.000000;1.000000;-0.031950;0.031950;-0.031950;1.000000;0.67451;0.678431;0.65098
445624.67180069;5696561.35259827;471.79495003;44204.000000;1.000000;1.000000;1.000000;1.000000;-0.022598;0.022598;-0.022598;1.000000;0.67451;0.678431;0.654902
445624.82170113;5696561.36859901;471.82284977;43947.000000;1.000000;1.000000;1.000000;1.000000;-0.038599;0.038599;-0.038599;1.000000;0.678431;0.67451;0.65098
445625.04360207;5696561.37959869;471.74445011;41891.000000;1.000000;1.000000;1.000000;1.000000;-0.064815;0.064815;-0.064815;1.000000;0.65098;0.639216;0.619608
445624.56580170;5696561.19959839;471.75334980;28013.000000;1.000000;1.000000;1.000000;1.000000;-0.095631;0.095631;-0.095631;1.000000;0.435294;0.431373;0.407843
445624.97450073;5696561.25329979;471.71894981;18761.000000;1.000000;1.000000;1.000000;1.000000;0.027377;-0.027377;0.027377;1.000000;0.294118;0.290196;0.278431
445624.88190086;5696561.50350006;471.80384972;21074.000000;1.000000;1.000000;1.000000;1.000000;-0.173500;0.173500;-0.173500;1.000000;0.333333;0.32549;0.294118
445624.60480125;5696561.41699989;471.80894997;31097.000000;1.000000;1.000000;1.000000;1.000000;-0.102042;0.102042;-0.102042;1.000000;0.482353;0.478431;0.458824
445625.01650246;5696561.35899933;471.73374989;36237.000000;1.000000;1.000000;1.000000;1.000000;-0.032479;0.032479;-0.032479;1.000000;0.564706;0.556863;0.52549
445624.90390213;5696561.21489914;471.75484993;30326.000000;1.000000;1.000000;1.000000;1.000000;0.097975;0.097975;-0.097975;1.000000;0.45098;0.470588;0.466667
445624.72550209;5696561.23819931;471.76804974;33667.000000;1.000000;1.000000;1.000000;1.000000;0.091840;-0.091840;0.091840;1.000000;0.517647;0.521569;0.482353
445624.79730232;5696561.27529915;471.80894997;28270.000000;1.000000;1.000000;1.000000;1.000000;0.054745;-0.054745;0.054745;1.000000;0.427451;0.435294;0.423529
445624.46610077;5696561.15069969;471.73665001;23644.000000;1.000000;1.000000;1.000000;1.000000;-0.192027;0.192027;-0.192027;1.000000;0.372549;0.364706;0.341176
445624.97590073;5696561.21809967;471.71855022;31868.000000;1.000000;1.000000;1.000000;1.000000;0.025977;-0.025977;0.025977;1.000000;0.490196;0.494118;0.462745
445625.02420242;5696561.17429932;471.69694998;33153.000000;1.000000;1.000000;1.000000;1.000000;-0.022325;0.022325;-0.022325;1.000000;0.52549;0.505882;0.462745
445624.69250114;5696561.12259872;471.73955013;57568.000000;1.000000;1.000000;1.000000;1.000000;0.034374;-0.034374;0.034374;1.000000;0.878431;0.886275;0.862745
445625.02710159;5696561.29500015;471.72874977;31354.000000;1.000000;1.000000;1.000000;1.000000;-0.025224;0.025224;-0.025224;1.000000;0.486275;0.478431;0.462745
445624.97350128;5696561.50669868;471.80104973;23130.000000;1.000000;1.000000;1.000000;1.000000;-0.176699;0.176699;-0.176699;1.000000;0.352941;0.356863;0.337255
445625.04620178;5696561.50929840;471.80205013;26728.000000;1.000000;1.000000;1.000000;1.000000;-0.184696;0.184696;-0.184696;1.000000;0.415686;0.411765;0.384314
445624.78780182;5696561.46259888;471.83645012;28784.000000;1.000000;1.000000;1.000000;1.000000;-0.132599;0.132599;-0.132599;1.000000;0.45098;0.439216;0.407843
445624.71770103;5696561.34589966;471.80154993;38550.000000;1.000000;1.000000;1.000000;1.000000;-0.015900;0.015900;-0.015900;1.000000;0.596078;0.592157;0.560784
445624.59540184;5696561.35969933;471.79384996;41891.000000;1.000000;1.000000;1.000000;1.000000;-0.069401;0.069401;-0.069401;1.000000;0.65098;0.643137;0.615686
445624.82080086;5696561.33359917;471.82235004;42148.000000;1.000000;1.000000;1.000000;1.000000;-0.003599;0.003599;-0.003599;1.000000;0.65098;0.647059;0.619608
445624.67370232;5696561.28959854;471.77794983;61423.000000;1.000000;1.000000;1.000000;1.000000;0.040401;-0.040401;0.040401;1.000000;0.941176;0.941176;0.913725
445624.96440132;5696561.47739990;471.78634979;58853.000000;1.000000;1.000000;1.000000;1.000000;-0.147440;0.147440;-0.147440;1.000000;0.901961;0.901961;0.882353
445624.89290245;5696561.43729980;471.78494980;24158.000000;1.000000;1.000000;1.000000;1.000000;-0.107379;0.107379;-0.107379;1.000000;0.380392;0.372549;0.341176
445624.89190109;5696561.40009888;471.78214981;32382.000000;1.000000;1.000000;1.000000;1.000000;-0.070168;0.070168;-0.070168;1.000000;0.501961;0.498039;0.470588
445624.82090195;5696561.35929878;471.82264997;44204.000000;1.000000;1.000000;1.000000;1.000000;-0.029299;0.029299;-0.029299;1.000000;0.682353;0.678431;0.654902
445624.71100243;5696561.31639870;471.78464987;38807.000000;1.000000;1.000000;1.000000;1.000000;0.013601;-0.013601;0.013601;1.000000;0.603922;0.596078;0.556863
445624.71260078;5696561.28129967;471.77965023;34952.000000;1.000000;1.000000;1.000000;1.000000;0.048700;-0.048700;0.048700;1.000000;0.537255;0.537255;0.501961
445624.89950188;5696561.28789909;471.74384977;27499.000000;1.000000;1.000000;1.000000;1.000000;0.042975;-0.042975;0.042975;1.000000;0.427451;0.419608;0.4
445624.56840141;5696561.12469872;471.74795010;40863.000000;1.000000;1.000000;1.000000;1.000000;-0.089726;0.089726;-0.089726;1.000000;0.627451;0.627451;0.596078
445624.71110161;5696561.29080017;471.77965023;36237.000000;1.000000;1.000000;1.000000;1.000000;0.039200;-0.039200;0.039200;1.000000;0.560784;0.556863;0.52549
445625.01920135;5696561.28409966;471.72594978;10537.000000;1.000000;1.000000;1.000000;1.000000;-0.017324;0.017324;-0.017324;1.000000;0.168627;0.164706;0.152941
445624.97340210;5696561.26509865;471.71665003;9252.000000;1.000000;1.000000;1.000000;1.000000;0.028475;-0.028475;0.028475;1.000000;0.14902;0.145098;0.133333
445624.75240143;5696561.21959885;471.75274994;21331.000000;1.000000;1.000000;1.000000;1.000000;0.104435;-0.104435;0.104435;1.000000;0.345098;0.32549;0.290196
445624.75400169;5696561.14299973;471.71464970;33410.000000;1.000000;1.000000;1.000000;1.000000;0.095874;-0.095874;0.095874;1.000000;0.52549;0.513725;0.447059
445624.56720169;5696561.16440018;471.75304987;36494.000000;1.000000;1.000000;1.000000;1.000000;-0.090926;0.090926;-0.090926;1.000000;0.560784;0.560784;0.533333
445624.85560234;5696561.37269981;471.80574991;29041.000000;1.000000;1.000000;1.000000;1.000000;-0.042700;0.042700;-0.042700;1.000000;0.454902;0.447059;0.423529
445624.94510086;5696561.11730011;471.77885010;37265.000000;1.000000;1.000000;1.000000;1.000000;0.056777;-0.056777;0.056777;1.000000;0.564706;0.576471;0.568627
445624.94170197;5696561.07789810;471.77355005;46517.000000;1.000000;1.000000;1.000000;1.000000;0.060175;-0.060175;0.060175;1.000000;0.701961;0.717647;0.698039
445624.90020187;5696561.29709824;471.74634983;34952.000000;1.000000;1.000000;1.000000;1.000000;0.033843;-0.033843;0.033843;1.000000;0.545098;0.533333;0.509804
445624.74530228;5696561.40359886;471.82684996;37265.000000;1.000000;1.000000;1.000000;1.000000;-0.073892;0.073892;-0.073892;1.000000;0.572549;0.572549;0.545098
445624.81640060;5696561.49039848;471.83104994;12079.000000;1.000000;1.000000;1.000000;1.000000;-0.160398;0.160398;-0.160398;1.000000;0.192157;0.184314;0.164706
445624.66760071;5696561.44819839;471.82844975;27242.000000;1.000000;1.000000;1.000000;1.000000;-0.118198;0.118198;-0.118198;1.000000;0.419608;0.419608;0.403922
445624.71660240;5696561.39239891;471.81834986;38036.000000;1.000000;1.000000;1.000000;1.000000;-0.062399;0.062399;-0.062399;1.000000;0.588235;0.584314;0.560784
445624.55780228;5696561.40529831;471.78805019;53713.000000;1.000000;1.000000;1.000000;1.000000;-0.125439;0.125439;-0.125439;1.000000;0.819608;0.823529;0.803922
445624.78110130;5696561.41419991;471.83325006;37522.000000;1.000000;1.000000;1.000000;1.000000;-0.084200;0.084200;-0.084200;1.000000;0.580392;0.576471;0.54902
445624.97500237;5696561.46029861;471.77495005;50115.000000;1.000000;1.000000;1.000000;1.000000;-0.130299;0.130299;-0.130299;1.000000;0.772549;0.768627;0.745098
445624.90880211;5696561.48479851;471.79094984;20303.000000;1.000000;1.000000;1.000000;1.000000;-0.154799;0.154799;-0.154799;1.000000;0.32549;0.309804;0.290196
445624.52240189;5696561.13359840;471.75064995;37265.000000;1.000000;1.000000;1.000000;1.000000;-0.135725;0.135725;-0.135725;1.000000;0.572549;0.572549;0.541176
445624.61070068;5696561.51879890;471.83605005;60138.000000;1.000000;1.000000;1.000000;1.000000;-0.194665;0.194665;-0.194665;1.000000;0.917647;0.92549;0.909804
445624.65040215;5696561.43820007;471.82525017;42919.000000;1.000000;1.000000;1.000000;1.000000;-0.108476;0.108476;-0.108476;1.000000;0.658824;0.658824;0.643137
445624.64810188;5696561.26169975;471.76944973;42148.000000;1.000000;1.000000;1.000000;1.000000;0.069032;-0.069032;0.069032;1.000000;0.647059;0.647059;0.623529
445624.97500237;5696561.46249969;471.77965023;53199.000000;1.000000;1.000000;1.000000;1.000000;-0.132500;0.132500;-0.132500;1.000000;0.815686;0.815686;0.803922
445624.67880066;5696561.41229828;471.81694986;33410.000000;1.000000;1.000000;1.000000;1.000000;-0.082298;0.082298;-0.082298;1.000000;0.513725;0.517647;0.490196
445624.72270210;5696561.43839844;471.83085014;32382.000000;1.000000;1.000000;1.000000;1.000000;-0.108398;0.108398;-0.108398;1.000000;0.498039;0.501961;0.47451
445624.56840141;5696561.36699875;471.78574993;33153.000000;1.000000;1.000000;1.000000;1.000000;-0.097055;0.097055;-0.097055;1.000000;0.513725;0.509804;0.486275
445624.75770195;5696561.10539825;471.70965006;36494.000000;1.000000;1.000000;1.000000;1.000000;0.099575;-0.099575;0.099575;1.000000;0.576471;0.560784;0.509804
445624.93600090;5696561.11439903;471.71554996;15677.000000;1.000000;1.000000;1.000000;1.000000;0.065876;-0.065876;0.065876;1.000000;0.239216;0.247059;0.211765
445624.61150177;5696561.47209938;471.82625010;54741.000000;1.000000;1.000000;1.000000;1.000000;-0.149553;0.149553;-0.149553;1.000000;0.835294;0.839216;0.819608
445624.96740158;5696561.07709892;471.82595016;51657.000000;1.000000;1.000000;1.000000;1.000000;0.034476;-0.034476;0.034476;1.000000;0.784314;0.792157;0.784314
445624.53780182;5696561.22550018;471.75474979;48316.000000;1.000000;1.000000;1.000000;1.000000;-0.130608;0.130608;-0.130608;1.000000;0.741176;0.741176;0.72549
445624.94660194;5696561.48829849;471.79034998;53713.000000;1.000000;1.000000;1.000000;1.000000;-0.158298;0.158298;-0.158298;1.000000;0.823529;0.823529;0.807843
445624.65810211;5696561.47469910;471.83535006;24929.000000;1.000000;1.000000;1.000000;1.000000;-0.144699;0.144699;-0.144699;1.000000;0.380392;0.388235;0.372549
445624.86380203;5696561.46299942;471.81185009;29812.000000;1.000000;1.000000;1.000000;1.000000;-0.132999;0.132999;-0.132999;1.000000;0.458824;0.458824;0.431373
445624.90210159;5696561.42969902;471.77364971;18761.000000;1.000000;1.000000;1.000000;1.000000;-0.099881;0.099881;-0.099881;1.000000;0.298039;0.290196;0.262745
445625.01230247;5696561.43349846;471.77404978;52171.000000;1.000000;1.000000;1.000000;1.000000;-0.104022;0.104022;-0.104022;1.000000;0.803922;0.8;0.776471
445624.57090195;5696561.33889969;471.77384998;34181.000000;1.000000;1.000000;1.000000;1.000000;-0.087678;0.087678;-0.087678;1.000000;0.52549;0.52549;0.505882
445624.75730141;5696561.34910019;471.81034996;45232.000000;1.000000;1.000000;1.000000;1.000000;-0.019100;0.019100;-0.019100;1.000000;0.705882;0.694118;0.658824
445624.57260139;5696561.30379875;471.76884987;22359.000000;1.000000;1.000000;1.000000;1.000000;0.089449;-0.089449;0.089449;1.000000;0.345098;0.345098;0.313725
445624.60950096;5696561.30259903;471.77755024;33924.000000;1.000000;1.000000;1.000000;1.000000;0.055815;-0.055815;0.055815;1.000000;0.52549;0.521569;0.490196
445624.68400200;5696561.27239807;471.77355005;49601.000000;1.000000;1.000000;1.000000;1.000000;0.057602;-0.057602;0.057602;1.000000;0.760784;0.760784;0.729412
445624.49570091;5696561.16889961;471.74055006;26214.000000;1.000000;1.000000;1.000000;1.000000;-0.162426;0.162426;-0.162426;1.000000;0.407843;0.403922;0.380392
445624.69560249;5696561.47589882;471.83474972;35466.000000;1.000000;1.000000;1.000000;1.000000;-0.145899;0.145899;-0.145899;1.000000;0.54902;0.545098;0.521569
445624.80590065;5696561.47959908;471.83505013;15677.000000;1.000000;1.000000;1.000000;1.000000;-0.149839;0.149839;-0.149839;1.000000;0.254902;0.239216;0.215686
445624.76830109;5696561.47849854;471.83575012;23387.000000;1.000000;1.000000;1.000000;1.000000;-0.148499;0.148499;-0.148499;1.000000;0.368627;0.360784;0.337255
445624.73460205;5696561.44189842;471.83374979;25957.000000;1.000000;1.000000;1.000000;1.000000;-0.112493;0.112493;-0.112493;1.000000;0.4;0.4;0.368627
445624.77180107;5696561.44079979;471.83544971;25186.000000;1.000000;1.000000;1.000000;1.000000;-0.110800;0.110800;-0.110800;1.000000;0.392157;0.388235;0.352941
445624.87930115;5696561.44769867;471.79845001;30069.000000;1.000000;1.000000;1.000000;1.000000;-0.117699;0.117699;-0.117699;1.000000;0.466667;0.462745;0.435294
445624.92060097;5696561.44909866;471.76534988;20046.000000;1.000000;1.000000;1.000000;1.000000;-0.119099;0.119099;-0.119099;1.000000;0.321569;0.305882;0.27451
445624.95600136;5696561.45049866;471.76235010;30326.000000;1.000000;1.000000;1.000000;1.000000;-0.120499;0.120499;-0.120499;1.000000;0.470588;0.462745;0.443137
445624.66090210;5696561.36289986;471.79925014;56283.000000;1.000000;1.000000;1.000000;1.000000;-0.032900;0.032900;-0.032900;1.000000;0.858824;0.862745;0.843137
445624.70070084;5696561.36379822;471.80104973;41377.000000;1.000000;1.000000;1.000000;1.000000;-0.033798;0.033798;-0.033798;1.000000;0.635294;0.635294;0.603922
445624.55450066;5696561.28449829;471.76555016;38036.000000;1.000000;1.000000;1.000000;1.000000;0.113176;-0.113176;0.113176;1.000000;0.580392;0.588235;0.568627
445624.88780220;5696561.29799850;471.76445009;31354.000000;1.000000;1.000000;1.000000;1.000000;0.032001;-0.032001;0.032001;1.000000;0.486275;0.478431;0.458824
445625.00000198;5696561.30229958;471.72295000;8738.000000;1.000000;1.000000;1.000000;1.000000;0.001875;-0.001875;0.001875;1.000000;0.141176;0.133333;0.121569
445624.93900116;5696561.38469894;471.74214985;14649.000000;1.000000;1.000000;1.000000;1.000000;-0.054700;0.054700;-0.054700;1.000000;0.239216;0.223529;0.2
445624.84450157;5696561.46449860;471.82735016;40092.000000;1.000000;1.000000;1.000000;1.000000;-0.134503;0.134503;-0.134503;1.000000;0.619608;0.615686;0.588235
445624.80800064;5696561.42579849;471.83225014;26985.000000;1.000000;1.000000;1.000000;1.000000;-0.096010;0.096010;-0.096010;1.000000;0.423529;0.415686;0.388235
445624.47800072;5696561.33609970;471.75565006;38293.000000;1.000000;1.000000;1.000000;1.000000;-0.180230;0.180230;-0.180230;1.000000;0.596078;0.588235;0.564706
445624.95040138;5696561.10649879;471.69045021;15163.000000;1.000000;1.000000;1.000000;1.000000;0.051476;-0.051476;0.051476;1.000000;0.262745;0.231373;0.176471
445624.91770180;5696561.25359924;471.73495008;16448.000000;1.000000;1.000000;1.000000;1.000000;0.076401;-0.076401;0.076401;1.000000;0.262745;0.25098;0.235294
445624.80920227;5696561.21169861;471.77384998;38036.000000;1.000000;1.000000;1.000000;1.000000;0.118415;-0.118415;0.118415;1.000000;0.588235;0.584314;0.560784
445624.99670227;5696561.18149956;471.70044996;34438.000000;1.000000;1.000000;1.000000;1.000000;0.005175;-0.005175;0.005175;1.000000;0.545098;0.529412;0.482353
445624.94100197;5696561.11409958;471.70645000;12850.000000;1.000000;1.000000;1.000000;1.000000;0.060875;-0.060875;0.060875;1.000000;0.2;0.203922;0.172549
445624.95830162;5696561.07959946;471.71845009;32896.000000;1.000000;1.000000;1.000000;1.000000;0.043576;-0.043576;0.043576;1.000000;0.501961;0.509804;0.470588
445624.85370071;5696561.51039894;471.82364990;30583.000000;1.000000;1.000000;1.000000;1.000000;-0.180399;0.180399;-0.180399;1.000000;0.47451;0.470588;0.447059
445624.63090141;5696561.42609985;471.81955006;62194.000000;1.000000;1.000000;1.000000;1.000000;-0.099882;0.099882;-0.099882;1.000000;0.94902;0.956863;0.937255
445624.55850227;5696561.38659866;471.78554966;51143.000000;1.000000;1.000000;1.000000;1.000000;-0.114580;0.114580;-0.114580;1.000000;0.784314;0.784314;0.760784
445624.85390099;5696561.43579872;471.81815006;34695.000000;1.000000;1.000000;1.000000;1.000000;-0.105799;0.105799;-0.105799;1.000000;0.537255;0.533333;0.501961
445624.78390129;5696561.36049850;471.81635000;38036.000000;1.000000;1.000000;1.000000;1.000000;-0.030499;0.030499;-0.030499;1.000000;0.588235;0.584314;0.552941
445624.78870209;5696561.24619873;471.78265001;38550.000000;1.000000;1.000000;1.000000;1.000000;0.083801;-0.083801;0.083801;1.000000;0.603922;0.592157;0.552941
445624.82480247;5696561.24919899;471.81924965;35209.000000;1.000000;1.000000;1.000000;1.000000;0.080801;-0.080801;0.080801;1.000000;0.541176;0.541176;0.533333
445624.90220078;5696561.21449860;471.79204990;31611.000000;1.000000;1.000000;1.000000;1.000000;0.099677;0.099677;-0.099677;1.000000;0.490196;0.486275;0.47451
445624.70120247;5696561.14049919;471.74014999;47288.000000;1.000000;1.000000;1.000000;1.000000;0.043075;-0.043075;0.043075;1.000000;0.717647;0.729412;0.694118
445624.53350075;5696561.12559898;471.74634983;40606.000000;1.000000;1.000000;1.000000;1.000000;-0.124627;0.124627;-0.124627;1.000000;0.627451;0.623529;0.596078
445624.94150169;5696561.38449867;471.73764994;13107.000000;1.000000;1.000000;1.000000;1.000000;-0.054499;0.054499;-0.054499;1.000000;0.215686;0.2;0.176471
445625.01560219;5696561.34969910;471.73355009;37522.000000;1.000000;1.000000;1.000000;1.000000;-0.024009;0.024009;-0.024009;1.000000;0.584314;0.572549;0.545098
445624.79890068;5696561.26809891;471.80894997;26985.000000;1.000000;1.000000;1.000000;1.000000;0.062018;-0.062018;0.062018;1.000000;0.407843;0.415686;0.403922
445624.96210106;5696561.31989868;471.71684982;14135.000000;1.000000;1.000000;1.000000;1.000000;0.010176;-0.010176;0.010176;1.000000;0.235294;0.215686;0.192157
445624.46760185;5696561.14119919;471.73654987;31354.000000;1.000000;1.000000;1.000000;1.000000;-0.190526;0.190526;-0.190526;1.000000;0.490196;0.482353;0.454902
445624.69180115;5696561.11339958;471.73705008;57568.000000;1.000000;1.000000;1.000000;1.000000;0.033674;-0.033674;0.033674;1.000000;0.878431;0.886275;0.862745
445624.90920074;5696561.20709808;471.77594997;27756.000000;1.000000;1.000000;1.000000;1.000000;0.092677;0.092677;-0.092677;1.000000;0.423529;0.427451;0.419608
445624.89870079;5696561.24309929;471.77355005;14649.000000;1.000000;1.000000;1.000000;1.000000;0.087410;-0.087410;0.087410;1.000000;0.227451;0.227451;0.215686
445624.91260155;5696561.09229858;471.77474977;18761.000000;1.000000;1.000000;1.000000;1.000000;0.089276;-0.089276;0.089276;1.000000;0.294118;0.286275;0.270588
445624.95350082;5696561.15929993;471.73084976;40863.000000;1.000000;1.000000;1.000000;1.000000;0.048377;-0.048377;0.048377;1.000000;0.635294;0.623529;0.596078
445624.97420128;5696561.48569878;471.79384996;51657.000000;1.000000;1.000000;1.000000;1.000000;-0.155699;0.155699;-0.155699;1.000000;0.788235;0.796078;0.776471
445624.86040123;5696561.29759987;471.80275013;34695.000000;1.000000;1.000000;1.000000;1.000000;0.032400;-0.032400;0.032400;1.000000;0.533333;0.533333;0.517647
445624.96320160;5696561.52389915;471.80774977;16448.000000;1.000000;1.000000;1.000000;1.000000;-0.193912;0.193912;-0.193912;1.000000;0.247059;0.258824;0.243137
445624.88050087;5696561.26069839;471.79864981;38807.000000;1.000000;1.000000;1.000000;1.000000;0.069302;-0.069302;0.069302;1.000000;0.6;0.596078;0.584314
445624.92510231;5696561.11179932;471.79654982;38550.000000;1.000000;1.000000;1.000000;1.000000;0.076775;-0.076775;0.076775;1.000000;0.588235;0.592157;0.588235
445624.54390152;5696561.48810013;471.80235006;51914.000000;1.000000;1.000000;1.000000;1.000000;-0.195047;0.195047;-0.195047;1.000000;0.8;0.792157;0.772549
445624.80320175;5696561.52659996;471.83554985;30583.000000;1.000000;1.000000;1.000000;1.000000;-0.196764;0.196764;-0.196764;1.000000;0.478431;0.470588;0.447059
445624.56870087;5696561.39729889;471.78844978;39064.000000;1.000000;1.000000;1.000000;1.000000;-0.111921;0.111921;-0.111921;1.000000;0.6;0.6;0.576471
445624.75230225;5696561.40299995;471.82714989;36237.000000;1.000000;1.000000;1.000000;1.000000;-0.073000;0.073000;-0.073000;1.000000;0.556863;0.556863;0.529412
445624.97860153;5696561.41349991;471.75365021;34952.000000;1.000000;1.000000;1.000000;1.000000;-0.083500;0.083500;-0.083500;1.000000;0.545098;0.533333;0.517647
445624.88190086;5696561.25119980;471.80084993;39064.000000;1.000000;1.000000;1.000000;1.000000;0.078800;-0.078800;0.078800;1.000000;0.603922;0.6;0.588235
445624.82750137;5696561.40769966;471.82824995;41634.000000;1.000000;1.000000;1.000000;1.000000;-0.077700;0.077700;-0.077700;1.000000;0.639216;0.639216;0.611765
445624.98370178;5696561.48719986;471.79435017;42405.000000;1.000000;1.000000;1.000000;1.000000;-0.157200;0.157200;-0.157200;1.000000;0.647059;0.65098;0.631373
445624.95120247;5696561.11579903;471.69065001;19789.000000;1.000000;1.000000;1.000000;1.000000;0.050675;-0.050675;0.050675;1.000000;0.321569;0.305882;0.254902
445624.86520203;5696561.37189873;471.79925014;24672.000000;1.000000;1.000000;1.000000;1.000000;-0.041899;0.041899;-0.041899;1.000000;0.388235;0.376471;0.352941
445624.89240082;5696561.15709885;471.78624966;21074.000000;1.000000;1.000000;1.000000;1.000000;0.109477;-0.109477;0.109477;1.000000;0.341176;0.32549;0.278431
445624.80810173;5696561.45369919;471.83484985;18504.000000;1.000000;1.000000;1.000000;1.000000;-0.123858;0.123858;-0.123858;1.000000;0.298039;0.286275;0.25098
445624.62420090;5696561.37089928;471.79995014;38550.000000;1.000000;1.000000;1.000000;1.000000;-0.053139;0.053139;-0.053139;1.000000;0.592157;0.592157;0.560784
445624.57790192;5696561.39639862;471.79115011;29041.000000;1.000000;1.000000;1.000000;1.000000;-0.104139;0.104139;-0.104139;1.000000;0.45098;0.447059;0.427451
445624.92550095;5696561.30909927;471.72905018;29555.000000;1.000000;1.000000;1.000000;1.000000;0.020901;-0.020901;0.020901;1.000000;0.454902;0.454902;0.427451
445625.00080116;5696561.31149872;471.72314980;12850.000000;1.000000;1.000000;1.000000;1.000000;0.001076;-0.001076;0.001076;1.000000;0.207843;0.196078;0.180392
445624.92900093;5696561.27139862;471.72874977;28527.000000;1.000000;1.000000;1.000000;1.000000;0.058601;-0.058601;0.058601;1.000000;0.443137;0.435294;0.419608
445624.74130066;5696561.22989853;471.76165010;23644.000000;1.000000;1.000000;1.000000;1.000000;0.099744;-0.099744;0.099744;1.000000;0.372549;0.364706;0.329412
445624.96550186;5696561.23530014;471.72524979;14906.000000;1.000000;1.000000;1.000000;1.000000;0.036376;0.036376;-0.036376;1.000000;0.227451;0.231373;0.219608
445624.93140228;5696561.19639977;471.72795012;42662.000000;1.000000;1.000000;1.000000;1.000000;0.070475;0.070475;-0.070475;1.000000;0.662745;0.654902;0.627451
445624.51050194;5696561.17909821;471.74595024;45232.000000;1.000000;1.000000;1.000000;1.000000;-0.147696;0.147696;-0.147696;1.000000;0.698039;0.694118;0.67451
445625.02280243;5696561.45319946;471.79104998;52942.000000;1.000000;1.000000;1.000000;1.000000;-0.124964;0.124964;-0.124964;1.000000;0.803922;0.811765;0.803922
445624.96870239;5696561.16509827;471.71754982;29041.000000;1.000000;1.000000;1.000000;1.000000;0.033175;-0.033175;0.033175;1.000000;0.462745;0.447059;0.403922
445625.00420197;5696561.41349991;471.75705006;35980.000000;1.000000;1.000000;1.000000;1.000000;-0.083532;0.083532;-0.083532;1.000000;0.560784;0.54902;0.517647
445624.90000160;5696561.25249870;471.76445009;12336.000000;1.000000;1.000000;1.000000;1.000000;0.077926;-0.077926;0.077926;1.000000;0.196078;0.192157;0.176471
445624.69490250;5696561.49459847;471.83724977;33667.000000;1.000000;1.000000;1.000000;1.000000;-0.164598;0.164598;-0.164598;1.000000;0.521569;0.513725;0.494118
445624.76670082;5696561.32029922;471.80114986;45232.000000;1.000000;1.000000;1.000000;1.000000;0.009701;-0.009701;0.009701;1.000000;0.701961;0.694118;0.658824
445624.69560249;5696561.24339874;471.76674988;42919.000000;1.000000;1.000000;1.000000;1.000000;0.078037;-0.078037;0.078037;1.000000;0.658824;0.658824;0.623529
445624.77620132;5696561.13609894;471.72714998;40092.000000;1.000000;1.000000;1.000000;1.000000;0.118074;-0.118074;0.118074;1.000000;0.615686;0.615686;0.592157
445624.91870125;5696561.17829903;471.76445009;20817.000000;1.000000;1.000000;1.000000;1.000000;0.083176;0.083176;-0.083176;1.000000;0.317647;0.321569;0.301961
445624.95080193;5696561.11399849;471.80235006;52428.000000;1.000000;1.000000;1.000000;1.000000;0.051075;-0.051075;0.051075;1.000000;0.792157;0.811765;0.768627
445624.80540092;5696561.49839981;471.83295013;18247.000000;1.000000;1.000000;1.000000;1.000000;-0.168639;0.168639;-0.168639;1.000000;0.286275;0.278431;0.258824
445624.85480125;5696561.47299965;471.82324984;28013.000000;1.000000;1.000000;1.000000;1.000000;-0.143000;0.143000;-0.143000;1.000000;0.431373;0.431373;0.407843
445624.63600166;5696561.31399925;471.78354980;34181.000000;1.000000;1.000000;1.000000;1.000000;0.027305;-0.027305;0.027305;1.000000;0.52549;0.52549;0.498039
445624.82210167;5696561.32179840;471.82235004;41891.000000;1.000000;1.000000;1.000000;1.000000;0.008202;-0.008202;0.008202;1.000000;0.643137;0.643137;0.627451
445624.75190170;5696561.21049889;471.74564983;29555.000000;1.000000;1.000000;1.000000;1.000000;0.100439;-0.100439;0.100439;1.000000;0.47451;0.45098;0.411765
445624.90640076;5696561.10439880;471.78165009;13364.000000;1.000000;1.000000;1.000000;1.000000;0.095477;-0.095477;0.095477;1.000000;0.207843;0.207843;0.2
445624.47660072;5696561.37359818;471.76074984;14649.000000;1.000000;1.000000;1.000000;1.000000;-0.186689;0.186689;-0.186689;1.000000;0.235294;0.223529;0.203922
445624.89320190;5696561.19649895;471.79845001;47031.000000;1.000000;1.000000;1.000000;1.000000;0.108675;0.108675;-0.108675;1.000000;0.72549;0.721569;0.701961
445624.56080063;5696561.33049973;471.77334978;35466.000000;1.000000;1.000000;1.000000;1.000000;-0.097328;0.097328;-0.097328;1.000000;0.545098;0.545098;0.521569
445624.93710144;5696561.48459824;471.78515007;47802.000000;1.000000;1.000000;1.000000;1.000000;-0.154615;0.154615;-0.154615;1.000000;0.741176;0.729412;0.701961
445624.60630234;5696561.43540009;471.81395008;39321.000000;1.000000;1.000000;1.000000;1.000000;-0.117452;0.117452;-0.117452;1.000000;0.603922;0.603922;0.584314
445624.57010086;5696561.35989960;471.78344967;34695.000000;1.000000;1.000000;1.000000;1.000000;-0.092966;0.092966;-0.092966;1.000000;0.533333;0.533333;0.505882
445624.71500214;5696561.40189941;471.82074978;40863.000000;1.000000;1.000000;1.000000;1.000000;-0.071899;0.071899;-0.071899;1.000000;0.627451;0.627451;0.596078
445625.00250061;5696561.48999985;471.79754974;22873.000000;1.000000;1.000000;1.000000;1.000000;-0.160001;0.160001;-0.160001;1.000000;0.341176;0.356863;0.341176
445624.60900124;5696561.32359894;471.78004982;29555.000000;1.000000;1.000000;1.000000;1.000000;0.049541;-0.049541;0.049541;1.000000;0.462745;0.454902;0.423529
445624.48660095;5696561.35629852;471.76095011;21331.000000;1.000000;1.000000;1.000000;1.000000;-0.173531;0.173531;-0.173531;1.000000;0.333333;0.32549;0.305882
445624.63530167;5696561.36289986;471.79804995;45489.000000;1.000000;1.000000;1.000000;1.000000;-0.040043;0.040043;-0.040043;1.000000;0.698039;0.701961;0.67451
445624.75640114;5696561.36769875;471.81755020;41634.000000;1.000000;1.000000;1.000000;1.000000;-0.037699;0.037699;-0.037699;1.000000;0.647059;0.639216;0.603922
445624.71920212;5696561.17869957;471.72975018;42148.000000;1.000000;1.000000;1.000000;1.000000;0.061241;-0.061241;0.061241;1.000000;0.658824;0.647059;0.607843
445624.83130081;5696561.37010010;471.82095005;44204.000000;1.000000;1.000000;1.000000;1.000000;-0.040100;0.040100;-0.040100;1.000000;0.682353;0.678431;0.654902
445624.72620209;5696561.21279915;471.74914982;34438.000000;1.000000;1.000000;1.000000;1.000000;0.078064;-0.078064;0.078064;1.000000;0.537255;0.529412;0.490196
445624.95010193;5696561.18799980;471.71005013;28527.000000;1.000000;1.000000;1.000000;1.000000;0.051775;0.051775;-0.051775;1.000000;0.447059;0.439216;0.4
445624.98560150;5696561.19169815;471.70704987;44461.000000;1.000000;1.000000;1.000000;1.000000;0.016276;-0.016276;0.016276;1.000000;0.690196;0.682353;0.647059
445625.02320107;5696561.19289978;471.70645000;39321.000000;1.000000;1.000000;1.000000;1.000000;-0.021324;0.021324;-0.021324;1.000000;0.607843;0.603922;0.576471
445624.87790115;5696561.14919861;471.78084995;27499.000000;1.000000;1.000000;1.000000;1.000000;0.123976;-0.123976;0.123976;1.000000;0.423529;0.419608;0.411765
445624.81790169;5696561.40619858;471.83015015;36751.000000;1.000000;1.000000;1.000000;1.000000;-0.076199;0.076199;-0.076199;1.000000;0.564706;0.564706;0.537255
445624.86770065;5696561.37179955;471.79465010;21331.000000;1.000000;1.000000;1.000000;1.000000;-0.041800;0.041800;-0.041800;1.000000;0.341176;0.329412;0.294118
445624.78600128;5696561.30439957;471.80884983;35466.000000;1.000000;1.000000;1.000000;1.000000;0.025600;-0.025600;0.025600;1.000000;0.54902;0.545098;0.529412
445624.49040230;5696561.24389847;471.75514986;18247.000000;1.000000;1.000000;1.000000;1.000000;-0.181433;0.181433;-0.181433;1.000000;0.282353;0.282353;0.262745
445624.59470184;5696561.43429955;471.80874969;31868.000000;1.000000;1.000000;1.000000;1.000000;-0.122070;0.122070;-0.122070;1.000000;0.494118;0.490196;0.470588
445624.64350136;5696561.12929924;471.75134995;27242.000000;1.000000;1.000000;1.000000;1.000000;-0.014626;0.014626;-0.014626;1.000000;0.423529;0.419608;0.384314
445624.67610176;5696561.26149948;471.77075006;59881.000000;1.000000;1.000000;1.000000;1.000000;0.068501;-0.068501;0.068501;1.000000;0.917647;0.921569;0.894118
445624.71340187;5696561.26259811;471.77474977;32896.000000;1.000000;1.000000;1.000000;1.000000;0.067402;-0.067402;0.067402;1.000000;0.513725;0.505882;0.470588
445624.86220177;5696561.26929863;471.80714991;37008.000000;1.000000;1.000000;1.000000;1.000000;0.060701;-0.060701;0.060701;1.000000;0.572549;0.568627;0.556863
445624.71640213;5696561.15089996;471.73395016;21588.000000;1.000000;1.000000;1.000000;1.000000;0.058275;-0.058275;0.058275;1.000000;0.333333;0.337255;0.294118
445624.75640114;5696561.15409859;471.73584988;29041.000000;1.000000;1.000000;1.000000;1.000000;0.098274;-0.098274;0.098274;1.000000;0.443137;0.447059;0.431373
445624.55590065;5696561.24709900;471.76044991;22102.000000;1.000000;1.000000;1.000000;1.000000;-0.125196;0.125196;-0.125196;1.000000;0.345098;0.341176;0.321569
445624.88510139;5696561.14859970;471.77414991;28270.000000;1.000000;1.000000;1.000000;1.000000;0.116776;-0.116776;0.116776;1.000000;0.443137;0.439216;0.392157
445625.01080139;5696561.26629837;471.71834995;12336.000000;1.000000;1.000000;1.000000;1.000000;-0.008924;0.008924;-0.008924;1.000000;0.196078;0.188235;0.180392
445624.60420235;5696561.21229942;471.75754978;37779.000000;1.000000;1.000000;1.000000;1.000000;-0.065706;0.065706;-0.065706;1.000000;0.580392;0.580392;0.556863
445624.51260193;5696561.33739861;471.76895000;35209.000000;1.000000;1.000000;1.000000;1.000000;-0.145713;0.145713;-0.145713;1.000000;0.541176;0.541176;0.52549
445624.96060188;5696561.35729988;471.72415020;21845.000000;1.000000;1.000000;1.000000;1.000000;-0.027300;0.027300;-0.027300;1.000000;0.345098;0.333333;0.309804
445624.49960144;5696561.24299820;471.75785019;22359.000000;1.000000;1.000000;1.000000;1.000000;-0.172585;0.172585;-0.172585;1.000000;0.345098;0.345098;0.329412
445624.87020119;5696561.29689987;471.79155018;24415.000000;1.000000;1.000000;1.000000;1.000000;0.033100;-0.033100;0.033100;1.000000;0.376471;0.376471;0.364706
445624.84100159;5696561.52789886;471.83024981;36494.000000;1.000000;1.000000;1.000000;1.000000;-0.197953;0.197953;-0.197953;1.000000;0.564706;0.560784;0.541176
445624.94700249;5696561.12899979;471.76044991;28013.000000;1.000000;1.000000;1.000000;1.000000;0.054875;-0.054875;0.054875;1.000000;0.423529;0.431373;0.423529
445624.54850204;5696561.40609940;471.78994991;56026.000000;1.000000;1.000000;1.000000;1.000000;-0.133450;0.133450;-0.133450;1.000000;0.854902;0.858824;0.839216
445624.88170250;5696561.41959961;471.79124977;39321.000000;1.000000;1.000000;1.000000;1.000000;-0.089600;0.089600;-0.089600;1.000000;0.611765;0.603922;0.576471
445624.54900177;5696561.14499863;471.75425007;38036.000000;1.000000;1.000000;1.000000;1.000000;-0.109126;0.109126;-0.109126;1.000000;0.588235;0.584314;0.552941
445624.76850136;5696561.50639923;471.83834984;32639.000000;1.000000;1.000000;1.000000;1.000000;-0.176399;0.176399;-0.176399;1.000000;0.501961;0.501961;0.47451
445624.76010139;5696561.26519974;471.78154995;35723.000000;1.000000;1.000000;1.000000;1.000000;0.064800;-0.064800;0.064800;1.000000;0.552941;0.54902;0.513725
445624.68940170;5696561.14149864;471.74424984;55512.000000;1.000000;1.000000;1.000000;1.000000;0.031274;-0.031274;0.031274;1.000000;0.847059;0.854902;0.827451
445624.83450134;5696561.50969894;471.83204987;30840.000000;1.000000;1.000000;1.000000;1.000000;-0.179699;0.179699;-0.179699;1.000000;0.478431;0.47451;0.454902
445624.65300186;5696561.35199936;471.79635002;62708.000000;1.000000;1.000000;1.000000;1.000000;-0.022589;0.022589;-0.022589;1.000000;0.956863;0.960784;0.941176
445624.91540154;5696561.36329849;471.75484993;25186.000000;1.000000;1.000000;1.000000;1.000000;-0.033298;0.033298;-0.033298;1.000000;0.396078;0.388235;0.364706
445624.95460136;5696561.29019936;471.71845009;11565.000000;1.000000;1.000000;1.000000;1.000000;0.039801;-0.039801;0.039801;1.000000;0.184314;0.176471;0.160784
445624.99230202;5696561.29369934;471.72015001;7710.000000;1.000000;1.000000;1.000000;1.000000;0.009575;-0.009575;0.009575;1.000000;0.12549;0.121569;0.105882
445624.58450134;5696561.20009811;471.75654985;37522.000000;1.000000;1.000000;1.000000;1.000000;-0.077872;0.077872;-0.077872;1.000000;0.576471;0.576471;0.54902
445624.55080231;5696561.16359909;471.75225021;34695.000000;1.000000;1.000000;1.000000;1.000000;-0.107325;0.107325;-0.107325;1.000000;0.533333;0.537255;0.509804
445624.91930206;5696561.17849930;471.75274994;7196.000000;1.000000;1.000000;1.000000;1.000000;0.082575;0.082575;-0.082575;1.000000;0.109804;0.113725;0.101961
445624.77850159;5696561.26569946;471.78935005;34438.000000;1.000000;1.000000;1.000000;1.000000;0.064301;-0.064301;0.064301;1.000000;0.533333;0.529412;0.494118
445624.72990234;5696561.52389915;471.84845020;38550.000000;1.000000;1.000000;1.000000;1.000000;-0.194018;0.194018;-0.194018;1.000000;0.596078;0.592157;0.572549
445624.87850197;5696561.49439819;471.80824997;26728.000000;1.000000;1.000000;1.000000;1.000000;-0.164398;0.164398;-0.164398;1.000000;0.415686;0.411765;0.384314
445624.91890152;5696561.45849808;471.77244999;20046.000000;1.000000;1.000000;1.000000;1.000000;-0.128498;0.128498;-0.128498;1.000000;0.321569;0.305882;0.286275
445624.95640190;5696561.45969971;471.77174999;37522.000000;1.000000;1.000000;1.000000;1.000000;-0.129700;0.129700;-0.129700;1.000000;0.580392;0.576471;0.560784
445624.77520187;5696561.34039886;471.81104996;40863.000000;1.000000;1.000000;1.000000;1.000000;-0.010399;0.010399;-0.010399;1.000000;0.635294;0.627451;0.596078
445624.59030159;5696561.29509933;471.77194979;35209.000000;1.000000;1.000000;1.000000;1.000000;0.076278;-0.076278;0.076278;1.000000;0.54902;0.541176;0.505882
445624.88940247;5696561.34439857;471.77434971;21331.000000;1.000000;1.000000;1.000000;1.000000;-0.014413;0.014413;-0.014413;1.000000;0.337255;0.32549;0.305882
445624.88830193;5696561.30709847;471.77384998;30326.000000;1.000000;1.000000;1.000000;1.000000;0.022902;-0.022902;0.022902;1.000000;0.470588;0.466667;0.45098
445625.03790100;5696561.31259926;471.73175003;32896.000000;1.000000;1.000000;1.000000;1.000000;-0.036024;0.036024;-0.036024;1.000000;0.509804;0.505882;0.47451
445624.89090164;5696561.26019867;471.77344992;17476.000000;1.000000;1.000000;1.000000;1.000000;0.069834;-0.069834;0.069834;1.000000;0.27451;0.270588;0.25098
445624.70960243;5696561.17949875;471.73864986;38036.000000;1.000000;1.000000;1.000000;1.000000;0.051730;-0.051730;0.051730;1.000000;0.588235;0.584314;0.545098
445624.51200111;5696561.38410004;471.77414991;18761.000000;1.000000;1.000000;1.000000;1.000000;-0.155819;0.155819;-0.155819;1.000000;0.294118;0.286275;0.266667
445624.62330063;5696561.38959892;471.80714991;42662.000000;1.000000;1.000000;1.000000;1.000000;-0.069029;0.069029;-0.069029;1.000000;0.654902;0.654902;0.639216
445624.51560219;5696561.34639938;471.77145006;33410.000000;1.000000;1.000000;1.000000;1.000000;-0.143466;0.143466;-0.143466;1.000000;0.509804;0.513725;0.494118
445624.51980217;5696561.42059906;471.78184988;26728.000000;1.000000;1.000000;1.000000;1.000000;-0.165354;0.165354;-0.165354;1.000000;0.419608;0.407843;0.376471
445624.82360085;5696561.28669937;471.81965019;39064.000000;1.000000;1.000000;1.000000;1.000000;0.043301;-0.043301;0.043301;1.000000;0.6;0.6;0.588235
445624.89350136;5696561.12939842;471.75575020;29555.000000;1.000000;1.000000;1.000000;1.000000;0.108376;-0.108376;0.108376;1.000000;0.466667;0.454902;0.4
445624.55230148;5696561.31269844;471.77045013;42919.000000;1.000000;1.000000;1.000000;1.000000;0.107231;-0.107231;0.107231;1.000000;0.658824;0.662745;0.635294
445625.03730209;5696561.33139999;471.73194983;23644.000000;1.000000;1.000000;1.000000;1.000000;-0.035452;0.035452;-0.035452;1.000000;0.372549;0.360784;0.329412
445624.92640121;5696561.31829842;471.72914984;24929.000000;1.000000;1.000000;1.000000;1.000000;0.011702;-0.011702;0.011702;1.000000;0.388235;0.384314;0.356863
445624.99940117;5696561.32099922;471.72314980;17219.000000;1.000000;1.000000;1.000000;1.000000;0.002476;-0.002476;0.002476;1.000000;0.27451;0.266667;0.243137
445624.92760094;5696561.28089912;471.72874977;33153.000000;1.000000;1.000000;1.000000;1.000000;0.049101;-0.049101;0.049101;1.000000;0.513725;0.509804;0.490196
445624.92580231;5696561.28800018;471.73105003;32382.000000;1.000000;1.000000;1.000000;1.000000;0.042000;-0.042000;0.042000;1.000000;0.501961;0.498039;0.482353
445624.63150223;5696561.23069962;471.76135017;43433.000000;1.000000;1.000000;1.000000;1.000000;-0.061882;0.061882;-0.061882;1.000000;0.666667;0.666667;0.639216
445624.66920097;5696561.23419960;471.76314976;54998.000000;1.000000;1.000000;1.000000;1.000000;0.060349;-0.060349;0.060349;1.000000;0.843137;0.847059;0.819608
445624.65750130;5696561.49339874;471.83554985;19789.000000;1.000000;1.000000;1.000000;1.000000;-0.163400;0.163400;-0.163400;1.000000;0.305882;0.305882;0.294118
445624.89010246;5696561.25089844;471.77325012;15420.000000;1.000000;1.000000;1.000000;1.000000;0.079113;-0.079113;0.079113;1.000000;0.231373;0.239216;0.227451
445624.59340103;5696561.24829872;471.76214983;24672.000000;1.000000;1.000000;1.000000;1.000000;-0.097893;0.097893;-0.097893;1.000000;0.384314;0.380392;0.356863
445624.82420166;5696561.49899872;471.83145000;19275.000000;1.000000;1.000000;1.000000;1.000000;-0.168999;0.168999;-0.168999;1.000000;0.301961;0.294118;0.278431
445624.89470108;5696561.15909966;471.79104998;28270.000000;1.000000;1.000000;1.000000;1.000000;0.107176;-0.107176;0.107176;1.000000;0.439216;0.435294;0.407843
445624.74340065;5696561.22509964;471.75705006;23130.000000;1.000000;1.000000;1.000000;1.000000;0.099028;-0.099028;0.099028;1.000000;0.364706;0.356863;0.313725
445624.93350227;5696561.16149910;471.71134998;5911.000000;1.000000;1.000000;1.000000;1.000000;0.068375;-0.068375;0.068375;1.000000;0.117647;0.0901961;0.0431373
445624.93720062;5696561.12379845;471.70634987;23901.000000;1.000000;1.000000;1.000000;1.000000;0.064677;-0.064677;0.064677;1.000000;0.380392;0.368627;0.321569
445624.57330139;5696561.48059853;471.80824997;32125.000000;1.000000;1.000000;1.000000;1.000000;-0.172845;0.172845;-0.172845;1.000000;0.498039;0.490196;0.47451
445624.75830086;5696561.52589996;471.84515001;37522.000000;1.000000;1.000000;1.000000;1.000000;-0.195900;0.195900;-0.195900;1.000000;0.576471;0.576471;0.556863
445624.50080116;5696561.43879898;471.77425005;26728.000000;1.000000;1.000000;1.000000;1.000000;-0.191282;0.191282;-0.191282;1.000000;0.431373;0.407843;0.372549
445624.64020164;5696561.45539864;471.82964994;50629.000000;1.000000;1.000000;1.000000;1.000000;-0.126673;0.126673;-0.126673;1.000000;0.772549;0.780392;0.760784
445624.83370216;5696561.50049980;471.83194973;38036.000000;1.000000;1.000000;1.000000;1.000000;-0.170500;0.170500;-0.170500;1.000000;0.588235;0.580392;0.564706
445624.72020157;5696561.11319931;471.72905018;21845.000000;1.000000;1.000000;1.000000;1.000000;0.062074;-0.062074;0.062074;1.000000;0.333333;0.341176;0.294118
445624.89660080;5696561.12409981;471.78134968;16448.000000;1.000000;1.000000;1.000000;1.000000;0.105277;-0.105277;0.105277;1.000000;0.25098;0.254902;0.247059
445624.64940079;5696561.45449837;471.83005001;39321.000000;1.000000;1.000000;1.000000;1.000000;-0.124804;0.124804;-0.124804;1.000000;0.592157;0.607843;0.592157
445624.53990181;5696561.41399963;471.78964998;45489.000000;1.000000;1.000000;1.000000;1.000000;-0.145028;0.145028;-0.145028;1.000000;0.698039;0.698039;0.678431
445624.70460136;5696561.20769890;471.75274994;37265.000000;1.000000;1.000000;1.000000;1.000000;0.057020;-0.057020;0.057020;1.000000;0.576471;0.572549;0.541176
445625.01970108;5696561.47219856;471.79344990;37522.000000;1.000000;1.000000;1.000000;1.000000;-0.143311;0.143311;-0.143311;1.000000;0.576471;0.576471;0.556863
445624.80210121;5696561.38669975;471.82914974;34695.000000;1.000000;1.000000;1.000000;1.000000;-0.057124;0.057124;-0.057124;1.000000;0.537255;0.533333;0.505882
445624.71650131;5696561.20669945;471.74624969;36751.000000;1.000000;1.000000;1.000000;1.000000;0.066651;-0.066651;0.066651;1.000000;0.572549;0.564706;0.529412
445624.90050133;5696561.21709831;471.78265001;34695.000000;1.000000;1.000000;1.000000;1.000000;0.101376;0.101376;-0.101376;1.000000;0.529412;0.529412;0.533333
445624.89790161;5696561.46719940;471.78784992;25186.000000;1.000000;1.000000;1.000000;1.000000;-0.137501;0.137501;-0.137501;1.000000;0.396078;0.384314;0.364706
445624.87260063;5696561.42729958;471.80025007;40349.000000;1.000000;1.000000;1.000000;1.000000;-0.097300;0.097300;-0.097300;1.000000;0.623529;0.619608;0.592157
445625.02080162;5696561.42109879;471.76725008;47288.000000;1.000000;1.000000;1.000000;1.000000;-0.093044;0.093044;-0.093044;1.000000;0.733333;0.72549;0.690196
445624.49490173;5696561.34609993;471.76354982;24929.000000;1.000000;1.000000;1.000000;1.000000;-0.164018;0.164018;-0.164018;1.000000;0.392157;0.384314;0.360784
445624.72360237;5696561.42199905;471.82835009;35723.000000;1.000000;1.000000;1.000000;1.000000;-0.092001;0.092001;-0.092001;1.000000;0.54902;0.54902;0.521569
445625.04690178;5696561.49059875;471.79955008;16191.000000;1.000000;1.000000;1.000000;1.000000;-0.166791;0.166791;-0.166791;1.000000;0.25098;0.247059;0.239216
445624.83620079;5696561.42560013;471.82655003;38807.000000;1.000000;1.000000;1.000000;1.000000;-0.095600;0.095600;-0.095600;1.000000;0.596078;0.596078;0.568627
445624.62150200;5696561.25029953;471.76585009;42919.000000;1.000000;1.000000;1.000000;1.000000;-0.083795;0.083795;-0.083795;1.000000;0.666667;0.658824;0.631373
445624.65670212;5696561.25169952;471.76504995;45489.000000;1.000000;1.000000;1.000000;1.000000;-0.076796;0.076796;-0.076796;1.000000;0.698039;0.698039;0.67451
445624.67080124;5696561.39909943;471.81174995;33153.000000;1.000000;1.000000;1.000000;1.000000;-0.069099;0.069099;-0.069099;1.000000;0.505882;0.513725;0.494118
445624.85650070;5696561.40989883;471.81094982;33667.000000;1.000000;1.000000;1.000000;1.000000;-0.079899;0.079899;-0.079899;1.000000;0.521569;0.517647;0.490196
