//X;Y;Z;Intensity;Return Number;Number Of Returns;Scan Direction Flag;Point Source ID;C2M signed distances[-][<0.8];C2M signed distances[<0.4];C2M signed distances[-][<0.2];Stump78;Rf;Gf;Bf
300
445648.14750107;5696592.48479851;470.92494990;31354.000000;1.000000;1.000000;1.000000;1.000000;0.051874;-0.051874;0.051874;1.000000;0.423529;0.537255;0.317647
445648.29490097;5696592.49279984;470.88745000;23901.000000;1.000000;1.000000;1.000000;1.000000;-0.162800;0.162800;-0.162800;1.000000;0.333333;0.407843;0.25098
445648.33490189;5696592.45459946;470.85395004;35209.000000;1.000000;1.000000;1.000000;1.000000;0.124599;-0.124599;0.124599;1.000000;0.521569;0.568627;0.443137
445648.25170334;5696592.82409866;470.87084987;31611.000000;1.000000;1.000000;1.000000;1.000000;0.005904;-0.005904;0.005904;1.000000;0.490196;0.490196;0.443137
445648.25830276;5696592.45179947;470.88765003;21331.000000;1.000000;1.000000;1.000000;1.000000;0.121878;-0.121878;0.121878;1.000000;0.262745;0.388235;0.184314
445648.19490250;5696592.61589821;470.92404987;12850.000000;1.000000;1.000000;1.000000;1.000000;0.099276;-0.099276;0.099276;1.000000;0.145098;0.239216;0.12549
445648.33419998;5696592.41969879;470.84885003;44718.000000;1.000000;1.000000;1.000000;1.000000;-0.089699;0.089699;-0.089699;1.000000;0.662745;0.709804;0.603922
445648.36590012;5696592.79249962;470.86634995;59624.000000;1.000000;1.000000;1.000000;1.000000;0.037500;-0.037500;0.037500;1.000000;0.913725;0.913725;0.901961
445648.02620132;5696592.46189888;470.87034990;20046.000000;1.000000;1.000000;1.000000;1.000000;-0.069426;0.069426;-0.069426;1.000000;0.301961;0.337255;0.168627
445648.01350220;5696592.53519829;470.88925006;31868.000000;1.000000;1.000000;1.000000;1.000000;-0.082125;0.082125;-0.082125;1.000000;0.478431;0.513725;0.376471
445648.21109970;5696592.48609932;470.91625001;26985.000000;1.000000;1.000000;1.000000;1.000000;0.115473;-0.115473;0.115473;1.000000;0.356863;0.47451;0.231373
445648.17510040;5696592.44969948;470.91415002;31354.000000;1.000000;1.000000;1.000000;1.000000;0.079473;-0.079473;0.079473;1.000000;0.423529;0.537255;0.329412
445648.28690155;5696592.45389946;470.87964990;33410.000000;1.000000;1.000000;1.000000;1.000000;-0.123899;0.123899;-0.123899;1.000000;0.462745;0.560784;0.376471
445648.26120193;5696592.82549866;470.87124993;30840.000000;1.000000;1.000000;1.000000;1.000000;0.004501;-0.004501;0.004501;1.000000;0.478431;0.478431;0.431373
445648.17889984;5696592.57969864;470.94385006;4883.000000;1.000000;1.000000;1.000000;1.000000;0.083273;-0.083273;0.083273;1.000000;0.0470588;0.101961;0.0235294
445648.35960205;5696592.74650009;470.85854985;33924.000000;1.000000;1.000000;1.000000;1.000000;0.083500;-0.083500;0.083500;1.000000;0.52549;0.521569;0.490196
445648.02779968;5696592.65929993;470.93334987;27499.000000;1.000000;1.000000;1.000000;1.000000;-0.067835;0.067835;-0.067835;1.000000;0.403922;0.447059;0.337255
445648.13780029;5696592.66079910;470.93595006;24158.000000;1.000000;1.000000;1.000000;1.000000;0.042246;-0.042246;0.042246;1.000000;0.333333;0.403922;0.294118
445648.20870026;5696592.69919975;470.89304997;8995.000000;1.000000;1.000000;1.000000;1.000000;0.120528;-0.120528;0.120528;1.000000;0.12549;0.152941;0.101961
445648.06130035;5696592.50029953;470.89794995;33667.000000;1.000000;1.000000;1.000000;1.000000;-0.034327;0.034327;-0.034327;1.000000;0.486275;0.560784;0.368627
445648.13270004;5696592.76229866;470.89504983;11565.000000;1.000000;1.000000;1.000000;1.000000;0.067701;-0.067701;0.067701;1.000000;0.168627;0.188235;0.137255
445648.28210266;5696592.76999863;470.86224987;26214.000000;1.000000;1.000000;1.000000;1.000000;0.060010;-0.060010;0.060010;1.000000;0.396078;0.407843;0.368627
445648.26460083;5696592.75989922;470.86835005;14649.000000;1.000000;1.000000;1.000000;1.000000;0.070101;-0.070101;0.070101;1.000000;0.223529;0.231373;0.196078
445647.99090012;5696592.65599831;470.91524984;31611.000000;1.000000;1.000000;1.000000;1.000000;-0.104727;0.104727;-0.104727;1.000000;0.494118;0.490196;0.415686
445648.00300034;5696592.78569992;470.91734983;34695.000000;1.000000;1.000000;1.000000;1.000000;0.102675;-0.102675;0.102675;1.000000;0.545098;0.537255;0.447059
445648.09959991;5696592.66159828;470.95525004;23387.000000;1.000000;1.000000;1.000000;1.000000;0.004915;-0.004915;0.004915;1.000000;0.32549;0.388235;0.278431
445648.17620285;5696592.66449936;470.91914989;6168.000000;1.000000;1.000000;1.000000;1.000000;0.080839;-0.080839;0.080839;1.000000;0.0627451;0.121569;0.0470588
445648.13900192;5696592.60669907;470.95164992;6939.000000;1.000000;1.000000;1.000000;1.000000;0.043375;-0.043375;0.043375;1.000000;0.0705882;0.137255;0.0470588
445648.03130157;5696592.56349953;470.91604998;35723.000000;1.000000;1.000000;1.000000;1.000000;-0.064325;0.064325;-0.064325;1.000000;0.521569;0.584314;0.423529
445648.08990295;5696592.67899902;470.94564988;7967.000000;1.000000;1.000000;1.000000;1.000000;-0.021267;0.021267;-0.021267;1.000000;0.0862745;0.156863;0.054902
445648.13480194;5696592.53239830;470.94365003;36494.000000;1.000000;1.000000;1.000000;1.000000;0.039175;-0.039175;0.039175;1.000000;0.517647;0.603922;0.415686
445648.10710342;5696592.74579819;470.90995004;13107.000000;1.000000;1.000000;1.000000;1.000000;0.084202;-0.084202;0.084202;1.000000;0.176471;0.223529;0.160784
445648.07280167;5696592.67129906;470.94715001;15420.000000;1.000000;1.000000;1.000000;1.000000;-0.026147;0.026147;-0.026147;1.000000;0.203922;0.266667;0.164706
445648.03740128;5696592.66529854;470.94085004;27499.000000;1.000000;1.000000;1.000000;1.000000;-0.058631;0.058631;-0.058631;1.000000;0.407843;0.443137;0.333333
445647.93110092;5696592.68969925;470.91065003;28013.000000;1.000000;1.000000;1.000000;1.000000;-0.167586;0.167586;-0.167586;1.000000;0.454902;0.427451;0.360784
445648.33260162;5696592.51069839;470.86375000;33153.000000;1.000000;1.000000;1.000000;1.000000;-0.180698;0.180698;-0.180698;1.000000;0.490196;0.537255;0.4
445648.10950287;5696592.46539886;470.89744999;33924.000000;1.000000;1.000000;1.000000;1.000000;0.013876;-0.013876;0.013876;1.000000;0.478431;0.568627;0.372549
445648.17320068;5696592.69999893;470.90544989;15677.000000;1.000000;1.000000;1.000000;1.000000;0.088348;-0.088348;0.088348;1.000000;0.219608;0.258824;0.196078
445647.94910248;5696592.50659950;470.85804989;42919.000000;1.000000;1.000000;1.000000;1.000000;-0.146524;0.146524;-0.146524;1.000000;0.666667;0.662745;0.592157
445648.09589966;5696592.53849991;470.93724992;25957.000000;1.000000;1.000000;1.000000;1.000000;0.000273;-0.000273;0.000273;1.000000;0.345098;0.454902;0.227451
445648.28440292;5696592.50999840;470.89654996;21845.000000;1.000000;1.000000;1.000000;1.000000;-0.179998;0.179998;-0.179998;1.000000;0.298039;0.376471;0.219608
445648.19460114;5696592.63699921;470.92194988;28527.000000;1.000000;1.000000;1.000000;1.000000;0.098974;-0.098974;0.098974;1.000000;0.384314;0.482353;0.356863
445648.18700226;5696592.75989922;470.87644984;12079.000000;1.000000;1.000000;1.000000;1.000000;0.070101;-0.070101;0.070101;1.000000;0.188235;0.192157;0.164706
445648.19250305;5696592.72189911;470.88325002;13107.000000;1.000000;1.000000;1.000000;1.000000;0.108101;-0.108101;0.108101;1.000000;0.192157;0.215686;0.172549
445648.15690048;5696592.68259819;470.91844990;10794.000000;1.000000;1.000000;1.000000;1.000000;0.066036;-0.066036;0.066036;1.000000;0.145098;0.188235;0.117647
445648.19780167;5696592.59919937;470.92864992;7967.000000;1.000000;1.000000;1.000000;1.000000;0.102175;-0.102175;0.102175;1.000000;0.0862745;0.152941;0.0666667
445648.25100143;5696592.84509857;470.87804987;39321.000000;1.000000;1.000000;1.000000;1.000000;-0.015124;0.015124;-0.015124;1.000000;0.607843;0.603922;0.564706
445648.04020126;5696592.80569847;470.90995004;28784.000000;1.000000;1.000000;1.000000;1.000000;0.060519;-0.060519;0.060519;1.000000;0.454902;0.447059;0.356863
445648.10500153;5696592.53979881;470.94464995;39835.000000;1.000000;1.000000;1.000000;1.000000;0.009375;-0.009375;0.009375;1.000000;0.552941;0.662745;0.470588
445647.99920090;5696592.64589890;470.91785004;34181.000000;1.000000;1.000000;1.000000;1.000000;-0.096426;0.096426;-0.096426;1.000000;0.533333;0.533333;0.454902
445647.98630341;5696592.47759827;470.85474994;27499.000000;1.000000;1.000000;1.000000;1.000000;-0.109324;0.109324;-0.109324;1.000000;0.431373;0.439216;0.317647
445648.19569977;5696592.44100006;470.90564992;31097.000000;1.000000;1.000000;1.000000;1.000000;0.100073;-0.100073;0.100073;1.000000;0.415686;0.533333;0.321569
445648.01700027;5696592.66509827;470.92594983;21074.000000;1.000000;1.000000;1.000000;1.000000;-0.078936;0.078936;-0.078936;1.000000;0.32549;0.341176;0.239216
445648.13160141;5696592.55809982;470.96474983;42662.000000;1.000000;1.000000;1.000000;1.000000;0.035975;-0.035975;0.035975;1.000000;0.615686;0.694118;0.54902
445647.94569977;5696592.61609848;470.90115001;27499.000000;1.000000;1.000000;1.000000;1.000000;-0.149927;0.149927;-0.149927;1.000000;0.439216;0.423529;0.376471
445648.07320221;5696592.65699966;470.96094992;22359.000000;1.000000;1.000000;1.000000;1.000000;-0.022425;0.022425;-0.022425;1.000000;0.321569;0.368627;0.266667
445648.04150208;5696592.77049835;470.91194989;12850.000000;1.000000;1.000000;1.000000;1.000000;0.080436;-0.080436;0.080436;1.000000;0.203922;0.207843;0.113725
445648.01900299;5696592.58099945;470.91564991;29041.000000;1.000000;1.000000;1.000000;1.000000;-0.076624;0.076624;-0.076624;1.000000;0.423529;0.478431;0.337255
445648.26400192;5696592.77859886;470.86854984;27499.000000;1.000000;1.000000;1.000000;1.000000;0.051401;-0.051401;0.051401;1.000000;0.415686;0.427451;0.388235
445648.10950287;5696592.50239952;470.92345001;36494.000000;1.000000;1.000000;1.000000;1.000000;0.013876;-0.013876;0.013876;1.000000;0.505882;0.611765;0.407843
445648.12510117;5696592.73709877;470.90835001;14906.000000;1.000000;1.000000;1.000000;1.000000;0.084615;-0.084615;0.084615;1.000000;0.2;0.25098;0.188235
445648.06700333;5696592.64119919;470.96044995;43176.000000;1.000000;1.000000;1.000000;1.000000;-0.028624;0.028624;-0.028624;1.000000;0.643137;0.682353;0.584314
445647.91790207;5696592.56049927;470.88524987;20303.000000;1.000000;1.000000;1.000000;1.000000;-0.177725;0.177725;-0.177725;1.000000;0.32549;0.313725;0.262745
445647.95940216;5696592.48719986;470.84894993;45489.000000;1.000000;1.000000;1.000000;1.000000;-0.136225;0.136225;-0.136225;1.000000;0.705882;0.705882;0.627451
445648.15820129;5696592.62629898;470.92945005;17733.000000;1.000000;1.000000;1.000000;1.000000;0.062574;-0.062574;0.062574;1.000000;0.223529;0.309804;0.203922
445647.93029984;5696592.70839890;470.91555001;34952.000000;1.000000;1.000000;1.000000;1.000000;-0.172861;0.172861;-0.172861;1.000000;0.552941;0.537255;0.466667
445648.13870056;5696592.42769821;470.89824988;33410.000000;1.000000;1.000000;1.000000;1.000000;0.043074;-0.043074;0.043074;1.000000;0.462745;0.556863;0.388235
445647.90229996;5696592.48509987;470.86734988;21331.000000;1.000000;1.000000;1.000000;1.000000;-0.184314;0.184314;-0.184314;1.000000;0.364706;0.32549;0.235294
445647.89299973;5696592.45809944;470.85964992;13364.000000;1.000000;1.000000;1.000000;1.000000;-0.168118;0.168118;-0.168118;1.000000;0.254902;0.2;0.113725
445648.17329987;5696592.68119820;470.91454985;10023.000000;1.000000;1.000000;1.000000;1.000000;0.081093;-0.081093;0.081093;1.000000;0.129412;0.180392;0.0980392
445648.18169983;5696592.50259979;470.92904999;35723.000000;1.000000;1.000000;1.000000;1.000000;0.086073;-0.086073;0.086073;1.000000;0.505882;0.603922;0.364706
445648.21690186;5696592.72909935;470.87745001;8481.000000;1.000000;1.000000;1.000000;1.000000;0.101236;-0.101236;0.101236;1.000000;0.133333;0.133333;0.101961
445648.34340103;5696592.85529907;470.87304999;39064.000000;1.000000;1.000000;1.000000;1.000000;-0.025397;0.025397;-0.025397;1.000000;0.611765;0.596078;0.568627
445648.34500320;5696592.82009895;470.86804988;62451.000000;1.000000;1.000000;1.000000;1.000000;0.009921;-0.009921;0.009921;1.000000;0.956863;0.956863;0.941176
445648.36520203;5696592.78329857;470.86154987;58082.000000;1.000000;1.000000;1.000000;1.000000;0.046701;-0.046701;0.046701;1.000000;0.890196;0.890196;0.870588
445647.92020233;5696592.72559937;470.91754987;37265.000000;1.000000;1.000000;1.000000;1.000000;-0.188011;0.188011;-0.188011;1.000000;0.584314;0.576471;0.509804
445648.20030029;5696592.72829826;470.87905004;11051.000000;1.000000;1.000000;1.000000;1.000000;0.101702;-0.101702;0.101702;1.000000;0.164706;0.176471;0.141176
445647.95790298;5696592.72909935;470.91704990;54998.000000;1.000000;1.000000;1.000000;1.000000;-0.155014;0.155014;-0.155014;1.000000;0.847059;0.847059;0.792157
445648.27120026;5696592.78029831;470.86654999;27756.000000;1.000000;1.000000;1.000000;1.000000;0.049702;-0.049702;0.049702;1.000000;0.419608;0.435294;0.392157
445648.23700150;5696592.74129875;470.87154986;15677.000000;1.000000;1.000000;1.000000;1.000000;0.089940;-0.089940;0.089940;1.000000;0.235294;0.25098;0.203922
445647.94070251;5696592.69109924;470.90874984;33410.000000;1.000000;1.000000;1.000000;1.000000;-0.158466;0.158466;-0.158466;1.000000;0.537255;0.513725;0.447059
445647.94190033;5696592.65369995;470.90835001;29041.000000;1.000000;1.000000;1.000000;1.000000;-0.153727;0.153727;-0.153727;1.000000;0.462745;0.447059;0.403922
445648.05650146;5696592.62139900;470.94575002;52685.000000;1.000000;1.000000;1.000000;1.000000;-0.039125;0.039125;-0.039125;1.000000;0.784314;0.831373;0.713725
445647.98460205;5696592.54279907;470.87174990;38293.000000;1.000000;1.000000;1.000000;1.000000;-0.111025;0.111025;-0.111025;1.000000;0.592157;0.6;0.509804
445648.09640320;5696592.54769905;470.94435002;35209.000000;1.000000;1.000000;1.000000;1.000000;0.000776;-0.000776;0.000776;1.000000;0.490196;0.592157;0.388235
445648.32160004;5696592.52089890;470.87045004;25186.000000;1.000000;1.000000;1.000000;1.000000;-0.190899;0.190899;-0.190899;1.000000;0.360784;0.415686;0.282353
445648.10099991;5696592.47779854;470.90415003;30069.000000;1.000000;1.000000;1.000000;1.000000;0.005373;-0.005373;0.005373;1.000000;0.415686;0.513725;0.317647
445648.17640121;5696592.43799980;470.91174986;37779.000000;1.000000;1.000000;1.000000;1.000000;0.080774;-0.080774;0.080774;1.000000;0.521569;0.635294;0.443137
445647.97010239;5696592.65569885;470.90964987;36237.000000;1.000000;1.000000;1.000000;1.000000;-0.125525;0.125525;-0.125525;1.000000;0.572549;0.556863;0.498039
445648.21960266;5696592.50619896;470.92614986;28527.000000;1.000000;1.000000;1.000000;1.000000;0.123976;-0.123976;0.123976;1.000000;0.384314;0.494118;0.266667
445648.30600174;5696592.85409935;470.87134983;49344.000000;1.000000;1.000000;1.000000;1.000000;-0.024222;0.024222;-0.024222;1.000000;0.760784;0.756863;0.721569
445648.10040100;5696592.46629913;470.89465000;29041.000000;1.000000;1.000000;1.000000;1.000000;0.004774;-0.004774;0.004774;1.000000;0.403922;0.490196;0.313725
445648.34800156;5696592.74539955;470.85334994;34438.000000;1.000000;1.000000;1.000000;1.000000;0.084600;-0.084600;0.084600;1.000000;0.533333;0.529412;0.486275
445648.20210083;5696592.70220001;470.89045002;8738.000000;1.000000;1.000000;1.000000;1.000000;0.115508;-0.115508;0.115508;1.000000;0.12549;0.145098;0.105882
445648.01640137;5696592.65819939;470.92575004;23387.000000;1.000000;1.000000;1.000000;1.000000;-0.079226;0.079226;-0.079226;1.000000;0.352941;0.376471;0.27451
445648.16430099;5696592.66319855;470.92324998;6682.000000;1.000000;1.000000;1.000000;1.000000;0.068866;-0.068866;0.068866;1.000000;0.0666667;0.133333;0.0431373
445648.13430222;5696592.58819969;470.96755006;7710.000000;1.000000;1.000000;1.000000;1.000000;0.038675;-0.038675;0.038675;1.000000;0.0745098;0.152941;0.0470588
445648.07410248;5696592.58469971;470.94614985;30583.000000;1.000000;1.000000;1.000000;1.000000;-0.021524;0.021524;-0.021524;1.000000;0.427451;0.513725;0.321569
445648.08699997;5696592.50700005;470.91324999;52942.000000;1.000000;1.000000;1.000000;1.000000;-0.008627;0.008627;-0.008627;1.000000;0.776471;0.854902;0.666667
445648.03370102;5696592.69389923;470.92695000;9766.000000;1.000000;1.000000;1.000000;1.000000;-0.071506;0.071506;-0.071506;1.000000;0.141176;0.164706;0.105882
445648.12090118;5696592.65979965;470.94455006;19532.000000;1.000000;1.000000;1.000000;1.000000;0.025308;-0.025308;0.025308;1.000000;0.266667;0.333333;0.223529
445648.04750259;5696592.80739983;470.90804984;24415.000000;1.000000;1.000000;1.000000;1.000000;0.053167;-0.053167;0.053167;1.000000;0.388235;0.380392;0.294118
445648.15929993;5696592.59549912;470.94544985;5397.000000;1.000000;1.000000;1.000000;1.000000;0.063673;-0.063673;0.063673;1.000000;0.0509804;0.109804;0.0352941
445648.34870346;5696592.75459869;470.85815002;34438.000000;1.000000;1.000000;1.000000;1.000000;0.075401;-0.075401;0.075401;1.000000;0.533333;0.529412;0.498039
445648.00840195;5696592.44269951;470.86235001;48573.000000;1.000000;1.000000;1.000000;1.000000;-0.087225;0.087225;-0.087225;1.000000;0.756863;0.752941;0.635294
445648.03709991;5696592.58139999;470.93044998;18504.000000;1.000000;1.000000;1.000000;1.000000;-0.058527;0.058527;-0.058527;1.000000;0.25098;0.32549;0.160784
445648.09480103;5696592.59409912;470.97284986;21074.000000;1.000000;1.000000;1.000000;1.000000;-0.000826;0.000826;-0.000826;1.000000;0.294118;0.360784;0.203922
445648.22350128;5696592.85219963;470.88154985;40606.000000;1.000000;1.000000;1.000000;1.000000;-0.026690;0.026690;-0.026690;1.000000;0.631373;0.623529;0.580392
445648.00240143;5696592.80439957;470.91754987;36494.000000;1.000000;1.000000;1.000000;1.000000;0.096677;-0.096677;0.096677;1.000000;0.572549;0.564706;0.486275
445648.22480209;5696592.81479843;470.87885000;27242.000000;1.000000;1.000000;1.000000;1.000000;0.022165;-0.022165;0.022165;1.000000;0.419608;0.423529;0.364706
445648.00130280;5696592.76719864;470.91474988;34438.000000;1.000000;1.000000;1.000000;1.000000;0.113318;-0.113318;0.113318;1.000000;0.541176;0.541176;0.431373
445648.18840225;5696592.77609833;470.87905004;25957.000000;1.000000;1.000000;1.000000;1.000000;0.053902;-0.053902;0.053902;1.000000;0.407843;0.403922;0.356863
445647.93200119;5696592.72679909;470.91814997;42405.000000;1.000000;1.000000;1.000000;1.000000;-0.177510;0.177510;-0.177510;1.000000;0.658824;0.654902;0.596078
445647.96720322;5696592.72829826;470.91744997;54998.000000;1.000000;1.000000;1.000000;1.000000;-0.146423;0.146423;-0.146423;1.000000;0.847059;0.847059;0.788235
445648.00510223;5696592.73179825;470.91454985;27242.000000;1.000000;1.000000;1.000000;1.000000;-0.116854;0.116854;-0.116854;1.000000;0.419608;0.427451;0.356863
445648.07990082;5696592.73409851;470.91794993;9509.000000;1.000000;1.000000;1.000000;1.000000;-0.077732;0.077732;-0.077732;1.000000;0.12549;0.164706;0.113725
445648.00610168;5696592.69429977;470.91645004;20303.000000;1.000000;1.000000;1.000000;1.000000;-0.096629;0.096629;-0.096629;1.000000;0.321569;0.317647;0.239216
445648.19490250;5696592.66279991;470.91765000;14906.000000;1.000000;1.000000;1.000000;1.000000;0.099394;-0.099394;0.099394;1.000000;0.196078;0.254902;0.176471
445647.97340210;5696592.57869919;470.88334991;29555.000000;1.000000;1.000000;1.000000;1.000000;-0.122225;0.122225;-0.122225;1.000000;0.478431;0.454902;0.384314
445648.12170227;5696592.62229927;470.95344998;10537.000000;1.000000;1.000000;1.000000;1.000000;0.026075;-0.026075;0.026075;1.000000;0.121569;0.196078;0.0862745
445648.12420090;5696592.54959877;470.95494987;51657.000000;1.000000;1.000000;1.000000;1.000000;0.028574;-0.028574;0.028574;1.000000;0.745098;0.831373;0.67451
445648.27680023;5696592.44549950;470.87914993;21588.000000;1.000000;1.000000;1.000000;1.000000;0.115499;-0.115499;0.115499;1.000000;0.278431;0.384314;0.196078
445648.03240021;5696592.54489906;470.90654995;33924.000000;1.000000;1.000000;1.000000;1.000000;-0.063227;0.063227;-0.063227;1.000000;0.494118;0.560784;0.384314
445647.98830231;5696592.44929894;470.85445001;12336.000000;1.000000;1.000000;1.000000;1.000000;-0.107325;0.107325;-0.107325;1.000000;0.211765;0.196078;0.101961
445648.04950150;5696592.56390007;470.92844989;40863.000000;1.000000;1.000000;1.000000;1.000000;-0.046125;0.046125;-0.046125;1.000000;0.584314;0.670588;0.490196
445648.09410294;5696592.63169868;470.96394994;25957.000000;1.000000;1.000000;1.000000;1.000000;-0.001524;0.001524;-0.001524;1.000000;0.352941;0.439216;0.301961
445647.99279984;5696592.77729996;470.91684987;38807.000000;1.000000;1.000000;1.000000;1.000000;0.115545;-0.115545;0.115545;1.000000;0.611765;0.6;0.509804
445647.99530228;5696592.70239838;470.91374995;27499.000000;1.000000;1.000000;1.000000;1.000000;-0.109757;0.109757;-0.109757;1.000000;0.427451;0.431373;0.360784
445647.99860199;5696592.66459854;470.91804983;24158.000000;1.000000;1.000000;1.000000;1.000000;-0.097252;0.097252;-0.097252;1.000000;0.380392;0.380392;0.282353
445648.00000198;5696592.62939842;470.91774990;33924.000000;1.000000;1.000000;1.000000;1.000000;-0.095625;0.095625;-0.095625;1.000000;0.52549;0.52549;0.458824
445648.14740189;5696592.59649857;470.95194985;4369.000000;1.000000;1.000000;1.000000;1.000000;0.051775;-0.051775;0.051775;1.000000;0.0392157;0.0941176;0.0235294
445648.07860001;5696592.51939972;470.91765000;32896.000000;1.000000;1.000000;1.000000;1.000000;-0.017027;0.017027;-0.017027;1.000000;0.462745;0.556863;0.345098
445648.00530060;5696592.51739891;470.87934997;18504.000000;1.000000;1.000000;1.000000;1.000000;-0.090326;0.090326;-0.090326;1.000000;0.270588;0.309804;0.192157
445648.15630157;5696592.44909866;470.91564991;28013.000000;1.000000;1.000000;1.000000;1.000000;0.060675;-0.060675;0.060675;1.000000;0.372549;0.486275;0.282353
445648.21150024;5696592.66359909;470.91374995;24929.000000;1.000000;1.000000;1.000000;1.000000;0.116015;-0.116015;0.116015;1.000000;0.345098;0.415686;0.317647
445648.08020218;5696592.47299965;470.88925006;31097.000000;1.000000;1.000000;1.000000;1.000000;-0.015425;0.015425;-0.015425;1.000000;0.439216;0.521569;0.341176
445648.24160202;5696592.84359940;470.87765004;41891.000000;1.000000;1.000000;1.000000;1.000000;-0.017045;0.017045;-0.017045;1.000000;0.65098;0.647059;0.6
445648.20450027;5696592.84929855;470.88294985;39321.000000;1.000000;1.000000;1.000000;1.000000;-0.019299;0.019299;-0.019299;1.000000;0.615686;0.607843;0.54902
445648.27770050;5696592.85429962;470.87704994;39064.000000;1.000000;1.000000;1.000000;1.000000;-0.024887;0.024887;-0.024887;1.000000;0.603922;0.6;0.560784
445648.16470154;5696592.49489983;470.92824986;21074.000000;1.000000;1.000000;1.000000;1.000000;0.069075;-0.069075;0.069075;1.000000;0.278431;0.380392;0.145098
445648.16390045;5696592.48559959;470.92575004;31611.000000;1.000000;1.000000;1.000000;1.000000;0.068274;-0.068274;0.068274;1.000000;0.439216;0.537255;0.313725
445647.91310318;5696592.69829948;470.91464998;24158.000000;1.000000;1.000000;1.000000;1.000000;-0.186941;0.186941;-0.186941;1.000000;0.392157;0.372549;0.313725
445648.20020111;5696592.49860008;470.92524983;36237.000000;1.000000;1.000000;1.000000;1.000000;0.104574;-0.104574;0.104574;1.000000;0.498039;0.619608;0.376471
445648.22350128;5696592.43159874;470.89054992;31611.000000;1.000000;1.000000;1.000000;1.000000;0.101639;-0.101639;0.101639;1.000000;0.439216;0.537255;0.337255
445648.14999969;5696592.79359825;470.88684990;23644.000000;1.000000;1.000000;1.000000;1.000000;0.036402;-0.036402;0.036402;1.000000;0.368627;0.368627;0.32549
445648.15860184;5696592.56969841;470.95914986;5911.000000;1.000000;1.000000;1.000000;1.000000;0.062975;-0.062975;0.062975;1.000000;0.0705882;0.117647;0.0313725
445648.28870209;5696592.84399994;470.87045004;34438.000000;1.000000;1.000000;1.000000;1.000000;-0.014000;0.014000;-0.014000;1.000000;0.529412;0.529412;0.498039
445648.15419968;5696592.51199921;470.93724992;17733.000000;1.000000;1.000000;1.000000;1.000000;0.058573;-0.058573;0.058573;1.000000;0.223529;0.32549;0.109804
445648.06400116;5696592.62990006;470.95324995;49087.000000;1.000000;1.000000;1.000000;1.000000;-0.031626;0.031626;-0.031626;1.000000;0.72549;0.780392;0.654902
445647.99559982;5696592.73039825;470.91404988;35980.000000;1.000000;1.000000;1.000000;1.000000;-0.123540;0.123540;-0.123540;1.000000;0.556863;0.560784;0.494118
445648.08850296;5696592.52999886;470.92754986;22359.000000;1.000000;1.000000;1.000000;1.000000;-0.007124;0.007124;-0.007124;1.000000;0.286275;0.403922;0.164706
445648.12110336;5696592.43869980;470.89535000;26985.000000;1.000000;1.000000;1.000000;1.000000;0.025476;-0.025476;0.025476;1.000000;0.368627;0.462745;0.290196
445647.98800095;5696592.67499931;470.91534998;22102.000000;1.000000;1.000000;1.000000;1.000000;-0.108974;0.108974;-0.108974;1.000000;0.34902;0.34902;0.266667
445648.20900162;5696592.72049912;470.87934997;8738.000000;1.000000;1.000000;1.000000;1.000000;0.109501;-0.109501;0.109501;1.000000;0.129412;0.141176;0.109804
445648.03009995;5696592.79729851;470.90944983;24672.000000;1.000000;1.000000;1.000000;1.000000;0.073234;-0.073234;0.073234;1.000000;0.396078;0.388235;0.286275
445647.95870026;5696592.47789963;470.84414985;39578.000000;1.000000;1.000000;1.000000;1.000000;-0.136927;0.136927;-0.136927;1.000000;0.623529;0.611765;0.52549
445648.25610168;5696592.76999863;470.87045004;19532.000000;1.000000;1.000000;1.000000;1.000000;0.060001;-0.060001;0.060001;1.000000;0.294118;0.305882;0.266667
445648.06160172;5696592.47009857;470.88135006;34952.000000;1.000000;1.000000;1.000000;1.000000;-0.034025;0.034025;-0.034025;1.000000;0.509804;0.576471;0.392157
445648.08000000;5696592.60499962;470.96064999;21074.000000;1.000000;1.000000;1.000000;1.000000;-0.015627;0.015627;-0.015627;1.000000;0.298039;0.360784;0.196078
445648.07000168;5696592.52719887;470.91734983;21588.000000;1.000000;1.000000;1.000000;1.000000;-0.025625;0.025625;-0.025625;1.000000;0.282353;0.384314;0.168627
445647.91930206;5696592.57669838;470.88784983;33410.000000;1.000000;1.000000;1.000000;1.000000;-0.176325;0.176325;-0.176325;1.000000;0.521569;0.513725;0.466667
445647.91060074;5696592.55879982;470.88724997;22616.000000;1.000000;1.000000;1.000000;1.000000;-0.185026;0.185026;-0.185026;1.000000;0.360784;0.34902;0.301961
445647.98150070;5696592.83199890;470.91925003;29812.000000;1.000000;1.000000;1.000000;1.000000;-0.114144;0.114144;-0.114144;1.000000;0.470588;0.458824;0.4
445648.01910217;5696592.83319862;470.91634991;34695.000000;1.000000;1.000000;1.000000;1.000000;-0.076592;0.076592;-0.076592;1.000000;0.545098;0.537255;0.470588
445648.20380219;5696592.84229858;470.88284995;37522.000000;1.000000;1.000000;1.000000;1.000000;-0.012299;0.012299;-0.012299;1.000000;0.584314;0.580392;0.521569
445648.02040298;5696592.79579933;470.91365005;28784.000000;1.000000;1.000000;1.000000;1.000000;0.082634;-0.082634;0.082634;1.000000;0.454902;0.45098;0.352941
445648.20730026;5696592.80469902;470.88255002;33924.000000;1.000000;1.000000;1.000000;1.000000;0.025301;-0.025301;0.025301;1.000000;0.521569;0.529412;0.47451
445648.26810272;5696592.85279854;470.87894990;38807.000000;1.000000;1.000000;1.000000;1.000000;-0.022799;0.022799;-0.022799;1.000000;0.6;0.596078;0.556863
445647.94989975;5696592.48569878;470.84854986;36751.000000;1.000000;1.000000;1.000000;1.000000;-0.145727;0.145727;-0.145727;1.000000;0.576471;0.568627;0.498039
445648.13520248;5696592.54159935;470.95304992;48830.000000;1.000000;1.000000;1.000000;1.000000;0.039576;-0.039576;0.039576;1.000000;0.705882;0.788235;0.631373
445648.33020218;5696592.51089867;470.86605002;28013.000000;1.000000;1.000000;1.000000;1.000000;-0.180899;0.180899;-0.180899;1.000000;0.403922;0.458824;0.32549
445648.02160080;5696592.75829895;470.91324999;24672.000000;1.000000;1.000000;1.000000;1.000000;0.103058;-0.103058;0.103058;1.000000;0.380392;0.396078;0.278431
445648.08960159;5696592.71669968;470.92744996;14135.000000;1.000000;1.000000;1.000000;1.000000;-0.058848;0.058848;-0.058848;1.000000;0.188235;0.239216;0.172549
445648.31340225;5696592.72519882;470.85384991;16705.000000;1.000000;1.000000;1.000000;1.000000;0.104806;-0.104806;0.104806;1.000000;0.254902;0.262745;0.223529
445648.34870346;5696592.72659882;470.85074999;36237.000000;1.000000;1.000000;1.000000;1.000000;0.103401;-0.103401;0.103401;1.000000;0.560784;0.560784;0.513725
445648.16710098;5696592.64419945;470.92544987;17733.000000;1.000000;1.000000;1.000000;1.000000;0.071474;-0.071474;0.071474;1.000000;0.227451;0.309804;0.203922
445647.98590286;5696592.56349953;470.88605000;18247.000000;1.000000;1.000000;1.000000;1.000000;-0.109724;0.109724;-0.109724;1.000000;0.286275;0.290196;0.211765
445648.32680328;5696592.47379883;470.86544992;20303.000000;1.000000;1.000000;1.000000;1.000000;-0.143799;0.143799;-0.143799;1.000000;0.290196;0.341176;0.211765
445648.20580109;5696592.60789879;470.92444994;10794.000000;1.000000;1.000000;1.000000;1.000000;0.110174;-0.110174;0.110174;1.000000;0.113725;0.203922;0.0941176
445648.06660278;5696592.54599960;470.92674996;29041.000000;1.000000;1.000000;1.000000;1.000000;-0.029024;0.029024;-0.029024;1.000000;0.396078;0.501961;0.286275
445648.03199966;5696592.50779922;470.88975002;12336.000000;1.000000;1.000000;1.000000;1.000000;-0.063627;0.063627;-0.063627;1.000000;0.164706;0.223529;0.0784314
445648.33400162;5696592.44529922;470.85375001;38807.000000;1.000000;1.000000;1.000000;1.000000;-0.115299;0.115299;-0.115299;1.000000;0.572549;0.623529;0.498039
445648.17410095;5696592.49629982;470.92864992;25186.000000;1.000000;1.000000;1.000000;1.000000;0.078474;-0.078474;0.078474;1.000000;0.341176;0.443137;0.207843
445648.20950134;5696592.49779900;470.92564990;30069.000000;1.000000;1.000000;1.000000;1.000000;0.113874;-0.113874;0.113874;1.000000;0.403922;0.52549;0.286275
445648.13580139;5696592.72679909;470.90874984;14135.000000;1.000000;1.000000;1.000000;1.000000;0.079852;-0.079852;0.079852;1.000000;0.188235;0.243137;0.176471
445648.28510101;5696592.46329887;470.88675000;40606.000000;1.000000;1.000000;1.000000;1.000000;-0.133299;0.133299;-0.133299;1.000000;0.568627;0.670588;0.498039
445647.91520126;5696592.64219864;470.90704991;23387.000000;1.000000;1.000000;1.000000;1.000000;-0.180426;0.180426;-0.180426;1.000000;0.376471;0.356863;0.313725
445647.95590027;5696592.53389938;470.86804988;37008.000000;1.000000;1.000000;1.000000;1.000000;-0.139727;0.139727;-0.139727;1.000000;0.576471;0.572549;0.501961
445647.99320038;5696592.53499992;470.87204983;30840.000000;1.000000;1.000000;1.000000;1.000000;-0.102427;0.102427;-0.102427;1.000000;0.47451;0.490196;0.372549
445648.11880310;5696592.43669899;470.89054992;31354.000000;1.000000;1.000000;1.000000;1.000000;0.023176;-0.023176;0.023176;1.000000;0.443137;0.52549;0.356863
445647.93980225;5696592.47729881;470.84795000;23901.000000;1.000000;1.000000;1.000000;1.000000;-0.155825;0.155825;-0.155825;1.000000;0.392157;0.368627;0.278431
445648.11960037;5696592.44819839;470.89765002;26214.000000;1.000000;1.000000;1.000000;1.000000;0.023973;-0.023973;0.023973;1.000000;0.356863;0.45098;0.270588
445648.17110260;5696592.76599892;470.88045003;17733.000000;1.000000;1.000000;1.000000;1.000000;0.064001;-0.064001;0.064001;1.000000;0.270588;0.278431;0.231373
445647.94989975;5696592.71819885;470.91654994;39578.000000;1.000000;1.000000;1.000000;1.000000;-0.157693;0.157693;-0.157693;1.000000;0.611765;0.611765;0.552941
445648.07990082;5696592.57469948;470.95324995;30069.000000;1.000000;1.000000;1.000000;1.000000;-0.015726;0.015726;-0.015726;1.000000;0.411765;0.513725;0.321569
445647.98530014;5696592.71959885;470.91345002;55512.000000;1.000000;1.000000;1.000000;1.000000;-0.126416;0.126416;-0.126416;1.000000;0.85098;0.854902;0.796078
445648.03640182;5696592.44240006;470.86354997;35209.000000;1.000000;1.000000;1.000000;1.000000;-0.059225;0.059225;-0.059225;1.000000;0.545098;0.556863;0.427451
445647.96960266;5696592.70239838;470.91485002;28013.000000;1.000000;1.000000;1.000000;1.000000;-0.133648;0.133648;-0.133648;1.000000;0.447059;0.435294;0.360784
445648.17889984;5696592.80259903;470.88594987;37008.000000;1.000000;1.000000;1.000000;1.000000;0.027401;-0.027401;0.027401;1.000000;0.576471;0.568627;0.52549
445648.14240082;5696592.76379974;470.89084985;12593.000000;1.000000;1.000000;1.000000;1.000000;0.066200;-0.066200;0.066200;1.000000;0.188235;0.207843;0.152941
445647.98480042;5696592.48699959;470.85474994;35209.000000;1.000000;1.000000;1.000000;1.000000;-0.110826;0.110826;-0.110826;1.000000;0.541176;0.556863;0.439216
445647.95940216;5696592.71959885;470.91695001;42405.000000;1.000000;1.000000;1.000000;1.000000;-0.149525;0.149525;-0.149525;1.000000;0.654902;0.654902;0.592157
445647.96930130;5696592.67209824;470.90984990;32125.000000;1.000000;1.000000;1.000000;1.000000;-0.127132;0.127132;-0.127132;1.000000;0.517647;0.494118;0.427451
445648.02290161;5696592.72309883;470.91524984;25186.000000;1.000000;1.000000;1.000000;1.000000;-0.097660;0.097660;-0.097660;1.000000;0.380392;0.396078;0.341176
445648.09770020;5696592.72539909;470.92094995;16705.000000;1.000000;1.000000;1.000000;1.000000;0.067399;-0.067399;0.067399;1.000000;0.223529;0.282353;0.211765
445648.21300323;5696592.65639885;470.91604998;24415.000000;1.000000;1.000000;1.000000;1.000000;0.117376;-0.117376;0.117376;1.000000;0.333333;0.411765;0.301961
445648.20040329;5696592.50319870;470.92995002;37779.000000;1.000000;1.000000;1.000000;1.000000;0.104776;-0.104776;0.104776;1.000000;0.52549;0.639216;0.403922
445648.26280029;5696592.81609924;470.86894991;29555.000000;1.000000;1.000000;1.000000;1.000000;0.013901;-0.013901;0.013901;1.000000;0.454902;0.458824;0.411765
445648.33559998;5696592.81869896;470.86754992;57825.000000;1.000000;1.000000;1.000000;1.000000;0.011329;-0.011329;0.011329;1.000000;0.882353;0.886275;0.866667
445647.92090042;5696592.51139839;470.87084987;29812.000000;1.000000;1.000000;1.000000;1.000000;-0.174726;0.174726;-0.174726;1.000000;0.47451;0.462745;0.392157
445648.13030060;5696592.59549912;470.96744992;8481.000000;1.000000;1.000000;1.000000;1.000000;0.034674;-0.034674;0.034674;1.000000;0.0980392;0.160784;0.0666667
445648.04940231;5696592.52689941;470.90704991;30583.000000;1.000000;1.000000;1.000000;1.000000;-0.046225;0.046225;-0.046225;1.000000;0.435294;0.513725;0.32549
445648.29740341;5696592.43680008;470.87064983;33410.000000;1.000000;1.000000;1.000000;1.000000;-0.106800;0.106800;-0.106800;1.000000;0.470588;0.556863;0.384314
445648.29829987;5696592.84549912;470.86854984;37522.000000;1.000000;1.000000;1.000000;1.000000;-0.015499;0.015499;-0.015499;1.000000;0.576471;0.576471;0.545098
445648.03950317;5696592.79649933;470.90754988;19789.000000;1.000000;1.000000;1.000000;1.000000;0.065362;-0.065362;0.065362;1.000000;0.317647;0.313725;0.211765
445648.09060104;5696592.49269875;470.90625002;28784.000000;1.000000;1.000000;1.000000;1.000000;-0.005026;0.005026;-0.005026;1.000000;0.396078;0.490196;0.286275
445647.95760162;5696592.52449997;470.86095001;37008.000000;1.000000;1.000000;1.000000;1.000000;-0.138025;0.138025;-0.138025;1.000000;0.572549;0.576471;0.494118
445648.01760300;5696592.64639862;470.92575004;32382.000000;1.000000;1.000000;1.000000;1.000000;-0.078024;0.078024;-0.078024;1.000000;0.490196;0.513725;0.411765
445648.24040039;5696592.43479927;470.88664987;33924.000000;1.000000;1.000000;1.000000;1.000000;0.104799;-0.104799;0.104799;1.000000;0.454902;0.576471;0.384314
445647.95689972;5696592.51529892;470.85854985;35980.000000;1.000000;1.000000;1.000000;1.000000;-0.138727;0.138727;-0.138727;1.000000;0.556863;0.560784;0.478431
445648.21410187;5696592.61889847;470.91794993;11565.000000;1.000000;1.000000;1.000000;1.000000;0.118475;-0.118475;0.118475;1.000000;0.133333;0.215686;0.109804
445648.37300308;5696592.81989868;470.86924984;38550.000000;1.000000;1.000000;1.000000;1.000000;0.010819;-0.010819;0.010819;1.000000;0.6;0.588235;0.572549
445647.92140015;5696592.48579987;470.85885002;21588.000000;1.000000;1.000000;1.000000;1.000000;-0.174227;0.174227;-0.174227;1.000000;0.364706;0.333333;0.243137
445647.92360123;5696592.48329933;470.85664989;23644.000000;1.000000;1.000000;1.000000;1.000000;-0.172026;0.172026;-0.172026;1.000000;0.396078;0.364706;0.262745
445647.91240128;5696592.71699913;470.91715004;29298.000000;1.000000;1.000000;1.000000;1.000000;-0.192504;0.192504;-0.192504;1.000000;0.466667;0.45098;0.376471
445648.01250275;5696592.78719910;470.91555001;31097.000000;1.000000;1.000000;1.000000;1.000000;0.093496;-0.093496;0.093496;1.000000;0.490196;0.486275;0.380392
445648.26310165;5696592.76929863;470.86835005;17990.000000;1.000000;1.000000;1.000000;1.000000;0.060701;-0.060701;0.060701;1.000000;0.270588;0.282353;0.243137
445648.16180237;5696592.79249962;470.88275005;34181.000000;1.000000;1.000000;1.000000;1.000000;0.037500;-0.037500;0.037500;1.000000;0.533333;0.529412;0.47451
445648.17980011;5696592.54219826;470.95044996;27242.000000;1.000000;1.000000;1.000000;1.000000;0.084173;-0.084173;0.084173;1.000000;0.384314;0.458824;0.298039
445648.04689987;5696592.82609947;470.90824987;44204.000000;1.000000;1.000000;1.000000;1.000000;0.048883;-0.048883;0.048883;1.000000;0.694118;0.682353;0.607843
445648.14510162;5696592.72589882;470.90674998;13878.000000;1.000000;1.000000;1.000000;1.000000;0.084215;-0.084215;0.084215;1.000000;0.188235;0.235294;0.164706
445647.93830307;5696592.55169876;470.87905004;33667.000000;1.000000;1.000000;1.000000;1.000000;-0.157324;0.157324;-0.157324;1.000000;0.529412;0.517647;0.462745
445648.01610001;5696592.63019951;470.92544987;27242.000000;1.000000;1.000000;1.000000;1.000000;-0.079527;0.079527;-0.079527;1.000000;0.415686;0.431373;0.337255
445648.29020126;5696592.52109917;470.89465000;22359.000000;1.000000;1.000000;1.000000;1.000000;-0.191099;0.191099;-0.191099;1.000000;0.305882;0.384314;0.227451
445647.90180023;5696592.51069839;470.87924983;29298.000000;1.000000;1.000000;1.000000;1.000000;-0.193827;0.193827;-0.193827;1.000000;0.466667;0.45098;0.376471
445648.33120163;5696592.52019890;470.86384990;24415.000000;1.000000;1.000000;1.000000;1.000000;-0.190199;0.190199;-0.190199;1.000000;0.352941;0.403922;0.266667
445647.86570175;5696592.47439964;470.87714984;30840.000000;1.000000;1.000000;1.000000;1.000000;-0.198482;0.198482;-0.198482;1.000000;0.517647;0.466667;0.384314
445648.01710327;5696592.46279915;470.86754992;19018.000000;1.000000;1.000000;1.000000;1.000000;-0.078524;0.078524;-0.078524;1.000000;0.282353;0.321569;0.164706
445648.18240173;5696592.51409920;470.93855001;31097.000000;1.000000;1.000000;1.000000;1.000000;0.086775;-0.086775;0.086775;1.000000;0.427451;0.533333;0.317647
445648.06380280;5696592.43519981;470.86235001;31611.000000;1.000000;1.000000;1.000000;1.000000;-0.031824;0.031824;-0.031824;1.000000;0.490196;0.501961;0.376471
445648.05150040;5696592.45949944;470.87374999;31611.000000;1.000000;1.000000;1.000000;1.000000;-0.044127;0.044127;-0.044127;1.000000;0.466667;0.517647;0.341176
445647.90460022;5696592.70839890;470.91664984;23387.000000;1.000000;1.000000;1.000000;1.000000;-0.197578;0.197578;-0.197578;1.000000;0.384314;0.360784;0.294118
445647.93980225;5696592.70979889;470.91594984;34952.000000;1.000000;1.000000;1.000000;1.000000;-0.164231;0.164231;-0.164231;1.000000;0.54902;0.541176;0.47451
445648.12780197;5696592.46589859;470.90754988;20303.000000;1.000000;1.000000;1.000000;1.000000;0.032175;-0.032175;0.032175;1.000000;0.270588;0.364706;0.156863
445648.09920319;5696592.52189835;470.93254997;34695.000000;1.000000;1.000000;1.000000;1.000000;0.003576;-0.003576;0.003576;1.000000;0.478431;0.588235;0.388235
445647.94270142;5696592.63499840;470.90354993;23901.000000;1.000000;1.000000;1.000000;1.000000;-0.152925;0.152925;-0.152925;1.000000;0.380392;0.364706;0.32549
445648.05800064;5696592.63989838;470.95074989;41634.000000;1.000000;1.000000;1.000000;1.000000;-0.037626;0.037626;-0.037626;1.000000;0.615686;0.666667;0.552941
445648.04150208;5696592.54619987;470.91394999;34952.000000;1.000000;1.000000;1.000000;1.000000;-0.054125;0.054125;-0.054125;1.000000;0.490196;0.584314;0.396078
445648.27000244;5696592.81779869;470.86695005;30583.000000;1.000000;1.000000;1.000000;1.000000;0.012201;-0.012201;0.012201;1.000000;0.470588;0.47451;0.427451
445647.98560150;5696592.77559860;470.91884996;42148.000000;1.000000;1.000000;1.000000;1.000000;0.122740;-0.122740;0.122740;1.000000;0.662745;0.65098;0.564706
445647.98840149;5696592.70299919;470.91345002;25700.000000;1.000000;1.000000;1.000000;1.000000;-0.116332;0.116332;-0.116332;1.000000;0.403922;0.403922;0.32549
445648.04470261;5696592.46249969;470.87584998;32125.000000;1.000000;1.000000;1.000000;1.000000;-0.050924;0.050924;-0.050924;1.000000;0.470588;0.529412;0.364706
445647.96420105;5696592.57959946;470.88284995;29812.000000;1.000000;1.000000;1.000000;1.000000;-0.131426;0.131426;-0.131426;1.000000;0.478431;0.458824;0.392157
445647.99690063;5696592.46939857;470.86214997;17219.000000;1.000000;1.000000;1.000000;1.000000;-0.098726;0.098726;-0.098726;1.000000;0.266667;0.286275;0.14902
445648.07460220;5696592.62179955;470.96054985;48830.000000;1.000000;1.000000;1.000000;1.000000;-0.021025;0.021025;-0.021025;1.000000;0.729412;0.772549;0.666667
445648.13610275;5696592.70799835;470.91544988;14906.000000;1.000000;1.000000;1.000000;1.000000;0.064391;-0.064391;0.064391;1.000000;0.196078;0.254902;0.172549
445648.32150085;5696592.76179894;470.85465004;39064.000000;1.000000;1.000000;1.000000;1.000000;0.068201;-0.068201;0.068201;1.000000;0.6;0.603922;0.556863
445648.10210236;5696592.64029892;470.95974996;14649.000000;1.000000;1.000000;1.000000;1.000000;0.006475;-0.006475;0.006475;1.000000;0.196078;0.25098;0.152941
445648.17049988;5696592.78469856;470.88065006;31868.000000;1.000000;1.000000;1.000000;1.000000;0.045301;-0.045301;0.045301;1.000000;0.498039;0.494118;0.447059
445648.17160233;5696592.74720009;470.88264992;13878.000000;1.000000;1.000000;1.000000;1.000000;0.082800;-0.082800;0.082800;1.000000;0.211765;0.223529;0.180392
445648.03360184;5696592.56549843;470.92314984;30840.000000;1.000000;1.000000;1.000000;1.000000;-0.062025;0.062025;-0.062025;1.000000;0.439216;0.513725;0.34902
445647.99630173;5696592.48819931;470.86224987;35209.000000;1.000000;1.000000;1.000000;1.000000;-0.099325;0.099325;-0.099325;1.000000;0.533333;0.560784;0.431373
445648.03520020;5696592.49119957;470.88734986;15420.000000;1.000000;1.000000;1.000000;1.000000;-0.060427;0.060427;-0.060427;1.000000;0.207843;0.27451;0.121569
445648.30970200;5696592.78849991;470.85905005;43947.000000;1.000000;1.000000;1.000000;1.000000;0.041763;-0.041763;0.041763;1.000000;0.670588;0.678431;0.643137
445648.10860260;5696592.45389946;470.89255001;27756.000000;1.000000;1.000000;1.000000;1.000000;0.012976;-0.012976;0.012976;1.000000;0.384314;0.470588;0.290196
445648.06560333;5696592.56469925;470.93624999;39578.000000;1.000000;1.000000;1.000000;1.000000;-0.030024;0.030024;-0.030024;1.000000;0.560784;0.654902;0.462745
445648.08130081;5696592.59089859;470.95584991;27756.000000;1.000000;1.000000;1.000000;1.000000;-0.014326;0.014326;-0.014326;1.000000;0.392157;0.470588;0.278431
445648.18440063;5696592.47679909;470.91954996;40349.000000;1.000000;1.000000;1.000000;1.000000;0.088774;-0.088774;0.088774;1.000000;0.572549;0.67451;0.439216
445648.22010239;5696592.48059853;470.91424992;22873.000000;1.000000;1.000000;1.000000;1.000000;0.124475;-0.124475;0.124475;1.000000;0.282353;0.415686;0.184314
445648.33490189;5696592.42889984;470.85124995;41634.000000;1.000000;1.000000;1.000000;1.000000;0.098900;-0.098900;0.098900;1.000000;0.611765;0.666667;0.54902
445648.14500244;5696592.51289948;470.93454983;22102.000000;1.000000;1.000000;1.000000;1.000000;0.049376;-0.049376;0.049376;1.000000;0.294118;0.392157;0.180392
445648.12940033;5696592.67089851;470.93575003;20560.000000;1.000000;1.000000;1.000000;1.000000;0.036041;-0.036041;0.036041;1.000000;0.282353;0.345098;0.247059
445648.31850250;5696592.78299912;470.85944988;40349.000000;1.000000;1.000000;1.000000;1.000000;0.047001;-0.047001;0.047001;1.000000;0.615686;0.623529;0.584314
445648.04100235;5696592.53709991;470.90684988;41634.000000;1.000000;1.000000;1.000000;1.000000;-0.054625;0.054625;-0.054625;1.000000;0.603922;0.678431;0.494118
445648.10330017;5696592.58619888;470.97545006;39321.000000;1.000000;1.000000;1.000000;1.000000;0.007673;-0.007673;0.007673;1.000000;0.568627;0.639216;0.486275
445648.09670074;5696592.48059853;470.90164997;28784.000000;1.000000;1.000000;1.000000;1.000000;0.001074;-0.001074;0.001074;1.000000;0.4;0.490196;0.294118
445648.21040161;5696592.71319969;470.88395001;8995.000000;1.000000;1.000000;1.000000;1.000000;0.116813;-0.116813;0.116813;1.000000;0.129412;0.14902;0.113725
445648.02700241;5696592.84189995;470.91444995;33410.000000;1.000000;1.000000;1.000000;1.000000;-0.069649;0.069649;-0.069649;1.000000;0.52549;0.517647;0.45098
445648.14110001;5696592.82919891;470.89855005;39064.000000;1.000000;1.000000;1.000000;1.000000;0.000801;-0.000801;0.000801;1.000000;0.611765;0.603922;0.545098
445648.25160034;5696592.85199936;470.88045003;45232.000000;1.000000;1.000000;1.000000;1.000000;-0.022001;0.022001;-0.022001;1.000000;0.701961;0.694118;0.654902
445648.02710159;5696592.44329842;470.86314990;38293.000000;1.000000;1.000000;1.000000;1.000000;-0.068525;0.068525;-0.068525;1.000000;0.596078;0.6;0.47451
445648.06710251;5696592.78929909;470.90164997;17990.000000;1.000000;1.000000;1.000000;1.000000;0.049701;-0.049701;0.049701;1.000000;0.286275;0.286275;0.207843
445648.28709991;5696592.85569962;470.87745001;40606.000000;1.000000;1.000000;1.000000;1.000000;-0.025700;0.025700;-0.025700;1.000000;0.623529;0.623529;0.592157
445648.02580078;5696592.68299873;470.92415001;17219.000000;1.000000;1.000000;1.000000;1.000000;-0.074137;0.074137;-0.074137;1.000000;0.262745;0.278431;0.2
445648.02700241;5696592.64779861;470.92844989;35980.000000;1.000000;1.000000;1.000000;1.000000;-0.068624;0.068624;-0.068624;1.000000;0.545098;0.568627;0.466667
445648.14270218;5696592.57809837;470.96544983;6682.000000;1.000000;1.000000;1.000000;1.000000;0.047075;-0.047075;0.047075;1.000000;0.0666667;0.133333;0.0392157
445648.10490234;5696592.79059990;470.89645006;22359.000000;1.000000;1.000000;1.000000;1.000000;0.039400;-0.039400;0.039400;1.000000;0.345098;0.34902;0.298039
445648.28970154;5696592.79969986;470.86064984;40092.000000;1.000000;1.000000;1.000000;1.000000;0.030300;-0.030300;0.030300;1.000000;0.611765;0.619608;0.580392
445648.13280304;5696592.53729828;470.94595005;47802.000000;1.000000;1.000000;1.000000;1.000000;0.037176;-0.037176;0.037176;1.000000;0.694118;0.772549;0.6
445648.32720001;5696592.80089958;470.86004998;45489.000000;1.000000;1.000000;1.000000;1.000000;0.029100;-0.029100;0.029100;1.000000;0.698039;0.701961;0.670588
445648.33880051;5696592.74619873;470.85284998;30326.000000;1.000000;1.000000;1.000000;1.000000;0.083897;-0.083897;0.083897;1.000000;0.470588;0.470588;0.423529
445648.10670288;5696592.56959923;470.97074987;51914.000000;1.000000;1.000000;1.000000;1.000000;0.011076;-0.011076;0.011076;1.000000;0.752941;0.835294;0.678431
445648.00090225;5696592.81390007;470.91765000;36751.000000;1.000000;1.000000;1.000000;1.000000;0.096083;-0.096083;0.096083;1.000000;0.576471;0.568627;0.498039
445648.22330292;5696592.82429894;470.87885000;28784.000000;1.000000;1.000000;1.000000;1.000000;0.015703;-0.015703;0.015703;1.000000;0.447059;0.447059;0.392157
445647.99770172;5696592.47869881;470.86224987;24415.000000;1.000000;1.000000;1.000000;1.000000;-0.097925;0.097925;-0.097925;1.000000;0.376471;0.396078;0.262745
445648.18920334;5696592.78529938;470.88154985;29812.000000;1.000000;1.000000;1.000000;1.000000;0.044701;-0.044701;0.044701;1.000000;0.462745;0.462745;0.411765
445647.99070175;5696592.62799843;470.91494991;35466.000000;1.000000;1.000000;1.000000;1.000000;-0.104925;0.104925;-0.104925;1.000000;0.556863;0.54902;0.486275
445648.13700302;5696592.46499832;470.91034986;20560.000000;1.000000;1.000000;1.000000;1.000000;0.041376;-0.041376;0.041376;1.000000;0.266667;0.372549;0.145098
445647.93050201;5696592.73629959;470.91814997;53970.000000;1.000000;1.000000;1.000000;1.000000;-0.182758;0.182758;-0.182758;1.000000;0.827451;0.831373;0.776471
445647.96800049;5696592.73749931;470.91754987;43947.000000;1.000000;1.000000;1.000000;1.000000;-0.150379;0.150379;-0.150379;1.000000;0.678431;0.678431;0.611765
