//X;Y;Z;Intensity;Return Number;Number Of Returns;Scan Direction Flag;Point Source ID;C2M signed distances[-][<0.8];C2M signed distances[<0.4];C2M signed distances[-][<0.2];Stump98;Rf;Gf;Bf
300
445636.44600113;5696559.29949959;470.83515002;41120.000000;1.000000;1.000000;1.000000;1.000000;-0.030500;0.030500;-0.030500;1.000000;0.623529;0.631373;0.619608
445636.34430130;5696559.32709892;470.86584999;52171.000000;1.000000;1.000000;1.000000;1.000000;-0.002901;0.002901;-0.002901;1.000000;0.8;0.8;0.788235
445636.31130035;5696559.20919998;470.83504989;36494.000000;1.000000;1.000000;1.000000;1.000000;-0.120800;0.120800;-0.120800;1.000000;0.572549;0.556863;0.537255
445636.56340225;5696559.40539940;470.83474996;58082.000000;1.000000;1.000000;1.000000;1.000000;0.075399;-0.075399;0.075399;1.000000;0.87451;0.894118;0.898039
445636.79300125;5696559.26560028;470.79224994;21331.000000;1.000000;1.000000;1.000000;1.000000;-0.178170;0.178170;-0.178170;1.000000;0.32549;0.32549;0.32549
445636.33910187;5696559.18089874;470.83355000;15420.000000;1.000000;1.000000;1.000000;1.000000;-0.149101;0.149101;-0.149101;1.000000;0.243137;0.235294;0.235294
445636.37690170;5696559.18439873;470.83305003;25700.000000;1.000000;1.000000;1.000000;1.000000;-0.145601;0.145601;-0.145601;1.000000;0.403922;0.388235;0.388235
445636.45080002;5696559.22429855;470.83215000;29298.000000;1.000000;1.000000;1.000000;1.000000;-0.105701;0.105701;-0.105701;1.000000;0.435294;0.454902;0.45098
445636.45170029;5696559.18680008;470.83644988;56283.000000;1.000000;1.000000;1.000000;1.000000;-0.143200;0.143200;-0.143200;1.000000;0.854902;0.866667;0.862745
445636.64260300;5696559.33549889;470.80024983;15934.000000;1.000000;1.000000;1.000000;1.000000;0.016660;-0.016660;0.016660;1.000000;0.254902;0.243137;0.243137
445636.30640228;5696559.28199966;470.83564999;26471.000000;1.000000;1.000000;1.000000;1.000000;-0.048000;0.048000;-0.048000;1.000000;0.411765;0.403922;0.392157
445636.54000290;5696559.27459915;470.82285001;32639.000000;1.000000;1.000000;1.000000;1.000000;-0.055401;0.055401;-0.055401;1.000000;0.494118;0.505882;0.498039
445636.37870224;5696559.39849861;470.87294986;52942.000000;1.000000;1.000000;1.000000;1.000000;0.068523;-0.068523;0.068523;1.000000;0.796078;0.815686;0.823529
445636.56700333;5696559.29289825;470.83355000;57054.000000;1.000000;1.000000;1.000000;1.000000;-0.037195;0.037195;-0.037195;1.000000;0.866667;0.878431;0.870588
445636.64230164;5696559.29759796;470.83235003;13621.000000;1.000000;1.000000;1.000000;1.000000;-0.035886;0.035886;-0.035886;1.000000;0.2;0.211765;0.211765
445636.64350327;5696559.26019867;470.83194997;52685.000000;1.000000;1.000000;1.000000;1.000000;-0.071754;0.071754;-0.071754;1.000000;0.8;0.811765;0.8
445636.50140198;5696559.14250000;470.83585002;25957.000000;1.000000;1.000000;1.000000;1.000000;-0.187500;0.187500;-0.187500;1.000000;0.376471;0.403922;0.407843
445636.81050308;5696559.29239853;470.77234985;6425.000000;1.000000;1.000000;1.000000;1.000000;-0.187437;0.187437;-0.187437;1.000000;0.105882;0.0980392;0.105882
445636.57750137;5696559.27579887;470.82454993;44204.000000;1.000000;1.000000;1.000000;1.000000;-0.054201;0.054201;-0.054201;1.000000;0.670588;0.682353;0.666667
445636.40450104;5696559.37049873;470.86675002;49344.000000;1.000000;1.000000;1.000000;1.000000;0.040499;-0.040499;0.040499;1.000000;0.745098;0.760784;0.74902
445636.37030228;5696559.33159836;470.86944987;60652.000000;1.000000;1.000000;1.000000;1.000000;0.001598;-0.001598;0.001598;1.000000;0.921569;0.929412;0.921569
445636.49790009;5696559.18019875;470.83614995;26471.000000;1.000000;1.000000;1.000000;1.000000;-0.149801;0.149801;-0.149801;1.000000;0.388235;0.411765;0.419608
445636.67460068;5696559.37469872;470.79285004;22102.000000;1.000000;1.000000;1.000000;1.000000;0.065388;-0.065388;0.065388;1.000000;0.356863;0.333333;0.333333
445636.68150146;5696559.30149849;470.79924991;15420.000000;1.000000;1.000000;1.000000;1.000000;-0.061613;0.061613;-0.061613;1.000000;0.235294;0.235294;0.243137
445636.29780014;5696559.28979881;470.83535006;29555.000000;1.000000;1.000000;1.000000;1.000000;-0.040201;0.040201;-0.040201;1.000000;0.458824;0.45098;0.431373
445636.33660324;5696559.25589951;470.83675005;46774.000000;1.000000;1.000000;1.000000;1.000000;-0.074100;0.074100;-0.074100;1.000000;0.709804;0.717647;0.709804
445636.67060287;5696559.30959900;470.79884984;5911.000000;1.000000;1.000000;1.000000;1.000000;-0.048251;0.048251;-0.048251;1.000000;0.0901961;0.0941176;0.101961
445636.67020233;5696559.26939972;470.82865002;28270.000000;1.000000;1.000000;1.000000;1.000000;-0.074495;0.074495;-0.074495;1.000000;0.419608;0.439216;0.431373
445636.41540344;5696559.14809998;470.83664991;8995.000000;1.000000;1.000000;1.000000;1.000000;-0.182046;0.182046;-0.182046;1.000000;0.129412;0.145098;0.14902
445636.32489975;5696559.31279953;470.85084989;37265.000000;1.000000;1.000000;1.000000;1.000000;-0.017203;0.017203;-0.017203;1.000000;0.576471;0.572549;0.556863
445636.36170013;5696559.30929955;470.85714986;50372.000000;1.000000;1.000000;1.000000;1.000000;-0.020700;0.020700;-0.020700;1.000000;0.768627;0.772549;0.760784
445636.51410110;5696559.24439819;470.81664993;27756.000000;1.000000;1.000000;1.000000;1.000000;-0.086131;0.086131;-0.086131;1.000000;0.415686;0.431373;0.427451
445636.62600143;5696559.21309860;470.80964996;18504.000000;1.000000;1.000000;1.000000;1.000000;-0.116901;0.116901;-0.116901;1.000000;0.270588;0.286275;0.294118
445636.66349991;5696559.21430023;470.81134989;51143.000000;1.000000;1.000000;1.000000;1.000000;-0.121358;0.121358;-0.121358;1.000000;0.768627;0.788235;0.788235
445636.70100220;5696559.21549805;470.81075003;29041.000000;1.000000;1.000000;1.000000;1.000000;-0.136401;0.136401;-0.136401;1.000000;0.431373;0.45098;0.447059
445636.66820343;5696559.13909920;470.81075003;28784.000000;1.000000;1.000000;1.000000;1.000000;-0.195323;0.195323;-0.195323;1.000000;0.443137;0.439216;0.431373
445636.29060181;5696559.26249893;470.83465006;61423.000000;1.000000;1.000000;1.000000;1.000000;-0.067586;0.067586;-0.067586;1.000000;0.937255;0.941176;0.933333
445636.29190262;5696559.22729881;470.83664991;26728.000000;1.000000;1.000000;1.000000;1.000000;-0.102722;0.102722;-0.102722;1.000000;0.415686;0.407843;0.388235
445636.43360336;5696559.38189896;470.86584999;57568.000000;1.000000;1.000000;1.000000;1.000000;0.051899;-0.051899;0.051899;1.000000;0.866667;0.886275;0.878431
445636.47280319;5696559.30869873;470.82955005;22359.000000;1.000000;1.000000;1.000000;1.000000;-0.021412;0.021412;-0.021412;1.000000;0.341176;0.345098;0.329412
445636.43850143;5696559.26980026;470.83445003;59367.000000;1.000000;1.000000;1.000000;1.000000;-0.060200;0.060200;-0.060200;1.000000;0.901961;0.909804;0.898039
445636.39400299;5696559.42779930;470.85294988;8738.000000;1.000000;1.000000;1.000000;1.000000;0.097799;-0.097799;0.097799;1.000000;0.121569;0.141176;0.152941
445636.47110184;5696559.35289963;470.85554983;60395.000000;1.000000;1.000000;1.000000;1.000000;0.022905;-0.022905;0.022905;1.000000;0.917647;0.92549;0.913725
445636.39960297;5696559.31279953;470.85424997;51143.000000;1.000000;1.000000;1.000000;1.000000;-0.017200;0.017200;-0.017200;1.000000;0.776471;0.784314;0.772549
445636.62470062;5696559.32749947;470.81795003;11308.000000;1.000000;1.000000;1.000000;1.000000;-0.002501;0.002501;-0.002501;1.000000;0.172549;0.172549;0.184314
445636.70210083;5696559.25499924;470.81824996;33924.000000;1.000000;1.000000;1.000000;1.000000;-0.106225;0.106225;-0.106225;1.000000;0.505882;0.52549;0.517647
445636.58329971;5696559.35939987;470.81644990;19532.000000;1.000000;1.000000;1.000000;1.000000;0.029400;-0.029400;0.029400;1.000000;0.305882;0.294118;0.301961
445636.54780014;5696559.32020004;470.84934999;56283.000000;1.000000;1.000000;1.000000;1.000000;-0.009800;0.009800;-0.009800;1.000000;0.847059;0.866667;0.858824
445636.58720215;5696559.24930008;470.81305005;38807.000000;1.000000;1.000000;1.000000;1.000000;-0.080700;0.080700;-0.080700;1.000000;0.588235;0.6;0.588235
445636.69550140;5696559.36599930;470.77734997;26471.000000;1.000000;1.000000;1.000000;1.000000;0.077494;-0.077494;0.077494;1.000000;0.427451;0.4;0.368627
445636.69670303;5696559.32849892;470.77694990;13107.000000;1.000000;1.000000;1.000000;1.000000;-0.069842;0.069842;-0.069842;1.000000;0.211765;0.196078;0.192157
445636.58839996;5696559.21189888;470.81264998;43176.000000;1.000000;1.000000;1.000000;1.000000;-0.118101;0.118101;-0.118101;1.000000;0.654902;0.666667;0.658824
445636.55420120;5696559.17289932;470.81524994;31354.000000;1.000000;1.000000;1.000000;1.000000;-0.157101;0.157101;-0.157101;1.000000;0.466667;0.486275;0.494118
445636.63050278;5696559.13789948;470.81364991;42148.000000;1.000000;1.000000;1.000000;1.000000;-0.192135;0.192135;-0.192135;1.000000;0.643137;0.647059;0.635294
445636.28180130;5696559.42119797;470.89205005;47288.000000;1.000000;1.000000;1.000000;1.000000;0.091198;-0.091198;0.091198;1.000000;0.717647;0.729412;0.72549
445636.65740021;5696559.40159805;470.81565001;31611.000000;1.000000;1.000000;1.000000;1.000000;0.077833;-0.077833;0.077833;1.000000;0.494118;0.482353;0.482353
445636.55210312;5696559.24799927;470.81145002;44461.000000;1.000000;1.000000;1.000000;1.000000;-0.082001;0.082001;-0.082001;1.000000;0.67451;0.686275;0.678431
445636.55320175;5696559.21049889;470.81334998;23387.000000;1.000000;1.000000;1.000000;1.000000;-0.119501;0.119501;-0.119501;1.000000;0.34902;0.364706;0.360784
445636.31960114;5696559.42249878;470.88684990;25957.000000;1.000000;1.000000;1.000000;1.000000;0.092646;-0.092646;0.092646;1.000000;0.380392;0.403922;0.411765
445636.47020157;5696559.39269836;470.85364987;30583.000000;1.000000;1.000000;1.000000;1.000000;0.062698;-0.062698;0.062698;1.000000;0.45098;0.47451;0.486275
445636.77280243;5696559.29109962;470.77534987;11308.000000;1.000000;1.000000;1.000000;1.000000;-0.151022;0.151022;-0.151022;1.000000;0.176471;0.168627;0.184314
445636.62420090;5696559.24809845;470.81935002;58082.000000;1.000000;1.000000;1.000000;1.000000;-0.081902;0.081902;-0.081902;1.000000;0.882353;0.894118;0.882353
445636.66330154;5696559.29119881;470.81924989;13107.000000;1.000000;1.000000;1.000000;1.000000;-0.053219;0.053219;-0.053219;1.000000;0.2;0.203922;0.207843
445636.48100098;5696559.13019951;470.84874990;42148.000000;1.000000;1.000000;1.000000;1.000000;-0.199801;0.199801;-0.199801;1.000000;0.631373;0.65098;0.658824
445636.43970306;5696559.23229797;470.83404996;32639.000000;1.000000;1.000000;1.000000;1.000000;-0.097702;0.097702;-0.097702;1.000000;0.490196;0.505882;0.498039
445636.51750000;5696559.16209991;470.82974984;47545.000000;1.000000;1.000000;1.000000;1.000000;-0.168011;0.168011;-0.168011;1.000000;0.713725;0.733333;0.729412
445636.74180038;5696559.16979797;470.79804995;16191.000000;1.000000;1.000000;1.000000;1.000000;-0.197160;0.197160;-0.197160;1.000000;0.239216;0.254902;0.247059
445636.33520325;5696559.33019836;470.86784985;47802.000000;1.000000;1.000000;1.000000;1.000000;0.000198;-0.000198;0.000198;1.000000;0.733333;0.733333;0.721569
445636.26160248;5696559.25350006;470.83564999;34438.000000;1.000000;1.000000;1.000000;1.000000;-0.076508;0.076508;-0.076508;1.000000;0.529412;0.529412;0.513725
445636.55480011;5696559.41319855;470.83445003;49344.000000;1.000000;1.000000;1.000000;1.000000;0.083199;-0.083199;0.083199;1.000000;0.741176;0.760784;0.756863
445636.74450119;5696559.27239807;470.79474999;9766.000000;1.000000;1.000000;1.000000;1.000000;-0.130971;0.130971;-0.130971;1.000000;0.14902;0.14902;0.152941
445636.33790024;5696559.21839912;470.83395006;35980.000000;1.000000;1.000000;1.000000;1.000000;-0.111601;0.111601;-0.111601;1.000000;0.556863;0.54902;0.533333
445636.41430099;5696559.18559845;470.83474996;33924.000000;1.000000;1.000000;1.000000;1.000000;-0.144533;0.144533;-0.144533;1.000000;0.52549;0.521569;0.509804
445636.80120285;5696559.29319962;470.77195003;5654.000000;1.000000;1.000000;1.000000;1.000000;-0.178168;0.178168;-0.178168;1.000000;0.0941176;0.0862745;0.0980392
445636.45240219;5696559.38249977;470.86445000;42148.000000;1.000000;1.000000;1.000000;1.000000;0.052500;-0.052500;0.052500;1.000000;0.627451;0.65098;0.65098
445636.53090103;5696559.27549942;470.82005002;30583.000000;1.000000;1.000000;1.000000;1.000000;-0.054501;0.054501;-0.054501;1.000000;0.458824;0.47451;0.466667
445636.56820114;5696559.27659805;470.82414987;36494.000000;1.000000;1.000000;1.000000;1.000000;-0.053539;0.053539;-0.053539;1.000000;0.552941;0.560784;0.54902
445636.49650009;5696559.23419960;470.82274987;28784.000000;1.000000;1.000000;1.000000;1.000000;-0.095800;0.095800;-0.095800;1.000000;0.427451;0.447059;0.447059
445636.64450272;5696559.24149902;470.82244994;44461.000000;1.000000;1.000000;1.000000;1.000000;-0.090239;0.090239;-0.090239;1.000000;0.67451;0.686275;0.678431
445636.53320129;5696559.20049866;470.82165005;48316.000000;1.000000;1.000000;1.000000;1.000000;-0.129501;0.129501;-0.129501;1.000000;0.729412;0.741176;0.741176
445636.44730194;5696559.26199921;470.83244993;60652.000000;1.000000;1.000000;1.000000;1.000000;-0.068001;0.068001;-0.068001;1.000000;0.917647;0.933333;0.92549
445636.48700150;5696559.18820007;470.83574988;22102.000000;1.000000;1.000000;1.000000;1.000000;-0.141800;0.141800;-0.141800;1.000000;0.317647;0.34902;0.34902
445636.28690155;5696559.36730011;470.87535002;26471.000000;1.000000;1.000000;1.000000;1.000000;0.037491;-0.037491;0.037491;1.000000;0.392157;0.415686;0.407843
445636.36800201;5696559.40889938;470.87255003;52942.000000;1.000000;1.000000;1.000000;1.000000;0.078899;-0.078899;0.078899;1.000000;0.792157;0.815686;0.823529
445636.55400284;5696559.37829979;470.83165004;15934.000000;1.000000;1.000000;1.000000;1.000000;0.048300;-0.048300;0.048300;1.000000;0.243137;0.247059;0.25098
445636.55740173;5696559.34279831;470.83834984;15420.000000;1.000000;1.000000;1.000000;1.000000;0.012798;-0.012798;0.012798;1.000000;0.239216;0.239216;0.239216
445636.52120026;5696559.30189903;470.83165004;37522.000000;1.000000;1.000000;1.000000;1.000000;-0.028203;0.028203;-0.028203;1.000000;0.568627;0.576471;0.564706
445636.55809982;5696559.29839905;470.83554985;59110.000000;1.000000;1.000000;1.000000;1.000000;-0.031601;0.031601;-0.031601;1.000000;0.898039;0.909804;0.898039
445636.63140305;5696559.30569847;470.83194997;11051.000000;1.000000;1.000000;1.000000;1.000000;-0.024719;0.024719;-0.024719;1.000000;0.164706;0.172549;0.176471
445636.65620239;5696559.38319977;470.80375006;20046.000000;1.000000;1.000000;1.000000;1.000000;0.060747;-0.060747;0.060747;1.000000;0.32549;0.301961;0.301961
445636.31580170;5696559.31369980;470.84804990;39321.000000;1.000000;1.000000;1.000000;1.000000;-0.016362;0.016362;-0.016362;1.000000;0.603922;0.603922;0.588235
445636.49839981;5696559.39250000;470.85025002;27756.000000;1.000000;1.000000;1.000000;1.000000;0.062500;-0.062500;0.062500;1.000000;0.415686;0.427451;0.435294
445636.46180161;5696559.35369881;470.85515000;54484.000000;1.000000;1.000000;1.000000;1.000000;0.023699;-0.023699;0.023699;1.000000;0.827451;0.835294;0.823529
445636.60950287;5696559.36179932;470.81064989;15163.000000;1.000000;1.000000;1.000000;1.000000;0.031799;-0.031799;0.031799;1.000000;0.247059;0.227451;0.235294
445636.47240265;5696559.33659943;470.84375002;40606.000000;1.000000;1.000000;1.000000;1.000000;0.006834;-0.006834;0.006834;1.000000;0.619608;0.623529;0.603922
445636.61900146;5696559.21369942;470.81165006;20817.000000;1.000000;1.000000;1.000000;1.000000;-0.116301;0.116301;-0.116301;1.000000;0.305882;0.32549;0.329412
445636.65419968;5696559.21509941;470.81095006;47031.000000;1.000000;1.000000;1.000000;1.000000;-0.118105;0.118105;-0.118105;1.000000;0.701961;0.72549;0.729412
445636.69170197;5696559.21629913;470.81264998;31354.000000;1.000000;1.000000;1.000000;1.000000;-0.130882;0.130882;-0.130882;1.000000;0.470588;0.486275;0.482353
445636.65880020;5696559.13989838;470.81264998;32896.000000;1.000000;1.000000;1.000000;1.000000;-0.192763;0.192763;-0.192763;1.000000;0.505882;0.505882;0.501961
445636.30070313;5696559.24519928;470.83264997;54227.000000;1.000000;1.000000;1.000000;1.000000;-0.084801;0.084801;-0.084801;1.000000;0.831373;0.831373;0.815686
445636.44720276;5696559.28769882;470.83504989;33410.000000;1.000000;1.000000;1.000000;1.000000;-0.042301;0.042301;-0.042301;1.000000;0.505882;0.517647;0.505882
445636.37450226;5696559.21029861;470.83554985;45489.000000;1.000000;1.000000;1.000000;1.000000;-0.119701;0.119701;-0.119701;1.000000;0.701961;0.698039;0.678431
445636.34070023;5696559.17369850;470.83594992;16962.000000;1.000000;1.000000;1.000000;1.000000;-0.156301;0.156301;-0.156301;1.000000;0.258824;0.258824;0.27451
445636.37800034;5696559.17259796;470.83524992;15163.000000;1.000000;1.000000;1.000000;1.000000;-0.157406;0.157406;-0.157406;1.000000;0.231373;0.231373;0.239216
445636.44980057;5696559.21499832;470.83434989;30840.000000;1.000000;1.000000;1.000000;1.000000;-0.115002;0.115002;-0.115002;1.000000;0.462745;0.478431;0.478431
445636.45090302;5696559.17749985;470.83624985;54741.000000;1.000000;1.000000;1.000000;1.000000;-0.152500;0.152500;-0.152500;1.000000;0.827451;0.839216;0.839216
445636.74830063;5696559.19019897;470.79865005;24672.000000;1.000000;1.000000;1.000000;1.000000;-0.185170;0.185170;-0.185170;1.000000;0.368627;0.380392;0.384314
445636.38700302;5696559.42840012;470.85504987;8481.000000;1.000000;1.000000;1.000000;1.000000;0.098403;-0.098403;0.098403;1.000000;0.117647;0.137255;0.152941
445636.31110199;5696559.38349922;470.89065005;56797.000000;1.000000;1.000000;1.000000;1.000000;0.053499;-0.053499;0.053499;1.000000;0.854902;0.87451;0.862745
445636.68360336;5696559.40399940;470.80985000;24929.000000;1.000000;1.000000;1.000000;1.000000;0.093241;-0.093241;0.093241;1.000000;0.392157;0.380392;0.364706
445636.35250290;5696559.31009872;470.85664989;40349.000000;1.000000;1.000000;1.000000;1.000000;-0.020290;0.020290;-0.020290;1.000000;0.619608;0.619608;0.603922
445636.63480194;5696559.26799973;470.83404996;55769.000000;1.000000;1.000000;1.000000;1.000000;-0.062505;0.062505;-0.062505;1.000000;0.843137;0.858824;0.847059
445636.66810043;5696559.38220032;470.79725005;21588.000000;1.000000;1.000000;1.000000;1.000000;0.066515;-0.066515;0.066515;1.000000;0.345098;0.32549;0.313725
445636.62120255;5696559.13869865;470.81554987;43433.000000;1.000000;1.000000;1.000000;1.000000;-0.191301;0.191301;-0.191301;1.000000;0.658824;0.666667;0.654902
445636.59180267;5696559.40749939;470.83145000;57825.000000;1.000000;1.000000;1.000000;1.000000;0.077499;-0.077499;0.077499;1.000000;0.878431;0.886275;0.882353
445636.36980255;5696559.32469948;470.86695005;63736.000000;1.000000;1.000000;1.000000;1.000000;-0.005301;0.005301;-0.005301;1.000000;0.972549;0.976471;0.964706
445636.64800079;5696559.40019806;470.81524994;31868.000000;1.000000;1.000000;1.000000;1.000000;0.073307;-0.073307;0.073307;1.000000;0.498039;0.486275;0.478431
445636.53860291;5696559.32099922;470.84894993;60909.000000;1.000000;1.000000;1.000000;1.000000;-0.009001;0.009001;-0.009001;1.000000;0.917647;0.937255;0.929412
445636.58010300;5696559.24769981;470.81264998;46774.000000;1.000000;1.000000;1.000000;1.000000;-0.082300;0.082300;-0.082300;1.000000;0.713725;0.721569;0.705882
445636.29710205;5696559.28289993;470.83524992;27756.000000;1.000000;1.000000;1.000000;1.000000;-0.047100;0.047100;-0.047100;1.000000;0.431373;0.427451;0.415686
445636.59399994;5696559.33019836;470.83054997;17476.000000;1.000000;1.000000;1.000000;1.000000;0.000198;-0.000198;0.000198;1.000000;0.266667;0.266667;0.278431
445636.67160233;5696559.25989922;470.83095004;42405.000000;1.000000;1.000000;1.000000;1.000000;-0.083153;0.083153;-0.083153;1.000000;0.635294;0.658824;0.647059
445636.74610336;5696559.26750000;470.79944994;15677.000000;1.000000;1.000000;1.000000;1.000000;-0.134615;0.134615;-0.134615;1.000000;0.235294;0.243137;0.243137
445636.41340073;5696559.17639931;470.83454992;12593.000000;1.000000;1.000000;1.000000;1.000000;-0.153691;0.153691;-0.153691;1.000000;0.2;0.192157;0.192157
445636.76340302;5696559.29199799;470.77724983;9509.000000;1.000000;1.000000;1.000000;1.000000;-0.141716;0.141716;-0.141716;1.000000;0.152941;0.145098;0.156863
445636.54360016;5696559.20899971;470.81524994;32125.000000;1.000000;1.000000;1.000000;1.000000;-0.121000;0.121000;-0.121000;1.000000;0.478431;0.498039;0.494118
445636.58150299;5696559.21249969;470.81235005;35209.000000;1.000000;1.000000;1.000000;1.000000;-0.117500;0.117500;-0.117500;1.000000;0.537255;0.541176;0.537255
445636.46680267;5696559.42359932;470.83754994;3341.000000;1.000000;1.000000;1.000000;1.000000;0.093599;-0.093599;0.093599;1.000000;0.0470588;0.054902;0.0666667
445636.69280060;5696559.39399918;470.79384996;18247.000000;1.000000;1.000000;1.000000;1.000000;0.091879;-0.091879;0.091879;1.000000;0.298039;0.278431;0.25098
445636.36150177;5696559.33939941;470.87374999;58853.000000;1.000000;1.000000;1.000000;1.000000;0.009399;-0.009399;0.009399;1.000000;0.894118;0.905882;0.901961
445636.27510269;5696559.42189987;470.88714983;49087.000000;1.000000;1.000000;1.000000;1.000000;0.091900;-0.091900;0.091900;1.000000;0.745098;0.756863;0.74902
445636.54260071;5696559.24650009;470.81095006;40092.000000;1.000000;1.000000;1.000000;1.000000;-0.083500;0.083500;-0.083500;1.000000;0.607843;0.619608;0.607843
445636.37630280;5696559.41759880;470.86375000;30069.000000;1.000000;1.000000;1.000000;1.000000;0.087599;-0.087599;0.087599;1.000000;0.443137;0.466667;0.47451
445636.30190094;5696559.41229828;470.89524986;39064.000000;1.000000;1.000000;1.000000;1.000000;0.082298;-0.082298;0.082298;1.000000;0.584314;0.603922;0.611765
445636.60230072;5696559.39029892;470.82235004;28013.000000;1.000000;1.000000;1.000000;1.000000;0.060445;-0.060445;0.060445;1.000000;0.431373;0.427451;0.427451
445636.71400269;5696559.39219864;470.78554990;21588.000000;1.000000;1.000000;1.000000;1.000000;0.107049;-0.107049;0.107049;1.000000;0.34902;0.329412;0.298039
445636.30560120;5696559.33769806;470.86424996;58339.000000;1.000000;1.000000;1.000000;1.000000;0.007698;-0.007698;0.007698;1.000000;0.890196;0.898039;0.882353
445636.40470322;5696559.39849861;470.86704995;51400.000000;1.000000;1.000000;1.000000;1.000000;0.068499;-0.068499;0.068499;1.000000;0.768627;0.796078;0.796078
445636.33570297;5696559.24659927;470.83655002;59367.000000;1.000000;1.000000;1.000000;1.000000;-0.083401;0.083401;-0.083401;1.000000;0.905882;0.909804;0.901961
445636.30180176;5696559.20769890;470.83454992;33153.000000;1.000000;1.000000;1.000000;1.000000;-0.122301;0.122301;-0.122301;1.000000;0.513725;0.505882;0.486275
445636.55420120;5696559.40619858;470.83434989;58853.000000;1.000000;1.000000;1.000000;1.000000;0.076199;-0.076199;0.076199;1.000000;0.886275;0.905882;0.905882
445636.48350342;5696559.32629974;470.83714988;35209.000000;1.000000;1.000000;1.000000;1.000000;-0.003700;0.003700;-0.003700;1.000000;0.541176;0.541176;0.521569
445636.44860275;5696559.25019844;470.83005001;57825.000000;1.000000;1.000000;1.000000;1.000000;-0.079802;0.079802;-0.079802;1.000000;0.87451;0.890196;0.882353
445636.78350266;5696559.26409920;470.79414989;25186.000000;1.000000;1.000000;1.000000;1.000000;-0.169925;0.169925;-0.169925;1.000000;0.388235;0.384314;0.388235
445636.31250198;5696559.42309959;470.88884999;28527.000000;1.000000;1.000000;1.000000;1.000000;0.093100;-0.093100;0.093100;1.000000;0.419608;0.443137;0.454902
445636.34900101;5696559.38699921;470.88774993;36237.000000;1.000000;1.000000;1.000000;1.000000;0.057099;-0.057099;0.057099;1.000000;0.545098;0.560784;0.552941
445636.46090134;5696559.39349945;470.85564997;29298.000000;1.000000;1.000000;1.000000;1.000000;0.063499;-0.063499;0.063499;1.000000;0.431373;0.454902;0.466667
445636.53490265;5696559.35639961;470.84684994;17476.000000;1.000000;1.000000;1.000000;1.000000;0.026400;-0.026400;0.026400;1.000000;0.262745;0.270588;0.270588
445636.47160156;5696559.13099869;470.85064985;28013.000000;1.000000;1.000000;1.000000;1.000000;-0.199004;0.199004;-0.199004;1.000000;0.415686;0.435294;0.443137
445636.26310165;5696559.24399956;470.83554985;23130.000000;1.000000;1.000000;1.000000;1.000000;-0.086000;0.086000;-0.086000;1.000000;0.356863;0.356863;0.341176
445636.72570236;5696559.25519951;470.81235005;35723.000000;1.000000;1.000000;1.000000;1.000000;-0.123942;0.123942;-0.123942;1.000000;0.545098;0.54902;0.541176
445636.61510284;5696559.24899872;470.81655004;54227.000000;1.000000;1.000000;1.000000;1.000000;-0.081001;0.081001;-0.081001;1.000000;0.823529;0.835294;0.823529
445636.33940323;5696559.20889862;470.83395006;30326.000000;1.000000;1.000000;1.000000;1.000000;-0.121101;0.121101;-0.121101;1.000000;0.47451;0.462745;0.443137
445636.33049973;5696559.43339928;470.87345006;28527.000000;1.000000;1.000000;1.000000;1.000000;0.103399;-0.103399;0.103399;1.000000;0.419608;0.443137;0.462745
445636.29500015;5696559.35489853;470.87555005;38807.000000;1.000000;1.000000;1.000000;1.000000;0.024899;-0.024899;0.024899;1.000000;0.584314;0.6;0.592157
445636.55320175;5696559.36899956;470.83154990;12079.000000;1.000000;1.000000;1.000000;1.000000;0.039000;-0.039000;0.039000;1.000000;0.192157;0.184314;0.184314
445636.55770309;5696559.29379852;470.83314993;53456.000000;1.000000;1.000000;1.000000;1.000000;-0.036201;0.036201;-0.036201;1.000000;0.807843;0.823529;0.811765
445636.70740326;5696559.29929932;470.79104998;16448.000000;1.000000;1.000000;1.000000;1.000000;-0.086180;0.086180;-0.086180;1.000000;0.258824;0.247059;0.266667
445636.63530167;5696559.29829987;470.83434989;14649.000000;1.000000;1.000000;1.000000;1.000000;-0.032801;0.032801;-0.032801;1.000000;0.215686;0.227451;0.227451
445636.63420303;5696559.26099976;470.83154990;52942.000000;1.000000;1.000000;1.000000;1.000000;-0.069388;0.069388;-0.069388;1.000000;0.803922;0.815686;0.807843
445636.79070099;5696559.30359848;470.76694991;15934.000000;1.000000;1.000000;1.000000;1.000000;-0.165938;0.165938;-0.165938;1.000000;0.247059;0.243137;0.247059
445636.67880066;5696559.31830032;470.79005005;4626.000000;1.000000;1.000000;1.000000;1.000000;-0.053226;0.053226;-0.053226;1.000000;0.0784314;0.0666667;0.0745098
445636.68200119;5696559.24269875;470.82425000;48316.000000;1.000000;1.000000;1.000000;1.000000;-0.103248;0.103248;-0.103248;1.000000;0.729412;0.745098;0.733333
445636.48850067;5696559.18099983;470.83804991;23130.000000;1.000000;1.000000;1.000000;1.000000;-0.149000;0.149000;-0.149000;1.000000;0.333333;0.364706;0.364706
445636.66740234;5696559.37299927;470.79484989;16448.000000;1.000000;1.000000;1.000000;1.000000;0.059087;-0.059087;0.059087;1.000000;0.270588;0.247059;0.243137
445636.65940292;5696559.27969940;470.83064987;18247.000000;1.000000;1.000000;1.000000;1.000000;-0.059901;0.059901;-0.059901;1.000000;0.266667;0.290196;0.278431
445636.38120087;5696559.28660019;470.84605004;36494.000000;1.000000;1.000000;1.000000;1.000000;-0.043615;0.043615;-0.043615;1.000000;0.552941;0.560784;0.552941
445636.38480194;5696559.24889954;470.84344985;33924.000000;1.000000;1.000000;1.000000;1.000000;-0.081153;0.081153;-0.081153;1.000000;0.517647;0.52549;0.509804
445636.45300110;5696559.32679947;470.84044983;25443.000000;1.000000;1.000000;1.000000;1.000000;-0.003201;0.003201;-0.003201;1.000000;0.392157;0.392157;0.384314
445636.35070236;5696559.13529976;470.84524991;50115.000000;1.000000;1.000000;1.000000;1.000000;-0.194766;0.194766;-0.194766;1.000000;0.74902;0.772549;0.772549
445636.38830002;5696559.13649948;470.84224989;32125.000000;1.000000;1.000000;1.000000;1.000000;-0.193501;0.193501;-0.193501;1.000000;0.47451;0.498039;0.505882
445636.73390015;5696559.34630020;470.76724984;26728.000000;1.000000;1.000000;1.000000;1.000000;0.108257;-0.108257;0.108257;1.000000;0.427451;0.403922;0.384314
445636.42130096;5696559.21290024;470.84005000;47545.000000;1.000000;1.000000;1.000000;1.000000;-0.117410;0.117410;-0.117410;1.000000;0.721569;0.729412;0.717647
445636.79350098;5696559.22799881;470.80814983;44461.000000;1.000000;1.000000;1.000000;1.000000;-0.195366;0.195366;-0.195366;1.000000;0.678431;0.686275;0.666667
445636.64700134;5696559.18549927;470.80565001;20303.000000;1.000000;1.000000;1.000000;1.000000;-0.145895;0.145895;-0.145895;1.000000;0.298039;0.317647;0.329412
445636.68449982;5696559.18669899;470.80734994;53456.000000;1.000000;1.000000;1.000000;1.000000;-0.154453;0.154453;-0.154453;1.000000;0.803922;0.823529;0.823529
445636.71990021;5696559.18820007;470.80195000;18247.000000;1.000000;1.000000;1.000000;1.000000;-0.169589;0.169589;-0.169589;1.000000;0.262745;0.290196;0.290196
445636.64809998;5696559.14799889;470.80754997;26728.000000;1.000000;1.000000;1.000000;1.000000;-0.183234;0.183234;-0.183234;1.000000;0.403922;0.411765;0.411765
445636.43630035;5696559.29799850;470.83935000;35466.000000;1.000000;1.000000;1.000000;1.000000;-0.032001;0.032001;-0.032001;1.000000;0.537255;0.54902;0.537255
445636.66069992;5696559.30799873;470.80775001;6168.000000;1.000000;1.000000;1.000000;1.000000;-0.040349;0.040349;-0.040349;1.000000;0.0980392;0.0941176;0.101961
445636.25660141;5696559.17909821;470.84384992;19018.000000;1.000000;1.000000;1.000000;1.000000;-0.150976;0.150976;-0.150976;1.000000;0.286275;0.294118;0.301961
445636.40580185;5696559.14659889;470.83854987;11308.000000;1.000000;1.000000;1.000000;1.000000;-0.183401;0.183401;-0.183401;1.000000;0.160784;0.176471;0.188235
445636.70300110;5696559.15929993;470.80554988;32639.000000;1.000000;1.000000;1.000000;1.000000;-0.186905;0.186905;-0.186905;1.000000;0.490196;0.501961;0.505882
445636.44080170;5696559.19479950;470.83605005;53456.000000;1.000000;1.000000;1.000000;1.000000;-0.135201;0.135201;-0.135201;1.000000;0.811765;0.823529;0.815686
445636.47850235;5696559.19599922;470.83305003;25957.000000;1.000000;1.000000;1.000000;1.000000;-0.134034;0.134034;-0.134034;1.000000;0.380392;0.407843;0.407843
445636.30460175;5696559.35859879;470.87844994;45232.000000;1.000000;1.000000;1.000000;1.000000;0.028599;-0.028599;0.028599;1.000000;0.678431;0.698039;0.686275
445636.37970169;5696559.36099823;470.87714984;41891.000000;1.000000;1.000000;1.000000;1.000000;0.031127;-0.031127;0.031127;1.000000;0.639216;0.647059;0.631373
445636.63879974;5696559.37089928;470.80285003;17476.000000;1.000000;1.000000;1.000000;1.000000;0.042602;-0.042602;0.042602;1.000000;0.286275;0.258824;0.258824
445636.41880234;5696559.28779800;470.84314992;59110.000000;1.000000;1.000000;1.000000;1.000000;-0.043531;0.043531;-0.043531;1.000000;0.894118;0.909804;0.898039
445636.34740265;5696559.24779900;470.83944990;53970.000000;1.000000;1.000000;1.000000;1.000000;-0.082220;0.082220;-0.082220;1.000000;0.823529;0.827451;0.815686
445636.67860229;5696559.29709824;470.80375006;15420.000000;1.000000;1.000000;1.000000;1.000000;-0.061303;0.061303;-0.061303;1.000000;0.235294;0.235294;0.243137
445636.75270279;5696559.26219948;470.79964997;28270.000000;1.000000;1.000000;1.000000;1.000000;-0.142930;0.142930;-0.142930;1.000000;0.431373;0.435294;0.435294
445636.42600067;5696559.13769920;470.83935000;24415.000000;1.000000;1.000000;1.000000;1.000000;-0.192339;0.192339;-0.192339;1.000000;0.356863;0.380392;0.384314
445636.71430023;5696559.33869942;470.77094986;15163.000000;1.000000;1.000000;1.000000;1.000000;0.087855;-0.087855;0.087855;1.000000;0.243137;0.231373;0.219608
445636.27320297;5696559.20559891;470.84255006;30840.000000;1.000000;1.000000;1.000000;1.000000;-0.124401;0.124401;-0.124401;1.000000;0.478431;0.470588;0.45098
445636.34620102;5696559.28529938;470.83984997;30326.000000;1.000000;1.000000;1.000000;1.000000;-0.044704;0.044704;-0.044704;1.000000;0.470588;0.462745;0.45098
445636.42020233;5696559.25039871;470.83804991;30069.000000;1.000000;1.000000;1.000000;1.000000;-0.080182;0.080182;-0.080182;1.000000;0.447059;0.466667;0.462745
445636.27460297;5696559.17039879;470.84224989;26471.000000;1.000000;1.000000;1.000000;1.000000;-0.159601;0.159601;-0.159601;1.000000;0.4;0.407843;0.415686
445636.49270065;5696559.32769974;470.84224989;46260.000000;1.000000;1.000000;1.000000;1.000000;-0.002300;0.002300;-0.002300;1.000000;0.701961;0.713725;0.701961
445636.60400208;5696559.29399879;470.84454991;43433.000000;1.000000;1.000000;1.000000;1.000000;-0.036086;0.036086;-0.036086;1.000000;0.65098;0.670588;0.662745
445636.61310013;5696559.14889915;470.80834987;43176.000000;1.000000;1.000000;1.000000;1.000000;-0.181101;0.181101;-0.181101;1.000000;0.654902;0.666667;0.662745
445636.63980301;5696559.33339890;470.80474998;14392.000000;1.000000;1.000000;1.000000;1.000000;0.013365;-0.013365;0.013365;1.000000;0.231373;0.219608;0.219608
445636.72080048;5696559.22539909;470.80714991;30326.000000;1.000000;1.000000;1.000000;1.000000;-0.140581;0.140581;-0.140581;1.000000;0.458824;0.470588;0.466667
445636.40699966;5696559.15819939;470.83634998;6682.000000;1.000000;1.000000;1.000000;1.000000;-0.171801;0.171801;-0.171801;1.000000;0.101961;0.101961;0.113725
445636.44200333;5696559.15729912;470.83564999;9509.000000;1.000000;1.000000;1.000000;1.000000;-0.172701;0.172701;-0.172701;1.000000;0.133333;0.14902;0.160784
445636.30240067;5696559.43579872;470.88154985;36494.000000;1.000000;1.000000;1.000000;1.000000;0.105799;-0.105799;0.105799;1.000000;0.529412;0.568627;0.580392
445636.75320251;5696559.30469902;470.77224996;8481.000000;1.000000;1.000000;1.000000;1.000000;-0.128834;0.128834;-0.128834;1.000000;0.137255;0.12549;0.133333
445636.31220062;5696559.17159851;470.84154989;11051.000000;1.000000;1.000000;1.000000;1.000000;-0.158401;0.158401;-0.158401;1.000000;0.168627;0.168627;0.176471
445636.75600250;5696559.22679909;470.80874993;28270.000000;1.000000;1.000000;1.000000;1.000000;-0.165299;0.165299;-0.165299;1.000000;0.427451;0.435294;0.427451
445636.31310089;5696559.13410004;470.84585001;54998.000000;1.000000;1.000000;1.000000;1.000000;-0.195900;0.195900;-0.195900;1.000000;0.819608;0.85098;0.85098
445636.52900131;5696559.36639984;470.84434988;16705.000000;1.000000;1.000000;1.000000;1.000000;0.036400;-0.036400;0.036400;1.000000;0.254902;0.258824;0.262745
445636.56789978;5696559.33239944;470.84344985;22359.000000;1.000000;1.000000;1.000000;1.000000;0.004262;-0.004262;0.004262;1.000000;0.337255;0.345098;0.345098
445636.56940277;5696559.29729851;470.84075000;59624.000000;1.000000;1.000000;1.000000;1.000000;-0.033085;0.033085;-0.033085;1.000000;0.898039;0.921569;0.909804
445636.46120270;5696559.14139946;470.84334995;20817.000000;1.000000;1.000000;1.000000;1.000000;-0.188601;0.188601;-0.188601;1.000000;0.298039;0.32549;0.333333
445636.49890335;5696559.14259918;470.84034993;36494.000000;1.000000;1.000000;1.000000;1.000000;-0.187401;0.187401;-0.187401;1.000000;0.545098;0.564706;0.556863
445636.52570160;5696559.40409859;470.84005000;41120.000000;1.000000;1.000000;1.000000;1.000000;0.074099;-0.074099;0.074099;1.000000;0.615686;0.635294;0.635294
445636.71750076;5696559.26539810;470.80744984;24158.000000;1.000000;1.000000;1.000000;1.000000;-0.111293;0.111293;-0.111293;1.000000;0.364706;0.372549;0.368627
445636.68570145;5696559.14919861;470.80694987;11822.000000;1.000000;1.000000;1.000000;1.000000;-0.190130;0.190130;-0.190130;1.000000;0.176471;0.184314;0.184314
445636.60950287;5696559.18429955;470.80624988;12593.000000;1.000000;1.000000;1.000000;1.000000;-0.145700;0.145700;-0.145700;1.000000;0.188235;0.196078;0.207843
445636.43290146;5696559.37259872;470.86344983;58596.000000;1.000000;1.000000;1.000000;1.000000;0.042599;-0.042599;0.042599;1.000000;0.886275;0.901961;0.890196
445636.47050293;5696559.37389954;470.86045005;43947.000000;1.000000;1.000000;1.000000;1.000000;0.043900;-0.043900;0.043900;1.000000;0.658824;0.678431;0.678431
445636.47440155;5696559.29929932;470.82714989;38293.000000;1.000000;1.000000;1.000000;1.000000;-0.030932;0.030932;-0.030932;1.000000;0.584314;0.588235;0.572549
445636.47560318;5696559.26179894;470.82445004;29555.000000;1.000000;1.000000;1.000000;1.000000;-0.068382;0.068382;-0.068382;1.000000;0.443137;0.458824;0.45098
445636.51330002;5696559.26309975;470.82145001;31611.000000;1.000000;1.000000;1.000000;1.000000;-0.067692;0.067692;-0.067692;1.000000;0.47451;0.490196;0.490196
445636.58850296;5696559.26779945;470.82264997;44461.000000;1.000000;1.000000;1.000000;1.000000;-0.062201;0.062201;-0.062201;1.000000;0.666667;0.686275;0.670588
445636.81060226;5696559.27579887;470.78615000;6939.000000;1.000000;1.000000;1.000000;1.000000;-0.191554;0.191554;-0.191554;1.000000;0.109804;0.105882;0.105882
445636.67590149;5696559.27599915;470.81964995;16962.000000;1.000000;1.000000;1.000000;1.000000;-0.072935;0.072935;-0.072935;1.000000;0.258824;0.262745;0.262745
445636.51450165;5696559.22559937;470.82104995;40092.000000;1.000000;1.000000;1.000000;1.000000;-0.104798;0.104798;-0.104798;1.000000;0.6;0.619608;0.615686
445636.66270264;5696559.23519905;470.82095005;37265.000000;1.000000;1.000000;1.000000;1.000000;-0.101344;0.101344;-0.101344;1.000000;0.560784;0.576471;0.568627
445636.81870087;5696559.30329903;470.76825001;15677.000000;1.000000;1.000000;1.000000;1.000000;-0.193673;0.193673;-0.193673;1.000000;0.247059;0.239216;0.235294
445636.67550095;5696559.35599907;470.78565003;18247.000000;1.000000;1.000000;1.000000;1.000000;0.055138;-0.055138;0.055138;1.000000;0.294118;0.27451;0.262745
445636.45880325;5696559.23299988;470.82795002;38036.000000;1.000000;1.000000;1.000000;1.000000;-0.097000;0.097000;-0.097000;1.000000;0.568627;0.588235;0.584314
445636.30930145;5696559.23739822;470.83294990;45232.000000;1.000000;1.000000;1.000000;1.000000;-0.092602;0.092602;-0.092602;1.000000;0.694118;0.694118;0.670588
445636.45600327;5696559.27989967;470.83075001;29812.000000;1.000000;1.000000;1.000000;1.000000;-0.050100;0.050100;-0.050100;1.000000;0.447059;0.462745;0.454902
445636.56880005;5696559.28579910;470.83124997;49344.000000;1.000000;1.000000;1.000000;1.000000;-0.044422;0.044422;-0.044422;1.000000;0.745098;0.760784;0.74902
445636.37170227;5696559.28520020;470.84564998;29041.000000;1.000000;1.000000;1.000000;1.000000;-0.044800;0.044800;-0.044800;1.000000;0.439216;0.447059;0.439216
445636.37550171;5696559.24979980;470.84305002;35980.000000;1.000000;1.000000;1.000000;1.000000;-0.080200;0.080200;-0.080200;1.000000;0.545098;0.552941;0.545098
445636.44590195;5696559.32739838;470.84244992;31868.000000;1.000000;1.000000;1.000000;1.000000;-0.002602;0.002602;-0.002602;1.000000;0.490196;0.490196;0.478431
445636.32570084;5696559.26389893;470.83634998;37265.000000;1.000000;1.000000;1.000000;1.000000;-0.066101;0.066101;-0.066101;1.000000;0.564706;0.572549;0.560784
445636.36820038;5696559.19229897;470.83274986;31611.000000;1.000000;1.000000;1.000000;1.000000;-0.137701;0.137701;-0.137701;1.000000;0.494118;0.478431;0.47451
445636.40570267;5696559.19339951;470.83445003;47288.000000;1.000000;1.000000;1.000000;1.000000;-0.136600;0.136600;-0.136600;1.000000;0.729412;0.72549;0.713725
445636.34140213;5696559.13609894;470.84484984;54484.000000;1.000000;1.000000;1.000000;1.000000;-0.193901;0.193901;-0.193901;1.000000;0.815686;0.839216;0.839216
445636.37910278;5696559.13739975;470.84185006;36751.000000;1.000000;1.000000;1.000000;1.000000;-0.192613;0.192613;-0.192613;1.000000;0.541176;0.568627;0.572549
445636.41200073;5696559.21379860;470.83964993;50372.000000;1.000000;1.000000;1.000000;1.000000;-0.116266;0.116266;-0.116266;1.000000;0.768627;0.772549;0.764706
445636.74680145;5696559.22759827;470.80594995;29812.000000;1.000000;1.000000;1.000000;1.000000;-0.157696;0.157696;-0.157696;1.000000;0.45098;0.458824;0.454902
445636.78660019;5696559.22859962;470.80775001;37522.000000;1.000000;1.000000;1.000000;1.000000;-0.189192;0.189192;-0.189192;1.000000;0.572549;0.576471;0.560784
445636.63770111;5696559.18639954;470.80754997;22873.000000;1.000000;1.000000;1.000000;1.000000;-0.144008;0.144008;-0.144008;1.000000;0.337255;0.356863;0.368627
445636.71059998;5696559.18899925;470.80384995;28013.000000;1.000000;1.000000;1.000000;1.000000;-0.163984;0.163984;-0.163984;1.000000;0.411765;0.439216;0.435294
445636.38540085;5696559.20229919;470.83594992;38807.000000;1.000000;1.000000;1.000000;1.000000;-0.127722;0.127722;-0.127722;1.000000;0.6;0.596078;0.584314
445636.26820190;5696559.33650024;470.86255004;55255.000000;1.000000;1.000000;1.000000;1.000000;0.006500;-0.006500;0.006500;1.000000;0.831373;0.854902;0.839216
445636.75520142;5696559.28319939;470.78604986;6682.000000;1.000000;1.000000;1.000000;1.000000;-0.136592;0.136592;-0.136592;1.000000;0.101961;0.101961;0.113725
445636.53660019;5696559.16279800;470.82364990;31097.000000;1.000000;1.000000;1.000000;1.000000;-0.167202;0.167202;-0.167202;1.000000;0.466667;0.482353;0.486275
445636.46050079;5696559.20469864;470.83474996;27756.000000;1.000000;1.000000;1.000000;1.000000;-0.125301;0.125301;-0.125301;1.000000;0.407843;0.431373;0.431373
445636.62380035;5696559.27599915;470.83594992;56797.000000;1.000000;1.000000;1.000000;1.000000;-0.054001;0.054001;-0.054001;1.000000;0.858824;0.87451;0.862745
445636.43320282;5696559.40069969;470.86144998;21845.000000;1.000000;1.000000;1.000000;1.000000;0.070700;-0.070700;0.070700;1.000000;0.313725;0.341176;0.34902
445636.43440063;5696559.36319931;470.86104991;49858.000000;1.000000;1.000000;1.000000;1.000000;0.033199;-0.033199;0.033199;1.000000;0.752941;0.768627;0.760784
445636.47200211;5696559.36439903;470.86045005;57311.000000;1.000000;1.000000;1.000000;1.000000;0.034427;-0.034427;0.034427;1.000000;0.870588;0.882353;0.878431
445636.47710236;5696559.25239952;470.82434990;38550.000000;1.000000;1.000000;1.000000;1.000000;-0.077725;0.077725;-0.077725;1.000000;0.576471;0.596078;0.588235
445636.74260147;5696559.33849915;470.76514985;16191.000000;1.000000;1.000000;1.000000;1.000000;0.116036;-0.116036;0.116036;1.000000;0.262745;0.243137;0.231373
445636.40920074;5696559.28639801;470.84504988;61937.000000;1.000000;1.000000;1.000000;1.000000;-0.043615;0.043615;-0.043615;1.000000;0.941176;0.952941;0.945098
445636.67160233;5696559.29999931;470.80814983;11308.000000;1.000000;1.000000;1.000000;1.000000;-0.053855;0.053855;-0.053855;1.000000;0.172549;0.172549;0.180392
445636.74580200;5696559.26519974;470.80174996;20303.000000;1.000000;1.000000;1.000000;1.000000;-0.135434;0.135434;-0.135434;1.000000;0.309804;0.309804;0.313725
445636.41670044;5696559.13859947;470.83894994;25443.000000;1.000000;1.000000;1.000000;1.000000;-0.191592;0.191592;-0.191592;1.000000;0.376471;0.396078;0.4
445636.45420273;5696559.13979919;470.84064986;15677.000000;1.000000;1.000000;1.000000;1.000000;-0.190201;0.190201;-0.190201;1.000000;0.219608;0.247059;0.258824
445636.41360291;5696559.41419800;470.85835006;13107.000000;1.000000;1.000000;1.000000;1.000000;0.084376;-0.084376;0.084376;1.000000;0.188235;0.207843;0.223529
445636.56810196;5696559.35129936;470.82734992;13878.000000;1.000000;1.000000;1.000000;1.000000;0.021623;-0.021623;0.021623;1.000000;0.219608;0.211765;0.215686
445636.49530228;5696559.27169998;470.82314994;32639.000000;1.000000;1.000000;1.000000;1.000000;-0.058300;0.058300;-0.058300;1.000000;0.490196;0.501961;0.501961
445636.51379974;5696559.21859940;470.82095005;48059.000000;1.000000;1.000000;1.000000;1.000000;-0.111833;0.111833;-0.111833;1.000000;0.721569;0.741176;0.737255
445636.55600174;5696559.14459808;470.82204988;29298.000000;1.000000;1.000000;1.000000;1.000000;-0.185402;0.185402;-0.185402;1.000000;0.439216;0.45098;0.458824
445636.26379974;5696559.20639999;470.84445002;30326.000000;1.000000;1.000000;1.000000;1.000000;-0.123600;0.123600;-0.123600;1.000000;0.470588;0.466667;0.45098
445636.30620010;5696559.34689911;470.87134983;52428.000000;1.000000;1.000000;1.000000;1.000000;0.016899;-0.016899;0.016899;1.000000;0.796078;0.807843;0.792157
445636.39490326;5696559.41589935;470.86224987;15934.000000;1.000000;1.000000;1.000000;1.000000;0.085899;-0.085899;0.085899;1.000000;0.227451;0.25098;0.262745
445636.27029999;5696559.27139862;470.83624985;61680.000000;1.000000;1.000000;1.000000;1.000000;-0.058601;0.058601;-0.058601;1.000000;0.941176;0.945098;0.929412
445636.60250290;5696559.32239922;470.83325006;12336.000000;1.000000;1.000000;1.000000;1.000000;-0.008581;0.008581;-0.008581;1.000000;0.184314;0.192157;0.2
445636.42410095;5696559.16599854;470.83494999;11051.000000;1.000000;1.000000;1.000000;1.000000;-0.164102;0.164102;-0.164102;1.000000;0.168627;0.172549;0.172549
445636.41080292;5696559.25129898;470.84005000;30326.000000;1.000000;1.000000;1.000000;1.000000;-0.078746;0.078746;-0.078746;1.000000;0.454902;0.470588;0.458824
445636.26500137;5696559.16889961;470.84404995;20046.000000;1.000000;1.000000;1.000000;1.000000;-0.161100;0.161100;-0.161100;1.000000;0.298039;0.309804;0.317647
445636.74120148;5696559.37589844;470.77024986;36494.000000;1.000000;1.000000;1.000000;1.000000;0.123194;-0.123194;0.123194;1.000000;0.584314;0.54902;0.529412
445636.62910278;5696559.36939819;470.80705001;15420.000000;1.000000;1.000000;1.000000;1.000000;0.039461;-0.039461;0.039461;1.000000;0.25098;0.227451;0.235294
445636.48350342;5696559.32860001;470.84185006;39321.000000;1.000000;1.000000;1.000000;1.000000;-0.001400;0.001400;-0.001400;1.000000;0.596078;0.603922;0.592157
445636.51830109;5696559.32759865;470.84574987;61937.000000;1.000000;1.000000;1.000000;1.000000;-0.005784;0.005784;-0.005784;1.000000;0.941176;0.952941;0.941176
445636.71410187;5696559.15129860;470.80364992;32639.000000;1.000000;1.000000;1.000000;1.000000;-0.198853;0.198853;-0.198853;1.000000;0.490196;0.501961;0.501961
445636.69480331;5696559.38920029;470.78924992;18247.000000;1.000000;1.000000;1.000000;1.000000;0.090104;-0.090104;0.090104;1.000000;0.301961;0.278431;0.243137
445636.39980133;5696559.34299858;470.86154987;45232.000000;1.000000;1.000000;1.000000;1.000000;0.012999;-0.012999;0.012999;1.000000;0.686275;0.694118;0.686275
445636.39579971;5696559.38059814;470.87115004;50886.000000;1.000000;1.000000;1.000000;1.000000;0.050598;-0.050598;0.050598;1.000000;0.768627;0.784314;0.776471
445636.66200073;5696559.31740006;470.79854991;5911.000000;1.000000;1.000000;1.000000;1.000000;-0.037315;0.037315;-0.037315;1.000000;0.0980392;0.0901961;0.101961
445636.73590286;5696559.28019913;470.79445006;8995.000000;1.000000;1.000000;1.000000;1.000000;-0.119862;0.119862;-0.119862;1.000000;0.141176;0.137255;0.145098
445636.37000092;5696559.35949905;470.88135006;46517.000000;1.000000;1.000000;1.000000;1.000000;0.029499;-0.029499;0.029499;1.000000;0.705882;0.713725;0.701961
445636.63300140;5696559.33629807;470.80674984;13107.000000;1.000000;1.000000;1.000000;1.000000;0.008785;-0.008785;0.008785;1.000000;0.211765;0.2;0.2
445636.33680161;5696559.28380020;470.83935000;32125.000000;1.000000;1.000000;1.000000;1.000000;-0.046200;0.046200;-0.046200;1.000000;0.498039;0.490196;0.482353
445636.63879974;5696559.14879807;470.80944993;28784.000000;1.000000;1.000000;1.000000;1.000000;-0.181594;0.181594;-0.181594;1.000000;0.439216;0.443137;0.439216
445636.49170120;5696559.34859856;470.85644986;59110.000000;1.000000;1.000000;1.000000;1.000000;0.018599;-0.018599;0.018599;1.000000;0.890196;0.909804;0.909804
445636.63950165;5696559.31209953;470.82075002;8481.000000;1.000000;1.000000;1.000000;1.000000;-0.021905;0.021905;-0.021905;1.000000;0.129412;0.129412;0.137255
445636.36670120;5696559.39719971;470.87704994;40606.000000;1.000000;1.000000;1.000000;1.000000;0.067200;-0.067200;0.067200;1.000000;0.603922;0.627451;0.631373
445636.33220108;5696559.35589798;470.88424994;60909.000000;1.000000;1.000000;1.000000;1.000000;0.025898;-0.025898;0.025898;1.000000;0.921569;0.937255;0.921569
445636.30270203;5696559.17019852;470.84115006;11051.000000;1.000000;1.000000;1.000000;1.000000;-0.159801;0.159801;-0.159801;1.000000;0.168627;0.172549;0.176471
445636.59990128;5696559.18279846;470.80814983;19018.000000;1.000000;1.000000;1.000000;1.000000;-0.147264;0.147264;-0.147264;1.000000;0.278431;0.294118;0.301961
445636.67520340;5696559.18759926;470.80694987;38807.000000;1.000000;1.000000;1.000000;1.000000;-0.150378;0.150378;-0.150378;1.000000;0.584314;0.596078;0.6
445636.67630203;5696559.14999969;470.80884983;13621.000000;1.000000;1.000000;1.000000;1.000000;-0.186663;0.186663;-0.186663;1.000000;0.207843;0.211765;0.211765
445636.62350281;5696559.31819923;470.82474997;10537.000000;1.000000;1.000000;1.000000;1.000000;-0.011801;0.011801;-0.011801;1.000000;0.156863;0.160784;0.172549
