//X;Y;Z;Intensity;Return Number;Number Of Returns;Scan Direction Flag;Point Source ID;C2M signed distances[-][<0.8];C2M signed distances[<0.4];C2M signed distances[-][<0.2];Stump113;Rf;Gf;Bf
300
445646.85550125;5696568.02269943;470.43114998;39321.000000;1.000000;1.000000;1.000000;1.000000;-0.192699;0.192699;-0.192699;1.000000;0.607843;0.607843;0.568627
445646.85659988;5696567.98519905;470.43304994;46260.000000;1.000000;1.000000;1.000000;1.000000;-0.155199;0.155199;-0.155199;1.000000;0.717647;0.709804;0.670588
445647.04430206;5696567.99339874;470.43464996;15420.000000;1.000000;1.000000;1.000000;1.000000;-0.163399;0.163399;-0.163399;1.000000;0.239216;0.243137;0.196078
445647.00819977;5696567.95709904;470.43485000;26728.000000;1.000000;1.000000;1.000000;1.000000;-0.127099;0.127099;-0.127099;1.000000;0.419608;0.411765;0.356863
445646.91320236;5696568.01719864;470.43595006;31097.000000;1.000000;1.000000;1.000000;1.000000;-0.187199;0.187199;-0.187199;1.000000;0.486275;0.482353;0.435294
445646.91420181;5696567.97739895;470.43554999;35980.000000;1.000000;1.000000;1.000000;1.000000;-0.147399;0.147399;-0.147399;1.000000;0.564706;0.552941;0.517647
445646.87830170;5696567.94109924;470.43114998;35466.000000;1.000000;1.000000;1.000000;1.000000;-0.111099;0.111099;-0.111099;1.000000;0.556863;0.545098;0.494118
445646.95540054;5696567.86849888;470.43614985;24929.000000;1.000000;1.000000;1.000000;1.000000;-0.038499;0.038499;-0.038499;1.000000;0.392157;0.388235;0.32549
445646.67490204;5696567.86659916;470.43044998;22102.000000;1.000000;1.000000;1.000000;1.000000;-0.039358;0.039358;-0.039358;1.000000;0.345098;0.34902;0.258824
445646.69870193;5696567.74529846;470.43004992;33667.000000;1.000000;1.000000;1.000000;1.000000;0.084702;-0.084702;0.084702;1.000000;0.521569;0.529412;0.419608
445647.07550247;5696567.65179832;470.43435003;29298.000000;1.000000;1.000000;1.000000;1.000000;0.145124;0.145124;-0.145124;1.000000;0.458824;0.458824;0.364706
445646.75810059;5696567.87989910;470.42735006;34695.000000;1.000000;1.000000;1.000000;1.000000;-0.049899;0.049899;-0.049899;1.000000;0.545098;0.537255;0.447059
445646.93770035;5696567.87719925;470.43304994;21331.000000;1.000000;1.000000;1.000000;1.000000;-0.047229;0.047229;-0.047229;1.000000;0.341176;0.333333;0.270588
445646.67840012;5696567.82889946;470.43015005;35466.000000;1.000000;1.000000;1.000000;1.000000;0.011032;-0.011032;0.011032;1.000000;0.545098;0.552941;0.470588
445646.83329971;5696567.88239868;470.42374994;39835.000000;1.000000;1.000000;1.000000;1.000000;-0.052399;0.052399;-0.052399;1.000000;0.627451;0.615686;0.537255
445646.76180084;5696567.84229858;470.42474987;36751.000000;1.000000;1.000000;1.000000;1.000000;-0.012299;0.012299;-0.012299;1.000000;0.568627;0.568627;0.501961
445646.83440216;5696567.84489925;470.42575004;29812.000000;1.000000;1.000000;1.000000;1.000000;-0.014900;0.014900;-0.014900;1.000000;0.466667;0.462745;0.388235
445646.76290329;5696567.80480011;470.42435004;42148.000000;1.000000;1.000000;1.000000;1.000000;0.025200;-0.025200;0.025200;1.000000;0.647059;0.65098;0.592157
445647.09910019;5696567.55389984;470.43424990;36237.000000;1.000000;1.000000;1.000000;1.000000;0.121527;-0.121527;0.121527;1.000000;0.568627;0.560784;0.498039
445646.82800110;5696567.82669838;470.42754986;27499.000000;1.000000;1.000000;1.000000;1.000000;0.003302;-0.003302;0.003302;1.000000;0.427451;0.427451;0.356863
445646.80050095;5696567.80599983;470.42374994;42148.000000;1.000000;1.000000;1.000000;1.000000;0.024000;-0.024000;0.024000;1.000000;0.65098;0.65098;0.592157
445646.65630157;5696567.68859871;470.42275002;38293.000000;1.000000;1.000000;1.000000;1.000000;-0.052317;0.052317;-0.052317;1.000000;0.6;0.592157;0.52549
445646.69370087;5696567.68969925;470.42444994;29041.000000;1.000000;1.000000;1.000000;1.000000;0.041826;-0.041826;0.041826;1.000000;0.45098;0.458824;0.368627
445646.71650131;5696567.78339966;470.42435004;35466.000000;1.000000;1.000000;1.000000;1.000000;0.046783;-0.046783;0.046783;1.000000;0.54902;0.560784;0.447059
445646.73260315;5696567.65349968;470.42114999;18247.000000;1.000000;1.000000;1.000000;1.000000;0.043572;-0.043572;0.043572;1.000000;0.298039;0.290196;0.180392
445646.69600113;5696567.61479958;470.42604997;33410.000000;1.000000;1.000000;1.000000;1.000000;0.006624;-0.006624;0.006624;1.000000;0.498039;0.541176;0.396078
445646.65850266;5696567.61359985;470.42664983;32896.000000;1.000000;1.000000;1.000000;1.000000;-0.030874;0.030874;-0.030874;1.000000;0.505882;0.521569;0.419608
445646.73390015;5696567.61829956;470.42314984;46260.000000;1.000000;1.000000;1.000000;1.000000;0.044523;-0.044523;0.044523;1.000000;0.713725;0.72549;0.607843
445646.76910217;5696567.61969955;470.42244985;38550.000000;1.000000;1.000000;1.000000;1.000000;0.079725;-0.079725;0.079725;1.000000;0.611765;0.596078;0.501961
445646.81040009;5696567.58549889;470.42155005;38807.000000;1.000000;1.000000;1.000000;1.000000;0.121023;-0.121023;0.121023;1.000000;0.603922;0.596078;0.54902
445646.66120346;5696567.54089935;470.42354991;19789.000000;1.000000;1.000000;1.000000;1.000000;-0.028173;0.028173;-0.028173;1.000000;0.321569;0.305882;0.254902
445646.68360336;5696567.70699890;470.42654993;41634.000000;1.000000;1.000000;1.000000;1.000000;-0.059139;0.059139;-0.059139;1.000000;0.643137;0.647059;0.572549
445646.72039993;5696567.67329987;470.42085006;14135.000000;1.000000;1.000000;1.000000;1.000000;0.040017;-0.040017;0.040017;1.000000;0.231373;0.227451;0.133333
445646.72370346;5696567.63559921;470.42524983;34181.000000;1.000000;1.000000;1.000000;1.000000;0.034327;-0.034327;0.034327;1.000000;0.521569;0.545098;0.411765
445646.76140030;5696567.63679894;470.42225005;30069.000000;1.000000;1.000000;1.000000;1.000000;0.072023;-0.072023;0.072023;1.000000;0.486275;0.462745;0.364706
445646.64970215;5696567.59569939;470.42834999;34952.000000;1.000000;1.000000;1.000000;1.000000;-0.039675;0.039675;-0.039675;1.000000;0.545098;0.541176;0.47451
445646.76280029;5696567.60159882;470.42194988;33667.000000;1.000000;1.000000;1.000000;1.000000;0.073423;-0.073423;0.073423;1.000000;0.533333;0.521569;0.435294
445646.72590073;5696567.57939919;470.41534998;43433.000000;1.000000;1.000000;1.000000;1.000000;0.036524;-0.036524;0.036524;1.000000;0.67451;0.670588;0.592157
445646.76490219;5696567.54549988;470.41435005;19532.000000;1.000000;1.000000;1.000000;1.000000;0.075525;-0.075525;0.075525;1.000000;0.309804;0.305882;0.247059
445647.08690079;5696567.85609921;470.45124986;28270.000000;1.000000;1.000000;1.000000;1.000000;-0.026229;0.026229;-0.026229;1.000000;0.443137;0.443137;0.364706
445647.08820160;5696567.81859978;470.44855000;30840.000000;1.000000;1.000000;1.000000;1.000000;0.012053;-0.012053;0.012053;1.000000;0.482353;0.478431;0.4
445647.08930023;5696567.78109940;470.44814994;34181.000000;1.000000;1.000000;1.000000;1.000000;0.049157;-0.049157;0.049157;1.000000;0.529412;0.529412;0.470588
445646.97170074;5696567.94399937;470.44004991;20560.000000;1.000000;1.000000;1.000000;1.000000;-0.113999;0.113999;-0.113999;1.000000;0.32549;0.317647;0.270588
445647.00920303;5696567.94519909;470.43945004;20303.000000;1.000000;1.000000;1.000000;1.000000;-0.115199;0.115199;-0.115199;1.000000;0.321569;0.317647;0.266667
445647.06560333;5696567.90249928;470.44844987;23130.000000;1.000000;1.000000;1.000000;1.000000;-0.072499;0.072499;-0.072499;1.000000;0.360784;0.360784;0.305882
445647.01170166;5696567.87249954;470.44104983;22873.000000;1.000000;1.000000;1.000000;1.000000;-0.042500;0.042500;-0.042500;1.000000;0.360784;0.356863;0.298039
445647.01280029;5696567.83499916;470.44295003;24672.000000;1.000000;1.000000;1.000000;1.000000;-0.004999;0.004999;-0.004999;1.000000;0.388235;0.384314;0.309804
445647.01410110;5696567.79759987;470.44024994;28527.000000;1.000000;1.000000;1.000000;1.000000;0.032400;-0.032400;0.032400;1.000000;0.447059;0.443137;0.376471
445647.06680115;5696567.86499889;470.44805004;26214.000000;1.000000;1.000000;1.000000;1.000000;-0.034999;0.034999;-0.034999;1.000000;0.407843;0.411765;0.333333
445646.74320038;5696567.58949860;470.41625001;35980.000000;1.000000;1.000000;1.000000;1.000000;0.053823;-0.053823;0.053823;1.000000;0.564706;0.560784;0.470588
445646.70910080;5696567.55060013;470.41654994;20560.000000;1.000000;1.000000;1.000000;1.000000;0.019724;-0.019724;0.019724;1.000000;0.333333;0.321569;0.235294
445646.78960236;5696567.81399925;470.42334988;38293.000000;1.000000;1.000000;1.000000;1.000000;0.016001;-0.016001;0.016001;1.000000;0.596078;0.592157;0.545098
445646.75340088;5696567.77769859;470.42354991;46517.000000;1.000000;1.000000;1.000000;1.000000;0.052301;-0.052301;0.052301;1.000000;0.717647;0.721569;0.639216
445646.90340240;5696567.78240021;470.42575004;35209.000000;1.000000;1.000000;1.000000;1.000000;0.047834;-0.047834;0.047834;1.000000;0.541176;0.54902;0.490196
445646.79220016;5696567.74139984;470.42254998;22616.000000;1.000000;1.000000;1.000000;1.000000;0.088600;-0.088600;0.088600;1.000000;0.368627;0.352941;0.266667
445646.72060211;5696567.70129974;470.42354991;40606.000000;1.000000;1.000000;1.000000;1.000000;0.061702;-0.061702;0.061702;1.000000;0.631373;0.627451;0.54902
445646.64669998;5696567.66139992;470.42435004;19275.000000;1.000000;1.000000;1.000000;1.000000;-0.044704;0.044704;-0.044704;1.000000;0.321569;0.298039;0.231373
445646.81450089;5696567.88169868;470.42524983;25957.000000;1.000000;1.000000;1.000000;1.000000;-0.051699;0.051699;-0.051699;1.000000;0.415686;0.403922;0.313725
445646.67320068;5696567.96959885;470.42225005;36237.000000;1.000000;1.000000;1.000000;1.000000;-0.140533;0.140533;-0.140533;1.000000;0.560784;0.560784;0.505882
445646.90880020;5696567.86819942;470.43164994;30069.000000;1.000000;1.000000;1.000000;1.000000;-0.038199;0.038199;-0.038199;1.000000;0.466667;0.466667;0.407843
445646.65419968;5696567.74469955;470.43034985;22359.000000;1.000000;1.000000;1.000000;1.000000;0.092269;-0.092269;0.092269;1.000000;0.352941;0.352941;0.270588
445646.82470139;5696567.86449917;470.42314984;30326.000000;1.000000;1.000000;1.000000;1.000000;-0.034499;0.034499;-0.034499;1.000000;0.478431;0.470588;0.388235
445646.75560196;5696567.74949844;470.42104985;38550.000000;1.000000;1.000000;1.000000;1.000000;0.080502;-0.080502;0.080502;1.000000;0.603922;0.6;0.513725
445646.80030258;5696567.60279854;470.42124989;45232.000000;1.000000;1.000000;1.000000;1.000000;0.110926;-0.110926;0.110926;1.000000;0.705882;0.698039;0.639216
445646.67889984;5696568.00639923;470.42524983;29812.000000;1.000000;1.000000;1.000000;1.000000;-0.176710;0.176710;-0.176710;1.000000;0.462745;0.466667;0.4
445646.71640213;5696568.00759895;470.42464997;32125.000000;1.000000;1.000000;1.000000;1.000000;-0.177649;0.177649;-0.177649;1.000000;0.498039;0.498039;0.435294
445646.80150040;5696567.56309898;470.41625001;24929.000000;1.000000;1.000000;1.000000;1.000000;0.112123;-0.112123;0.112123;1.000000;0.392157;0.388235;0.333333
445646.83279999;5696567.90109928;470.42394998;39578.000000;1.000000;1.000000;1.000000;1.000000;-0.071099;0.071099;-0.071099;1.000000;0.623529;0.611765;0.533333
445646.87600143;5696567.78959854;470.42695000;16962.000000;1.000000;1.000000;1.000000;1.000000;0.040411;-0.040411;0.040411;1.000000;0.262745;0.266667;0.207843
445646.85860260;5696567.95699890;470.43275001;44718.000000;1.000000;1.000000;1.000000;1.000000;-0.126999;0.126999;-0.126999;1.000000;0.698039;0.686275;0.647059
445646.86130341;5696567.88429935;470.42974998;34438.000000;1.000000;1.000000;1.000000;1.000000;-0.054299;0.054299;-0.054299;1.000000;0.537255;0.533333;0.462745
445646.68300064;5696567.72799881;470.43144991;38293.000000;1.000000;1.000000;1.000000;1.000000;-0.080008;0.080008;-0.080008;1.000000;0.588235;0.596078;0.517647
445646.93260010;5696567.99909885;470.43435003;40092.000000;1.000000;1.000000;1.000000;1.000000;-0.169161;0.169161;-0.169161;1.000000;0.619608;0.615686;0.572549
445646.96790131;5696568.00049885;470.43354990;27242.000000;1.000000;1.000000;1.000000;1.000000;-0.170521;0.170521;-0.170521;1.000000;0.427451;0.423529;0.376471
445647.00550278;5696568.00179871;470.43065001;15934.000000;1.000000;1.000000;1.000000;1.000000;-0.171799;0.171799;-0.171799;1.000000;0.247059;0.25098;0.203922
445647.08040054;5696568.00409897;470.43404986;30069.000000;1.000000;1.000000;1.000000;1.000000;-0.174099;0.174099;-0.174099;1.000000;0.470588;0.466667;0.407843
445646.89630325;5696567.96039970;470.43454983;42405.000000;1.000000;1.000000;1.000000;1.000000;-0.130400;0.130400;-0.130400;1.000000;0.662745;0.65098;0.607843
445646.97130020;5696567.96279915;470.43564989;12850.000000;1.000000;1.000000;1.000000;1.000000;-0.132799;0.132799;-0.132799;1.000000;0.211765;0.2;0.156863
445646.89750107;5696567.92299946;470.43415000;36494.000000;1.000000;1.000000;1.000000;1.000000;-0.093002;0.093002;-0.093002;1.000000;0.568627;0.564706;0.505882
445646.93620117;5696567.88669880;470.43314983;24415.000000;1.000000;1.000000;1.000000;1.000000;-0.056788;0.056788;-0.056788;1.000000;0.384314;0.380392;0.321569
445646.97350128;5696567.88779934;470.43715002;30840.000000;1.000000;1.000000;1.000000;1.000000;-0.057799;0.057799;-0.057799;1.000000;0.482353;0.47451;0.423529
445646.94090088;5696567.81149872;470.43244984;21074.000000;1.000000;1.000000;1.000000;1.000000;0.018501;-0.018501;0.018501;1.000000;0.345098;0.32549;0.247059
445646.97960098;5696567.77749832;470.43614985;17733.000000;1.000000;1.000000;1.000000;1.000000;0.052502;-0.052502;0.052502;1.000000;0.286275;0.278431;0.219608
445647.01620300;5696567.74149902;470.43264987;36751.000000;1.000000;1.000000;1.000000;1.000000;0.088501;-0.088501;0.088501;1.000000;0.564706;0.568627;0.52549
445647.08340271;5696567.94059952;470.44275000;7967.000000;1.000000;1.000000;1.000000;1.000000;-0.110600;0.110600;-0.110600;1.000000;0.133333;0.12549;0.0862745
445647.04940231;5696567.82689865;470.44455006;28527.000000;1.000000;1.000000;1.000000;1.000000;0.003101;-0.003101;0.003101;1.000000;0.45098;0.447059;0.356863
445646.99540146;5696567.79699905;470.43945004;35723.000000;1.000000;1.000000;1.000000;1.000000;0.033359;-0.033359;0.033359;1.000000;0.556863;0.552941;0.490196
445647.07010086;5696567.79929932;470.44514992;35980.000000;1.000000;1.000000;1.000000;1.000000;0.030701;-0.030701;0.030701;1.000000;0.564706;0.556863;0.47451
445646.72860153;5696567.71219833;470.42404987;40863.000000;1.000000;1.000000;1.000000;1.000000;0.075153;-0.075153;0.075153;1.000000;0.635294;0.631373;0.552941
445646.69429977;5696567.67099960;470.42435004;12593.000000;1.000000;1.000000;1.000000;1.000000;0.023431;-0.023431;0.023431;1.000000;0.2;0.207843;0.117647
445646.69660004;5696567.59599884;470.42584993;21074.000000;1.000000;1.000000;1.000000;1.000000;0.007223;-0.007223;0.007223;1.000000;0.317647;0.345098;0.219608
445646.90290268;5696568.00649937;470.43534996;41377.000000;1.000000;1.000000;1.000000;1.000000;-0.176577;0.176577;-0.176577;1.000000;0.639216;0.639216;0.6
445646.90760239;5696567.93139942;470.43474986;38293.000000;1.000000;1.000000;1.000000;1.000000;-0.101401;0.101401;-0.101401;1.000000;0.596078;0.592157;0.537255
445646.91160019;5696567.82129868;470.42894985;36494.000000;1.000000;1.000000;1.000000;1.000000;0.008701;-0.008701;0.008701;1.000000;0.568627;0.564706;0.505882
445647.03460129;5696568.01309879;470.43214991;26728.000000;1.000000;1.000000;1.000000;1.000000;-0.183099;0.183099;-0.183099;1.000000;0.411765;0.415686;0.368627
445646.92280014;5696567.96959885;470.43584992;21845.000000;1.000000;1.000000;1.000000;1.000000;-0.139599;0.139599;-0.139599;1.000000;0.34902;0.337255;0.298039
445647.03569992;5696567.97559937;470.43404986;19789.000000;1.000000;1.000000;1.000000;1.000000;-0.145599;0.145599;-0.145599;1.000000;0.309804;0.309804;0.266667
445646.88890274;5696567.93079956;470.43384983;35209.000000;1.000000;1.000000;1.000000;1.000000;-0.100800;0.100800;-0.100800;1.000000;0.552941;0.545098;0.486275
445646.81870087;5696567.77849968;470.42884995;28527.000000;1.000000;1.000000;1.000000;1.000000;0.051500;-0.051500;0.051500;1.000000;0.447059;0.447059;0.368627
445646.85750015;5696567.74449928;470.43254997;32639.000000;1.000000;1.000000;1.000000;1.000000;0.085501;-0.085501;0.085501;1.000000;0.505882;0.505882;0.435294
445646.97810181;5696568.00899895;470.43184998;25957.000000;1.000000;1.000000;1.000000;1.000000;-0.178999;0.178999;-0.178999;1.000000;0.407843;0.403922;0.352941
445646.74870117;5696567.67309959;470.41514995;31611.000000;1.000000;1.000000;1.000000;1.000000;0.064451;-0.064451;0.064451;1.000000;0.509804;0.486275;0.407843
445646.78640182;5696567.67659958;470.41684987;16705.000000;1.000000;1.000000;1.000000;1.000000;0.101168;-0.101168;0.101168;1.000000;0.278431;0.254902;0.192157
445646.75480087;5696567.56279953;470.41415002;25443.000000;1.000000;1.000000;1.000000;1.000000;0.065424;-0.065424;0.065424;1.000000;0.403922;0.396078;0.337255
445646.83910187;5696568.02189930;470.43034985;53199.000000;1.000000;1.000000;1.000000;1.000000;-0.191960;0.191960;-0.191960;1.000000;0.819608;0.819608;0.776471
445646.87420090;5696568.02329929;470.43194987;39321.000000;1.000000;1.000000;1.000000;1.000000;-0.193318;0.193318;-0.193318;1.000000;0.607843;0.607843;0.564706
445646.83790024;5696567.98459919;470.43214991;35980.000000;1.000000;1.000000;1.000000;1.000000;-0.154642;0.154642;-0.154642;1.000000;0.556863;0.556863;0.513725
445646.96070297;5696567.95199879;470.43964984;13107.000000;1.000000;1.000000;1.000000;1.000000;-0.122007;0.122007;-0.122007;1.000000;0.215686;0.203922;0.160784
445647.03810318;5696567.88169868;470.44464995;25700.000000;1.000000;1.000000;1.000000;1.000000;-0.051699;0.051699;-0.051699;1.000000;0.4;0.4;0.333333
445647.03920181;5696567.84419926;470.44665005;33667.000000;1.000000;1.000000;1.000000;1.000000;-0.014199;0.014199;-0.014199;1.000000;0.52549;0.52549;0.45098
445646.89750107;5696567.72659882;470.44114997;40349.000000;1.000000;1.000000;1.000000;1.000000;0.103404;-0.103404;0.103404;1.000000;0.623529;0.623529;0.552941
445646.66930206;5696567.60549934;470.42934992;31354.000000;1.000000;1.000000;1.000000;1.000000;-0.020075;0.020075;-0.020075;1.000000;0.47451;0.498039;0.388235
445646.95050247;5696567.99039944;470.43505003;16448.000000;1.000000;1.000000;1.000000;1.000000;-0.160399;0.160399;-0.160399;1.000000;0.262745;0.254902;0.219608
445647.06300171;5696567.99399956;470.43544986;25957.000000;1.000000;1.000000;1.000000;1.000000;-0.164005;0.164005;-0.164005;1.000000;0.4;0.403922;0.345098
445646.91400345;5696567.95169933;470.43754985;34438.000000;1.000000;1.000000;1.000000;1.000000;-0.121699;0.121699;-0.121699;1.000000;0.537255;0.529412;0.47451
445646.91760071;5696567.91409882;470.43494989;36751.000000;1.000000;1.000000;1.000000;1.000000;-0.084099;0.084099;-0.084099;1.000000;0.568627;0.568627;0.505882
445646.95400055;5696567.87799938;470.43614985;30840.000000;1.000000;1.000000;1.000000;1.000000;-0.047999;0.047999;-0.047999;1.000000;0.482353;0.478431;0.423529
445646.99150284;5696567.87919910;470.43554999;13364.000000;1.000000;1.000000;1.000000;1.000000;-0.049209;0.049209;-0.049209;1.000000;0.215686;0.211765;0.156863
445646.95890244;5696567.80509956;470.43554999;20560.000000;1.000000;1.000000;1.000000;1.000000;0.024900;-0.024900;0.024900;1.000000;0.337255;0.317647;0.239216
445647.03510101;5696567.76999863;470.43624999;37008.000000;1.000000;1.000000;1.000000;1.000000;0.060001;-0.060001;0.060001;1.000000;0.568627;0.572549;0.521569
445647.07640274;5696567.66109856;470.43444993;33667.000000;1.000000;1.000000;1.000000;1.000000;0.144224;0.144224;-0.144224;1.000000;0.529412;0.52549;0.435294
445646.84890182;5696567.75229843;470.43225004;34181.000000;1.000000;1.000000;1.000000;1.000000;0.077702;-0.077702;0.077702;1.000000;0.529412;0.533333;0.458824
445646.92170151;5696567.75719841;470.43554999;33410.000000;1.000000;1.000000;1.000000;1.000000;0.072802;-0.072802;0.072802;1.000000;0.513725;0.521569;0.454902
445647.03560074;5696567.72329910;470.43104984;33410.000000;1.000000;1.000000;1.000000;1.000000;0.106701;-0.106701;0.106701;1.000000;0.513725;0.517647;0.466667
445646.71190079;5696567.90539940;470.41625001;26985.000000;1.000000;1.000000;1.000000;1.000000;-0.075446;0.075446;-0.075446;1.000000;0.423529;0.423529;0.341176
445647.07629974;5696567.89209946;470.44884994;22359.000000;1.000000;1.000000;1.000000;1.000000;-0.062099;0.062099;-0.062099;1.000000;0.34902;0.34902;0.290196
445646.75360306;5696568.02759941;470.41954996;35466.000000;1.000000;1.000000;1.000000;1.000000;-0.197599;0.197599;-0.197599;1.000000;0.556863;0.54902;0.466667
445646.68180283;5696567.98749931;470.42514994;29298.000000;1.000000;1.000000;1.000000;1.000000;-0.157681;0.157681;-0.157681;1.000000;0.454902;0.454902;0.396078
445647.08360107;5696567.91949947;470.44715001;16962.000000;1.000000;1.000000;1.000000;1.000000;-0.089499;0.089499;-0.089499;1.000000;0.270588;0.262745;0.207843
445646.68430145;5696567.91259964;470.42205002;23387.000000;1.000000;1.000000;1.000000;1.000000;-0.082755;0.082755;-0.082755;1.000000;0.368627;0.368627;0.294118
445646.79810150;5696567.88089951;470.42454984;20046.000000;1.000000;1.000000;1.000000;1.000000;-0.050900;0.050900;-0.050900;1.000000;0.333333;0.309804;0.223529
445647.06430252;5696567.73449905;470.43945004;36237.000000;1.000000;1.000000;1.000000;1.000000;0.095501;-0.095501;0.095501;1.000000;0.560784;0.560784;0.505882
445646.72540100;5696567.80359848;470.42494990;31868.000000;1.000000;1.000000;1.000000;1.000000;0.026402;-0.026402;0.026402;1.000000;0.494118;0.501961;0.411765
445646.76530273;5696567.72979935;470.42354991;36751.000000;1.000000;1.000000;1.000000;1.000000;0.100201;-0.100201;0.100201;1.000000;0.580392;0.568627;0.482353
445646.80890091;5696567.62069901;470.42424991;34181.000000;1.000000;1.000000;1.000000;1.000000;0.119524;-0.119524;0.119524;1.000000;0.533333;0.529412;0.458824
445646.66200073;5696567.57589920;470.42634990;36751.000000;1.000000;1.000000;1.000000;1.000000;-0.027376;0.027376;-0.027376;1.000000;0.568627;0.572549;0.509804
445646.69040115;5696568.00539883;470.42575004;37008.000000;1.000000;1.000000;1.000000;1.000000;-0.175399;0.175399;-0.175399;1.000000;0.568627;0.572549;0.513725
445646.73200043;5696567.89649971;470.41934993;23387.000000;1.000000;1.000000;1.000000;1.000000;-0.066500;0.066500;-0.066500;1.000000;0.364706;0.368627;0.278431
445646.73550232;5696567.78629883;470.42524983;39064.000000;1.000000;1.000000;1.000000;1.000000;0.043701;-0.043701;0.043701;1.000000;0.603922;0.611765;0.517647
445646.88550003;5696567.79109962;470.42505004;20817.000000;1.000000;1.000000;1.000000;1.000000;0.038900;-0.038900;0.038900;1.000000;0.321569;0.32549;0.270588
445646.77779968;5696567.63759811;470.42304995;22616.000000;1.000000;1.000000;1.000000;1.000000;0.088423;-0.088423;0.088423;1.000000;0.364706;0.352941;0.266667
445646.66980179;5696567.55879982;470.42415001;25443.000000;1.000000;1.000000;1.000000;1.000000;-0.019575;0.019575;-0.019575;1.000000;0.407843;0.392157;0.337255
445646.63230331;5696567.55760010;470.42485001;33924.000000;1.000000;1.000000;1.000000;1.000000;-0.057074;0.057074;-0.057074;1.000000;0.52549;0.521569;0.486275
445647.03960236;5696567.87219913;470.44464995;21331.000000;1.000000;1.000000;1.000000;1.000000;-0.042199;0.042199;-0.042199;1.000000;0.333333;0.333333;0.266667
445647.04080017;5696567.83479889;470.44424989;31611.000000;1.000000;1.000000;1.000000;1.000000;-0.004799;0.004799;-0.004799;1.000000;0.494118;0.494118;0.411765
445647.08220108;5696567.72589882;470.44015004;35209.000000;1.000000;1.000000;1.000000;1.000000;0.104101;-0.104101;0.104101;1.000000;0.54902;0.545098;0.47451
445647.09380157;5696567.85539921;470.45155003;31097.000000;1.000000;1.000000;1.000000;1.000000;-0.025465;0.025465;-0.025465;1.000000;0.486275;0.486275;0.403922
445647.09530075;5696567.82029922;470.44884994;30583.000000;1.000000;1.000000;1.000000;1.000000;0.009706;-0.009706;0.009706;1.000000;0.482353;0.478431;0.396078
445646.73530014;5696568.00829895;470.42314984;38293.000000;1.000000;1.000000;1.000000;1.000000;-0.178299;0.178299;-0.178299;1.000000;0.596078;0.592157;0.521569
445646.81400116;5696567.90049942;470.42314984;28270.000000;1.000000;1.000000;1.000000;1.000000;-0.070500;0.070500;-0.070500;1.000000;0.45098;0.439216;0.356863
445646.63930328;5696567.63169868;470.42365005;25186.000000;1.000000;1.000000;1.000000;1.000000;-0.050074;0.050074;-0.050074;1.000000;0.403922;0.388235;0.321569
445646.91030319;5696567.85869892;470.43164994;30069.000000;1.000000;1.000000;1.000000;1.000000;-0.028699;0.028699;-0.028699;1.000000;0.47451;0.466667;0.403922
445646.91360291;5696567.74629982;470.43514993;17476.000000;1.000000;1.000000;1.000000;1.000000;0.083700;-0.083700;0.083700;1.000000;0.266667;0.278431;0.211765
445646.72120102;5696567.90459927;470.41664984;22873.000000;1.000000;1.000000;1.000000;1.000000;-0.074599;0.074599;-0.074599;1.000000;0.360784;0.360784;0.27451
445647.09300049;5696567.92089947;470.44995000;13878.000000;1.000000;1.000000;1.000000;1.000000;-0.090937;0.090937;-0.090937;1.000000;0.223529;0.219608;0.164706
445647.01540192;5696567.98219879;470.43085005;27756.000000;1.000000;1.000000;1.000000;1.000000;-0.152199;0.152199;-0.152199;1.000000;0.427451;0.431373;0.384314
445647.06870087;5696567.80879982;470.44514992;32896.000000;1.000000;1.000000;1.000000;1.000000;0.021200;-0.021200;0.021200;1.000000;0.517647;0.509804;0.419608
445647.05100067;5696567.84539898;470.44715001;30069.000000;1.000000;1.000000;1.000000;1.000000;-0.015399;0.015399;-0.015399;1.000000;0.470588;0.470588;0.396078
445646.79650314;5696567.68499954;470.41744997;33410.000000;1.000000;1.000000;1.000000;1.000000;0.113350;-0.113350;0.113350;1.000000;0.52549;0.513725;0.45098
445646.75270279;5696568.01839931;470.41945006;31611.000000;1.000000;1.000000;1.000000;1.000000;-0.188399;0.188399;-0.188399;1.000000;0.501961;0.490196;0.403922
445646.79020126;5696568.01959904;470.42114999;40863.000000;1.000000;1.000000;1.000000;1.000000;-0.189599;0.189599;-0.189599;1.000000;0.643137;0.627451;0.552941
445647.01050003;5696567.86089905;470.44315006;26728.000000;1.000000;1.000000;1.000000;1.000000;-0.030899;0.030899;-0.030899;1.000000;0.419608;0.415686;0.356863
445647.01560028;5696567.78809937;470.43785002;26214.000000;1.000000;1.000000;1.000000;1.000000;0.041901;-0.041901;0.041901;1.000000;0.411765;0.407843;0.34902
445646.82769974;5696568.02299889;470.42524983;35980.000000;1.000000;1.000000;1.000000;1.000000;-0.192999;0.192999;-0.192999;1.000000;0.560784;0.556863;0.501961
445646.74400146;5696568.02619942;470.42144992;40092.000000;1.000000;1.000000;1.000000;1.000000;-0.196231;0.196231;-0.196231;1.000000;0.619608;0.619608;0.552941
445646.74530228;5696567.99099930;470.42345001;36494.000000;1.000000;1.000000;1.000000;1.000000;-0.161071;0.161071;-0.161071;1.000000;0.572549;0.564706;0.482353
445646.71860321;5696567.97949894;470.42205002;37265.000000;1.000000;1.000000;1.000000;1.000000;-0.149513;0.149513;-0.149513;1.000000;0.580392;0.576471;0.509804
445646.75600250;5696567.98059948;470.42374994;28013.000000;1.000000;1.000000;1.000000;1.000000;-0.150599;0.150599;-0.150599;1.000000;0.447059;0.439216;0.341176
445646.67490204;5696567.91339882;470.42394998;18504.000000;1.000000;1.000000;1.000000;1.000000;-0.084646;0.084646;-0.084646;1.000000;0.294118;0.290196;0.223529
445646.88550003;5696567.96849926;470.43184998;40606.000000;1.000000;1.000000;1.000000;1.000000;-0.138499;0.138499;-0.138499;1.000000;0.631373;0.623529;0.584314
445646.78849991;5696567.87949951;470.42634990;28527.000000;1.000000;1.000000;1.000000;1.000000;-0.049500;0.049500;-0.049500;1.000000;0.458824;0.439216;0.360784
445646.85620316;5696567.77969940;470.43054988;26214.000000;1.000000;1.000000;1.000000;1.000000;0.050301;-0.050301;0.050301;1.000000;0.403922;0.411765;0.352941
445646.93130310;5696567.78429993;470.43404986;32896.000000;1.000000;1.000000;1.000000;1.000000;0.045818;-0.045818;0.045818;1.000000;0.509804;0.509804;0.443137
445646.82520111;5696567.84569939;470.42534997;32639.000000;1.000000;1.000000;1.000000;1.000000;-0.015699;0.015699;-0.015699;1.000000;0.509804;0.505882;0.435294
445646.92170151;5696568.00709923;470.43394997;35209.000000;1.000000;1.000000;1.000000;1.000000;-0.177099;0.177099;-0.177099;1.000000;0.552941;0.541176;0.498039
445646.92650040;5696567.85719879;470.43234994;26985.000000;1.000000;1.000000;1.000000;1.000000;-0.027199;0.027199;-0.027199;1.000000;0.427451;0.419608;0.34902
445647.00620087;5696567.78669937;470.43744995;32896.000000;1.000000;1.000000;1.000000;1.000000;0.043301;-0.043301;0.043301;1.000000;0.517647;0.509804;0.443137
445647.04500015;5696567.75039871;470.43415000;32125.000000;1.000000;1.000000;1.000000;1.000000;0.079601;-0.079601;0.079601;1.000000;0.498039;0.498039;0.454902
445646.75490005;5696567.76819809;470.42354991;38036.000000;1.000000;1.000000;1.000000;1.000000;0.061802;-0.061802;0.061802;1.000000;0.588235;0.592157;0.509804
445646.75610168;5696567.73069962;470.42314984;36237.000000;1.000000;1.000000;1.000000;1.000000;0.099300;-0.099300;0.099300;1.000000;0.568627;0.560784;0.47451
445646.91810043;5696567.86739929;470.43205001;24158.000000;1.000000;1.000000;1.000000;1.000000;-0.037399;0.037399;-0.037399;1.000000;0.380392;0.376471;0.309804
445646.91930206;5696567.82989891;470.43164994;34438.000000;1.000000;1.000000;1.000000;1.000000;0.000101;-0.000101;0.000101;1.000000;0.545098;0.533333;0.462745
445646.84550293;5696567.78999908;470.43024995;29041.000000;1.000000;1.000000;1.000000;1.000000;0.040001;-0.040001;0.040001;1.000000;0.443137;0.454902;0.384314
445646.66340073;5696567.74379929;470.43074991;29555.000000;1.000000;1.000000;1.000000;1.000000;0.090030;-0.090030;0.090030;1.000000;0.458824;0.466667;0.372549
445646.64809998;5696567.65189941;470.42435004;25186.000000;1.000000;1.000000;1.000000;1.000000;-0.041453;0.041453;-0.041453;1.000000;0.407843;0.388235;0.313725
445646.68920334;5696567.54069908;470.42254998;13621.000000;1.000000;1.000000;1.000000;1.000000;-0.000174;0.000174;-0.000174;1.000000;0.235294;0.211765;0.145098
445647.02660187;5696567.90849884;470.44444992;23644.000000;1.000000;1.000000;1.000000;1.000000;-0.078647;0.078647;-0.078647;1.000000;0.376471;0.368627;0.309804
445647.07140167;5696567.76190002;470.44244983;31097.000000;1.000000;1.000000;1.000000;1.000000;0.068100;-0.068100;0.068100;1.000000;0.478431;0.486275;0.419608
445647.07290085;5696567.72669991;470.43974998;35209.000000;1.000000;1.000000;1.000000;1.000000;0.103300;-0.103300;0.103300;1.000000;0.545098;0.545098;0.482353
445646.86639984;5696568.01459892;470.43155005;30069.000000;1.000000;1.000000;1.000000;1.000000;-0.184601;0.184601;-0.184601;1.000000;0.466667;0.466667;0.423529
445646.79380234;5696567.98409946;470.42324998;34181.000000;1.000000;1.000000;1.000000;1.000000;-0.154099;0.154099;-0.154099;1.000000;0.533333;0.529412;0.454902
445646.81270035;5696567.90999897;470.42085006;26985.000000;1.000000;1.000000;1.000000;1.000000;-0.080017;0.080017;-0.080017;1.000000;0.431373;0.419608;0.341176
445646.66130264;5696567.59459885;470.42884995;32639.000000;1.000000;1.000000;1.000000;1.000000;-0.028074;0.028074;-0.028074;1.000000;0.501961;0.513725;0.435294
445647.01430328;5696568.01969917;470.42894985;26985.000000;1.000000;1.000000;1.000000;1.000000;-0.189699;0.189699;-0.189699;1.000000;0.419608;0.419608;0.372549
445646.94130142;5696568.01699932;470.43494989;30069.000000;1.000000;1.000000;1.000000;1.000000;-0.186999;0.186999;-0.186999;1.000000;0.47451;0.462745;0.411765
445646.94240005;5696567.97949894;470.43684985;10280.000000;1.000000;1.000000;1.000000;1.000000;-0.149499;0.149499;-0.149499;1.000000;0.172549;0.160784;0.121569
445646.97770126;5696567.98089893;470.43384983;10794.000000;1.000000;1.000000;1.000000;1.000000;-0.150899;0.150899;-0.150899;1.000000;0.172549;0.168627;0.129412
445647.05290039;5696567.98559959;470.43494989;24415.000000;1.000000;1.000000;1.000000;1.000000;-0.155600;0.155600;-0.155600;1.000000;0.376471;0.380392;0.32549
445647.08810242;5696567.98699959;470.43654992;21074.000000;1.000000;1.000000;1.000000;1.000000;-0.157046;0.157046;-0.157046;1.000000;0.329412;0.329412;0.262745
445646.90630157;5696567.94319923;470.43474986;37265.000000;1.000000;1.000000;1.000000;1.000000;-0.113214;0.113214;-0.113214;1.000000;0.584314;0.572549;0.517647
445646.90730103;5696567.90339859;470.43435003;37008.000000;1.000000;1.000000;1.000000;1.000000;-0.073403;0.073403;-0.073403;1.000000;0.572549;0.572549;0.513725
445646.95090302;5696567.79419907;470.43505003;25443.000000;1.000000;1.000000;1.000000;1.000000;0.035801;-0.035801;0.035801;1.000000;0.403922;0.396078;0.329412
445646.98950012;5696567.75789841;470.43634989;29812.000000;1.000000;1.000000;1.000000;1.000000;0.072102;-0.072102;0.072102;1.000000;0.458824;0.462745;0.403922
445647.02480133;5696567.75929840;470.43324997;39064.000000;1.000000;1.000000;1.000000;1.000000;0.070767;-0.070767;0.070767;1.000000;0.6;0.603922;0.552941
445647.02620132;5696567.72419937;470.43295004;32382.000000;1.000000;1.000000;1.000000;1.000000;0.105893;-0.105893;0.105893;1.000000;0.498039;0.501961;0.447059
445646.68220337;5696567.94079884;470.42234995;33410.000000;1.000000;1.000000;1.000000;1.000000;-0.111031;0.111031;-0.111031;1.000000;0.517647;0.517647;0.458824
445646.71980103;5696567.94199951;470.42164995;42919.000000;1.000000;1.000000;1.000000;1.000000;-0.112003;0.112003;-0.112003;1.000000;0.662745;0.662745;0.596078
445646.75720032;5696567.94319923;470.42334988;35466.000000;1.000000;1.000000;1.000000;1.000000;-0.113199;0.113199;-0.113199;1.000000;0.552941;0.54902;0.470588
445647.07690247;5696567.87339886;470.44864990;24158.000000;1.000000;1.000000;1.000000;1.000000;-0.043399;0.043399;-0.043399;1.000000;0.376471;0.376471;0.309804
445646.75850113;5696567.90799912;470.42534997;35980.000000;1.000000;1.000000;1.000000;1.000000;-0.077999;0.077999;-0.077999;1.000000;0.564706;0.556863;0.47451
445646.71870239;5696567.75749977;470.42645003;26471.000000;1.000000;1.000000;1.000000;1.000000;0.072526;-0.072526;0.072526;1.000000;0.415686;0.419608;0.298039
445646.75959976;5696567.87049873;470.42724993;42405.000000;1.000000;1.000000;1.000000;1.000000;-0.040499;0.040499;-0.040499;1.000000;0.662745;0.654902;0.568627
445646.83480270;5696567.87289913;470.42374994;39064.000000;1.000000;1.000000;1.000000;1.000000;-0.042903;0.042903;-0.042903;1.000000;0.611765;0.603922;0.521569
445647.09430130;5696567.88569935;470.45194985;19532.000000;1.000000;1.000000;1.000000;1.000000;-0.055715;0.055715;-0.055715;1.000000;0.309804;0.305882;0.231373
445646.76090057;5696567.83299931;470.42454984;36751.000000;1.000000;1.000000;1.000000;1.000000;-0.002999;0.002999;-0.002999;1.000000;0.564706;0.568627;0.509804
445646.83590134;5696567.83539970;470.42564990;25700.000000;1.000000;1.000000;1.000000;1.000000;-0.005644;0.005644;-0.005644;1.000000;0.403922;0.4;0.329412
445646.79960068;5696567.79669960;470.42354991;41377.000000;1.000000;1.000000;1.000000;1.000000;0.033300;-0.033300;0.033300;1.000000;0.639216;0.639216;0.572549
445646.75959976;5696567.66509827;470.41555001;33924.000000;1.000000;1.000000;1.000000;1.000000;0.072295;-0.072295;0.072295;1.000000;0.552941;0.517647;0.431373
445646.72680099;5696567.58869942;470.41544988;46003.000000;1.000000;1.000000;1.000000;1.000000;0.037424;-0.037424;0.037424;1.000000;0.709804;0.713725;0.627451
445647.09350021;5696567.90219887;470.45204999;12336.000000;1.000000;1.000000;1.000000;1.000000;-0.072230;0.072230;-0.072230;1.000000;0.203922;0.196078;0.137255
445647.06710251;5696567.89299973;470.44844987;29812.000000;1.000000;1.000000;1.000000;1.000000;-0.063000;0.063000;-0.063000;1.000000;0.462745;0.462745;0.4
445647.05730255;5696567.86349876;470.44764997;26214.000000;1.000000;1.000000;1.000000;1.000000;-0.033769;0.033769;-0.033769;1.000000;0.407843;0.411765;0.337255
445646.73380096;5696567.58809860;470.41345002;44204.000000;1.000000;1.000000;1.000000;1.000000;0.044424;-0.044424;0.044424;1.000000;0.686275;0.686275;0.6
445646.76370056;5696568.01039894;470.41984989;28527.000000;1.000000;1.000000;1.000000;1.000000;-0.180399;0.180399;-0.180399;1.000000;0.454902;0.447059;0.34902
445646.80109985;5696568.01149948;470.42155005;47031.000000;1.000000;1.000000;1.000000;1.000000;-0.181499;0.181499;-0.181499;1.000000;0.737255;0.72549;0.654902
445646.76460083;5696567.97279938;470.42404987;29555.000000;1.000000;1.000000;1.000000;1.000000;-0.142799;0.142799;-0.142799;1.000000;0.470588;0.462745;0.368627
445646.65540131;5696567.67929848;470.42264988;34695.000000;1.000000;1.000000;1.000000;1.000000;-0.046154;0.046154;-0.046154;1.000000;0.545098;0.537255;0.466667
445646.72720154;5696567.97159966;470.42234995;39321.000000;1.000000;1.000000;1.000000;1.000000;-0.141600;0.141600;-0.141600;1.000000;0.615686;0.607843;0.537255
445646.80220230;5696567.97399910;470.42345001;35723.000000;1.000000;1.000000;1.000000;1.000000;-0.143999;0.143999;-0.143999;1.000000;0.556863;0.552941;0.494118
445646.69310196;5696567.93279942;470.42275002;27242.000000;1.000000;1.000000;1.000000;1.000000;-0.102799;0.102799;-0.102799;1.000000;0.423529;0.423529;0.360784
445646.72840317;5696567.93419941;470.42194988;35980.000000;1.000000;1.000000;1.000000;1.000000;-0.104199;0.104199;-0.104199;1.000000;0.560784;0.560784;0.486275
445646.76580246;5696567.93529900;470.42365005;34181.000000;1.000000;1.000000;1.000000;1.000000;-0.105299;0.105299;-0.105299;1.000000;0.537255;0.529412;0.458824
445647.06620224;5696567.88369949;470.44824984;29298.000000;1.000000;1.000000;1.000000;1.000000;-0.053699;0.053699;-0.053699;1.000000;0.454902;0.454902;0.384314
445646.80340012;5696567.93649872;470.42304995;38293.000000;1.000000;1.000000;1.000000;1.000000;-0.106499;0.106499;-0.106499;1.000000;0.596078;0.592157;0.529412
445646.76950272;5696567.64769943;470.42044999;22616.000000;1.000000;1.000000;1.000000;1.000000;0.080126;-0.080126;0.080126;1.000000;0.376471;0.34902;0.262745
445646.76710327;5696567.90019901;470.42564990;24929.000000;1.000000;1.000000;1.000000;1.000000;-0.070199;0.070199;-0.070199;1.000000;0.403922;0.388235;0.305882
445646.73180206;5696567.64649971;470.42334988;24672.000000;1.000000;1.000000;1.000000;1.000000;0.042425;-0.042425;0.042425;1.000000;0.392157;0.392157;0.266667
445646.84330185;5696567.86499889;470.42634990;43690.000000;1.000000;1.000000;1.000000;1.000000;-0.035076;0.035076;-0.035076;1.000000;0.678431;0.67451;0.6
445646.77180298;5696567.82499893;470.42494990;33667.000000;1.000000;1.000000;1.000000;1.000000;0.005001;-0.005001;0.005001;1.000000;0.521569;0.521569;0.466667
445646.84679993;5696567.82729919;470.42604997;25186.000000;1.000000;1.000000;1.000000;1.000000;0.002701;-0.002701;0.002701;1.000000;0.392157;0.392157;0.32549
445646.69770248;5696567.78279884;470.42575004;38807.000000;1.000000;1.000000;1.000000;1.000000;0.047201;-0.047201;0.047201;1.000000;0.6;0.607843;0.505882
445646.66480072;5696567.70639999;470.42575004;36237.000000;1.000000;1.000000;1.000000;1.000000;-0.063244;0.063244;-0.063244;1.000000;0.560784;0.560784;0.494118
445646.73530014;5696567.60879906;470.42304995;42662.000000;1.000000;1.000000;1.000000;1.000000;0.045923;-0.045923;0.045923;1.000000;0.658824;0.666667;0.556863
445646.77550323;5696567.71259888;470.42144992;33410.000000;1.000000;1.000000;1.000000;1.000000;0.107635;-0.107635;0.107635;1.000000;0.529412;0.513725;0.439216
445646.77060135;5696567.61019905;470.42234995;43690.000000;1.000000;1.000000;1.000000;1.000000;0.081224;-0.081224;0.081224;1.000000;0.690196;0.67451;0.584314
445646.81020172;5696567.76069839;470.42594983;32639.000000;1.000000;1.000000;1.000000;1.000000;0.069427;-0.069427;0.069427;1.000000;0.513725;0.505882;0.423529
445646.70600327;5696567.56949814;470.42124989;29298.000000;1.000000;1.000000;1.000000;1.000000;0.016626;-0.016626;0.016626;1.000000;0.462745;0.454902;0.372549
445646.70490082;5696567.63489922;470.42664983;36494.000000;1.000000;1.000000;1.000000;1.000000;0.015524;-0.015524;0.015524;1.000000;0.545098;0.584314;0.443137
445646.80800064;5696567.61139877;470.42404987;40092.000000;1.000000;1.000000;1.000000;1.000000;0.118624;-0.118624;0.118624;1.000000;0.623529;0.619608;0.556863
445646.74250229;5696567.63619812;470.42374994;33924.000000;1.000000;1.000000;1.000000;1.000000;0.053125;-0.053125;0.053125;1.000000;0.537255;0.529412;0.411765
445646.80930145;5696567.57399948;470.42135002;31611.000000;1.000000;1.000000;1.000000;1.000000;0.119925;-0.119925;0.119925;1.000000;0.494118;0.486275;0.443137
445646.89669998;5696567.71739967;470.44094994;41634.000000;1.000000;1.000000;1.000000;1.000000;0.112600;-0.112600;0.112600;1.000000;0.643137;0.643137;0.580392
445647.08090027;5696567.76330002;470.44284989;33153.000000;1.000000;1.000000;1.000000;1.000000;0.066700;-0.066700;0.066700;1.000000;0.513725;0.517647;0.45098
445646.77150162;5696568.01899918;470.42024996;24415.000000;1.000000;1.000000;1.000000;1.000000;-0.188999;0.188999;-0.188999;1.000000;0.388235;0.380392;0.290196
445646.80910309;5696568.02249916;470.42205002;43947.000000;1.000000;1.000000;1.000000;1.000000;-0.192571;0.192571;-0.192571;1.000000;0.682353;0.678431;0.607843
445646.66300018;5696567.53609856;470.42365005;20046.000000;1.000000;1.000000;1.000000;1.000000;-0.026377;0.026377;-0.026377;1.000000;0.321569;0.309804;0.258824
445646.77490051;5696567.98119934;470.42234995;33924.000000;1.000000;1.000000;1.000000;1.000000;-0.151232;0.151232;-0.151232;1.000000;0.537255;0.52549;0.435294
445646.81020172;5696567.98489960;470.42394998;46260.000000;1.000000;1.000000;1.000000;1.000000;-0.154956;0.154956;-0.154956;1.000000;0.717647;0.713725;0.658824
445647.04900177;5696567.87369926;470.44505002;23901.000000;1.000000;1.000000;1.000000;1.000000;-0.043699;0.043699;-0.043699;1.000000;0.372549;0.372549;0.301961
445647.05020340;5696567.83619888;470.44464995;29555.000000;1.000000;1.000000;1.000000;1.000000;-0.006199;0.006199;-0.006199;1.000000;0.466667;0.462745;0.376471
445646.70110138;5696567.94139870;470.42085006;30840.000000;1.000000;1.000000;1.000000;1.000000;-0.111399;0.111399;-0.111399;1.000000;0.478431;0.482353;0.415686
445647.09140213;5696567.72499855;470.44054987;34695.000000;1.000000;1.000000;1.000000;1.000000;0.105086;-0.105086;0.105086;1.000000;0.545098;0.541176;0.454902
445646.73850067;5696567.94259937;470.42254998;33410.000000;1.000000;1.000000;1.000000;1.000000;-0.112599;0.112599;-0.112599;1.000000;0.521569;0.517647;0.443137
445646.77380188;5696567.94629868;470.42415001;38293.000000;1.000000;1.000000;1.000000;1.000000;-0.116317;0.116317;-0.116317;1.000000;0.596078;0.592157;0.52549
445646.70860107;5696567.99899872;470.42415001;35980.000000;1.000000;1.000000;1.000000;1.000000;-0.168999;0.168999;-0.168999;1.000000;0.556863;0.560784;0.494118
445646.78709991;5696567.88889893;470.42645003;26728.000000;1.000000;1.000000;1.000000;1.000000;-0.058899;0.058899;-0.058899;1.000000;0.431373;0.415686;0.333333
445646.73970230;5696567.90509899;470.42214992;33153.000000;1.000000;1.000000;1.000000;1.000000;-0.075099;0.075099;-0.075099;1.000000;0.521569;0.517647;0.431373
445646.77720078;5696567.90849884;470.42625000;22359.000000;1.000000;1.000000;1.000000;1.000000;-0.078687;0.078687;-0.078687;1.000000;0.360784;0.345098;0.270588
445646.82600220;5696567.85499962;470.42544987;30840.000000;1.000000;1.000000;1.000000;1.000000;-0.025000;0.025000;-0.025000;1.000000;0.482353;0.478431;0.4
445646.86350067;5696567.85609921;470.42715003;27756.000000;1.000000;1.000000;1.000000;1.000000;-0.026099;0.026099;-0.026099;1.000000;0.431373;0.431373;0.372549
445646.90220078;5696567.81989868;470.42614986;37265.000000;1.000000;1.000000;1.000000;1.000000;0.011474;-0.011474;0.011474;1.000000;0.584314;0.572549;0.509804
445646.68050201;5696567.77499969;470.42724993;32896.000000;1.000000;1.000000;1.000000;1.000000;0.055712;-0.055712;0.055712;1.000000;0.513725;0.517647;0.403922
445646.71930130;5696567.73869904;470.42625000;27499.000000;1.000000;1.000000;1.000000;1.000000;0.091311;-0.091311;0.091311;1.000000;0.431373;0.431373;0.32549
445646.64790161;5696567.69869812;470.42254998;37008.000000;1.000000;1.000000;1.000000;1.000000;-0.065455;0.065455;-0.065455;1.000000;0.580392;0.568627;0.513725
445646.79580124;5696567.70369919;470.41995003;36751.000000;1.000000;1.000000;1.000000;1.000000;0.120114;-0.120114;0.120114;1.000000;0.580392;0.568627;0.498039
445646.68880280;5696567.58739861;470.42534997;16191.000000;1.000000;1.000000;1.000000;1.000000;-0.000574;0.000574;-0.000574;1.000000;0.25098;0.266667;0.156863
445646.85340317;5696567.87339886;470.42695000;40349.000000;1.000000;1.000000;1.000000;1.000000;-0.043399;0.043399;-0.043399;1.000000;0.627451;0.623529;0.54902
445646.69009979;5696567.54999931;470.42264988;16962.000000;1.000000;1.000000;1.000000;1.000000;0.000723;-0.000723;0.000723;1.000000;0.282353;0.262745;0.188235
445646.77960022;5696567.83359917;470.42544987;44204.000000;1.000000;1.000000;1.000000;1.000000;-0.005039;0.005039;-0.005039;1.000000;0.682353;0.682353;0.631373
445646.70810135;5696567.79349907;470.42404987;43433.000000;1.000000;1.000000;1.000000;1.000000;0.036501;-0.036501;0.036501;1.000000;0.670588;0.678431;0.572549
445646.81850250;5696567.79959877;470.42674996;33153.000000;1.000000;1.000000;1.000000;1.000000;0.030401;-0.030401;0.030401;1.000000;0.513725;0.517647;0.443137
445647.02480133;5696567.98359879;470.43135001;29812.000000;1.000000;1.000000;1.000000;1.000000;-0.153629;0.153629;-0.153629;1.000000;0.462745;0.462745;0.419608
445646.88070114;5696567.86619957;470.42805006;30840.000000;1.000000;1.000000;1.000000;1.000000;-0.036200;0.036200;-0.036200;1.000000;0.486275;0.478431;0.411765
445646.85250290;5696567.71459969;470.42964985;35209.000000;1.000000;1.000000;1.000000;1.000000;0.115400;-0.115400;0.115400;1.000000;0.541176;0.54902;0.47451
445646.67420013;5696567.67989929;470.42345001;24672.000000;1.000000;1.000000;1.000000;1.000000;-0.035258;0.035258;-0.035258;1.000000;0.384314;0.388235;0.301961
445646.71300323;5696567.64589890;470.42485001;23644.000000;1.000000;1.000000;1.000000;1.000000;0.023626;-0.023626;0.023626;1.000000;0.364706;0.384314;0.25098
445646.75040253;5696567.64479836;470.42184999;28784.000000;1.000000;1.000000;1.000000;1.000000;0.061026;-0.061026;0.061026;1.000000;0.470588;0.447059;0.341176
445646.84819992;5696567.99529942;470.43275001;50372.000000;1.000000;1.000000;1.000000;1.000000;-0.165299;0.165299;-0.165299;1.000000;0.776471;0.776471;0.733333
445647.07120331;5696568.00499924;470.43365004;28784.000000;1.000000;1.000000;1.000000;1.000000;-0.174999;0.174999;-0.174999;1.000000;0.447059;0.45098;0.388235
445646.99730118;5696567.96509941;470.43454983;22873.000000;1.000000;1.000000;1.000000;1.000000;-0.135177;0.135177;-0.135177;1.000000;0.360784;0.356863;0.309804
445646.66629990;5696567.87439926;470.43015005;15934.000000;1.000000;1.000000;1.000000;1.000000;-0.050038;0.050038;-0.050038;1.000000;0.25098;0.25098;0.184314
445646.88930328;5696567.88409908;470.43094995;40349.000000;1.000000;1.000000;1.000000;1.000000;-0.054099;0.054099;-0.054099;1.000000;0.627451;0.623529;0.560784
445646.66740234;5696567.83689888;470.43205001;34181.000000;1.000000;1.000000;1.000000;1.000000;-0.023032;0.023032;-0.023032;1.000000;0.52549;0.533333;0.45098
445646.92700012;5696567.88749893;470.43275001;24415.000000;1.000000;1.000000;1.000000;1.000000;-0.057499;0.057499;-0.057499;1.000000;0.388235;0.380392;0.313725
445646.89290054;5696568.02379902;470.43284990;51400.000000;1.000000;1.000000;1.000000;1.000000;-0.193799;0.193799;-0.193799;1.000000;0.792157;0.792157;0.752941
445646.93880280;5696567.83969887;470.43505003;26985.000000;1.000000;1.000000;1.000000;1.000000;-0.009716;0.009716;-0.009716;1.000000;0.431373;0.415686;0.337255
445646.68090256;5696567.75619896;470.43164994;34952.000000;1.000000;1.000000;1.000000;1.000000;0.074286;-0.074286;0.074286;1.000000;0.545098;0.54902;0.45098
445646.82870300;5696567.76119812;470.43144991;39578.000000;1.000000;1.000000;1.000000;1.000000;0.068802;-0.068802;0.068802;1.000000;0.615686;0.615686;0.533333
445646.90369995;5696567.76359947;470.43254997;24929.000000;1.000000;1.000000;1.000000;1.000000;0.066548;-0.066548;0.066548;1.000000;0.384314;0.388235;0.337255
445647.01630219;5696567.76939972;470.43534996;34438.000000;1.000000;1.000000;1.000000;1.000000;0.060600;-0.060600;0.060600;1.000000;0.533333;0.533333;0.47451
