//X;Y;Z;Intensity;Return Number;Number Of Returns;Scan Direction Flag;Point Source ID;C2M signed distances[-][<0.8];C2M signed distances[<0.4];C2M signed distances[-][<0.2];Stump125;Rf;Gf;Bf
299
445597.16110237;5696565.31369980;473.34504988;11822.000000;1.000000;1.000000;1.000000;1.000000;-0.159225;0.159225;-0.159225;1.000000;0.203922;0.180392;0.14902
445597.01900108;5696565.40139969;473.35834982;36237.000000;1.000000;1.000000;1.000000;1.000000;-0.073424;0.073424;-0.073424;1.000000;0.584314;0.556863;0.470588
445597.09720238;5696565.31239899;473.35844995;47031.000000;1.000000;1.000000;1.000000;1.000000;-0.095325;0.095325;-0.095325;1.000000;0.752941;0.713725;0.658824
445597.19890221;5696565.31729897;473.34214975;19275.000000;1.000000;1.000000;1.000000;1.000000;-0.197025;0.197025;-0.197025;1.000000;0.352941;0.278431;0.223529
445597.09890182;5696565.27419861;473.39764978;32639.000000;1.000000;1.000000;1.000000;1.000000;-0.097025;0.097025;-0.097025;1.000000;0.529412;0.498039;0.447059
445597.02780159;5696565.39359863;473.35624983;44718.000000;1.000000;1.000000;1.000000;1.000000;-0.068680;0.068680;-0.068680;1.000000;0.713725;0.686275;0.603922
445597.11750229;5696565.27249916;473.39615013;31354.000000;1.000000;1.000000;1.000000;1.000000;-0.115625;0.115625;-0.115625;1.000000;0.509804;0.478431;0.427451
445597.07570084;5696565.38439949;473.36305000;33924.000000;1.000000;1.000000;1.000000;1.000000;-0.091702;0.091702;-0.091702;1.000000;0.513725;0.545098;0.407843
445597.11330231;5696565.38789948;473.36474993;5397.000000;1.000000;1.000000;1.000000;1.000000;-0.125571;0.125571;-0.125571;1.000000;0.0705882;0.101961;0.0352941
445597.09160240;5696565.40399940;473.36165001;17219.000000;1.000000;1.000000;1.000000;1.000000;-0.116304;0.116304;-0.116304;1.000000;0.243137;0.294118;0.176471
445597.02010162;5696565.36389931;473.36025002;41891.000000;1.000000;1.000000;1.000000;1.000000;-0.038488;0.038488;-0.038488;1.000000;0.67451;0.639216;0.572549
445597.05760201;5696565.36509903;473.36194994;43690.000000;1.000000;1.000000;1.000000;1.000000;-0.065858;0.065858;-0.065858;1.000000;0.698039;0.666667;0.584314
445597.09650238;5696565.33109863;473.36095001;52942.000000;1.000000;1.000000;1.000000;1.000000;-0.094632;0.094632;-0.094632;1.000000;0.843137;0.803922;0.745098
445597.15880211;5696565.39769943;473.36224987;37008.000000;1.000000;1.000000;1.000000;1.000000;-0.170906;0.170906;-0.170906;1.000000;0.576471;0.568627;0.513725
445597.13000114;5696565.29059990;473.36434986;25700.000000;1.000000;1.000000;1.000000;1.000000;-0.128124;0.128124;-0.128124;1.000000;0.427451;0.388235;0.333333
445597.02880104;5696565.35609825;473.35825016;41634.000000;1.000000;1.000000;1.000000;1.000000;-0.037497;0.037497;-0.037497;1.000000;0.670588;0.635294;0.572549
445597.17980202;5696565.28639992;473.33855011;31611.000000;1.000000;1.000000;1.000000;1.000000;-0.177925;0.177925;-0.177925;1.000000;0.521569;0.478431;0.403922
445597.14140137;5696565.27059944;473.38094999;41891.000000;1.000000;1.000000;1.000000;1.000000;-0.139524;0.139524;-0.139524;1.000000;0.670588;0.639216;0.584314
445597.17410095;5696565.25179871;473.34254982;34695.000000;1.000000;1.000000;1.000000;1.000000;-0.172224;0.172224;-0.172224;1.000000;0.572549;0.52549;0.458824
445597.15560158;5696565.25809868;473.35115005;41891.000000;1.000000;1.000000;1.000000;1.000000;-0.153725;0.153725;-0.153725;1.000000;0.67451;0.639216;0.568627
445597.14500244;5696565.25630005;473.37624981;57054.000000;1.000000;1.000000;1.000000;1.000000;-0.143126;0.143126;-0.143126;1.000000;0.901961;0.870588;0.788235
445597.12440117;5696565.27189835;473.39884998;34181.000000;1.000000;1.000000;1.000000;1.000000;-0.122524;0.122524;-0.122524;1.000000;0.54902;0.517647;0.470588
445597.14900215;5696565.26779945;473.36264994;53713.000000;1.000000;1.000000;1.000000;1.000000;-0.147125;0.147125;-0.147125;1.000000;0.854902;0.819608;0.74902
445597.16840179;5696565.39919861;473.36035015;33153.000000;1.000000;1.000000;1.000000;1.000000;-0.180330;0.180330;-0.180330;1.000000;0.529412;0.509804;0.454902
445597.17710121;5696565.39139946;473.35834982;34181.000000;1.000000;1.000000;1.000000;1.000000;-0.185670;0.185670;-0.185670;1.000000;0.552941;0.521569;0.462745
445596.98270233;5696565.39069946;473.36354973;40606.000000;1.000000;1.000000;1.000000;1.000000;-0.060699;0.060699;-0.060699;1.000000;0.647059;0.619608;0.560784
445597.13450058;5696565.28789909;473.36214973;29298.000000;1.000000;1.000000;1.000000;1.000000;-0.132624;0.132624;-0.132624;1.000000;0.478431;0.447059;0.388235
445596.99350174;5696565.38039978;473.36154987;31611.000000;1.000000;1.000000;1.000000;1.000000;-0.050400;0.050400;-0.050400;1.000000;0.517647;0.482353;0.411765
445597.06760223;5696565.34779938;473.36224987;39578.000000;1.000000;1.000000;1.000000;1.000000;-0.068093;0.068093;-0.068093;1.000000;0.639216;0.6;0.529412
445597.10650070;5696565.29269989;473.37024977;37008.000000;1.000000;1.000000;1.000000;1.000000;-0.104624;0.104624;-0.104624;1.000000;0.6;0.560784;0.505882
445597.14000137;5696565.39709862;473.36375000;18761.000000;1.000000;1.000000;1.000000;1.000000;-0.153560;0.153560;-0.153560;1.000000;0.290196;0.298039;0.247059
445597.15140160;5696565.31219872;473.34924986;7453.000000;1.000000;1.000000;1.000000;1.000000;-0.149525;0.149525;-0.149525;1.000000;0.141176;0.109804;0.0901961
445597.18000229;5696565.31439980;473.34124996;10023.000000;1.000000;1.000000;1.000000;1.000000;-0.178125;0.178125;-0.178125;1.000000;0.2;0.141176;0.105882
445597.17300232;5696565.31499870;473.34095003;9252.000000;1.000000;1.000000;1.000000;1.000000;-0.171125;0.171125;-0.171125;1.000000;0.176471;0.133333;0.109804
445597.17420204;5696565.27749832;473.34054996;33924.000000;1.000000;1.000000;1.000000;1.000000;-0.172325;0.172325;-0.172325;1.000000;0.560784;0.517647;0.427451
445597.10370071;5696565.38410004;473.36424973;7453.000000;1.000000;1.000000;1.000000;1.000000;-0.115304;0.115304;-0.115304;1.000000;0.101961;0.129412;0.0627451
445597.10820206;5696565.27339943;473.39804985;31354.000000;1.000000;1.000000;1.000000;1.000000;-0.106325;0.106325;-0.106325;1.000000;0.505882;0.478431;0.427451
445597.19430168;5696565.24289902;473.34334995;47545.000000;1.000000;1.000000;1.000000;1.000000;-0.192425;0.192425;-0.192425;1.000000;0.776471;0.717647;0.647059
445597.17190178;5696565.20979889;473.35594990;44204.000000;1.000000;1.000000;1.000000;1.000000;-0.170025;0.170025;-0.170025;1.000000;0.729412;0.666667;0.6
445597.10940178;5696565.26079948;473.44924976;42919.000000;1.000000;1.000000;1.000000;1.000000;-0.107525;0.107525;-0.107525;1.000000;0.67451;0.658824;0.611765
445597.15340240;5696565.23939903;473.36014988;35466.000000;1.000000;1.000000;1.000000;1.000000;-0.151525;0.151525;-0.151525;1.000000;0.580392;0.537255;0.462745
445597.13660248;5696565.23999985;473.42455008;62451.000000;1.000000;1.000000;1.000000;1.000000;-0.134726;0.134726;-0.134726;1.000000;0.972549;0.956863;0.894118
445597.14030083;5696565.23779877;473.38985016;51657.000000;1.000000;1.000000;1.000000;1.000000;-0.138424;0.138424;-0.138424;1.000000;0.819608;0.788235;0.721569
445597.14640244;5696565.26799973;473.36945011;53713.000000;1.000000;1.000000;1.000000;1.000000;-0.144526;0.144526;-0.144526;1.000000;0.85098;0.819608;0.745098
445597.17450150;5696565.23079880;473.34235003;45232.000000;1.000000;1.000000;1.000000;1.000000;-0.172625;0.172625;-0.172625;1.000000;0.741176;0.682353;0.6
445597.18790253;5696565.35089882;473.34434988;51657.000000;1.000000;1.000000;1.000000;1.000000;-0.187196;0.187196;-0.187196;1.000000;0.827451;0.780392;0.72549
445597.19060143;5696565.27829941;473.34135010;31611.000000;1.000000;1.000000;1.000000;1.000000;-0.188725;0.188725;-0.188725;1.000000;0.529412;0.478431;0.392157
445597.17460068;5696565.21189888;473.35144999;43690.000000;1.000000;1.000000;1.000000;1.000000;-0.172724;0.172724;-0.172724;1.000000;0.721569;0.658824;0.580392
445597.04910095;5696565.37290009;473.35934975;43690.000000;1.000000;1.000000;1.000000;1.000000;-0.063801;0.063801;-0.063801;1.000000;0.690196;0.67451;0.584314
445597.15990074;5696565.27869995;473.34924986;52428.000000;1.000000;1.000000;1.000000;1.000000;-0.158024;0.158024;-0.158024;1.000000;0.835294;0.8;0.721569
445597.04090126;5696565.33629997;473.36084988;51914.000000;1.000000;1.000000;1.000000;1.000000;-0.039530;0.039530;-0.039530;1.000000;0.819608;0.792157;0.737255
445597.13290222;5696565.36979874;473.36074974;9766.000000;1.000000;1.000000;1.000000;1.000000;-0.136936;0.136936;-0.136936;1.000000;0.160784;0.152941;0.0980392
445597.13780220;5696565.24930008;473.41774990;60652.000000;1.000000;1.000000;1.000000;1.000000;-0.135925;0.135925;-0.135925;1.000000;0.94902;0.929412;0.854902
445597.17000206;5696565.33389862;473.34334995;5140.000000;1.000000;1.000000;1.000000;1.000000;-0.168170;0.168170;-0.168170;1.000000;0.109804;0.0705882;0.0509804
445597.13350113;5696565.25659950;473.42464973;46003.000000;1.000000;1.000000;1.000000;1.000000;-0.131624;0.131624;-0.131624;1.000000;0.729412;0.701961;0.65098
445597.13320168;5696565.28079994;473.37605001;31354.000000;1.000000;1.000000;1.000000;1.000000;-0.131325;0.131325;-0.131325;1.000000;0.521569;0.470588;0.407843
445597.07450111;5696565.39619835;473.36305000;28784.000000;1.000000;1.000000;1.000000;1.000000;-0.098267;0.098267;-0.098267;1.000000;0.431373;0.466667;0.329412
445597.14920242;5696565.39629944;473.36415007;28013.000000;1.000000;1.000000;1.000000;1.000000;-0.161556;0.161556;-0.161556;1.000000;0.439216;0.435294;0.380392
445597.11750229;5696565.26039894;473.42394974;33410.000000;1.000000;1.000000;1.000000;1.000000;-0.115625;0.115625;-0.115625;1.000000;0.529412;0.513725;0.462745
445597.14150055;5696565.33179863;473.34905006;8224.000000;1.000000;1.000000;1.000000;1.000000;-0.139635;0.139635;-0.139635;1.000000;0.156863;0.121569;0.0901961
445597.06960114;5696565.31959923;473.36424973;44204.000000;1.000000;1.000000;1.000000;1.000000;-0.067724;0.067724;-0.067724;1.000000;0.709804;0.67451;0.611765
445597.10510071;5696565.32109840;473.35654976;50115.000000;1.000000;1.000000;1.000000;1.000000;-0.103224;0.103224;-0.103224;1.000000;0.796078;0.760784;0.701961
445597.05670174;5696565.33009918;473.36144974;40092.000000;1.000000;1.000000;1.000000;1.000000;-0.054825;0.054825;-0.054825;1.000000;0.643137;0.611765;0.552941
445597.14850243;5696565.23749931;473.36224987;35466.000000;1.000000;1.000000;1.000000;1.000000;-0.146626;0.146626;-0.146626;1.000000;0.572549;0.541176;0.478431
445597.14530190;5696565.29869850;473.35344984;19532.000000;1.000000;1.000000;1.000000;1.000000;-0.143425;0.143425;-0.143425;1.000000;0.333333;0.294118;0.247059
445597.17080124;5696565.34319885;473.34585001;20817.000000;1.000000;1.000000;1.000000;1.000000;-0.169439;0.169439;-0.169439;1.000000;0.364706;0.309804;0.266667
445597.18570145;5696565.20389946;473.34954979;38036.000000;1.000000;1.000000;1.000000;1.000000;-0.183825;0.183825;-0.183825;1.000000;0.631373;0.572549;0.505882
445597.14300163;5696565.35029991;473.35395004;16191.000000;1.000000;1.000000;1.000000;1.000000;-0.142577;0.142577;-0.142577;1.000000;0.278431;0.247059;0.196078
445597.16060074;5696565.28569992;473.34934999;47031.000000;1.000000;1.000000;1.000000;1.000000;-0.158724;0.158724;-0.158724;1.000000;0.74902;0.717647;0.662745
445597.16500099;5696565.21269997;473.36035015;42148.000000;1.000000;1.000000;1.000000;1.000000;-0.163124;0.163124;-0.163124;1.000000;0.694118;0.635294;0.564706
445597.12250145;5696565.35909851;473.36014988;13107.000000;1.000000;1.000000;1.000000;1.000000;-0.124085;0.124085;-0.124085;1.000000;0.211765;0.207843;0.137255
445597.12680252;5696565.24739845;473.45214989;50115.000000;1.000000;1.000000;1.000000;1.000000;-0.124926;0.124926;-0.124926;1.000000;0.788235;0.764706;0.717647
445597.14550217;5696565.25869949;473.36934998;57311.000000;1.000000;1.000000;1.000000;1.000000;-0.143625;0.143625;-0.143625;1.000000;0.901961;0.87451;0.8
445597.11640175;5696565.27979858;473.38455011;30840.000000;1.000000;1.000000;1.000000;1.000000;-0.114525;0.114525;-0.114525;1.000000;0.501961;0.470588;0.415686
445597.13440140;5696565.27349861;473.38765003;37008.000000;1.000000;1.000000;1.000000;1.000000;-0.132524;0.132524;-0.132524;1.000000;0.603922;0.560784;0.513725
445597.02830132;5696565.40059860;473.35874989;42662.000000;1.000000;1.000000;1.000000;1.000000;-0.075382;0.075382;-0.075382;1.000000;0.67451;0.658824;0.560784
445597.12600143;5696565.29569824;473.35955002;26985.000000;1.000000;1.000000;1.000000;1.000000;-0.124125;0.124125;-0.124125;1.000000;0.45098;0.407843;0.352941
445597.08490189;5696565.35789879;473.36315014;43433.000000;1.000000;1.000000;1.000000;1.000000;-0.087587;0.087587;-0.087587;1.000000;0.690196;0.666667;0.580392
445597.13520248;5696565.27819832;473.37844994;35209.000000;1.000000;1.000000;1.000000;1.000000;-0.133326;0.133326;-0.133326;1.000000;0.576471;0.533333;0.47451
445597.19330223;5696565.18449982;473.34735014;37522.000000;1.000000;1.000000;1.000000;1.000000;-0.191425;0.191425;-0.191425;1.000000;0.619608;0.568627;0.494118
445597.15440186;5696565.29549988;473.35155012;24415.000000;1.000000;1.000000;1.000000;1.000000;-0.152525;0.152525;-0.152525;1.000000;0.407843;0.368627;0.32549
445597.13410194;5696565.24689873;473.44324972;57568.000000;1.000000;1.000000;1.000000;1.000000;-0.132225;0.132225;-0.132225;1.000000;0.894118;0.882353;0.831373
445597.14060219;5696565.24919899;473.40625002;61166.000000;1.000000;1.000000;1.000000;1.000000;-0.138725;0.138725;-0.138725;1.000000;0.960784;0.933333;0.858824
445597.15850075;5696565.23909958;473.35104992;32125.000000;1.000000;1.000000;1.000000;1.000000;-0.156624;0.156624;-0.156624;1.000000;0.533333;0.486275;0.415686
445597.05840118;5696565.37430008;473.36214973;37522.000000;1.000000;1.000000;1.000000;1.000000;-0.071816;0.071816;-0.071816;1.000000;0.592157;0.584314;0.482353
445597.15140160;5696565.26759918;473.36035015;55512.000000;1.000000;1.000000;1.000000;1.000000;-0.149525;0.149525;-0.149525;1.000000;0.882353;0.847059;0.768627
445597.18560226;5696565.38130005;473.35624983;32896.000000;1.000000;1.000000;1.000000;1.000000;-0.190753;0.190753;-0.190753;1.000000;0.537255;0.498039;0.439216
445597.15020187;5696565.37990006;473.35934975;20560.000000;1.000000;1.000000;1.000000;1.000000;-0.156494;0.156494;-0.156494;1.000000;0.337255;0.313725;0.258824
445597.19370087;5696565.21259888;473.34534981;38807.000000;1.000000;1.000000;1.000000;1.000000;-0.191824;0.191824;-0.191824;1.000000;0.639216;0.588235;0.517647
445597.19270142;5696565.25239952;473.34574987;41120.000000;1.000000;1.000000;1.000000;1.000000;-0.190825;0.190825;-0.190825;1.000000;0.67451;0.623529;0.533333
445597.03890236;5696565.36450012;473.35874989;40863.000000;1.000000;1.000000;1.000000;1.000000;-0.050608;0.050608;-0.050608;1.000000;0.654902;0.623529;0.541176
445597.03780182;5696565.40199860;473.35914995;43433.000000;1.000000;1.000000;1.000000;1.000000;-0.080464;0.080464;-0.080464;1.000000;0.67451;0.67451;0.572549
445597.07600220;5696565.33769997;473.36245014;42148.000000;1.000000;1.000000;1.000000;1.000000;-0.074524;0.074524;-0.074524;1.000000;0.682353;0.639216;0.572549
445597.13070114;5696565.25669868;473.43615009;43176.000000;1.000000;1.000000;1.000000;1.000000;-0.128824;0.128824;-0.128824;1.000000;0.682353;0.658824;0.611765
445597.15240105;5696565.27689941;473.35825016;50886.000000;1.000000;1.000000;1.000000;1.000000;-0.150524;0.150524;-0.150524;1.000000;0.811765;0.776471;0.701961
445597.11510094;5696565.30369957;473.35914995;40863.000000;1.000000;1.000000;1.000000;1.000000;-0.113224;0.113224;-0.113224;1.000000;0.662745;0.619608;0.556863
445597.13910110;5696565.23749931;473.41534998;61423.000000;1.000000;1.000000;1.000000;1.000000;-0.137224;0.137224;-0.137224;1.000000;0.960784;0.941176;0.87451
445597.02950104;5696565.36310013;473.35834982;39064.000000;1.000000;1.000000;1.000000;1.000000;-0.043113;0.043113;-0.043113;1.000000;0.627451;0.596078;0.529412
445597.10110100;5696565.40539940;473.36205008;12336.000000;1.000000;1.000000;1.000000;1.000000;-0.124621;0.124621;-0.124621;1.000000;0.164706;0.215686;0.117647
445597.06700142;5696565.36649902;473.36245014;38550.000000;1.000000;1.000000;1.000000;1.000000;-0.074655;0.074655;-0.074655;1.000000;0.611765;0.596078;0.509804
445597.12530144;5696565.27659996;473.38724997;31611.000000;1.000000;1.000000;1.000000;1.000000;-0.123425;0.123425;-0.123425;1.000000;0.521569;0.478431;0.419608
445597.10380180;5696565.33279999;473.35904982;48059.000000;1.000000;1.000000;1.000000;1.000000;-0.101963;0.101963;-0.101963;1.000000;0.760784;0.737255;0.666667
445597.15890129;5696565.34189995;473.34765007;14135.000000;1.000000;1.000000;1.000000;1.000000;-0.157475;0.157475;-0.157475;1.000000;0.258824;0.207843;0.172549
445597.19960220;5696565.32419975;473.34224989;26985.000000;1.000000;1.000000;1.000000;1.000000;-0.197725;0.197725;-0.197725;1.000000;0.470588;0.396078;0.345098
445597.15980156;5696565.32549866;473.34515001;6425.000000;1.000000;1.000000;1.000000;1.000000;-0.157925;0.157925;-0.157925;1.000000;0.12549;0.0901961;0.0745098
445597.13580139;5696565.23969849;473.44315006;61937.000000;1.000000;1.000000;1.000000;1.000000;-0.133924;0.133924;-0.133924;1.000000;0.960784;0.94902;0.901961
445597.13960083;5696565.23759850;473.40604975;59110.000000;1.000000;1.000000;1.000000;1.000000;-0.137724;0.137724;-0.137724;1.000000;0.929412;0.905882;0.835294
445597.10080154;5696565.27169998;473.40234997;34181.000000;1.000000;1.000000;1.000000;1.000000;-0.098925;0.098925;-0.098925;1.000000;0.545098;0.521569;0.470588
445597.13860138;5696565.26839836;473.38775017;42662.000000;1.000000;1.000000;1.000000;1.000000;-0.136724;0.136724;-0.136724;1.000000;0.682353;0.647059;0.6
445597.18480118;5696565.39779861;473.35645010;33924.000000;1.000000;1.000000;1.000000;1.000000;-0.195084;0.195084;-0.195084;1.000000;0.552941;0.517647;0.454902
445597.14250191;5696565.34339912;473.35155012;13364.000000;1.000000;1.000000;1.000000;1.000000;-0.141262;0.141262;-0.141262;1.000000;0.239216;0.2;0.160784
445597.14350136;5696565.30359848;473.35115005;13364.000000;1.000000;1.000000;1.000000;1.000000;-0.141624;0.141624;-0.141624;1.000000;0.231373;0.2;0.164706
445597.07050140;5696565.32879837;473.36214973;44461.000000;1.000000;1.000000;1.000000;1.000000;-0.068624;0.068624;-0.068624;1.000000;0.713725;0.67451;0.607843
445597.10020073;5696565.39619835;473.36194994;9252.000000;1.000000;1.000000;1.000000;1.000000;-0.118532;0.118532;-0.118532;1.000000;0.121569;0.164706;0.0745098
445597.14170082;5696565.36199959;473.35645010;14392.000000;1.000000;1.000000;1.000000;1.000000;-0.143439;0.143439;-0.143439;1.000000;0.243137;0.219608;0.164706
445596.99940117;5696565.39149864;473.35965015;31097.000000;1.000000;1.000000;1.000000;1.000000;0.061548;-0.061548;0.061548;1.000000;0.505882;0.47451;0.403922
445597.12490089;5696565.33099945;473.35295012;16962.000000;1.000000;1.000000;1.000000;1.000000;-0.123028;0.123028;-0.123028;1.000000;0.286275;0.258824;0.215686
445597.07540138;5696565.35639961;473.36264994;40092.000000;1.000000;1.000000;1.000000;1.000000;-0.078120;0.078120;-0.078120;1.000000;0.643137;0.615686;0.529412
445597.17950256;5696565.36329849;473.35115005;51400.000000;1.000000;1.000000;1.000000;1.000000;-0.180720;0.180720;-0.180720;1.000000;0.827451;0.780392;0.717647
445597.14090164;5696565.32489975;473.34894993;6425.000000;1.000000;1.000000;1.000000;1.000000;-0.139025;0.139025;-0.139025;1.000000;0.12549;0.0941176;0.0666667
445597.19530113;5696565.20539864;473.34534981;36494.000000;1.000000;1.000000;1.000000;1.000000;-0.193424;0.193424;-0.193424;1.000000;0.611765;0.54902;0.470588
445597.08840187;5696565.28239830;473.38794996;36237.000000;1.000000;1.000000;1.000000;1.000000;-0.086525;0.086525;-0.086525;1.000000;0.580392;0.552941;0.509804
445597.09410103;5696565.35699852;473.36354973;36237.000000;1.000000;1.000000;1.000000;1.000000;-0.096095;0.096095;-0.096095;1.000000;0.572549;0.560784;0.478431
445597.05580147;5696565.39559944;473.35995008;24929.000000;1.000000;1.000000;1.000000;1.000000;-0.084918;0.084918;-0.084918;1.000000;0.380392;0.403922;0.278431
445597.10360153;5696565.35839851;473.36394979;24672.000000;1.000000;1.000000;1.000000;1.000000;-0.105614;0.105614;-0.105614;1.000000;0.388235;0.388235;0.305882
445597.16760071;5696565.38999947;473.35794975;35209.000000;1.000000;1.000000;1.000000;1.000000;-0.176251;0.176251;-0.176251;1.000000;0.564706;0.537255;0.478431
445597.13620193;5696565.23979958;473.43384983;62451.000000;1.000000;1.000000;1.000000;1.000000;-0.134325;0.134325;-0.134325;1.000000;0.972549;0.956863;0.901961
445597.14000137;5696565.23779877;473.39674999;56026.000000;1.000000;1.000000;1.000000;1.000000;-0.138124;0.138124;-0.138124;1.000000;0.882353;0.858824;0.784314
445597.06500061;5696565.39479836;473.36264994;22359.000000;1.000000;1.000000;1.000000;1.000000;-0.090462;0.090462;-0.090462;1.000000;0.333333;0.364706;0.239216
445597.10980232;5696565.26079948;473.44224979;39321.000000;1.000000;1.000000;1.000000;1.000000;-0.107925;0.107925;-0.107925;1.000000;0.619608;0.6;0.54902
445597.17620094;5696565.20469864;473.35374977;38807.000000;1.000000;1.000000;1.000000;1.000000;-0.174324;0.174324;-0.174324;1.000000;0.65098;0.580392;0.505882
445597.13220222;5696565.38849838;473.36324980;6425.000000;1.000000;1.000000;1.000000;1.000000;-0.142852;0.142852;-0.142852;1.000000;0.0901961;0.109804;0.0588235
445597.05820091;5696565.34629829;473.36175014;40092.000000;1.000000;1.000000;1.000000;1.000000;-0.058635;0.058635;-0.058635;1.000000;0.647059;0.607843;0.545098
445597.13380249;5696565.35109909;473.35354998;14392.000000;1.000000;1.000000;1.000000;1.000000;-0.133602;0.133602;-0.133602;1.000000;0.239216;0.223529;0.164706
445597.13140114;5696565.27119835;473.39674999;40092.000000;1.000000;1.000000;1.000000;1.000000;-0.129524;0.129524;-0.129524;1.000000;0.643137;0.607843;0.560784
445597.15740211;5696565.27889832;473.35374977;52171.000000;1.000000;1.000000;1.000000;1.000000;-0.155525;0.155525;-0.155525;1.000000;0.831373;0.796078;0.721569
445597.07500084;5696565.37749870;473.36284973;32639.000000;1.000000;1.000000;1.000000;1.000000;-0.087197;0.087197;-0.087197;1.000000;0.505882;0.517647;0.4
445597.00860222;5696565.39069946;473.36004974;32639.000000;1.000000;1.000000;1.000000;1.000000;-0.061071;0.061071;-0.061071;1.000000;0.529412;0.498039;0.423529
445597.18320091;5696565.25089844;473.34534981;37008.000000;1.000000;1.000000;1.000000;1.000000;-0.181324;0.181324;-0.181324;1.000000;0.615686;0.560784;0.47451
445597.04640205;5696565.39419945;473.35944988;38036.000000;1.000000;1.000000;1.000000;1.000000;-0.078128;0.078128;-0.078128;1.000000;0.596078;0.596078;0.486275
445597.08380135;5696565.39539917;473.36114981;28784.000000;1.000000;1.000000;1.000000;1.000000;-0.104827;0.104827;-0.104827;1.000000;0.427451;0.470588;0.337255
445597.04750069;5696565.35669907;473.36135008;45232.000000;1.000000;1.000000;1.000000;1.000000;-0.052862;0.052862;-0.052862;1.000000;0.72549;0.690196;0.619608
445597.13540085;5696565.25630005;473.43405010;48316.000000;1.000000;1.000000;1.000000;1.000000;-0.133524;0.133524;-0.133524;1.000000;0.760784;0.737255;0.686275
445597.14810188;5696565.23289879;473.36214973;32896.000000;1.000000;1.000000;1.000000;1.000000;-0.146225;0.146225;-0.146225;1.000000;0.537255;0.498039;0.431373
445597.14400108;5696565.24699982;473.37844994;56797.000000;1.000000;1.000000;1.000000;1.000000;-0.142124;0.142124;-0.142124;1.000000;0.901961;0.866667;0.784314
445597.08640106;5696565.32269867;473.36044981;50115.000000;1.000000;1.000000;1.000000;1.000000;-0.084524;0.084524;-0.084524;1.000000;0.803922;0.760784;0.701961
445597.17740067;5696565.19520004;473.35834982;42662.000000;1.000000;1.000000;1.000000;1.000000;-0.175524;0.175524;-0.175524;1.000000;0.698039;0.643137;0.576471
445597.13140114;5696565.37929924;473.36084988;6425.000000;1.000000;1.000000;1.000000;1.000000;-0.138589;0.138589;-0.138589;1.000000;0.101961;0.105882;0.0509804
445597.20100220;5696565.28899963;473.34194996;44461.000000;1.000000;1.000000;1.000000;1.000000;-0.199125;0.199125;-0.199125;1.000000;0.72549;0.670588;0.596078
445597.16330154;5696565.28779991;473.34485008;49601.000000;1.000000;1.000000;1.000000;1.000000;-0.161425;0.161425;-0.161425;1.000000;0.784314;0.756863;0.709804
445597.09920128;5696565.29089935;473.37465002;37265.000000;1.000000;1.000000;1.000000;1.000000;-0.097324;0.097324;-0.097324;1.000000;0.603922;0.564706;0.517647
445597.11470230;5696565.35049828;473.35974981;24415.000000;1.000000;1.000000;1.000000;1.000000;-0.114672;0.114672;-0.114672;1.000000;0.388235;0.380392;0.305882
445597.09770210;5696565.28149994;473.38835003;34438.000000;1.000000;1.000000;1.000000;1.000000;-0.095825;0.095825;-0.095825;1.000000;0.556863;0.521569;0.47451
445597.17130096;5696565.29649933;473.34065010;41377.000000;1.000000;1.000000;1.000000;1.000000;-0.169424;0.169424;-0.169424;1.000000;0.670588;0.627451;0.572549
445597.15190132;5696565.34249886;473.34964993;12336.000000;1.000000;1.000000;1.000000;1.000000;-0.150544;0.150544;-0.150544;1.000000;0.227451;0.180392;0.145098
445597.19810112;5696565.33369835;473.34235003;41634.000000;1.000000;1.000000;1.000000;1.000000;-0.196259;0.196259;-0.196259;1.000000;0.682353;0.623529;0.572549
445597.11400230;5696565.39479836;473.36485006;6168.000000;1.000000;1.000000;1.000000;1.000000;-0.129503;0.129503;-0.129503;1.000000;0.0745098;0.117647;0.0392157
445597.13990219;5696565.36919983;473.35874989;10023.000000;1.000000;1.000000;1.000000;1.000000;-0.143484;0.143484;-0.143484;1.000000;0.176471;0.152941;0.101961
445597.12640198;5696565.28369911;473.37804987;29812.000000;1.000000;1.000000;1.000000;1.000000;-0.124525;0.124525;-0.124525;1.000000;0.490196;0.45098;0.384314
445597.19610222;5696565.36419876;473.34725000;46517.000000;1.000000;1.000000;1.000000;1.000000;-0.197213;0.197213;-0.197213;1.000000;0.74902;0.705882;0.643137
445597.16790207;5696565.21489914;473.35115005;45746.000000;1.000000;1.000000;1.000000;1.000000;-0.166025;0.166025;-0.166025;1.000000;0.74902;0.694118;0.611765
445597.16010101;5696565.21299942;473.36474993;42405.000000;1.000000;1.000000;1.000000;1.000000;-0.158224;0.158224;-0.158224;1.000000;0.694118;0.643137;0.564706
445597.15190132;5696565.24659927;473.35785009;43176.000000;1.000000;1.000000;1.000000;1.000000;-0.150024;0.150024;-0.150024;1.000000;0.690196;0.654902;0.596078
445597.16990097;5696565.36179932;473.35304977;52685.000000;1.000000;1.000000;1.000000;1.000000;-0.171007;0.171007;-0.171007;1.000000;0.843137;0.8;0.74902
445597.13360222;5696565.32319839;473.35094978;9766.000000;1.000000;1.000000;1.000000;1.000000;-0.131725;0.131725;-0.131725;1.000000;0.176471;0.145098;0.117647
445597.15700157;5696565.24859818;473.35104992;37265.000000;1.000000;1.000000;1.000000;1.000000;-0.155125;0.155125;-0.155125;1.000000;0.596078;0.568627;0.517647
445597.18700226;5696565.36959847;473.35155012;42148.000000;1.000000;1.000000;1.000000;1.000000;-0.189313;0.189313;-0.189313;1.000000;0.682353;0.639216;0.576471
445597.14380081;5696565.24019821;473.36905005;43947.000000;1.000000;1.000000;1.000000;1.000000;-0.141924;0.141924;-0.141924;1.000000;0.701961;0.670588;0.596078
445597.08190163;5696565.30200012;473.36464979;43176.000000;1.000000;1.000000;1.000000;1.000000;-0.080025;0.080025;-0.080025;1.000000;0.686275;0.654902;0.607843
445597.01820190;5696565.39219864;473.35815002;38036.000000;1.000000;1.000000;1.000000;1.000000;-0.064305;0.064305;-0.064305;1.000000;0.619608;0.580392;0.501961
445597.15630157;5696565.26729973;473.35365011;49858.000000;1.000000;1.000000;1.000000;1.000000;-0.154425;0.154425;-0.154425;1.000000;0.8;0.760784;0.682353
445597.09310158;5696565.39449890;473.36154987;18247.000000;1.000000;1.000000;1.000000;1.000000;-0.111723;0.111723;-0.111723;1.000000;0.258824;0.305882;0.192157
445597.02160080;5696565.35439880;473.36025002;41634.000000;1.000000;1.000000;1.000000;1.000000;-0.031374;0.031374;-0.031374;1.000000;0.662745;0.635294;0.572549
445597.05670174;5696565.35579880;473.36184980;43947.000000;1.000000;1.000000;1.000000;1.000000;-0.060592;0.060592;-0.060592;1.000000;0.701961;0.670588;0.596078
445597.14750107;5696565.23049934;473.36905005;33153.000000;1.000000;1.000000;1.000000;1.000000;-0.145624;0.145624;-0.145624;1.000000;0.533333;0.505882;0.431373
445597.11560257;5696565.33179863;473.35484983;30840.000000;1.000000;1.000000;1.000000;1.000000;-0.113740;0.113740;-0.113740;1.000000;0.494118;0.47451;0.411765
445597.09580238;5696565.32189949;473.35855009;51400.000000;1.000000;1.000000;1.000000;1.000000;-0.093925;0.093925;-0.093925;1.000000;0.819608;0.780392;0.721569
445597.03730209;5696565.34829910;473.36084988;49344.000000;1.000000;1.000000;1.000000;1.000000;-0.039872;0.039872;-0.039872;1.000000;0.796078;0.74902;0.686275
445597.15320213;5696565.26050003;473.35804989;50115.000000;1.000000;1.000000;1.000000;1.000000;-0.151325;0.151325;-0.151325;1.000000;0.8;0.764706;0.694118
445597.18640144;5696565.39059837;473.35645010;31611.000000;1.000000;1.000000;1.000000;1.000000;-0.194220;0.194220;-0.194220;1.000000;0.521569;0.478431;0.415686
445597.09730156;5696565.29349907;473.36985018;40092.000000;1.000000;1.000000;1.000000;1.000000;-0.095425;0.095425;-0.095425;1.000000;0.647059;0.607843;0.556863
445597.09510239;5696565.36849983;473.36604979;28013.000000;1.000000;1.000000;1.000000;1.000000;-0.100862;0.100862;-0.100862;1.000000;0.431373;0.443137;0.34902
445597.00070198;5696565.38199814;473.36194994;34438.000000;1.000000;1.000000;1.000000;1.000000;0.052011;-0.052011;0.052011;1.000000;0.560784;0.521569;0.458824
445597.14870079;5696565.38929947;473.36175014;21845.000000;1.000000;1.000000;1.000000;1.000000;-0.158347;0.158347;-0.158347;1.000000;0.345098;0.337255;0.282353
445597.07460220;5696565.34719856;473.36254980;40863.000000;1.000000;1.000000;1.000000;1.000000;-0.074731;0.074731;-0.074731;1.000000;0.662745;0.619608;0.545098
445597.10780151;5696565.27099998;473.40275003;31868.000000;1.000000;1.000000;1.000000;1.000000;-0.105925;0.105925;-0.105925;1.000000;0.509804;0.486275;0.435294
445597.16540154;5696565.25959976;473.34464981;28270.000000;1.000000;1.000000;1.000000;1.000000;-0.163525;0.163525;-0.163525;1.000000;0.47451;0.423529;0.356863
445597.16360100;5696565.22219856;473.35804989;41891.000000;1.000000;1.000000;1.000000;1.000000;-0.161724;0.161724;-0.161724;1.000000;0.686275;0.635294;0.556863
445597.15330132;5696565.28619965;473.35605003;40092.000000;1.000000;1.000000;1.000000;1.000000;-0.151424;0.151424;-0.151424;1.000000;0.65098;0.607843;0.545098
445597.15730103;5696565.37929924;473.35734989;32896.000000;1.000000;1.000000;1.000000;1.000000;-0.163055;0.163055;-0.163055;1.000000;0.52549;0.501961;0.443137
445597.10740097;5696565.26869972;473.40495016;31868.000000;1.000000;1.000000;1.000000;1.000000;-0.105524;0.105524;-0.105524;1.000000;0.509804;0.486275;0.439216
445597.13690193;5696565.25889977;473.40625002;54741.000000;1.000000;1.000000;1.000000;1.000000;-0.135025;0.135025;-0.135025;1.000000;0.870588;0.831373;0.768627
445597.17880066;5696565.35409935;473.34634974;54484.000000;1.000000;1.000000;1.000000;1.000000;-0.178558;0.178558;-0.178558;1.000000;0.87451;0.823529;0.768627
445597.14430244;5696565.31279953;473.35124971;8224.000000;1.000000;1.000000;1.000000;1.000000;-0.142426;0.142426;-0.142426;1.000000;0.152941;0.121569;0.0980392
445597.10300072;5696565.37719925;473.36415007;10794.000000;1.000000;1.000000;1.000000;1.000000;-0.111597;0.111597;-0.111597;1.000000;0.164706;0.180392;0.109804
445597.19030197;5696565.32510002;473.34184982;11565.000000;1.000000;1.000000;1.000000;1.000000;-0.188425;0.188425;-0.188425;1.000000;0.227451;0.160784;0.12549
445597.13300140;5696565.34189995;473.35115005;13878.000000;1.000000;1.000000;1.000000;1.000000;-0.131663;0.131663;-0.131663;1.000000;0.243137;0.207843;0.164706
445597.15270241;5696565.32379921;473.34485008;5654.000000;1.000000;1.000000;1.000000;1.000000;-0.150826;0.150826;-0.150826;1.000000;0.113725;0.0784314;0.0627451
445597.13410194;5696565.30439957;473.35304977;14135.000000;1.000000;1.000000;1.000000;1.000000;-0.132225;0.132225;-0.132225;1.000000;0.243137;0.215686;0.172549
445597.19160088;5696565.28759964;473.33914997;33667.000000;1.000000;1.000000;1.000000;1.000000;-0.189724;0.189724;-0.189724;1.000000;0.560784;0.505882;0.435294
445597.04800232;5696565.33799942;473.36124994;45746.000000;1.000000;1.000000;1.000000;1.000000;-0.046814;0.046814;-0.046814;1.000000;0.729412;0.698039;0.643137
445597.12420090;5696565.30060013;473.35724976;28270.000000;1.000000;1.000000;1.000000;1.000000;-0.122324;0.122324;-0.122324;1.000000;0.462745;0.427451;0.368627
445597.10510071;5696565.29989822;473.36564972;43947.000000;1.000000;1.000000;1.000000;1.000000;-0.103224;0.103224;-0.103224;1.000000;0.709804;0.662745;0.615686
445597.16680153;5696565.38069923;473.35774996;33667.000000;1.000000;1.000000;1.000000;1.000000;-0.172541;0.172541;-0.172541;1.000000;0.541176;0.513725;0.454902
445597.05750092;5696565.33939941;473.36165001;39321.000000;1.000000;1.000000;1.000000;1.000000;-0.056413;0.056413;-0.056413;1.000000;0.631373;0.6;0.541176
445597.11170204;5696565.34149940;473.35715010;30069.000000;1.000000;1.000000;1.000000;1.000000;-0.110426;0.110426;-0.110426;1.000000;0.482353;0.462745;0.396078
445597.13210114;5696565.36059959;473.35825016;11308.000000;1.000000;1.000000;1.000000;1.000000;-0.133771;0.133771;-0.133771;1.000000;0.188235;0.176471;0.121569
445597.08070190;5696565.31159981;473.36004974;45489.000000;1.000000;1.000000;1.000000;1.000000;-0.078825;0.078825;-0.078825;1.000000;0.729412;0.694118;0.627451
445597.17540176;5696565.39859970;473.35834982;33410.000000;1.000000;1.000000;1.000000;1.000000;-0.186593;0.186593;-0.186593;1.000000;0.541176;0.509804;0.454902
445597.14950188;5696565.37069901;473.35685017;22359.000000;1.000000;1.000000;1.000000;1.000000;-0.153132;0.153132;-0.153132;1.000000;0.372549;0.341176;0.290196
445597.18560226;5696565.40699966;473.35654976;29298.000000;1.000000;1.000000;1.000000;1.000000;-0.199208;0.199208;-0.199208;1.000000;0.47451;0.447059;0.388235
445597.10700233;5696565.28069885;473.38644983;31097.000000;1.000000;1.000000;1.000000;1.000000;-0.105125;0.105125;-0.105125;1.000000;0.501961;0.47451;0.419608
445597.11250122;5696565.37859924;473.36455013;8995.000000;1.000000;1.000000;1.000000;1.000000;-0.120829;0.120829;-0.120829;1.000000;0.133333;0.14902;0.0862745
445597.19470222;5696565.22419937;473.34555008;48316.000000;1.000000;1.000000;1.000000;1.000000;-0.192825;0.192825;-0.192825;1.000000;0.780392;0.729412;0.666667
445597.09580238;5696565.30079849;473.36525013;43690.000000;1.000000;1.000000;1.000000;1.000000;-0.093925;0.093925;-0.093925;1.000000;0.701961;0.662745;0.607843
445597.09580238;5696565.37549980;473.36614992;23130.000000;1.000000;1.000000;1.000000;1.000000;-0.104366;0.104366;-0.104366;1.000000;0.352941;0.368627;0.27451
445596.99210175;5696565.38989838;473.36165001;35209.000000;1.000000;1.000000;1.000000;1.000000;-0.059898;0.059898;-0.059898;1.000000;0.568627;0.537255;0.466667
445597.06620224;5696565.35729988;473.36224987;40863.000000;1.000000;1.000000;1.000000;1.000000;-0.069879;0.069879;-0.069879;1.000000;0.65098;0.623529;0.54902
445597.14350136;5696565.28469856;473.36254980;32896.000000;1.000000;1.000000;1.000000;1.000000;-0.141624;0.141624;-0.141624;1.000000;0.537255;0.498039;0.435294
445597.08870132;5696565.29909904;473.36494972;43690.000000;1.000000;1.000000;1.000000;1.000000;-0.086824;0.086824;-0.086824;1.000000;0.694118;0.662745;0.619608
445597.17240150;5696565.25899895;473.34254982;28270.000000;1.000000;1.000000;1.000000;1.000000;-0.170525;0.170525;-0.170525;1.000000;0.478431;0.427451;0.352941
445597.15110214;5696565.33329971;473.34714987;4626.000000;1.000000;1.000000;1.000000;1.000000;-0.149262;0.149262;-0.149262;1.000000;0.101961;0.0627451;0.0431373
445597.18660172;5696565.21319969;473.34735014;37779.000000;1.000000;1.000000;1.000000;1.000000;-0.184725;0.184725;-0.184725;1.000000;0.623529;0.568627;0.505882
445597.17600067;5696565.22359856;473.34464981;43690.000000;1.000000;1.000000;1.000000;1.000000;-0.174124;0.174124;-0.174124;1.000000;0.717647;0.658824;0.576471
445597.12030228;5696565.25269897;473.45195009;44204.000000;1.000000;1.000000;1.000000;1.000000;-0.118425;0.118425;-0.118425;1.000000;0.690196;0.67451;0.639216
445597.13430222;5696565.33009918;473.35104992;10537.000000;1.000000;1.000000;1.000000;1.000000;-0.132425;0.132425;-0.132425;1.000000;0.192157;0.156863;0.12549
445597.17150124;5696565.32449921;473.34334995;4112.000000;1.000000;1.000000;1.000000;1.000000;-0.169624;0.169624;-0.169624;1.000000;0.0941176;0.054902;0.0470588
445597.17280205;5696565.28699883;473.34065010;41891.000000;1.000000;1.000000;1.000000;1.000000;-0.170925;0.170925;-0.170925;1.000000;0.678431;0.635294;0.572549
445597.13780220;5696565.27049835;473.40875008;50115.000000;1.000000;1.000000;1.000000;1.000000;-0.135925;0.135925;-0.135925;1.000000;0.784314;0.768627;0.717647
445597.04950150;5696565.32849892;473.36114981;46003.000000;1.000000;1.000000;1.000000;1.000000;-0.047625;0.047625;-0.047625;1.000000;0.721569;0.701961;0.65098
445597.03860100;5696565.38559921;473.35904982;46003.000000;1.000000;1.000000;1.000000;1.000000;-0.066633;0.066633;-0.066633;1.000000;0.72549;0.705882;0.619608
445597.12730225;5696565.26199921;473.41744997;37008.000000;1.000000;1.000000;1.000000;1.000000;-0.125425;0.125425;-0.125425;1.000000;0.584314;0.564706;0.513725
445597.11670120;5696565.26779945;473.40534975;30326.000000;1.000000;1.000000;1.000000;1.000000;-0.114824;0.114824;-0.114824;1.000000;0.490196;0.462745;0.415686
445597.19110115;5696565.25959976;473.34345009;35209.000000;1.000000;1.000000;1.000000;1.000000;-0.189224;0.189224;-0.189224;1.000000;0.588235;0.533333;0.435294
445597.16320236;5696565.23869904;473.34894993;35466.000000;1.000000;1.000000;1.000000;1.000000;-0.161325;0.161325;-0.161325;1.000000;0.580392;0.537255;0.466667
445597.03920181;5696565.39250000;473.35914995;46517.000000;1.000000;1.000000;1.000000;1.000000;-0.072797;0.072797;-0.072797;1.000000;0.729412;0.717647;0.627451
445597.12680252;5696565.25959976;473.42434980;36237.000000;1.000000;1.000000;1.000000;1.000000;-0.124926;0.124926;-0.124926;1.000000;0.572549;0.556863;0.505882
445597.13840111;5696565.40659912;473.36614992;21074.000000;1.000000;1.000000;1.000000;1.000000;-0.156545;0.156545;-0.156545;1.000000;0.317647;0.333333;0.27451
445597.14910133;5696565.22329910;473.37134983;37522.000000;1.000000;1.000000;1.000000;1.000000;-0.147224;0.147224;-0.147224;1.000000;0.607843;0.572549;0.505882
445597.11600121;5696565.26540001;473.41694977;34438.000000;1.000000;1.000000;1.000000;1.000000;-0.114124;0.114124;-0.114124;1.000000;0.54902;0.52549;0.47451
445597.19560059;5696565.23119934;473.34095003;51914.000000;1.000000;1.000000;1.000000;1.000000;-0.193724;0.193724;-0.193724;1.000000;0.847059;0.784314;0.705882
445597.15870102;5696565.36979874;473.35724976;39578.000000;1.000000;1.000000;1.000000;1.000000;-0.161795;0.161795;-0.161795;1.000000;0.635294;0.603922;0.54902
445597.17770203;5696565.37039955;473.35344984;42662.000000;1.000000;1.000000;1.000000;1.000000;-0.180407;0.180407;-0.180407;1.000000;0.690196;0.647059;0.592157
445597.08970078;5696565.28949936;473.37414982;38036.000000;1.000000;1.000000;1.000000;1.000000;-0.087824;0.087824;-0.087824;1.000000;0.611765;0.576471;0.52549
445597.07940109;5696565.32329948;473.36245014;49087.000000;1.000000;1.000000;1.000000;1.000000;-0.077524;0.077524;-0.077524;1.000000;0.784314;0.745098;0.682353
445597.05720146;5696565.38609894;473.36214973;29555.000000;1.000000;1.000000;1.000000;1.000000;-0.078790;0.078790;-0.078790;1.000000;0.458824;0.466667;0.34902
445597.19890221;5696565.34289940;473.34474995;50629.000000;1.000000;1.000000;1.000000;1.000000;-0.197447;0.197447;-0.197447;1.000000;0.815686;0.764706;0.709804
445597.16400154;5696565.29479988;473.34494974;40863.000000;1.000000;1.000000;1.000000;1.000000;-0.162125;0.162125;-0.162125;1.000000;0.65098;0.619608;0.576471
445597.19950111;5696565.29849823;473.34194996;46517.000000;1.000000;1.000000;1.000000;1.000000;-0.197624;0.197624;-0.197624;1.000000;0.764706;0.701961;0.635294
445597.20030220;5696565.30549820;473.33974983;35209.000000;1.000000;1.000000;1.000000;1.000000;-0.198425;0.198425;-0.198425;1.000000;0.592157;0.52549;0.462745
445597.18730171;5696565.34399994;473.34424974;37265.000000;1.000000;1.000000;1.000000;1.000000;-0.185953;0.185953;-0.185953;1.000000;0.615686;0.560784;0.509804
445597.12200172;5696565.40579994;473.36534979;8224.000000;1.000000;1.000000;1.000000;1.000000;-0.142041;0.142041;-0.142041;1.000000;0.105882;0.145098;0.0745098
445597.17860229;5696565.38199814;473.35594990;33153.000000;1.000000;1.000000;1.000000;1.000000;-0.184216;0.184216;-0.184216;1.000000;0.533333;0.505882;0.447059
445597.12520226;5696565.29099854;473.36875011;30840.000000;1.000000;1.000000;1.000000;1.000000;-0.123325;0.123325;-0.123325;1.000000;0.513725;0.466667;0.407843
445597.10030182;5696565.48979958;473.34674980;11308.000000;1.000000;1.000000;1.000000;1.000000;-0.187679;0.187679;-0.187679;1.000000;0.184314;0.172549;0.145098
445597.02510078;5696565.48739822;473.35024979;30840.000000;1.000000;1.000000;1.000000;1.000000;-0.159102;0.159102;-0.159102;1.000000;0.490196;0.47451;0.415686
445596.98850067;5696565.44870003;473.35514977;34695.000000;1.000000;1.000000;1.000000;1.000000;-0.118700;0.118700;-0.118700;1.000000;0.552941;0.529412;0.470588
445597.02150162;5696565.52509888;473.35295012;41891.000000;1.000000;1.000000;1.000000;1.000000;-0.196083;0.196083;-0.196083;1.000000;0.678431;0.635294;0.580392
445597.02620132;5696565.44989975;473.35225012;21588.000000;1.000000;1.000000;1.000000;1.000000;-0.122342;0.122342;-0.122342;1.000000;0.337255;0.337255;0.27451
445597.06040199;5696565.48889931;473.34725000;23130.000000;1.000000;1.000000;1.000000;1.000000;-0.169335;0.169335;-0.169335;1.000000;0.364706;0.356863;0.309804
445597.06370171;5696565.45109947;473.35164978;7453.000000;1.000000;1.000000;1.000000;1.000000;-0.135968;0.135968;-0.135968;1.000000;0.105882;0.129412;0.0705882
445596.86630066;5696565.52739914;473.37855007;51657.000000;1.000000;1.000000;1.000000;1.000000;-0.197399;0.197399;-0.197399;1.000000;0.819608;0.792157;0.713725
445596.93220146;5696565.47479828;473.36224987;30326.000000;1.000000;1.000000;1.000000;1.000000;-0.144799;0.144799;-0.144799;1.000000;0.486275;0.462745;0.407843
445596.93120201;5696565.51239975;473.35804989;47031.000000;1.000000;1.000000;1.000000;1.000000;-0.182400;0.182400;-0.182400;1.000000;0.733333;0.72549;0.654902
445596.96640213;5696565.51369865;473.35965015;29041.000000;1.000000;1.000000;1.000000;1.000000;-0.183732;0.183732;-0.183732;1.000000;0.470588;0.447059;0.376471
445597.00400169;5696565.51499947;473.35664989;33153.000000;1.000000;1.000000;1.000000;1.000000;-0.185012;0.185012;-0.185012;1.000000;0.541176;0.501961;0.439216
445597.15640076;5696565.44479950;473.35804989;23901.000000;1.000000;1.000000;1.000000;1.000000;-0.192501;0.192501;-0.192501;1.000000;0.372549;0.368627;0.333333
445597.08140190;5696565.44240006;473.35694983;7196.000000;1.000000;1.000000;1.000000;1.000000;-0.137688;0.137688;-0.137688;1.000000;0.0980392;0.129412;0.0705882
445596.96750076;5696565.47629936;473.35925009;48059.000000;1.000000;1.000000;1.000000;1.000000;-0.146333;0.146333;-0.146333;1.000000;0.764706;0.729412;0.67451
445597.11890228;5696565.44579895;473.36105015;6939.000000;1.000000;1.000000;1.000000;1.000000;-0.164634;0.164634;-0.164634;1.000000;0.101961;0.113725;0.0784314
445596.89720161;5696565.47569855;473.36305000;35209.000000;1.000000;1.000000;1.000000;1.000000;-0.145699;0.145699;-0.145699;1.000000;0.552941;0.541176;0.486275
445597.08110245;5696565.50799950;473.34375002;25957.000000;1.000000;1.000000;1.000000;1.000000;-0.194835;0.194835;-0.194835;1.000000;0.411765;0.4;0.364706
445596.96040161;5696565.47459991;473.35885002;42919.000000;1.000000;1.000000;1.000000;1.000000;-0.144600;0.144600;-0.144600;1.000000;0.686275;0.654902;0.6
445596.92270096;5696565.47339828;473.36184980;31611.000000;1.000000;1.000000;1.000000;1.000000;-0.143398;0.143398;-0.143398;1.000000;0.501961;0.486275;0.431373
445596.94910248;5696565.50369843;473.35874989;39835.000000;1.000000;1.000000;1.000000;1.000000;-0.173698;0.173698;-0.173698;1.000000;0.627451;0.611765;0.54902
445596.91260155;5696565.46499832;473.36124994;41120.000000;1.000000;1.000000;1.000000;1.000000;-0.134998;0.134998;-0.134998;1.000000;0.639216;0.631373;0.584314
445596.95000084;5696565.46389969;473.36054995;30583.000000;1.000000;1.000000;1.000000;1.000000;-0.133900;0.133900;-0.133900;1.000000;0.482353;0.470588;0.427451
445596.95690163;5696565.51229866;473.35914995;28527.000000;1.000000;1.000000;1.000000;1.000000;-0.182299;0.182299;-0.182299;1.000000;0.458824;0.439216;0.364706
445596.99440201;5696565.51349838;473.35855009;42662.000000;1.000000;1.000000;1.000000;1.000000;-0.183499;0.183499;-0.183499;1.000000;0.686275;0.65098;0.584314
445596.91940125;5696565.51109894;473.35745003;48573.000000;1.000000;1.000000;1.000000;1.000000;-0.181099;0.181099;-0.181099;1.000000;0.756863;0.74902;0.682353
445597.14700134;5696565.44559868;473.35995008;8224.000000;1.000000;1.000000;1.000000;1.000000;-0.185537;0.185537;-0.185537;1.000000;0.133333;0.129412;0.101961
445597.07190140;5696565.44089897;473.35654976;7196.000000;1.000000;1.000000;1.000000;1.000000;-0.131156;0.131156;-0.131156;1.000000;0.0980392;0.129412;0.0627451
445596.98660095;5696565.50490006;473.35804989;44204.000000;1.000000;1.000000;1.000000;1.000000;-0.174900;0.174900;-0.174900;1.000000;0.701961;0.678431;0.611765
445596.91140182;5696565.50019844;473.35694983;58339.000000;1.000000;1.000000;1.000000;1.000000;-0.170198;0.170198;-0.170198;1.000000;0.901961;0.898039;0.847059
445596.98790176;5696565.46739967;473.35535004;48573.000000;1.000000;1.000000;1.000000;1.000000;-0.137400;0.137400;-0.137400;1.000000;0.764706;0.741176;0.690196
445597.13680084;5696565.43719872;473.36175014;2313.000000;1.000000;1.000000;1.000000;1.000000;-0.172325;0.172325;-0.172325;1.000000;0.0392157;0.0392157;0.0196078
445597.06400116;5696565.43229874;473.35834982;17733.000000;1.000000;1.000000;1.000000;1.000000;-0.119685;0.119685;-0.119685;1.000000;0.25098;0.298039;0.211765
445597.08740242;5696565.50039871;473.34394981;15163.000000;1.000000;1.000000;1.000000;1.000000;-0.190658;0.190658;-0.190658;1.000000;0.239216;0.235294;0.203922
445596.89930161;5696565.52909859;473.37535002;42405.000000;1.000000;1.000000;1.000000;1.000000;-0.199099;0.199099;-0.199099;1.000000;0.678431;0.65098;0.545098
445597.10950096;5696565.44439896;473.36054995;9252.000000;1.000000;1.000000;1.000000;1.000000;-0.157067;0.157067;-0.157067;1.000000;0.137255;0.152941;0.113725
445597.10160072;5696565.43569954;473.36245014;11051.000000;1.000000;1.000000;1.000000;1.000000;-0.145318;0.145318;-0.145318;1.000000;0.14902;0.188235;0.12549
445596.93130119;5696565.46559914;473.36214973;31611.000000;1.000000;1.000000;1.000000;1.000000;-0.135599;0.135599;-0.135599;1.000000;0.501961;0.482353;0.435294
445596.96760185;5696565.50189980;473.35955002;38293.000000;1.000000;1.000000;1.000000;1.000000;-0.171926;0.171926;-0.171926;1.000000;0.607843;0.588235;0.517647
445597.00550087;5696565.50549896;473.35664989;37265.000000;1.000000;1.000000;1.000000;1.000000;-0.175536;0.175536;-0.175536;1.000000;0.6;0.568627;0.513725
445596.89470108;5696565.49930008;473.36315014;50115.000000;1.000000;1.000000;1.000000;1.000000;-0.169300;0.169300;-0.169300;1.000000;0.784314;0.768627;0.713725
445597.15560158;5696565.43779953;473.36025002;34695.000000;1.000000;1.000000;1.000000;1.000000;-0.187755;0.187755;-0.187755;1.000000;0.541176;0.533333;0.494118
445597.08030136;5696565.43309982;473.36144974;10537.000000;1.000000;1.000000;1.000000;1.000000;-0.129538;0.129538;-0.129538;1.000000;0.133333;0.184314;0.109804
445596.96900185;5696565.46679886;473.35914995;47288.000000;1.000000;1.000000;1.000000;1.000000;-0.136809;0.136809;-0.136809;1.000000;0.74902;0.721569;0.670588
445596.93020065;5696565.50079926;473.35785009;57568.000000;1.000000;1.000000;1.000000;1.000000;-0.170799;0.170799;-0.170799;1.000000;0.894118;0.886275;0.827451
