//X;Y;Z;Intensity;Return Number;Number Of Returns;Scan Direction Flag;Point Source ID;C2M signed distances[-][<0.8];C2M signed distances[<0.4];C2M signed distances[-][<0.2];Stump48;Rf;Gf;Bf
301
445636.49120148;5696591.93699844;471.70534994;18761.000000;1.000000;1.000000;1.000000;1.000000;0.051825;-0.051825;0.051825;1.000000;0.305882;0.286275;0.258824
445636.45290192;5696592.12209900;471.74774982;33410.000000;1.000000;1.000000;1.000000;1.000000;0.013525;-0.013525;0.013525;1.000000;0.533333;0.509804;0.466667
445636.78790100;5696591.95469864;471.80055000;50886.000000;1.000000;1.000000;1.000000;1.000000;-0.124790;0.124790;-0.124790;1.000000;0.796078;0.776471;0.752941
445636.84890182;5696591.87079819;471.72545006;32382.000000;1.000000;1.000000;1.000000;1.000000;0.040929;-0.040929;0.040929;1.000000;0.505882;0.498039;0.45098
445636.54340179;5696592.26779945;471.75355007;22102.000000;1.000000;1.000000;1.000000;1.000000;0.062201;-0.062201;0.062201;1.000000;0.364706;0.341176;0.254902
445636.71610077;5696591.91169937;471.69424965;18247.000000;1.000000;1.000000;1.000000;1.000000;0.105675;-0.105675;0.105675;1.000000;0.305882;0.27451;0.231373
445636.68380173;5696591.79769905;471.70774986;17219.000000;1.000000;1.000000;1.000000;1.000000;-0.065451;0.065451;-0.065451;1.000000;0.278431;0.262745;0.235294
445636.55740173;5696592.16379936;471.74604990;17733.000000;1.000000;1.000000;1.000000;1.000000;0.118025;-0.118025;0.118025;1.000000;0.294118;0.270588;0.227451
445636.79020126;5696591.95309837;471.74475004;43690.000000;1.000000;1.000000;1.000000;1.000000;0.123127;-0.123127;0.123127;1.000000;0.694118;0.666667;0.592157
445636.44960220;5696592.23459824;471.74195005;24929.000000;1.000000;1.000000;1.000000;1.000000;0.061010;-0.061010;0.061010;1.000000;0.4;0.380392;0.341176
445636.79180344;5696591.87640007;471.70655014;15677.000000;1.000000;1.000000;1.000000;1.000000;0.046413;-0.046413;0.046413;1.000000;0.258824;0.243137;0.196078
445636.51990326;5696592.16269882;471.74424984;31097.000000;1.000000;1.000000;1.000000;1.000000;0.080526;-0.080526;0.080526;1.000000;0.501961;0.470588;0.423529
445636.51480301;5696592.19989975;471.78175022;26214.000000;1.000000;1.000000;1.000000;1.000000;0.079355;-0.079355;0.079355;1.000000;0.423529;0.403922;0.329412
445636.87510117;5696591.92369850;471.77384998;30583.000000;1.000000;1.000000;1.000000;1.000000;0.093699;-0.093699;0.093699;1.000000;0.498039;0.466667;0.403922
445636.87570007;5696591.88919838;471.73845007;23644.000000;1.000000;1.000000;1.000000;1.000000;0.059198;-0.059198;0.059198;1.000000;0.384314;0.360784;0.313725
445636.76730164;5696591.81110008;471.70004990;25186.000000;1.000000;1.000000;1.000000;1.000000;0.015825;-0.015825;0.015825;1.000000;0.388235;0.388235;0.352941
445636.84220322;5696591.81349953;471.70114996;47031.000000;1.000000;1.000000;1.000000;1.000000;-0.016500;0.016500;-0.016500;1.000000;0.729412;0.721569;0.686275
445636.51000031;5696591.72469910;471.73164989;43690.000000;1.000000;1.000000;1.000000;1.000000;-0.105313;0.105313;-0.105313;1.000000;0.678431;0.666667;0.639216
445636.62250336;5696591.73049934;471.73684980;24415.000000;1.000000;1.000000;1.000000;1.000000;-0.056321;0.056321;-0.056321;1.000000;0.384314;0.372549;0.345098
445636.73560150;5696591.69719894;471.69955017;20046.000000;1.000000;1.000000;1.000000;1.000000;0.047525;-0.047525;0.047525;1.000000;0.321569;0.305882;0.282353
445636.53250320;5696591.79479988;471.74044992;30840.000000;1.000000;1.000000;1.000000;1.000000;-0.035200;0.035200;-0.035200;1.000000;0.470588;0.47451;0.454902
445636.64850052;5696591.75849922;471.73595001;34952.000000;1.000000;1.000000;1.000000;1.000000;-0.074699;0.074699;-0.074699;1.000000;0.541176;0.537255;0.505882
445636.61720093;5696591.85989960;471.70785000;31097.000000;1.000000;1.000000;1.000000;1.000000;0.029900;-0.029900;0.029900;1.000000;0.486275;0.47451;0.443137
445636.73000153;5696591.86579903;471.70604994;30840.000000;1.000000;1.000000;1.000000;1.000000;0.064062;-0.064062;0.064062;1.000000;0.482353;0.470588;0.439216
445636.80389984;5696591.83089836;471.70655014;34181.000000;1.000000;1.000000;1.000000;1.000000;0.000898;-0.000898;0.000898;1.000000;0.529412;0.52549;0.490196
445636.62730225;5696591.82599838;471.72415020;40092.000000;1.000000;1.000000;1.000000;1.000000;-0.004024;0.004024;-0.004024;1.000000;0.619608;0.619608;0.576471
445636.66340073;5696591.78759964;471.72534992;31611.000000;1.000000;1.000000;1.000000;1.000000;-0.055962;0.055962;-0.055962;1.000000;0.494118;0.482353;0.454902
445636.48159988;5696591.74369820;471.72594978;25443.000000;1.000000;1.000000;1.000000;1.000000;-0.086302;0.086302;-0.086302;1.000000;0.4;0.388235;0.364706
445636.85040100;5696591.79649933;471.69194986;40092.000000;1.000000;1.000000;1.000000;1.000000;-0.033839;0.033839;-0.033839;1.000000;0.635294;0.611765;0.576471
445636.56910141;5696591.77239998;471.76515009;33410.000000;1.000000;1.000000;1.000000;1.000000;-0.057793;0.057793;-0.057793;1.000000;0.513725;0.517647;0.470588
445636.77890213;5696591.75639923;471.69065001;23901.000000;1.000000;1.000000;1.000000;1.000000;0.004225;-0.004225;0.004225;1.000000;0.376471;0.364706;0.333333
445636.66160019;5696591.68529900;471.70774986;34181.000000;1.000000;1.000000;1.000000;1.000000;0.036591;-0.036591;0.036591;1.000000;0.533333;0.521569;0.494118
445636.69910248;5696591.68649872;471.70944979;19275.000000;1.000000;1.000000;1.000000;1.000000;0.073335;-0.073335;0.073335;1.000000;0.305882;0.294118;0.266667
445636.56450089;5696591.86419876;471.74504997;50372.000000;1.000000;1.000000;1.000000;1.000000;0.034199;-0.034199;0.034199;1.000000;0.764706;0.772549;0.760784
445636.77000244;5696591.94159897;471.70174982;35980.000000;1.000000;1.000000;1.000000;1.000000;0.112368;-0.112368;0.112368;1.000000;0.576471;0.54902;0.47451
445636.46660049;5696592.11399849;471.73665001;33410.000000;1.000000;1.000000;1.000000;1.000000;0.027224;-0.027224;0.027224;1.000000;0.533333;0.513725;0.458824
445636.58880051;5696591.81999977;471.73635008;37779.000000;1.000000;1.000000;1.000000;1.000000;-0.010000;0.010000;-0.010000;1.000000;0.584314;0.580392;0.541176
445636.45060165;5696592.27189835;471.74475004;15677.000000;1.000000;1.000000;1.000000;1.000000;0.058102;-0.058102;0.058102;1.000000;0.278431;0.231373;0.184314
445636.82560165;5696592.25049980;471.78475000;15420.000000;1.000000;1.000000;1.000000;1.000000;0.079500;-0.079500;0.079500;1.000000;0.27451;0.227451;0.2
445636.61480148;5696591.90919884;471.70594980;35466.000000;1.000000;1.000000;1.000000;1.000000;0.079199;-0.079199;0.079199;1.000000;0.560784;0.541176;0.494118
445636.80240067;5696591.84039886;471.70664980;30840.000000;1.000000;1.000000;1.000000;1.000000;0.010399;-0.010399;0.010399;1.000000;0.478431;0.47451;0.435294
445636.74270065;5696592.21149834;471.78055002;20817.000000;1.000000;1.000000;1.000000;1.000000;0.118503;-0.118503;0.118503;1.000000;0.356863;0.313725;0.243137
445636.54150208;5696591.79389961;471.74554970;27242.000000;1.000000;1.000000;1.000000;1.000000;-0.036125;0.036125;-0.036125;1.000000;0.419608;0.419608;0.403922
445636.62140091;5696591.79589851;471.74214985;22359.000000;1.000000;1.000000;1.000000;1.000000;-0.034101;0.034101;-0.034101;1.000000;0.356863;0.341176;0.309804
445636.79220016;5696591.91349991;471.72335007;32382.000000;1.000000;1.000000;1.000000;1.000000;0.083503;-0.083503;0.083503;1.000000;0.521569;0.494118;0.427451
445636.72179993;5696592.20809944;471.82385017;42148.000000;1.000000;1.000000;1.000000;1.000000;0.121901;-0.121901;0.121901;1.000000;0.662745;0.647059;0.596078
445636.50550278;5696592.24079903;471.76084997;27242.000000;1.000000;1.000000;1.000000;1.000000;0.089201;-0.089201;0.089201;1.000000;0.454902;0.415686;0.32549
445636.45660217;5696591.97279938;471.71824982;40092.000000;1.000000;1.000000;1.000000;1.000000;0.017225;-0.017225;0.017225;1.000000;0.631373;0.611765;0.576471
445636.53849991;5696592.15649994;471.73344995;31611.000000;1.000000;1.000000;1.000000;1.000000;0.099123;-0.099123;0.099123;1.000000;0.505882;0.478431;0.443137
445636.53830154;5696592.19089897;471.91785004;46003.000000;1.000000;1.000000;1.000000;1.000000;0.099767;-0.099767;0.099767;1.000000;0.709804;0.705882;0.666667
445636.51910217;5696592.19999893;471.89605000;34695.000000;1.000000;1.000000;1.000000;1.000000;0.082832;-0.082832;0.082832;1.000000;0.54902;0.533333;0.486275
445636.63110168;5696592.20589836;471.75444986;21588.000000;1.000000;1.000000;1.000000;1.000000;0.124102;-0.124102;0.124102;1.000000;0.360784;0.32549;0.27451
445636.85500153;5696592.21729858;471.79034998;22102.000000;1.000000;1.000000;1.000000;1.000000;0.112701;-0.112701;0.112701;1.000000;0.368627;0.333333;0.294118
445636.46030243;5696591.93739899;471.71794989;29298.000000;1.000000;1.000000;1.000000;1.000000;0.020926;-0.020926;0.020926;1.000000;0.466667;0.447059;0.411765
445636.48130234;5696592.23289879;471.81554987;53456.000000;1.000000;1.000000;1.000000;1.000000;0.070739;-0.070739;0.070739;1.000000;0.839216;0.815686;0.760784
445636.73320206;5696592.24930008;471.81084969;38550.000000;1.000000;1.000000;1.000000;1.000000;0.080700;-0.080700;0.080700;1.000000;0.6;0.592157;0.560784
445636.73370178;5696592.20939835;471.81974985;44461.000000;1.000000;1.000000;1.000000;1.000000;0.120602;-0.120602;0.120602;1.000000;0.694118;0.682353;0.635294
445636.54800232;5696592.20619972;471.78335001;59624.000000;1.000000;1.000000;1.000000;1.000000;0.112942;-0.112942;0.112942;1.000000;0.909804;0.917647;0.87451
445636.51840027;5696592.20010002;471.75164988;21845.000000;1.000000;1.000000;1.000000;1.000000;0.083024;-0.083024;0.083024;1.000000;0.341176;0.337255;0.321569
445636.47900208;5696592.23389824;471.76424982;18247.000000;1.000000;1.000000;1.000000;1.000000;0.071073;-0.071073;0.071073;1.000000;0.32549;0.270588;0.192157
445636.78510101;5696591.98889931;471.72625019;22873.000000;1.000000;1.000000;1.000000;1.000000;-0.158912;0.158912;-0.158912;1.000000;0.384314;0.34902;0.27451
445636.66690262;5696591.74989899;471.72504999;32382.000000;1.000000;1.000000;1.000000;1.000000;0.085704;-0.085704;0.085704;1.000000;0.505882;0.498039;0.466667
445636.53620346;5696591.98909958;471.69635012;30583.000000;1.000000;1.000000;1.000000;1.000000;0.096827;-0.096827;0.096827;1.000000;0.490196;0.466667;0.427451
445636.69000061;5696591.88369949;471.69745018;42919.000000;1.000000;1.000000;1.000000;1.000000;0.082875;-0.082875;0.082875;1.000000;0.67451;0.654902;0.611765
445636.52020081;5696591.70739944;471.72725012;30840.000000;1.000000;1.000000;1.000000;1.000000;-0.111737;0.111737;-0.111737;1.000000;0.47451;0.47451;0.439216
445636.63090332;5696591.71359833;471.72304966;14906.000000;1.000000;1.000000;1.000000;1.000000;0.039734;-0.039734;0.039734;1.000000;0.243137;0.227451;0.203922
445636.61250122;5696592.20759972;471.75604965;21331.000000;1.000000;1.000000;1.000000;1.000000;0.122400;-0.122400;0.122400;1.000000;0.345098;0.32549;0.290196
445636.58220108;5696592.23379906;471.75495007;35209.000000;1.000000;1.000000;1.000000;1.000000;0.096201;-0.096201;0.096201;1.000000;0.568627;0.537255;0.486275
445636.61460312;5696591.87899979;471.70095016;42148.000000;1.000000;1.000000;1.000000;1.000000;0.049000;-0.049000;0.049000;1.000000;0.662745;0.643137;0.607843
445636.84090240;5696591.89009865;471.73455002;32896.000000;1.000000;1.000000;1.000000;1.000000;0.060099;-0.060099;0.060099;1.000000;0.521569;0.505882;0.45098
445636.61770065;5696591.80339821;471.73514988;25186.000000;1.000000;1.000000;1.000000;1.000000;-0.026602;0.026602;-0.026602;1.000000;0.403922;0.388235;0.341176
445636.79170044;5696591.95259865;471.76335003;33153.000000;1.000000;1.000000;1.000000;1.000000;0.122604;-0.122604;0.122604;1.000000;0.545098;0.505882;0.423529
445636.51960190;5696592.16709908;471.76065018;27499.000000;1.000000;1.000000;1.000000;1.000000;0.080225;-0.080225;0.080225;1.000000;0.45098;0.415686;0.384314
445636.46109970;5696591.89979942;471.72685005;15934.000000;1.000000;1.000000;1.000000;1.000000;0.021723;-0.021723;0.021723;1.000000;0.254902;0.247059;0.219608
445636.48150070;5696592.20049866;471.79425003;60395.000000;1.000000;1.000000;1.000000;1.000000;0.048988;-0.048988;0.048988;1.000000;0.941176;0.92549;0.878431
445636.77720078;5696592.20959862;471.84264996;43433.000000;1.000000;1.000000;1.000000;1.000000;0.120457;-0.120457;0.120457;1.000000;0.678431;0.666667;0.607843
445636.73830231;5696592.20749863;471.76634981;14392.000000;1.000000;1.000000;1.000000;1.000000;0.122501;-0.122501;0.122501;1.000000;0.25098;0.215686;0.164706
445636.66550262;5696592.25389870;471.76594975;36494.000000;1.000000;1.000000;1.000000;1.000000;0.076101;-0.076101;0.076101;1.000000;0.596078;0.54902;0.501961
445636.46700104;5696591.76149948;471.72314980;35466.000000;1.000000;1.000000;1.000000;1.000000;-0.068501;0.068501;-0.068501;1.000000;0.552941;0.545098;0.521569
445636.83469971;5696591.77699860;471.68874981;27756.000000;1.000000;1.000000;1.000000;1.000000;-0.051573;0.051573;-0.051573;1.000000;0.447059;0.423529;0.388235
445636.50180252;5696592.16879852;471.90424969;50886.000000;1.000000;1.000000;1.000000;1.000000;0.062426;-0.062426;0.062426;1.000000;0.792157;0.776471;0.741176
445636.45530136;5696592.15889938;471.77164986;39321.000000;1.000000;1.000000;1.000000;1.000000;0.015924;-0.015924;0.015924;1.000000;0.611765;0.607843;0.560784
445636.89719971;5696592.22709854;471.80865004;21588.000000;1.000000;1.000000;1.000000;1.000000;0.102901;-0.102901;0.102901;1.000000;0.372549;0.32549;0.25098
445636.49850281;5696591.98559959;471.69694998;46260.000000;1.000000;1.000000;1.000000;1.000000;0.059126;-0.059126;0.059126;1.000000;0.72549;0.705882;0.662745
445636.72840317;5696591.84729965;471.70335009;35980.000000;1.000000;1.000000;1.000000;1.000000;0.057393;-0.057393;0.057393;1.000000;0.556863;0.552941;0.517647
445636.68190201;5696592.25469978;471.76664974;47288.000000;1.000000;1.000000;1.000000;1.000000;0.075333;-0.075333;0.075333;1.000000;0.768627;0.713725;0.662745
445636.50900085;5696591.79009827;471.73234989;5911.000000;1.000000;1.000000;1.000000;1.000000;-0.039987;0.039987;-0.039987;1.000000;0.0980392;0.0901961;0.0823529
445636.59970291;5696591.79309853;471.75044968;21331.000000;1.000000;1.000000;1.000000;1.000000;-0.037126;0.037126;-0.037126;1.000000;0.333333;0.329412;0.298039
445636.50360306;5696592.15959938;471.73654987;36494.000000;1.000000;1.000000;1.000000;1.000000;0.064226;-0.064226;0.064226;1.000000;0.576471;0.556863;0.52549
445636.54730042;5696591.72579964;471.73565008;41634.000000;1.000000;1.000000;1.000000;1.000000;-0.094775;0.094775;-0.094775;1.000000;0.647059;0.639216;0.603922
445636.55350311;5696591.78309830;471.76924994;53456.000000;1.000000;1.000000;1.000000;1.000000;-0.046902;0.046902;-0.046902;1.000000;0.815686;0.823529;0.776471
445636.68010147;5696591.90099915;471.69255020;30069.000000;1.000000;1.000000;1.000000;1.000000;0.088734;-0.088734;0.088734;1.000000;0.486275;0.458824;0.411765
445636.61440094;5696591.71279915;471.72454979;17733.000000;1.000000;1.000000;1.000000;1.000000;-0.040662;0.040662;-0.040662;1.000000;0.282353;0.270588;0.247059
445636.90310104;5696592.24279984;471.81384995;52171.000000;1.000000;1.000000;1.000000;1.000000;0.087200;-0.087200;0.087200;1.000000;0.831373;0.792157;0.721569
445636.48439987;5696592.25630005;471.79505016;38807.000000;1.000000;1.000000;1.000000;1.000000;0.073700;-0.073700;0.073700;1.000000;0.643137;0.576471;0.541176
445636.46750076;5696591.87329872;471.73614981;18504.000000;1.000000;1.000000;1.000000;1.000000;0.028124;-0.028124;0.028124;1.000000;0.298039;0.282353;0.258824
445636.49970062;5696591.94809921;471.69654991;25443.000000;1.000000;1.000000;1.000000;1.000000;0.060324;-0.060324;0.060324;1.000000;0.411765;0.388235;0.352941
445636.60120209;5696591.78589828;471.75514986;29555.000000;1.000000;1.000000;1.000000;1.000000;-0.044295;0.044295;-0.044295;1.000000;0.462745;0.454902;0.431373
445636.44980057;5696592.16359909;471.79934980;37522.000000;1.000000;1.000000;1.000000;1.000000;0.010424;-0.010424;0.010424;1.000000;0.580392;0.576471;0.54902
445636.70220001;5696592.24589928;471.76515009;25186.000000;1.000000;1.000000;1.000000;1.000000;0.084101;-0.084101;0.084101;1.000000;0.427451;0.376471;0.333333
445636.55350311;5696592.20349892;471.91865017;26728.000000;1.000000;1.000000;1.000000;1.000000;0.116945;-0.116945;0.116945;1.000000;0.423529;0.411765;0.364706
445636.44620331;5696592.24219902;471.73024990;28527.000000;1.000000;1.000000;1.000000;1.000000;0.068322;-0.068322;0.068322;1.000000;0.462745;0.439216;0.372549
445636.80200012;5696591.92409904;471.73554995;45489.000000;1.000000;1.000000;1.000000;1.000000;0.094099;-0.094099;0.094099;1.000000;0.729412;0.694118;0.619608
445636.72620209;5696591.92009933;471.69484999;21845.000000;1.000000;1.000000;1.000000;1.000000;0.106575;-0.106575;0.106575;1.000000;0.360784;0.329412;0.286275
445636.49600037;5696592.19989975;471.89034988;30069.000000;1.000000;1.000000;1.000000;1.000000;0.060926;-0.060926;0.060926;1.000000;0.466667;0.466667;0.419608
445636.52820023;5696591.97819908;471.69584991;31868.000000;1.000000;1.000000;1.000000;1.000000;0.088823;-0.088823;0.088823;1.000000;0.513725;0.486275;0.443137
445636.56200226;5696592.01699837;471.70025017;37522.000000;1.000000;1.000000;1.000000;1.000000;0.122625;-0.122625;0.122625;1.000000;0.596078;0.572549;0.521569
445636.56110199;5696592.05449875;471.69595005;28784.000000;1.000000;1.000000;1.000000;1.000000;0.121725;-0.121725;0.121725;1.000000;0.466667;0.439216;0.380392
445636.67970093;5696591.87299927;471.69684984;40863.000000;1.000000;1.000000;1.000000;1.000000;0.068113;-0.068113;0.068113;1.000000;0.647059;0.623529;0.584314
445636.49820145;5696592.16969879;471.72244980;27499.000000;1.000000;1.000000;1.000000;1.000000;0.058825;-0.058825;0.058825;1.000000;0.443137;0.415686;0.376471
445636.50740250;5696591.79729851;471.73234989;6168.000000;1.000000;1.000000;1.000000;1.000000;-0.032971;0.032971;-0.032971;1.000000;0.101961;0.0941176;0.0823529
445636.53130157;5696592.06189926;471.69705011;18761.000000;1.000000;1.000000;1.000000;1.000000;0.091925;-0.091925;0.091925;1.000000;0.32549;0.282353;0.215686
445636.71220215;5696592.25649841;471.77274992;22616.000000;1.000000;1.000000;1.000000;1.000000;0.073512;-0.073512;0.073512;1.000000;0.392157;0.337255;0.294118
445636.73200043;5696591.80970009;471.70074989;15420.000000;1.000000;1.000000;1.000000;1.000000;0.051126;-0.051126;0.051126;1.000000;0.243137;0.243137;0.203922
445636.50399979;5696592.17079933;471.91134979;52685.000000;1.000000;1.000000;1.000000;1.000000;0.064623;-0.064623;0.064623;1.000000;0.831373;0.8;0.768627
445636.74990280;5696592.22759827;471.75775005;28527.000000;1.000000;1.000000;1.000000;1.000000;0.102421;-0.102421;0.102421;1.000000;0.45098;0.435294;0.407843
445636.81310089;5696592.21209915;471.77444984;12593.000000;1.000000;1.000000;1.000000;1.000000;0.117908;-0.117908;0.117908;1.000000;0.219608;0.188235;0.156863
445636.62800034;5696592.28069885;471.77154972;37779.000000;1.000000;1.000000;1.000000;1.000000;0.049301;-0.049301;0.049301;1.000000;0.611765;0.576471;0.501961
445636.77779968;5696592.20839890;471.77274992;8224.000000;1.000000;1.000000;1.000000;1.000000;0.121679;-0.121679;0.121679;1.000000;0.152941;0.12549;0.0823529
445636.50860031;5696591.76209839;471.73665001;26728.000000;1.000000;1.000000;1.000000;1.000000;-0.067968;0.067968;-0.067968;1.000000;0.419608;0.407843;0.380392
445636.49490173;5696591.86389931;471.73264982;10023.000000;1.000000;1.000000;1.000000;1.000000;0.033899;-0.033899;0.033899;1.000000;0.164706;0.152941;0.12549
445636.49860199;5696591.75369843;471.73385002;43176.000000;1.000000;1.000000;1.000000;1.000000;-0.076302;0.076302;-0.076302;1.000000;0.670588;0.662745;0.631373
445636.76160248;5696591.95169838;471.70144989;49344.000000;1.000000;1.000000;1.000000;1.000000;0.123587;-0.123587;0.123587;1.000000;0.776471;0.756863;0.690196
445636.50119980;5696591.94089897;471.69885017;21588.000000;1.000000;1.000000;1.000000;1.000000;0.061823;-0.061823;0.061823;1.000000;0.345098;0.329412;0.294118
445636.69220169;5696591.80869873;471.70125010;16705.000000;1.000000;1.000000;1.000000;1.000000;-0.068710;0.068710;-0.068710;1.000000;0.262745;0.258824;0.231373
445636.69350250;5696591.84599884;471.69714977;39578.000000;1.000000;1.000000;1.000000;1.000000;0.068520;-0.068520;0.068520;1.000000;0.607843;0.607843;0.572549
445636.52449997;5696592.17349823;471.77024986;31611.000000;1.000000;1.000000;1.000000;1.000000;0.085123;-0.085123;0.085123;1.000000;0.494118;0.486275;0.447059
445636.49130066;5696592.16949852;471.77334978;41120.000000;1.000000;1.000000;1.000000;1.000000;0.051924;-0.051924;0.051924;1.000000;0.643137;0.627451;0.588235
445636.65649994;5696591.76939972;471.73644974;42919.000000;1.000000;1.000000;1.000000;1.000000;-0.067453;0.067453;-0.067453;1.000000;0.662745;0.662745;0.623529
445636.65559967;5696591.84249886;471.70004990;25186.000000;1.000000;1.000000;1.000000;1.000000;0.031324;-0.031324;0.031324;1.000000;0.396078;0.388235;0.364706
445636.48930176;5696592.17499931;471.88285019;47802.000000;1.000000;1.000000;1.000000;1.000000;0.049925;-0.049925;0.049925;1.000000;0.733333;0.737255;0.705882
445636.56330307;5696592.20949944;471.92154982;35723.000000;1.000000;1.000000;1.000000;1.000000;-0.120501;0.120501;-0.120501;1.000000;0.576471;0.545098;0.494118
445636.45090302;5696592.24629982;471.73754980;30583.000000;1.000000;1.000000;1.000000;1.000000;0.072852;-0.072852;0.072852;1.000000;0.505882;0.462745;0.4
445636.48790176;5696592.20729836;471.77134993;34952.000000;1.000000;1.000000;1.000000;1.000000;0.058273;-0.058273;0.058273;1.000000;0.541176;0.541176;0.501961
445636.52960022;5696592.20849998;471.88735010;34181.000000;1.000000;1.000000;1.000000;1.000000;0.095448;-0.095448;0.095448;1.000000;0.541176;0.529412;0.458824
445636.45409973;5696592.20679863;471.84664967;24415.000000;1.000000;1.000000;1.000000;1.000000;0.033651;-0.033651;0.033651;1.000000;0.407843;0.368627;0.321569
445636.71580322;5696592.21349915;471.81195023;46517.000000;1.000000;1.000000;1.000000;1.000000;0.116600;-0.116600;0.116600;1.000000;0.72549;0.713725;0.658824
445636.89669998;5696592.25259979;471.82065012;53970.000000;1.000000;1.000000;1.000000;1.000000;0.077400;-0.077400;0.077400;1.000000;0.862745;0.823529;0.737255
445636.46630295;5696591.97429855;471.71404984;41891.000000;1.000000;1.000000;1.000000;1.000000;0.026926;-0.026926;0.026926;1.000000;0.658824;0.639216;0.6
445636.45040329;5696592.20609863;471.76965000;34438.000000;1.000000;1.000000;1.000000;1.000000;0.032996;-0.032996;0.032996;1.000000;0.552941;0.521569;0.478431
445636.44980057;5696592.16809853;471.80874969;27499.000000;1.000000;1.000000;1.000000;1.000000;0.010424;-0.010424;0.010424;1.000000;0.423529;0.427451;0.372549
445636.51860245;5696592.24529846;471.84305002;17219.000000;1.000000;1.000000;1.000000;1.000000;0.084702;-0.084702;0.084702;1.000000;0.290196;0.254902;0.239216
445636.72860153;5696591.87529953;471.70604994;26728.000000;1.000000;1.000000;1.000000;1.000000;0.070888;-0.070888;0.070888;1.000000;0.423529;0.407843;0.372549
445636.53000076;5696592.18149956;471.82184984;40349.000000;1.000000;1.000000;1.000000;1.000000;0.090788;-0.090788;0.090788;1.000000;0.627451;0.623529;0.564706
445636.48060043;5696592.19879921;471.75925018;31868.000000;1.000000;1.000000;1.000000;1.000000;0.047706;-0.047706;0.047706;1.000000;0.494118;0.494118;0.45098
445636.53830154;5696591.94199951;471.70755007;18761.000000;1.000000;1.000000;1.000000;1.000000;0.098925;-0.098925;0.098925;1.000000;0.301961;0.290196;0.243137
445636.67590149;5696592.20659836;471.74725010;28013.000000;1.000000;1.000000;1.000000;1.000000;0.123402;-0.123402;0.123402;1.000000;0.454902;0.423529;0.396078
445636.46040161;5696592.18429955;471.76284983;38293.000000;1.000000;1.000000;1.000000;1.000000;0.023047;-0.023047;0.023047;1.000000;0.588235;0.588235;0.564706
445636.49960144;5696592.19249924;471.89744999;32125.000000;1.000000;1.000000;1.000000;1.000000;0.062052;-0.062052;0.062052;1.000000;0.498039;0.498039;0.454902
445636.46000107;5696592.22649963;471.75394966;26728.000000;1.000000;1.000000;1.000000;1.000000;0.055764;-0.055764;0.055764;1.000000;0.431373;0.411765;0.345098
445636.49870117;5696592.26489838;471.75385000;37265.000000;1.000000;1.000000;1.000000;1.000000;0.065179;-0.065179;0.065179;1.000000;0.611765;0.564706;0.498039
445636.54969986;5696591.89399918;471.71915009;29041.000000;1.000000;1.000000;1.000000;1.000000;0.063999;-0.063999;0.063999;1.000000;0.45098;0.45098;0.411765
445636.88850220;5696592.23489960;471.81075003;18504.000000;1.000000;1.000000;1.000000;1.000000;0.095100;-0.095100;0.095100;1.000000;0.329412;0.278431;0.203922
445636.81610306;5696591.74849899;471.67824986;37522.000000;1.000000;1.000000;1.000000;1.000000;-0.032976;0.032976;-0.032976;1.000000;0.584314;0.572549;0.541176
445636.85470016;5696591.71219833;471.68184998;7710.000000;1.000000;1.000000;1.000000;1.000000;-0.071573;0.071573;-0.071573;1.000000;0.129412;0.117647;0.0980392
445636.53730209;5696591.71739967;471.73274996;39064.000000;1.000000;1.000000;1.000000;1.000000;-0.099420;0.099420;-0.099420;1.000000;0.6;0.6;0.564706
445636.46190079;5696592.14459999;471.75075008;44204.000000;1.000000;1.000000;1.000000;1.000000;0.022524;-0.022524;0.022524;1.000000;0.690196;0.67451;0.635294
445636.46930130;5696592.03239830;471.71484997;44718.000000;1.000000;1.000000;1.000000;1.000000;0.029924;-0.029924;0.029924;1.000000;0.709804;0.682353;0.631373
445636.84600266;5696591.86189850;471.71814968;35209.000000;1.000000;1.000000;1.000000;1.000000;0.031901;-0.031901;0.031901;1.000000;0.552941;0.541176;0.490196
445636.55560120;5696591.77379997;471.75525000;33667.000000;1.000000;1.000000;1.000000;1.000000;-0.056200;0.056200;-0.056200;1.000000;0.517647;0.521569;0.486275
445636.59230240;5696591.74009903;471.75184967;47545.000000;1.000000;1.000000;1.000000;1.000000;-0.074020;0.074020;-0.074020;1.000000;0.737255;0.729412;0.701961
445636.66860016;5696591.74049957;471.72034981;26728.000000;1.000000;1.000000;1.000000;1.000000;0.078488;-0.078488;0.078488;1.000000;0.419608;0.411765;0.380392
445636.63240250;5696591.70189865;471.71595003;16705.000000;1.000000;1.000000;1.000000;1.000000;0.028515;-0.028515;0.028515;1.000000;0.270588;0.254902;0.235294
445636.78190048;5696591.70959862;471.68314983;12336.000000;1.000000;1.000000;1.000000;1.000000;0.001226;-0.001226;0.001226;1.000000;0.207843;0.184314;0.168627
445636.81840332;5696591.67349823;471.67974998;12850.000000;1.000000;1.000000;1.000000;1.000000;-0.035276;0.035276;-0.035276;1.000000;0.215686;0.192157;0.168627
445636.88760193;5696592.25129898;471.81325008;42148.000000;1.000000;1.000000;1.000000;1.000000;0.078701;-0.078701;0.078701;1.000000;0.682353;0.643137;0.552941
445636.56250198;5696591.99819954;471.70235016;22359.000000;1.000000;1.000000;1.000000;1.000000;0.123125;-0.123125;0.123125;1.000000;0.364706;0.345098;0.290196
445636.72220047;5696592.23919876;471.77294971;11308.000000;1.000000;1.000000;1.000000;1.000000;0.090801;-0.090801;0.090801;1.000000;0.196078;0.172549;0.12549
445636.48180206;5696592.16359909;471.76354982;31354.000000;1.000000;1.000000;1.000000;1.000000;0.042425;-0.042425;0.042425;1.000000;0.505882;0.478431;0.415686
445636.77260025;5696591.90589912;471.72704985;31868.000000;1.000000;1.000000;1.000000;1.000000;0.076626;-0.076626;0.076626;1.000000;0.501961;0.501961;0.392157
445636.46440323;5696591.86429985;471.73595001;26985.000000;1.000000;1.000000;1.000000;1.000000;0.025026;-0.025026;0.025026;1.000000;0.431373;0.411765;0.384314
445636.80100067;5696591.87559898;471.70694973;17219.000000;1.000000;1.000000;1.000000;1.000000;0.045599;-0.045599;0.045599;1.000000;0.282353;0.266667;0.215686
445636.48820313;5696591.97709854;471.69875004;40349.000000;1.000000;1.000000;1.000000;1.000000;0.048826;-0.048826;0.048826;1.000000;0.639216;0.611765;0.572549
445636.76730164;5696591.83899887;471.70505001;35209.000000;1.000000;1.000000;1.000000;1.000000;0.018205;-0.018205;0.018205;1.000000;0.54902;0.541176;0.505882
445636.72160156;5696591.79889877;471.70244982;13621.000000;1.000000;1.000000;1.000000;1.000000;0.061525;-0.061525;0.061525;1.000000;0.215686;0.211765;0.184314
445636.48100098;5696591.76249893;471.72615005;44975.000000;1.000000;1.000000;1.000000;1.000000;-0.067501;0.067501;-0.067501;1.000000;0.694118;0.690196;0.662745
445636.60690125;5696592.27809914;471.76594975;40092.000000;1.000000;1.000000;1.000000;1.000000;0.051901;-0.051901;0.051901;1.000000;0.647059;0.611765;0.537255
445636.62820251;5696591.74839981;471.75124981;42919.000000;1.000000;1.000000;1.000000;1.000000;0.073772;-0.073772;0.073772;1.000000;0.662745;0.662745;0.623529
445636.58530243;5696591.89779861;471.71614983;37008.000000;1.000000;1.000000;1.000000;1.000000;0.067799;-0.067799;0.067799;1.000000;0.592157;0.564706;0.513725
445636.49100311;5696592.18899925;471.87375023;45232.000000;1.000000;1.000000;1.000000;1.000000;0.052985;-0.052985;0.052985;1.000000;0.701961;0.694118;0.65098
445636.50380142;5696592.29479988;471.75444986;10023.000000;1.000000;1.000000;1.000000;1.000000;0.035200;-0.035200;0.035200;1.000000;0.176471;0.14902;0.109804
445636.84259995;5696592.23479851;471.79005005;32382.000000;1.000000;1.000000;1.000000;1.000000;0.095250;-0.095250;0.095250;1.000000;0.52549;0.494118;0.443137
445636.59460266;5696591.92259987;471.71684982;41891.000000;1.000000;1.000000;1.000000;1.000000;0.092600;-0.092600;0.092600;1.000000;0.670588;0.635294;0.580392
445636.79900177;5696591.95349892;471.81265022;16191.000000;1.000000;1.000000;1.000000;1.000000;0.123499;-0.123499;0.123499;1.000000;0.254902;0.254902;0.211765
445636.86720093;5696592.25329979;471.80294992;27499.000000;1.000000;1.000000;1.000000;1.000000;0.076700;-0.076700;0.076700;1.000000;0.458824;0.419608;0.341176
445636.87100037;5696592.21799858;471.80044987;27499.000000;1.000000;1.000000;1.000000;1.000000;0.112065;-0.112065;0.112065;1.000000;0.454902;0.415686;0.372549
445636.51379974;5696591.86449821;471.72884991;18761.000000;1.000000;1.000000;1.000000;1.000000;0.034498;-0.034498;0.034498;1.000000;0.294118;0.294118;0.254902
445636.55240067;5696591.82819946;471.73014977;35980.000000;1.000000;1.000000;1.000000;1.000000;-0.001801;0.001801;-0.001801;1.000000;0.54902;0.556863;0.513725
445636.48060043;5696592.19879921;471.75925018;31354.000000;1.000000;1.000000;1.000000;1.000000;0.047706;-0.047706;0.047706;1.000000;0.486275;0.486275;0.447059
445636.45040329;5696592.15929993;471.77605011;42662.000000;1.000000;1.000000;1.000000;1.000000;0.011026;-0.011026;0.011026;1.000000;0.654902;0.654902;0.623529
445636.73859985;5696592.26789864;471.78105022;29812.000000;1.000000;1.000000;1.000000;1.000000;0.062101;-0.062101;0.062101;1.000000;0.509804;0.443137;0.368627
445636.57360275;5696591.73719986;471.74634983;30583.000000;1.000000;1.000000;1.000000;1.000000;-0.082246;0.082246;-0.082246;1.000000;0.478431;0.466667;0.435294
445636.71640213;5696591.89289864;471.70104982;17476.000000;1.000000;1.000000;1.000000;1.000000;0.091698;-0.091698;0.091698;1.000000;0.286275;0.266667;0.223529
445636.55240067;5696592.23889931;471.75365021;28270.000000;1.000000;1.000000;1.000000;1.000000;0.091101;-0.091101;0.091101;1.000000;0.454902;0.431373;0.384314
445636.52350052;5696592.23669823;471.76865007;37265.000000;1.000000;1.000000;1.000000;1.000000;0.093302;-0.093302;0.093302;1.000000;0.592157;0.572549;0.486275
445636.53900345;5696591.90439995;471.71875002;34438.000000;1.000000;1.000000;1.000000;1.000000;0.074501;-0.074501;0.074501;1.000000;0.537255;0.529412;0.486275
445636.50240143;5696592.18479927;471.92315008;29298.000000;1.000000;1.000000;1.000000;1.000000;0.063383;-0.063383;0.063383;1.000000;0.478431;0.443137;0.415686
445636.76950272;5696591.93159874;471.74585011;37779.000000;1.000000;1.000000;1.000000;1.000000;0.102508;-0.102508;0.102508;1.000000;0.631373;0.568627;0.501961
445636.49680145;5696592.17919930;471.72015001;19532.000000;1.000000;1.000000;1.000000;1.000000;0.057659;-0.057659;0.057659;1.000000;0.313725;0.301961;0.262745
445636.81880005;5696591.94450005;471.82044985;56026.000000;1.000000;1.000000;1.000000;1.000000;0.114585;-0.114585;0.114585;1.000000;0.862745;0.858824;0.815686
445636.60790070;5696592.23369987;471.75614979;25700.000000;1.000000;1.000000;1.000000;1.000000;0.096300;-0.096300;0.096300;1.000000;0.431373;0.384314;0.329412
445636.79590042;5696592.22999962;471.77854969;8995.000000;1.000000;1.000000;1.000000;1.000000;0.100000;-0.100000;0.100000;1.000000;0.180392;0.129412;0.0941176
445636.53840073;5696591.76369865;471.75204994;38807.000000;1.000000;1.000000;1.000000;1.000000;-0.066450;0.066450;-0.066450;1.000000;0.596078;0.596078;0.568627
445636.58049973;5696592.26889999;471.76224997;44975.000000;1.000000;1.000000;1.000000;1.000000;0.061100;-0.061100;0.061100;1.000000;0.721569;0.686275;0.611765
445636.61790283;5696592.26999863;471.76634981;36494.000000;1.000000;1.000000;1.000000;1.000000;0.060006;-0.060006;0.060006;1.000000;0.592157;0.556863;0.482353
445636.88179977;5696592.20769890;471.79845001;10280.000000;1.000000;1.000000;1.000000;1.000000;0.122301;-0.122301;0.122301;1.000000;0.196078;0.152941;0.105882
445636.49360092;5696592.20010002;471.89024975;30326.000000;1.000000;1.000000;1.000000;1.000000;0.058780;-0.058780;0.058780;1.000000;0.466667;0.470588;0.423529
445636.45409973;5696592.23419960;471.74454977;26214.000000;1.000000;1.000000;1.000000;1.000000;0.061485;-0.061485;0.061485;1.000000;0.423529;0.403922;0.34902
445636.76020248;5696591.91439827;471.70795013;16191.000000;1.000000;1.000000;1.000000;1.000000;0.087456;-0.087456;0.087456;1.000000;0.278431;0.247059;0.192157
445636.61359985;5696591.86969955;471.70314981;42662.000000;1.000000;1.000000;1.000000;1.000000;0.039700;-0.039700;0.039700;1.000000;0.666667;0.654902;0.619608
445636.52240189;5696591.85669907;471.72914984;21074.000000;1.000000;1.000000;1.000000;1.000000;0.026699;-0.026699;0.026699;1.000000;0.329412;0.32549;0.290196
445636.57349976;5696591.76509865;471.75594999;24929.000000;1.000000;1.000000;1.000000;1.000000;-0.064904;0.064904;-0.064904;1.000000;0.388235;0.388235;0.34902
445636.71759995;5696591.85539825;471.70064976;36494.000000;1.000000;1.000000;1.000000;1.000000;0.070277;-0.070277;0.070277;1.000000;0.568627;0.556863;0.52549
445636.46550186;5696591.93929871;471.71124985;31611.000000;1.000000;1.000000;1.000000;1.000000;0.026125;-0.026125;0.026125;1.000000;0.501961;0.482353;0.443137
445636.69370087;5696592.22579964;471.75525000;24415.000000;1.000000;1.000000;1.000000;1.000000;0.104200;-0.104200;0.104200;1.000000;0.392157;0.372549;0.329412
445636.79260071;5696591.67359932;471.68094971;20046.000000;1.000000;1.000000;1.000000;1.000000;-0.009474;0.009474;-0.009474;1.000000;0.32549;0.301961;0.27451
445636.58880051;5696591.88579948;471.71614983;35466.000000;1.000000;1.000000;1.000000;1.000000;0.055799;-0.055799;0.055799;1.000000;0.568627;0.541176;0.494118
445636.58990295;5696591.84829910;471.71805002;27499.000000;1.000000;1.000000;1.000000;1.000000;0.018299;-0.018299;0.018299;1.000000;0.427451;0.419608;0.4
445636.48880203;5696591.95839890;471.69854977;40349.000000;1.000000;1.000000;1.000000;1.000000;0.049425;-0.049425;0.049425;1.000000;0.639216;0.611765;0.572549
445636.85810287;5696591.67449959;471.68384983;45232.000000;1.000000;1.000000;1.000000;1.000000;-0.074976;0.074976;-0.074976;1.000000;0.701961;0.694118;0.666667
445636.52380188;5696592.28359993;471.75525000;14392.000000;1.000000;1.000000;1.000000;1.000000;0.046402;-0.046402;0.046402;1.000000;0.25098;0.219608;0.156863
445636.78520020;5696591.96999939;471.73535015;30069.000000;1.000000;1.000000;1.000000;1.000000;-0.140015;0.140015;-0.140015;1.000000;0.498039;0.462745;0.364706
445636.85659988;5696592.26139839;471.79565002;33153.000000;1.000000;1.000000;1.000000;1.000000;0.068602;-0.068602;0.068602;1.000000;0.545098;0.501961;0.447059
445636.63890274;5696592.21449860;471.75495007;30326.000000;1.000000;1.000000;1.000000;1.000000;0.115501;-0.115501;0.115501;1.000000;0.501961;0.458824;0.411765
445636.51770218;5696592.16719826;471.91194965;48316.000000;1.000000;1.000000;1.000000;1.000000;0.078325;-0.078325;0.078325;1.000000;0.745098;0.745098;0.698039
445636.51630219;5696592.24549873;471.84294989;15677.000000;1.000000;1.000000;1.000000;1.000000;0.084501;-0.084501;0.084501;1.000000;0.266667;0.231373;0.215686
445636.53120239;5696592.08979996;471.70664980;32382.000000;1.000000;1.000000;1.000000;1.000000;0.091825;-0.091825;0.091825;1.000000;0.52549;0.494118;0.431373
445636.45730026;5696592.16089828;471.78335001;47288.000000;1.000000;1.000000;1.000000;1.000000;0.017923;-0.017923;0.017923;1.000000;0.733333;0.72549;0.698039
445636.49150284;5696592.16059883;471.74764969;31868.000000;1.000000;1.000000;1.000000;1.000000;0.052126;-0.052126;0.052126;1.000000;0.509804;0.486275;0.447059
445636.79880341;5696591.95339973;471.81724979;28527.000000;1.000000;1.000000;1.000000;1.000000;0.123400;-0.123400;0.123400;1.000000;0.443137;0.439216;0.396078
445636.45530136;5696592.12189873;471.74554970;35980.000000;1.000000;1.000000;1.000000;1.000000;0.015924;-0.015924;0.015924;1.000000;0.572549;0.552941;0.494118
445636.57640274;5696591.95239838;471.71404984;31354.000000;1.000000;1.000000;1.000000;1.000000;0.122398;-0.122398;0.122398;1.000000;0.505882;0.478431;0.423529
445636.71600159;5696591.91169937;471.69665005;18504.000000;1.000000;1.000000;1.000000;1.000000;0.105738;-0.105738;0.105738;1.000000;0.305882;0.282353;0.243137
445636.75240143;5696591.95029839;471.69635012;42148.000000;1.000000;1.000000;1.000000;1.000000;0.124160;-0.124160;0.124160;1.000000;0.678431;0.643137;0.576471
445636.55970200;5696592.09189995;471.70095016;24415.000000;1.000000;1.000000;1.000000;1.000000;0.120325;-0.120325;0.120325;1.000000;0.396078;0.376471;0.309804
445636.79440125;5696591.95389946;471.81244995;17990.000000;1.000000;1.000000;1.000000;1.000000;0.123899;-0.123899;0.123899;1.000000;0.286275;0.278431;0.227451
445636.46710022;5696591.91099937;471.72024967;22616.000000;1.000000;1.000000;1.000000;1.000000;0.027723;-0.027723;0.027723;1.000000;0.360784;0.345098;0.313725
445636.49190338;5696591.94170006;471.70085003;23901.000000;1.000000;1.000000;1.000000;1.000000;0.052526;-0.052526;0.052526;1.000000;0.384314;0.364706;0.333333
445636.84990128;5696591.82429894;471.70855000;54741.000000;1.000000;1.000000;1.000000;1.000000;-0.007125;0.007125;-0.007125;1.000000;0.843137;0.839216;0.807843
445636.70460327;5696591.74439819;471.70804979;42148.000000;1.000000;1.000000;1.000000;1.000000;0.078524;-0.078524;0.078524;1.000000;0.654902;0.647059;0.615686
445636.45829971;5696591.96559914;471.71824982;39321.000000;1.000000;1.000000;1.000000;1.000000;0.018923;-0.018923;0.018923;1.000000;0.623529;0.6;0.560784
445636.83559998;5696591.75829895;471.68155005;38036.000000;1.000000;1.000000;1.000000;1.000000;-0.052473;0.052473;-0.052473;1.000000;0.6;0.580392;0.541176
445636.72050293;5696591.83639915;471.70055010;33667.000000;1.000000;1.000000;1.000000;1.000000;0.062950;-0.062950;0.062950;1.000000;0.52549;0.517647;0.490196
445636.69340332;5696591.79919823;471.70585014;13621.000000;1.000000;1.000000;1.000000;1.000000;-0.073311;0.073311;-0.073311;1.000000;0.219608;0.211765;0.180392
445636.57090195;5696591.82869919;471.73565008;35466.000000;1.000000;1.000000;1.000000;1.000000;-0.003459;0.003459;-0.003459;1.000000;0.545098;0.54902;0.517647
445636.78810318;5696591.95109947;471.73525002;46517.000000;1.000000;1.000000;1.000000;1.000000;0.121193;-0.121193;0.121193;1.000000;0.737255;0.713725;0.647059
445636.58090027;5696591.79019936;471.74725010;30069.000000;1.000000;1.000000;1.000000;1.000000;-0.039801;0.039801;-0.039801;1.000000;0.466667;0.462745;0.435294
445636.55020340;5696592.26709946;471.75624992;20817.000000;1.000000;1.000000;1.000000;1.000000;0.062901;-0.062901;0.062901;1.000000;0.34902;0.321569;0.243137
445636.83690079;5696591.72089966;471.67884972;9252.000000;1.000000;1.000000;1.000000;1.000000;-0.053774;0.053774;-0.053774;1.000000;0.156863;0.141176;0.121569
445636.58920105;5696592.23319824;471.75525000;33153.000000;1.000000;1.000000;1.000000;1.000000;0.096857;-0.096857;0.096857;1.000000;0.533333;0.501961;0.462745
445636.56190308;5696592.12189873;471.71315004;30583.000000;1.000000;1.000000;1.000000;1.000000;0.122526;-0.122526;0.122526;1.000000;0.482353;0.470588;0.407843
445636.82830246;5696591.94819839;471.82555010;55769.000000;1.000000;1.000000;1.000000;1.000000;0.118198;-0.118198;0.118198;1.000000;0.866667;0.854902;0.815686
445636.83010300;5696591.90949829;471.75534966;35466.000000;1.000000;1.000000;1.000000;1.000000;0.079498;-0.079498;0.079498;1.000000;0.572549;0.541176;0.478431
445636.83260162;5696591.86779984;471.71764996;25700.000000;1.000000;1.000000;1.000000;1.000000;0.037800;-0.037800;0.037800;1.000000;0.407843;0.396078;0.345098
445636.61030014;5696591.78269966;471.75315001;25957.000000;1.000000;1.000000;1.000000;1.000000;-0.047300;0.047300;-0.047300;1.000000;0.411765;0.4;0.364706
445636.80070313;5696591.68219955;471.67674973;24672.000000;1.000000;1.000000;1.000000;1.000000;-0.017576;0.017576;-0.017576;1.000000;0.392157;0.376471;0.352941
445636.48700150;5696591.82729919;471.72714998;4369.000000;1.000000;1.000000;1.000000;1.000000;-0.002701;0.002701;-0.002701;1.000000;0.0862745;0.0627451;0.0666667
445636.55560120;5696592.20319946;471.92345001;32639.000000;1.000000;1.000000;1.000000;1.000000;0.118909;-0.118909;0.118909;1.000000;0.513725;0.501961;0.45098
445636.48180206;5696592.16809853;471.77294971;40863.000000;1.000000;1.000000;1.000000;1.000000;0.042425;-0.042425;0.042425;1.000000;0.639216;0.627451;0.584314
445636.79370316;5696591.95229919;471.77045013;29298.000000;1.000000;1.000000;1.000000;1.000000;0.122299;-0.122299;0.122299;1.000000;0.486275;0.447059;0.364706
445636.77950104;5696592.20939835;471.84275009;42919.000000;1.000000;1.000000;1.000000;1.000000;0.120656;-0.120656;0.120656;1.000000;0.670588;0.658824;0.6
445636.44600113;5696592.26999863;471.73994972;12850.000000;1.000000;1.000000;1.000000;1.000000;0.060001;-0.060001;0.060001;1.000000;0.235294;0.192157;0.145098
445636.74060257;5696592.20949944;471.77115013;15934.000000;1.000000;1.000000;1.000000;1.000000;0.120501;-0.120501;0.120501;1.000000;0.282353;0.239216;0.180392
445636.82560165;5696591.75000008;471.67864992;40606.000000;1.000000;1.000000;1.000000;1.000000;-0.042475;0.042475;-0.042475;1.000000;0.643137;0.619608;0.588235
445636.50060089;5696591.93619926;471.70344975;16962.000000;1.000000;1.000000;1.000000;1.000000;0.061224;-0.061224;0.061224;1.000000;0.27451;0.258824;0.219608
445636.79510315;5696591.94730003;471.78214981;22616.000000;1.000000;1.000000;1.000000;1.000000;0.117300;-0.117300;0.117300;1.000000;0.372549;0.34902;0.282353
445636.52720078;5696592.16439827;471.74235012;25443.000000;1.000000;1.000000;1.000000;1.000000;0.087824;-0.087824;0.087824;1.000000;0.423529;0.384314;0.333333
445636.77600296;5696592.26909836;471.78274967;24672.000000;1.000000;1.000000;1.000000;1.000000;0.060955;-0.060955;0.060955;1.000000;0.435294;0.360784;0.301961
445636.89870270;5696592.24779900;471.81834986;46003.000000;1.000000;1.000000;1.000000;1.000000;0.082201;-0.082201;0.082201;1.000000;0.745098;0.698039;0.611765
445636.49559982;5696591.81950005;471.72744991;5654.000000;1.000000;1.000000;1.000000;1.000000;-0.010500;0.010500;-0.010500;1.000000;0.101961;0.0823529;0.0823529
445636.46050079;5696592.22039993;471.83544971;31097.000000;1.000000;1.000000;1.000000;1.000000;0.048882;-0.048882;0.048882;1.000000;0.505882;0.47451;0.411765
445636.72179993;5696592.20809944;471.82385017;42148.000000;1.000000;1.000000;1.000000;1.000000;0.121901;-0.121901;0.121901;1.000000;0.662745;0.647059;0.596078
445636.57960327;5696591.82539948;471.74534990;22616.000000;1.000000;1.000000;1.000000;1.000000;-0.004601;0.004601;-0.004601;1.000000;0.356863;0.34902;0.317647
445636.83350189;5696591.82349976;471.70785000;58853.000000;1.000000;1.000000;1.000000;1.000000;-0.006500;0.006500;-0.006500;1.000000;0.901961;0.901961;0.870588
445636.76740082;5696591.86699875;471.71005013;22359.000000;1.000000;1.000000;1.000000;1.000000;0.040202;-0.040202;0.040202;1.000000;0.356863;0.345098;0.309804
445636.54000290;5696591.91369827;471.71665003;39321.000000;1.000000;1.000000;1.000000;1.000000;0.083748;-0.083748;0.083748;1.000000;0.619608;0.6;0.564706
445636.79120071;5696591.93439873;471.73754980;44975.000000;1.000000;1.000000;1.000000;1.000000;0.104412;-0.104412;0.104412;1.000000;0.709804;0.690196;0.611765
445636.52250107;5696592.06969841;471.70134975;21588.000000;1.000000;1.000000;1.000000;1.000000;0.083124;-0.083124;0.083124;1.000000;0.368627;0.32549;0.262745
445636.60440262;5696591.70209892;471.71705009;38807.000000;1.000000;1.000000;1.000000;1.000000;-0.036023;0.036023;-0.036023;1.000000;0.603922;0.592157;0.564706
445636.64690216;5696592.22549828;471.75544979;32639.000000;1.000000;1.000000;1.000000;1.000000;0.104502;-0.104502;0.104502;1.000000;0.529412;0.494118;0.447059
445636.47280319;5696591.91989906;471.71595003;22616.000000;1.000000;1.000000;1.000000;1.000000;0.033426;-0.033426;0.033426;1.000000;0.360784;0.345098;0.321569
445636.54780014;5696591.92229851;471.71705009;38293.000000;1.000000;1.000000;1.000000;1.000000;0.092299;-0.092299;0.092299;1.000000;0.603922;0.588235;0.545098
445636.58760269;5696591.92329987;471.71654989;39321.000000;1.000000;1.000000;1.000000;1.000000;0.093300;-0.093300;0.093300;1.000000;0.627451;0.6;0.54902
445636.64550217;5696591.83409889;471.69945004;23644.000000;1.000000;1.000000;1.000000;1.000000;0.019071;-0.019071;0.019071;1.000000;0.372549;0.360784;0.333333
445636.51330002;5696592.20259865;471.76774981;37008.000000;1.000000;1.000000;1.000000;1.000000;0.078921;-0.078921;0.078921;1.000000;0.576471;0.568627;0.529412
445636.47930344;5696592.23539932;471.81325008;48059.000000;1.000000;1.000000;1.000000;1.000000;0.071673;-0.071673;0.071673;1.000000;0.760784;0.729412;0.682353
445636.45180328;5696592.20709999;471.84655001;18504.000000;1.000000;1.000000;1.000000;1.000000;0.032992;-0.032992;0.032992;1.000000;0.309804;0.282353;0.223529
445636.73790176;5696592.24889954;471.80874969;39064.000000;1.000000;1.000000;1.000000;1.000000;0.081100;-0.081100;0.081100;1.000000;0.603922;0.6;0.568627
445636.46070297;5696592.28249939;471.75234987;16705.000000;1.000000;1.000000;1.000000;1.000000;0.047501;-0.047501;0.047501;1.000000;0.298039;0.247059;0.203922
445636.53320129;5696592.28509911;471.75565006;17733.000000;1.000000;1.000000;1.000000;1.000000;0.044901;-0.044901;0.044901;1.000000;0.301961;0.270588;0.2
445636.57040222;5696592.25819977;471.75705006;38807.000000;1.000000;1.000000;1.000000;1.000000;0.071800;-0.071800;0.071800;1.000000;0.623529;0.592157;0.517647
445636.68440063;5696592.22669991;471.75484993;25443.000000;1.000000;1.000000;1.000000;1.000000;0.103408;-0.103408;0.103408;1.000000;0.411765;0.388235;0.34902
445636.70390137;5696592.20999916;471.80905010;46003.000000;1.000000;1.000000;1.000000;1.000000;0.120001;-0.120001;0.120001;1.000000;0.713725;0.705882;0.65098
445636.46420105;5696592.14209946;471.74615004;52428.000000;1.000000;1.000000;1.000000;1.000000;0.024824;-0.024824;0.024824;1.000000;0.815686;0.803922;0.756863
445636.62110336;5696591.92499931;471.70414974;39064.000000;1.000000;1.000000;1.000000;1.000000;0.094999;-0.094999;0.094999;1.000000;0.623529;0.596078;0.545098
445636.84830292;5696591.89859970;471.74434998;30840.000000;1.000000;1.000000;1.000000;1.000000;0.068652;-0.068652;0.068652;1.000000;0.494118;0.470588;0.415686
445636.81360062;5696591.86039932;471.70734980;22873.000000;1.000000;1.000000;1.000000;1.000000;0.030399;-0.030399;0.030399;1.000000;0.360784;0.352941;0.298039
445636.77740295;5696591.82169922;471.70524981;29298.000000;1.000000;1.000000;1.000000;1.000000;0.005724;-0.005724;0.005724;1.000000;0.45098;0.45098;0.415686
445636.51860245;5696591.77269943;471.74424984;22359.000000;1.000000;1.000000;1.000000;1.000000;-0.057301;0.057301;-0.057301;1.000000;0.352941;0.341176;0.313725
445636.55730255;5696591.73639877;471.74324991;34438.000000;1.000000;1.000000;1.000000;1.000000;-0.093139;0.093139;-0.093139;1.000000;0.537255;0.529412;0.498039
445636.59210022;5696591.73549850;471.74714996;34695.000000;1.000000;1.000000;1.000000;1.000000;-0.070168;0.070168;-0.070168;1.000000;0.541176;0.533333;0.501961
