//X;Y;Z;Intensity;Return Number;Number Of Returns;Scan Direction Flag;Point Source ID;C2M signed distances[-][<0.8];C2M signed distances[<0.4];C2M signed distances[-][<0.2];Stump54;Rf;Gf;Bf
300
445640.35200317;5696592.48519905;471.41825010;39321.000000;1.000000;1.000000;1.000000;1.000000;-0.038242;0.038242;-0.038242;1.000000;0.631373;0.6;0.541176
445640.44980057;5696591.94989975;471.45814993;31611.000000;1.000000;1.000000;1.000000;1.000000;0.093013;-0.093013;0.093013;1.000000;0.482353;0.486275;0.47451
445639.93990143;5696592.48499878;471.48574974;43433.000000;1.000000;1.000000;1.000000;1.000000;-0.093225;0.093225;-0.093225;1.000000;0.67451;0.666667;0.631373
445640.10620316;5696592.30709847;471.41895010;21074.000000;1.000000;1.000000;1.000000;1.000000;-0.047686;0.047686;-0.047686;1.000000;0.341176;0.321569;0.278431
445639.97990234;5696592.48829849;471.48525002;28270.000000;1.000000;1.000000;1.000000;1.000000;-0.053225;0.053225;-0.053225;1.000000;0.435294;0.435294;0.403922
445640.14420135;5696592.33859833;471.41874983;14135.000000;1.000000;1.000000;1.000000;1.000000;0.080286;-0.080286;0.080286;1.000000;0.235294;0.215686;0.188235
445639.89690216;5696592.02869995;471.49235012;14392.000000;1.000000;1.000000;1.000000;1.000000;0.082525;-0.082525;0.082525;1.000000;0.227451;0.219608;0.207843
445640.41970261;5696591.97609909;471.45484974;12850.000000;1.000000;1.000000;1.000000;1.000000;0.114438;-0.114438;0.114438;1.000000;0.196078;0.2;0.2
445639.94140060;5696592.44979866;471.48304989;36494.000000;1.000000;1.000000;1.000000;1.000000;-0.091726;0.091726;-0.091726;1.000000;0.560784;0.560784;0.533333
445640.38730057;5696592.48889931;471.41984989;40863.000000;1.000000;1.000000;1.000000;1.000000;-0.072990;0.072990;-0.072990;1.000000;0.65098;0.623529;0.564706
445640.15480240;5696592.30259903;471.42105009;19018.000000;1.000000;1.000000;1.000000;1.000000;-0.094486;0.094486;-0.094486;1.000000;0.298039;0.294118;0.282353
445640.03930099;5696592.40849884;471.45445015;35980.000000;1.000000;1.000000;1.000000;1.000000;0.006174;-0.006174;0.006174;1.000000;0.560784;0.54902;0.52549
445640.49090012;5696592.46549995;471.40794994;42919.000000;1.000000;1.000000;1.000000;1.000000;-0.135500;0.135500;-0.135500;1.000000;0.67451;0.654902;0.615686
445640.09520157;5696592.37319954;471.43785002;21074.000000;1.000000;1.000000;1.000000;1.000000;0.053069;-0.053069;0.053069;1.000000;0.341176;0.321569;0.282353
445640.02300079;5696592.40549858;471.44665005;46774.000000;1.000000;1.000000;1.000000;1.000000;-0.010126;0.010126;-0.010126;1.000000;0.717647;0.721569;0.690196
445640.12990005;5696592.22269829;471.44465019;8481.000000;1.000000;1.000000;1.000000;1.000000;-0.125726;0.125726;-0.125726;1.000000;0.12549;0.133333;0.141176
445640.13970001;5696592.22429855;471.43814995;10537.000000;1.000000;1.000000;1.000000;1.000000;-0.129794;0.129794;-0.129794;1.000000;0.164706;0.164706;0.160784
445640.11800201;5696592.24709900;471.44904997;3084.000000;1.000000;1.000000;1.000000;1.000000;-0.098733;0.098733;-0.098733;1.000000;0.0392157;0.0509804;0.0705882
445640.04840286;5696592.21269997;471.52234985;19532.000000;1.000000;1.000000;1.000000;1.000000;0.117300;-0.117300;0.117300;1.000000;0.317647;0.298039;0.266667
445640.15730103;5696592.21549995;471.44344999;1799.000000;1.000000;1.000000;1.000000;1.000000;-0.147462;0.147462;-0.147462;1.000000;0.027451;0.027451;0.0431373
445640.45530136;5696592.46169861;471.41095020;39835.000000;1.000000;1.000000;1.000000;1.000000;-0.131699;0.131699;-0.131699;1.000000;0.635294;0.607843;0.564706
445640.15690048;5696592.25319870;471.42754986;12593.000000;1.000000;1.000000;1.000000;1.000000;-0.120246;0.120246;-0.120246;1.000000;0.188235;0.196078;0.192157
445640.44930084;5696592.12809952;471.42304995;3598.000000;1.000000;1.000000;1.000000;1.000000;0.083826;-0.083826;0.083826;1.000000;0.0509804;0.0588235;0.0745098
445639.94730194;5696592.34709938;471.44955017;13621.000000;1.000000;1.000000;1.000000;1.000000;-0.017099;0.017099;-0.017099;1.000000;0.207843;0.211765;0.196078
445640.00330170;5696592.34879883;471.45435001;39835.000000;1.000000;1.000000;1.000000;1.000000;-0.018799;0.018799;-0.018799;1.000000;0.615686;0.615686;0.556863
445640.10270126;5696592.22239883;471.47835018;6682.000000;1.000000;1.000000;1.000000;1.000000;-0.114222;0.114222;-0.114222;1.000000;0.101961;0.101961;0.117647
445640.46330078;5696592.47269829;471.41144993;45489.000000;1.000000;1.000000;1.000000;1.000000;-0.142726;0.142726;-0.142726;1.000000;0.721569;0.690196;0.643137
445640.31780060;5696592.39040001;471.40854980;29041.000000;1.000000;1.000000;1.000000;1.000000;-0.060400;0.060400;-0.060400;1.000000;0.462745;0.447059;0.396078
445640.20860107;5696592.34909828;471.41244986;7710.000000;1.000000;1.000000;1.000000;1.000000;-0.107486;0.107486;-0.107486;1.000000;0.129412;0.117647;0.0941176
445640.44690140;5696591.98549850;471.44214966;7710.000000;1.000000;1.000000;1.000000;1.000000;0.086438;-0.086438;0.086438;1.000000;0.113725;0.12549;0.0980392
445640.05890091;5696592.33459862;471.43575003;21588.000000;1.000000;1.000000;1.000000;1.000000;0.004599;-0.004599;0.004599;1.000000;0.352941;0.32549;0.290196
445640.37730225;5696592.51299866;471.43365004;49601.000000;1.000000;1.000000;1.000000;1.000000;-0.062925;0.062925;-0.062925;1.000000;0.784314;0.756863;0.701961
445640.08110245;5696592.22409828;471.49364998;15420.000000;1.000000;1.000000;1.000000;1.000000;-0.107214;0.107214;-0.107214;1.000000;0.239216;0.235294;0.231373
445640.10640152;5696592.33509834;471.42164995;11822.000000;1.000000;1.000000;1.000000;1.000000;0.042333;-0.042333;0.042333;1.000000;0.207843;0.180392;0.141176
445640.02720078;5696592.40489967;471.45615007;30326.000000;1.000000;1.000000;1.000000;1.000000;-0.005926;0.005926;-0.005926;1.000000;0.482353;0.462745;0.427451
445640.02970322;5696592.38139923;471.45594980;29555.000000;1.000000;1.000000;1.000000;1.000000;-0.003424;0.003424;-0.003424;1.000000;0.47451;0.447059;0.427451
445639.99210175;5696592.40579994;471.45924999;24672.000000;1.000000;1.000000;1.000000;1.000000;-0.041025;0.041025;-0.041025;1.000000;0.392157;0.380392;0.345098
445639.97750290;5696592.25429924;471.52194979;18247.000000;1.000000;1.000000;1.000000;1.000000;0.075701;-0.075701;0.075701;1.000000;0.282353;0.282353;0.27451
445640.07400330;5696592.40079887;471.44654991;33153.000000;1.000000;1.000000;1.000000;1.000000;0.040876;-0.040876;0.040876;1.000000;0.52549;0.505882;0.466667
445639.94170197;5696592.25589951;471.48775007;16705.000000;1.000000;1.000000;1.000000;1.000000;0.074100;-0.074100;0.074100;1.000000;0.258824;0.254902;0.258824
445640.08900269;5696592.24939926;471.47574999;4369.000000;1.000000;1.000000;1.000000;1.000000;-0.084279;0.084279;-0.084279;1.000000;0.0588235;0.0666667;0.0901961
445640.07620056;5696592.22219856;471.49574997;8738.000000;1.000000;1.000000;1.000000;1.000000;-0.108448;0.108448;-0.108448;1.000000;0.137255;0.133333;0.145098
445640.35980042;5696592.49609955;471.42334988;44718.000000;1.000000;1.000000;1.000000;1.000000;-0.045424;0.045424;-0.045424;1.000000;0.713725;0.682353;0.619608
445640.06130035;5696592.25959976;471.43494989;19018.000000;1.000000;1.000000;1.000000;1.000000;-0.070400;0.070400;-0.070400;1.000000;0.309804;0.286275;0.262745
445640.02850159;5696592.22169884;471.51454975;13364.000000;1.000000;1.000000;1.000000;1.000000;0.108400;-0.108400;0.108400;1.000000;0.2;0.207843;0.196078
445640.43500336;5696592.49849899;471.41974976;39835.000000;1.000000;1.000000;1.000000;1.000000;-0.120626;0.120626;-0.120626;1.000000;0.635294;0.607843;0.54902
445640.39740189;5696592.49729927;471.42275002;48059.000000;1.000000;1.000000;1.000000;1.000000;-0.083025;0.083025;-0.083025;1.000000;0.760784;0.733333;0.670588
445640.21580322;5696592.37869843;471.41774990;14906.000000;1.000000;1.000000;1.000000;1.000000;-0.109947;0.109947;-0.109947;1.000000;0.254902;0.227451;0.176471
445640.45840271;5696591.94209869;471.45844986;39321.000000;1.000000;1.000000;1.000000;1.000000;0.089424;-0.089424;0.089424;1.000000;0.603922;0.603922;0.588235
445640.23090179;5696592.44489868;471.42854979;40349.000000;1.000000;1.000000;1.000000;1.000000;0.095758;-0.095758;0.095758;1.000000;0.631373;0.619608;0.572549
445640.33310135;5696592.48459824;471.42194988;35209.000000;1.000000;1.000000;1.000000;1.000000;-0.020119;0.020119;-0.020119;1.000000;0.564706;0.541176;0.470588
445639.93560226;5696592.17209824;471.50285007;41120.000000;1.000000;1.000000;1.000000;1.000000;0.121250;-0.121250;0.121250;1.000000;0.627451;0.631373;0.611765
445639.90500076;5696592.02069862;471.50425007;9252.000000;1.000000;1.000000;1.000000;1.000000;0.090624;-0.090624;0.090624;1.000000;0.14902;0.137255;0.145098
445640.49550064;5696592.38119896;471.39085009;37265.000000;1.000000;1.000000;1.000000;1.000000;-0.051339;0.051339;-0.051339;1.000000;0.588235;0.568627;0.52549
445640.06270035;5696592.29699905;471.42854979;20046.000000;1.000000;1.000000;1.000000;1.000000;-0.033001;0.033001;-0.033001;1.000000;0.321569;0.305882;0.27451
445640.42600067;5696592.26610001;471.39564993;19018.000000;1.000000;1.000000;1.000000;1.000000;0.063900;-0.063900;0.063900;1.000000;0.301961;0.294118;0.247059
445639.95480164;5696592.37669952;471.44784977;38036.000000;1.000000;1.000000;1.000000;1.000000;-0.046700;0.046700;-0.046700;1.000000;0.580392;0.588235;0.564706
445640.04560287;5696592.42659958;471.45494987;35723.000000;1.000000;1.000000;1.000000;1.000000;0.012476;-0.012476;0.012476;1.000000;0.556863;0.545098;0.513725
445640.11910065;5696592.27079971;471.42145016;16448.000000;1.000000;1.000000;1.000000;1.000000;-0.080619;0.080619;-0.080619;1.000000;0.27451;0.247059;0.219608
445639.92749985;5696592.15889938;471.49994995;29555.000000;1.000000;1.000000;1.000000;1.000000;0.113123;-0.113123;0.113123;1.000000;0.454902;0.454902;0.423529
445640.35860260;5696592.51239975;471.43284990;52942.000000;1.000000;1.000000;1.000000;1.000000;-0.044226;0.044226;-0.044226;1.000000;0.831373;0.807843;0.756863
445640.26850327;5696592.44389923;471.42094995;39321.000000;1.000000;1.000000;1.000000;1.000000;0.066448;-0.066448;0.066448;1.000000;0.615686;0.6;0.560784
445640.30640228;5696592.44739922;471.41804983;36237.000000;1.000000;1.000000;1.000000;1.000000;0.045338;-0.045338;0.045338;1.000000;0.572549;0.556863;0.505882
445640.23250015;5696592.40749939;471.41884996;34695.000000;1.000000;1.000000;1.000000;1.000000;-0.112738;0.112738;-0.112738;1.000000;0.54902;0.533333;0.478431
445640.12670334;5696592.32619865;471.41774990;12336.000000;1.000000;1.000000;1.000000;1.000000;-0.062442;0.062442;-0.062442;1.000000;0.215686;0.184314;0.156863
445640.04220016;5696592.36159904;471.44934990;46003.000000;1.000000;1.000000;1.000000;1.000000;0.009073;-0.009073;0.009073;1.000000;0.717647;0.701961;0.662745
445640.05520065;5696592.18409927;471.51994993;23901.000000;1.000000;1.000000;1.000000;1.000000;-0.145901;0.145901;-0.145901;1.000000;0.368627;0.368627;0.356863
445640.00410278;5696592.33239944;471.45424988;25186.000000;1.000000;1.000000;1.000000;1.000000;-0.002399;0.002399;-0.002399;1.000000;0.392157;0.392157;0.345098
445639.96790131;5696592.29819878;471.46154978;7967.000000;1.000000;1.000000;1.000000;1.000000;0.031918;-0.031918;0.031918;1.000000;0.121569;0.12549;0.117647
445640.16220291;5696592.33000000;471.41704990;13107.000000;1.000000;1.000000;1.000000;1.000000;-0.097826;0.097826;-0.097826;1.000000;0.207843;0.2;0.188235
445640.15649994;5696592.18739899;471.45704987;2313.000000;1.000000;1.000000;1.000000;1.000000;-0.169770;0.169770;-0.169770;1.000000;0.027451;0.0392157;0.0470588
445640.12570007;5696592.14989861;471.49244978;15420.000000;1.000000;1.000000;1.000000;1.000000;-0.190255;0.190255;-0.190255;1.000000;0.231373;0.239216;0.247059
445640.11880310;5696592.22619827;471.43954994;12079.000000;1.000000;1.000000;1.000000;1.000000;-0.117205;0.117205;-0.117205;1.000000;0.192157;0.188235;0.160784
445640.11390121;5696592.15099915;471.49665024;17733.000000;1.000000;1.000000;1.000000;1.000000;-0.185726;0.185726;-0.185726;1.000000;0.266667;0.27451;0.278431
445639.95850189;5696592.29679878;471.45874979;10023.000000;1.000000;1.000000;1.000000;1.000000;0.033201;-0.033201;0.033201;1.000000;0.152941;0.156863;0.141176
445639.96040161;5696592.25869949;471.49564983;20817.000000;1.000000;1.000000;1.000000;1.000000;0.071301;-0.071301;0.071301;1.000000;0.317647;0.321569;0.317647
445639.92400177;5696592.21999939;471.49585011;35466.000000;1.000000;1.000000;1.000000;1.000000;0.110100;-0.110100;0.110100;1.000000;0.552941;0.537255;0.541176
445640.15170105;5696592.18779953;471.45914986;6168.000000;1.000000;1.000000;1.000000;1.000000;-0.166873;0.166873;-0.166873;1.000000;0.0901961;0.0980392;0.105882
445640.23080261;5696592.47279938;471.43584969;44461.000000;1.000000;1.000000;1.000000;1.000000;0.085680;-0.085680;0.085680;1.000000;0.694118;0.682353;0.639216
445639.93300064;5696592.08309944;471.53195002;3598.000000;1.000000;1.000000;1.000000;1.000000;0.118624;-0.118624;0.118624;1.000000;0.0509804;0.054902;0.0705882
445640.12270172;5696592.39169891;471.43704988;19018.000000;1.000000;1.000000;1.000000;1.000000;0.084903;-0.084903;0.084903;1.000000;0.32549;0.286275;0.235294
445640.35220154;5696592.25420006;471.40144970;13621.000000;1.000000;1.000000;1.000000;1.000000;0.075800;-0.075800;0.075800;1.000000;0.215686;0.211765;0.188235
445640.39090164;5696592.21789940;471.40044977;6168.000000;1.000000;1.000000;1.000000;1.000000;0.112101;-0.112101;0.112101;1.000000;0.0980392;0.0941176;0.0901961
445640.42260178;5696592.33179863;471.40094997;20560.000000;1.000000;1.000000;1.000000;1.000000;-0.001799;0.001799;-0.001799;1.000000;0.313725;0.317647;0.294118
445640.50240143;5696592.18649872;471.40284969;17990.000000;1.000000;1.000000;1.000000;1.000000;0.030725;-0.030725;0.030725;1.000000;0.27451;0.278431;0.282353
445640.47039993;5696592.10949905;471.43534996;4883.000000;1.000000;1.000000;1.000000;1.000000;0.062727;-0.062727;0.062727;1.000000;0.0705882;0.0784314;0.0862745
445640.29930313;5696592.41779907;471.41034986;37265.000000;1.000000;1.000000;1.000000;1.000000;0.075891;-0.075891;0.075891;1.000000;0.588235;0.572549;0.529412
445640.47179993;5696592.27829941;471.39085009;24929.000000;1.000000;1.000000;1.000000;1.000000;0.051701;-0.051701;0.051701;1.000000;0.392157;0.384314;0.337255
445640.47290237;5696592.24079903;471.39284994;11308.000000;1.000000;1.000000;1.000000;1.000000;0.060225;-0.060225;0.060225;1.000000;0.180392;0.176471;0.156863
445640.26850327;5696592.25959976;471.40245010;18504.000000;1.000000;1.000000;1.000000;1.000000;0.084027;-0.084027;0.084027;1.000000;0.278431;0.290196;0.286275
445640.34119995;5696592.26219948;471.40345003;26728.000000;1.000000;1.000000;1.000000;1.000000;0.067945;-0.067945;0.067945;1.000000;0.411765;0.411765;0.376471
445639.99330338;5696592.36829956;471.45884993;34181.000000;1.000000;1.000000;1.000000;1.000000;-0.038329;0.038329;-0.038329;1.000000;0.529412;0.52549;0.482353
445640.41670044;5696592.26699837;471.39755013;23901.000000;1.000000;1.000000;1.000000;1.000000;0.063002;-0.063002;0.063002;1.000000;0.376471;0.372549;0.321569
445639.96560104;5696592.36869820;471.45055010;19789.000000;1.000000;1.000000;1.000000;1.000000;-0.039023;0.039023;-0.039023;1.000000;0.298039;0.309804;0.278431
445639.92900284;5696592.33000000;471.45545008;4369.000000;1.000000;1.000000;1.000000;1.000000;-0.009787;0.009787;-0.009787;1.000000;0.0666667;0.0705882;0.0666667
445640.04370316;5696592.29859932;471.43934967;21845.000000;1.000000;1.000000;1.000000;1.000000;0.031401;-0.031401;0.031401;1.000000;0.372549;0.32549;0.286275
445640.04430206;5696592.28429993;471.44845011;11308.000000;1.000000;1.000000;1.000000;1.000000;0.045700;-0.045700;0.045700;1.000000;0.180392;0.168627;0.180392
445640.26560028;5696592.30649956;471.40754988;12336.000000;1.000000;1.000000;1.000000;1.000000;0.054143;-0.054143;0.054143;1.000000;0.192157;0.196078;0.164706
445640.42790039;5696592.00599869;471.43925001;8738.000000;1.000000;1.000000;1.000000;1.000000;0.105227;-0.105227;0.105227;1.000000;0.133333;0.141176;0.109804
445640.03190048;5696592.26859863;471.48504974;10280.000000;1.000000;1.000000;1.000000;1.000000;0.061414;-0.061414;0.061414;1.000000;0.152941;0.156863;0.172549
445640.20980270;5696592.50709923;471.45624973;44718.000000;1.000000;1.000000;1.000000;1.000000;0.104574;-0.104574;0.104574;1.000000;0.698039;0.686275;0.647059
445640.11180313;5696592.25700005;471.45125010;2056.000000;1.000000;1.000000;1.000000;1.000000;-0.087053;0.087053;-0.087053;1.000000;0.0235294;0.0352941;0.0666667
445640.14529999;5696592.30109985;471.42065002;22102.000000;1.000000;1.000000;1.000000;1.000000;-0.085929;0.085929;-0.085929;1.000000;0.352941;0.337255;0.321569
445640.03339966;5696592.29689987;471.45744993;8995.000000;1.000000;1.000000;1.000000;1.000000;0.033100;-0.033100;0.033100;1.000000;0.141176;0.137255;0.133333
445639.96660049;5696592.33119972;471.45484974;36751.000000;1.000000;1.000000;1.000000;1.000000;-0.004201;0.004201;-0.004201;1.000000;0.568627;0.564706;0.552941
445639.95460327;5696592.40459831;471.45755007;50629.000000;1.000000;1.000000;1.000000;1.000000;-0.074598;0.074598;-0.074598;1.000000;0.772549;0.776471;0.768627
445640.43530090;5696592.23959930;471.39344980;11822.000000;1.000000;1.000000;1.000000;1.000000;0.090493;-0.090493;0.090493;1.000000;0.188235;0.180392;0.164706
445640.10050018;5696592.46579941;471.46014978;39578.000000;1.000000;1.000000;1.000000;1.000000;0.067373;-0.067373;0.067373;1.000000;0.627451;0.603922;0.572549
445640.28680237;5696592.43750008;471.41704990;36237.000000;1.000000;1.000000;1.000000;1.000000;0.061122;-0.061122;0.061122;1.000000;0.568627;0.552941;0.517647
445640.07570084;5696592.41929825;471.44684984;29555.000000;1.000000;1.000000;1.000000;1.000000;0.042574;-0.042574;0.042574;1.000000;0.470588;0.45098;0.407843
445640.14330109;5696592.35499962;471.42114975;11565.000000;1.000000;1.000000;1.000000;1.000000;0.082789;-0.082789;0.082789;1.000000;0.2;0.172549;0.14902
445640.14480026;5696592.31989868;471.41855003;17219.000000;1.000000;1.000000;1.000000;1.000000;-0.081055;0.081055;-0.081055;1.000000;0.27451;0.262745;0.239216
445640.12010010;5696592.44769867;471.45384981;33410.000000;1.000000;1.000000;1.000000;1.000000;0.086973;-0.086973;0.086973;1.000000;0.541176;0.505882;0.458824
445639.96640213;5696592.28649910;471.47065022;10023.000000;1.000000;1.000000;1.000000;1.000000;0.043706;-0.043706;0.043706;1.000000;0.152941;0.156863;0.141176
445640.12390335;5696592.21829994;471.46525003;12593.000000;1.000000;1.000000;1.000000;1.000000;-0.126571;0.126571;-0.126571;1.000000;0.188235;0.192157;0.203922
445640.15770157;5696592.18009956;471.46635010;2570.000000;1.000000;1.000000;1.000000;1.000000;-0.176578;0.176578;-0.176578;1.000000;0.0352941;0.0392157;0.054902
445640.10790070;5696592.29989822;471.41895010;21074.000000;1.000000;1.000000;1.000000;1.000000;-0.052919;0.052919;-0.052919;1.000000;0.333333;0.32549;0.286275
445640.43880280;5696592.20189865;471.39314987;7196.000000;1.000000;1.000000;1.000000;1.000000;0.094324;-0.094324;0.094324;1.000000;0.105882;0.113725;0.113725
445640.47400101;5696592.20329865;471.39475014;26728.000000;1.000000;1.000000;1.000000;1.000000;0.059126;-0.059126;0.059126;1.000000;0.403922;0.411765;0.411765
445640.22110184;5696592.47129829;471.44004967;43433.000000;1.000000;1.000000;1.000000;1.000000;0.095458;-0.095458;0.095458;1.000000;0.678431;0.666667;0.623529
445640.23130234;5696592.23959930;471.40745022;45489.000000;1.000000;1.000000;1.000000;1.000000;0.122775;-0.122775;0.122775;1.000000;0.682353;0.701961;0.701961
445640.25910004;5696592.47489937;471.43485023;43690.000000;1.000000;1.000000;1.000000;1.000000;0.057774;-0.057774;0.057774;1.000000;0.682353;0.670588;0.627451
445640.00270279;5696592.34179886;471.45424988;34181.000000;1.000000;1.000000;1.000000;1.000000;-0.011799;0.011799;-0.011799;1.000000;0.529412;0.529412;0.47451
445640.11330231;5696592.39259918;471.43895008;18504.000000;1.000000;1.000000;1.000000;1.000000;0.079450;-0.079450;0.079450;1.000000;0.317647;0.278431;0.231373
445640.37780197;5696592.32889946;471.40354969;10023.000000;1.000000;1.000000;1.000000;1.000000;0.001101;-0.001101;0.001101;1.000000;0.160784;0.156863;0.113725
445640.38170059;5696592.21879967;471.40004971;5911.000000;1.000000;1.000000;1.000000;1.000000;0.111200;-0.111200;0.111200;1.000000;0.0941176;0.0901961;0.0862745
445640.00610168;5696592.30639847;471.46105005;20817.000000;1.000000;1.000000;1.000000;1.000000;0.023602;-0.023602;0.023602;1.000000;0.321569;0.321569;0.301961
445639.96820267;5696592.26729973;471.49604990;19275.000000;1.000000;1.000000;1.000000;1.000000;0.062747;-0.062747;0.062747;1.000000;0.294118;0.294118;0.294118
445639.93390091;5696592.22609909;471.49634983;21845.000000;1.000000;1.000000;1.000000;1.000000;0.104045;-0.104045;0.104045;1.000000;0.341176;0.329412;0.333333
445639.90699966;5696592.05509956;471.53274967;4883.000000;1.000000;1.000000;1.000000;1.000000;0.092623;-0.092623;0.092623;1.000000;0.0745098;0.0745098;0.0784314
445640.07240112;5696592.50079926;471.48264982;43176.000000;1.000000;1.000000;1.000000;1.000000;0.039274;-0.039274;0.039274;1.000000;0.67451;0.662745;0.627451
445639.96090134;5696592.45969971;471.48404982;24929.000000;1.000000;1.000000;1.000000;1.000000;-0.072226;0.072226;-0.072226;1.000000;0.392157;0.384314;0.360784
445640.08800323;5696592.17659958;471.50274994;11051.000000;1.000000;1.000000;1.000000;1.000000;-0.155209;0.155209;-0.155209;1.000000;0.172549;0.168627;0.164706
445639.99120148;5696592.42449959;471.46635010;40863.000000;1.000000;1.000000;1.000000;1.000000;-0.041925;0.041925;-0.041925;1.000000;0.631373;0.623529;0.607843
445640.04380234;5696592.24639900;471.48525002;17476.000000;1.000000;1.000000;1.000000;1.000000;0.083601;-0.083601;0.083601;1.000000;0.290196;0.266667;0.231373
445640.41310318;5696592.33029945;471.40044977;16448.000000;1.000000;1.000000;1.000000;1.000000;-0.000299;0.000299;-0.000299;1.000000;0.254902;0.254902;0.231373
445640.09959991;5696592.48449905;471.46735003;41120.000000;1.000000;1.000000;1.000000;1.000000;0.066473;-0.066473;0.066473;1.000000;0.643137;0.631373;0.596078
445640.50980194;5696592.50309952;471.43024971;46774.000000;1.000000;1.000000;1.000000;1.000000;-0.173100;0.173100;-0.173100;1.000000;0.737255;0.713725;0.670588
445640.51270111;5696592.39129837;471.39174988;34695.000000;1.000000;1.000000;1.000000;1.000000;-0.061298;0.061298;-0.061298;1.000000;0.545098;0.533333;0.486275
445640.47770126;5696592.31519897;471.38924982;17990.000000;1.000000;1.000000;1.000000;1.000000;0.014801;-0.014801;0.014801;1.000000;0.290196;0.278431;0.243137
445640.04689987;5696592.25849922;471.44135000;17476.000000;1.000000;1.000000;1.000000;1.000000;0.071501;-0.071501;0.071501;1.000000;0.286275;0.262745;0.239216
445640.37790115;5696592.48749931;471.41944983;40092.000000;1.000000;1.000000;1.000000;1.000000;-0.063684;0.063684;-0.063684;1.000000;0.643137;0.611765;0.552941
445640.05510147;5696592.42809875;471.45534994;34181.000000;1.000000;1.000000;1.000000;1.000000;0.021975;-0.021975;0.021975;1.000000;0.537255;0.52549;0.490196
445640.30320175;5696592.30769928;471.40684988;26985.000000;1.000000;1.000000;1.000000;1.000000;0.024944;-0.024944;0.024944;1.000000;0.419608;0.419608;0.372549
445640.16950043;5696592.35739906;471.41545012;10280.000000;1.000000;1.000000;1.000000;1.000000;0.108635;-0.108635;0.108635;1.000000;0.172549;0.156863;0.133333
445639.97480209;5696592.31869896;471.45505001;34695.000000;1.000000;1.000000;1.000000;1.000000;0.011301;-0.011301;0.011301;1.000000;0.529412;0.533333;0.513725
445639.93750198;5696592.31989868;471.45344975;10794.000000;1.000000;1.000000;1.000000;1.000000;0.010274;-0.010274;0.010274;1.000000;0.164706;0.168627;0.164706
445640.46770294;5696591.96239861;471.44985010;15163.000000;1.000000;1.000000;1.000000;1.000000;0.071563;-0.071563;0.071563;1.000000;0.231373;0.235294;0.219608
445640.44190033;5696592.12399872;471.42495014;4883.000000;1.000000;1.000000;1.000000;1.000000;0.091227;-0.091227;0.091227;1.000000;0.0627451;0.0784314;0.0941176
445639.99040039;5696592.41519936;471.46394970;28784.000000;1.000000;1.000000;1.000000;1.000000;-0.042727;0.042727;-0.042727;1.000000;0.447059;0.443137;0.423529
445640.14110001;5696592.20579918;471.41935017;14649.000000;1.000000;1.000000;1.000000;1.000000;-0.145987;0.145987;-0.145987;1.000000;0.227451;0.223529;0.219608
445640.00399979;5696592.36019905;471.46385004;38036.000000;1.000000;1.000000;1.000000;1.000000;-0.029127;0.029127;-0.029127;1.000000;0.6;0.580392;0.545098
445640.09390076;5696592.21129997;471.49414970;4626.000000;1.000000;1.000000;1.000000;1.000000;-0.122317;0.122317;-0.122317;1.000000;0.0745098;0.0705882;0.0823529
445640.46100052;5696592.10809906;471.43494989;5911.000000;1.000000;1.000000;1.000000;1.000000;0.072126;-0.072126;0.072126;1.000000;0.0784314;0.0941176;0.101961
445640.00470169;5696592.28339966;471.44434978;23130.000000;1.000000;1.000000;1.000000;1.000000;0.046600;-0.046600;0.046600;1.000000;0.372549;0.352941;0.333333
445640.04060181;5696592.34309967;471.44434978;32382.000000;1.000000;1.000000;1.000000;1.000000;0.007475;-0.007475;0.007475;1.000000;0.517647;0.490196;0.462745
445640.22920044;5696592.26779945;471.41004993;6168.000000;1.000000;1.000000;1.000000;1.000000;0.105470;-0.105470;0.105470;1.000000;0.0901961;0.0980392;0.0941176
445639.93920334;5696591.99619873;471.52414991;4112.000000;1.000000;1.000000;1.000000;1.000000;0.124826;-0.124826;0.124826;1.000000;0.0666667;0.0666667;0.0627451
445640.42970093;5696591.97999962;471.44834997;12079.000000;1.000000;1.000000;1.000000;1.000000;0.104056;-0.104056;0.104056;1.000000;0.180392;0.188235;0.180392
445639.92480286;5696592.02839859;471.49595024;14392.000000;1.000000;1.000000;1.000000;1.000000;0.110426;-0.110426;0.110426;1.000000;0.223529;0.227451;0.196078
445640.00460251;5696592.31359871;471.45634987;20817.000000;1.000000;1.000000;1.000000;1.000000;0.016401;-0.016401;0.016401;1.000000;0.329412;0.317647;0.301961
445640.39620026;5696592.51589973;471.43454983;38036.000000;1.000000;1.000000;1.000000;1.000000;-0.081823;0.081823;-0.081823;1.000000;0.603922;0.584314;0.529412
445639.93169983;5696592.31099899;471.46005013;4369.000000;1.000000;1.000000;1.000000;1.000000;0.020493;-0.020493;0.020493;1.000000;0.0666667;0.0705882;0.0705882
445639.96109970;5696592.48769959;471.48675014;38550.000000;1.000000;1.000000;1.000000;1.000000;-0.072027;0.072027;-0.072027;1.000000;0.6;0.592157;0.556863
445639.92970093;5696592.10499962;471.49475004;17476.000000;1.000000;1.000000;1.000000;1.000000;0.115324;-0.115324;0.115324;1.000000;0.270588;0.270588;0.25098
445639.96860321;5696592.26969917;471.49144985;17219.000000;1.000000;1.000000;1.000000;1.000000;0.060335;-0.060335;0.060335;1.000000;0.266667;0.266667;0.262745
445640.39999969;5696592.44129951;471.40354969;48316.000000;1.000000;1.000000;1.000000;1.000000;-0.099671;0.099671;-0.099671;1.000000;0.756863;0.737255;0.686275
445639.99630173;5696592.48909958;471.48605015;29041.000000;1.000000;1.000000;1.000000;1.000000;-0.036825;0.036825;-0.036825;1.000000;0.45098;0.447059;0.411765
445640.08990295;5696592.22169884;471.44745018;18761.000000;1.000000;1.000000;1.000000;1.000000;-0.111269;0.111269;-0.111269;1.000000;0.298039;0.286275;0.270588
445640.08230026;5696592.21459969;471.50064995;8224.000000;1.000000;1.000000;1.000000;1.000000;-0.116784;0.116784;-0.116784;1.000000;0.129412;0.12549;0.137255
445640.09900101;5696592.47529991;471.46254971;41891.000000;1.000000;1.000000;1.000000;1.000000;0.065874;-0.065874;0.065874;1.000000;0.654902;0.639216;0.607843
445640.15870102;5696592.27179916;471.42555000;17219.000000;1.000000;1.000000;1.000000;1.000000;-0.110835;0.110835;-0.110835;1.000000;0.258824;0.266667;0.254902
445640.15520294;5696592.23469933;471.42724993;11051.000000;1.000000;1.000000;1.000000;1.000000;-0.131649;0.131649;-0.131649;1.000000;0.172549;0.172549;0.14902
445640.34910019;5696592.51549919;471.44175007;46003.000000;1.000000;1.000000;1.000000;1.000000;-0.034723;0.034723;-0.034723;1.000000;0.721569;0.701961;0.662745
445640.43410309;5696592.51719864;471.42695000;32896.000000;1.000000;1.000000;1.000000;1.000000;-0.119726;0.119726;-0.119726;1.000000;0.52549;0.501961;0.443137
445640.51799973;5696592.29739960;471.39085009;14392.000000;1.000000;1.000000;1.000000;1.000000;0.015127;-0.015127;0.015127;1.000000;0.243137;0.219608;0.176471
445640.32380112;5696592.48539932;471.42154982;35209.000000;1.000000;1.000000;1.000000;1.000000;-0.011487;0.011487;-0.011487;1.000000;0.564706;0.541176;0.470588
445640.44410141;5696592.25749977;471.39174988;21845.000000;1.000000;1.000000;1.000000;1.000000;0.072500;-0.072500;0.072500;1.000000;0.34902;0.337255;0.294118
445640.30260284;5696592.32650002;471.40704967;25443.000000;1.000000;1.000000;1.000000;1.000000;0.012283;-0.012283;0.012283;1.000000;0.4;0.392157;0.34902
445640.12310226;5696592.16899879;471.48565008;6939.000000;1.000000;1.000000;1.000000;1.000000;-0.171377;0.171377;-0.171377;1.000000;0.105882;0.109804;0.109804
445640.03530319;5696592.23539932;471.49644997;21845.000000;1.000000;1.000000;1.000000;1.000000;0.094601;-0.094601;0.094601;1.000000;0.34902;0.337255;0.286275
445640.05460175;5696591.97849854;471.52215006;2056.000000;1.000000;1.000000;1.000000;1.000000;0.148499;0.148499;-0.148499;1.000000;0.0313725;0.0352941;0.0352941
445640.19320114;5696592.50630005;471.45785000;40092.000000;1.000000;1.000000;1.000000;1.000000;0.121176;-0.121176;0.121176;1.000000;0.627451;0.615686;0.576471
445639.90630157;5696592.04819878;471.53265001;5397.000000;1.000000;1.000000;1.000000;1.000000;0.091925;-0.091925;0.091925;1.000000;0.0862745;0.0823529;0.0862745
445640.16170319;5696592.18029984;471.42924978;22616.000000;1.000000;1.000000;1.000000;1.000000;-0.178557;0.178557;-0.178557;1.000000;0.345098;0.34902;0.356863
445640.51420029;5696592.38179977;471.39164974;33924.000000;1.000000;1.000000;1.000000;1.000000;-0.051800;0.051800;-0.051800;1.000000;0.537255;0.521569;0.478431
445640.02860077;5696592.36979874;471.45575001;33924.000000;1.000000;1.000000;1.000000;1.000000;-0.004526;0.004526;-0.004526;1.000000;0.537255;0.513725;0.490196
445639.90699966;5696592.05509956;471.53274967;4883.000000;1.000000;1.000000;1.000000;1.000000;0.092623;-0.092623;0.092623;1.000000;0.0745098;0.0745098;0.0784314
445640.03989990;5696592.38979919;471.45424988;30069.000000;1.000000;1.000000;1.000000;1.000000;0.006773;-0.006773;0.006773;1.000000;0.47451;0.458824;0.431373
445640.10980042;5696592.27169998;471.42105009;18247.000000;1.000000;1.000000;1.000000;1.000000;-0.073907;0.073907;-0.073907;1.000000;0.294118;0.27451;0.258824
445640.37110336;5696592.20799835;471.40415003;4626.000000;1.000000;1.000000;1.000000;1.000000;0.122080;-0.122080;0.122080;1.000000;0.0705882;0.0745098;0.0823529
445639.95790298;5696592.33889969;471.45685007;26214.000000;1.000000;1.000000;1.000000;1.000000;-0.008900;0.008900;-0.008900;1.000000;0.411765;0.4;0.396078
445640.43670090;5696592.43319901;471.40275003;50629.000000;1.000000;1.000000;1.000000;1.000000;-0.103234;0.103234;-0.103234;1.000000;0.792157;0.772549;0.729412
445639.91470154;5696592.00339897;471.51144983;11051.000000;1.000000;1.000000;1.000000;1.000000;0.100325;-0.100325;0.100325;1.000000;0.176471;0.168627;0.156863
445640.16920288;5696592.19339951;471.44605019;2313.000000;1.000000;1.000000;1.000000;1.000000;-0.172186;0.172186;-0.172186;1.000000;0.027451;0.0392157;0.0509804
445640.07720001;5696592.32599838;471.42714979;22873.000000;1.000000;1.000000;1.000000;1.000000;-0.013433;0.013433;-0.013433;1.000000;0.372549;0.34902;0.309804
445640.43940170;5696592.14309891;471.41575005;3598.000000;1.000000;1.000000;1.000000;1.000000;0.093725;-0.093725;0.093725;1.000000;0.0470588;0.0588235;0.0784314
445640.10900314;5696592.26239975;471.42084982;15420.000000;1.000000;1.000000;1.000000;1.000000;-0.081002;0.081002;-0.081002;1.000000;0.254902;0.235294;0.215686
445640.46800049;5696592.38839920;471.39204981;36494.000000;1.000000;1.000000;1.000000;1.000000;-0.058458;0.058458;-0.058458;1.000000;0.572549;0.560784;0.517647
445639.93600281;5696592.17899902;471.50754978;50115.000000;1.000000;1.000000;1.000000;1.000000;0.121977;-0.121977;0.121977;1.000000;0.768627;0.768627;0.74902
445640.16140182;5696592.37430008;471.42224981;16962.000000;1.000000;1.000000;1.000000;1.000000;0.106660;-0.106660;0.106660;1.000000;0.286275;0.254902;0.211765
445640.45080002;5696592.13970001;471.41394999;5911.000000;1.000000;1.000000;1.000000;1.000000;0.082327;-0.082327;0.082327;1.000000;0.0862745;0.0941176;0.105882
445639.93910034;5696592.33839996;471.45604994;8224.000000;1.000000;1.000000;1.000000;1.000000;-0.008405;0.008405;-0.008405;1.000000;0.129412;0.129412;0.121569
445640.12570007;5696592.29129990;471.41965010;19275.000000;1.000000;1.000000;1.000000;1.000000;-0.072514;0.072514;-0.072514;1.000000;0.305882;0.294118;0.266667
445639.97319992;5696592.30249985;471.45715000;8995.000000;1.000000;1.000000;1.000000;1.000000;0.027500;-0.027500;0.027500;1.000000;0.141176;0.141176;0.133333
445640.09710129;5696592.19459923;471.49405005;7967.000000;1.000000;1.000000;1.000000;1.000000;-0.139299;0.139299;-0.139299;1.000000;0.12549;0.12549;0.121569
445640.48650177;5696592.14799889;471.41795017;6682.000000;1.000000;1.000000;1.000000;1.000000;0.046625;-0.046625;0.046625;1.000000;0.101961;0.105882;0.109804
445640.34090240;5696592.49539955;471.42714979;43176.000000;1.000000;1.000000;1.000000;1.000000;-0.026525;0.026525;-0.026525;1.000000;0.682353;0.658824;0.607843
445640.08090027;5696592.22719963;471.45174982;12850.000000;1.000000;1.000000;1.000000;1.000000;-0.104120;0.104120;-0.104120;1.000000;0.211765;0.196078;0.184314
445640.04860123;5696592.21949966;471.53175022;3855.000000;1.000000;1.000000;1.000000;1.000000;0.110500;-0.110500;0.110500;1.000000;0.0666667;0.054902;0.0666667
445640.50730331;5696592.30769928;471.39055016;24929.000000;1.000000;1.000000;1.000000;1.000000;0.022301;-0.022301;0.022301;1.000000;0.403922;0.380392;0.345098
445640.05280121;5696592.26969917;471.43704988;21588.000000;1.000000;1.000000;1.000000;1.000000;0.060301;-0.060301;0.060301;1.000000;0.364706;0.321569;0.278431
445640.15710266;5696592.46769913;471.45344975;41634.000000;1.000000;1.000000;1.000000;1.000000;0.123976;-0.123976;0.123976;1.000000;0.654902;0.635294;0.592157
445640.41620071;5696592.49790009;471.42124989;46260.000000;1.000000;1.000000;1.000000;1.000000;-0.101824;0.101824;-0.101824;1.000000;0.729412;0.705882;0.643137
445639.94740112;5696592.33049973;471.46324970;14135.000000;1.000000;1.000000;1.000000;1.000000;-0.000500;0.000500;-0.000500;1.000000;0.231373;0.215686;0.207843
445640.04470261;5696592.24659927;471.46665003;21845.000000;1.000000;1.000000;1.000000;1.000000;0.083401;-0.083401;0.083401;1.000000;0.352941;0.337255;0.282353
445639.96010025;5696592.44819839;471.47924997;27499.000000;1.000000;1.000000;1.000000;1.000000;-0.073027;0.073027;-0.073027;1.000000;0.427451;0.423529;0.4
445639.89410217;5696592.02419861;471.49454977;6425.000000;1.000000;1.000000;1.000000;1.000000;0.079725;-0.079725;0.079725;1.000000;0.101961;0.101961;0.0862745
445640.49310120;5696592.02799995;471.43774988;57825.000000;1.000000;1.000000;1.000000;1.000000;0.040026;-0.040026;0.040026;1.000000;0.886275;0.886275;0.858824
445640.00030334;5696592.45150002;471.47644999;42662.000000;1.000000;1.000000;1.000000;1.000000;-0.032824;0.032824;-0.032824;1.000000;0.654902;0.654902;0.627451
445640.13930328;5696592.20529945;471.45884993;5654.000000;1.000000;1.000000;1.000000;1.000000;-0.145479;0.145479;-0.145479;1.000000;0.0823529;0.0862745;0.0980392
445640.08160217;5696592.25079926;471.43345024;14135.000000;1.000000;1.000000;1.000000;1.000000;-0.081052;0.081052;-0.081052;1.000000;0.235294;0.215686;0.184314
445640.45870026;5696592.14839943;471.41204979;7967.000000;1.000000;1.000000;1.000000;1.000000;0.074427;-0.074427;0.074427;1.000000;0.117647;0.12549;0.133333
445640.47710236;5696592.12769897;471.42894985;4626.000000;1.000000;1.000000;1.000000;1.000000;0.056025;-0.056025;0.056025;1.000000;0.0666667;0.0705882;0.0862745
445640.13410004;5696592.35809906;471.42544987;11308.000000;1.000000;1.000000;1.000000;1.000000;0.075172;-0.075172;0.075172;1.000000;0.203922;0.168627;0.133333
445640.06350143;5696592.25709923;471.43274977;17733.000000;1.000000;1.000000;1.000000;1.000000;-0.072901;0.072901;-0.072901;1.000000;0.290196;0.266667;0.239216
445639.97640045;5696592.31159981;471.45505001;25186.000000;1.000000;1.000000;1.000000;1.000000;0.018400;-0.018400;0.018400;1.000000;0.384314;0.388235;0.368627
445640.11710175;5696592.29909904;471.41935017;22873.000000;1.000000;1.000000;1.000000;1.000000;-0.061113;0.061113;-0.061113;1.000000;0.364706;0.34902;0.309804
445640.11580093;5696592.33649834;471.42205002;11308.000000;1.000000;1.000000;1.000000;1.000000;0.051833;-0.051833;0.051833;1.000000;0.203922;0.168627;0.12549
445640.10370071;5696592.16819962;471.49875023;10537.000000;1.000000;1.000000;1.000000;1.000000;-0.166510;0.166510;-0.166510;1.000000;0.160784;0.160784;0.164706
445640.04590042;5696592.46139915;471.46934988;34952.000000;1.000000;1.000000;1.000000;1.000000;0.012774;-0.012774;0.012774;1.000000;0.545098;0.537255;0.498039
445639.96389969;5696592.40379913;471.45795013;49858.000000;1.000000;1.000000;1.000000;1.000000;-0.069227;0.069227;-0.069227;1.000000;0.764706;0.764706;0.752941
445640.19930084;5696592.30089958;471.41604998;5140.000000;1.000000;1.000000;1.000000;1.000000;0.118699;-0.118699;0.118699;1.000000;0.0862745;0.0823529;0.0666667
445640.04050262;5696592.37099846;471.45405008;35723.000000;1.000000;1.000000;1.000000;1.000000;0.007376;-0.007376;0.007376;1.000000;0.564706;0.545098;0.509804
445639.92510040;5696592.18929871;471.51184990;46774.000000;1.000000;1.000000;1.000000;1.000000;0.112420;-0.112420;0.112420;1.000000;0.721569;0.713725;0.705882
445640.08180054;5696592.29759987;471.42234995;18761.000000;1.000000;1.000000;1.000000;1.000000;-0.036788;0.036788;-0.036788;1.000000;0.309804;0.282353;0.254902
445640.11840256;5696592.26389893;471.42135002;13878.000000;1.000000;1.000000;1.000000;1.000000;-0.085371;0.085371;-0.085371;1.000000;0.227451;0.211765;0.2
445640.10740097;5696592.49529846;471.47244980;35209.000000;1.000000;1.000000;1.000000;1.000000;0.074274;-0.074274;0.074274;1.000000;0.552941;0.541176;0.505882
445639.90640076;5696592.03009995;471.49284985;20560.000000;1.000000;1.000000;1.000000;1.000000;0.092024;-0.092024;0.092024;1.000000;0.321569;0.313725;0.298039
445639.94709976;5696592.22459991;471.51095011;15677.000000;1.000000;1.000000;1.000000;1.000000;0.105400;-0.105400;0.105400;1.000000;0.254902;0.231373;0.243137
445640.16780289;5696592.20059975;471.43914988;7453.000000;1.000000;1.000000;1.000000;1.000000;-0.165654;0.165654;-0.165654;1.000000;0.109804;0.117647;0.117647
445640.05780228;5696592.15829857;471.51284983;44461.000000;1.000000;1.000000;1.000000;1.000000;-0.171701;0.171701;-0.171701;1.000000;0.678431;0.682353;0.678431
445640.51740082;5696592.51159866;471.43534996;46260.000000;1.000000;1.000000;1.000000;1.000000;-0.181599;0.181599;-0.181599;1.000000;0.721569;0.705882;0.666667
445640.48370178;5696592.43589981;471.40264990;49601.000000;1.000000;1.000000;1.000000;1.000000;-0.105900;0.105900;-0.105900;1.000000;0.772549;0.756863;0.717647
445640.19200333;5696592.32259949;471.41365005;13621.000000;1.000000;1.000000;1.000000;1.000000;0.122597;-0.122597;0.122597;1.000000;0.215686;0.211765;0.196078
445640.41590317;5696592.28339966;471.39774992;55769.000000;1.000000;1.000000;1.000000;1.000000;0.046600;-0.046600;0.046600;1.000000;0.858824;0.854902;0.815686
445640.37820251;5696592.28219994;471.40065004;42405.000000;1.000000;1.000000;1.000000;1.000000;0.047800;-0.047800;0.047800;1.000000;0.65098;0.654902;0.615686
445640.36260040;5696592.21589859;471.40154984;3341.000000;1.000000;1.000000;1.000000;1.000000;0.114101;-0.114101;0.114101;1.000000;0.0509804;0.054902;0.054902
445640.39560135;5696592.29229935;471.39925005;46774.000000;1.000000;1.000000;1.000000;1.000000;0.037701;-0.037701;0.037701;1.000000;0.717647;0.721569;0.682353
445640.39910324;5696592.25459869;471.39895012;23387.000000;1.000000;1.000000;1.000000;1.000000;0.075410;-0.075410;0.075410;1.000000;0.364706;0.360784;0.317647
445640.34190186;5696592.24349983;471.40084984;9766.000000;1.000000;1.000000;1.000000;1.000000;0.086580;-0.086580;0.086580;1.000000;0.156863;0.152941;0.141176
445640.37950333;5696592.24469955;471.39794971;23130.000000;1.000000;1.000000;1.000000;1.000000;0.085300;-0.085300;0.085300;1.000000;0.364706;0.352941;0.32549
445640.41710098;5696592.24589928;471.39734985;16705.000000;1.000000;1.000000;1.000000;1.000000;0.084101;-0.084101;0.084101;1.000000;0.262745;0.258824;0.223529
445640.51080139;5696592.26999863;471.39024975;37522.000000;1.000000;1.000000;1.000000;1.000000;0.022326;-0.022326;0.022326;1.000000;0.580392;0.576471;0.545098
445640.48340042;5696591.99849899;471.43695023;15934.000000;1.000000;1.000000;1.000000;1.000000;0.049726;-0.049726;0.049726;1.000000;0.243137;0.25098;0.215686
445640.46490295;5696592.02589996;471.43645002;32896.000000;1.000000;1.000000;1.000000;1.000000;0.068224;-0.068224;0.068224;1.000000;0.498039;0.513725;0.458824
445639.92640121;5696592.00459869;471.51434996;7453.000000;1.000000;1.000000;1.000000;1.000000;0.112024;-0.112024;0.112024;1.000000;0.12549;0.113725;0.101961
445640.47730072;5696591.94269951;471.45704987;31354.000000;1.000000;1.000000;1.000000;1.000000;0.073984;-0.073984;0.073984;1.000000;0.478431;0.482353;0.466667
445639.98740204;5696592.49679955;471.49274971;31354.000000;1.000000;1.000000;1.000000;1.000000;-0.045725;0.045725;-0.045725;1.000000;0.486275;0.482353;0.45098
445640.06080063;5696592.50409897;471.48675014;43176.000000;1.000000;1.000000;1.000000;1.000000;0.027674;-0.027674;0.027674;1.000000;0.662745;0.666667;0.631373
445640.46600159;5696591.98839958;471.43844988;6939.000000;1.000000;1.000000;1.000000;1.000000;0.067203;-0.067203;0.067203;1.000000;0.105882;0.113725;0.0901961
445640.03059967;5696592.41629990;471.45645000;38293.000000;1.000000;1.000000;1.000000;1.000000;-0.002527;0.002527;-0.002527;1.000000;0.596078;0.588235;0.54902
445639.98490341;5696592.37850006;471.45855000;32896.000000;1.000000;1.000000;1.000000;1.000000;-0.048223;0.048223;-0.048223;1.000000;0.509804;0.505882;0.482353
445640.08670242;5696592.38329895;471.43995001;15677.000000;1.000000;1.000000;1.000000;1.000000;0.053576;-0.053576;0.053576;1.000000;0.258824;0.239216;0.196078
445639.98390015;5696592.34119995;471.45575001;25443.000000;1.000000;1.000000;1.000000;1.000000;-0.011200;0.011200;-0.011200;1.000000;0.392157;0.396078;0.356863
445639.94980057;5696592.30229958;471.45604994;10280.000000;1.000000;1.000000;1.000000;1.000000;0.027700;-0.027700;0.027700;1.000000;0.156863;0.160784;0.145098
445639.95150192;5696592.26190002;471.49064972;23901.000000;1.000000;1.000000;1.000000;1.000000;0.068100;-0.068100;0.068100;1.000000;0.364706;0.364706;0.364706
445639.91530045;5696592.22549828;471.49324991;43947.000000;1.000000;1.000000;1.000000;1.000000;0.104502;-0.104502;0.104502;1.000000;0.682353;0.670588;0.670588
445640.48290070;5696592.48249825;471.41244986;48316.000000;1.000000;1.000000;1.000000;1.000000;-0.152498;0.152498;-0.152498;1.000000;0.768627;0.737255;0.686275
445640.04400070;5696592.27969940;471.44605019;14135.000000;1.000000;1.000000;1.000000;1.000000;0.050301;-0.050301;0.050301;1.000000;0.239216;0.207843;0.196078
445639.96880157;5696592.23639877;471.52134993;10537.000000;1.000000;1.000000;1.000000;1.000000;0.093619;-0.093619;0.093619;1.000000;0.164706;0.160784;0.164706
445640.00660141;5696592.23999985;471.52075006;24158.000000;1.000000;1.000000;1.000000;1.000000;0.090000;-0.090000;0.090000;1.000000;0.380392;0.372549;0.345098
445640.10180099;5696592.19419868;471.49195005;8995.000000;1.000000;1.000000;1.000000;1.000000;-0.140864;0.140864;-0.140864;1.000000;0.141176;0.137255;0.141176
445639.90500076;5696592.00859840;471.53204967;9252.000000;1.000000;1.000000;1.000000;1.000000;0.090624;-0.090624;0.090624;1.000000;0.14902;0.141176;0.137255
445640.33320053;5696592.45889862;471.41704990;29555.000000;1.000000;1.000000;1.000000;1.000000;-0.038125;0.038125;-0.038125;1.000000;0.470588;0.454902;0.392157
445640.28310211;5696592.34229858;471.40644981;32896.000000;1.000000;1.000000;1.000000;1.000000;-0.033606;0.033606;-0.033606;1.000000;0.513725;0.509804;0.462745
445639.93850143;5696592.12519844;471.49534990;17990.000000;1.000000;1.000000;1.000000;1.000000;0.124125;-0.124125;0.124125;1.000000;0.27451;0.278431;0.258824
445640.52350052;5696592.35299881;471.38474991;44718.000000;1.000000;1.000000;1.000000;1.000000;0.022999;-0.022999;0.022999;1.000000;0.709804;0.682353;0.635294
445640.14100082;5696592.19809921;471.45884993;6682.000000;1.000000;1.000000;1.000000;1.000000;-0.152542;0.152542;-0.152542;1.000000;0.101961;0.101961;0.109804
445640.02480133;5696592.30469902;471.45715000;15163.000000;1.000000;1.000000;1.000000;1.000000;0.025362;-0.025362;0.025362;1.000000;0.235294;0.235294;0.223529
445640.09090240;5696592.26349838;471.46194984;3855.000000;1.000000;1.000000;1.000000;1.000000;-0.071597;0.071597;-0.071597;1.000000;0.0509804;0.0627451;0.0784314
445640.17670258;5696592.23749931;471.42135002;3598.000000;1.000000;1.000000;1.000000;1.000000;-0.145511;0.145511;-0.145511;1.000000;0.0509804;0.0588235;0.0588235
445640.31509979;5696592.43739899;471.41134979;35209.000000;1.000000;1.000000;1.000000;1.000000;-0.054768;0.054768;-0.054768;1.000000;0.552941;0.541176;0.490196
445640.02020081;5696592.37990006;471.45554974;30069.000000;1.000000;1.000000;1.000000;1.000000;-0.012926;0.012926;-0.012926;1.000000;0.478431;0.458824;0.439216
445640.08189972;5696592.46749886;471.46164991;44975.000000;1.000000;1.000000;1.000000;1.000000;0.048773;-0.048773;0.048773;1.000000;0.698039;0.686275;0.654902
445640.06110199;5696592.23309906;471.49055006;18504.000000;1.000000;1.000000;1.000000;1.000000;-0.096901;0.096901;-0.096901;1.000000;0.294118;0.282353;0.254902
445639.93290146;5696592.08839996;471.49235012;20046.000000;1.000000;1.000000;1.000000;1.000000;0.118525;-0.118525;0.118525;1.000000;0.317647;0.305882;0.286275
445640.39840134;5696592.48089989;471.41795017;36494.000000;1.000000;1.000000;1.000000;1.000000;-0.084760;0.084760;-0.084760;1.000000;0.580392;0.556863;0.498039
445640.18350037;5696592.28359993;471.41984989;41634.000000;1.000000;1.000000;1.000000;1.000000;-0.127841;0.127841;-0.127841;1.000000;0.627451;0.643137;0.643137
445640.51700027;5696592.33489998;471.38665010;38293.000000;1.000000;1.000000;1.000000;1.000000;-0.004900;0.004900;-0.004900;1.000000;0.611765;0.584314;0.541176
445640.00760086;5696592.42529877;471.46715023;23387.000000;1.000000;1.000000;1.000000;1.000000;-0.025526;0.025526;-0.025526;1.000000;0.372549;0.360784;0.32549
445640.35870178;5696592.51470001;471.43514969;50886.000000;1.000000;1.000000;1.000000;1.000000;-0.044325;0.044325;-0.044325;1.000000;0.8;0.776471;0.729412
445640.44140060;5696592.33239944;471.39944984;35723.000000;1.000000;1.000000;1.000000;1.000000;-0.002399;0.002399;-0.002399;1.000000;0.54902;0.54902;0.52549
445640.33469971;5696592.21609886;471.40024998;8224.000000;1.000000;1.000000;1.000000;1.000000;0.113901;-0.113901;0.113901;1.000000;0.117647;0.129412;0.137255
445640.14090164;5696592.20339973;471.41925003;11051.000000;1.000000;1.000000;1.000000;1.000000;-0.147931;0.147931;-0.147931;1.000000;0.180392;0.168627;0.168627
445640.00580032;5696592.30399902;471.46324970;20817.000000;1.000000;1.000000;1.000000;1.000000;0.026001;-0.026001;0.026001;1.000000;0.321569;0.321569;0.298039
445640.31660278;5696592.40219887;471.40864994;16705.000000;1.000000;1.000000;1.000000;1.000000;-0.072199;0.072199;-0.072199;1.000000;0.27451;0.254902;0.207843
445639.93029984;5696592.29929932;471.46684982;8224.000000;1.000000;1.000000;1.000000;1.000000;0.032014;-0.032014;0.032014;1.000000;0.12549;0.12549;0.129412
445640.24470337;5696592.35979851;471.41184999;21074.000000;1.000000;1.000000;1.000000;1.000000;-0.075778;0.075778;-0.075778;1.000000;0.333333;0.32549;0.290196
445639.96980103;5696592.26239975;471.50075008;18761.000000;1.000000;1.000000;1.000000;1.000000;0.067605;-0.067605;0.067605;1.000000;0.290196;0.286275;0.282353
