//X;Y;Z;Intensity;Return Number;Number Of Returns;Scan Direction Flag;Point Source ID;C2M signed distances[-][<0.8];C2M signed distances[<0.4];C2M signed distances[-][<0.2];Stump45;Rf;Gf;Bf
300
445616.34520157;5696570.35709961;472.34795000;25443.000000;1.000000;1.000000;1.000000;1.000000;-0.027103;0.027103;-0.027103;1.000000;0.388235;0.4;0.352941
445616.45180138;5696570.39629944;472.34625008;47288.000000;1.000000;1.000000;1.000000;1.000000;0.079392;-0.079392;0.079392;1.000000;0.721569;0.72549;0.705882
445616.45070084;5696570.43599899;472.34905006;12336.000000;1.000000;1.000000;1.000000;1.000000;0.114229;-0.114229;0.114229;1.000000;0.196078;0.192157;0.180392
445616.44460114;5696570.36889847;472.34565022;37522.000000;1.000000;1.000000;1.000000;1.000000;0.053324;-0.053324;0.053324;1.000000;0.584314;0.576471;0.541176
445616.48250206;5696570.37239845;472.34275009;25700.000000;1.000000;1.000000;1.000000;1.000000;0.085611;-0.085611;0.085611;1.000000;0.403922;0.396078;0.356863
445616.28280075;5696570.26169975;472.39524986;25957.000000;1.000000;1.000000;1.000000;1.000000;0.062826;-0.062826;0.062826;1.000000;0.380392;0.403922;0.415686
445616.35000237;5696570.41249855;472.35584976;50629.000000;1.000000;1.000000;1.000000;1.000000;-0.082499;0.082499;-0.082499;1.000000;0.772549;0.780392;0.760784
445616.34730156;5696570.48519905;472.35895016;12336.000000;1.000000;1.000000;1.000000;1.000000;-0.155199;0.155199;-0.155199;1.000000;0.188235;0.196078;0.176471
445616.34390076;5696570.52289970;472.35685017;25443.000000;1.000000;1.000000;1.000000;1.000000;-0.192907;0.192907;-0.192907;1.000000;0.4;0.392157;0.345098
445616.48220070;5696570.34219940;472.33774998;35209.000000;1.000000;1.000000;1.000000;1.000000;0.075072;-0.075072;0.075072;1.000000;0.541176;0.541176;0.505882
445616.50580223;5696570.24199875;472.33295013;27242.000000;1.000000;1.000000;1.000000;1.000000;-0.131471;0.131471;-0.131471;1.000000;0.431373;0.419608;0.360784
445616.46800240;5696570.24069984;472.33815004;41120.000000;1.000000;1.000000;1.000000;1.000000;-0.107516;0.107516;-0.107516;1.000000;0.635294;0.635294;0.588235
445616.42930229;5696570.27469929;472.33454992;19789.000000;1.000000;1.000000;1.000000;1.000000;-0.059216;0.059216;-0.059216;1.000000;0.313725;0.305882;0.27451
445616.43020065;5696570.31189926;472.33964970;57568.000000;1.000000;1.000000;1.000000;1.000000;-0.028546;0.028546;-0.028546;1.000000;0.878431;0.882353;0.858824
445616.46360214;5696570.31599911;472.33185007;58853.000000;1.000000;1.000000;1.000000;1.000000;-0.057215;0.057215;-0.057215;1.000000;0.901961;0.901961;0.878431
445616.50210197;5696570.35439880;472.33645012;21331.000000;1.000000;1.000000;1.000000;1.000000;0.097091;-0.097091;0.097091;1.000000;0.337255;0.329412;0.290196
445616.51990135;5696570.37139900;472.33974983;30840.000000;1.000000;1.000000;1.000000;1.000000;0.119195;-0.119195;0.119195;1.000000;0.478431;0.47451;0.431373
445616.40240105;5696570.24649914;472.35395004;47545.000000;1.000000;1.000000;1.000000;1.000000;-0.056774;-0.056774;0.056774;1.000000;0.72549;0.729412;0.705882
445616.36590202;5696570.28259857;472.35734989;21331.000000;1.000000;1.000000;1.000000;1.000000;-0.020275;-0.020275;0.020275;1.000000;0.329412;0.329412;0.309804
445616.46940239;5696570.23119934;472.34044983;56540.000000;1.000000;1.000000;1.000000;1.000000;-0.116259;0.116259;-0.116259;1.000000;0.866667;0.870588;0.827451
445616.50490196;5696570.23269852;472.33274986;43176.000000;1.000000;1.000000;1.000000;1.000000;-0.137233;0.137233;-0.137233;1.000000;0.67451;0.666667;0.607843
445616.42950066;5696570.30269917;472.33484985;52428.000000;1.000000;1.000000;1.000000;1.000000;-0.034672;0.034672;-0.034672;1.000000;0.803922;0.803922;0.784314
445616.50120171;5696570.34509857;472.33624985;30840.000000;1.000000;1.000000;1.000000;1.000000;0.094291;-0.094291;0.094291;1.000000;0.478431;0.47451;0.443137
445616.38730247;5696570.37669952;472.33614971;47031.000000;1.000000;1.000000;1.000000;1.000000;-0.046700;0.046700;-0.046700;1.000000;0.72549;0.721569;0.690196
445616.30920227;5696570.24289902;472.39155008;22616.000000;1.000000;1.000000;1.000000;1.000000;0.036425;-0.036425;0.036425;1.000000;0.329412;0.34902;0.368627
445616.38580139;5696570.24569901;472.35785009;50629.000000;1.000000;1.000000;1.000000;1.000000;-0.040174;-0.040174;0.040174;1.000000;0.776471;0.776471;0.756863
445616.38030251;5696570.28369911;472.35104992;14906.000000;1.000000;1.000000;1.000000;1.000000;-0.034676;-0.034676;0.034676;1.000000;0.235294;0.231373;0.211765
445616.33920105;5696570.39489944;472.35284998;47031.000000;1.000000;1.000000;1.000000;1.000000;-0.064949;0.064949;-0.064949;1.000000;0.713725;0.72549;0.701961
445616.49620064;5696570.24049957;472.33474972;30840.000000;1.000000;1.000000;1.000000;1.000000;-0.125568;0.125568;-0.125568;1.000000;0.486275;0.47451;0.419608
445616.45640190;5696570.31429871;472.33384993;59367.000000;1.000000;1.000000;1.000000;1.000000;-0.050764;0.050764;-0.050764;1.000000;0.905882;0.909804;0.886275
445616.41840179;5696570.31069954;472.33914997;51914.000000;1.000000;1.000000;1.000000;1.000000;-0.021865;0.021865;-0.021865;1.000000;0.792157;0.796078;0.772549
445616.49250229;5696570.35289963;472.33824970;27756.000000;1.000000;1.000000;1.000000;1.000000;0.087428;-0.087428;0.087428;1.000000;0.435294;0.427451;0.388235
445616.32990082;5696570.28099926;472.37435009;27242.000000;1.000000;1.000000;1.000000;1.000000;0.015726;-0.015726;0.015726;1.000000;0.407843;0.423529;0.419608
445616.36200150;5696570.35799892;472.33944990;40092.000000;1.000000;1.000000;1.000000;1.000000;-0.027999;0.027999;-0.027999;1.000000;0.623529;0.615686;0.564706
445616.39590080;5696570.39459904;472.33904984;53970.000000;1.000000;1.000000;1.000000;1.000000;-0.064599;0.064599;-0.064599;1.000000;0.827451;0.827451;0.803922
445616.58850105;5696570.27409943;472.32774975;36751.000000;1.000000;1.000000;1.000000;1.000000;-0.188838;0.188838;-0.188838;1.000000;0.564706;0.568627;0.509804
445616.58740242;5696570.31159981;472.32574989;55512.000000;1.000000;1.000000;1.000000;1.000000;-0.180217;0.180217;-0.180217;1.000000;0.843137;0.854902;0.819608
445616.54970177;5696570.30809982;472.32634975;41891.000000;1.000000;1.000000;1.000000;1.000000;-0.143259;0.143259;-0.143259;1.000000;0.643137;0.647059;0.611765
445616.32140167;5696570.41039856;472.36385014;49858.000000;1.000000;1.000000;1.000000;1.000000;-0.080399;0.080399;-0.080399;1.000000;0.756863;0.768627;0.752941
445616.32480247;5696570.34469898;472.36095001;24415.000000;1.000000;1.000000;1.000000;1.000000;-0.014699;0.014699;-0.014699;1.000000;0.364706;0.384314;0.360784
445616.50180061;5696570.32409866;472.33134987;54227.000000;1.000000;1.000000;1.000000;1.000000;-0.093859;0.093859;-0.093859;1.000000;0.831373;0.831373;0.803922
445616.35740097;5696570.41429909;472.35155012;50372.000000;1.000000;1.000000;1.000000;1.000000;-0.084299;0.084299;-0.084299;1.000000;0.768627;0.776471;0.752941
445616.46990211;5696570.41779907;472.35204985;43947.000000;1.000000;1.000000;1.000000;1.000000;0.107354;-0.107354;0.107354;1.000000;0.670588;0.67451;0.658824
445616.31930168;5696570.48539932;472.35995008;34438.000000;1.000000;1.000000;1.000000;1.000000;-0.155399;0.155399;-0.155399;1.000000;0.537255;0.529412;0.490196
445616.35330208;5696570.52429970;472.35965015;22873.000000;1.000000;1.000000;1.000000;1.000000;-0.194300;0.194300;-0.194300;1.000000;0.356863;0.352941;0.313725
445616.44960220;5696570.26589973;472.33295013;21588.000000;1.000000;1.000000;1.000000;1.000000;-0.076348;0.076348;-0.076348;1.000000;0.341176;0.333333;0.301961
445616.33630188;5696570.29909904;472.37484982;49601.000000;1.000000;1.000000;1.000000;1.000000;0.009325;-0.009325;0.009325;1.000000;0.74902;0.764706;0.745098
445616.41060074;5696570.30209930;472.33864977;46774.000000;1.000000;1.000000;1.000000;1.000000;-0.028010;0.028010;-0.028010;1.000000;0.717647;0.717647;0.694118
445616.34010132;5696570.35509880;472.35244991;23387.000000;1.000000;1.000000;1.000000;1.000000;-0.025333;0.025333;-0.025333;1.000000;0.356863;0.364706;0.32549
445616.43360146;5696570.42599876;472.34585001;35209.000000;1.000000;1.000000;1.000000;1.000000;0.099321;-0.099321;0.099321;1.000000;0.537255;0.541176;0.517647
445616.49700172;5696570.22409924;472.33465006;52685.000000;1.000000;1.000000;1.000000;1.000000;-0.138252;0.138252;-0.138252;1.000000;0.815686;0.807843;0.752941
445616.45810135;5696570.25799950;472.33564999;21845.000000;1.000000;1.000000;1.000000;1.000000;-0.087644;0.087644;-0.087644;1.000000;0.345098;0.337255;0.294118
445616.45970161;5696570.40719898;472.34915020;48059.000000;1.000000;1.000000;1.000000;1.000000;0.092842;-0.092842;0.092842;1.000000;0.733333;0.741176;0.721569
445616.41930206;5696570.29429920;472.33664991;31868.000000;1.000000;1.000000;1.000000;1.000000;-0.037409;0.037409;-0.037409;1.000000;0.494118;0.490196;0.470588
445616.30610092;5696570.32529934;472.37144997;13878.000000;1.000000;1.000000;1.000000;1.000000;0.004747;-0.004747;0.004747;1.000000;0.196078;0.219608;0.223529
445616.45770081;5696570.33039864;472.33874990;38807.000000;1.000000;1.000000;1.000000;1.000000;0.049576;-0.049576;0.049576;1.000000;0.596078;0.596078;0.568627
445616.49330147;5696570.33419903;472.33344986;46774.000000;1.000000;1.000000;1.000000;1.000000;0.085278;-0.085278;0.085278;1.000000;0.721569;0.717647;0.686275
445616.33490189;5696570.30859955;472.37255003;46260.000000;1.000000;1.000000;1.000000;1.000000;0.010725;-0.010725;0.010725;1.000000;0.698039;0.717647;0.698039
445616.39370163;5696570.45289906;472.35365011;30840.000000;1.000000;1.000000;1.000000;1.000000;-0.122899;0.122899;-0.122899;1.000000;0.478431;0.47451;0.435294
445616.44700249;5696570.31509979;472.33575012;59624.000000;1.000000;1.000000;1.000000;1.000000;-0.041633;0.041633;-0.041633;1.000000;0.909804;0.913725;0.890196
445616.47910126;5696570.41689880;472.35475018;44975.000000;1.000000;1.000000;1.000000;1.000000;0.112200;-0.112200;0.112200;1.000000;0.686275;0.694118;0.678431
445616.53970154;5696570.32769974;472.32844975;38293.000000;1.000000;1.000000;1.000000;1.000000;-0.131595;0.131595;-0.131595;1.000000;0.584314;0.592157;0.560784
445616.32860191;5696570.48459919;472.35804989;21588.000000;1.000000;1.000000;1.000000;1.000000;-0.154599;0.154599;-0.154599;1.000000;0.337255;0.333333;0.298039
445616.35270126;5696570.31879910;472.36184980;24158.000000;1.000000;1.000000;1.000000;1.000000;-0.007074;0.007074;-0.007074;1.000000;0.364706;0.376471;0.337255
445616.37550171;5696570.43359955;472.35265018;29555.000000;1.000000;1.000000;1.000000;1.000000;0.103600;-0.103600;0.103600;1.000000;0.454902;0.454902;0.427451
445616.30110176;5696570.46609886;472.35895016;40606.000000;1.000000;1.000000;1.000000;1.000000;-0.136099;0.136099;-0.136099;1.000000;0.631373;0.627451;0.576471
445616.33760078;5696570.50479897;472.35634996;41120.000000;1.000000;1.000000;1.000000;1.000000;-0.174801;0.174801;-0.174801;1.000000;0.635294;0.631373;0.592157
445616.48300179;5696570.35139854;472.34014990;31097.000000;1.000000;1.000000;1.000000;1.000000;0.077873;-0.077873;0.077873;1.000000;0.486275;0.478431;0.439216
445616.49970062;5696570.41039856;472.35094978;53199.000000;1.000000;1.000000;1.000000;1.000000;0.121859;-0.121859;0.121859;1.000000;0.811765;0.819608;0.8
445616.38560112;5696570.44199951;472.35314991;26728.000000;1.000000;1.000000;1.000000;1.000000;-0.112000;0.112000;-0.112000;1.000000;0.415686;0.411765;0.372549
445616.34560211;5696570.51569946;472.35685017;27242.000000;1.000000;1.000000;1.000000;1.000000;-0.185699;0.185699;-0.185699;1.000000;0.423529;0.419608;0.376471
445616.38740166;5696570.40469940;472.34114983;37779.000000;1.000000;1.000000;1.000000;1.000000;-0.074699;0.074699;-0.074699;1.000000;0.580392;0.580392;0.552941
445616.35160072;5696570.40079887;472.34884979;51914.000000;1.000000;1.000000;1.000000;1.000000;-0.070799;0.070799;-0.070799;1.000000;0.792157;0.8;0.772549
445616.30000122;5696570.26949890;472.39144995;39835.000000;1.000000;1.000000;1.000000;1.000000;0.045626;-0.045626;0.045626;1.000000;0.596078;0.611765;0.623529
445616.37100227;5696570.31019981;472.35325005;14135.000000;1.000000;1.000000;1.000000;1.000000;-0.019800;0.019800;-0.019800;1.000000;0.219608;0.223529;0.192157
445616.33450134;5696570.34619911;472.35664989;25700.000000;1.000000;1.000000;1.000000;1.000000;-0.016199;0.016199;-0.016199;1.000000;0.392157;0.4;0.368627
445616.38320168;5696570.47009857;472.36275007;54484.000000;1.000000;1.000000;1.000000;1.000000;-0.140099;0.140099;-0.140099;1.000000;0.831373;0.839216;0.815686
445616.30680092;5696570.50289925;472.36194994;38036.000000;1.000000;1.000000;1.000000;1.000000;-0.172905;0.172905;-0.172905;1.000000;0.592157;0.584314;0.533333
445616.38410194;5696570.50729950;472.36784985;47288.000000;1.000000;1.000000;1.000000;1.000000;-0.177299;0.177299;-0.177299;1.000000;0.717647;0.729412;0.717647
445616.48000153;5696570.39829929;472.34754993;53456.000000;1.000000;1.000000;1.000000;1.000000;0.099150;-0.099150;0.099150;1.000000;0.819608;0.819608;0.796078
445616.59780128;5696570.27319916;472.32814981;41634.000000;1.000000;1.000000;1.000000;1.000000;-0.197997;0.197997;-0.197997;1.000000;0.639216;0.643137;0.588235
445616.48830231;5696570.23179920;472.33664991;51143.000000;1.000000;1.000000;1.000000;1.000000;-0.126773;0.126773;-0.126773;1.000000;0.792157;0.784314;0.733333
445616.33760078;5696570.26159866;472.37214996;13621.000000;1.000000;1.000000;1.000000;1.000000;0.008026;-0.008026;0.008026;1.000000;0.2;0.211765;0.211765
445616.49950226;5696570.38019951;472.34355022;37265.000000;1.000000;1.000000;1.000000;1.000000;0.104257;-0.104257;0.104257;1.000000;0.576471;0.572549;0.533333
445616.42320068;5696570.41529854;472.34524967;51657.000000;1.000000;1.000000;1.000000;1.000000;0.086620;-0.086620;0.086620;1.000000;0.788235;0.792157;0.768627
445616.29450233;5696570.37319954;472.36455013;56283.000000;1.000000;1.000000;1.000000;1.000000;-0.043200;0.043200;-0.043200;1.000000;0.847059;0.866667;0.858824
445616.29330070;5696570.40839966;472.36025002;23387.000000;1.000000;1.000000;1.000000;1.000000;-0.078400;0.078400;-0.078400;1.000000;0.356863;0.364706;0.341176
445616.32980164;5696570.44939907;472.36235001;27499.000000;1.000000;1.000000;1.000000;1.000000;-0.119399;0.119399;-0.119399;1.000000;0.419608;0.427451;0.4
445616.32500084;5696570.52219971;472.36065008;26214.000000;1.000000;1.000000;1.000000;1.000000;-0.192200;0.192200;-0.192200;1.000000;0.419608;0.403922;0.341176
445616.33610161;5696570.27109917;472.37214996;14392.000000;1.000000;1.000000;1.000000;1.000000;0.009525;-0.009525;0.009525;1.000000;0.211765;0.223529;0.223529
445616.40590103;5696570.37729843;472.33935024;31097.000000;1.000000;1.000000;1.000000;1.000000;0.047298;-0.047298;0.047298;1.000000;0.482353;0.478431;0.447059
445616.32800110;5696570.50329979;472.35825016;44975.000000;1.000000;1.000000;1.000000;1.000000;-0.173300;0.173300;-0.173300;1.000000;0.698039;0.694118;0.647059
445616.41280182;5696570.27619942;472.34075024;22102.000000;1.000000;1.000000;1.000000;1.000000;-0.054003;0.054003;-0.054003;1.000000;0.34902;0.341176;0.313725
445616.37040146;5696570.34779938;472.33974983;42919.000000;1.000000;1.000000;1.000000;1.000000;0.017799;-0.017799;0.017799;1.000000;0.666667;0.658824;0.611765
445616.36090096;5696570.32749947;472.35304977;21588.000000;1.000000;1.000000;1.000000;1.000000;0.002501;-0.002501;0.002501;1.000000;0.333333;0.341176;0.290196
445616.41320236;5696570.43259914;472.34495022;22616.000000;1.000000;1.000000;1.000000;1.000000;0.102725;-0.102725;0.102725;1.000000;0.352941;0.34902;0.317647
445616.55110176;5696570.27289970;472.32604982;26985.000000;1.000000;1.000000;1.000000;1.000000;-0.153955;0.153955;-0.153955;1.000000;0.423529;0.419608;0.368627
445616.28740128;5696570.37149914;472.36415007;42919.000000;1.000000;1.000000;1.000000;1.000000;-0.041499;0.041499;-0.041499;1.000000;0.639216;0.662745;0.658824
445616.35670097;5696570.48659904;472.36175014;21588.000000;1.000000;1.000000;1.000000;1.000000;-0.156599;0.156599;-0.156599;1.000000;0.32549;0.337255;0.32549
445616.31570061;5696570.52309902;472.36264994;21074.000000;1.000000;1.000000;1.000000;1.000000;-0.193099;0.193099;-0.193099;1.000000;0.341176;0.32549;0.266667
445616.39050110;5696570.52539928;472.36604979;28784.000000;1.000000;1.000000;1.000000;1.000000;-0.195399;0.195399;-0.195399;1.000000;0.435294;0.447059;0.439216
445616.52940186;5696570.34489925;472.33285000;40606.000000;1.000000;1.000000;1.000000;1.000000;0.122187;-0.122187;0.122187;1.000000;0.623529;0.627451;0.592157
445616.35870178;5696570.23639877;472.36814978;33410.000000;1.000000;1.000000;1.000000;1.000000;-0.013075;-0.013075;0.013075;1.000000;0.509804;0.513725;0.505882
445616.54350098;5696570.24319847;472.32765009;38293.000000;1.000000;1.000000;1.000000;1.000000;-0.160812;0.160812;-0.160812;1.000000;0.596078;0.592157;0.537255
445616.35520180;5696570.27179916;472.36375000;15420.000000;1.000000;1.000000;1.000000;1.000000;-0.009575;-0.009575;0.009575;1.000000;0.235294;0.239216;0.223529
445616.50470169;5696570.27719887;472.32634975;21331.000000;1.000000;1.000000;1.000000;1.000000;-0.110067;0.110067;-0.110067;1.000000;0.345098;0.329412;0.282353
445616.46700104;5696570.27599915;472.32924988;16705.000000;1.000000;1.000000;1.000000;1.000000;-0.079889;0.079889;-0.079889;1.000000;0.270588;0.258824;0.223529
445616.54250153;5696570.28069885;472.32574989;36494.000000;1.000000;1.000000;1.000000;1.000000;-0.143133;0.143133;-0.143133;1.000000;0.564706;0.564706;0.513725
445616.50370224;5696570.31699951;472.32674982;48830.000000;1.000000;1.000000;1.000000;1.000000;-0.096455;0.096455;-0.096455;1.000000;0.74902;0.752941;0.72549
445616.42220123;5696570.27539928;472.33654978;20817.000000;1.000000;1.000000;1.000000;1.000000;-0.056386;0.056386;-0.056386;1.000000;0.329412;0.321569;0.294118
445616.38000114;5696570.34929855;472.33785011;40606.000000;1.000000;1.000000;1.000000;1.000000;-0.019299;0.019299;-0.019299;1.000000;0.631373;0.627451;0.580392
445616.37860115;5696570.38449867;472.33815004;54741.000000;1.000000;1.000000;1.000000;1.000000;-0.054499;0.054499;-0.054499;1.000000;0.839216;0.839216;0.807843
445616.31420143;5696570.38309868;472.36324980;60138.000000;1.000000;1.000000;1.000000;1.000000;-0.053099;0.053099;-0.053099;1.000000;0.909804;0.92549;0.909804
445616.34710129;5696570.45939930;472.36324980;39835.000000;1.000000;1.000000;1.000000;1.000000;-0.129399;0.129399;-0.129399;1.000000;0.607843;0.615686;0.596078
445616.57160194;5696570.21729858;472.32625010;41120.000000;1.000000;1.000000;1.000000;1.000000;-0.198559;0.198559;-0.198559;1.000000;0.643137;0.635294;0.572549
445616.40910156;5696570.33949860;472.34604980;47545.000000;1.000000;1.000000;1.000000;1.000000;0.009548;-0.009548;0.009548;1.000000;0.737255;0.729412;0.694118
445616.56930168;5696570.29229935;472.32474997;31868.000000;1.000000;1.000000;1.000000;1.000000;-0.165525;0.165525;-0.165525;1.000000;0.490196;0.494118;0.45098
445616.60520180;5696570.32859905;472.32914974;26214.000000;1.000000;1.000000;1.000000;1.000000;-0.197080;0.197080;-0.197080;1.000000;0.4;0.411765;0.368627
445616.56780251;5696570.32739933;472.32744982;28527.000000;1.000000;1.000000;1.000000;1.000000;-0.159697;0.159697;-0.159697;1.000000;0.431373;0.443137;0.403922
445616.53010185;5696570.32619865;472.33034994;39064.000000;1.000000;1.000000;1.000000;1.000000;-0.122034;0.122034;-0.122034;1.000000;0.596078;0.603922;0.572549
445616.36440094;5696570.29209908;472.35745003;20560.000000;1.000000;1.000000;1.000000;1.000000;-0.018774;0.018774;-0.018774;1.000000;0.313725;0.317647;0.294118
445616.32430084;5696570.36349876;472.35874989;24415.000000;1.000000;1.000000;1.000000;1.000000;-0.033499;0.033499;-0.033499;1.000000;0.364706;0.380392;0.352941
445616.37390144;5696570.24439915;472.35955002;53970.000000;1.000000;1.000000;1.000000;1.000000;-0.028275;-0.028275;0.028275;1.000000;0.823529;0.827451;0.807843
445616.56090172;5696570.25329979;472.32625010;26985.000000;1.000000;1.000000;1.000000;1.000000;-0.170948;0.170948;-0.170948;1.000000;0.423529;0.419608;0.360784
445616.44920166;5696570.28469856;472.32854988;24672.000000;1.000000;1.000000;1.000000;1.000000;-0.061150;0.061150;-0.061150;1.000000;0.384314;0.380392;0.34902
445616.59720238;5696570.29199894;472.32835009;28270.000000;1.000000;1.000000;1.000000;1.000000;-0.192856;0.192856;-0.192856;1.000000;0.431373;0.439216;0.392157
445616.55980118;5696570.29079922;472.32424976;35466.000000;1.000000;1.000000;1.000000;1.000000;-0.156658;0.156658;-0.156658;1.000000;0.54902;0.54902;0.505882
445616.48450096;5696570.28609856;472.32544996;15420.000000;1.000000;1.000000;1.000000;1.000000;-0.088093;0.088093;-0.088093;1.000000;0.25098;0.239216;0.2
445616.33620079;5696570.32019909;472.36814978;33667.000000;1.000000;1.000000;1.000000;1.000000;0.009426;-0.009426;0.009426;1.000000;0.505882;0.52549;0.501961
445616.59600075;5696570.32939919;472.32875015;27756.000000;1.000000;1.000000;1.000000;1.000000;-0.187875;0.187875;-0.187875;1.000000;0.419608;0.435294;0.392157
445616.29510124;5696570.35439880;472.36434986;45489.000000;1.000000;1.000000;1.000000;1.000000;-0.024399;0.024399;-0.024399;1.000000;0.678431;0.701961;0.698039
445616.29410179;5696570.39189919;472.36245014;31354.000000;1.000000;1.000000;1.000000;1.000000;-0.061899;0.061899;-0.061899;1.000000;0.470588;0.486275;0.47451
445616.33030136;5696570.43059929;472.36455013;40092.000000;1.000000;1.000000;1.000000;1.000000;-0.100599;0.100599;-0.100599;1.000000;0.603922;0.619608;0.6
445616.36680229;5696570.46929939;472.36194994;52685.000000;1.000000;1.000000;1.000000;1.000000;-0.139299;0.139299;-0.139299;1.000000;0.803922;0.811765;0.792157
445616.38910110;5696570.34839924;472.34054996;37779.000000;1.000000;1.000000;1.000000;1.000000;-0.018399;0.018399;-0.018399;1.000000;0.588235;0.580392;0.537255
445616.38820084;5696570.38599976;472.33634998;55512.000000;1.000000;1.000000;1.000000;1.000000;-0.056000;0.056000;-0.056000;1.000000;0.85098;0.85098;0.823529
445616.36680229;5696570.24499901;472.36394979;52942.000000;1.000000;1.000000;1.000000;1.000000;-0.021175;-0.021175;0.021175;1.000000;0.807843;0.811765;0.8
445616.55140121;5696570.25189980;472.32574989;27756.000000;1.000000;1.000000;1.000000;1.000000;-0.163178;0.163178;-0.163178;1.000000;0.439216;0.431373;0.372549
445616.51620110;5696570.25269897;472.33115007;26214.000000;1.000000;1.000000;1.000000;1.000000;-0.132874;0.132874;-0.132874;1.000000;0.423529;0.403922;0.34902
445616.36340149;5696570.28269966;472.36194994;18504.000000;1.000000;1.000000;1.000000;1.000000;-0.017775;-0.017775;0.017775;1.000000;0.286275;0.286275;0.270588
445616.55020149;5696570.28929909;472.32614996;31611.000000;1.000000;1.000000;1.000000;1.000000;-0.147790;0.147790;-0.147790;1.000000;0.490196;0.490196;0.45098
445616.58800133;5696570.29289921;472.32555010;27242.000000;1.000000;1.000000;1.000000;1.000000;-0.183661;0.183661;-0.183661;1.000000;0.419608;0.423529;0.380392
445616.47530182;5696570.28699883;472.32504990;12336.000000;1.000000;1.000000;1.000000;1.000000;-0.079759;0.079759;-0.079759;1.000000;0.2;0.188235;0.156863
445616.37080200;5696570.37589844;472.33774998;47802.000000;1.000000;1.000000;1.000000;1.000000;0.045898;-0.045898;0.045898;1.000000;0.737255;0.737255;0.698039
445616.51140221;5696570.32559975;472.32954981;50629.000000;1.000000;1.000000;1.000000;1.000000;-0.103369;0.103369;-0.103369;1.000000;0.776471;0.780392;0.74902
445616.58650215;5696570.32799919;472.32824995;28527.000000;1.000000;1.000000;1.000000;1.000000;-0.178386;0.178386;-0.178386;1.000000;0.431373;0.447059;0.411765
445616.28790100;5696570.35269936;472.36634972;56797.000000;1.000000;1.000000;1.000000;1.000000;-0.022699;0.022699;-0.022699;1.000000;0.85098;0.87451;0.87451
445616.32210167;5696570.39169891;472.36135008;55769.000000;1.000000;1.000000;1.000000;1.000000;-0.061699;0.061699;-0.061699;1.000000;0.847059;0.858824;0.843137
445616.32090195;5696570.42919930;472.36175014;27756.000000;1.000000;1.000000;1.000000;1.000000;-0.099199;0.099199;-0.099199;1.000000;0.423529;0.431373;0.407843
445616.35640152;5696570.43289955;472.36105015;48316.000000;1.000000;1.000000;1.000000;1.000000;-0.102900;0.102900;-0.102900;1.000000;0.737255;0.745098;0.72549
445616.35720070;5696570.46779926;472.36385014;42919.000000;1.000000;1.000000;1.000000;1.000000;-0.137799;0.137799;-0.137799;1.000000;0.654902;0.658824;0.643137
445616.46270187;5696570.38819893;472.34664967;35723.000000;1.000000;1.000000;1.000000;1.000000;0.079784;-0.079784;0.079784;1.000000;0.552941;0.54902;0.521569
445616.29840096;5696570.29779919;472.38245012;29298.000000;1.000000;1.000000;1.000000;1.000000;0.032201;-0.032201;0.032201;1.000000;0.435294;0.454902;0.470588
445616.36900146;5696570.41089924;472.34734966;44461.000000;1.000000;1.000000;1.000000;1.000000;0.080899;-0.080899;0.080899;1.000000;0.682353;0.686275;0.654902
445616.40390213;5696570.23709877;472.35384991;56026.000000;1.000000;1.000000;1.000000;1.000000;-0.058275;-0.058275;0.058275;1.000000;0.854902;0.858824;0.835294
445616.43080147;5696570.26749905;472.33684971;21845.000000;1.000000;1.000000;1.000000;1.000000;-0.066487;0.066487;-0.066487;1.000000;0.341176;0.337255;0.301961
445616.36740120;5696570.42259892;472.35444977;44461.000000;1.000000;1.000000;1.000000;1.000000;-0.092599;0.092599;-0.092599;1.000000;0.682353;0.682353;0.658824
445616.47760208;5696570.42639931;472.35484983;33153.000000;1.000000;1.000000;1.000000;1.000000;0.118826;-0.118826;0.118826;1.000000;0.505882;0.509804;0.501961
445616.32720192;5696570.49409874;472.35815002;34952.000000;1.000000;1.000000;1.000000;1.000000;-0.164099;0.164099;-0.164099;1.000000;0.541176;0.537255;0.501961
445616.31770142;5696570.27959927;472.38304998;46517.000000;1.000000;1.000000;1.000000;1.000000;0.027925;-0.027925;0.027925;1.000000;0.701961;0.713725;0.717647
445616.37180145;5696570.31949909;472.35344984;14906.000000;1.000000;1.000000;1.000000;1.000000;-0.010501;0.010501;-0.010501;1.000000;0.231373;0.235294;0.192157
445616.33300217;5696570.35569962;472.35675003;18761.000000;1.000000;1.000000;1.000000;1.000000;-0.025700;0.025700;-0.025700;1.000000;0.282353;0.294118;0.254902
445616.44180115;5696570.23839958;472.34394981;54484.000000;1.000000;1.000000;1.000000;1.000000;-0.096174;-0.096174;0.096174;1.000000;0.831373;0.839216;0.807843
445616.38090141;5696570.35859879;472.33794977;40606.000000;1.000000;1.000000;1.000000;1.000000;-0.028599;0.028599;-0.028599;1.000000;0.631373;0.627451;0.580392
445616.54270180;5696570.23399933;472.32754995;34952.000000;1.000000;1.000000;1.000000;1.000000;-0.165307;0.165307;-0.165307;1.000000;0.545098;0.541176;0.486275
445616.58030136;5696570.23519905;472.32455017;23901.000000;1.000000;1.000000;1.000000;1.000000;-0.196548;0.196548;-0.196548;1.000000;0.384314;0.372549;0.294118
445616.35670097;5696570.26229866;472.36364986;17990.000000;1.000000;1.000000;1.000000;1.000000;-0.011074;-0.011074;0.011074;1.000000;0.27451;0.278431;0.266667
445616.46870239;5696570.26879890;472.32924988;20303.000000;1.000000;1.000000;1.000000;1.000000;-0.086110;0.086110;-0.086110;1.000000;0.32549;0.309804;0.27451
445616.50400169;5696570.27029903;472.32614996;17733.000000;1.000000;1.000000;1.000000;1.000000;-0.112943;0.112943;-0.112943;1.000000;0.290196;0.27451;0.227451
445616.35550125;5696570.29979904;472.36404993;35980.000000;1.000000;1.000000;1.000000;1.000000;-0.009874;0.009874;-0.009874;1.000000;0.54902;0.556863;0.529412
445616.50300224;5696570.30779846;472.32424976;53970.000000;1.000000;1.000000;1.000000;1.000000;-0.097438;0.097438;-0.097438;1.000000;0.827451;0.827451;0.796078
445616.46530159;5696570.30649956;472.32725002;43947.000000;1.000000;1.000000;1.000000;1.000000;-0.061816;0.061816;-0.061816;1.000000;0.678431;0.67451;0.65098
445616.31450089;5696570.33629902;472.36494972;21588.000000;1.000000;1.000000;1.000000;1.000000;-0.006299;0.006299;-0.006299;1.000000;0.317647;0.341176;0.333333
445616.31340225;5696570.37379845;472.36305000;53970.000000;1.000000;1.000000;1.000000;1.000000;-0.043809;0.043809;-0.043809;1.000000;0.815686;0.831373;0.819608
445616.39970215;5696570.31239899;472.34294989;24929.000000;1.000000;1.000000;1.000000;1.000000;-0.017601;0.017601;-0.017601;1.000000;0.384314;0.388235;0.360784
445616.34850128;5696570.44989975;472.36324980;48316.000000;1.000000;1.000000;1.000000;1.000000;-0.119900;0.119900;-0.119900;1.000000;0.737255;0.745098;0.72549
445616.31100090;5696570.44649895;472.35914995;23130.000000;1.000000;1.000000;1.000000;1.000000;-0.116548;0.116548;-0.116548;1.000000;0.356863;0.356863;0.321569
445616.38110168;5696570.52399929;472.36555006;19018.000000;1.000000;1.000000;1.000000;1.000000;-0.193999;0.193999;-0.193999;1.000000;0.286275;0.298039;0.282353
445616.59690102;5696570.26399906;472.32795002;52685.000000;1.000000;1.000000;1.000000;1.000000;-0.199979;0.199979;-0.199979;1.000000;0.811765;0.811765;0.756863
445616.37930115;5696570.36579903;472.33564999;42405.000000;1.000000;1.000000;1.000000;1.000000;-0.035799;0.035799;-0.035799;1.000000;0.654902;0.654902;0.611765
445616.42800148;5696570.34239967;472.34695007;40606.000000;1.000000;1.000000;1.000000;1.000000;0.023425;-0.023425;0.023425;1.000000;0.627451;0.623529;0.592157
445616.52010162;5696570.34569939;472.33484985;34695.000000;1.000000;1.000000;1.000000;1.000000;0.113070;-0.113070;0.113070;1.000000;0.533333;0.533333;0.501961
445616.44110115;5696570.23139961;472.34614994;57825.000000;1.000000;1.000000;1.000000;1.000000;-0.095474;-0.095474;0.095474;1.000000;0.882353;0.890196;0.858824
445616.40110214;5696570.30289848;472.34285023;32639.000000;1.000000;1.000000;1.000000;1.000000;-0.027102;0.027102;-0.027102;1.000000;0.501961;0.501961;0.47451
445616.32850082;5696570.24359901;472.38084986;15677.000000;1.000000;1.000000;1.000000;1.000000;0.017126;-0.017126;0.017126;1.000000;0.231373;0.243137;0.254902
445616.44040115;5696570.24789913;472.34404995;35209.000000;1.000000;1.000000;1.000000;1.000000;-0.088217;0.088217;-0.088217;1.000000;0.541176;0.541176;0.505882
445616.36040123;5696570.36509903;472.33944990;36751.000000;1.000000;1.000000;1.000000;1.000000;-0.035099;0.035099;-0.035099;1.000000;0.568627;0.568627;0.521569
445616.40170105;5696570.28419884;472.34264996;21331.000000;1.000000;1.000000;1.000000;1.000000;-0.045801;0.045801;-0.045801;1.000000;0.337255;0.329412;0.305882
445616.43580063;5696570.32309921;472.34235003;44975.000000;1.000000;1.000000;1.000000;1.000000;-0.028521;0.028521;-0.028521;1.000000;0.690196;0.694118;0.666667
445616.40060242;5696570.32159908;472.34305002;24929.000000;1.000000;1.000000;1.000000;1.000000;-0.008401;0.008401;-0.008401;1.000000;0.384314;0.388235;0.352941
445616.47200211;5696570.36169918;472.34445002;33153.000000;1.000000;1.000000;1.000000;1.000000;0.071308;-0.071308;0.071308;1.000000;0.521569;0.509804;0.470588
445616.35810097;5696570.39329918;472.34434988;41377.000000;1.000000;1.000000;1.000000;1.000000;-0.063299;0.063299;-0.063299;1.000000;0.635294;0.639216;0.611765
445616.36840065;5696570.40399940;472.34495022;40349.000000;1.000000;1.000000;1.000000;1.000000;0.073999;-0.073999;0.073999;1.000000;0.615686;0.619608;0.596078
445616.43730171;5696570.34149940;472.34734966;37008.000000;1.000000;1.000000;1.000000;1.000000;0.031359;-0.031359;0.031359;1.000000;0.568627;0.568627;0.533333
445616.57910164;5696570.27269943;472.32494976;33924.000000;1.000000;1.000000;1.000000;1.000000;-0.180321;0.180321;-0.180321;1.000000;0.52549;0.52549;0.470588
445616.57790192;5696570.31009872;472.32534983;54741.000000;1.000000;1.000000;1.000000;1.000000;-0.170937;0.170937;-0.170937;1.000000;0.831373;0.843137;0.803922
445616.54030235;5696570.30889900;472.32824995;35980.000000;1.000000;1.000000;1.000000;1.000000;-0.133849;0.133849;-0.133849;1.000000;0.54902;0.556863;0.521569
445616.36230095;5696570.33919914;472.34625008;27242.000000;1.000000;1.000000;1.000000;1.000000;-0.009199;0.009199;-0.009199;1.000000;0.423529;0.423529;0.372549
445616.55950172;5696570.26279934;472.32625010;28527.000000;1.000000;1.000000;1.000000;1.000000;-0.165621;0.165621;-0.165621;1.000000;0.447059;0.443137;0.388235
445616.43630226;5696570.37909897;472.34305002;21331.000000;1.000000;1.000000;1.000000;1.000000;0.056609;-0.056609;0.056609;1.000000;0.337255;0.329412;0.298039
445616.50900085;5696570.38159950;472.34404995;37265.000000;1.000000;1.000000;1.000000;1.000000;0.113305;-0.113305;0.113305;1.000000;0.576471;0.572549;0.537255
445616.43260201;5696570.41669853;472.34795000;49601.000000;1.000000;1.000000;1.000000;1.000000;0.090087;-0.090087;0.090087;1.000000;0.760784;0.760784;0.741176
445616.36930092;5696570.38539894;472.33774998;47031.000000;1.000000;1.000000;1.000000;1.000000;0.055399;-0.055399;0.055399;1.000000;0.721569;0.721569;0.690196
445616.39760216;5696570.41529854;472.34404995;30326.000000;1.000000;1.000000;1.000000;1.000000;-0.085299;0.085299;-0.085299;1.000000;0.470588;0.466667;0.439216
445616.51510246;5696570.24109848;472.33104994;28013.000000;1.000000;1.000000;1.000000;1.000000;-0.139094;0.139094;-0.139094;1.000000;0.447059;0.431373;0.376471
445616.54160126;5696570.27149971;472.32555010;44461.000000;1.000000;1.000000;1.000000;1.000000;-0.145732;0.145732;-0.145732;1.000000;0.686275;0.686275;0.631373
445616.38480194;5696570.48859985;472.36534979;60909.000000;1.000000;1.000000;1.000000;1.000000;-0.158600;0.158600;-0.158600;1.000000;0.921569;0.937255;0.92549
445616.30970200;5696570.48389919;472.36184980;45489.000000;1.000000;1.000000;1.000000;1.000000;-0.153958;0.153958;-0.153958;1.000000;0.705882;0.698039;0.65098
445616.30860146;5696570.52369888;472.36464979;20560.000000;1.000000;1.000000;1.000000;1.000000;-0.193725;0.193725;-0.193725;1.000000;0.329412;0.317647;0.258824
445616.29940231;5696570.30709847;472.38025000;22616.000000;1.000000;1.000000;1.000000;1.000000;0.022902;-0.022902;0.022902;1.000000;0.329412;0.352941;0.364706
445616.48150070;5696570.38879974;472.34754993;47802.000000;1.000000;1.000000;1.000000;1.000000;0.094027;-0.094027;0.094027;1.000000;0.737255;0.733333;0.701961
445616.43890198;5696570.27619942;472.33264973;22873.000000;1.000000;1.000000;1.000000;1.000000;-0.061981;0.061981;-0.061981;1.000000;0.356863;0.352941;0.321569
445616.48750122;5696570.26939972;472.32774975;11051.000000;1.000000;1.000000;1.000000;1.000000;-0.099863;0.099863;-0.099863;1.000000;0.188235;0.168627;0.12549
445616.29440125;5696570.41999920;472.36044981;26728.000000;1.000000;1.000000;1.000000;1.000000;-0.089999;0.089999;-0.089999;1.000000;0.411765;0.415686;0.384314
445616.32850082;5696570.45889862;472.36004974;20560.000000;1.000000;1.000000;1.000000;1.000000;-0.128899;0.128899;-0.128899;1.000000;0.317647;0.321569;0.290196
445616.56040199;5696570.27209862;472.32415010;23387.000000;1.000000;1.000000;1.000000;1.000000;-0.162912;0.162912;-0.162912;1.000000;0.364706;0.364706;0.313725
445616.55910118;5696570.30949982;472.32684996;49858.000000;1.000000;1.000000;1.000000;1.000000;-0.152360;0.152360;-0.152360;1.000000;0.760784;0.768627;0.733333
445616.43750198;5696570.31359871;472.33764984;58853.000000;1.000000;1.000000;1.000000;1.000000;-0.033644;0.033644;-0.033644;1.000000;0.898039;0.901961;0.882353
445616.31220062;5696570.41129883;472.36345007;39321.000000;1.000000;1.000000;1.000000;1.000000;-0.081328;0.081328;-0.081328;1.000000;0.592157;0.607843;0.588235
445616.57770164;5696570.28209885;472.32504990;23644.000000;1.000000;1.000000;1.000000;1.000000;-0.176210;0.176210;-0.176210;1.000000;0.364706;0.368627;0.317647
445616.35400208;5696570.30929955;472.36415007;31868.000000;1.000000;1.000000;1.000000;1.000000;-0.008375;0.008375;-0.008375;1.000000;0.482353;0.494118;0.462745
445616.57650192;5696570.31959923;472.32534983;34695.000000;1.000000;1.000000;1.000000;1.000000;-0.168696;0.168696;-0.168696;1.000000;0.52549;0.541176;0.501961
445616.54120071;5696570.31819923;472.32844975;29041.000000;1.000000;1.000000;1.000000;1.000000;-0.133596;0.133596;-0.133596;1.000000;0.443137;0.45098;0.419608
445616.31540115;5696570.34559925;472.36284973;16962.000000;1.000000;1.000000;1.000000;1.000000;-0.015599;0.015599;-0.015599;1.000000;0.247059;0.270588;0.254902
445616.51140221;5696570.35349854;472.33684971;17990.000000;1.000000;1.000000;1.000000;1.000000;0.105915;-0.105915;0.105915;1.000000;0.282353;0.278431;0.239216
445616.48660095;5696570.26009949;472.32994987;12850.000000;1.000000;1.000000;1.000000;1.000000;-0.105092;0.105092;-0.105092;1.000000;0.223529;0.192157;0.145098
445616.29040154;5696570.28909882;472.38665010;23644.000000;1.000000;1.000000;1.000000;1.000000;0.040901;-0.040901;0.040901;1.000000;0.345098;0.364706;0.384314
445616.52330215;5696570.25209911;472.32914974;45489.000000;1.000000;1.000000;1.000000;1.000000;-0.139046;0.139046;-0.139046;1.000000;0.709804;0.698039;0.647059
445616.52230080;5696570.28959854;472.32494976;41634.000000;1.000000;1.000000;1.000000;1.000000;-0.121111;0.121111;-0.121111;1.000000;0.643137;0.639216;0.6
445616.55840118;5696570.32819946;472.32935001;30583.000000;1.000000;1.000000;1.000000;1.000000;-0.150285;0.150285;-0.150285;1.000000;0.462745;0.47451;0.439216
445616.52090080;5696570.32699974;472.32994987;44718.000000;1.000000;1.000000;1.000000;1.000000;-0.112814;0.112814;-0.112814;1.000000;0.686275;0.690196;0.658824
445616.43540199;5696570.36979874;472.34524967;31868.000000;1.000000;1.000000;1.000000;1.000000;0.048248;-0.048248;0.048248;1.000000;0.498039;0.486275;0.454902
445616.31410225;5696570.24249847;472.38714983;16448.000000;1.000000;1.000000;1.000000;1.000000;0.031525;-0.031525;0.031525;1.000000;0.235294;0.258824;0.278431
445616.41700180;5696570.39719971;472.34244968;47031.000000;1.000000;1.000000;1.000000;1.000000;0.067783;-0.067783;0.067783;1.000000;0.721569;0.721569;0.701961
445616.48930176;5696570.39739903;472.34795000;57054.000000;1.000000;1.000000;1.000000;1.000000;0.105508;-0.105508;0.105508;1.000000;0.870588;0.87451;0.85098
445616.43390091;5696570.40489967;472.34555008;49601.000000;1.000000;1.000000;1.000000;1.000000;0.079210;-0.079210;0.079210;1.000000;0.756863;0.760784;0.741176
445616.39660080;5696570.40379913;472.34154989;44204.000000;1.000000;1.000000;1.000000;1.000000;-0.073799;0.073799;-0.073799;1.000000;0.678431;0.678431;0.654902
445616.35890205;5696570.40249928;472.34684994;47031.000000;1.000000;1.000000;1.000000;1.000000;-0.072499;0.072499;-0.072499;1.000000;0.717647;0.721569;0.698039
445616.43080147;5696570.24639900;472.34585001;37008.000000;1.000000;1.000000;1.000000;1.000000;-0.085175;-0.085175;0.085175;1.000000;0.564706;0.572549;0.537255
445616.40470131;5696570.44269951;472.34705021;26471.000000;1.000000;1.000000;1.000000;1.000000;0.112700;-0.112700;0.112700;1.000000;0.415686;0.407843;0.368627
445616.44630249;5696570.30589874;472.33334972;49344.000000;1.000000;1.000000;1.000000;1.000000;-0.045147;0.045147;-0.045147;1.000000;0.756863;0.756863;0.737255
445616.32000168;5696570.25369843;472.38285019;18504.000000;1.000000;1.000000;1.000000;1.000000;0.025625;-0.025625;0.025625;1.000000;0.270588;0.290196;0.301961
445616.28310211;5696570.24289902;472.39974977;35466.000000;1.000000;1.000000;1.000000;1.000000;0.062525;-0.062525;0.062525;1.000000;0.52549;0.54902;0.552941
445616.39300163;5696570.29189880;472.34474995;23901.000000;1.000000;1.000000;1.000000;1.000000;0.038101;-0.038101;0.038101;1.000000;0.372549;0.368627;0.341176
445616.54210098;5696570.25269897;472.32774975;46003.000000;1.000000;1.000000;1.000000;1.000000;-0.154675;0.154675;-0.154675;1.000000;0.713725;0.709804;0.654902
445616.57970245;5696570.25389870;472.32474997;42662.000000;1.000000;1.000000;1.000000;1.000000;-0.187695;0.187695;-0.187695;1.000000;0.662745;0.658824;0.6
445616.57850082;5696570.29139908;472.32515003;27756.000000;1.000000;1.000000;1.000000;1.000000;-0.174692;0.174692;-0.174692;1.000000;0.427451;0.431373;0.388235
445616.38960083;5696570.32969864;472.34264996;28013.000000;1.000000;1.000000;1.000000;1.000000;0.000301;-0.000301;0.000301;1.000000;0.439216;0.431373;0.392157
445616.57720192;5696570.32889946;472.32784988;26728.000000;1.000000;1.000000;1.000000;1.000000;-0.169079;0.169079;-0.169079;1.000000;0.403922;0.415686;0.380392
445616.31400116;5696570.35509880;472.36284973;19275.000000;1.000000;1.000000;1.000000;1.000000;-0.025102;0.025102;-0.025102;1.000000;0.282353;0.305882;0.294118
445616.31280144;5696570.39249905;472.36324980;59367.000000;1.000000;1.000000;1.000000;1.000000;-0.062519;0.062519;-0.062519;1.000000;0.898039;0.913725;0.894118
445616.34910210;5696570.43119915;472.36305000;52942.000000;1.000000;1.000000;1.000000;1.000000;-0.101199;0.101199;-0.101199;1.000000;0.803922;0.815686;0.796078
445616.42700203;5696570.33079918;472.34674980;47545.000000;1.000000;1.000000;1.000000;1.000000;0.018892;-0.018892;0.018892;1.000000;0.729412;0.729412;0.698039
445616.29080208;5696570.27029903;472.39104988;30583.000000;1.000000;1.000000;1.000000;1.000000;0.054825;-0.054825;0.054825;1.000000;0.454902;0.470588;0.486275
445616.36380203;5696570.31079872;472.35764982;17476.000000;1.000000;1.000000;1.000000;1.000000;-0.018175;0.018175;-0.018175;1.000000;0.270588;0.27451;0.239216
445616.50330170;5696570.28669937;472.32404997;27499.000000;1.000000;1.000000;1.000000;1.000000;-0.104562;0.104562;-0.104562;1.000000;0.431373;0.423529;0.380392
445616.52790077;5696570.35429962;472.33524992;23130.000000;1.000000;1.000000;1.000000;1.000000;0.122214;-0.122214;0.122214;1.000000;0.360784;0.360784;0.321569
445616.34450157;5696570.50409897;472.35675003;30326.000000;1.000000;1.000000;1.000000;1.000000;-0.174103;0.174103;-0.174103;1.000000;0.466667;0.466667;0.435294
445616.40930183;5696570.31389912;472.34104969;37779.000000;1.000000;1.000000;1.000000;1.000000;-0.016144;0.016144;-0.016144;1.000000;0.580392;0.584314;0.556863
445616.37350090;5696570.30999954;472.34874966;12593.000000;1.000000;1.000000;1.000000;1.000000;-0.020000;0.020000;-0.020000;1.000000;0.2;0.196078;0.168627
445616.46350105;5696570.37179955;472.34655001;31611.000000;1.000000;1.000000;1.000000;1.000000;0.069379;-0.069379;0.069379;1.000000;0.498039;0.486275;0.45098
445616.44530113;5696570.35249908;472.34784986;42919.000000;1.000000;1.000000;1.000000;1.000000;0.043453;-0.043453;0.043453;1.000000;0.670588;0.658824;0.623529
445616.42950066;5696570.25589951;472.34364988;28270.000000;1.000000;1.000000;1.000000;1.000000;-0.077121;0.077121;-0.077121;1.000000;0.435294;0.435294;0.407843
445616.31630142;5696570.28909882;472.38315012;53970.000000;1.000000;1.000000;1.000000;1.000000;0.029325;-0.029325;0.029325;1.000000;0.815686;0.831373;0.831373
445616.28090103;5696570.28769882;472.38614990;11051.000000;1.000000;1.000000;1.000000;1.000000;0.042360;-0.042360;0.042360;1.000000;0.156863;0.172549;0.196078
445616.32840164;5696570.29039963;472.37675001;42148.000000;1.000000;1.000000;1.000000;1.000000;0.017225;-0.017225;0.017225;1.000000;0.635294;0.65098;0.647059
445616.44400223;5696570.38759907;472.34585001;30326.000000;1.000000;1.000000;1.000000;1.000000;0.067858;-0.067858;0.067858;1.000000;0.470588;0.466667;0.443137
445616.44040115;5696570.42529877;472.34845020;31097.000000;1.000000;1.000000;1.000000;1.000000;0.100616;-0.100616;0.100616;1.000000;0.47451;0.478431;0.462745
445616.51070221;5696570.37219913;472.33935024;28270.000000;1.000000;1.000000;1.000000;1.000000;0.110916;-0.110916;0.110916;1.000000;0.439216;0.435294;0.396078
445616.44020088;5696570.26669891;472.33494999;21074.000000;1.000000;1.000000;1.000000;1.000000;-0.070963;0.070963;-0.070963;1.000000;0.329412;0.32549;0.290196
445616.32690247;5696570.29989918;472.37675001;54998.000000;1.000000;1.000000;1.000000;1.000000;0.018724;-0.018724;0.018724;1.000000;0.827451;0.847059;0.835294
445616.29910095;5696570.26019867;472.39365007;38807.000000;1.000000;1.000000;1.000000;1.000000;0.046526;-0.046526;0.046526;1.000000;0.580392;0.6;0.611765
445616.37230118;5696570.30069931;472.35554983;18247.000000;1.000000;1.000000;1.000000;1.000000;-0.026674;0.026674;-0.026674;1.000000;0.282353;0.286275;0.258824
445616.31300171;5696570.42049892;472.36364986;24415.000000;1.000000;1.000000;1.000000;1.000000;-0.090509;0.090509;-0.090509;1.000000;0.368627;0.380392;0.360784
445616.30840118;5696570.49569901;472.36194994;46260.000000;1.000000;1.000000;1.000000;1.000000;-0.165726;0.165726;-0.165726;1.000000;0.717647;0.709804;0.662745
445616.38310249;5696570.49579914;472.36534979;57311.000000;1.000000;1.000000;1.000000;1.000000;-0.165799;0.165799;-0.165799;1.000000;0.866667;0.882353;0.870588
445616.49870117;5696570.39889915;472.34845020;58596.000000;1.000000;1.000000;1.000000;1.000000;0.113802;-0.113802;0.113802;1.000000;0.894118;0.901961;0.87451
445616.31260117;5696570.25199898;472.38714983;21331.000000;1.000000;1.000000;1.000000;1.000000;0.033026;-0.033026;0.033026;1.000000;0.305882;0.333333;0.345098
445616.41540154;5696570.40669926;472.34474995;52171.000000;1.000000;1.000000;1.000000;1.000000;0.077043;-0.077043;0.077043;1.000000;0.796078;0.8;0.776471
445616.29110153;5696570.25149925;472.39785006;41120.000000;1.000000;1.000000;1.000000;1.000000;0.054525;-0.054525;0.054525;1.000000;0.615686;0.635294;0.65098
445616.59000214;5696570.26459892;472.32765009;48573.000000;1.000000;1.000000;1.000000;1.000000;-0.193277;0.193277;-0.193277;1.000000;0.74902;0.74902;0.690196
445616.29010208;5696570.24219902;472.40004971;40863.000000;1.000000;1.000000;1.000000;1.000000;0.055525;-0.055525;0.055525;1.000000;0.607843;0.631373;0.643137
445616.58910187;5696570.25529869;472.32754995;46260.000000;1.000000;1.000000;1.000000;1.000000;-0.195786;0.195786;-0.195786;1.000000;0.717647;0.713725;0.654902
445616.51280220;5696570.28819855;472.32445004;37265.000000;1.000000;1.000000;1.000000;1.000000;-0.112713;0.112713;-0.112713;1.000000;0.580392;0.572549;0.529412
445616.54900177;5696570.32679947;472.32884981;34438.000000;1.000000;1.000000;1.000000;1.000000;-0.140911;0.140911;-0.140911;1.000000;0.52549;0.533333;0.501961
445616.32330139;5696570.35419853;472.36095001;18504.000000;1.000000;1.000000;1.000000;1.000000;-0.024199;0.024199;-0.024199;1.000000;0.27451;0.290196;0.270588
445616.35520180;5696570.49609955;472.36175014;16962.000000;1.000000;1.000000;1.000000;1.000000;-0.166100;0.166100;-0.166100;1.000000;0.254902;0.266667;0.243137
445616.29280098;5696570.42709930;472.36044981;26728.000000;1.000000;1.000000;1.000000;1.000000;-0.097099;0.097099;-0.097099;1.000000;0.411765;0.415686;0.388235
445616.32910164;5696570.46579941;472.36025002;16705.000000;1.000000;1.000000;1.000000;1.000000;-0.135799;0.135799;-0.135799;1.000000;0.258824;0.258824;0.227451
445616.36560066;5696570.50679977;472.36235001;20303.000000;1.000000;1.000000;1.000000;1.000000;-0.176800;0.176800;-0.176800;1.000000;0.309804;0.317647;0.294118
445616.32950218;5696570.25289925;472.37634995;18504.000000;1.000000;1.000000;1.000000;1.000000;0.016125;-0.016125;0.016125;1.000000;0.270588;0.286275;0.294118
445616.45830162;5696570.23919876;472.34235003;49601.000000;1.000000;1.000000;1.000000;1.000000;-0.103742;0.103742;-0.103742;1.000000;0.764706;0.764706;0.72549
445616.45980080;5696570.22969921;472.34235003;58596.000000;1.000000;1.000000;1.000000;1.000000;-0.112829;0.112829;-0.112829;1.000000;0.894118;0.901961;0.862745
445616.52090080;5696570.35499962;472.33494999;18761.000000;1.000000;1.000000;1.000000;1.000000;0.115512;-0.115512;0.115512;1.000000;0.294118;0.294118;0.254902
445616.38420113;5696570.27399929;472.34874966;14649.000000;1.000000;1.000000;1.000000;1.000000;-0.038574;-0.038574;0.038574;1.000000;0.231373;0.223529;0.207843
445616.42470177;5696570.40579899;472.34515001;49858.000000;1.000000;1.000000;1.000000;1.000000;0.077590;-0.077590;0.077590;1.000000;0.760784;0.764706;0.745098
445616.30790146;5696570.29919918;472.38285019;45232.000000;1.000000;1.000000;1.000000;1.000000;0.030898;-0.030898;0.030898;1.000000;0.678431;0.698039;0.705882
445616.45470245;5696570.35159882;472.34585001;42148.000000;1.000000;1.000000;1.000000;1.000000;0.051340;-0.051340;0.051340;1.000000;0.658824;0.643137;0.607843
445616.45620163;5696570.34219940;472.34355022;35209.000000;1.000000;1.000000;1.000000;1.000000;0.049598;-0.049598;0.049598;1.000000;0.545098;0.541176;0.509804
445616.34290131;5696570.38299950;472.34824993;43176.000000;1.000000;1.000000;1.000000;1.000000;-0.053070;0.053070;-0.053070;1.000000;0.654902;0.666667;0.631373
