//X;Y;Z;Intensity;Return Number;Number Of Returns;Scan Direction Flag;Point Source ID;C2M signed distances[-][<0.8];C2M signed distances[<0.4];C2M signed distances[-][<0.2];Stump119;Rf;Gf;Bf
300
445643.15780075;5696584.55159958;470.98004987;28013.000000;1.000000;1.000000;1.000000;1.000000;-0.093424;0.093424;-0.093424;1.000000;0.443137;0.431373;0.384314
445643.12100037;5696585.00819977;470.97924997;46260.000000;1.000000;1.000000;1.000000;1.000000;-0.186980;0.186980;-0.186980;1.000000;0.733333;0.701961;0.666667
445643.09780319;5696584.63429840;470.97834994;23387.000000;1.000000;1.000000;1.000000;1.000000;-0.033426;0.033426;-0.033426;1.000000;0.368627;0.356863;0.32549
445643.23400314;5696584.50969894;470.96674993;27242.000000;1.000000;1.000000;1.000000;1.000000;-0.169626;0.169626;-0.169626;1.000000;0.439216;0.419608;0.360784
445643.15970047;5696584.97189911;470.98054983;24929.000000;1.000000;1.000000;1.000000;1.000000;-0.170944;0.170944;-0.170944;1.000000;0.407843;0.376471;0.345098
445643.13520248;5696584.71019943;470.98094990;42662.000000;1.000000;1.000000;1.000000;1.000000;-0.070826;0.070826;-0.070826;1.000000;0.67451;0.647059;0.611765
445643.17030151;5696584.71159943;470.98254992;17476.000000;1.000000;1.000000;1.000000;1.000000;-0.105925;0.105925;-0.105925;1.000000;0.298039;0.258824;0.223529
445643.10239990;5696584.55909927;470.98004987;44975.000000;1.000000;1.000000;1.000000;1.000000;-0.038023;0.038023;-0.038023;1.000000;0.701961;0.690196;0.65098
445643.17150314;5696584.67409904;470.98214986;32382.000000;1.000000;1.000000;1.000000;1.000000;-0.107126;0.107126;-0.107126;1.000000;0.521569;0.494118;0.454902
445643.07170303;5696584.83959969;470.99825003;29298.000000;1.000000;1.000000;1.000000;1.000000;-0.012076;0.012076;-0.012076;1.000000;0.466667;0.45098;0.4
445643.21370132;5696584.57219894;470.97584989;43433.000000;1.000000;1.000000;1.000000;1.000000;-0.149324;0.149324;-0.149324;1.000000;0.686275;0.662745;0.611765
445643.21529968;5696584.53709991;470.97085001;37779.000000;1.000000;1.000000;1.000000;1.000000;-0.150923;0.150923;-0.150923;1.000000;0.607843;0.576471;0.521569
445643.25280197;5696584.53819855;470.97024991;49344.000000;1.000000;1.000000;1.000000;1.000000;-0.188425;0.188425;-0.188425;1.000000;0.784314;0.752941;0.698039
445643.07320221;5696585.02419861;470.98424985;37008.000000;1.000000;1.000000;1.000000;1.000000;-0.194399;0.194399;-0.194399;1.000000;0.592157;0.560784;0.513725
445643.11310013;5696584.95039948;470.98284986;23130.000000;1.000000;1.000000;1.000000;1.000000;-0.129885;0.129885;-0.129885;1.000000;0.376471;0.352941;0.317647
445643.11420258;5696584.91289909;470.98475005;39064.000000;1.000000;1.000000;1.000000;1.000000;-0.096721;0.096721;-0.096721;1.000000;0.603922;0.6;0.564706
445643.11540039;5696584.87549980;470.98434999;31354.000000;1.000000;1.000000;1.000000;1.000000;-0.068364;0.068364;-0.068364;1.000000;0.494118;0.482353;0.443137
445643.19640167;5696584.76750000;470.98674991;32896.000000;1.000000;1.000000;1.000000;1.000000;-0.132025;0.132025;-0.132025;1.000000;0.521569;0.501961;0.458824
445643.05230148;5696584.65009888;470.98344995;39064.000000;1.000000;1.000000;1.000000;1.000000;0.012075;-0.012075;0.012075;1.000000;0.611765;0.6;0.564706
445643.20040329;5696584.65739830;470.98094990;42919.000000;1.000000;1.000000;1.000000;1.000000;-0.136026;0.136026;-0.136026;1.000000;0.670588;0.654902;0.627451
445643.16629990;5696584.61849983;470.98124983;34181.000000;1.000000;1.000000;1.000000;1.000000;-0.101923;0.101923;-0.101923;1.000000;0.52549;0.529412;0.501961
445643.16750153;5696584.58099945;470.98085000;31868.000000;1.000000;1.000000;1.000000;1.000000;-0.103125;0.103125;-0.103125;1.000000;0.498039;0.490196;0.45098
445643.22930344;5696584.84389885;470.98444988;40092.000000;1.000000;1.000000;1.000000;1.000000;-0.165511;0.165511;-0.165511;1.000000;0.639216;0.611765;0.568627
445643.23050125;5696584.80639847;470.98405005;43690.000000;1.000000;1.000000;1.000000;1.000000;-0.166124;0.166124;-0.166124;1.000000;0.690196;0.662745;0.627451
445643.23439987;5696584.77099998;470.98155000;36237.000000;1.000000;1.000000;1.000000;1.000000;-0.170023;0.170023;-0.170023;1.000000;0.572549;0.552941;0.517647
445643.23560150;5696584.73359879;470.98114993;42662.000000;1.000000;1.000000;1.000000;1.000000;-0.171225;0.171225;-0.171225;1.000000;0.666667;0.65098;0.615686
445643.23790176;5696584.65859993;470.98035004;39064.000000;1.000000;1.000000;1.000000;1.000000;-0.173525;0.173525;-0.173525;1.000000;0.611765;0.596078;0.560784
445643.20210083;5696584.60119827;470.98265006;60909.000000;1.000000;1.000000;1.000000;1.000000;-0.137724;0.137724;-0.137724;1.000000;0.933333;0.933333;0.905882
445643.07390030;5696585.00549896;470.98175003;30583.000000;1.000000;1.000000;1.000000;1.000000;-0.175757;0.175757;-0.175757;1.000000;0.498039;0.462745;0.415686
445643.11160095;5696585.00669868;470.97875001;44204.000000;1.000000;1.000000;1.000000;1.000000;-0.182900;0.182900;-0.182900;1.000000;0.705882;0.670588;0.635294
445643.07500275;5696584.96799858;470.98364999;20303.000000;1.000000;1.000000;1.000000;1.000000;-0.138407;0.138407;-0.138407;1.000000;0.337255;0.305882;0.278431
445643.11260040;5696584.96919830;470.98064997;21331.000000;1.000000;1.000000;1.000000;1.000000;-0.147315;0.147315;-0.147315;1.000000;0.356863;0.321569;0.286275
445643.11370285;5696584.93169983;470.98265006;40349.000000;1.000000;1.000000;1.000000;1.000000;-0.113031;0.113031;-0.113031;1.000000;0.631373;0.619608;0.584314
445643.11710175;5696584.89399918;470.98464992;34438.000000;1.000000;1.000000;1.000000;1.000000;-0.082920;0.082920;-0.082920;1.000000;0.537255;0.529412;0.490196
445643.19720276;5696584.74879845;470.98184993;42405.000000;1.000000;1.000000;1.000000;1.000000;-0.132826;0.132826;-0.132826;1.000000;0.670588;0.647059;0.603922
445643.05160339;5696584.66879852;470.98604991;48316.000000;1.000000;1.000000;1.000000;1.000000;0.012774;-0.012774;0.012774;1.000000;0.74902;0.737255;0.709804
445643.19980057;5696584.67609985;470.98114993;40863.000000;1.000000;1.000000;1.000000;1.000000;-0.135424;0.135424;-0.135424;1.000000;0.647059;0.623529;0.588235
445643.16590317;5696584.63729866;470.97914984;28784.000000;1.000000;1.000000;1.000000;1.000000;-0.101526;0.101526;-0.101526;1.000000;0.45098;0.443137;0.419608
445643.05960281;5696584.91079910;470.99854996;28784.000000;1.000000;1.000000;1.000000;1.000000;0.080940;-0.080940;0.080940;1.000000;0.45098;0.443137;0.411765
445643.22879990;5696584.86259850;470.98464992;36494.000000;1.000000;1.000000;1.000000;1.000000;-0.167623;0.167623;-0.167623;1.000000;0.580392;0.556863;0.513725
445643.23120316;5696584.78769882;470.98155000;38550.000000;1.000000;1.000000;1.000000;1.000000;-0.166826;0.166826;-0.166826;1.000000;0.611765;0.584314;0.552941
445643.23260315;5696584.75249870;470.98124983;36751.000000;1.000000;1.000000;1.000000;1.000000;-0.168226;0.168226;-0.168226;1.000000;0.576471;0.560784;0.52549
445643.23590286;5696584.71249969;470.98085000;47288.000000;1.000000;1.000000;1.000000;1.000000;-0.171526;0.171526;-0.171526;1.000000;0.741176;0.721569;0.690196
445643.23740204;5696584.67739876;470.97814991;44204.000000;1.000000;1.000000;1.000000;1.000000;-0.173025;0.173025;-0.173025;1.000000;0.694118;0.67451;0.643137
445643.23840149;5696584.63979919;470.98245003;24672.000000;1.000000;1.000000;1.000000;1.000000;-0.174025;0.174025;-0.174025;1.000000;0.392157;0.376471;0.345098
445643.11200150;5696584.98799904;470.98085000;40606.000000;1.000000;1.000000;1.000000;1.000000;-0.165021;0.165021;-0.165021;1.000000;0.65098;0.611765;0.576471
445643.14740189;5696584.98939903;470.97784998;30583.000000;1.000000;1.000000;1.000000;1.000000;-0.179725;0.179725;-0.179725;1.000000;0.498039;0.462745;0.431373
445643.18760117;5696584.97159966;470.98175003;38550.000000;1.000000;1.000000;1.000000;1.000000;-0.187709;0.187709;-0.187709;1.000000;0.607843;0.584314;0.556863
445643.07780273;5696584.94899948;470.98584988;29812.000000;1.000000;1.000000;1.000000;1.000000;-0.119754;0.119754;-0.119754;1.000000;0.470588;0.454902;0.427451
445643.15260132;5696584.89769943;470.98394992;21331.000000;1.000000;1.000000;1.000000;1.000000;-0.111206;0.111206;-0.111206;1.000000;0.341176;0.329412;0.294118
445643.22990234;5696584.82510002;470.98424985;39578.000000;1.000000;1.000000;1.000000;1.000000;-0.165525;0.165525;-0.165525;1.000000;0.627451;0.603922;0.560784
445643.08580215;5696584.70769890;470.98105003;44975.000000;1.000000;1.000000;1.000000;1.000000;-0.021425;0.021425;-0.021425;1.000000;0.701961;0.686275;0.65098
445643.19849976;5696584.71129997;470.97914984;22359.000000;1.000000;1.000000;1.000000;1.000000;-0.134123;0.134123;-0.134123;1.000000;0.372549;0.337255;0.301961
445643.09050186;5696584.63259895;470.98035004;30069.000000;1.000000;1.000000;1.000000;1.000000;-0.026125;0.026125;-0.026125;1.000000;0.47451;0.458824;0.431373
445643.20100220;5696584.63869865;470.98074986;21845.000000;1.000000;1.000000;1.000000;1.000000;-0.136625;0.136625;-0.136625;1.000000;0.345098;0.333333;0.313725
445643.09169968;5696584.59509857;470.97994997;28013.000000;1.000000;1.000000;1.000000;1.000000;-0.027323;0.027323;-0.027323;1.000000;0.439216;0.431373;0.4
445643.05410202;5696584.59389885;470.98284986;46517.000000;1.000000;1.000000;1.000000;1.000000;0.010275;-0.010275;0.010275;1.000000;0.72549;0.713725;0.678431
445643.16690262;5696584.59979828;470.98105003;42662.000000;1.000000;1.000000;1.000000;1.000000;-0.102526;0.102526;-0.102526;1.000000;0.654902;0.658824;0.627451
445643.05529984;5696584.55639847;470.98254992;30583.000000;1.000000;1.000000;1.000000;1.000000;0.009077;-0.009077;0.009077;1.000000;0.482353;0.470588;0.431373
445643.13060196;5696584.56110008;470.98134996;36494.000000;1.000000;1.000000;1.000000;1.000000;-0.066225;0.066225;-0.066225;1.000000;0.568627;0.560784;0.517647
445643.09430130;5696584.52239998;470.97924997;33410.000000;1.000000;1.000000;1.000000;1.000000;-0.029924;0.029924;-0.029924;1.000000;0.521569;0.513725;0.470588
445643.08510025;5696584.72639854;470.98354985;38293.000000;1.000000;1.000000;1.000000;1.000000;-0.020723;0.020723;-0.020723;1.000000;0.6;0.588235;0.54902
445643.19810303;5696584.73239906;470.97945001;33924.000000;1.000000;1.000000;1.000000;1.000000;-0.133726;0.133726;-0.133726;1.000000;0.545098;0.517647;0.478431
445643.13179977;5696584.52359970;470.98094990;47802.000000;1.000000;1.000000;1.000000;1.000000;-0.067423;0.067423;-0.067423;1.000000;0.737255;0.733333;0.694118
445643.08650024;5696584.68899925;470.97854998;43176.000000;1.000000;1.000000;1.000000;1.000000;-0.022123;0.022123;-0.022123;1.000000;0.67451;0.662745;0.627451
445643.23680313;5696584.69609840;470.97834994;42148.000000;1.000000;1.000000;1.000000;1.000000;-0.172426;0.172426;-0.172426;1.000000;0.666667;0.639216;0.607843
445643.16500290;5696584.65369995;470.97934987;38293.000000;1.000000;1.000000;1.000000;1.000000;-0.100626;0.100626;-0.100626;1.000000;0.6;0.584314;0.552941
445643.09110077;5696584.61379822;470.98015000;33924.000000;1.000000;1.000000;1.000000;1.000000;-0.026724;0.026724;-0.026724;1.000000;0.529412;0.517647;0.486275
445643.12890060;5696584.61729820;470.97954990;39835.000000;1.000000;1.000000;1.000000;1.000000;-0.064524;0.064524;-0.064524;1.000000;0.615686;0.611765;0.584314
445643.20150192;5696584.61989983;470.98284986;39835.000000;1.000000;1.000000;1.000000;1.000000;-0.137125;0.137125;-0.137125;1.000000;0.611765;0.611765;0.592157
445643.23900040;5696584.62109955;470.98224999;38807.000000;1.000000;1.000000;1.000000;1.000000;-0.174623;0.174623;-0.174623;1.000000;0.603922;0.596078;0.568627
445643.05470093;5696584.57510002;470.98265006;43176.000000;1.000000;1.000000;1.000000;1.000000;0.009676;-0.009676;0.009676;1.000000;0.67451;0.662745;0.627451
445643.09240158;5696584.57860001;470.98214986;29812.000000;1.000000;1.000000;1.000000;1.000000;-0.028025;0.028025;-0.028025;1.000000;0.466667;0.454902;0.423529
445643.12770279;5696584.58000000;470.98134996;36494.000000;1.000000;1.000000;1.000000;1.000000;-0.063326;0.063326;-0.063326;1.000000;0.568627;0.560784;0.52549
445643.02050217;5696584.53619965;470.98534991;32896.000000;1.000000;1.000000;1.000000;1.000000;0.043875;-0.043875;0.043875;1.000000;0.513725;0.505882;0.466667
445643.16880234;5696584.54359825;470.97814991;32896.000000;1.000000;1.000000;1.000000;1.000000;-0.104425;0.104425;-0.104425;1.000000;0.521569;0.505882;0.454902
445643.08740051;5696584.90369995;470.99044992;36494.000000;1.000000;1.000000;1.000000;1.000000;-0.077212;0.077212;-0.077212;1.000000;0.564706;0.564706;0.52549
445643.12610062;5696584.86739929;470.98945000;32639.000000;1.000000;1.000000;1.000000;1.000000;-0.072170;0.072170;-0.072170;1.000000;0.513725;0.498039;0.458824
445643.16489990;5696584.83339890;470.99304988;39835.000000;1.000000;1.000000;1.000000;1.000000;-0.100580;0.100580;-0.100580;1.000000;0.635294;0.607843;0.564706
445643.12860306;5696584.79469879;470.99094989;25957.000000;1.000000;1.000000;1.000000;1.000000;-0.064226;0.064226;-0.064226;1.000000;0.419608;0.396078;0.356863
445643.16590317;5696584.79589851;470.99504997;36751.000000;1.000000;1.000000;1.000000;1.000000;-0.101526;0.101526;-0.101526;1.000000;0.580392;0.560784;0.517647
445643.13190277;5696584.75469978;470.99064996;32382.000000;1.000000;1.000000;1.000000;1.000000;-0.067526;0.067526;-0.067526;1.000000;0.513725;0.494118;0.454902
445643.05830200;5696584.71719940;470.98924996;32125.000000;1.000000;1.000000;1.000000;1.000000;0.006075;-0.006075;0.006075;1.000000;0.505882;0.494118;0.454902
445643.02410324;5696584.67819984;470.99414994;44718.000000;1.000000;1.000000;1.000000;1.000000;0.040274;-0.040274;0.040274;1.000000;0.690196;0.686275;0.654902
445643.20370300;5696584.79709824;470.98974993;38807.000000;1.000000;1.000000;1.000000;1.000000;-0.139326;0.139326;-0.139326;1.000000;0.615686;0.592157;0.552941
445643.00840195;5696585.01139839;470.99514987;33153.000000;1.000000;1.000000;1.000000;1.000000;-0.181398;0.181398;-0.181398;1.000000;0.521569;0.509804;0.466667
445643.19989975;5696584.90719994;470.99084999;38550.000000;1.000000;1.000000;1.000000;1.000000;-0.155969;0.155969;-0.155969;1.000000;0.6;0.592157;0.560784
445643.08979996;5696584.82869919;470.98965003;22616.000000;1.000000;1.000000;1.000000;1.000000;-0.025423;0.025423;-0.025423;1.000000;0.368627;0.34902;0.294118
445643.09320267;5696584.79099854;470.99164989;25443.000000;1.000000;1.000000;1.000000;1.000000;-0.028826;0.028826;-0.028826;1.000000;0.411765;0.388235;0.34902
445643.05700119;5696584.75459869;470.99195005;34695.000000;1.000000;1.000000;1.000000;1.000000;0.007376;-0.007376;0.007376;1.000000;0.541176;0.533333;0.490196
445643.09470184;5696584.75579842;470.98895003;41634.000000;1.000000;1.000000;1.000000;1.000000;-0.030325;0.030325;-0.030325;1.000000;0.654902;0.639216;0.596078
445643.16730316;5696584.75840004;470.98994996;41120.000000;1.000000;1.000000;1.000000;1.000000;-0.102926;0.102926;-0.102926;1.000000;0.647059;0.631373;0.588235
445643.02670105;5696584.60329826;470.98875000;39578.000000;1.000000;1.000000;1.000000;1.000000;0.037676;-0.037676;0.037676;1.000000;0.615686;0.607843;0.568627
445643.02779968;5696584.56579979;470.98834993;36494.000000;1.000000;1.000000;1.000000;1.000000;0.036577;-0.036577;0.036577;1.000000;0.568627;0.560784;0.529412
445643.04620178;5696585.01260002;470.98985006;34952.000000;1.000000;1.000000;1.000000;1.000000;-0.182600;0.182600;-0.182600;1.000000;0.560784;0.533333;0.486275
445643.04730042;5696584.97509964;470.98945000;19275.000000;1.000000;1.000000;1.000000;1.000000;-0.145100;0.145100;-0.145100;1.000000;0.321569;0.290196;0.258824
445643.23550232;5696584.91099937;470.98784997;35209.000000;1.000000;1.000000;1.000000;1.000000;-0.189327;0.189327;-0.189327;1.000000;0.54902;0.541176;0.509804
445643.08860214;5696584.86619957;470.99004986;28270.000000;1.000000;1.000000;1.000000;1.000000;-0.043558;0.043558;-0.043558;1.000000;0.447059;0.435294;0.388235
445643.16360291;5696584.86849983;470.99114992;19789.000000;1.000000;1.000000;1.000000;1.000000;-0.106433;0.106433;-0.106433;1.000000;0.321569;0.301961;0.262745
445643.20110138;5696584.86969955;470.99044992;24158.000000;1.000000;1.000000;1.000000;1.000000;-0.142371;0.142371;-0.142371;1.000000;0.388235;0.368627;0.329412
445643.20250137;5696584.83459862;470.99014999;33667.000000;1.000000;1.000000;1.000000;1.000000;-0.138201;0.138201;-0.138201;1.000000;0.541176;0.509804;0.466667
445643.05550201;5696584.78979881;470.99464991;44718.000000;1.000000;1.000000;1.000000;1.000000;0.008875;-0.008875;0.008875;1.000000;0.698039;0.682353;0.643137
445643.02550323;5696584.64079865;470.98914983;40606.000000;1.000000;1.000000;1.000000;1.000000;0.038874;-0.038874;0.038874;1.000000;0.631373;0.623529;0.584314
445643.11400040;5696584.73539932;470.98494985;38036.000000;1.000000;1.000000;1.000000;1.000000;-0.049623;0.049623;-0.049623;1.000000;0.6;0.580392;0.537255
445643.18710144;5696584.74039848;470.98134996;38036.000000;1.000000;1.000000;1.000000;1.000000;-0.122725;0.122725;-0.122725;1.000000;0.603922;0.580392;0.541176
445643.15300186;5696584.70150002;470.98164989;35209.000000;1.000000;1.000000;1.000000;1.000000;-0.088625;0.088625;-0.088625;1.000000;0.564706;0.533333;0.494118
445643.04269989;5696584.62290009;470.98504998;24929.000000;1.000000;1.000000;1.000000;1.000000;0.021677;-0.021677;0.021677;1.000000;0.392157;0.384314;0.345098
445643.19289978;5696584.62769897;470.98254992;23901.000000;1.000000;1.000000;1.000000;1.000000;-0.128523;0.128523;-0.128523;1.000000;0.372549;0.368627;0.34902
445643.08270081;5696584.54919823;470.98134996;33153.000000;1.000000;1.000000;1.000000;1.000000;-0.018324;0.018324;-0.018324;1.000000;0.521569;0.509804;0.466667
445643.12030228;5696584.55039986;470.98074986;35723.000000;1.000000;1.000000;1.000000;1.000000;-0.055925;0.055925;-0.055925;1.000000;0.552941;0.54902;0.509804
445643.12720306;5696584.82989891;470.99134995;37008.000000;1.000000;1.000000;1.000000;1.000000;-0.062826;0.062826;-0.062826;1.000000;0.588235;0.564706;0.517647
445643.15139969;5696584.93519981;470.98434999;29812.000000;1.000000;1.000000;1.000000;1.000000;-0.136528;0.136528;-0.136528;1.000000;0.47451;0.454902;0.423529
445643.16080292;5696584.71009834;470.98214986;25186.000000;1.000000;1.000000;1.000000;1.000000;-0.096426;0.096426;-0.096426;1.000000;0.415686;0.380392;0.341176
445643.08710297;5696584.67029961;470.97834994;45746.000000;1.000000;1.000000;1.000000;1.000000;-0.022726;0.022726;-0.022726;1.000000;0.713725;0.698039;0.666667
445643.05280121;5696584.63130005;470.98564984;26728.000000;1.000000;1.000000;1.000000;1.000000;0.011576;-0.011576;0.011576;1.000000;0.423529;0.407843;0.372549
445643.12700089;5696584.59649857;470.97924997;29555.000000;1.000000;1.000000;1.000000;1.000000;-0.062624;0.062624;-0.062624;1.000000;0.458824;0.454902;0.419608
445643.23960312;5696584.60239990;470.98204996;58853.000000;1.000000;1.000000;1.000000;1.000000;-0.175226;0.175226;-0.175226;1.000000;0.909804;0.901961;0.87451
445643.09300049;5696584.55989845;470.98195006;42919.000000;1.000000;1.000000;1.000000;1.000000;-0.028624;0.028624;-0.028624;1.000000;0.670588;0.658824;0.619608
445643.07780273;5696584.90219887;470.99224998;36237.000000;1.000000;1.000000;1.000000;1.000000;-0.073437;0.073437;-0.073437;1.000000;0.560784;0.560784;0.521569
445643.07920273;5696584.86699875;470.99195005;21845.000000;1.000000;1.000000;1.000000;1.000000;-0.039859;0.039859;-0.039859;1.000000;0.34902;0.337255;0.290196
445643.15430267;5696584.86939819;470.99074986;21074.000000;1.000000;1.000000;1.000000;1.000000;-0.098178;0.098178;-0.098178;1.000000;0.345098;0.321569;0.286275
445643.15540131;5696584.83189972;470.99265005;43690.000000;1.000000;1.000000;1.000000;1.000000;-0.091044;0.091044;-0.091044;1.000000;0.694118;0.666667;0.619608
445643.19289978;5696584.83309944;470.99204995;32125.000000;1.000000;1.000000;1.000000;1.000000;-0.128560;0.128560;-0.128560;1.000000;0.521569;0.486275;0.443137
445643.12150009;5696584.79299934;470.99064996;23130.000000;1.000000;1.000000;1.000000;1.000000;-0.057123;0.057123;-0.057123;1.000000;0.376471;0.34902;0.309804
445643.19410141;5696584.79559906;470.99164989;38807.000000;1.000000;1.000000;1.000000;1.000000;-0.129725;0.129725;-0.129725;1.000000;0.611765;0.596078;0.552941
445643.15660294;5696584.79439934;470.99224998;27499.000000;1.000000;1.000000;1.000000;1.000000;-0.092226;0.092226;-0.092226;1.000000;0.443137;0.419608;0.376471
445643.16020020;5696584.75679977;470.98965003;44204.000000;1.000000;1.000000;1.000000;1.000000;-0.095823;0.095823;-0.095823;1.000000;0.694118;0.678431;0.635294
445643.04870041;5696584.71569832;470.99105002;32896.000000;1.000000;1.000000;1.000000;1.000000;0.015676;-0.015676;0.015676;1.000000;0.513725;0.505882;0.466667
445643.05000122;5696584.67819984;470.98834993;39321.000000;1.000000;1.000000;1.000000;1.000000;0.014376;-0.014376;0.014376;1.000000;0.611765;0.6;0.572549
445643.18940170;5696584.94329842;470.98854997;17990.000000;1.000000;1.000000;1.000000;1.000000;-0.168724;0.168724;-0.168724;1.000000;0.294118;0.27451;0.25098
445643.22599991;5696584.90949829;470.98744990;36237.000000;1.000000;1.000000;1.000000;1.000000;-0.180117;0.180117;-0.180117;1.000000;0.564706;0.552941;0.52549
445643.19070251;5696584.90809830;470.99044992;35209.000000;1.000000;1.000000;1.000000;1.000000;-0.148518;0.148518;-0.148518;1.000000;0.54902;0.541176;0.509804
445643.11810120;5696584.83079918;470.98864986;31354.000000;1.000000;1.000000;1.000000;1.000000;-0.053730;0.053730;-0.053730;1.000000;0.498039;0.478431;0.431373
445643.08520325;5696584.75439842;470.98854997;39064.000000;1.000000;1.000000;1.000000;1.000000;-0.020826;0.020826;-0.020826;1.000000;0.611765;0.6;0.556863
445643.12260254;5696584.75560005;470.99024989;37008.000000;1.000000;1.000000;1.000000;1.000000;-0.058226;0.058226;-0.058226;1.000000;0.588235;0.564706;0.529412
445643.01710327;5696584.60179909;470.99064996;37265.000000;1.000000;1.000000;1.000000;1.000000;0.047274;-0.047274;0.047274;1.000000;0.580392;0.572549;0.537255
445643.01830109;5696584.56439980;470.99024989;38036.000000;1.000000;1.000000;1.000000;1.000000;0.046076;-0.046076;0.046076;1.000000;0.592157;0.584314;0.54902
445643.15020187;5696584.97039993;470.98004987;23644.000000;1.000000;1.000000;1.000000;1.000000;-0.164554;0.164554;-0.164554;1.000000;0.388235;0.356863;0.321569
445643.16209991;5696584.67269905;470.97934987;32125.000000;1.000000;1.000000;1.000000;1.000000;-0.097723;0.097723;-0.097723;1.000000;0.513725;0.490196;0.45098
445643.16820343;5696584.56229980;470.97834994;28784.000000;1.000000;1.000000;1.000000;1.000000;-0.103827;0.103827;-0.103827;1.000000;0.45098;0.443137;0.4
445643.03800018;5696584.97599991;470.99134995;25700.000000;1.000000;1.000000;1.000000;1.000000;-0.146000;0.146000;-0.146000;1.000000;0.415686;0.392157;0.360784
445643.07670029;5696584.93969925;470.99035003;31611.000000;1.000000;1.000000;1.000000;1.000000;-0.110389;0.110389;-0.110389;1.000000;0.498039;0.482353;0.45098
445643.19190033;5696584.87059982;470.99004986;25186.000000;1.000000;1.000000;1.000000;1.000000;-0.133830;0.133830;-0.133830;1.000000;0.407843;0.384314;0.345098
445643.04630096;5696584.79059990;470.99414994;44461.000000;1.000000;1.000000;1.000000;1.000000;0.018076;-0.018076;0.018076;1.000000;0.694118;0.678431;0.639216
445643.08390244;5696584.79179962;470.99125006;39321.000000;1.000000;1.000000;1.000000;1.000000;-0.019526;0.019526;-0.019526;1.000000;0.623529;0.6;0.560784
445643.01590164;5696584.63929947;470.99105002;39321.000000;1.000000;1.000000;1.000000;1.000000;0.048475;-0.048475;0.048475;1.000000;0.611765;0.6;0.568627
445643.03680237;5696585.01339920;470.99175002;37008.000000;1.000000;1.000000;1.000000;1.000000;-0.183399;0.183399;-0.183399;1.000000;0.588235;0.564706;0.517647
445643.08270081;5696584.82930000;470.99164989;22102.000000;1.000000;1.000000;1.000000;1.000000;-0.018324;0.018324;-0.018324;1.000000;0.356863;0.341176;0.282353
445643.04760178;5696584.75319870;470.99144985;32639.000000;1.000000;1.000000;1.000000;1.000000;0.016775;-0.016775;0.016775;1.000000;0.509804;0.501961;0.462745
445643.12420090;5696584.69030006;470.97554996;42662.000000;1.000000;1.000000;1.000000;1.000000;-0.059824;0.059824;-0.059824;1.000000;0.67451;0.65098;0.611765
445643.12339981;5696584.70889862;470.98044993;44975.000000;1.000000;1.000000;1.000000;1.000000;-0.059023;0.059023;-0.059023;1.000000;0.709804;0.682353;0.65098
445643.08520325;5696584.92959984;470.98825004;38550.000000;1.000000;1.000000;1.000000;1.000000;-0.101754;0.101754;-0.101754;1.000000;0.6;0.588235;0.556863
445643.08660324;5696584.89439972;470.98794987;37522.000000;1.000000;1.000000;1.000000;1.000000;-0.068127;0.068127;-0.068127;1.000000;0.580392;0.580392;0.541176
445643.16270264;5696584.85929878;470.99094989;13878.000000;1.000000;1.000000;1.000000;1.000000;-0.102598;0.102598;-0.102598;1.000000;0.235294;0.211765;0.168627
445643.13010223;5696584.78519829;470.99094989;23387.000000;1.000000;1.000000;1.000000;1.000000;-0.065725;0.065725;-0.065725;1.000000;0.376471;0.356863;0.317647
445643.16750153;5696584.78639992;470.99265005;38293.000000;1.000000;1.000000;1.000000;1.000000;-0.103125;0.103125;-0.103125;1.000000;0.607843;0.584314;0.545098
445643.09380157;5696584.74659927;470.98884990;39835.000000;1.000000;1.000000;1.000000;1.000000;-0.029425;0.029425;-0.029425;1.000000;0.627451;0.611765;0.568627
445643.02300079;5696584.66659935;470.99405005;51657.000000;1.000000;1.000000;1.000000;1.000000;0.041376;-0.041376;0.041376;1.000000;0.796078;0.792157;0.760784
445643.19800003;5696584.93549927;470.98884990;16705.000000;1.000000;1.000000;1.000000;1.000000;-0.170251;0.170251;-0.170251;1.000000;0.266667;0.258824;0.235294
445643.20300110;5696584.78789909;470.98724987;32125.000000;1.000000;1.000000;1.000000;1.000000;-0.138624;0.138624;-0.138624;1.000000;0.513725;0.490196;0.454902
445643.15180023;5696584.91409882;470.98414995;34438.000000;1.000000;1.000000;1.000000;1.000000;-0.121307;0.121307;-0.121307;1.000000;0.541176;0.529412;0.494118
445643.12270172;5696584.72759827;470.98294999;44461.000000;1.000000;1.000000;1.000000;1.000000;-0.058325;0.058325;-0.058325;1.000000;0.701961;0.678431;0.639216
445643.16020020;5696584.72879990;470.98234989;37008.000000;1.000000;1.000000;1.000000;1.000000;-0.095823;0.095823;-0.095823;1.000000;0.588235;0.560784;0.52549
445643.16160019;5696584.69369896;470.98195006;31097.000000;1.000000;1.000000;1.000000;1.000000;-0.097223;0.097223;-0.097223;1.000000;0.505882;0.470588;0.439216
445643.08770187;5696584.65149887;470.97814991;34181.000000;1.000000;1.000000;1.000000;1.000000;-0.023325;0.023325;-0.023325;1.000000;0.537255;0.521569;0.494118
445643.05350311;5696584.61259850;470.98304989;33410.000000;1.000000;1.000000;1.000000;1.000000;0.010874;-0.010874;0.010874;1.000000;0.52549;0.513725;0.478431
445643.09370239;5696584.54119881;470.97945001;37008.000000;1.000000;1.000000;1.000000;1.000000;-0.029325;0.029325;-0.029325;1.000000;0.576471;0.568627;0.521569
445643.13120087;5696584.54239853;470.98114993;32125.000000;1.000000;1.000000;1.000000;1.000000;-0.066824;0.066824;-0.066824;1.000000;0.501961;0.494118;0.454902
445643.14000137;5696584.96199997;470.98184993;21331.000000;1.000000;1.000000;1.000000;1.000000;-0.152128;0.152128;-0.152128;1.000000;0.356863;0.321569;0.290196
445643.19410141;5696584.59019859;470.98214986;50629.000000;1.000000;1.000000;1.000000;1.000000;-0.129725;0.129725;-0.129725;1.000000;0.780392;0.780392;0.741176
445643.09740265;5696584.67869957;470.97654988;46260.000000;1.000000;1.000000;1.000000;1.000000;-0.033026;0.033026;-0.033026;1.000000;0.721569;0.705882;0.670588
445643.09119995;5696584.81919868;470.98954989;21074.000000;1.000000;1.000000;1.000000;1.000000;-0.026823;0.026823;-0.026823;1.000000;0.345098;0.32549;0.270588
445643.16610153;5696584.82160004;470.99294998;26471.000000;1.000000;1.000000;1.000000;1.000000;-0.101725;0.101725;-0.101725;1.000000;0.431373;0.403922;0.356863
445643.20170029;5696584.82529839;470.98994996;42405.000000;1.000000;1.000000;1.000000;1.000000;-0.137323;0.137323;-0.137323;1.000000;0.670588;0.647059;0.603922
445643.09230240;5696584.78169830;470.99154999;29555.000000;1.000000;1.000000;1.000000;1.000000;-0.027925;0.027925;-0.027925;1.000000;0.47451;0.45098;0.407843
445643.13140305;5696584.74779900;470.98825004;35980.000000;1.000000;1.000000;1.000000;1.000000;-0.067026;0.067026;-0.067026;1.000000;0.568627;0.54902;0.513725
445643.02700241;5696584.55659874;470.98825004;40092.000000;1.000000;1.000000;1.000000;1.000000;0.037374;-0.037374;0.037374;1.000000;0.623529;0.615686;0.580392
445643.09880264;5696584.64349945;470.97615005;24672.000000;1.000000;1.000000;1.000000;1.000000;-0.034426;0.034426;-0.034426;1.000000;0.392157;0.376471;0.345098
445643.17749985;5696584.53579910;470.97615005;42148.000000;1.000000;1.000000;1.000000;1.000000;-0.113123;0.113123;-0.113123;1.000000;0.662745;0.643137;0.592157
445643.09610184;5696584.69049843;470.97665002;47545.000000;1.000000;1.000000;1.000000;1.000000;-0.031725;0.031725;-0.031725;1.000000;0.745098;0.72549;0.690196
445643.09740265;5696584.65309914;470.97394993;30840.000000;1.000000;1.000000;1.000000;1.000000;-0.033026;0.033026;-0.033026;1.000000;0.486275;0.470588;0.439216
445643.04530151;5696585.00329979;470.98965003;39835.000000;1.000000;1.000000;1.000000;1.000000;-0.173300;0.173300;-0.173300;1.000000;0.635294;0.603922;0.560784
445643.04880341;5696584.96559914;470.98945000;14135.000000;1.000000;1.000000;1.000000;1.000000;-0.135599;0.135599;-0.135599;1.000000;0.239216;0.215686;0.184314
445643.19940002;5696584.90029915;470.98844983;38550.000000;1.000000;1.000000;1.000000;1.000000;-0.152228;0.152228;-0.152228;1.000000;0.6;0.588235;0.556863
445643.09000214;5696584.85669907;470.98994996;27242.000000;1.000000;1.000000;1.000000;1.000000;-0.037007;0.037007;-0.037007;1.000000;0.435294;0.419608;0.368627
445643.12759979;5696584.85789879;470.98934986;28013.000000;1.000000;1.000000;1.000000;1.000000;-0.069105;0.069105;-0.069105;1.000000;0.45098;0.427451;0.384314
445643.20020111;5696584.86049850;470.99035003;18761.000000;1.000000;1.000000;1.000000;1.000000;-0.139206;0.139206;-0.139206;1.000000;0.309804;0.286275;0.243137
445643.12899979;5696584.82269867;470.98904993;35466.000000;1.000000;1.000000;1.000000;1.000000;-0.064623;0.064623;-0.064623;1.000000;0.564706;0.541176;0.494118
445643.05710037;5696584.78029831;470.99224998;42662.000000;1.000000;1.000000;1.000000;1.000000;0.007277;-0.007277;0.007277;1.000000;0.666667;0.65098;0.611765
445643.05590256;5696584.74299820;470.99175002;32896.000000;1.000000;1.000000;1.000000;1.000000;0.008474;-0.008474;0.008474;1.000000;0.517647;0.505882;0.466667
445643.02470215;5696584.63159950;470.98665001;35466.000000;1.000000;1.000000;1.000000;1.000000;0.039675;-0.039675;0.039675;1.000000;0.552941;0.545098;0.509804
445643.02580078;5696584.59409912;470.98864986;36751.000000;1.000000;1.000000;1.000000;1.000000;0.038576;-0.038576;0.038576;1.000000;0.572549;0.564706;0.529412
445643.12270172;5696584.69969948;470.97564985;47545.000000;1.000000;1.000000;1.000000;1.000000;-0.058325;0.058325;-0.058325;1.000000;0.74902;0.72549;0.686275
445643.07450302;5696584.98679932;470.98155000;19532.000000;1.000000;1.000000;1.000000;1.000000;-0.157126;0.157126;-0.157126;1.000000;0.32549;0.294118;0.247059
445643.15070160;5696584.95159920;470.98214986;16962.000000;1.000000;1.000000;1.000000;1.000000;-0.149125;0.149125;-0.149125;1.000000;0.282353;0.254902;0.223529
445643.18830307;5696584.95509918;470.98394992;22873.000000;1.000000;1.000000;1.000000;1.000000;-0.176089;0.176089;-0.176089;1.000000;0.364706;0.34902;0.321569
445643.19920166;5696584.69489868;470.98134996;27756.000000;1.000000;1.000000;1.000000;1.000000;-0.134825;0.134825;-0.134825;1.000000;0.454902;0.419608;0.376471
445643.20280273;5696584.58239944;470.98015000;40349.000000;1.000000;1.000000;1.000000;1.000000;-0.138426;0.138426;-0.138426;1.000000;0.627451;0.619608;0.580392
445643.05620010;5696584.53999908;470.98004987;48059.000000;1.000000;1.000000;1.000000;1.000000;0.008177;-0.008177;0.008177;1.000000;0.74902;0.737255;0.694118
445643.07930191;5696584.89269836;470.99224998;34695.000000;1.000000;1.000000;1.000000;1.000000;-0.064450;0.064450;-0.064450;1.000000;0.537255;0.537255;0.498039
445643.15580185;5696584.85989960;470.99064996;14135.000000;1.000000;1.000000;1.000000;1.000000;-0.096190;0.096190;-0.096190;1.000000;0.239216;0.211765;0.176471
445643.15680130;5696584.82239922;470.99254992;35209.000000;1.000000;1.000000;1.000000;1.000000;-0.092424;0.092424;-0.092424;1.000000;0.564706;0.537255;0.490196
445643.19440277;5696584.82359894;470.99195005;37779.000000;1.000000;1.000000;1.000000;1.000000;-0.130026;0.130026;-0.130026;1.000000;0.603922;0.576471;0.533333
445643.12059982;5696584.78379829;470.99044992;19018.000000;1.000000;1.000000;1.000000;1.000000;-0.056223;0.056223;-0.056223;1.000000;0.313725;0.286275;0.247059
445643.15800293;5696584.78499992;470.99214985;32639.000000;1.000000;1.000000;1.000000;1.000000;-0.093626;0.093626;-0.093626;1.000000;0.521569;0.498039;0.458824
445643.19330032;5696584.78639992;470.99144985;34181.000000;1.000000;1.000000;1.000000;1.000000;-0.128923;0.128923;-0.128923;1.000000;0.541176;0.521569;0.478431
445643.08430298;5696584.74509819;470.98834993;38293.000000;1.000000;1.000000;1.000000;1.000000;-0.019926;0.019926;-0.019926;1.000000;0.6;0.588235;0.54902
445643.15929993;5696584.74749954;470.98945000;46260.000000;1.000000;1.000000;1.000000;1.000000;-0.094923;0.094923;-0.094923;1.000000;0.72549;0.705882;0.666667
445643.05020340;5696584.70619972;470.99105002;30840.000000;1.000000;1.000000;1.000000;1.000000;0.014174;-0.014174;0.014174;1.000000;0.482353;0.47451;0.439216
445643.18869980;5696584.93629845;470.98834993;19789.000000;1.000000;1.000000;1.000000;1.000000;-0.163571;0.163571;-0.163571;1.000000;0.313725;0.301961;0.27451
445643.22750290;5696584.90009888;470.98735001;38807.000000;1.000000;1.000000;1.000000;1.000000;-0.177550;0.177550;-0.177550;1.000000;0.603922;0.592157;0.560784
445643.13500031;5696584.65429886;470.97324993;32639.000000;1.000000;1.000000;1.000000;1.000000;-0.070623;0.070623;-0.070623;1.000000;0.517647;0.498039;0.470588
445643.17840012;5696584.54509933;470.97624995;38550.000000;1.000000;1.000000;1.000000;1.000000;-0.114023;0.114023;-0.114023;1.000000;0.611765;0.592157;0.533333
445643.21380051;5696584.54649933;470.97094991;42405.000000;1.000000;1.000000;1.000000;1.000000;-0.149424;0.149424;-0.149424;1.000000;0.678431;0.643137;0.584314
445643.25140198;5696584.54769905;470.97024991;46260.000000;1.000000;1.000000;1.000000;1.000000;-0.187025;0.187025;-0.187025;1.000000;0.737255;0.701961;0.65098
445643.07820328;5696584.93019875;470.99035003;34952.000000;1.000000;1.000000;1.000000;1.000000;-0.101148;0.101148;-0.101148;1.000000;0.545098;0.533333;0.501961
445643.22630127;5696584.93750008;470.98774983;25957.000000;1.000000;1.000000;1.000000;1.000000;-0.194360;0.194360;-0.194360;1.000000;0.403922;0.396078;0.376471
445643.08049973;5696584.85519989;470.99184992;21588.000000;1.000000;1.000000;1.000000;1.000000;-0.029916;0.029916;-0.029916;1.000000;0.34902;0.333333;0.286275
445643.08189972;5696584.82009895;470.99144985;23387.000000;1.000000;1.000000;1.000000;1.000000;-0.017523;0.017523;-0.017523;1.000000;0.380392;0.356863;0.298039
445643.11950119;5696584.82129868;470.98854997;28784.000000;1.000000;1.000000;1.000000;1.000000;-0.055124;0.055124;-0.055124;1.000000;0.462745;0.439216;0.388235
445643.08300217;5696584.78259857;470.99114992;40863.000000;1.000000;1.000000;1.000000;1.000000;-0.018625;0.018625;-0.018625;1.000000;0.647059;0.623529;0.584314
445643.12190063;5696584.74629982;470.98774983;38807.000000;1.000000;1.000000;1.000000;1.000000;-0.057524;0.057524;-0.057524;1.000000;0.611765;0.592157;0.552941
445643.01850327;5696584.59239967;470.99055006;37008.000000;1.000000;1.000000;1.000000;1.000000;0.045874;-0.045874;0.045874;1.000000;0.576471;0.568627;0.533333
445643.01740082;5696584.55509956;470.99004986;40092.000000;1.000000;1.000000;1.000000;1.000000;0.046976;-0.046976;0.046976;1.000000;0.623529;0.615686;0.580392
445643.03930099;5696584.96649940;470.99364998;15163.000000;1.000000;1.000000;1.000000;1.000000;-0.136499;0.136499;-0.136499;1.000000;0.25098;0.231373;0.203922
445643.18980225;5696584.89879997;470.99035003;33153.000000;1.000000;1.000000;1.000000;1.000000;-0.143056;0.143056;-0.143056;1.000000;0.517647;0.509804;0.47451
445643.11810120;5696584.85639961;470.98895003;34181.000000;1.000000;1.000000;1.000000;1.000000;-0.059860;0.059860;-0.059860;1.000000;0.541176;0.52549;0.478431
445643.19100006;5696584.86139877;470.98994996;17476.000000;1.000000;1.000000;1.000000;1.000000;-0.130458;0.130458;-0.130458;1.000000;0.294118;0.266667;0.223529
445643.04750259;5696584.77879913;470.99414994;42405.000000;1.000000;1.000000;1.000000;1.000000;0.016874;-0.016874;0.016874;1.000000;0.662745;0.65098;0.607843
445643.01510056;5696584.63009842;470.98854997;32896.000000;1.000000;1.000000;1.000000;1.000000;0.049276;-0.049276;0.049276;1.000000;0.513725;0.505882;0.47451
445643.11760147;5696584.64419945;470.97475006;21074.000000;1.000000;1.000000;1.000000;1.000000;-0.053225;0.053225;-0.053225;1.000000;0.337255;0.321569;0.298039
445643.15509995;5696584.64539917;470.97405006;34181.000000;1.000000;1.000000;1.000000;1.000000;-0.090723;0.090723;-0.090723;1.000000;0.533333;0.521569;0.494118
445643.19650085;5696584.53639992;470.97234990;38550.000000;1.000000;1.000000;1.000000;1.000000;-0.132124;0.132124;-0.132124;1.000000;0.611765;0.588235;0.529412
445643.23410233;5696584.53769882;470.96934988;47545.000000;1.000000;1.000000;1.000000;1.000000;-0.169725;0.169725;-0.169725;1.000000;0.752941;0.72549;0.670588
445643.04900177;5696584.74369820;470.99144985;31868.000000;1.000000;1.000000;1.000000;1.000000;0.015375;-0.015375;0.015375;1.000000;0.501961;0.490196;0.45098
445643.06490143;5696584.98529823;470.98335006;17733.000000;1.000000;1.000000;1.000000;1.000000;-0.155299;0.155299;-0.155299;1.000000;0.301961;0.266667;0.227451
445643.03590210;5696585.00420006;470.99164989;47802.000000;1.000000;1.000000;1.000000;1.000000;-0.174200;0.174200;-0.174200;1.000000;0.752941;0.729412;0.686275
445643.14140137;5696584.95249947;470.98175003;20560.000000;1.000000;1.000000;1.000000;1.000000;-0.144703;0.144703;-0.144703;1.000000;0.337255;0.309804;0.27451
445643.15089996;5696584.72969826;470.98424985;41634.000000;1.000000;1.000000;1.000000;1.000000;-0.086523;0.086523;-0.086523;1.000000;0.658824;0.631373;0.592157
445643.18850143;5696584.73089989;470.98124983;27499.000000;1.000000;1.000000;1.000000;1.000000;-0.124125;0.124125;-0.124125;1.000000;0.447059;0.419608;0.376471
445643.13510330;5696584.68219955;470.97595002;33924.000000;1.000000;1.000000;1.000000;1.000000;-0.070726;0.070726;-0.070726;1.000000;0.541176;0.517647;0.482353
445643.15220078;5696584.69219978;470.98155000;36494.000000;1.000000;1.000000;1.000000;1.000000;-0.087824;0.087824;-0.087824;1.000000;0.588235;0.552941;0.521569
445643.08070190;5696584.65219887;470.98015000;31868.000000;1.000000;1.000000;1.000000;1.000000;-0.016325;0.016325;-0.016325;1.000000;0.501961;0.486275;0.454902
445643.15460022;5696584.61729820;470.98074986;34438.000000;1.000000;1.000000;1.000000;1.000000;-0.090223;0.090223;-0.090223;1.000000;0.52549;0.529412;0.505882
445643.19220169;5696584.62079819;470.98245003;36751.000000;1.000000;1.000000;1.000000;1.000000;-0.127825;0.127825;-0.127825;1.000000;0.560784;0.564706;0.541176
445643.12050064;5696584.57839973;470.98105003;35980.000000;1.000000;1.000000;1.000000;1.000000;-0.056124;0.056124;-0.056124;1.000000;0.560784;0.552941;0.517647
445643.17749985;5696584.96319969;470.98124983;31354.000000;1.000000;1.000000;1.000000;1.000000;-0.174754;0.174754;-0.174754;1.000000;0.498039;0.47451;0.447059
445643.23100098;5696584.58449944;470.98144986;39835.000000;1.000000;1.000000;1.000000;1.000000;-0.166624;0.166624;-0.166624;1.000000;0.627451;0.611765;0.568627
445643.08419998;5696584.53969963;470.98124983;36237.000000;1.000000;1.000000;1.000000;1.000000;-0.019823;0.019823;-0.019823;1.000000;0.564706;0.556863;0.513725
445643.12190063;5696584.54319962;470.98064997;34695.000000;1.000000;1.000000;1.000000;1.000000;-0.057524;0.057524;-0.057524;1.000000;0.541176;0.533333;0.490196
445643.11650284;5696584.68169983;470.97274997;39578.000000;1.000000;1.000000;1.000000;1.000000;-0.052126;0.052126;-0.052126;1.000000;0.623529;0.6;0.572549
445643.23180206;5696584.59369858;470.98164989;47802.000000;1.000000;1.000000;1.000000;1.000000;-0.167425;0.167425;-0.167425;1.000000;0.745098;0.733333;0.698039
445643.24030121;5696584.58359917;470.97954990;38036.000000;1.000000;1.000000;1.000000;1.000000;-0.175924;0.175924;-0.175924;1.000000;0.603922;0.580392;0.545098
445643.14830215;5696584.99869926;470.97564985;35723.000000;1.000000;1.000000;1.000000;1.000000;-0.188422;0.188422;-0.188422;1.000000;0.576471;0.541176;0.505882
445643.12640198;5696584.66209991;470.97295000;24158.000000;1.000000;1.000000;1.000000;1.000000;-0.062025;0.062025;-0.062025;1.000000;0.384314;0.368627;0.337255
445643.12770279;5696584.62689980;470.97494986;33410.000000;1.000000;1.000000;1.000000;1.000000;-0.063326;0.063326;-0.063326;1.000000;0.521569;0.513725;0.490196
445643.16750153;5696584.55309875;470.97584989;28270.000000;1.000000;1.000000;1.000000;1.000000;-0.103125;0.103125;-0.103125;1.000000;0.45098;0.435294;0.380392
445643.20510300;5696584.55429848;470.97295000;44204.000000;1.000000;1.000000;1.000000;1.000000;-0.140726;0.140726;-0.140726;1.000000;0.701961;0.67451;0.619608
445643.24270065;5696584.55549820;470.97234990;47031.000000;1.000000;1.000000;1.000000;1.000000;-0.178324;0.178324;-0.178324;1.000000;0.74902;0.713725;0.658824
445643.20639999;5696584.51689919;470.97024991;30326.000000;1.000000;1.000000;1.000000;1.000000;-0.142023;0.142023;-0.142023;1.000000;0.486275;0.462745;0.411765
445643.23470123;5696584.51889999;470.96924998;35466.000000;1.000000;1.000000;1.000000;1.000000;-0.170324;0.170324;-0.170324;1.000000;0.568627;0.541176;0.490196
445642.99880035;5696585.00989922;470.99694993;31611.000000;1.000000;1.000000;1.000000;1.000000;-0.179926;0.179926;-0.179926;1.000000;0.498039;0.482353;0.443137
445643.22229965;5696584.59229858;470.98114993;48573.000000;1.000000;1.000000;1.000000;1.000000;-0.157923;0.157923;-0.157923;1.000000;0.752941;0.745098;0.713725
445643.14570053;5696584.64389999;470.97365000;33410.000000;1.000000;1.000000;1.000000;1.000000;-0.081324;0.081324;-0.081324;1.000000;0.521569;0.509804;0.482353
445643.00970276;5696585.00179871;470.99735000;30840.000000;1.000000;1.000000;1.000000;1.000000;-0.171799;0.171799;-0.171799;1.000000;0.486275;0.47451;0.435294
445643.11340149;5696584.72849854;470.98254992;37008.000000;1.000000;1.000000;1.000000;1.000000;-0.049025;0.049025;-0.049025;1.000000;0.584314;0.564706;0.52549
445643.04409988;5696584.61339958;470.98504998;28013.000000;1.000000;1.000000;1.000000;1.000000;0.020277;-0.020277;0.020277;1.000000;0.443137;0.431373;0.392157
445643.11490067;5696584.69109924;470.97514989;47545.000000;1.000000;1.000000;1.000000;1.000000;-0.050524;0.050524;-0.050524;1.000000;0.74902;0.72549;0.690196
445643.19580276;5696584.58309944;470.97984983;38550.000000;1.000000;1.000000;1.000000;1.000000;-0.131426;0.131426;-0.131426;1.000000;0.6;0.592157;0.545098
445643.04660233;5696584.53849991;470.98184993;46774.000000;1.000000;1.000000;1.000000;1.000000;0.017775;-0.017775;0.017775;1.000000;0.729412;0.717647;0.67451
445643.09100159;5696584.66059883;470.97604992;41377.000000;1.000000;1.000000;1.000000;1.000000;-0.026625;0.026625;-0.026625;1.000000;0.647059;0.631373;0.596078
445643.16870316;5696584.51559837;470.97545006;40092.000000;1.000000;1.000000;1.000000;1.000000;-0.104326;0.104326;-0.104326;1.000000;0.627451;0.611765;0.572549
445643.09190186;5696584.99679955;470.98004987;35209.000000;1.000000;1.000000;1.000000;1.000000;-0.169055;0.169055;-0.169055;1.000000;0.568627;0.533333;0.490196
445643.09530075;5696584.95909889;470.98214986;23644.000000;1.000000;1.000000;1.000000;1.000000;-0.132751;0.132751;-0.132751;1.000000;0.384314;0.356863;0.32549
445643.09620102;5696584.92159851;470.98634984;41120.000000;1.000000;1.000000;1.000000;1.000000;-0.096969;0.096969;-0.096969;1.000000;0.635294;0.631373;0.596078
445643.13410004;5696584.92509850;470.98344995;38293.000000;1.000000;1.000000;1.000000;1.000000;-0.117920;0.117920;-0.117920;1.000000;0.596078;0.584314;0.552941
445643.10799988;5696584.64269836;470.97654988;19532.000000;1.000000;1.000000;1.000000;1.000000;-0.043623;0.043623;-0.043623;1.000000;0.313725;0.298039;0.270588
445643.26210220;5696584.53739937;470.97064998;48059.000000;1.000000;1.000000;1.000000;1.000000;-0.197725;0.197725;-0.197725;1.000000;0.764706;0.733333;0.67451
445643.09740265;5696584.88410004;470.98595001;36237.000000;1.000000;1.000000;1.000000;1.000000;-0.063384;0.063384;-0.063384;1.000000;0.564706;0.556863;0.517647
445643.13520248;5696584.88760002;470.98534991;32639.000000;1.000000;1.000000;1.000000;1.000000;-0.091291;0.091291;-0.091291;1.000000;0.509804;0.501961;0.466667
445643.06850250;5696584.69759949;470.98245003;39578.000000;1.000000;1.000000;1.000000;1.000000;-0.004126;0.004126;-0.004126;1.000000;0.619608;0.607843;0.572549
445643.06970032;5696584.66019829;470.98204996;37522.000000;1.000000;1.000000;1.000000;1.000000;-0.005323;0.005323;-0.005323;1.000000;0.588235;0.572549;0.541176
445643.22010239;5696584.66729935;470.97965004;46517.000000;1.000000;1.000000;1.000000;1.000000;-0.155725;0.155725;-0.155725;1.000000;0.729412;0.709804;0.67451
445643.14610107;5696584.62509926;470.97814991;32896.000000;1.000000;1.000000;1.000000;1.000000;-0.081724;0.081724;-0.081724;1.000000;0.505882;0.505882;0.478431
445643.18360336;5696584.62859924;470.98214986;25186.000000;1.000000;1.000000;1.000000;1.000000;-0.119226;0.119226;-0.119226;1.000000;0.388235;0.388235;0.364706
445643.18480118;5696584.59109886;470.98175003;48830.000000;1.000000;1.000000;1.000000;1.000000;-0.120424;0.120424;-0.120424;1.000000;0.752941;0.74902;0.717647
445643.13910110;5696584.99949844;470.97525002;39835.000000;1.000000;1.000000;1.000000;1.000000;-0.185239;0.185239;-0.185239;1.000000;0.635294;0.603922;0.572549
445643.15210159;5696584.66429909;470.97654988;32639.000000;1.000000;1.000000;1.000000;1.000000;-0.087725;0.087725;-0.087725;1.000000;0.517647;0.498039;0.462745
445643.11820038;5696584.62539871;470.97455003;25700.000000;1.000000;1.000000;1.000000;1.000000;-0.053823;0.053823;-0.053823;1.000000;0.4;0.396078;0.364706
445643.19580276;5696584.55509956;470.97484996;41377.000000;1.000000;1.000000;1.000000;1.000000;-0.131426;0.131426;-0.131426;1.000000;0.654902;0.631373;0.572549
445643.23320206;5696584.55409821;470.97184994;48059.000000;1.000000;1.000000;1.000000;1.000000;-0.168825;0.168825;-0.168825;1.000000;0.764706;0.729412;0.67451
445643.19700058;5696584.51540001;470.96974995;34438.000000;1.000000;1.000000;1.000000;1.000000;-0.132624;0.132624;-0.132624;1.000000;0.545098;0.52549;0.47451
445643.20549973;5696584.96289833;470.98245003;26214.000000;1.000000;1.000000;1.000000;1.000000;-0.193849;0.193849;-0.193849;1.000000;0.415686;0.4;0.376471
445643.24540146;5696584.89139946;470.98574998;38036.000000;1.000000;1.000000;1.000000;1.000000;-0.191154;0.191154;-0.191154;1.000000;0.6;0.580392;0.545098
445643.25030334;5696584.81629951;470.98044993;40863.000000;1.000000;1.000000;1.000000;1.000000;-0.185926;0.185926;-0.185926;1.000000;0.65098;0.619608;0.580392
445643.21380051;5696584.77759941;470.98534991;29812.000000;1.000000;1.000000;1.000000;1.000000;-0.149424;0.149424;-0.149424;1.000000;0.478431;0.454902;0.419608
445643.25170334;5696584.78109940;470.98004987;20303.000000;1.000000;1.000000;1.000000;1.000000;-0.187326;0.187326;-0.187326;1.000000;0.333333;0.305882;0.27451
445643.21540268;5696584.74249847;470.98035004;36237.000000;1.000000;1.000000;1.000000;1.000000;-0.151026;0.151026;-0.151026;1.000000;0.568627;0.552941;0.513725
445643.25270279;5696584.74359901;470.98434999;40606.000000;1.000000;1.000000;1.000000;1.000000;-0.188326;0.188326;-0.188326;1.000000;0.635294;0.619608;0.588235
445643.25399979;5696584.70609863;470.98164989;35723.000000;1.000000;1.000000;1.000000;1.000000;-0.189623;0.189623;-0.189623;1.000000;0.568627;0.541176;0.513725
