//X;Y;Z;Intensity;Return Number;Number Of Returns;Scan Direction Flag;Point Source ID;C2M signed distances[-][<0.8];C2M signed distances[<0.4];C2M signed distances[-][<0.2];Stump35;Rf;Gf;Bf
300
445614.48590096;5696598.32459839;473.05564978;15163.000000;1.000000;1.000000;1.000000;1.000000;0.005402;-0.005402;0.005402;1.000000;0.231373;0.247059;0.156863
445614.49120148;5696598.35449799;473.05154993;8738.000000;1.000000;1.000000;1.000000;1.000000;-0.024498;0.024498;-0.024498;1.000000;0.137255;0.145098;0.0745098
445614.45520218;5696598.31289871;473.08904984;11308.000000;1.000000;1.000000;1.000000;1.000000;0.017114;-0.017114;0.017114;1.000000;0.172549;0.188235;0.117647
445614.29780205;5696598.47479828;473.07924988;14649.000000;1.000000;1.000000;1.000000;1.000000;-0.144798;0.144798;-0.144798;1.000000;0.227451;0.231373;0.180392
445614.22690113;5696598.23769959;473.12444975;17990.000000;1.000000;1.000000;1.000000;1.000000;0.092300;-0.092300;0.092300;1.000000;0.290196;0.286275;0.203922
445614.59150131;5696598.01399811;473.02414991;8224.000000;1.000000;1.000000;1.000000;1.000000;-0.195689;0.195689;-0.195689;1.000000;0.14902;0.121569;0.0901961
445614.30910118;5696598.35969742;473.05504992;13878.000000;1.000000;1.000000;1.000000;1.000000;-0.029830;0.029830;-0.029830;1.000000;0.231373;0.215686;0.156863
445614.63660248;5696598.47069748;473.12704994;19532.000000;1.000000;1.000000;1.000000;1.000000;-0.140697;0.140697;-0.140697;1.000000;0.309804;0.305882;0.258824
445614.30700119;5696598.26999863;473.12615015;5140.000000;1.000000;1.000000;1.000000;1.000000;0.060005;-0.060005;0.060005;1.000000;0.0745098;0.0941176;0.0392157
445614.37610062;5696598.43269928;473.07065012;8224.000000;1.000000;1.000000;1.000000;1.000000;-0.102702;0.102702;-0.102702;1.000000;0.129412;0.129412;0.0980392
445614.04450138;5696597.95279892;473.15705015;29041.000000;1.000000;1.000000;1.000000;1.000000;0.042624;-0.042624;0.042624;1.000000;0.443137;0.470588;0.309804
445614.63800247;5696597.95839890;473.01854994;11822.000000;1.000000;1.000000;1.000000;1.000000;-0.129966;0.129966;-0.129966;1.000000;0.215686;0.172549;0.137255
445614.52850159;5696598.35339935;473.05095007;15677.000000;1.000000;1.000000;1.000000;1.000000;-0.023399;0.023399;-0.023399;1.000000;0.262745;0.25098;0.133333
445614.43230064;5696598.23049744;473.11735012;40092.000000;1.000000;1.000000;1.000000;1.000000;0.099503;-0.099503;0.099503;1.000000;0.6;0.658824;0.423529
445614.06470116;5696598.00739868;473.13294985;22873.000000;1.000000;1.000000;1.000000;1.000000;0.062824;-0.062824;0.062824;1.000000;0.376471;0.356863;0.254902
445614.16270168;5696598.39570053;473.11175014;16448.000000;1.000000;1.000000;1.000000;1.000000;-0.065701;0.065701;-0.065701;1.000000;0.266667;0.270588;0.117647
445614.16400154;5696598.35829742;473.10904982;13621.000000;1.000000;1.000000;1.000000;1.000000;-0.028297;0.028297;-0.028297;1.000000;0.223529;0.223529;0.0823529
445614.27900131;5696598.28919800;473.11105015;3855.000000;1.000000;1.000000;1.000000;1.000000;0.041010;-0.041010;0.041010;1.000000;0.054902;0.0666667;0.027451
445614.62930115;5696598.37610062;473.09305002;29041.000000;1.000000;1.000000;1.000000;1.000000;-0.046101;0.046101;-0.046101;1.000000;0.454902;0.466667;0.298039
445614.17090137;5696598.20809753;473.11224987;23130.000000;1.000000;1.000000;1.000000;1.000000;0.121902;-0.121902;0.121902;1.000000;0.376471;0.376471;0.188235
445614.25870140;5696598.36149796;473.09004976;11051.000000;1.000000;1.000000;1.000000;1.000000;-0.032431;0.032431;-0.032431;1.000000;0.176471;0.176471;0.121569
445614.36980064;5696598.29220016;473.12685015;25957.000000;1.000000;1.000000;1.000000;1.000000;0.038456;-0.038456;0.038456;1.000000;0.4;0.407843;0.333333
445614.62410172;5696598.47909744;473.11035015;16705.000000;1.000000;1.000000;1.000000;1.000000;-0.149123;0.149123;-0.149123;1.000000;0.25098;0.266667;0.219608
445614.62780197;5696598.44140060;473.10774996;8224.000000;1.000000;1.000000;1.000000;1.000000;-0.111401;0.111401;-0.111401;1.000000;0.129412;0.137255;0.0745098
445614.33340080;5696598.31920059;473.10925009;6425.000000;1.000000;1.000000;1.000000;1.000000;0.010799;-0.010799;0.010799;1.000000;0.0941176;0.109804;0.0627451
445614.08200176;5696598.15789993;473.11224987;49087.000000;1.000000;1.000000;1.000000;1.000000;0.080125;-0.080125;0.080125;1.000000;0.803922;0.752941;0.611765
445614.57990082;5696597.99309738;473.08384993;1285.000000;1.000000;1.000000;1.000000;1.000000;-0.180887;0.180887;-0.180887;1.000000;0.0392157;0.0156863;0.00784314
445614.56110199;5696598.43199738;473.06264975;8995.000000;1.000000;1.000000;1.000000;1.000000;-0.102050;0.102050;-0.102050;1.000000;0.141176;0.152941;0.0666667
445614.67280205;5696598.43680008;473.13765003;40349.000000;1.000000;1.000000;1.000000;1.000000;-0.106800;0.106800;-0.106800;1.000000;0.611765;0.631373;0.54902
445614.60280235;5696598.39489944;473.09674980;23901.000000;1.000000;1.000000;1.000000;1.000000;-0.064899;0.064899;-0.064899;1.000000;0.388235;0.376471;0.239216
445614.66770180;5696598.35409744;473.07814981;28013.000000;1.000000;1.000000;1.000000;1.000000;-0.024097;0.024097;-0.024097;1.000000;0.454902;0.454902;0.235294
445614.48560150;5696598.49439819;473.10424997;49344.000000;1.000000;1.000000;1.000000;1.000000;-0.164398;0.164398;-0.164398;1.000000;0.772549;0.752941;0.705882
445614.47940071;5696598.26869782;473.08264973;9252.000000;1.000000;1.000000;1.000000;1.000000;0.061302;-0.061302;0.061302;1.000000;0.129412;0.164706;0.0627451
445614.61970146;5696598.23800095;473.01874973;32639.000000;1.000000;1.000000;1.000000;1.000000;0.092004;-0.092004;0.092004;1.000000;0.54902;0.498039;0.368627
445614.54060181;5696598.23319824;473.05235006;12079.000000;1.000000;1.000000;1.000000;1.000000;0.096803;-0.096803;0.096803;1.000000;0.196078;0.2;0.0862745
445614.41590126;5696598.34679993;473.09934999;4112.000000;1.000000;1.000000;1.000000;1.000000;-0.016800;0.016800;-0.016800;1.000000;0.0666667;0.0705882;0.0352941
445614.27010162;5696598.23119934;473.13794996;16191.000000;1.000000;1.000000;1.000000;1.000000;0.099656;-0.099656;0.099656;1.000000;0.254902;0.262745;0.160784
445614.61500175;5696598.47769745;473.10284998;9252.000000;1.000000;1.000000;1.000000;1.000000;-0.147697;0.147697;-0.147697;1.000000;0.141176;0.14902;0.109804
445614.54440125;5696597.96059998;473.13084986;39578.000000;1.000000;1.000000;1.000000;1.000000;-0.173176;0.173176;-0.173176;1.000000;0.627451;0.607843;0.545098
445614.34390076;5696598.28989990;473.12564995;9252.000000;1.000000;1.000000;1.000000;1.000000;0.040100;-0.040100;0.040100;1.000000;0.141176;0.156863;0.0901961
445614.58300217;5696598.37589844;473.08164980;26728.000000;1.000000;1.000000;1.000000;1.000000;-0.045898;0.045898;-0.045898;1.000000;0.435294;0.423529;0.25098
445614.43270119;5696598.36659821;473.07704975;8738.000000;1.000000;1.000000;1.000000;1.000000;-0.036598;0.036598;-0.036598;1.000000;0.137255;0.137255;0.101961
445614.60050209;5696597.96619995;473.03555014;5911.000000;1.000000;1.000000;1.000000;1.000000;-0.147889;0.147889;-0.147889;1.000000;0.109804;0.0862745;0.0588235
445614.55470093;5696598.22739990;473.03894999;14649.000000;1.000000;1.000000;1.000000;1.000000;0.103055;-0.103055;0.103055;1.000000;0.239216;0.239216;0.0980392
445614.49630173;5696598.26959808;473.07404997;13364.000000;1.000000;1.000000;1.000000;1.000000;0.060402;-0.060402;0.060402;1.000000;0.2;0.227451;0.121569
445614.31690224;5696598.29719742;473.11754992;4112.000000;1.000000;1.000000;1.000000;1.000000;0.032803;-0.032803;0.032803;1.000000;0.054902;0.0745098;0.0235294
445614.06130131;5696598.13870056;473.11805012;45489.000000;1.000000;1.000000;1.000000;1.000000;0.059424;-0.059424;0.059424;1.000000;0.737255;0.701961;0.541176
445614.06610115;5696598.06590088;473.11975004;4626.000000;1.000000;1.000000;1.000000;1.000000;0.064224;-0.064224;0.064224;1.000000;0.0901961;0.0745098;0.027451
445614.49190147;5696598.31469925;473.05585005;12336.000000;1.000000;1.000000;1.000000;1.000000;0.015301;-0.015301;0.015301;1.000000;0.192157;0.2;0.12549
445614.59530075;5696598.48679932;473.09044983;3084.000000;1.000000;1.000000;1.000000;1.000000;-0.156800;0.156800;-0.156800;1.000000;0.0509804;0.0509804;0.0196078
445614.45650108;5696598.34340103;473.07315018;8224.000000;1.000000;1.000000;1.000000;1.000000;-0.013548;0.013548;-0.013548;1.000000;0.129412;0.137255;0.0784314
445614.59470184;5696597.90059860;473.08115007;40349.000000;1.000000;1.000000;1.000000;1.000000;-0.094905;0.094905;-0.094905;1.000000;0.623529;0.635294;0.505882
445614.58380135;5696598.43199738;473.07765009;9766.000000;1.000000;1.000000;1.000000;1.000000;-0.101997;0.101997;-0.101997;1.000000;0.152941;0.164706;0.0862745
445614.27190121;5696598.26859863;473.12454988;5397.000000;1.000000;1.000000;1.000000;1.000000;0.062419;-0.062419;0.062419;1.000000;0.0823529;0.0941176;0.0431373
445614.55650146;5696597.89929779;473.09805014;22359.000000;1.000000;1.000000;1.000000;1.000000;-0.123004;0.123004;-0.123004;1.000000;0.337255;0.372549;0.211765
445614.23540123;5696598.22989853;473.12704994;21845.000000;1.000000;1.000000;1.000000;1.000000;0.100101;-0.100101;0.100101;1.000000;0.345098;0.345098;0.254902
445614.10910137;5696598.14159973;473.09934999;30069.000000;1.000000;1.000000;1.000000;1.000000;0.107224;-0.107224;0.107224;1.000000;0.501961;0.466667;0.317647
445614.66840179;5696598.38139923;473.11814978;25700.000000;1.000000;1.000000;1.000000;1.000000;-0.051399;0.051399;-0.051399;1.000000;0.423529;0.4;0.270588
445614.39330109;5696598.44269760;473.07154991;23644.000000;1.000000;1.000000;1.000000;1.000000;-0.112698;0.112698;-0.112698;1.000000;0.372549;0.364706;0.333333
445614.58510216;5696597.90139969;473.09004976;40092.000000;1.000000;1.000000;1.000000;1.000000;-0.102130;0.102130;-0.102130;1.000000;0.619608;0.631373;0.494118
445614.32900246;5696598.47680099;473.06435015;36237.000000;1.000000;1.000000;1.000000;1.000000;-0.146801;0.146801;-0.146801;1.000000;0.564706;0.556863;0.513725
445614.64060219;5696597.93929871;473.02544977;6682.000000;1.000000;1.000000;1.000000;1.000000;-0.110695;0.110695;-0.110695;1.000000;0.133333;0.0941176;0.0627451
445614.33010109;5696598.43929871;473.06624987;35723.000000;1.000000;1.000000;1.000000;1.000000;-0.109299;0.109299;-0.109299;1.000000;0.545098;0.552941;0.505882
445614.36540230;5696598.44069870;473.06554987;11051.000000;1.000000;1.000000;1.000000;1.000000;-0.110797;0.110797;-0.110797;1.000000;0.176471;0.172549;0.141176
445614.43990143;5696598.30480011;473.10225012;10280.000000;1.000000;1.000000;1.000000;1.000000;0.025200;-0.025200;0.025200;1.000000;0.156863;0.168627;0.113725
445614.32680138;5696598.26099976;473.13385012;23387.000000;1.000000;1.000000;1.000000;1.000000;0.069000;-0.069000;0.069000;1.000000;0.352941;0.376471;0.266667
445614.60840233;5696598.24600037;473.02535011;31354.000000;1.000000;1.000000;1.000000;1.000000;0.084000;-0.084000;0.084000;1.000000;0.529412;0.482353;0.34902
445614.28480156;5696598.26709946;473.14605000;11051.000000;1.000000;1.000000;1.000000;1.000000;0.062901;-0.062901;0.062901;1.000000;0.168627;0.188235;0.0941176
445614.50110062;5696597.90669830;473.09795000;23387.000000;1.000000;1.000000;1.000000;1.000000;-0.174757;0.174757;-0.174757;1.000000;0.364706;0.372549;0.254902
445614.38970192;5696598.33000000;473.12825014;7967.000000;1.000000;1.000000;1.000000;1.000000;0.000000;0.000000;0.000000;1.000000;0.117647;0.133333;0.0901961
445614.20990189;5696598.39620026;473.10225012;17476.000000;1.000000;1.000000;1.000000;1.000000;-0.066200;0.066200;-0.066200;1.000000;0.282353;0.282353;0.14902
445614.53800209;5696598.20759781;473.05664970;11822.000000;1.000000;1.000000;1.000000;1.000000;0.122402;-0.122402;0.122402;1.000000;0.180392;0.2;0.0823529
445614.10610111;5696598.01099976;473.10234978;28013.000000;1.000000;1.000000;1.000000;1.000000;0.104224;-0.104224;0.104224;1.000000;0.466667;0.427451;0.337255
445614.07050140;5696597.97170074;473.13744976;34181.000000;1.000000;1.000000;1.000000;1.000000;0.068624;-0.068624;0.068624;1.000000;0.52549;0.537255;0.427451
445614.06740196;5696598.05639847;473.12204983;6168.000000;1.000000;1.000000;1.000000;1.000000;0.065525;-0.065525;0.065525;1.000000;0.109804;0.0980392;0.0431373
445614.42920120;5696598.22149857;473.11474993;31097.000000;1.000000;1.000000;1.000000;1.000000;0.108501;-0.108501;0.108501;1.000000;0.454902;0.52549;0.270588
445614.62330063;5696598.31889923;473.05485012;32639.000000;1.000000;1.000000;1.000000;1.000000;0.011663;-0.011663;0.011663;1.000000;0.537255;0.521569;0.278431
445614.07280167;5696598.08180054;473.10624983;10794.000000;1.000000;1.000000;1.000000;1.000000;0.070925;-0.070925;0.070925;1.000000;0.188235;0.168627;0.0901961
445614.11420162;5696597.97289856;473.10454990;9509.000000;1.000000;1.000000;1.000000;1.000000;0.112325;-0.112325;0.112325;1.000000;0.164706;0.14902;0.0862745
445614.08400162;5696598.30710037;473.11875011;25700.000000;1.000000;1.000000;1.000000;1.000000;0.022900;-0.022900;0.022900;1.000000;0.403922;0.427451;0.2
445614.52960213;5696598.36499985;473.05114986;19275.000000;1.000000;1.000000;1.000000;1.000000;-0.035000;0.035000;-0.035000;1.000000;0.317647;0.309804;0.176471
445614.48080070;5696598.25919922;473.08494999;9766.000000;1.000000;1.000000;1.000000;1.000000;0.070801;-0.070801;0.070801;1.000000;0.137255;0.176471;0.0627451
445614.12290199;5696598.27319916;473.11784985;29555.000000;1.000000;1.000000;1.000000;1.000000;0.056801;-0.056801;0.056801;1.000000;0.454902;0.486275;0.258824
445614.08640202;5696598.23219879;473.11805012;41377.000000;1.000000;1.000000;1.000000;1.000000;0.089769;-0.089769;0.089769;1.000000;0.643137;0.662745;0.447059
445614.56340225;5696598.41060074;473.06944992;13364.000000;1.000000;1.000000;1.000000;1.000000;-0.080607;0.080607;-0.080607;1.000000;0.219608;0.219608;0.109804
445614.15940197;5696598.23710068;473.11674978;18761.000000;1.000000;1.000000;1.000000;1.000000;0.092899;-0.092899;0.092899;1.000000;0.305882;0.305882;0.141176
445614.56800087;5696598.45699890;473.06325008;14906.000000;1.000000;1.000000;1.000000;1.000000;-0.126999;0.126999;-0.126999;1.000000;0.235294;0.239216;0.160784
445614.50620087;5696598.27120026;473.06524994;17219.000000;1.000000;1.000000;1.000000;1.000000;0.058800;-0.058800;0.058800;1.000000;0.258824;0.282353;0.184314
445614.59980209;5696598.43269928;473.08764984;13364.000000;1.000000;1.000000;1.000000;1.000000;-0.102699;0.102699;-0.102699;1.000000;0.219608;0.215686;0.121569
445614.59620102;5696598.47030075;473.09034969;6682.000000;1.000000;1.000000;1.000000;1.000000;-0.140301;0.140301;-0.140301;1.000000;0.105882;0.109804;0.0705882
445614.59730156;5696598.49099930;473.10694983;3084.000000;1.000000;1.000000;1.000000;1.000000;-0.160999;0.160999;-0.160999;1.000000;0.0588235;0.0509804;0.027451
445614.52340134;5696598.48439987;473.07324984;20560.000000;1.000000;1.000000;1.000000;1.000000;-0.154400;0.154400;-0.154400;1.000000;0.341176;0.313725;0.266667
445614.46920212;5696598.23909958;473.09345009;20303.000000;1.000000;1.000000;1.000000;1.000000;0.090912;-0.090912;0.090912;1.000000;0.298039;0.345098;0.172549
445614.19420155;5696598.52619751;473.09844973;24158.000000;1.000000;1.000000;1.000000;1.000000;-0.196198;0.196198;-0.196198;1.000000;0.372549;0.384314;0.294118
445614.27980145;5696598.25839813;473.13404991;7196.000000;1.000000;1.000000;1.000000;1.000000;0.071679;-0.071679;0.071679;1.000000;0.101961;0.129412;0.0470588
445614.06770142;5696598.03750046;473.12885000;25186.000000;1.000000;1.000000;1.000000;1.000000;0.065825;-0.065825;0.065825;1.000000;0.403922;0.392157;0.301961
445614.38980110;5696598.31119736;473.13735010;10794.000000;1.000000;1.000000;1.000000;1.000000;0.018803;-0.018803;0.018803;1.000000;0.152941;0.184314;0.109804
445614.65750130;5696598.38939865;473.11774971;19018.000000;1.000000;1.000000;1.000000;1.000000;-0.059402;0.059402;-0.059402;1.000000;0.321569;0.298039;0.188235
445614.39800079;5696598.33880051;473.11704971;12079.000000;1.000000;1.000000;1.000000;1.000000;-0.008801;0.008801;-0.008801;1.000000;0.184314;0.196078;0.14902
445614.08690174;5696598.43770035;473.11814978;16448.000000;1.000000;1.000000;1.000000;1.000000;-0.107700;0.107700;-0.107700;1.000000;0.270588;0.278431;0.0823529
445614.09280117;5696598.32499893;473.11704971;22616.000000;1.000000;1.000000;1.000000;1.000000;0.005744;-0.005744;0.005744;1.000000;0.360784;0.376471;0.145098
445614.21690186;5696598.44459732;473.10085012;21331.000000;1.000000;1.000000;1.000000;1.000000;-0.114597;0.114597;-0.114597;1.000000;0.341176;0.341176;0.211765
445614.55510147;5696598.46759995;473.06045010;17990.000000;1.000000;1.000000;1.000000;1.000000;-0.137912;0.137912;-0.137912;1.000000;0.294118;0.282353;0.207843
445614.55270203;5696598.39299973;473.06414988;13878.000000;1.000000;1.000000;1.000000;1.000000;-0.064072;0.064072;-0.064072;1.000000;0.235294;0.227451;0.0823529
445614.48470123;5696598.31529816;473.06244995;9252.000000;1.000000;1.000000;1.000000;1.000000;0.014702;-0.014702;0.014702;1.000000;0.141176;0.152941;0.0862745
445614.44570168;5696598.31369980;473.09564974;14649.000000;1.000000;1.000000;1.000000;1.000000;0.016300;-0.016300;0.016300;1.000000;0.223529;0.239216;0.172549
445614.52230080;5696598.28849991;473.05454971;9766.000000;1.000000;1.000000;1.000000;1.000000;0.041500;-0.041500;0.041500;1.000000;0.160784;0.160784;0.0745098
445614.59220131;5696598.40299805;473.08934977;17990.000000;1.000000;1.000000;1.000000;1.000000;-0.073078;0.073078;-0.073078;1.000000;0.290196;0.294118;0.160784
445614.54910095;5696598.31899841;473.04215004;29555.000000;1.000000;1.000000;1.000000;1.000000;0.014224;-0.014224;0.014224;1.000000;0.490196;0.462745;0.282353
445614.30570229;5696598.36409958;473.08984997;2056.000000;1.000000;1.000000;1.000000;1.000000;-0.034100;0.034100;-0.034100;1.000000;0.0313725;0.0352941;0.0117647
445614.53440102;5696598.24299820;473.05454971;14392.000000;1.000000;1.000000;1.000000;1.000000;0.087002;-0.087002;0.087002;1.000000;0.227451;0.235294;0.12549
445614.12220200;5696598.48599823;473.10864975;18761.000000;1.000000;1.000000;1.000000;1.000000;-0.155998;0.155998;-0.155998;1.000000;0.290196;0.313725;0.141176
445614.06890114;5696598.04689987;473.12204983;10537.000000;1.000000;1.000000;1.000000;1.000000;0.067024;-0.067024;0.067024;1.000000;0.180392;0.168627;0.0941176
445614.16230114;5696598.41449936;473.10734989;14135.000000;1.000000;1.000000;1.000000;1.000000;-0.084499;0.084499;-0.084499;1.000000;0.235294;0.235294;0.0901961
445614.33600243;5696598.50409897;473.06965019;18247.000000;1.000000;1.000000;1.000000;1.000000;-0.174099;0.174099;-0.174099;1.000000;0.298039;0.278431;0.231373
445614.40870102;5696598.50900085;473.07534983;12079.000000;1.000000;1.000000;1.000000;1.000000;-0.179001;0.179001;-0.179001;1.000000;0.211765;0.184314;0.145098
445614.16330154;5696598.37700089;473.11154987;18247.000000;1.000000;1.000000;1.000000;1.000000;-0.047001;0.047001;-0.047001;1.000000;0.298039;0.298039;0.141176
445614.38810165;5696598.38709839;473.07294991;3341.000000;1.000000;1.000000;1.000000;1.000000;-0.057098;0.057098;-0.057098;1.000000;0.0509804;0.054902;0.0313725
445614.16450127;5696598.33949860;473.11114981;13878.000000;1.000000;1.000000;1.000000;1.000000;-0.009499;0.009499;-0.009499;1.000000;0.227451;0.235294;0.0745098
445614.65060242;5696598.33959778;473.06325008;34181.000000;1.000000;1.000000;1.000000;1.000000;-0.009613;0.009613;-0.009613;1.000000;0.552941;0.552941;0.301961
445614.41770180;5696598.32069977;473.10844995;7710.000000;1.000000;1.000000;1.000000;1.000000;0.009300;-0.009300;0.009300;1.000000;0.121569;0.129412;0.0784314
445614.38210114;5696598.28140076;473.14365007;9252.000000;1.000000;1.000000;1.000000;1.000000;0.048599;-0.048599;0.048599;1.000000;0.129412;0.160784;0.0823529
445614.45780190;5696598.24930008;473.10934975;20046.000000;1.000000;1.000000;1.000000;1.000000;0.080763;-0.080763;0.080763;1.000000;0.290196;0.345098;0.160784
445614.54620178;5696597.91869934;473.10715010;11051.000000;1.000000;1.000000;1.000000;1.000000;-0.142810;0.142810;-0.142810;1.000000;0.160784;0.192157;0.0745098
445614.43860062;5696598.48950012;473.09735014;15163.000000;1.000000;1.000000;1.000000;1.000000;-0.159500;0.159500;-0.159500;1.000000;0.25098;0.227451;0.211765
445614.44260223;5696598.41720016;473.06645014;21074.000000;1.000000;1.000000;1.000000;1.000000;-0.087200;0.087200;-0.087200;1.000000;0.333333;0.329412;0.270588
445614.58720215;5696598.21759995;473.02164986;23644.000000;1.000000;1.000000;1.000000;1.000000;0.112400;-0.112400;0.112400;1.000000;0.396078;0.368627;0.239216
445614.47620209;5696598.32539948;473.06454994;8995.000000;1.000000;1.000000;1.000000;1.000000;0.004601;-0.004601;0.004601;1.000000;0.137255;0.14902;0.0862745
445614.67140205;5696598.25919922;473.00504972;31354.000000;1.000000;1.000000;1.000000;1.000000;0.070801;-0.070801;0.070801;1.000000;0.521569;0.486275;0.32549
445614.26330193;5696598.23189743;473.13534977;15934.000000;1.000000;1.000000;1.000000;1.000000;0.098846;-0.098846;0.098846;1.000000;0.25098;0.258824;0.164706
445614.11220177;5696598.04789932;473.09604980;20303.000000;1.000000;1.000000;1.000000;1.000000;0.110325;-0.110325;0.110325;1.000000;0.345098;0.313725;0.223529
445614.11570175;5696598.01249893;473.10045006;22873.000000;1.000000;1.000000;1.000000;1.000000;0.113825;-0.113825;0.113825;1.000000;0.384314;0.352941;0.262745
445614.07540138;5696597.97130020;473.13304998;28527.000000;1.000000;1.000000;1.000000;1.000000;0.073524;-0.073524;0.073524;1.000000;0.443137;0.45098;0.345098
445614.11680134;5696597.97500046;473.10234978;8481.000000;1.000000;1.000000;1.000000;1.000000;0.114924;-0.114924;0.114924;1.000000;0.145098;0.133333;0.0745098
445614.10050114;5696598.12150009;473.09404995;42662.000000;1.000000;1.000000;1.000000;1.000000;0.098624;-0.098624;0.098624;1.000000;0.690196;0.658824;0.521569
445614.44710167;5696598.47260101;473.08124973;20817.000000;1.000000;1.000000;1.000000;1.000000;-0.142601;0.142601;-0.142601;1.000000;0.333333;0.317647;0.278431
445614.45770081;5696598.42529877;473.06024982;15163.000000;1.000000;1.000000;1.000000;1.000000;-0.095353;0.095353;-0.095353;1.000000;0.243137;0.239216;0.176471
445614.47240074;5696598.24819763;473.09375002;16705.000000;1.000000;1.000000;1.000000;1.000000;0.081802;-0.081802;0.081802;1.000000;0.243137;0.286275;0.121569
445614.59060104;5696598.43129929;473.08024981;11308.000000;1.000000;1.000000;1.000000;1.000000;-0.101344;0.101344;-0.101344;1.000000;0.176471;0.188235;0.101961
445614.29950150;5696598.49329956;473.07954981;22359.000000;1.000000;1.000000;1.000000;1.000000;-0.163300;0.163300;-0.163300;1.000000;0.34902;0.34902;0.305882
445614.55590065;5696597.97529800;473.16645004;38550.000000;1.000000;1.000000;1.000000;1.000000;-0.177656;0.177656;-0.177656;1.000000;0.615686;0.588235;0.517647
445614.54560097;5696597.98269852;473.20335009;26728.000000;1.000000;1.000000;1.000000;1.000000;-0.189681;0.189681;-0.189681;1.000000;0.427451;0.415686;0.321569
445614.62660225;5696598.40640076;473.11184980;15677.000000;1.000000;1.000000;1.000000;1.000000;-0.076401;0.076401;-0.076401;1.000000;0.25098;0.254902;0.133333
445614.31510170;5696598.29989822;473.11054995;3084.000000;1.000000;1.000000;1.000000;1.000000;0.030102;-0.030102;0.030102;1.000000;0.0431373;0.0588235;0.0156863
445614.58360107;5696597.99320038;473.05375006;2056.000000;1.000000;1.000000;1.000000;1.000000;-0.179411;0.179411;-0.179411;1.000000;0.0509804;0.027451;0.0156863
445614.44290169;5696598.35159882;473.07964994;8738.000000;1.000000;1.000000;1.000000;1.000000;-0.021599;0.021599;-0.021599;1.000000;0.141176;0.141176;0.0980392
445614.64960106;5696598.32349976;473.05135014;36237.000000;1.000000;1.000000;1.000000;1.000000;0.006500;-0.006500;0.006500;1.000000;0.580392;0.576471;0.364706
445614.54280098;5696598.25409897;473.04575016;15163.000000;1.000000;1.000000;1.000000;1.000000;0.075949;-0.075949;0.075949;1.000000;0.254902;0.243137;0.133333
445614.44640167;5696598.36070068;473.07294991;6425.000000;1.000000;1.000000;1.000000;1.000000;-0.030701;0.030701;-0.030701;1.000000;0.101961;0.105882;0.0666667
445614.37360199;5696598.26359756;473.13835003;10794.000000;1.000000;1.000000;1.000000;1.000000;0.066483;-0.066483;0.066483;1.000000;0.160784;0.188235;0.054902
445614.39390190;5696598.22909744;473.13654997;29812.000000;1.000000;1.000000;1.000000;1.000000;0.100903;-0.100903;0.100903;1.000000;0.470588;0.486275;0.254902
445614.35660179;5696598.25589951;473.13744976;14649.000000;1.000000;1.000000;1.000000;1.000000;0.074100;-0.074100;0.074100;1.000000;0.231373;0.247059;0.0901961
445614.52430161;5696598.49360092;473.07334997;15163.000000;1.000000;1.000000;1.000000;1.000000;-0.163601;0.163601;-0.163601;1.000000;0.247059;0.235294;0.176471
445614.32080086;5696598.22410019;473.14015009;12079.000000;1.000000;1.000000;1.000000;1.000000;0.105900;-0.105900;0.105900;1.000000;0.2;0.203922;0.0705882
445614.06290157;5696598.10140045;473.10844995;23644.000000;1.000000;1.000000;1.000000;1.000000;0.061025;-0.061025;0.061025;1.000000;0.392157;0.368627;0.258824
445614.57630165;5696598.34639938;473.06465008;36237.000000;1.000000;1.000000;1.000000;1.000000;-0.016399;0.016399;-0.016399;1.000000;0.592157;0.568627;0.364706
445614.61240204;5696598.42199905;473.09744980;16705.000000;1.000000;1.000000;1.000000;1.000000;-0.091999;0.091999;-0.091999;1.000000;0.266667;0.266667;0.168627
445614.49750145;5696598.23209961;473.07375004;10023.000000;1.000000;1.000000;1.000000;1.000000;0.097900;-0.097900;0.097900;1.000000;0.145098;0.176471;0.0588235
445614.42610176;5696598.35069855;473.08815004;5911.000000;1.000000;1.000000;1.000000;1.000000;-0.020699;0.020699;-0.020699;1.000000;0.0980392;0.0980392;0.0588235
445614.42820175;5696598.24009903;473.12424995;37779.000000;1.000000;1.000000;1.000000;1.000000;0.089901;-0.089901;0.089901;1.000000;0.568627;0.615686;0.4
445614.62040146;5696598.34689911;473.07364990;19789.000000;1.000000;1.000000;1.000000;1.000000;-0.016973;0.016973;-0.016973;1.000000;0.333333;0.329412;0.0862745
445614.17540176;5696598.33149918;473.11154987;13621.000000;1.000000;1.000000;1.000000;1.000000;-0.001499;0.001499;-0.001499;1.000000;0.223529;0.231373;0.0588235
445614.11490162;5696597.95639999;473.10675003;20303.000000;1.000000;1.000000;1.000000;1.000000;0.113025;-0.113025;0.113025;1.000000;0.329412;0.313725;0.243137
445614.56430061;5696597.93810089;473.10815002;9509.000000;1.000000;1.000000;1.000000;1.000000;-0.143140;0.143140;-0.143140;1.000000;0.14902;0.152941;0.0980392
445614.09340199;5696598.02849777;473.10895016;20303.000000;1.000000;1.000000;1.000000;1.000000;0.091525;-0.091525;0.091525;1.000000;0.34902;0.313725;0.215686
445614.06140144;5696597.95369919;473.14615013;31354.000000;1.000000;1.000000;1.000000;1.000000;0.059525;-0.059525;0.059525;1.000000;0.478431;0.501961;0.368627
445614.10050114;5696597.95529755;473.11305000;13107.000000;1.000000;1.000000;1.000000;1.000000;0.098624;-0.098624;0.098624;1.000000;0.215686;0.207843;0.121569
445614.51780136;5696597.97170074;473.17404987;24415.000000;1.000000;1.000000;1.000000;1.000000;-0.199425;0.199425;-0.199425;1.000000;0.439216;0.364706;0.247059
445614.17680176;5696598.51610001;473.09985020;30840.000000;1.000000;1.000000;1.000000;1.000000;-0.186100;0.186100;-0.186100;1.000000;0.470588;0.490196;0.368627
445614.17800148;5696598.47859772;473.09945013;21331.000000;1.000000;1.000000;1.000000;1.000000;-0.148598;0.148598;-0.148598;1.000000;0.329412;0.34902;0.196078
445614.59070213;5696597.91029938;473.08804991;22359.000000;1.000000;1.000000;1.000000;1.000000;-0.104853;0.104853;-0.104853;1.000000;0.34902;0.360784;0.235294
445614.58070190;5696598.22519882;473.02614977;16962.000000;1.000000;1.000000;1.000000;1.000000;0.104801;-0.104801;0.104801;1.000000;0.305882;0.262745;0.141176
445614.40820129;5696598.34039886;473.10125019;4626.000000;1.000000;1.000000;1.000000;1.000000;-0.010399;0.010399;-0.010399;1.000000;0.0705882;0.0784314;0.0509804
445614.04990108;5696598.02729996;473.13954975;29041.000000;1.000000;1.000000;1.000000;1.000000;0.048024;-0.048024;0.048024;1.000000;0.458824;0.454902;0.356863
445614.66190155;5696598.33169754;473.05434992;39835.000000;1.000000;1.000000;1.000000;1.000000;-0.001698;0.001698;-0.001698;1.000000;0.635294;0.639216;0.396078
445614.25830181;5696598.31450089;473.10584976;2570.000000;1.000000;1.000000;1.000000;1.000000;0.017109;-0.017109;0.017109;1.000000;0.0392157;0.0509804;0.00784314
445614.65510185;5696598.38509949;473.11054995;22616.000000;1.000000;1.000000;1.000000;1.000000;-0.055182;0.055182;-0.055182;1.000000;0.364706;0.364706;0.207843
445614.21300133;5696598.33040054;473.10624983;21074.000000;1.000000;1.000000;1.000000;1.000000;-0.000401;0.000401;-0.000401;1.000000;0.333333;0.341176;0.196078
445614.42720230;5696598.35999878;473.08134987;8481.000000;1.000000;1.000000;1.000000;1.000000;-0.029999;0.029999;-0.029999;1.000000;0.137255;0.137255;0.0980392
445614.11130150;5696597.99180038;473.10465004;16448.000000;1.000000;1.000000;1.000000;1.000000;0.109425;-0.109425;0.109425;1.000000;0.278431;0.254902;0.184314
445614.14930161;5696598.49759872;473.10074999;18761.000000;1.000000;1.000000;1.000000;1.000000;-0.167754;0.167754;-0.167754;1.000000;0.286275;0.313725;0.141176
445614.41720207;5696598.33949860;473.10624983;8995.000000;1.000000;1.000000;1.000000;1.000000;-0.009499;0.009499;-0.009499;1.000000;0.141176;0.145098;0.109804
445614.53690155;5696597.95429810;473.12804987;22359.000000;1.000000;1.000000;1.000000;1.000000;-0.173625;0.173625;-0.173625;1.000000;0.368627;0.345098;0.278431
445614.43460091;5696598.22799881;473.11275007;42919.000000;1.000000;1.000000;1.000000;1.000000;0.102001;-0.102001;0.102001;1.000000;0.647059;0.698039;0.466667
445614.55570229;5696597.97519882;473.17105009;16191.000000;1.000000;1.000000;1.000000;1.000000;-0.177689;0.177689;-0.177689;1.000000;0.286275;0.239216;0.196078
445614.19470127;5696598.50739868;473.10055019;32896.000000;1.000000;1.000000;1.000000;1.000000;-0.177399;0.177399;-0.177399;1.000000;0.509804;0.521569;0.403922
445614.09010132;5696598.01939972;473.11334993;17219.000000;1.000000;1.000000;1.000000;1.000000;0.088224;-0.088224;0.088224;1.000000;0.298039;0.262745;0.172549
445614.05210121;5696597.98029907;473.14844992;26728.000000;1.000000;1.000000;1.000000;1.000000;0.050224;-0.050224;0.050224;1.000000;0.411765;0.427451;0.305882
445614.23610123;5696598.39850052;473.09644987;25957.000000;1.000000;1.000000;1.000000;1.000000;-0.068501;0.068501;-0.068501;1.000000;0.411765;0.407843;0.301961
445614.58080109;5696597.97439774;473.07674982;3341.000000;1.000000;1.000000;1.000000;1.000000;-0.163799;0.163799;-0.163799;1.000000;0.054902;0.054902;0.0352941
445614.55190094;5696598.27210052;473.03704979;17476.000000;1.000000;1.000000;1.000000;1.000000;0.059097;-0.059097;0.059097;1.000000;0.305882;0.278431;0.129412
445614.17910202;5696598.44109924;473.10144999;14135.000000;1.000000;1.000000;1.000000;1.000000;-0.111099;0.111099;-0.111099;1.000000;0.231373;0.235294;0.0941176
445614.49170120;5696598.33579834;473.05375006;11565.000000;1.000000;1.000000;1.000000;1.000000;-0.005798;0.005798;-0.005798;1.000000;0.180392;0.188235;0.105882
445614.33940132;5696598.22239883;473.13864996;21331.000000;1.000000;1.000000;1.000000;1.000000;0.107601;-0.107601;0.107601;1.000000;0.341176;0.352941;0.14902
445614.57280167;5696598.46109970;473.07054998;12079.000000;1.000000;1.000000;1.000000;1.000000;-0.131100;0.131100;-0.131100;1.000000;0.207843;0.188235;0.133333
445614.08210190;5696598.10209854;473.09765007;39321.000000;1.000000;1.000000;1.000000;1.000000;0.080225;-0.080225;0.080225;1.000000;0.635294;0.607843;0.482353
445614.57380112;5696598.42130096;473.07004978;10537.000000;1.000000;1.000000;1.000000;1.000000;-0.091301;0.091301;-0.091301;1.000000;0.164706;0.176471;0.0784314
445614.50340088;5696598.26899918;473.06974985;19532.000000;1.000000;1.000000;1.000000;1.000000;0.061001;-0.061001;0.061001;1.000000;0.294118;0.317647;0.219608
445614.55630119;5696598.35539825;473.06155016;33153.000000;1.000000;1.000000;1.000000;1.000000;-0.026651;0.026651;-0.026651;1.000000;0.537255;0.52549;0.333333
445614.22440155;5696598.49999817;473.09945013;20046.000000;1.000000;1.000000;1.000000;1.000000;-0.169998;0.169998;-0.169998;1.000000;0.309804;0.321569;0.215686
445614.60820206;5696598.40369995;473.09934999;16705.000000;1.000000;1.000000;1.000000;1.000000;-0.073700;0.073700;-0.073700;1.000000;0.266667;0.270588;0.160784
445614.24240120;5696598.29719742;473.11184980;7196.000000;1.000000;1.000000;1.000000;1.000000;0.032803;-0.032803;0.032803;1.000000;0.105882;0.121569;0.0588235
445614.26790150;5696598.31609924;473.10155012;2056.000000;1.000000;1.000000;1.000000;1.000000;0.020617;-0.020617;0.020617;1.000000;0.027451;0.0392157;0.00392157
445614.37910088;5696598.32150085;473.13695004;10537.000000;1.000000;1.000000;1.000000;1.000000;0.008499;-0.008499;0.008499;1.000000;0.156863;0.172549;0.121569
445614.51600082;5696598.44569977;473.05375006;10280.000000;1.000000;1.000000;1.000000;1.000000;-0.115700;0.115700;-0.115700;1.000000;0.176471;0.164706;0.0901961
445614.62690170;5696597.98749741;473.01375010;20560.000000;1.000000;1.000000;1.000000;1.000000;-0.160563;0.160563;-0.160563;1.000000;0.345098;0.309804;0.270588
445614.47600182;5696598.49059875;473.10144999;40606.000000;1.000000;1.000000;1.000000;1.000000;-0.160599;0.160599;-0.160599;1.000000;0.639216;0.623529;0.576471
445614.33390244;5696598.33519943;473.13044979;12593.000000;1.000000;1.000000;1.000000;1.000000;-0.005199;0.005199;-0.005199;1.000000;0.176471;0.215686;0.12549
445614.65600212;5696598.46150024;473.14645006;26214.000000;1.000000;1.000000;1.000000;1.000000;-0.131517;0.131517;-0.131517;1.000000;0.419608;0.396078;0.368627
445614.47640236;5696598.30649765;473.07364990;8738.000000;1.000000;1.000000;1.000000;1.000000;0.023502;-0.023502;0.023502;1.000000;0.137255;0.14902;0.0705882
445614.61580093;5696598.48919876;473.11004974;15677.000000;1.000000;1.000000;1.000000;1.000000;-0.159199;0.159199;-0.159199;1.000000;0.235294;0.25098;0.219608
445614.16020115;5696598.48950012;473.10344984;21331.000000;1.000000;1.000000;1.000000;1.000000;-0.159500;0.159500;-0.159500;1.000000;0.329412;0.352941;0.188235
445614.55340202;5696598.26259811;473.03695013;12593.000000;1.000000;1.000000;1.000000;1.000000;0.068290;-0.068290;0.068290;1.000000;0.223529;0.2;0.0745098
445614.23290165;5696598.48990067;473.09744980;16191.000000;1.000000;1.000000;1.000000;1.000000;-0.159901;0.159901;-0.159901;1.000000;0.254902;0.262745;0.164706
445614.38240250;5696598.49759872;473.06465008;23644.000000;1.000000;1.000000;1.000000;1.000000;-0.167599;0.167599;-0.167599;1.000000;0.384314;0.360784;0.329412
445614.65340240;5696598.42469986;473.12724974;14392.000000;1.000000;1.000000;1.000000;1.000000;-0.094756;0.094756;-0.094756;1.000000;0.227451;0.235294;0.129412
445614.35690125;5696598.23480042;473.13954975;20560.000000;1.000000;1.000000;1.000000;1.000000;0.095200;-0.095200;0.095200;1.000000;0.321569;0.34902;0.12549
445614.21270187;5696598.35149963;473.10414984;11565.000000;1.000000;1.000000;1.000000;1.000000;-0.021500;0.021500;-0.021500;1.000000;0.192157;0.192157;0.0705882
445614.62370117;5696598.32799728;473.06425001;33924.000000;1.000000;1.000000;1.000000;1.000000;0.003754;-0.003754;0.003754;1.000000;0.560784;0.541176;0.305882
445614.41230209;5696598.47130020;473.07275011;15677.000000;1.000000;1.000000;1.000000;1.000000;-0.141300;0.141300;-0.141300;1.000000;0.258824;0.239216;0.215686
445614.33190163;5696598.36649902;473.08414986;3598.000000;1.000000;1.000000;1.000000;1.000000;-0.036499;0.036499;-0.036499;1.000000;0.054902;0.0627451;0.0313725
445614.52750214;5696598.39319809;473.05135014;26471.000000;1.000000;1.000000;1.000000;1.000000;-0.063198;0.063198;-0.063198;1.000000;0.419608;0.419608;0.309804
445614.55960091;5696598.46710022;473.06304981;15420.000000;1.000000;1.000000;1.000000;1.000000;-0.137183;0.137183;-0.137183;1.000000;0.25098;0.243137;0.176471
445614.52210243;5696598.46589859;473.06365015;5140.000000;1.000000;1.000000;1.000000;1.000000;-0.135899;0.135899;-0.135899;1.000000;0.0901961;0.0862745;0.0352941
445614.57430084;5696598.20709808;473.02794983;20303.000000;1.000000;1.000000;1.000000;1.000000;0.122902;-0.122902;0.122902;1.000000;0.333333;0.32549;0.196078
445614.49180229;5696598.31469925;473.05814983;12336.000000;1.000000;1.000000;1.000000;1.000000;0.015301;-0.015301;0.015301;1.000000;0.2;0.2;0.12549
445614.62140091;5696598.42329987;473.10715010;13364.000000;1.000000;1.000000;1.000000;1.000000;-0.093334;0.093334;-0.093334;1.000000;0.219608;0.211765;0.121569
445614.49100121;5696597.93079956;473.11175014;23387.000000;1.000000;1.000000;1.000000;1.000000;-0.195171;0.195171;-0.195171;1.000000;0.396078;0.360784;0.25098
445614.59930237;5696597.95689972;473.04474976;6682.000000;1.000000;1.000000;1.000000;1.000000;-0.139871;0.139871;-0.139871;1.000000;0.12549;0.0980392;0.0745098
445614.50470169;5696598.49279984;473.09114983;21331.000000;1.000000;1.000000;1.000000;1.000000;-0.162800;0.162800;-0.162800;1.000000;0.345098;0.32549;0.27451
445614.29160126;5696598.21499832;473.14575006;4883.000000;1.000000;1.000000;1.000000;1.000000;0.115002;-0.115002;0.115002;1.000000;0.0784314;0.0862745;0.0156863
445614.33680161;5696598.48539932;473.06484987;36237.000000;1.000000;1.000000;1.000000;1.000000;-0.155399;0.155399;-0.155399;1.000000;0.568627;0.556863;0.513725
445614.41350182;5696598.43379791;473.07235004;28013.000000;1.000000;1.000000;1.000000;1.000000;-0.103798;0.103798;-0.103798;1.000000;0.435294;0.431373;0.392157
445614.57840164;5696598.42320068;473.07494976;10280.000000;1.000000;1.000000;1.000000;1.000000;-0.093201;0.093201;-0.093201;1.000000;0.156863;0.172549;0.0823529
445614.58720215;5696598.27350052;473.03394987;49344.000000;1.000000;1.000000;1.000000;1.000000;0.056499;-0.056499;0.056499;1.000000;0.792157;0.764706;0.607843
445614.55540092;5696598.23439987;473.03674986;11822.000000;1.000000;1.000000;1.000000;1.000000;0.096021;-0.096021;0.096021;1.000000;0.2;0.192157;0.0705882
445614.57080086;5696597.95619782;473.10634996;3855.000000;1.000000;1.000000;1.000000;1.000000;-0.153466;0.153466;-0.153466;1.000000;0.0705882;0.0627451;0.0352941
445614.29240234;5696598.22199829;473.14354994;5654.000000;1.000000;1.000000;1.000000;1.000000;0.108002;-0.108002;0.108002;1.000000;0.0901961;0.0980392;0.0313725
445614.25170143;5696598.29640015;473.10995008;3598.000000;1.000000;1.000000;1.000000;1.000000;0.033606;-0.033606;0.033606;1.000000;0.054902;0.0666667;0.0196078
445614.12920197;5696598.33809860;473.11424973;14906.000000;1.000000;1.000000;1.000000;1.000000;-0.008099;0.008099;-0.008099;1.000000;0.243137;0.25098;0.0627451
445614.06370171;5696598.11059769;473.10855009;38807.000000;1.000000;1.000000;1.000000;1.000000;0.061825;-0.061825;0.061825;1.000000;0.631373;0.6;0.466667
445614.31790169;5696598.30649765;473.11534979;6939.000000;1.000000;1.000000;1.000000;1.000000;0.023502;-0.023502;0.023502;1.000000;0.0980392;0.121569;0.054902
445614.51600082;5696598.25160034;473.06544973;19275.000000;1.000000;1.000000;1.000000;1.000000;0.078400;-0.078400;0.078400;1.000000;0.290196;0.313725;0.203922
445614.42990120;5696598.25860031;473.12454988;18504.000000;1.000000;1.000000;1.000000;1.000000;0.071400;-0.071400;0.071400;1.000000;0.27451;0.309804;0.164706
445614.39310081;5696598.21759995;473.12934973;35980.000000;1.000000;1.000000;1.000000;1.000000;0.112400;-0.112400;0.112400;1.000000;0.560784;0.584314;0.345098
445614.57940109;5696598.45809753;473.07315018;11565.000000;1.000000;1.000000;1.000000;1.000000;-0.128098;0.128098;-0.128098;1.000000;0.188235;0.180392;0.129412
445614.54530151;5696597.93739899;473.11424973;2570.000000;1.000000;1.000000;1.000000;1.000000;-0.155769;0.155769;-0.155769;1.000000;0.0470588;0.0470588;0.00784314
445614.50870140;5696597.96129807;473.14554979;23901.000000;1.000000;1.000000;1.000000;1.000000;-0.198915;0.198915;-0.198915;1.000000;0.411765;0.364706;0.270588
445614.56310089;5696598.35470016;473.06414988;35209.000000;1.000000;1.000000;1.000000;1.000000;-0.024733;0.024733;-0.024733;1.000000;0.568627;0.556863;0.352941
445614.20420177;5696598.50889786;473.10104992;30326.000000;1.000000;1.000000;1.000000;1.000000;-0.178898;0.178898;-0.178898;1.000000;0.470588;0.478431;0.372549
445614.28030117;5696598.46700104;473.08764984;25957.000000;1.000000;1.000000;1.000000;1.000000;-0.137030;0.137030;-0.137030;1.000000;0.4;0.403922;0.352941
445614.27250202;5696598.48399933;473.08984997;15163.000000;1.000000;1.000000;1.000000;1.000000;-0.154365;0.154365;-0.154365;1.000000;0.235294;0.243137;0.176471
445614.52700241;5696597.97310074;473.18144991;32125.000000;1.000000;1.000000;1.000000;1.000000;-0.194091;0.194091;-0.194091;1.000000;0.54902;0.486275;0.376471
445614.45060165;5696598.22870071;473.12274982;29812.000000;1.000000;1.000000;1.000000;1.000000;0.101299;-0.101299;0.101299;1.000000;0.486275;0.470588;0.301961
445614.44980247;5696598.30629929;473.09334995;16448.000000;1.000000;1.000000;1.000000;1.000000;0.023701;-0.023701;0.023701;1.000000;0.25098;0.266667;0.192157
445614.46620186;5696598.48459824;473.09854986;27499.000000;1.000000;1.000000;1.000000;1.000000;-0.154662;0.154662;-0.154662;1.000000;0.439216;0.419608;0.388235
445614.52880104;5696597.93429764;473.11114981;11822.000000;1.000000;1.000000;1.000000;1.000000;-0.166142;0.166142;-0.166142;1.000000;0.192157;0.192157;0.113725
445614.57830246;5696597.98670013;473.05345013;4883.000000;1.000000;1.000000;1.000000;1.000000;-0.175860;0.175860;-0.175860;1.000000;0.0901961;0.0745098;0.054902
445614.42190178;5696598.42370041;473.07254984;27242.000000;1.000000;1.000000;1.000000;1.000000;-0.093700;0.093700;-0.093700;1.000000;0.427451;0.419608;0.376471
445614.30740173;5696598.31469925;473.10564997;3855.000000;1.000000;1.000000;1.000000;1.000000;0.015336;-0.015336;0.015336;1.000000;0.054902;0.0666667;0.0313725
445614.21410187;5696598.29519852;473.11284973;8224.000000;1.000000;1.000000;1.000000;1.000000;0.034801;-0.034801;0.034801;1.000000;0.121569;0.145098;0.0392157
445614.66980179;5696598.30559738;473.03345015;36237.000000;1.000000;1.000000;1.000000;1.000000;0.024403;-0.024403;0.024403;1.000000;0.584314;0.572549;0.372549
445614.51110085;5696597.91739853;473.10554983;21331.000000;1.000000;1.000000;1.000000;1.000000;-0.171041;0.171041;-0.171041;1.000000;0.341176;0.341176;0.223529
445614.54420097;5696597.96499832;473.14484980;43433.000000;1.000000;1.000000;1.000000;1.000000;-0.176646;0.176646;-0.176646;1.000000;0.694118;0.662745;0.584314
445614.21480186;5696598.47279938;473.10104992;18761.000000;1.000000;1.000000;1.000000;1.000000;-0.142799;0.142799;-0.142799;1.000000;0.294118;0.305882;0.188235
445614.57060249;5696598.24469955;473.03294994;17990.000000;1.000000;1.000000;1.000000;1.000000;0.085300;-0.085300;0.085300;1.000000;0.313725;0.278431;0.152941
445614.29700096;5696598.32509811;473.09835007;3855.000000;1.000000;1.000000;1.000000;1.000000;0.004902;-0.004902;0.004902;1.000000;0.054902;0.0666667;0.027451
445614.58990105;5696598.47789963;473.09014990;9766.000000;1.000000;1.000000;1.000000;1.000000;-0.147918;0.147918;-0.147918;1.000000;0.160784;0.152941;0.121569
445614.51210220;5696598.26119812;473.06775000;26471.000000;1.000000;1.000000;1.000000;1.000000;0.068802;-0.068802;0.068802;1.000000;0.415686;0.419608;0.298039
445614.28150185;5696598.27009781;473.12024977;4883.000000;1.000000;1.000000;1.000000;1.000000;0.059924;-0.059924;0.059924;1.000000;0.0705882;0.0862745;0.0352941
445614.50220116;5696598.47719772;473.06054976;30840.000000;1.000000;1.000000;1.000000;1.000000;-0.147198;0.147198;-0.147198;1.000000;0.490196;0.47451;0.4
445614.28990181;5696598.24329956;473.13894989;18247.000000;1.000000;1.000000;1.000000;1.000000;0.086700;-0.086700;0.086700;1.000000;0.286275;0.294118;0.2
445614.19430168;5696598.33209808;473.11014988;17990.000000;1.000000;1.000000;1.000000;1.000000;-0.002098;0.002098;-0.002098;1.000000;0.286275;0.294118;0.137255
445614.64150246;5696598.34720047;473.07455017;29298.000000;1.000000;1.000000;1.000000;1.000000;-0.017200;0.017200;-0.017200;1.000000;0.47451;0.47451;0.239216
445614.41260155;5696598.27649887;473.13094999;6939.000000;1.000000;1.000000;1.000000;1.000000;0.053501;-0.053501;0.053501;1.000000;0.105882;0.121569;0.0509804
445614.51410110;5696598.23299988;473.06984999;11822.000000;1.000000;1.000000;1.000000;1.000000;0.097000;-0.097000;0.097000;1.000000;0.180392;0.2;0.0862745
445614.37640198;5696598.21669968;473.13555004;29812.000000;1.000000;1.000000;1.000000;1.000000;0.113301;-0.113301;0.113301;1.000000;0.466667;0.490196;0.25098
445614.60890205;5696598.45969971;473.09774973;4626.000000;1.000000;1.000000;1.000000;1.000000;-0.129700;0.129700;-0.129700;1.000000;0.0784314;0.0745098;0.0431373
445614.55940063;5696598.00049789;473.03415014;3084.000000;1.000000;1.000000;1.000000;1.000000;-0.197019;0.197019;-0.197019;1.000000;0.0666667;0.0470588;0.0235294
445614.45670135;5696598.48309906;473.09814980;21588.000000;1.000000;1.000000;1.000000;1.000000;-0.153114;0.153114;-0.153114;1.000000;0.34902;0.329412;0.298039
445614.28580101;5696598.37309845;473.08215000;5654.000000;1.000000;1.000000;1.000000;1.000000;-0.043098;0.043098;-0.043098;1.000000;0.0901961;0.0901961;0.0588235
445614.46180161;5696598.36879929;473.05975010;11565.000000;1.000000;1.000000;1.000000;1.000000;-0.039485;0.039485;-0.039485;1.000000;0.180392;0.184314;0.12549
445614.45060165;5696598.21969803;473.10174992;23130.000000;1.000000;1.000000;1.000000;1.000000;0.110302;-0.110302;0.110302;1.000000;0.345098;0.392157;0.192157
445614.28310116;5696598.41779907;473.08015015;8481.000000;1.000000;1.000000;1.000000;1.000000;-0.087799;0.087799;-0.087799;1.000000;0.137255;0.137255;0.0705882
445614.09410198;5696598.51409729;473.11704971;30326.000000;1.000000;1.000000;1.000000;1.000000;-0.184104;0.184104;-0.184104;1.000000;0.45098;0.501961;0.317647
445614.60140236;5696597.97550018;473.03574993;3598.000000;1.000000;1.000000;1.000000;1.000000;-0.156167;0.156167;-0.156167;1.000000;0.0745098;0.0509804;0.0352941
445614.07410152;5696598.09340103;473.10185005;27242.000000;1.000000;1.000000;1.000000;1.000000;0.072225;-0.072225;0.072225;1.000000;0.447059;0.419608;0.309804
445614.46900185;5696598.44750031;473.06334974;14649.000000;1.000000;1.000000;1.000000;1.000000;-0.117512;0.117512;-0.117512;1.000000;0.247059;0.227451;0.168627
445614.57150085;5696597.97529800;473.07634975;2570.000000;1.000000;1.000000;1.000000;1.000000;-0.169161;0.169161;-0.169161;1.000000;0.0509804;0.0392157;0.0196078
445614.10400112;5696598.49460037;473.11494972;13621.000000;1.000000;1.000000;1.000000;1.000000;-0.164600;0.164600;-0.164600;1.000000;0.207843;0.235294;0.0745098
445614.06210144;5696598.14800079;473.11824991;42919.000000;1.000000;1.000000;1.000000;1.000000;0.060225;-0.060225;0.060225;1.000000;0.701961;0.662745;0.501961
445614.15950115;5696598.50599869;473.10125019;14392.000000;1.000000;1.000000;1.000000;1.000000;-0.175999;0.175999;-0.175999;1.000000;0.219608;0.247059;0.0901961
445614.23910149;5696598.37959869;473.09404995;22102.000000;1.000000;1.000000;1.000000;1.000000;-0.049599;0.049599;-0.049599;1.000000;0.34902;0.34902;0.25098
445614.07460125;5696598.30800064;473.12074997;22102.000000;1.000000;1.000000;1.000000;1.000000;0.021999;-0.021999;0.021999;1.000000;0.34902;0.360784;0.188235
445614.11000164;5696598.30940063;473.11765005;24158.000000;1.000000;1.000000;1.000000;1.000000;0.020599;-0.020599;0.020599;1.000000;0.380392;0.407843;0.145098
445614.66580208;5696598.47439774;473.16335012;41120.000000;1.000000;1.000000;1.000000;1.000000;-0.144398;0.144398;-0.144398;1.000000;0.639216;0.627451;0.607843
445614.11340149;5696598.27169998;473.11975004;25186.000000;1.000000;1.000000;1.000000;1.000000;0.058300;-0.058300;0.058300;1.000000;0.388235;0.423529;0.188235
445614.23480137;5696598.43599899;473.09914972;14135.000000;1.000000;1.000000;1.000000;1.000000;-0.105999;0.105999;-0.105999;1.000000;0.227451;0.231373;0.129412
445614.27840145;5696598.32679947;473.09985020;2056.000000;1.000000;1.000000;1.000000;1.000000;0.005707;-0.005707;0.005707;1.000000;0.0313725;0.0392157;0.00392157
445614.07710178;5696598.23309906;473.11765005;49344.000000;1.000000;1.000000;1.000000;1.000000;0.081415;-0.081415;0.081415;1.000000;0.768627;0.780392;0.592157
