//X;Y;Z;Intensity;Return Number;Number Of Returns;Scan Direction Flag;Point Source ID;C2M signed distances[-][<0.8];C2M signed distances[<0.4];C2M signed distances[-][<0.2];Stump59;Rf;Gf;Bf
300
445631.96310242;5696575.54029949;471.45464994;9509.000000;1.000000;1.000000;1.000000;1.000000;0.007524;-0.007524;0.007524;1.000000;0.176471;0.137255;0.105882
445631.83900269;5696575.54769905;471.42124989;26214.000000;1.000000;1.000000;1.000000;1.000000;0.024626;-0.024626;0.024626;1.000000;0.403922;0.4;0.403922
445632.35870178;5696575.84639938;471.35045006;37522.000000;1.000000;1.000000;1.000000;1.000000;-0.016399;0.016399;-0.016399;1.000000;0.588235;0.576471;0.541176
445631.98760040;5696575.55209930;471.45365002;13621.000000;1.000000;1.000000;1.000000;1.000000;-0.016973;0.016973;-0.016973;1.000000;0.243137;0.2;0.164706
445632.39380081;5696575.84999950;471.35675003;44204.000000;1.000000;1.000000;1.000000;1.000000;0.020000;-0.020000;0.020000;1.000000;0.694118;0.67451;0.627451
445632.06180008;5696575.55509956;471.41974976;24929.000000;1.000000;1.000000;1.000000;1.000000;-0.091173;0.091173;-0.091173;1.000000;0.411765;0.384314;0.305882
445631.80030258;5696575.50929935;471.42135002;15677.000000;1.000000;1.000000;1.000000;1.000000;-0.014074;0.014074;-0.014074;1.000000;0.243137;0.243137;0.239216
445632.17460068;5696575.56099899;471.42024996;33667.000000;1.000000;1.000000;1.000000;1.000000;-0.034685;0.034685;-0.034685;1.000000;0.545098;0.517647;0.431373
445632.24750336;5696575.56359871;471.41655018;44461.000000;1.000000;1.000000;1.000000;1.000000;0.035675;-0.035675;0.035675;1.000000;0.698039;0.682353;0.627451
445631.76860245;5696575.47009953;471.42175009;17990.000000;1.000000;1.000000;1.000000;1.000000;-0.045774;0.045774;-0.045774;1.000000;0.290196;0.27451;0.25098
445631.84420212;5696575.47189911;471.46014978;50115.000000;1.000000;1.000000;1.000000;1.000000;0.029825;-0.029825;0.029825;1.000000;0.764706;0.768627;0.745098
445632.21339996;5696575.52469929;471.41694977;36237.000000;1.000000;1.000000;1.000000;1.000000;-0.008479;0.008479;-0.008479;1.000000;0.572549;0.556863;0.505882
445631.84679993;5696575.41589935;471.44094994;26728.000000;1.000000;1.000000;1.000000;1.000000;0.032423;-0.032423;0.032423;1.000000;0.407843;0.411765;0.407843
445632.02470215;5696575.48149879;471.41715004;33667.000000;1.000000;1.000000;1.000000;1.000000;-0.055096;0.055096;-0.055096;1.000000;0.541176;0.513725;0.454902
445631.76960190;5696575.43029888;471.42135002;28784.000000;1.000000;1.000000;1.000000;1.000000;-0.044775;0.044775;-0.044775;1.000000;0.447059;0.439216;0.419608
445632.10360153;5696575.48179920;471.37885000;29812.000000;1.000000;1.000000;1.000000;1.000000;-0.126075;0.126075;-0.126075;1.000000;0.490196;0.45098;0.380392
445631.99060257;5696575.44259937;471.41755011;41634.000000;1.000000;1.000000;1.000000;1.000000;-0.053323;0.053323;-0.053323;1.000000;0.654902;0.635294;0.596078
445632.36190231;5696575.49519928;471.38135006;25186.000000;1.000000;1.000000;1.000000;1.000000;0.046225;-0.046225;0.046225;1.000000;0.392157;0.388235;0.368627
445632.10500153;5696575.44659908;471.37844994;33924.000000;1.000000;1.000000;1.000000;1.000000;-0.135239;0.135239;-0.135239;1.000000;0.541176;0.517647;0.466667
445632.24790009;5696575.37719925;471.38415005;58082.000000;1.000000;1.000000;1.000000;1.000000;-0.019545;0.019545;-0.019545;1.000000;0.890196;0.890196;0.854902
445632.14340027;5696575.41029938;471.38444998;38550.000000;1.000000;1.000000;1.000000;1.000000;-0.109415;0.109415;-0.109415;1.000000;0.603922;0.592157;0.552941
445632.21850021;5696575.41269882;471.38324978;39064.000000;1.000000;1.000000;1.000000;1.000000;-0.037018;0.037018;-0.037018;1.000000;0.607843;0.6;0.572549
445632.12970169;5696575.67969902;471.41734983;17733.000000;1.000000;1.000000;1.000000;1.000000;-0.049237;0.049237;-0.049237;1.000000;0.309804;0.262745;0.215686
445632.20480164;5696575.68199928;471.41604998;8738.000000;1.000000;1.000000;1.000000;1.000000;0.030694;-0.030694;0.030694;1.000000;0.160784;0.129412;0.109804
445631.93430145;5696575.94149883;471.36735012;33410.000000;1.000000;1.000000;1.000000;1.000000;0.117267;-0.117267;0.117267;1.000000;0.533333;0.509804;0.478431
445631.86030014;5696575.89939888;471.36584999;26471.000000;1.000000;1.000000;1.000000;1.000000;0.083217;-0.083217;0.083217;1.000000;0.435294;0.403922;0.345098
445631.89800079;5696575.90289886;471.36525013;51657.000000;1.000000;1.000000;1.000000;1.000000;0.102902;-0.102902;0.102902;1.000000;0.815686;0.788235;0.741176
445632.15740021;5696575.95119961;471.36584999;17219.000000;1.000000;1.000000;1.000000;1.000000;0.124984;-0.124984;0.124984;1.000000;0.290196;0.258824;0.235294
445631.86180313;5696575.86419876;471.36315014;26728.000000;1.000000;1.000000;1.000000;1.000000;0.058471;-0.058471;0.058471;1.000000;0.439216;0.403922;0.356863
445631.89930161;5696575.86769875;471.36724998;25443.000000;1.000000;1.000000;1.000000;1.000000;0.080675;-0.080675;0.080675;1.000000;0.431373;0.384314;0.32549
445631.86510284;5696575.82649906;471.36744978;28527.000000;1.000000;1.000000;1.000000;1.000000;-0.050847;0.050847;-0.050847;1.000000;0.466667;0.431373;0.380392
445631.90030106;5696575.82789906;471.36674978;41120.000000;1.000000;1.000000;1.000000;1.000000;0.070326;-0.070326;0.070326;1.000000;0.662745;0.623529;0.576471
445632.27260025;5696575.88219936;471.36324980;32125.000000;1.000000;1.000000;1.000000;1.000000;-0.066859;0.066859;-0.066859;1.000000;0.505882;0.490196;0.458824
445632.20280273;5696575.56299885;471.42154982;24672.000000;1.000000;1.000000;1.000000;1.000000;-0.007170;0.007170;-0.007170;1.000000;0.403922;0.380392;0.301961
445632.12360199;5696575.83989914;471.36534979;13878.000000;1.000000;1.000000;1.000000;1.000000;0.009899;-0.009899;0.009899;1.000000;0.211765;0.211765;0.215686
445632.16190155;5696575.84049900;471.39974977;14906.000000;1.000000;1.000000;1.000000;1.000000;0.036564;-0.036564;0.036564;1.000000;0.227451;0.231373;0.231373
445632.23950012;5696575.80569942;471.36784985;17733.000000;1.000000;1.000000;1.000000;1.000000;0.078721;-0.078721;0.078721;1.000000;0.278431;0.270588;0.25098
445632.05370148;5696575.75939949;471.40084984;8995.000000;1.000000;1.000000;1.000000;1.000000;-0.070601;0.070601;-0.070601;1.000000;0.145098;0.137255;0.14902
445631.94470032;5696575.71809872;471.40004971;21845.000000;1.000000;1.000000;1.000000;1.000000;0.025927;-0.025927;0.025927;1.000000;0.329412;0.337255;0.337255
445631.97980316;5696575.71949871;471.40164997;15420.000000;1.000000;1.000000;1.000000;1.000000;-0.009176;0.009176;-0.009176;1.000000;0.235294;0.239216;0.243137
445632.01760300;5696575.72299870;471.40114977;11565.000000;1.000000;1.000000;1.000000;1.000000;-0.046976;0.046976;-0.046976;1.000000;0.180392;0.176471;0.180392
445632.01060303;5696575.88979919;471.38184978;44718.000000;1.000000;1.000000;1.000000;1.000000;0.060433;-0.060433;0.060433;1.000000;0.67451;0.686275;0.690196
445632.23859985;5696575.76849945;471.36275007;21074.000000;1.000000;1.000000;1.000000;1.000000;0.097593;-0.097593;0.097593;1.000000;0.333333;0.321569;0.301961
445631.79190262;5696575.59949883;471.38014986;11565.000000;1.000000;1.000000;1.000000;1.000000;-0.022474;0.022474;-0.022474;1.000000;0.184314;0.176471;0.180392
445632.20070084;5696575.72939880;471.39785006;16191.000000;1.000000;1.000000;1.000000;1.000000;0.065992;-0.065992;0.065992;1.000000;0.266667;0.247059;0.219608
445632.24220093;5696575.73309906;471.36474993;5911.000000;1.000000;1.000000;1.000000;1.000000;0.092323;-0.092323;0.092323;1.000000;0.105882;0.0901961;0.0745098
445631.83460052;5696575.65849884;471.38504984;12593.000000;1.000000;1.000000;1.000000;1.000000;0.020224;-0.020224;0.020224;1.000000;0.196078;0.192157;0.192157
445632.23970230;5696575.71209915;471.37844994;12079.000000;1.000000;1.000000;1.000000;1.000000;0.076519;-0.076519;0.076519;1.000000;0.207843;0.180392;0.152941
445632.23870285;5696575.54569920;471.41834976;47288.000000;1.000000;1.000000;1.000000;1.000000;0.021936;-0.021936;0.021936;1.000000;0.737255;0.72549;0.670588
445632.20650299;5696575.69379910;471.40234997;7710.000000;1.000000;1.000000;1.000000;1.000000;0.038968;-0.038968;0.038968;1.000000;0.141176;0.113725;0.0941176
445631.94550140;5696575.64499958;471.43884995;22102.000000;1.000000;1.000000;1.000000;1.000000;0.025126;-0.025126;0.025126;1.000000;0.352941;0.341176;0.282353
445632.27670105;5696575.58479889;471.38324978;38036.000000;1.000000;1.000000;1.000000;1.000000;0.069867;-0.069867;0.069867;1.000000;0.588235;0.584314;0.564706
445632.24620255;5696575.60109909;471.41935017;29812.000000;1.000000;1.000000;1.000000;1.000000;0.045619;-0.045619;0.045619;1.000000;0.486275;0.45098;0.403922
445631.94900330;5696575.60729893;471.43855001;8995.000000;1.000000;1.000000;1.000000;1.000000;0.021624;-0.021624;0.021624;1.000000;0.160784;0.137255;0.105882
445632.02410324;5696575.60969933;471.43734982;14135.000000;1.000000;1.000000;1.000000;1.000000;-0.053476;0.053476;-0.053476;1.000000;0.243137;0.215686;0.168627
445632.24300201;5696575.65779884;471.39884998;4112.000000;1.000000;1.000000;1.000000;1.000000;0.059476;-0.059476;0.059476;1.000000;0.0862745;0.0588235;0.0470588
445632.28210266;5696575.65929897;471.36574986;15677.000000;1.000000;1.000000;1.000000;1.000000;0.097244;-0.097244;0.097244;1.000000;0.262745;0.235294;0.219608
445631.84080322;5696575.50959881;471.45814993;25186.000000;1.000000;1.000000;1.000000;1.000000;0.026426;-0.026426;0.026426;1.000000;0.388235;0.388235;0.384314
445632.02540024;5696575.57449921;471.43925001;11565.000000;1.000000;1.000000;1.000000;1.000000;-0.054773;0.054773;-0.054773;1.000000;0.207843;0.168627;0.137255
445632.13480194;5696575.57659920;471.40234997;33667.000000;1.000000;1.000000;1.000000;1.000000;-0.068019;0.068019;-0.068019;1.000000;0.529412;0.529412;0.396078
445631.80240067;5696575.49009903;471.43984987;25700.000000;1.000000;1.000000;1.000000;1.000000;-0.011976;0.011976;-0.011976;1.000000;0.396078;0.392157;0.384314
445632.35939987;5696575.58679874;471.36604979;29298.000000;1.000000;1.000000;1.000000;1.000000;0.048727;-0.048727;0.048727;1.000000;0.458824;0.447059;0.431373
445632.28310211;5696575.60289867;471.38135006;26471.000000;1.000000;1.000000;1.000000;1.000000;0.081375;-0.081375;0.081375;1.000000;0.427451;0.403922;0.372549
445631.80560120;5696575.44999893;471.44185020;24415.000000;1.000000;1.000000;1.000000;1.000000;-0.008776;0.008776;-0.008776;1.000000;0.372549;0.376471;0.356863
445631.80710037;5696575.41489895;471.43914988;17990.000000;1.000000;1.000000;1.000000;1.000000;-0.007277;0.007277;-0.007277;1.000000;0.27451;0.278431;0.278431
445632.28730209;5696575.50869949;471.40374996;30326.000000;1.000000;1.000000;1.000000;1.000000;0.057287;-0.057287;0.057287;1.000000;0.466667;0.466667;0.443137
445632.03030212;5696575.46019943;471.40325024;35723.000000;1.000000;1.000000;1.000000;1.000000;-0.067775;0.067775;-0.067775;1.000000;0.580392;0.545098;0.478431
445632.25110062;5696575.47009953;471.40164997;37779.000000;1.000000;1.000000;1.000000;1.000000;0.011220;-0.011220;0.011220;1.000000;0.588235;0.580392;0.54902
445632.24400146;5696575.68599899;471.38294985;4369.000000;1.000000;1.000000;1.000000;1.000000;0.068841;-0.068841;0.068841;1.000000;0.0823529;0.0627451;0.0509804
445631.80860336;5696575.82459934;471.37194969;42919.000000;1.000000;1.000000;1.000000;1.000000;-0.005401;0.005401;-0.005401;1.000000;0.678431;0.654902;0.607843
445632.25490005;5696575.43469913;471.39904978;30069.000000;1.000000;1.000000;1.000000;1.000000;0.004287;-0.004287;0.004287;1.000000;0.470588;0.458824;0.427451
445632.17830093;5696575.87899883;471.37524988;16448.000000;1.000000;1.000000;1.000000;1.000000;0.071030;-0.071030;0.071030;1.000000;0.254902;0.25098;0.243137
445632.14110001;5696575.48529919;471.38285019;28013.000000;1.000000;1.000000;1.000000;1.000000;-0.089240;0.089240;-0.089240;1.000000;0.454902;0.427451;0.376471
445632.09560211;5696575.64069946;471.41995003;23901.000000;1.000000;1.000000;1.000000;1.000000;-0.086315;0.086315;-0.086315;1.000000;0.376471;0.376471;0.290196
445632.12190063;5696575.67099960;471.41685011;13621.000000;1.000000;1.000000;1.000000;1.000000;-0.055704;0.055704;-0.055704;1.000000;0.239216;0.203922;0.14902
445632.28910263;5696575.70549877;471.35724976;7967.000000;1.000000;1.000000;1.000000;1.000000;0.117768;-0.117768;0.117768;1.000000;0.137255;0.117647;0.101961
445632.32660110;5696575.70669945;471.35664989;21588.000000;1.000000;1.000000;1.000000;1.000000;0.081526;0.081526;-0.081526;1.000000;0.34902;0.329412;0.298039
445632.15340240;5696575.78259953;471.41725018;51400.000000;1.000000;1.000000;1.000000;1.000000;-0.054318;0.054318;-0.054318;1.000000;0.788235;0.788235;0.780392
445631.94410141;5696575.51399906;471.45814993;39835.000000;1.000000;1.000000;1.000000;1.000000;0.026525;-0.026525;0.026525;1.000000;0.627451;0.611765;0.568627
445632.36440094;5696575.70799931;471.35134985;36494.000000;1.000000;1.000000;1.000000;1.000000;0.043726;-0.043726;0.043726;1.000000;0.576471;0.556863;0.529412
445632.15720184;5696575.74719913;471.41464998;7453.000000;1.000000;1.000000;1.000000;1.000000;0.081853;-0.081853;0.081853;1.000000;0.12549;0.117647;0.0941176
445632.15940292;5696575.67219933;471.41855003;12079.000000;1.000000;1.000000;1.000000;1.000000;-0.018594;0.018594;-0.018594;1.000000;0.219608;0.180392;0.141176
445632.19600113;5696575.89599903;471.38094999;30326.000000;1.000000;1.000000;1.000000;1.000000;0.095572;-0.095572;0.095572;1.000000;0.482353;0.458824;0.439216
445631.90820129;5696575.43849953;471.42304995;15934.000000;1.000000;1.000000;1.000000;1.000000;0.082168;-0.082168;0.082168;1.000000;0.258824;0.243137;0.223529
445632.05780228;5696575.44399937;471.38094999;32639.000000;1.000000;1.000000;1.000000;1.000000;-0.099891;0.099891;-0.099891;1.000000;0.541176;0.494118;0.431373
445631.88500031;5696575.78959950;471.36794998;23644.000000;1.000000;1.000000;1.000000;1.000000;-0.081363;0.081363;-0.081363;1.000000;0.388235;0.356863;0.337255
445631.85190018;5696575.71539886;471.37725021;13878.000000;1.000000;1.000000;1.000000;1.000000;0.061119;-0.061119;0.061119;1.000000;0.219608;0.211765;0.219608
445631.82530029;5696575.90029915;471.36424973;32639.000000;1.000000;1.000000;1.000000;1.000000;0.071143;-0.071143;0.071143;1.000000;0.529412;0.494118;0.435294
445632.20549973;5696575.87859924;471.39284994;43433.000000;1.000000;1.000000;1.000000;1.000000;0.092431;-0.092431;0.092431;1.000000;0.670588;0.666667;0.647059
445632.06780060;5696575.62219913;471.42775013;43690.000000;1.000000;1.000000;1.000000;1.000000;-0.097174;0.097174;-0.097174;1.000000;0.670588;0.678431;0.596078
445631.82650192;5696575.86279877;471.36385014;32639.000000;1.000000;1.000000;1.000000;1.000000;0.034968;-0.034968;0.034968;1.000000;0.529412;0.498039;0.447059
445632.08710297;5696575.87369926;471.36415007;8995.000000;1.000000;1.000000;1.000000;1.000000;0.043699;-0.043699;0.043699;1.000000;0.14902;0.137255;0.133333
445632.21199997;5696575.56219872;471.42194988;18504.000000;1.000000;1.000000;1.000000;1.000000;0.001370;-0.001370;0.001370;1.000000;0.309804;0.282353;0.207843
445632.15990265;5696575.87859924;471.36514999;15163.000000;1.000000;1.000000;1.000000;1.000000;0.058759;-0.058759;0.058759;1.000000;0.247059;0.231373;0.215686
445632.25130280;5696575.66649921;471.39004995;3598.000000;1.000000;1.000000;1.000000;1.000000;0.069994;-0.069994;0.069994;1.000000;0.0705882;0.0509804;0.0352941
445631.79500015;5696575.74899872;471.36105015;30326.000000;1.000000;1.000000;1.000000;1.000000;-0.081001;0.081001;-0.081001;1.000000;0.494118;0.454902;0.427451
445631.98130234;5696575.51289948;471.45984985;26471.000000;1.000000;1.000000;1.000000;1.000000;-0.010675;0.010675;-0.010675;1.000000;0.423529;0.403922;0.364706
445631.95880325;5696575.40349873;471.42024996;49087.000000;1.000000;1.000000;1.000000;1.000000;0.073499;-0.073499;0.073499;1.000000;0.768627;0.745098;0.717647
445631.90820129;5696575.67939957;471.40264990;48059.000000;1.000000;1.000000;1.000000;1.000000;0.062426;-0.062426;0.062426;1.000000;0.733333;0.737255;0.733333
445631.99770172;5696575.40279873;471.38474991;31611.000000;1.000000;1.000000;1.000000;1.000000;0.077670;-0.077670;0.077670;1.000000;0.52549;0.47451;0.423529
445632.18220337;5696575.37399872;471.38114979;34952.000000;1.000000;1.000000;1.000000;1.000000;-0.083206;0.083206;-0.083206;1.000000;0.556863;0.533333;0.498039
445632.21980103;5696575.37519939;471.38044979;35723.000000;1.000000;1.000000;1.000000;1.000000;-0.046961;0.046961;-0.046961;1.000000;0.560784;0.54902;0.513725
445631.83790024;5696575.60189922;471.40084984;14392.000000;1.000000;1.000000;1.000000;1.000000;0.023523;-0.023523;0.023523;1.000000;0.223529;0.223529;0.223529
445631.89030273;5696575.64119919;471.41064980;48316.000000;1.000000;1.000000;1.000000;1.000000;0.075926;-0.075926;0.075926;1.000000;0.745098;0.741176;0.721569
445631.80410202;5696575.56299885;471.39654972;4883.000000;1.000000;1.000000;1.000000;1.000000;-0.010275;0.010275;-0.010275;1.000000;0.0784314;0.0745098;0.0784314
445632.24870117;5696575.61979874;471.40105011;7710.000000;1.000000;1.000000;1.000000;1.000000;0.053581;-0.053581;0.053581;1.000000;0.145098;0.109804;0.0862745
445631.84119995;5696575.52859886;471.43744995;16191.000000;1.000000;1.000000;1.000000;1.000000;0.026823;-0.026823;0.026823;1.000000;0.247059;0.247059;0.25098
445632.28640182;5696575.54629906;471.39954998;19532.000000;1.000000;1.000000;1.000000;1.000000;0.067642;-0.067642;0.067642;1.000000;0.313725;0.298039;0.270588
445632.04810150;5696575.53529938;471.42355015;30069.000000;1.000000;1.000000;1.000000;1.000000;-0.077475;0.077475;-0.077475;1.000000;0.486275;0.458824;0.396078
445632.21619995;5696575.47099884;471.40004971;29041.000000;1.000000;1.000000;1.000000;1.000000;-0.021824;0.021824;-0.021824;1.000000;0.458824;0.447059;0.411765
445632.32800110;5696575.66929920;471.35164978;30326.000000;1.000000;1.000000;1.000000;1.000000;0.080126;0.080126;-0.080126;1.000000;0.478431;0.462745;0.435294
445632.29010208;5696575.43619926;471.39834978;44718.000000;1.000000;1.000000;1.000000;1.000000;0.038334;-0.038334;0.038334;1.000000;0.694118;0.682353;0.658824
445632.21550186;5696575.62709911;471.42754986;14906.000000;1.000000;1.000000;1.000000;1.000000;0.024070;-0.024070;0.024070;1.000000;0.262745;0.223529;0.164706
445632.25470169;5696575.62879951;471.39204981;8481.000000;1.000000;1.000000;1.000000;1.000000;0.061993;-0.061993;0.061993;1.000000;0.156863;0.121569;0.105882
445632.28709991;5696575.73379906;471.35514977;17990.000000;1.000000;1.000000;1.000000;1.000000;0.099993;-0.099993;0.099993;1.000000;0.290196;0.27451;0.25098
445632.05490311;5696575.70749958;471.42355015;2056.000000;1.000000;1.000000;1.000000;1.000000;-0.084276;-0.084276;0.084276;1.000000;0.0392157;0.0313725;0.0352941
445632.12540253;5696575.80179890;471.40224983;11308.000000;1.000000;1.000000;1.000000;1.000000;-0.028201;0.028201;-0.028201;1.000000;0.176471;0.172549;0.180392
445631.91300018;5696575.58759888;471.41804983;25186.000000;1.000000;1.000000;1.000000;1.000000;0.057627;-0.057627;0.057627;1.000000;0.407843;0.380392;0.352941
445632.18160065;5696575.61619957;471.43055012;11565.000000;1.000000;1.000000;1.000000;1.000000;-0.011539;0.011539;-0.011539;1.000000;0.215686;0.168627;0.113725
445632.02820023;5696575.92559917;471.37834980;22102.000000;1.000000;1.000000;1.000000;1.000000;0.095599;-0.095599;0.095599;1.000000;0.341176;0.341176;0.329412
445632.36450012;5696575.66119869;471.35545017;25700.000000;1.000000;1.000000;1.000000;1.000000;0.043627;-0.043627;0.043627;1.000000;0.415686;0.392157;0.360784
445631.83990295;5696575.55699928;471.41904976;26985.000000;1.000000;1.000000;1.000000;1.000000;0.025526;-0.025526;0.025526;1.000000;0.415686;0.411765;0.419608
445632.05820282;5696575.64859875;471.43464996;34952.000000;1.000000;1.000000;1.000000;1.000000;-0.087576;0.087576;-0.087576;1.000000;0.545098;0.541176;0.486275
445632.02290161;5696575.64719875;471.43774988;25186.000000;1.000000;1.000000;1.000000;1.000000;-0.052275;0.052275;-0.052275;1.000000;0.4;0.392157;0.333333
445632.19590195;5696575.50779922;471.40665009;33924.000000;1.000000;1.000000;1.000000;1.000000;-0.030221;0.030221;-0.030221;1.000000;0.537255;0.521569;0.470588
445631.89070328;5696575.45399960;471.42945005;21588.000000;1.000000;1.000000;1.000000;1.000000;0.076326;-0.076326;0.076326;1.000000;0.341176;0.329412;0.309804
445632.32880219;5696575.41879948;471.38595011;39321.000000;1.000000;1.000000;1.000000;1.000000;0.070083;-0.070083;0.070083;1.000000;0.615686;0.6;0.576471
445632.07220276;5696575.50089939;471.38924982;37522.000000;1.000000;1.000000;1.000000;1.000000;-0.101576;0.101576;-0.101576;1.000000;0.615686;0.568627;0.490196
445632.13130005;5696575.67019947;471.41494991;20817.000000;1.000000;1.000000;1.000000;1.000000;-0.046289;0.046289;-0.046289;1.000000;0.360784;0.313725;0.254902
445632.06980331;5696575.38939960;471.36455013;22873.000000;1.000000;1.000000;1.000000;1.000000;0.115604;-0.115604;0.115604;1.000000;0.376471;0.34902;0.294118
445632.23299988;5696575.50659950;471.41295006;37779.000000;1.000000;1.000000;1.000000;1.000000;0.004830;-0.004830;0.004830;1.000000;0.588235;0.580392;0.541176
445632.03210266;5696575.38589867;471.36514999;13107.000000;1.000000;1.000000;1.000000;1.000000;0.083090;-0.083090;0.083090;1.000000;0.231373;0.192157;0.156863
445632.26860245;5696575.51039894;471.40754988;23387.000000;1.000000;1.000000;1.000000;1.000000;0.039945;-0.039945;0.039945;1.000000;0.368627;0.356863;0.32549
445631.82550247;5696575.41539867;471.44694998;43176.000000;1.000000;1.000000;1.000000;1.000000;0.011126;-0.011126;0.011126;1.000000;0.654902;0.662745;0.658824
445632.30669983;5696575.92109879;471.36065008;38550.000000;1.000000;1.000000;1.000000;1.000000;0.072554;-0.072554;0.072554;1.000000;0.603922;0.592157;0.54902
445632.32090195;5696575.62309940;471.36235001;15420.000000;1.000000;1.000000;1.000000;1.000000;0.087225;-0.087225;0.087225;1.000000;0.254902;0.231373;0.203922
445631.92609985;5696575.45779903;471.42875006;8224.000000;1.000000;1.000000;1.000000;1.000000;0.056035;-0.056035;0.056035;1.000000;0.141176;0.121569;0.105882
445631.77610214;5696575.53539951;471.39024975;26214.000000;1.000000;1.000000;1.000000;1.000000;-0.038275;0.038275;-0.038275;1.000000;0.411765;0.4;0.396078
445631.89220245;5696575.41889961;471.42674973;18761.000000;1.000000;1.000000;1.000000;1.000000;0.077826;-0.077826;0.077826;1.000000;0.298039;0.286275;0.278431
445631.92970093;5696575.42009933;471.42614986;9766.000000;1.000000;1.000000;1.000000;1.000000;0.082613;-0.082613;0.082613;1.000000;0.156863;0.14902;0.145098
445632.18840225;5696575.46909912;471.38954975;28527.000000;1.000000;1.000000;1.000000;1.000000;-0.048923;0.048923;-0.048923;1.000000;0.45098;0.435294;0.403922
445631.84950073;5696575.53959950;471.43094971;28013.000000;1.000000;1.000000;1.000000;1.000000;0.035124;-0.035124;0.035124;1.000000;0.431373;0.427451;0.427451
445631.95110138;5696575.51339920;471.45615007;35723.000000;1.000000;1.000000;1.000000;1.000000;0.019526;-0.019526;0.019526;1.000000;0.560784;0.54902;0.505882
445632.10239990;5696575.52149876;471.38394978;30069.000000;1.000000;1.000000;1.000000;1.000000;-0.115381;0.115381;-0.115381;1.000000;0.498039;0.458824;0.352941
445632.08370026;5696575.91139896;471.36205008;12079.000000;1.000000;1.000000;1.000000;1.000000;0.081406;-0.081406;0.081406;1.000000;0.2;0.184314;0.176471
445632.19830139;5696575.80439957;471.39855005;13364.000000;1.000000;1.000000;1.000000;1.000000;-0.075874;0.075874;-0.075874;1.000000;0.207843;0.207843;0.192157
445632.24480255;5696575.61059959;471.41704990;16705.000000;1.000000;1.000000;1.000000;1.000000;0.047116;-0.047116;0.047116;1.000000;0.290196;0.25098;0.2
445632.30180176;5696575.43509872;471.39654972;43947.000000;1.000000;1.000000;1.000000;1.000000;0.049173;-0.049173;0.049173;1.000000;0.682353;0.670588;0.643137
445632.09950073;5696575.57519920;471.40304996;22873.000000;1.000000;1.000000;1.000000;1.000000;-0.102131;0.102131;-0.102131;1.000000;0.356863;0.372549;0.215686
445632.02660187;5696575.53699883;471.43884995;45746.000000;1.000000;1.000000;1.000000;1.000000;-0.055975;0.055975;-0.055975;1.000000;0.72549;0.698039;0.65098
445632.06580170;5696575.48059948;471.38404991;35209.000000;1.000000;1.000000;1.000000;1.000000;-0.095943;0.095943;-0.095943;1.000000;0.576471;0.533333;0.458824
445632.26700027;5696575.35899933;471.38945009;47288.000000;1.000000;1.000000;1.000000;1.000000;-0.006743;0.006743;-0.006743;1.000000;0.729412;0.72549;0.698039
445631.79620178;5696575.71149929;471.36065008;19532.000000;1.000000;1.000000;1.000000;1.000000;-0.048233;0.048233;-0.048233;1.000000;0.333333;0.290196;0.262745
445631.87630280;5696575.52999886;471.43905022;10280.000000;1.000000;1.000000;1.000000;1.000000;0.061926;-0.061926;0.061926;1.000000;0.164706;0.156863;0.145098
445632.02359970;5696575.43069942;471.38625004;34181.000000;1.000000;1.000000;1.000000;1.000000;-0.081520;0.081520;-0.081520;1.000000;0.556863;0.517647;0.458824
445632.16870316;5696575.67359932;471.42135002;10280.000000;1.000000;1.000000;1.000000;1.000000;-0.010406;0.010406;-0.010406;1.000000;0.184314;0.14902;0.129412
445632.20150192;5696575.84139927;471.40385010;40863.000000;1.000000;1.000000;1.000000;1.000000;0.075491;-0.075491;0.075491;1.000000;0.627451;0.627451;0.615686
445632.18160065;5696575.58829887;471.42555000;21074.000000;1.000000;1.000000;1.000000;1.000000;-0.019861;0.019861;-0.019861;1.000000;0.360784;0.32549;0.227451
445632.21910294;5696575.58949955;471.42495014;20046.000000;1.000000;1.000000;1.000000;1.000000;0.016293;-0.016293;0.016293;1.000000;0.337255;0.305882;0.227451
445631.79710205;5696575.67399891;471.36494972;9252.000000;1.000000;1.000000;1.000000;1.000000;-0.018676;0.018676;-0.018676;1.000000;0.164706;0.137255;0.113725
445631.95030029;5696575.56989868;471.43584969;10537.000000;1.000000;1.000000;1.000000;1.000000;0.020327;-0.020327;0.020327;1.000000;0.192157;0.152941;0.133333
445631.91400345;5696575.53349884;471.43844988;17476.000000;1.000000;1.000000;1.000000;1.000000;0.056623;-0.056623;0.056623;1.000000;0.286275;0.266667;0.239216
445631.95400055;5696575.45969875;471.43704988;13621.000000;1.000000;1.000000;1.000000;1.000000;0.036021;-0.036021;0.036021;1.000000;0.227451;0.203922;0.176471
445632.03380020;5696575.43909939;471.38684990;34438.000000;1.000000;1.000000;1.000000;1.000000;-0.082818;0.082818;-0.082818;1.000000;0.572549;0.521569;0.447059
445631.91590317;5696575.51199921;471.45685007;13878.000000;1.000000;1.000000;1.000000;1.000000;0.054724;-0.054724;0.054724;1.000000;0.231373;0.215686;0.168627
445632.06250198;5696575.50169952;471.39814999;38807.000000;1.000000;1.000000;1.000000;1.000000;-0.091875;0.091875;-0.091875;1.000000;0.627451;0.588235;0.521569
445631.94350250;5696575.66649921;471.42275002;8995.000000;1.000000;1.000000;1.000000;1.000000;0.027124;-0.027124;0.027124;1.000000;0.145098;0.141176;0.113725
445631.99090012;5696575.51429947;471.45795013;33410.000000;1.000000;1.000000;1.000000;1.000000;-0.020273;0.020273;-0.020273;1.000000;0.533333;0.505882;0.47451
445631.91740234;5696575.43759926;471.42345001;11822.000000;1.000000;1.000000;1.000000;1.000000;0.076050;-0.076050;0.076050;1.000000;0.196078;0.180392;0.156863
445632.29850204;5696575.47289951;471.39214994;17990.000000;1.000000;1.000000;1.000000;1.000000;0.057299;-0.057299;0.057299;1.000000;0.286275;0.27451;0.25098
445632.33270081;5696575.51179894;471.38954975;31611.000000;1.000000;1.000000;1.000000;1.000000;0.075426;-0.075426;0.075426;1.000000;0.490196;0.482353;0.466667
445632.17100342;5696575.65449913;471.43514969;16962.000000;1.000000;1.000000;1.000000;1.000000;-0.010230;0.010230;-0.010230;1.000000;0.290196;0.254902;0.215686
445632.14410217;5696575.54789932;471.39545013;23644.000000;1.000000;1.000000;1.000000;1.000000;-0.067702;0.067702;-0.067702;1.000000;0.384314;0.368627;0.266667
445631.99430283;5696575.42379959;471.40114977;40863.000000;1.000000;1.000000;1.000000;1.000000;-0.072536;0.072536;-0.072536;1.000000;0.658824;0.615686;0.580392
445632.20840271;5696575.65569885;471.43685009;19275.000000;1.000000;1.000000;1.000000;1.000000;0.025825;-0.025825;0.025825;1.000000;0.329412;0.286275;0.25098
445632.01239975;5696575.83359917;471.38124992;25186.000000;1.000000;1.000000;1.000000;1.000000;0.010463;-0.010463;0.010463;1.000000;0.376471;0.388235;0.4
445631.77900131;5696575.45969875;471.42915012;28270.000000;1.000000;1.000000;1.000000;1.000000;-0.035376;0.035376;-0.035376;1.000000;0.443137;0.431373;0.415686
445632.03410156;5696575.51089867;471.42495014;42919.000000;1.000000;1.000000;1.000000;1.000000;-0.063475;0.063475;-0.063475;1.000000;0.686275;0.65098;0.592157
445631.99970062;5696575.46959885;471.42754986;47288.000000;1.000000;1.000000;1.000000;1.000000;-0.036608;0.036608;-0.036608;1.000000;0.741176;0.721569;0.678431
445631.78030212;5696575.42229946;471.42644979;42405.000000;1.000000;1.000000;1.000000;1.000000;-0.034075;0.034075;-0.034075;1.000000;0.654902;0.65098;0.639216
445632.00450333;5696575.42999943;471.39475014;35209.000000;1.000000;1.000000;1.000000;1.000000;-0.071084;0.071084;-0.071084;1.000000;0.568627;0.533333;0.486275
445631.92940338;5696575.39209946;471.42574980;26214.000000;1.000000;1.000000;1.000000;1.000000;0.062099;-0.062099;0.062099;1.000000;0.411765;0.4;0.388235
445632.18800171;5696575.44109924;471.39144995;12336.000000;1.000000;1.000000;1.000000;1.000000;-0.057657;0.057657;-0.057657;1.000000;0.203922;0.188235;0.160784
445632.22530182;5696575.43989952;471.39314987;25186.000000;1.000000;1.000000;1.000000;1.000000;-0.022413;0.022413;-0.022413;1.000000;0.4;0.384314;0.352941
445632.06270035;5696575.56439884;471.41984989;16191.000000;1.000000;1.000000;1.000000;1.000000;-0.092073;0.092073;-0.092073;1.000000;0.278431;0.25098;0.168627
445632.16610153;5696575.91549881;471.35654976;43690.000000;1.000000;1.000000;1.000000;1.000000;0.094067;-0.094067;0.094067;1.000000;0.686275;0.666667;0.639216
445632.18930252;5696575.40359886;471.38875010;39321.000000;1.000000;1.000000;1.000000;1.000000;-0.067601;0.067601;-0.067601;1.000000;0.611765;0.6;0.572549
445631.92240341;5696575.56789883;471.42754986;21588.000000;1.000000;1.000000;1.000000;1.000000;0.048223;-0.048223;0.048223;1.000000;0.352941;0.32549;0.305882
445631.99060257;5696575.92439945;471.37894966;30326.000000;1.000000;1.000000;1.000000;1.000000;0.094399;-0.094399;0.094399;1.000000;0.466667;0.462745;0.454902
445632.17300232;5696575.57039936;471.42264988;26728.000000;1.000000;1.000000;1.000000;1.000000;-0.033407;0.033407;-0.033407;1.000000;0.439216;0.411765;0.32549
445632.26420029;5696575.40599926;471.39214994;35723.000000;1.000000;1.000000;1.000000;1.000000;0.004604;-0.004604;0.004604;1.000000;0.54902;0.54902;0.521569
445632.02940186;5696575.89039906;471.38264992;20817.000000;1.000000;1.000000;1.000000;1.000000;0.060399;-0.060399;0.060399;1.000000;0.313725;0.321569;0.321569
445631.99170120;5696575.88689907;471.38094999;19275.000000;1.000000;1.000000;1.000000;1.000000;0.056899;-0.056899;0.056899;1.000000;0.290196;0.294118;0.305882
445632.26570328;5696575.37079914;471.38945009;44975.000000;1.000000;1.000000;1.000000;1.000000;-0.004461;0.004461;-0.004461;1.000000;0.694118;0.690196;0.662745
445631.95800217;5696575.85039909;471.37894966;12079.000000;1.000000;1.000000;1.000000;1.000000;0.023990;-0.023990;0.023990;1.000000;0.196078;0.184314;0.176471
445631.99310120;5696575.85179909;471.38054993;31354.000000;1.000000;1.000000;1.000000;1.000000;0.021799;-0.021799;0.021799;1.000000;0.466667;0.486275;0.501961
445632.34090240;5696575.37319954;471.38595011;29041.000000;1.000000;1.000000;1.000000;1.000000;0.043200;-0.043200;0.043200;1.000000;0.462745;0.443137;0.415686
445631.99650009;5696575.81399925;471.38264992;36494.000000;1.000000;1.000000;1.000000;1.000000;-0.016001;0.016001;-0.016001;1.000000;0.552941;0.560784;0.576471
445632.06920059;5696575.81659897;471.38355019;21074.000000;1.000000;1.000000;1.000000;1.000000;-0.014243;0.014243;-0.014243;1.000000;0.32549;0.321569;0.32549
445631.92270096;5696575.77419956;471.38114979;10794.000000;1.000000;1.000000;1.000000;1.000000;0.047926;-0.047926;0.047926;1.000000;0.168627;0.164706;0.176471
445631.99750336;5696575.77649887;471.38684990;22616.000000;1.000000;1.000000;1.000000;1.000000;-0.026876;0.026876;-0.026876;1.000000;0.341176;0.345098;0.360784
445632.32900055;5696575.82809933;471.34884979;49858.000000;1.000000;1.000000;1.000000;1.000000;0.001901;-0.001901;0.001901;1.000000;0.776471;0.760784;0.729412
445632.14630325;5696575.78319939;471.41925003;48830.000000;1.000000;1.000000;1.000000;1.000000;-0.050672;0.050672;-0.050672;1.000000;0.74902;0.745098;0.737255
445632.36650284;5696575.82929905;471.34824993;36494.000000;1.000000;1.000000;1.000000;1.000000;0.000701;-0.000701;0.000701;1.000000;0.572549;0.556863;0.517647
445631.88850220;5696575.73299892;471.37904980;12336.000000;1.000000;1.000000;1.000000;1.000000;0.082125;-0.082125;0.082125;1.000000;0.188235;0.188235;0.196078
445632.07460220;5696575.74079903;471.41785004;4369.000000;1.000000;1.000000;1.000000;1.000000;-0.089763;0.089763;-0.089763;1.000000;0.0745098;0.0627451;0.0705882
445632.21860321;5696575.78649910;471.37834980;20046.000000;1.000000;1.000000;1.000000;1.000000;-0.101519;0.101519;-0.101519;1.000000;0.313725;0.309804;0.282353
445632.29500015;5696575.78929909;471.34684994;37008.000000;1.000000;1.000000;1.000000;1.000000;0.045078;-0.045078;0.045078;1.000000;0.576471;0.568627;0.533333
445632.33279999;5696575.79049881;471.34165003;37779.000000;1.000000;1.000000;1.000000;1.000000;0.039501;-0.039501;0.039501;1.000000;0.588235;0.576471;0.545098
445632.36800201;5696575.79419907;471.34555008;35466.000000;1.000000;1.000000;1.000000;1.000000;0.035801;-0.035801;0.035801;1.000000;0.556863;0.545098;0.501961
445632.21960266;5696575.74899872;471.38025000;5397.000000;1.000000;1.000000;1.000000;1.000000;0.091869;-0.091869;0.091869;1.000000;0.0901961;0.0823529;0.0627451
445632.33400162;5696575.75529869;471.34594967;19532.000000;1.000000;1.000000;1.000000;1.000000;0.074125;0.074125;-0.074125;1.000000;0.317647;0.298039;0.262745
445632.12870224;5696575.93999870;471.35514977;14392.000000;1.000000;1.000000;1.000000;1.000000;0.110014;-0.110014;0.110014;1.000000;0.247059;0.211765;0.192157
445632.13020142;5696575.90489872;471.35244991;21074.000000;1.000000;1.000000;1.000000;1.000000;0.074972;-0.074972;0.074972;1.000000;0.352941;0.313725;0.286275
445632.31540115;5696575.91099937;471.35395004;35209.000000;1.000000;1.000000;1.000000;1.000000;-0.080999;0.080999;-0.080999;1.000000;0.54902;0.541176;0.490196
445632.35540207;5696575.91209896;471.35104992;41891.000000;1.000000;1.000000;1.000000;1.000000;-0.082099;0.082099;-0.082099;1.000000;0.65098;0.643137;0.596078
445632.39070328;5696575.91569908;471.35504963;41891.000000;1.000000;1.000000;1.000000;1.000000;0.085699;-0.085699;0.085699;1.000000;0.65098;0.643137;0.6
445632.17180069;5696575.86539944;471.38644983;20046.000000;1.000000;1.000000;1.000000;1.000000;0.057195;-0.057195;0.057195;1.000000;0.321569;0.305882;0.294118
445632.31920059;5696575.87569912;471.35364964;43433.000000;1.000000;1.000000;1.000000;1.000000;-0.045699;0.045699;-0.045699;1.000000;0.682353;0.662745;0.627451
445632.35680206;5696575.87689884;471.35074999;41634.000000;1.000000;1.000000;1.000000;1.000000;-0.046899;0.046899;-0.046899;1.000000;0.65098;0.635294;0.596078
445632.13550003;5696575.82899960;471.39134981;10280.000000;1.000000;1.000000;1.000000;1.000000;-0.008681;0.008681;-0.008681;1.000000;0.164706;0.156863;0.156863
445632.39420135;5696575.87799938;471.35475018;37522.000000;1.000000;1.000000;1.000000;1.000000;0.047999;-0.047999;0.047999;1.000000;0.588235;0.576471;0.541176
445632.28260239;5696575.83469875;471.35384991;41891.000000;1.000000;1.000000;1.000000;1.000000;-0.032120;0.032120;-0.032120;1.000000;0.654902;0.639216;0.611765
445632.09920319;5696575.79259880;471.39395000;8224.000000;1.000000;1.000000;1.000000;1.000000;-0.037401;0.037401;-0.037401;1.000000;0.129412;0.12549;0.133333
445632.06160172;5696575.78919895;471.39225008;15677.000000;1.000000;1.000000;1.000000;1.000000;-0.040801;0.040801;-0.040801;1.000000;0.243137;0.239216;0.243137
445632.32050140;5696575.83819874;471.35094978;39321.000000;1.000000;1.000000;1.000000;1.000000;-0.008199;0.008199;-0.008199;1.000000;0.615686;0.6;0.560784
445631.92920120;5696575.66089924;471.41734983;9509.000000;1.000000;1.000000;1.000000;1.000000;0.041426;-0.041426;0.041426;1.000000;0.152941;0.14902;0.121569
445631.95240219;5696575.74789913;471.39384987;31611.000000;1.000000;1.000000;1.000000;1.000000;0.018225;-0.018225;0.018225;1.000000;0.47451;0.486275;0.498039
445632.39529999;5696575.84059914;471.35434963;50372.000000;1.000000;1.000000;1.000000;1.000000;0.010599;-0.010599;0.010599;1.000000;0.792157;0.768627;0.721569
445631.98780258;5696575.74929913;471.39074995;19018.000000;1.000000;1.000000;1.000000;1.000000;-0.017176;0.017176;-0.017176;1.000000;0.282353;0.294118;0.298039
445632.28410156;5696575.79949959;471.35115005;25700.000000;1.000000;1.000000;1.000000;1.000000;0.042975;-0.042975;0.042975;1.000000;0.403922;0.396078;0.356863
445631.88090332;5696575.70549877;471.38775017;9252.000000;1.000000;1.000000;1.000000;1.000000;0.076682;-0.076682;0.076682;1.000000;0.145098;0.141176;0.14902
445632.10220154;5696575.71699913;471.43044998;38807.000000;1.000000;1.000000;1.000000;1.000000;-0.089659;0.089659;-0.089659;1.000000;0.603922;0.596078;0.572549
445632.28520020;5696575.76199921;471.35314991;30069.000000;1.000000;1.000000;1.000000;1.000000;0.073996;-0.073996;0.073996;1.000000;0.470588;0.462745;0.423529
445631.87059982;5696575.91229923;471.37104990;25700.000000;1.000000;1.000000;1.000000;1.000000;0.099670;-0.099670;0.099670;1.000000;0.419608;0.392157;0.345098
445631.94560059;5696575.91469868;471.37214996;20046.000000;1.000000;1.000000;1.000000;1.000000;0.088319;-0.088319;0.088319;1.000000;0.32549;0.305882;0.278431
445631.98060043;5696575.91609867;471.37614967;17990.000000;1.000000;1.000000;1.000000;1.000000;0.086099;-0.086099;0.086099;1.000000;0.278431;0.27451;0.270588
445632.21190079;5696575.72149952;471.39125015;9509.000000;1.000000;1.000000;1.000000;1.000000;0.063986;-0.063986;0.063986;1.000000;0.164706;0.145098;0.121569
445631.94670303;5696575.87719925;471.37414982;38807.000000;1.000000;1.000000;1.000000;1.000000;0.052916;-0.052916;0.052916;1.000000;0.611765;0.592157;0.568627
445632.28100021;5696575.92789944;471.37585022;38293.000000;1.000000;1.000000;1.000000;1.000000;0.073371;-0.073371;0.073371;1.000000;0.6;0.588235;0.54902
445631.83550079;5696575.83619888;471.36864998;33667.000000;1.000000;1.000000;1.000000;1.000000;0.022015;-0.022015;0.022015;1.000000;0.541176;0.513725;0.466667
445631.91050156;5696575.83859928;471.36964991;33924.000000;1.000000;1.000000;1.000000;1.000000;0.060737;-0.060737;0.060737;1.000000;0.552941;0.513725;0.47451
445631.94790085;5696575.83969887;471.37375023;12079.000000;1.000000;1.000000;1.000000;1.000000;0.024709;-0.024709;0.024709;1.000000;0.2;0.180392;0.164706
445632.22550018;5696575.71329887;471.38474991;7967.000000;1.000000;1.000000;1.000000;1.000000;0.066323;-0.066323;0.066323;1.000000;0.141176;0.121569;0.101961
445632.02840240;5696575.67719944;471.42904999;7710.000000;1.000000;1.000000;1.000000;1.000000;-0.057775;0.057775;-0.057775;1.000000;0.12549;0.117647;0.0980392
445631.91390045;5696575.80079945;471.37174990;25186.000000;1.000000;1.000000;1.000000;1.000000;0.056726;-0.056726;0.056726;1.000000;0.407843;0.380392;0.356863
445632.13340195;5696575.84819897;471.37284996;15934.000000;1.000000;1.000000;1.000000;1.000000;0.019333;-0.019333;0.019333;1.000000;0.254902;0.243137;0.243137
445632.24370010;5696575.85199936;471.37095024;20046.000000;1.000000;1.000000;1.000000;1.000000;-0.074021;0.074021;-0.074021;1.000000;0.313725;0.309804;0.286275
445632.10350235;5696575.67959888;471.42775013;29555.000000;1.000000;1.000000;1.000000;1.000000;-0.074828;0.074828;-0.074828;1.000000;0.466667;0.454902;0.407843
445632.28860291;5696575.72429951;471.35514977;15934.000000;1.000000;1.000000;1.000000;1.000000;0.108797;-0.108797;0.108797;1.000000;0.262745;0.243137;0.219608
445631.84000214;5696575.76099880;471.37255003;27499.000000;1.000000;1.000000;1.000000;1.000000;-0.073606;0.073606;-0.073606;1.000000;0.435294;0.415686;0.403922
445632.17290314;5696575.81359871;471.41155006;52685.000000;1.000000;1.000000;1.000000;1.000000;-0.048861;0.048861;-0.048861;1.000000;0.807843;0.807843;0.8
445631.87759979;5696575.76219948;471.37194969;20046.000000;1.000000;1.000000;1.000000;1.000000;-0.092704;0.092704;-0.092704;1.000000;0.313725;0.301961;0.305882
445632.24520309;5696575.81689938;471.36824991;21845.000000;1.000000;1.000000;1.000000;1.000000;0.070403;-0.070403;0.070403;1.000000;0.341176;0.333333;0.313725
445632.32610138;5696575.72549923;471.35454990;12850.000000;1.000000;1.000000;1.000000;1.000000;0.082026;0.082026;-0.082026;1.000000;0.223529;0.192157;0.152941
445632.10120209;5696575.77119930;471.41015007;8995.000000;1.000000;1.000000;1.000000;1.000000;-0.058801;0.058801;-0.058801;1.000000;0.141176;0.137255;0.145098
445631.84110077;5696575.72349937;471.37454988;29555.000000;1.000000;1.000000;1.000000;1.000000;0.062408;-0.062408;0.062408;1.000000;0.462745;0.45098;0.45098
445632.21320160;5696575.77769955;471.37564995;19532.000000;1.000000;1.000000;1.000000;1.000000;-0.100932;0.100932;-0.100932;1.000000;0.309804;0.298039;0.282353
445632.06240280;5696575.73269947;471.41254999;3341.000000;1.000000;1.000000;1.000000;1.000000;-0.091776;-0.091776;0.091776;1.000000;0.0509804;0.0509804;0.054902
445632.18740280;5696575.67419918;471.42215015;6168.000000;1.000000;1.000000;1.000000;1.000000;0.011670;-0.011670;0.011670;1.000000;0.109804;0.0901961;0.0784314
445632.17540176;5696575.73859890;471.40844967;11051.000000;1.000000;1.000000;1.000000;1.000000;0.070849;-0.070849;0.070849;1.000000;0.188235;0.164706;0.137255
445631.95340164;5696575.69139870;471.41184999;17476.000000;1.000000;1.000000;1.000000;1.000000;0.017225;-0.017225;0.017225;1.000000;0.27451;0.270588;0.258824
445631.99090012;5696575.69259937;471.41115000;10537.000000;1.000000;1.000000;1.000000;1.000000;-0.020273;0.020273;-0.020273;1.000000;0.164706;0.160784;0.156863
445632.14110001;5696575.69969948;471.41335012;29555.000000;1.000000;1.000000;1.000000;1.000000;-0.048381;0.048381;-0.048381;1.000000;0.482353;0.447059;0.403922
445631.88200195;5696575.65139874;471.40815022;31097.000000;1.000000;1.000000;1.000000;1.000000;0.067625;-0.067625;0.067625;1.000000;0.482353;0.478431;0.466667
445631.91700180;5696575.65269955;471.41204979;16191.000000;1.000000;1.000000;1.000000;1.000000;0.053625;-0.053625;0.053625;1.000000;0.258824;0.25098;0.223529
445632.17640121;5696575.70109947;471.41034986;6939.000000;1.000000;1.000000;1.000000;1.000000;0.033306;-0.033306;0.033306;1.000000;0.133333;0.101961;0.0784314
445631.88319977;5696575.61389931;471.40774967;43433.000000;1.000000;1.000000;1.000000;1.000000;0.068823;-0.068823;0.068823;1.000000;0.67451;0.666667;0.643137
445631.99390228;5696575.61699875;471.44764997;18504.000000;1.000000;1.000000;1.000000;1.000000;-0.023275;0.023275;-0.023275;1.000000;0.305882;0.282353;0.219608
445632.10600098;5696575.62359913;471.41095020;30069.000000;1.000000;1.000000;1.000000;1.000000;-0.081490;0.081490;-0.081490;1.000000;0.470588;0.478431;0.352941
445631.84660156;5696575.57519920;471.41254999;26985.000000;1.000000;1.000000;1.000000;1.000000;0.032225;-0.032225;0.032225;1.000000;0.411765;0.411765;0.419608
445632.29080017;5696575.63039883;471.37045004;20046.000000;1.000000;1.000000;1.000000;1.000000;0.096925;-0.096925;0.096925;1.000000;0.337255;0.301961;0.266667
445632.06929977;5696575.64059933;471.43274977;50629.000000;1.000000;1.000000;1.000000;1.000000;-0.098673;0.098673;-0.098673;1.000000;0.776471;0.784314;0.717647
445631.81020172;5696575.53649910;471.41284992;11822.000000;1.000000;1.000000;1.000000;1.000000;-0.004175;0.004175;-0.004175;1.000000;0.180392;0.180392;0.184314
445632.14480026;5696575.58729942;471.40984966;20817.000000;1.000000;1.000000;1.000000;1.000000;-0.055284;0.055284;-0.055284;1.000000;0.341176;0.329412;0.207843
445631.81460007;5696575.49819954;471.44514992;25186.000000;1.000000;1.000000;1.000000;1.000000;0.000223;-0.000223;0.000223;1.000000;0.388235;0.384314;0.380392
445632.07320221;5696575.54719933;471.41085007;35209.000000;1.000000;1.000000;1.000000;1.000000;-0.102575;0.102575;-0.102575;1.000000;0.560784;0.541176;0.458824
445632.25520142;5696575.59339912;471.41034986;13107.000000;1.000000;1.000000;1.000000;1.000000;0.051911;-0.051911;0.051911;1.000000;0.227451;0.196078;0.164706
445631.77390106;5696575.49779900;471.41305019;13621.000000;1.000000;1.000000;1.000000;1.000000;-0.040476;0.040476;-0.040476;1.000000;0.223529;0.207843;0.192157
445632.29430206;5696575.59499939;471.37484982;14906.000000;1.000000;1.000000;1.000000;1.000000;0.089709;-0.089709;0.089709;1.000000;0.239216;0.231373;0.207843
445632.32730301;5696575.68799885;471.35414984;37008.000000;1.000000;1.000000;1.000000;1.000000;0.080824;0.080824;-0.080824;1.000000;0.580392;0.564706;0.537255
445631.99990280;5696575.50659950;471.44894983;39835.000000;1.000000;1.000000;1.000000;1.000000;-0.029276;0.029276;-0.029276;1.000000;0.623529;0.607843;0.576471
445632.25860031;5696575.55569942;471.41235020;20046.000000;1.000000;1.000000;1.000000;1.000000;0.043910;-0.043910;0.043910;1.000000;0.317647;0.309804;0.266667
445631.81560333;5696575.46069916;471.44945004;29298.000000;1.000000;1.000000;1.000000;1.000000;0.001226;-0.001226;0.001226;1.000000;0.454902;0.45098;0.431373
445631.92800339;5696575.62579926;471.42385008;13107.000000;1.000000;1.000000;1.000000;1.000000;0.042624;-0.042624;0.042624;1.000000;0.223529;0.2;0.156863
445632.04110153;5696575.50569923;471.41354992;43176.000000;1.000000;1.000000;1.000000;1.000000;-0.070475;0.070475;-0.070475;1.000000;0.694118;0.658824;0.592157
445632.18729980;5696575.51559933;471.40634968;23387.000000;1.000000;1.000000;1.000000;1.000000;-0.036105;0.036105;-0.036105;1.000000;0.376471;0.356863;0.305882
445632.25990112;5696575.51819904;471.40964987;23130.000000;1.000000;1.000000;1.000000;1.000000;0.033967;-0.033967;0.033967;1.000000;0.364706;0.356863;0.317647
445632.25420197;5696575.64749916;471.38994982;7196.000000;1.000000;1.000000;1.000000;1.000000;0.067094;-0.067094;0.067094;1.000000;0.137255;0.105882;0.0901961
445632.15100296;5696575.63329895;471.42005016;12336.000000;1.000000;1.000000;1.000000;1.000000;-0.035643;0.035643;-0.035643;1.000000;0.215686;0.188235;0.129412
445631.99979980;5696575.43489941;471.40614988;34952.000000;1.000000;1.000000;1.000000;1.000000;-0.064358;0.064358;-0.064358;1.000000;0.560784;0.529412;0.486275
445632.06850250;5696575.60339935;471.42525007;19532.000000;1.000000;1.000000;1.000000;1.000000;-0.097876;0.097876;-0.097876;1.000000;0.305882;0.313725;0.219608
445632.11470230;5696575.39909943;471.37605001;42919.000000;1.000000;1.000000;1.000000;1.000000;-0.140147;0.140147;-0.140147;1.000000;0.678431;0.654902;0.611765
445632.14370163;5696575.80219944;471.41244986;23644.000000;1.000000;1.000000;1.000000;1.000000;-0.032495;0.032495;-0.032495;1.000000;0.364706;0.360784;0.360784
445632.15360077;5696575.36509903;471.37505009;33924.000000;1.000000;1.000000;1.000000;1.000000;-0.113161;0.113161;-0.113161;1.000000;0.545098;0.517647;0.478431
445631.78040131;5696575.60059937;471.37725021;15420.000000;1.000000;1.000000;1.000000;1.000000;-0.033976;0.033976;-0.033976;1.000000;0.243137;0.235294;0.235294
445631.89480026;5696575.53049953;471.44455006;9252.000000;1.000000;1.000000;1.000000;1.000000;0.075827;-0.075827;0.075827;1.000000;0.160784;0.141176;0.121569
445632.24600037;5696575.57309921;471.41664984;48830.000000;1.000000;1.000000;1.000000;1.000000;0.037074;-0.037074;0.037074;1.000000;0.768627;0.74902;0.694118
445632.32850082;5696575.65059956;471.35374977;36237.000000;1.000000;1.000000;1.000000;1.000000;0.079626;-0.079626;0.079626;1.000000;0.572549;0.54902;0.521569
445632.21880157;5696575.61049946;471.42514994;23644.000000;1.000000;1.000000;1.000000;1.000000;0.022269;-0.022269;0.022269;1.000000;0.396078;0.360784;0.294118
